-5.48756 0.0275407 2.18982
-5.49585 0.0269841 2.15189
-5.50152 0.0236705 2.06297
-5.50367 0.0233759 2.04299
-5.50382 0.0230798 2.02299
-5.51609 0.0225557 1.98708
-5.52674 0.0202901 1.90119
-5.52903 0.0187143 1.86222
-5.53026 0.018271 1.83223
-5.53669 0.0164317 1.7753
-5.55032 0.0141979 1.69142
-5.56403 0.011816 1.59755
-5.56325 0.011386 1.56855
-5.56996 0.00899908 1.47462
-5.58214 0.00863775 1.44971
-5.58229 0.0083417 1.42972
-5.58387 0.00621755 1.35375
-5.59192 0.00611976 1.34681
-5.59007 0.00582225 1.3268
-5.59819 0.00559124 1.31086
-5.60133 0.00532698 1.29288
-5.5895 0.00397789 1.26981
-5.59798 0.00305116 1.20688
-5.61722 0.00257651 1.17403
-5.62064 0.00176456 1.11906
-5.62385 0.00135227 1.09109
-5.62798 0.00108874 1.07312
-5.63874 -0.00138412 0.973222
-5.63103 -0.00296713 0.934182
-5.64015 -0.00219753 0.918237
-5.64828 -0.00244335 0.9013
-5.64278 -0.00442457 0.835278
-5.65091 -0.00467038 0.818341
-5.6663 -0.00442931 0.766446
-5.67057 -0.00595917 0.730496
-5.65979 -0.00639645 0.701417
-5.67205 -0.0069058 0.666512
-5.66633 -0.00845775 0.629487
-5.67553 -0.00783617 0.603543
-5.6838 -0.00836324 0.567609
-5.68707 -0.00889395 0.531636
-5.6972 -0.00913831 0.514714
-5.69733 -0.00940475 0.496716
-5.6964 -0.0095387 0.48771
-5.68754 -0.0108264 0.46866
-5.68968 -0.0110914 0.450677
-5.7058 -0.0103167 0.434785
-5.70194 -0.0106008 0.415757
-5.70421 -0.0111323 0.379777
-5.71155 -0.0117933 0.334836
-5.71681 -0.0123077 0.299879
-5.71309 -0.0138582 0.262869
-5.73129 -0.0132301 0.236993
-5.73042 -0.0134973 0.218988
-5.72456 -0.0137681 0.200945
-5.73683 -0.0142922 0.16504
-5.73497 -0.0145601 0.147028
-5.74217 -0.0149547 0.120084
-5.74331 -0.0152204 0.102094
-5.73244 -0.0154949 0.0840139
-5.75071 -0.0160147 0.0481543
-5.74698 -0.0165505 0.0121292
-5.76104 -0.0156588 0.00422081
-5.74819 -0.0169494 -0.0148596
-5.75532 -0.0172108 -0.0328044
-5.75946 -0.0164744 -0.0507866
-5.76786 -0.0172679 -0.104719
-5.76007 -0.0176734 -0.131775
-5.7672 -0.0179347 -0.14972
-5.77175 -0.0190124 -0.22268
-4.81125 0.307011 7.65034
-4.81562 0.304289 7.60141
-4.82197 0.301613 7.55549
-4.84413 0.293364 7.40276
-4.89954 0.268713 6.95148
-4.90305 0.265724 6.88454
-4.91231 0.263212 6.84964
-4.91995 0.258974 6.76575
-4.937 0.251929 6.62697
-4.94524 0.250447 6.59405
-4.96787 0.23928 6.37935
-4.97314 0.237751 6.34341
-4.97147 0.235099 6.29943
-4.99125 0.229588 6.19665
-5.00063 0.227855 6.14674
-4.99995 0.225218 6.10376
-5.00651 0.221142 6.03086
-5.0068 0.219565 5.99188
-5.01404 0.218096 5.95995
-5.0234 0.215392 5.91206
-5.02271 0.212785 5.87109
-5.02796 0.2113 5.83814
-5.0342 0.209846 5.80721
-5.03945 0.208361 5.77426
-5.05191 0.205452 5.71239
-5.04016 0.20397 5.68032
-5.05531 0.20267 5.65945
-5.04865 0.200014 5.61544
-5.06083 0.199667 5.59153
-5.06733 0.196695 5.52561
-5.07752 0.195332 5.50071
-5.07369 0.193989 5.47769
-5.07297 0.192441 5.44071
-5.08018 0.191032 5.41278
-5.0827 0.187012 5.34385
-5.09684 0.186741 5.32495
-5.09612 0.185207 5.28897
-5.09651 0.182438 5.237
-5.11363 0.182213 5.22113
-5.10595 0.179571 5.17811
-5.11216 0.178176 5.15117
-5.12234 0.177828 5.12725
-5.11763 0.175247 5.08825
-5.12991 0.173709 5.05136
-5.13809 0.166405 4.89551
-5.14628 0.165041 4.87059
-5.1595 0.157667 4.70977
-5.1658 0.156065 4.66884
-5.18758 0.151556 4.56605
-5.19654 0.145682 4.43919
-5.19775 0.144268 4.41122
-5.21166 0.139502 4.29138
-5.2228 0.138229 4.27248
-5.22004 0.136768 4.24147
-5.22322 0.1364 4.2165
-5.22543 0.135002 4.18953
-5.24453 0.134823 4.17668
-5.22972 0.133427 4.15058
-5.2393 0.130309 4.07469
-5.25064 0.128636 4.02879
-5.25095 0.12603 3.98783
-5.2591 0.12574 3.96789
-5.25732 0.124309 3.9389
-5.25952 0.122926 3.91293
-5.27264 0.122698 3.89703
-5.27513 0.119738 3.83208
-5.2803 0.119401 3.80912
-5.2787 0.116615 3.75615
-5.28487 0.116294 3.73419
-5.296 0.116035 3.71628
-5.28944 0.113187 3.65927
-5.29687 0.110334 3.60136
-5.309 0.110091 3.58445
-5.30957 0.106981 3.50949
-5.32994 0.10627 3.46064
-5.32018 0.103789 3.4286
-5.32534 0.103482 3.40764
-5.33465 0.101867 3.36573
-5.32878 0.100611 3.3487
-5.33891 0.100367 3.33178
-5.34507 0.10006 3.31083
-5.33946 0.0972863 3.25882
-5.35158 0.0970582 3.24291
-5.34778 0.0956706 3.2169
-5.34688 0.0954774 3.2039
-5.3532 0.0938454 3.16096
-5.35537 0.0935212 3.13898
-5.36251 0.0922451 3.12005
-5.36369 0.0918906 3.09606
-5.36884 0.0915982 3.0761
-5.38815 0.0850509 2.90332
-5.39861 0.0831405 2.84142
-5.40476 0.0818638 2.82248
-5.40535 0.0797093 2.74451
-5.41082 0.0767806 2.68158
-5.41996 0.0765207 2.66365
-5.44931 0.070877 2.48393
-5.45246 0.0705831 2.46396
-5.44481 0.0688965 2.41792
-5.46208 0.0683908 2.38305
-5.45917 0.0672111 2.37105
-5.45963 0.0652934 2.30907
-5.48119 0.0632134 2.23525
-5.4917 0.0612142 2.16735
-5.48205 0.0595262 2.1213
-5.49524 0.0591656 2.0964
-5.50053 0.0586067 2.05844
-5.4927 0.0572605 2.0354
-5.49984 0.0569992 2.01746
-5.49999 0.0557032 1.99747
-5.49814 0.0553909 1.97646
-5.51931 0.0560805 1.95461
-5.52145 0.0548008 1.93564
-5.51263 0.0534539 1.91259
-5.51194 0.0528462 1.87159
-5.52941 0.0509262 1.80874
-5.52657 0.0506131 1.78772
-5.54396 0.0498558 1.73585
-5.54149 0.0468177 1.66587
-5.55874 0.0473414 1.63299
-5.5539 0.0460271 1.61197
-5.56324 0.0453527 1.56604
-5.56652 0.0438073 1.52909
-5.56481 0.0432285 1.49008
-5.58228 0.0423232 1.42821
-5.58257 0.0407608 1.39023
-5.58272 0.0404647 1.37024
-5.58707 0.0387868 1.32429
-5.59597 0.0360165 1.20438
-5.60737 0.0352399 1.15147
-5.6145 0.0349786 1.13352
-5.61641 0.0322031 1.01356
-5.62488 0.0312764 0.950631
-5.64803 0.0280426 0.798832
-5.66377 0.026588 0.699959
-5.67837 0.0254288 0.621075
-5.68239 0.022418 0.485131
-5.70054 0.0201804 0.33328
-5.71667 0.0209403 0.316388
-5.71208 0.0201225 0.261358
-5.71428 0.0197243 0.234377
-5.71642 0.0194593 0.216394
-5.72169 0.0189301 0.180437
-5.72502 0.0182809 0.136465
-5.73729 0.0177568 0.100561
-5.74797 0.0174317 0.0106334
-5.74631 0.0157643 -0.0343607
-5.75344 0.0165028 -0.0523203
-5.77746 0.0155211 -0.187143
-5.7696 0.0142341 -0.206186
-5.77174 0.0139692 -0.224169
-4.98054 0.286907 6.28573
-4.9868 0.285408 6.25179
-4.99963 0.278774 6.14097
-5.00917 0.27473 6.0701
-5.0113 0.27448 6.05311
-5.04129 0.259609 5.79052
-5.04753 0.258139 5.75859
-5.04583 0.255546 5.71861
-5.04711 0.253999 5.68163
-5.05037 0.251484 5.64669
-5.05574 0.249762 5.59775
-5.06452 0.243258 5.4959
-5.07867 0.242958 5.47501
-5.07624 0.238846 5.40004
-5.07935 0.237641 5.38608
-5.098 0.233366 5.29927
-5.10051 0.230376 5.23232
-5.11367 0.229075 5.21144
-5.11194 0.227541 5.17544
-5.11108 0.226259 5.15645
-5.13095 0.220571 5.04167
-5.1374 0.217687 4.98176
-5.15264 0.209271 4.81797
-5.11397 0.267434 5.16787
-5.11707 0.266229 5.15391
-5.13023 0.257974 5.00111
-5.15194 0.253598 4.90732
-5.15044 0.24962 4.84136
-5.17013 0.245272 4.74956
-5.17037 0.242814 4.7186
-5.16687 0.238834 4.65262
-5.17824 0.237102 4.60272
-5.18576 0.233086 4.53383
-5.19141 0.228817 4.44792
-5.1987 0.22726 4.41
-5.24348 0.215799 4.17447
-5.23794 0.211892 4.11348
-5.25279 0.207244 4.00164
-5.26215 0.204555 3.95475
-5.27776 0.194399 3.74099
-5.28303 0.192869 3.70504
-5.29038 0.190194 3.65913
-5.34692 0.170292 3.19079
-5.41535 0.15262 2.7375
-5.42273 0.15087 2.68658
-5.42207 0.148203 2.64161
-5.42638 0.1466 2.60066
-5.43061 0.146158 2.57069
-5.43591 0.144555 2.52975
-5.43723 0.142934 2.48778
-5.44752 0.141379 2.44987
-5.45374 0.140954 2.42092
-5.4549 0.139644 2.39995
-5.46019 0.138071 2.361
-5.46649 0.137483 2.32105
-5.46972 0.136041 2.2911
-5.47187 0.135747 2.27111
-5.46504 0.134401 2.24808
-5.47716 0.134173 2.23217
-5.47931 0.133879 2.21219
-5.47847 0.132567 2.1912
-5.48254 0.132437 2.18223
-5.48568 0.132172 2.16426
-5.49182 0.131896 2.1453
-5.48929 0.128976 2.08332
-5.49044 0.128681 2.06333
-5.49964 0.127288 2.03642
-5.4978 0.126975 2.0154
-5.50194 0.126697 1.99644
-5.51405 0.126484 1.98153
-5.5152 0.126203 1.96254
-5.51336 0.124891 1.94154
-5.5165 0.124612 1.92257
-5.5086 0.123414 1.90952
-5.51373 0.123151 1.89156
-5.52715 0.121346 1.83668
-5.53528 0.1211 1.81975
-5.53642 0.12082 1.80076
-5.52653 0.119606 1.7867
-5.52767 0.119325 1.76771
-5.54392 0.118833 1.73383
-5.5502 0.11829 1.69688
-5.54936 0.116993 1.67689
-5.54843 0.116845 1.66689
-5.55057 0.11658 1.6489
-5.55172 0.115284 1.62893
-5.55884 0.116038 1.61197
-5.55899 0.114757 1.59299
-5.59821 0.107417 1.29835
-5.60612 0.104631 1.17744
-5.61532 0.104253 1.15151
-5.61945 0.104004 1.13454
-5.62921 0.101516 1.03364
-5.63761 0.100722 0.979703
-5.63589 0.0991733 0.942708
-5.64936 0.098265 0.880814
-5.64578 0.0964333 0.824807
-5.65384 0.0963207 0.816868
-5.64699 0.0960344 0.797818
-5.66011 0.095807 0.781918
-5.66479 0.0944629 0.69096
-5.66786 0.0943318 0.681984
-5.67699 0.0940867 0.665054
-5.67612 0.0938196 0.647049
-5.68473 0.0926264 0.566121
-5.68601 0.0910795 0.529148
-5.69613 0.0918499 0.513211
-5.69541 0.0913014 0.476208
-5.70261 0.0909217 0.450264
-5.69475 0.0896347 0.431222
-5.70302 0.0891077 0.395287
-5.70716 0.089844 0.377305
-5.70929 0.0895938 0.360322
-5.7105 0.0881802 0.332348
-5.71862 0.0889343 0.315396
-5.71277 0.0876488 0.296368
-5.72917 0.0878758 0.243481
-5.7253 0.0876064 0.225453
-5.73777 0.0866974 0.163552
-5.73191 0.0864118 0.14451
-5.74706 0.0841572 -0.00836375
-5.7582 0.0848987 -0.0262933
-5.7614 0.0845012 -0.053267
-5.76667 0.0839719 -0.0892244
-5.77294 0.0834434 -0.125174
-5.76808 0.0831733 -0.143209
-5.77428 0.082778 -0.170161
-4.81348 0.477343 7.60383
-4.81983 0.473667 7.55793
-4.82539 0.468575 7.48404
-4.8258 0.464776 7.43009
-4.83805 0.462282 7.39621
-4.8507 0.457018 7.31037
-4.8732 0.443104 7.11272
-4.87754 0.440441 7.06779
-4.87693 0.436685 7.01683
-4.8852 0.434159 6.98093
-4.89646 0.432663 6.94703
-4.8988 0.428999 6.90209
-4.89502 0.426567 6.8731
-4.90231 0.424995 6.83417
-4.90267 0.4213 6.78722
-4.91391 0.419834 6.75532
-4.91722 0.41623 6.7144
-4.92351 0.413657 6.67548
-4.93375 0.412205 6.64457
-4.92304 0.40862 6.60554
-4.93427 0.407184 6.57564
-4.93659 0.404564 6.53369
-4.94286 0.402036 6.49777
-4.95012 0.400523 6.46284
-4.95541 0.397965 6.42491
-4.95475 0.394298 6.37996
-4.95492 0.392973 6.35798
-4.96316 0.391505 6.32606
-4.97141 0.389022 6.29315
-4.97371 0.386432 6.2532
-4.97997 0.383933 6.21928
-4.98028 0.381327 6.17831
-4.98654 0.378813 6.14339
-4.99561 0.378686 6.13446
-4.99494 0.376049 6.09149
-5.00316 0.374611 6.06157
-5.0015 0.370959 6.01761
-5.0127 0.369567 5.99071
-5.01597 0.368037 5.95475
-5.01924 0.365506 5.91881
-5.01839 0.36421 5.89882
-5.01969 0.361633 5.85986
-5.02395 0.359133 5.82592
-5.03415 0.357741 5.79902
-5.04038 0.356286 5.76808
-5.04266 0.353755 5.73213
-5.03898 0.350116 5.68915
-5.04804 0.350004 5.68122
-5.05131 0.348488 5.64626
-5.05952 0.34708 5.61834
-5.06475 0.344625 5.58741
-5.06801 0.343124 5.55345
-5.07324 0.340669 5.52253
-5.07266 0.336854 5.46757
-5.07987 0.335445 5.43964
-5.08312 0.333959 5.40668
-5.08538 0.331457 5.37273
-5.10403 0.327198 5.28692
-5.10244 0.323397 5.23296
-5.10766 0.321972 5.20402
-5.11214 0.318028 5.1401
-5.12034 0.316634 5.11318
-5.12767 0.314003 5.07027
-5.1309 0.311561 5.04032
-5.13735 0.308677 4.98041
-5.14801 0.303383 4.89255
-5.15012 0.302177 4.87859
-5.15831 0.301813 4.85365
-5.15557 0.299307 4.81966
-5.16177 0.297912 4.79273
-5.1682 0.294073 4.73582
-5.17574 0.290028 4.66493
-5.17697 0.28857 4.63396
-5.18438 0.285775 4.58005
-5.19057 0.28441 4.55511
-5.18915 0.279269 4.47816
-5.20251 0.277568 4.43028
-5.19776 0.275076 4.39728
-5.21543 0.270786 4.30946
-5.21465 0.268342 4.27949
-5.2258 0.268069 4.26058
-5.22723 0.265226 4.20362
-5.22347 0.262749 4.17162
-5.25266 0.255446 4.01493
-5.24988 0.253 3.98494
-5.2682 0.244423 3.81018
-5.28092 0.239026 3.71535
-5.29909 0.231744 3.56057
-5.32755 0.222908 3.36789
-5.35722 0.212643 3.14623
-5.37348 0.205197 2.98044
-5.37997 0.202239 2.91553
-5.43502 0.186298 2.51212
-5.51636 0.160875 1.80501
-5.52349 0.160628 1.78807
-5.52478 0.160052 1.74908
-5.53313 0.158377 1.70316
-5.53328 0.158081 1.68316
-5.53856 0.156537 1.64622
-5.55596 0.155765 1.59336
-5.55532 0.154054 1.54537
-5.56374 0.152231 1.48945
-5.57108 0.15157 1.44451
-5.58086 0.149052 1.34161
-5.58427 0.14724 1.28665
-5.60167 0.146468 1.23379
-5.59404 0.144737 1.18475
-5.61278 0.142299 1.08692
-5.62154 0.13981 0.986004
-5.64169 0.136559 0.833183
-5.65209 0.135782 0.780265
-5.65443 0.135117 0.735287
-5.67499 0.131067 0.528473
-5.73135 0.125489 0.0819185
-5.61527 0.17326 1.15148
-5.63778 0.168315 0.9517
-5.65893 0.166065 0.798871
-5.73573 0.155688 0.162516
-5.73506 0.155022 0.117514
-5.74734 0.154497 0.0816095
-5.77824 0.152773 -0.171167
-5.77838 0.152507 -0.189165
-4.94359 0.50144 6.52431
-4.95515 0.496354 6.45046
-5.03718 0.44757 5.78671
-5.04766 0.44363 5.72284
-5.06608 0.430876 5.53614
-5.08277 0.424541 5.44535
-5.08601 0.422055 5.4124
-5.0966 0.416908 5.33455
-5.1021 0.41295 5.26964
-5.11266 0.407847 5.19478
-5.11789 0.405407 5.16486
-5.14036 0.392537 4.97019
-5.14384 0.388607 4.90726
-5.15426 0.384801 4.85239
-5.15648 0.383358 4.82242
-5.16181 0.380725 4.7795
-5.18109 0.369238 4.61079
-5.19359 0.36527 4.54493
-5.19602 0.361413 4.487
-5.20773 0.35603 4.39316
-5.22108 0.345405 4.21539
-5.2713 0.329089 3.92197
-5.30123 0.314336 3.66738
-5.3064 0.313 3.64443
-5.30967 0.311469 3.60848
-5.32138 0.306101 3.51563
-5.3309 0.302086 3.44675
-5.33218 0.300539 3.40978
-5.34513 0.293684 3.28396
-5.36322 0.286565 3.14018
-5.3644 0.285211 3.11621
-5.37154 0.284934 3.09726
-5.37371 0.28361 3.0753
-5.37886 0.282318 3.05535
-5.38518 0.280686 3.01242
-5.38328 0.279492 2.99942
-5.38679 0.276503 2.93248
-5.39691 0.276258 2.91556
-5.40232 0.273463 2.86163
-5.40864 0.271846 2.8197
-5.40981 0.270521 2.79772
-5.41396 0.269228 2.77777
-5.41114 0.267871 2.75377
-5.41347 0.266221 2.7098
-5.42384 0.264503 2.6609
-5.43231 0.261591 2.599
-5.44268 0.259873 2.5501
-5.45867 0.253931 2.41829
-5.45234 0.249623 2.33029
-5.46087 0.246593 2.26039
-5.47597 0.246412 2.2475
-5.47898 0.24043 2.1136
-5.49454 0.238331 2.03873
-5.5036 0.238234 2.0318
-5.49707 0.235296 1.96879
-5.50734 0.234771 1.93287
-5.52896 0.232572 1.85105
-5.51914 0.23021 1.82701
-5.52926 0.23098 1.81107
-5.53547 0.229585 1.78414
-5.53023 0.225086 1.68315
-5.55149 0.220614 1.51535
-5.57466 0.216336 1.36057
-5.74004 0.190052 -0.0159852
-4.91491 0.566626 6.74016
-4.92416 0.564144 6.70726
-4.95607 0.544438 6.45576
-4.9564 0.540787 6.41181
-4.96992 0.53579 6.34397
-4.98292 0.525846 6.2122
-5.00216 0.513432 6.04851
-5.00939 0.510979 6.01759
-5.04559 0.489713 5.72814
-5.04715 0.483619 5.65423
-5.05536 0.48121 5.62633
-5.06074 0.478474 5.5764
-5.06498 0.476003 5.54446
-5.0791 0.464823 5.39672
-5.08532 0.462398 5.36779
-5.09451 0.461035 5.34288
-5.10349 0.452117 5.21306
-5.10561 0.450882 5.19709
-5.10884 0.44844 5.16715
-5.11505 0.44703 5.13921
-5.11432 0.444512 5.10424
-5.12176 0.439644 5.04536
-5.12499 0.438202 5.0154
-5.13715 0.4369 4.99451
-5.12735 0.434508 4.96847
-5.13951 0.433206 4.94758
-5.14 0.428245 4.88264
-5.14917 0.426911 4.85973
-5.14643 0.424405 4.82574
-5.15561 0.423057 4.80183
-5.15771 0.422866 4.78884
-5.15795 0.420392 4.75688
-5.1701 0.419105 4.73699
-5.17255 0.415219 4.67705
-5.18295 0.412457 4.62517
-5.17215 0.409064 4.59913
-5.17955 0.40627 4.54522
-5.19292 0.403569 4.49735
-5.1991 0.402218 4.47342
-5.19944 0.398553 4.42847
-5.19966 0.396124 4.3995
-5.20804 0.393375 4.3486
-5.21323 0.392008 4.32366
-5.21742 0.390641 4.2987
-5.22162 0.38926 4.27275
-5.21974 0.387021 4.25677
-5.21697 0.385561 4.22577
-5.23109 0.385334 4.20987
-5.22436 0.381811 4.17487
-5.23748 0.381584 4.15897
-5.23173 0.379091 4.12596
-5.24586 0.37885 4.10907
-5.24397 0.377626 4.09407
-5.24816 0.376259 4.06912
-5.2414 0.373781 4.0371
-5.25255 0.372493 4.0172
-5.25316 0.367309 3.93727
-5.26121 0.367211 3.93033
-5.27037 0.366907 3.9094
-5.2656 0.364459 3.8794
-5.27773 0.364202 3.86149
-5.27494 0.361785 3.8335
-5.27216 0.359354 3.80451
-5.28757 0.357566 3.75065
-5.28777 0.355181 3.72468
-5.29095 0.353828 3.70072
-5.29511 0.352505 3.67877
-5.29531 0.351121 3.65279
-5.2965 0.349751 3.62781
-5.30773 0.348315 3.59791
-5.30394 0.345898 3.56992
-5.3111 0.345593 3.54897
-5.3083 0.343191 3.52198
-5.31744 0.342916 3.50305
-5.31465 0.340515 3.47606
-5.3218 0.340224 3.45612
-5.31891 0.339014 3.44211
-5.3181 0.337629 3.41613
-5.3324 0.336062 3.37725
-5.32761 0.333644 3.34925
-5.34371 0.334463 3.33635
-5.33892 0.332045 3.30835
-5.34417 0.33056 3.27541
-5.34136 0.328174 3.24942
-5.33955 0.326802 3.22442
-5.3457 0.325511 3.20448
-5.34986 0.325203 3.18352
-5.34905 0.323832 3.15853
-5.35212 0.322701 3.14957
-5.35827 0.322409 3.12961
-5.37039 0.322181 3.11371
-5.3626 0.319761 3.08568
-5.36775 0.319469 3.06572
-5.36893 0.318114 3.04175
-5.37906 0.31787 3.02482
-5.37227 0.315465 2.9978
-5.37533 0.315334 2.98883
-5.38049 0.314042 2.96888
-5.37767 0.31267 2.94388
-5.38083 0.311361 2.92292
-5.382 0.310037 2.90094
-5.38715 0.309744 2.88098
-5.3913 0.308451 2.86103
-5.39438 0.308305 2.85106
-5.40251 0.308045 2.83312
-5.39787 0.304346 2.78613
-5.39704 0.303005 2.76314
-5.40717 0.30276 2.74622
-5.41829 0.303531 2.73029
-5.41174 0.299653 2.67129
-5.41887 0.299392 2.65335
-5.41306 0.297018 2.62833
-5.42219 0.296773 2.6114
-5.42932 0.296511 2.59346
-5.43041 0.296349 2.58247
-5.43156 0.295054 2.56249
-5.43372 0.293745 2.54153
-5.43189 0.292403 2.51853
-5.444 0.29219 2.50362
-5.4352 0.290798 2.47757
-5.4484 0.290423 2.45167
-5.44457 0.28908 2.42866
-5.45668 0.288866 2.41375
-5.45186 0.287507 2.38973
-5.45501 0.286229 2.37077
-5.46131 0.284641 2.33084
-5.46246 0.283346 2.31086
-5.46951 0.284247 2.3039
-5.47282 0.282642 2.26295
-5.47797 0.281365 2.244
-5.47413 0.280036 2.22199
-5.47667 0.276987 2.15104
-5.48978 0.276775 2.13614
-5.48196 0.275414 2.1121
-5.49009 0.275168 2.09516
-5.49323 0.274889 2.07619
-5.49538 0.273609 2.05722
-5.48963 0.272116 2.02419
-5.50788 0.271641 1.99133
-5.49507 0.269247 1.96527
-5.50021 0.268984 1.94731
-5.50734 0.268737 1.93037
-5.50641 0.268589 1.92036
-5.50258 0.26626 1.89836
-5.52182 0.2668 1.86649
-5.51698 0.265471 1.84447
-5.51928 0.263896 1.80551
-5.51843 0.262599 1.78552
-5.53406 0.260381 1.70266
-5.53443 0.258656 1.65368
-5.5387 0.257111 1.61673
-5.55282 0.257899 1.60182
-5.55097 0.256602 1.58183
-5.54912 0.255305 1.56183
-5.55326 0.255041 1.54386
-5.56459 0.254398 1.49995
-5.56673 0.254118 1.48097
-5.56952 0.24958 1.37704
-5.65449 0.23387 0.717823
-5.6557 0.233456 0.689834
-5.65584 0.233189 0.671837
-5.66757 0.230747 0.573948
-5.71547 0.226081 0.189325
-5.73648 0.225112 0.0554789
-5.75036 0.223389 -0.0614072
-4.81801 0.68402 7.51279
-4.90092 0.62849 6.86615
-4.9082 0.625948 6.82924
-4.93556 0.59935 6.5178
-4.94777 0.596959 6.49092
-4.94514 0.593232 6.44195
-4.94531 0.590907 6.41998
-4.95256 0.588423 6.38707
-4.96675 0.587049 6.36119
-4.97005 0.583474 6.32226
-4.9674 0.579791 6.27629
-4.97497 0.572672 6.20045
-4.97414 0.571346 6.17846
-4.98634 0.568955 6.15158
-4.9817 0.565256 6.10459
-4.98597 0.561726 6.06867
-5.00145 0.557805 6.00584
-5.00472 0.554275 5.96991
-5.00091 0.551902 5.94491
-5.00914 0.550464 5.91499
-5.01043 0.546888 5.87605
-5.02955 0.546665 5.86019
-5.02093 0.541933 5.81119
-5.0242 0.539403 5.77525
-5.03539 0.537041 5.75037
-5.03186 0.532121 5.6884
-5.03511 0.52962 5.65446
-5.0463 0.528258 5.62956
-5.04658 0.52471 5.59261
-5.06273 0.524441 5.57373
-5.05309 0.519723 5.52572
-5.0562 0.518504 5.51076
-5.06243 0.516064 5.48084
-5.0756 0.515748 5.45894
-5.07316 0.508636 5.38402
-5.08163 0.504725 5.32213
-5.09915 0.499716 5.25333
-5.09248 0.496075 5.21033
-5.11059 0.495881 5.19647
-5.11382 0.493424 5.16552
-5.11335 0.487388 5.0956
-5.11696 0.481192 5.01471
-5.11919 0.478749 4.98475
-5.13482 0.473532 4.90194
-5.1456 0.466015 4.79912
-4.79496 0.75398 7.6456
-4.79715 0.751612 7.62065
-4.80152 0.74689 7.57175
-4.8128 0.74435 7.53487
-4.80827 0.738444 7.47391
-4.82547 0.736057 7.44707
-4.82686 0.731289 7.39515
-4.86238 0.700401 7.06383
-4.87851 0.687208 6.91512
-4.88679 0.684666 6.87822
-4.89505 0.681154 6.84333
-4.91776 0.660841 6.61877
-4.92701 0.658359 6.58587
-4.94336 0.642722 6.4072
-4.97546 0.618645 6.13076
-4.98699 0.613633 6.06191
-5.00093 0.602808 5.93816
-5.01767 0.594369 5.8404
-5.03511 0.57857 5.65073
-5.18507 0.487155 4.46905
-4.801 0.81083 7.63481
-4.80437 0.806108 7.5859
-4.8127 0.801477 7.54302
-4.80995 0.797987 7.51005
-4.81431 0.793295 7.46314
-4.81866 0.788602 7.41624
-4.82894 0.786062 7.37935
-4.83331 0.781355 7.33144
-4.83172 0.77554 7.27651
-4.86312 0.75784 7.09298
-4.86449 0.753116 7.04406
-4.88068 0.751757 7.0192
-4.88223 0.744678 6.9463
-4.89186 0.736457 6.86349
-4.89024 0.731716 6.81354
-4.89752 0.728173 6.77664
-4.90813 0.720997 6.69681
-4.92319 0.707936 6.5571
-4.93574 0.700865 6.48429
-4.93608 0.697199 6.43934
-4.95934 0.681759 6.27372
-4.98683 0.664879 6.07815
-4.99468 0.654212 5.96535
-5.01811 0.637432 5.77675
-5.02435 0.634978 5.74583
-5.05197 0.61683 5.53228
-5.06483 0.607153 5.4185
-5.07106 0.604713 5.38858
-5.08092 0.595048 5.27578
-5.10279 0.586347 5.16006
-5.10542 0.579135 5.07818
-4.8095 0.864779 7.56306
-4.86071 0.821557 7.14103
-5.0086 0.70832 5.97166
-5.01316 0.701213 5.89679
-5.02238 0.698806 5.86889
-5.03188 0.692821 5.80204
-5.04676 0.682115 5.6863
-5.06912 0.666482 5.50767
-5.11819 0.630524 5.10352
-5.13941 0.617156 4.94285
-5.1389 0.611194 4.87793
-5.14335 0.606309 4.81802
-5.16381 0.602436 4.75823
-5.15336 0.594348 4.68526
-5.16574 0.590617 4.6354
-5.17216 0.586793 4.5795
-5.18343 0.584283 4.54462
-5.19259 0.582964 4.5227
-5.19747 0.573266 4.40787
-5.19459 0.571012 4.39087
-5.202 0.567233 4.33798
-5.21733 0.564593 4.29413
-5.21556 0.562133 4.26315
-5.215 0.556289 4.20622
-5.231 0.558285 4.20531
-5.23305 0.546244 4.06749
-5.23535 0.542654 4.02755
-5.26242 0.533587 3.88687
-5.25557 0.531286 3.86685
-5.28161 0.522262 3.72916
-5.28171 0.52107 3.71618
-5.29085 0.520795 3.69725
-5.28608 0.517348 3.66726
-5.28628 0.514963 3.64129
-5.29939 0.51575 3.62638
-5.30356 0.513413 3.60344
-5.30475 0.512044 3.57847
-5.29788 0.509787 3.56144
-5.30405 0.508466 3.53951
-5.30622 0.507127 3.51654
-5.30641 0.504757 3.49157
-5.32152 0.505561 3.47767
-5.31574 0.502113 3.44768
-5.32587 0.501868 3.43075
-5.32317 0.499289 3.39177
-5.32633 0.496966 3.36982
-5.32951 0.495628 3.34686
-5.33666 0.495337 3.32692
-5.34281 0.494045 3.30698
-5.34199 0.491689 3.28301
-5.33611 0.490448 3.26698
-5.3363 0.488078 3.24201
-5.33847 0.486754 3.22004
-5.34661 0.486479 3.20111
-5.34878 0.485155 3.17914
-5.35493 0.483863 3.1592
-5.35013 0.48146 3.1322
-5.35927 0.4812 3.11427
-5.36334 0.48107 3.1053
-5.35654 0.477665 3.0783
-5.37066 0.478454 3.06339
-5.37083 0.477113 3.04041
-5.36603 0.47471 3.0134
-5.37019 0.473402 2.99245
-5.3833 0.47319 2.97755
-5.36945 0.470898 2.95848
-5.37659 0.469622 2.93955
-5.37677 0.468282 2.91656
-5.38789 0.468053 2.90065
-5.39105 0.466745 2.87969
-5.38724 0.465372 2.85468
-5.38741 0.463032 2.83171
-5.39147 0.462916 2.82374
-5.39264 0.461591 2.80177
-5.3938 0.460266 2.77979
-5.40492 0.460038 2.76388
-5.39613 0.457632 2.73684
-5.40825 0.457404 2.72094
-5.40551 0.454883 2.68595
-5.41182 0.452296 2.64603
-5.42111 0.450725 2.60712
-5.42343 0.448105 2.56517
-5.42268 0.446616 2.53218
-5.43113 0.442734 2.47229
-5.44126 0.44349 2.45535
-5.4444 0.442211 2.43639
-5.44663 0.440753 2.40543
-5.44481 0.438412 2.38245
-5.44895 0.438148 2.36448
-5.4521 0.436854 2.34452
-5.4564 0.435265 2.30457
-5.46062 0.433824 2.27462
-5.46093 0.431218 2.23365
-5.46508 0.429939 2.2147
-5.46723 0.429645 2.19472
-5.47934 0.429432 2.17981
-5.47958 0.427973 2.14883
-5.47475 0.425629 2.12582
-5.4749 0.424333 2.10584
-5.48617 0.423808 2.06993
-5.49131 0.423545 2.05197
-5.49346 0.422251 2.032
-5.49652 0.422135 2.02403
-5.50066 0.421856 2.00506
-5.50381 0.420577 1.9861
-5.49997 0.419249 1.96409
-5.50012 0.417953 1.9441
-5.51024 0.417723 1.92818
-5.51339 0.417444 1.90921
-5.51147 0.41628 1.89821
-5.50364 0.414934 1.87517
-5.51177 0.414703 1.85923
-5.51292 0.413408 1.83925
-5.52004 0.413161 1.82231
-5.5172 0.411848 1.8013
-5.52732 0.411619 1.78538
-5.53246 0.411356 1.76742
-5.52884 0.408613 1.71743
-5.53596 0.408366 1.70048
-5.52714 0.40602 1.67745
-5.54025 0.406807 1.66253
-5.54439 0.406543 1.64457
-5.55388 0.404588 1.57966
-5.55816 0.403043 1.54271
-5.54932 0.400711 1.52067
-5.5494 0.400563 1.51067
-5.55553 0.400316 1.49372
-5.56081 0.398772 1.45678
-5.56095 0.397491 1.4378
-5.56124 0.395929 1.39982
-5.5817 0.39604 1.33896
-5.57385 0.393724 1.31793
-5.57899 0.393461 1.29997
-5.5911 0.394247 1.28505
-5.59146 0.392552 1.23807
-5.58775 0.389972 1.19908
-5.59986 0.390758 1.18415
-5.60301 0.390479 1.16518
-5.59908 0.389329 1.15516
-5.60222 0.389064 1.13719
-5.6025 0.387517 1.10021
-5.61376 0.387007 1.0653
-5.61225 0.384043 1.00032
-5.62038 0.384797 0.983368
-5.62265 0.383266 0.947403
-5.63377 0.384037 0.931473
-5.63391 0.383756 0.912476
-5.63398 0.382623 0.903492
-5.64053 0.381546 0.830547
-5.63867 0.380279 0.81255
-5.63781 0.378997 0.793559
-5.64287 0.379882 0.785583
-5.649 0.379635 0.768631
-5.64928 0.378087 0.731651
-5.66467 0.378328 0.679756
-5.66175 0.378178 0.669735
-5.65802 0.376627 0.632725
-5.65916 0.375362 0.614749
-5.6603 0.375096 0.596759
-5.67242 0.375853 0.579837
-5.67717 0.373391 0.480896
-5.68343 0.372877 0.445946
-5.68158 0.372594 0.426933
-5.68264 0.372462 0.417942
-5.68904 0.371682 0.364995
-5.70144 0.371906 0.312077
-5.69951 0.370771 0.303078
-5.70565 0.371509 0.285111
-5.70378 0.370241 0.267113
-5.70705 0.36971 0.231141
-5.71566 0.369517 0.150198
-5.73079 0.370276 0.133298
-5.71993 0.368987 0.114233
-5.7304 0.368077 0.0523163
-5.74428 0.367354 -0.0645845
-5.74955 0.367825 -0.100557
-5.74969 0.367558 -0.118554
-5.75182 0.367293 -0.136537
-4.78581 0.930043 7.64893
-4.80146 0.920782 7.56317
-4.80683 0.915076 7.51529
-4.81217 0.910414 7.47039
-4.82048 0.906813 7.4295
-4.81475 0.902276 7.39352
-4.82643 0.892967 7.30474
-4.8519 0.872115 7.11121
-4.86551 0.863926 7.03042
-4.86885 0.859263 6.98551
-4.87417 0.854645 6.94361
-4.87948 0.851057 6.9037
-4.88776 0.847516 6.86681
-4.88498 0.844085 6.83784
-4.89028 0.839497 6.79794
-4.89989 0.831305 6.71712
-4.90816 0.827793 6.68223
-4.91148 0.824174 6.6403
-4.91777 0.819616 6.60241
-4.91793 0.817291 6.58045
-4.9252 0.814778 6.54553
-4.93083 0.805554 6.4627
-4.93908 0.803071 6.4298
-4.94535 0.799543 6.39389
-4.95162 0.79603 6.35898
-4.94981 0.792659 6.33402
-4.95112 0.788053 6.29309
-4.9564 0.784509 6.25618
-4.96761 0.783103 6.22828
-4.96991 0.778527 6.18936
-4.97319 0.774967 6.15143
-4.97747 0.771438 6.11551
-4.97763 0.769127 6.09454
-4.98716 0.762098 6.02471
-4.9944 0.75963 5.99279
-4.99768 0.756085 5.95587
-5.00689 0.753677 5.92797
-5.00423 0.748024 5.88403
-5.0116 0.744289 5.83413
-5.02012 0.737289 5.76629
-5.03528 0.735989 5.74542
-5.03161 0.73135 5.70245
-5.03684 0.728895 5.67153
-5.04095 0.727691 5.65757
-5.03826 0.723068 5.61561
-5.0435 0.720613 5.58469
-5.05171 0.718204 5.55678
-5.05298 0.714687 5.52184
-5.0602 0.712248 5.49192
-5.06245 0.708762 5.45899
-5.06981 0.704072 5.41211
-5.07603 0.701647 5.38318
-5.07134 0.697037 5.34221
-5.0845 0.696735 5.32131
-5.08675 0.693249 5.28838
-5.08801 0.689746 5.25443
-5.09336 0.68507 5.20854
-5.09884 0.679126 5.14466
-5.10505 0.677716 5.11672
-5.10927 0.67429 5.0878
-5.11152 0.671818 5.05585
-5.11288 0.667109 5.00792
-5.12529 0.662319 4.95408
-5.13992 0.656086 4.87027
-5.14053 0.647903 4.79038
-5.14771 0.646553 4.76646
-5.15514 0.641729 4.71057
-5.1733 0.628463 4.55689
-5.17453 0.62502 4.52694
-5.17575 0.622592 4.49798
-5.18789 0.62232 4.47908
-5.19906 0.609048 4.32534
-5.20424 0.606697 4.30141
-5.20954 0.604124 4.26248
-5.20876 0.601679 4.23251
-5.24179 0.579751 3.96604
-5.25025 0.575855 3.90515
-5.25761 0.572149 3.85726
-5.26079 0.569797 3.83331
-5.29061 0.552266 3.59377
-5.3503 0.519086 3.10664
-5.37684 0.506086 2.903
-5.3967 0.499427 2.79024
-5.40675 0.490362 2.65043
-5.41588 0.490117 2.6335
-5.41306 0.48876 2.60949
-5.4216 0.484715 2.53861
-5.44075 0.476479 2.38685
-5.4419 0.475183 2.36688
-5.44804 0.473907 2.34794
-5.45242 0.47117 2.29801
-5.46386 0.469319 2.24011
-5.46302 0.468008 2.21912
-5.46908 0.467894 2.21117
-5.47122 0.466614 2.1922
-5.46939 0.465287 2.1702
-5.47552 0.465025 2.15225
-5.47269 0.462697 2.13026
-5.49163 0.457875 2.00646
-5.50075 0.45763 1.98953
-5.49094 0.455268 1.96549
-5.49815 0.453859 1.93756
-5.51301 0.449182 1.82372
-5.52235 0.447507 1.77781
-5.53377 0.445701 1.72292
-5.53757 0.440135 1.61701
-5.53986 0.438574 1.57905
-5.54507 0.438163 1.55109
-5.5492 0.4379 1.53312
-5.55433 0.437652 1.51616
-5.55377 0.433793 1.45821
-5.56012 0.433116 1.41226
-5.57173 0.429911 1.33038
-5.57388 0.429631 1.3114
-5.59846 0.422539 1.10166
-5.62809 0.417363 0.885931
-5.63522 0.417116 0.868986
-5.63635 0.41685 0.850996
-5.63656 0.415451 0.824015
-5.64768 0.416207 0.807085
-5.63884 0.414905 0.787035
-5.64211 0.413374 0.751077
-5.65523 0.415146 0.735147
-5.65436 0.413879 0.717157
-5.64645 0.412711 0.706113
-5.65457 0.413465 0.689161
-5.65171 0.412196 0.671156
-5.65485 0.411932 0.653181
-5.65912 0.411402 0.617216
-5.66132 0.411004 0.590235
-5.66546 0.41074 0.572267
-5.67272 0.410227 0.537325
-5.67385 0.409962 0.519335
-5.67199 0.408694 0.501337
-5.67913 0.409433 0.483377
-5.68019 0.4093 0.474386
-5.68632 0.409053 0.457434
-5.68459 0.408518 0.421424
-5.68673 0.408253 0.403441
-5.689 0.406722 0.367476
-5.69407 0.407592 0.3585
-5.6942 0.407326 0.340502
-5.69634 0.407061 0.32252
-5.69847 0.406796 0.304537
-5.71159 0.407568 0.288623
-5.70394 0.405882 0.242584
-5.71208 0.405621 0.224646
-5.70921 0.405353 0.206626
-5.71335 0.405089 0.188659
-5.71248 0.404822 0.170654
-5.71762 0.404559 0.152694
-5.71675 0.404292 0.134689
-5.72588 0.405047 0.117744
-5.72895 0.404916 0.108768
-5.73208 0.404651 0.0907929
-5.73722 0.405389 0.0728183
-5.73236 0.404119 0.0547979
-5.72949 0.40385 0.0367778
-5.73376 0.40332 0.000812896
-5.73897 0.402924 -0.0261458
-5.7451 0.403662 -0.0441129
-5.74424 0.403395 -0.062118
-5.74637 0.40313 -0.0801005
-5.74751 0.402864 -0.0980905
-5.75564 0.403603 -0.116043
-5.75885 0.403206 -0.143016
-5.75898 0.402939 -0.161014
-5.75825 0.402406 -0.197016
-4.85649 0.929853 7.1604
-4.98948 0.818367 6.1099
-5.07443 0.753766 5.45841
-5.10122 0.731292 5.22291
-5.12694 0.709952 4.99639
-5.14393 0.698025 4.86568
-5.15433 0.693249 4.81282
-5.15755 0.690822 4.78388
-5.16299 0.684967 4.726
-5.1693 0.681365 4.68509
-5.1735 0.678969 4.65815
-5.17373 0.676525 4.62819
-5.17993 0.674144 4.60227
-5.18016 0.671701 4.5723
-5.19188 0.663303 4.4775
-5.19806 0.660952 4.45358
-5.20027 0.65854 4.42563
-5.20866 0.654776 4.37374
-5.20999 0.650141 4.33081
-5.2112 0.647727 4.30285
-5.21341 0.645329 4.2759
-5.22156 0.644024 4.25498
-5.22377 0.641626 4.22803
-5.22895 0.640275 4.20408
-5.23413 0.637923 4.18015
-5.23027 0.636654 4.16214
-5.2265 0.633193 4.13116
-5.23069 0.630841 4.10722
-5.24303 0.628169 4.06135
-5.24026 0.624723 4.03137
-5.2514 0.624464 4.01346
-5.24753 0.62221 3.99646
-5.25171 0.620858 3.97251
-5.25589 0.618506 3.94857
-5.25709 0.616122 3.92261
-5.26027 0.614769 3.89865
-5.26743 0.613448 3.87672
-5.27162 0.611096 3.85279
-5.26675 0.609841 3.83577
-5.2749 0.608551 3.81584
-5.27808 0.607198 3.79188
-5.27728 0.603798 3.76493
-5.28345 0.602477 3.74299
-5.28165 0.600076 3.71601
-5.28483 0.598723 3.69205
-5.28801 0.596385 3.6691
-5.29109 0.596224 3.65813
-5.29029 0.593839 3.63215
-5.29744 0.592548 3.61222
-5.29068 0.589084 3.58122
-5.3028 0.588841 3.56431
-5.30399 0.586487 3.54035
-5.30617 0.585133 3.51639
-5.30228 0.583908 3.50137
-5.30744 0.582601 3.48043
-5.30763 0.580231 3.45546
-5.30981 0.577878 3.43151
-5.32193 0.57765 3.4156
-5.32212 0.57628 3.39062
-5.32728 0.574973 3.36967
-5.31941 0.572716 3.35265
-5.32258 0.571377 3.32969
-5.33073 0.570102 3.31076
-5.33488 0.568794 3.28981
-5.33805 0.567471 3.26785
-5.33923 0.565131 3.24489
-5.34041 0.563777 3.22092
-5.33751 0.562568 3.20691
-5.34664 0.561323 3.19
-5.34982 0.559984 3.16704
-5.34402 0.557581 3.14003
-5.35614 0.557352 3.12412
-5.35631 0.556012 3.10114
-5.35975 0.551171 3.04423
-5.3629 0.549863 3.02327
-5.36507 0.548538 3.0013
-5.37022 0.547246 2.98135
-5.3684 0.545889 2.95736
-5.38351 0.545693 2.94347
-5.37871 0.543305 2.91747
-5.3748 0.54211 2.90445
-5.38195 0.540834 2.88552
-5.38511 0.539525 2.86457
-5.38229 0.538168 2.84056
-5.39739 0.537971 2.82668
-5.39358 0.535599 2.80168
-5.39276 0.534258 2.77869
-5.39881 0.534158 2.77174
-5.395 0.531786 2.74674
-5.40645 0.528906 2.68686
-5.40463 0.526564 2.66388
-5.41973 0.527368 2.64998
-5.41483 0.526172 2.63696
-5.41201 0.523814 2.61297
-5.41715 0.523537 2.59401
-5.41831 0.522227 2.57303
-5.42644 0.521981 2.55609
-5.42661 0.519655 2.53413
-5.42877 0.518346 2.51316
-5.43797 0.517953 2.48623
-5.43415 0.51561 2.46323
-5.4363 0.514301 2.44227
-5.43347 0.512973 2.42026
-5.44261 0.512713 2.40233
-5.44177 0.510402 2.38136
-5.44982 0.511304 2.3744
-5.444 0.508944 2.35039
-5.45213 0.508699 2.33345
-5.45627 0.50842 2.31449
-5.46141 0.507143 2.29554
-5.4526 0.504781 2.27151
-5.4677 0.505585 2.25761
-5.46188 0.503225 2.23359
-5.47093 0.504143 2.22765
-5.46112 0.500766 2.20262
-5.46825 0.500505 2.18468
-5.4694 0.499209 2.1647
-5.46756 0.497897 2.1437
-5.48267 0.498701 2.1298
-5.4888 0.498439 2.11185
-5.47592 0.496193 2.09578
-5.47807 0.494913 2.07682
-5.4852 0.494652 2.05887
-5.49432 0.494421 2.04294
-5.48651 0.49206 2.01892
-5.49563 0.49183 2.00299
-5.49778 0.491536 1.983
-5.49785 0.490388 1.97302
-5.49202 0.488058 1.95101
-5.50613 0.488846 1.9361
-5.49831 0.4865 1.91307
-5.50544 0.486253 1.89613
-5.51471 0.485727 1.8602
-5.50681 0.483529 1.84717
-5.51308 0.481986 1.81024
-5.51623 0.481707 1.79126
-5.51837 0.481427 1.77228
-5.52288 0.477438 1.70536
-5.534 0.478209 1.68943
-5.53315 0.476913 1.66944
-5.5293 0.475614 1.64943
-5.53544 0.475352 1.63148
-5.53757 0.474087 1.61351
-5.53566 0.472923 1.60251
-5.54493 0.472396 1.56658
-5.55135 0.470572 1.51065
-5.54949 0.469289 1.49165
-5.55064 0.468009 1.47268
-5.5634 0.464523 1.37181
-5.56761 0.464111 1.34385
-5.57188 0.462581 1.3079
-5.58015 0.462054 1.27196
-5.58663 0.459111 1.20805
-5.58891 0.457565 1.17108
-5.59632 0.456771 1.11714
-5.60038 0.456656 1.10917
-4.77973 1.03006 7.6494
-4.79892 1.0287 7.62456
-4.80351 1.01957 7.54772
-4.80293 1.01274 7.49181
-4.8152 1.00923 7.45695
-4.81362 1.0024 7.40103
-4.82786 0.998934 7.36919
-4.85572 0.971344 7.12577
-4.86005 0.965696 7.08188
-4.86735 0.96211 7.04199
-4.87384 0.954167 6.97814
-4.87422 0.948428 6.92822
-4.8825 0.944886 6.89133
-4.88583 0.939252 6.84844
-4.89905 0.936833 6.81957
-4.89347 0.93 6.76362
-4.90523 0.918529 6.66386
-4.91682 0.910398 6.58706
-4.92739 0.902281 6.51125
-4.94242 0.88728 6.37557
-4.9477 0.883751 6.33965
-4.95825 0.875678 6.26684
-4.96896 0.86631 6.17405
-4.97027 0.861704 6.13312
-4.9775 0.858251 6.10222
-4.9798 0.853675 6.0633
-4.98506 0.850161 6.02839
-5.07461 0.775409 5.29907
-5.52493 0.556193 1.82323
-5.54414 0.548839 1.66346
-5.5455 0.546129 1.6155
-5.55592 0.544322 1.5606
-5.55407 0.543025 1.5406
-5.55514 0.542893 1.53161
-5.56655 0.541086 1.47672
-5.56969 0.540822 1.45874
-5.57518 0.537864 1.39382
-5.57931 0.5376 1.37585
-5.58245 0.537336 1.35788
-5.58159 0.536054 1.33889
-5.58075 0.534758 1.3189
-5.58787 0.534511 1.30195
-5.59008 0.533098 1.27399
-5.57924 0.530779 1.25293
-5.5945 0.531287 1.21904
-5.60163 0.531041 1.20209
-5.60491 0.530495 1.16512
-5.60297 0.52936 1.15612
-5.60625 0.527815 1.11916
-5.61566 0.527022 1.06524
-5.622 0.525361 1.02031
-5.61615 0.52406 1.00028
-5.62627 0.524831 0.98434
-5.62441 0.523548 0.965342
-5.62855 0.523284 0.947375
-5.63568 0.523038 0.93043
-5.63182 0.521754 0.911417
-5.6259 0.520602 0.901388
-5.63602 0.521357 0.884451
-5.63217 0.520073 0.865439
-5.6373 0.51981 0.847479
-5.64657 0.519299 0.812551
-5.64764 0.519166 0.80356
-5.64977 0.518901 0.785578
-5.64292 0.517615 0.766542
-5.65803 0.518389 0.750643
-5.65231 0.516837 0.713617
-5.66144 0.517592 0.696673
-5.65665 0.515174 0.668668
-5.6578 0.514893 0.649679
-5.67192 0.516667 0.633757
-5.67105 0.5154 0.615766
-5.6662 0.514115 0.596746
-5.67832 0.514887 0.580824
-5.67346 0.513602 0.561804
-5.67853 0.514472 0.552828
-5.68165 0.514223 0.535853
-5.66981 0.511918 0.515795
-5.67893 0.512673 0.49885
-5.67907 0.512406 0.480852
-5.67921 0.51114 0.46287
-5.68534 0.511878 0.444902
-5.68341 0.510743 0.435903
-5.67955 0.509459 0.416891
-5.68968 0.511215 0.399939
-5.69581 0.510967 0.382986
-5.69195 0.509683 0.363974
-5.69708 0.510435 0.346999
-5.70521 0.511189 0.330046
-5.69828 0.510036 0.32001
-5.70841 0.510792 0.303073
-5.71254 0.510528 0.285105
-5.70169 0.508239 0.266055
-5.70782 0.508977 0.248088
-5.70696 0.50871 0.230083
-5.71309 0.508463 0.21313
-5.70823 0.507178 0.19411
-5.71729 0.508066 0.186164
-5.72243 0.508803 0.168189
-5.71556 0.507532 0.150154
-5.7217 0.507269 0.132201
-5.72083 0.507002 0.114196
-5.7271 0.507474 0.0782317
-5.72944 0.506809 0.0332529
-5.73258 0.506545 0.015278
-5.74085 0.507018 -0.0206717
-5.74805 0.506623 -0.0476153
-5.74619 0.506355 -0.0656278
-5.74532 0.506088 -0.0836329
-5.75459 0.506562 -0.119575
-5.75073 0.505292 -0.137588
-5.75686 0.50603 -0.155555
-5.76007 0.506632 -0.182544
-5.7622 0.506367 -0.200526
-5.75834 0.505098 -0.218539
-5.76847 0.506839 -0.236491
-4.78807 1.15124 7.59267
-4.79935 1.1467 7.55581
-4.8057 1.14102 7.50994
-4.81303 1.13539 7.46707
-4.81463 1.12522 7.38822
-4.81799 1.11951 7.34032
-4.85809 1.08546 7.06509
-4.86181 1.07307 6.97129
-4.87602 1.07067 6.94343
-4.88862 1.06149 6.86365
-4.89177 1.05921 6.84471
-4.8951 1.05358 6.80181
-4.89545 1.04789 6.75489
-4.9067 1.04442 6.72302
-4.91496 1.03991 6.68814
-4.9163 1.03426 6.64423
-4.92654 1.03179 6.61234
-4.92177 1.02734 6.58237
-4.92705 1.02279 6.54447
-4.93961 1.01372 6.47169
-4.93995 1.00805 6.42677
-4.94325 1.00347 6.38786
-4.94573 0.995545 6.32498
-4.95199 0.992031 6.29008
-4.95924 0.988548 6.25718
-4.97145 0.986157 6.2303
-4.97771 0.981659 6.19641
-4.98298 0.97813 6.1605
-4.98329 0.972524 6.11958
-4.97553 0.968059 6.08858
-4.98178 0.964576 6.05568
-4.99199 0.962169 6.02778
-5.00221 0.958747 5.99891
-5.01172 0.951748 5.93107
-5.01401 0.947187 5.89315
-5.01515 0.944921 5.87519
-5.01446 0.939314 5.83426
-5.01377 0.934722 5.79432
-5.02397 0.93233 5.76743
-5.02525 0.927783 5.7305
-5.03545 0.925406 5.70461
-5.04366 0.922998 5.6767
-5.03687 0.918578 5.64871
-5.04905 0.917247 5.62582
-5.05231 0.912746 5.59191
-5.0516 0.908169 5.55297
-5.05981 0.90576 5.52506
-5.06306 0.902289 5.49313
-5.06829 0.898834 5.46222
-5.06348 0.895476 5.43823
-5.0697 0.892036 5.40832
-5.07492 0.889611 5.37939
-5.08114 0.886186 5.35049
-5.0834 0.882685 5.31655
-5.09285 0.876804 5.2567
-5.09101 0.873506 5.23673
-5.09721 0.871111 5.20981
-5.10045 0.86764 5.17788
-5.10864 0.865276 5.15298
-5.10593 0.860712 5.11502
-5.11512 0.859348 5.0901
-5.11636 0.854876 5.05818
-5.12046 0.854701 5.04621
-5.11674 0.849151 5.00926
-5.12394 0.846757 4.98234
-5.13337 0.841935 4.92648
-5.13362 0.837447 4.89354
-5.14378 0.836129 4.87163
-5.14093 0.833845 4.85264
-5.14316 0.830403 4.82271
-5.14837 0.827992 4.79478
-5.14662 0.824503 4.76181
-5.15579 0.822169 4.73891
-5.15627 0.815237 4.67601
-5.16928 0.816217 4.67409
-5.16381 0.808192 4.60516
-5.16701 0.805795 4.57822
-5.18535 0.802142 4.5334
-5.18856 0.799745 4.50646
-5.17973 0.796398 4.48344
-5.18791 0.794064 4.46053
-5.20126 0.790378 4.41368
-5.19752 0.786872 4.3797
-5.19873 0.783459 4.35176
-5.20623 0.777487 4.28589
-5.2154 0.776168 4.26398
-5.23545 0.763126 4.1253
-5.22374 0.757555 4.08729
-5.23191 0.756235 4.06537
-5.24405 0.755978 4.04746
-5.23431 0.751453 4.01245
-5.23849 0.749101 3.98851
-5.24467 0.747765 3.96558
-5.24477 0.745572 3.95261
-5.25491 0.745298 3.93369
-5.25114 0.741852 3.9037
-5.26546 0.739226 3.86085
-5.26169 0.734779 3.83088
-5.27382 0.734536 3.81397
-5.27392 0.733344 3.80099
-5.27014 0.729897 3.77101
-5.27055 0.725113 3.71807
-5.28168 0.72387 3.70117
-5.27989 0.721454 3.67319
-5.28405 0.720131 3.65124
-5.28217 0.717908 3.63626
-5.29032 0.716618 3.61633
-5.29071 0.711863 3.5654
-5.30004 0.709219 3.5215
-5.30918 0.707944 3.50259
-5.29833 0.704655 3.48355
-5.30667 0.700995 3.43866
-5.30984 0.699657 3.4157
-5.31301 0.698334 3.39374
-5.32314 0.697075 3.37584
-5.32333 0.694705 3.35087
-5.31945 0.69348 3.33586
-5.32759 0.692205 3.31693
-5.32578 0.689834 3.29195
-5.33013 0.686156 3.24603
-5.3484 0.684636 3.21019
-5.34252 0.682395 3.19418
-5.35564 0.683168 3.17826
-5.34785 0.678748 3.15026
-5.34505 0.676361 3.12427
-5.3522 0.676085 3.10533
-5.34939 0.672713 3.08035
-5.3558 0.668904 3.02545
-5.36593 0.668659 3.00853
-5.3681 0.667335 2.98656
-5.36728 0.664979 2.96259
-5.37143 0.663686 2.94264
-5.37658 0.662394 2.92269
-5.37974 0.661085 2.90173
-5.38181 0.659939 2.89176
-5.378 0.657566 2.86676
-5.38415 0.657289 2.84781
-5.3893 0.655997 2.82787
-5.38665 0.6513 2.78091
-5.40176 0.652103 2.76701
-5.39885 0.650923 2.755
-5.39504 0.647551 2.73002
-5.40417 0.647306 2.71309
-5.40733 0.645997 2.69213
-5.40251 0.643638 2.66813
-5.41662 0.644427 2.65322
-5.41778 0.643116 2.63225
-5.41289 0.640906 2.61824
-5.43015 0.6404 2.58337
-5.42433 0.638041 2.55936
-5.43147 0.636779 2.54143
-5.42666 0.634406 2.51643
-5.4318 0.634128 2.49747
-5.4279 0.631933 2.48447
-5.43304 0.63167 2.46651
-5.44516 0.631442 2.4506
-5.44381 0.625168 2.36467
-5.44887 0.625054 2.35671
-5.44903 0.622743 2.33574
-5.45516 0.622481 2.31779
-5.45632 0.621171 2.29681
-5.46246 0.620909 2.27886
-5.46859 0.619647 2.26092
-5.47174 0.619368 2.24195
-5.47389 0.618073 2.22198
-5.46899 0.615878 2.20898
-5.46714 0.614565 2.18798
-5.4703 0.613272 2.16802
-5.46646 0.610943 2.14602
-5.47076 0.609369 2.10707
-5.48387 0.610156 2.09216
-5.48096 0.607977 2.08017
-5.48111 0.606681 2.06018
-5.49039 0.60614 2.02326
-5.49369 0.603565 1.98431
-5.50281 0.60332 1.96738
-5.50703 0.601908 1.93943
-5.49821 0.599547 1.9154
-5.52281 0.59738 1.8356
-5.52111 0.594787 1.79562
-5.52341 0.592211 1.75667
-5.53154 0.591965 1.73974
-5.53368 0.591685 1.72075
-5.54203 0.59001 1.67484
-5.54332 0.587434 1.63588
-5.54546 0.586154 1.61691
-5.54683 0.583445 1.56895
-5.54896 0.58318 1.55097
-5.55938 0.581373 1.49607
-5.57414 0.576889 1.39523
-5.57928 0.576626 1.37727
-5.58155 0.57508 1.34031
-5.57664 0.573913 1.32929
-5.58776 0.574684 1.31336
-5.59118 0.571858 1.25742
-5.59532 0.571594 1.23945
-5.59446 0.571312 1.22045
-5.59966 0.569916 1.1935
-5.59281 0.568615 1.17347
-5.60151 0.56526 1.08157
-5.60058 0.564126 1.07258
-5.61769 0.565916 1.05768
-5.61084 0.563615 1.03766
-5.62196 0.564386 1.02173
-5.62531 0.562707 0.975771
-5.61674 0.559857 0.918741
-5.63485 0.560648 0.903863
-5.63413 0.5591 0.866876
-5.64532 0.559723 0.840947
-5.64346 0.558455 0.82295
-5.6466 0.558191 0.804975
-5.64574 0.557909 0.78597
-5.64788 0.557644 0.767987
-5.65414 0.55713 0.733037
-5.65721 0.556999 0.724061
-5.66034 0.556735 0.706086
-5.65549 0.55545 0.687066
-5.65462 0.554183 0.669076
-5.67508 0.555294 0.608205
-5.67422 0.554027 0.590215
-5.67436 0.553746 0.571217
-5.68149 0.5535 0.554272
-5.68362 0.553235 0.53629
-5.67877 0.55195 0.51727
-5.6749 0.550681 0.499257
-5.6891 0.552306 0.473336
-5.68937 0.550773 0.437356
-5.68551 0.549489 0.418343
-5.7039 0.550732 0.366456
-5.69698 0.549579 0.35642
-5.70111 0.54933 0.339452
-5.70538 0.5488 0.303487
-5.70252 0.548517 0.284467
-5.71578 0.549008 0.249555
-5.71685 0.548876 0.240564
-5.71099 0.547605 0.222536
-5.71539 0.546808 0.168574
-5.72053 0.546546 0.150614
-5.72786 0.546899 0.106658
-5.733 0.547636 0.088683
-5.74327 0.548111 0.0527484
-5.7384 0.546841 0.0347281
-5.73754 0.546574 0.016723
-5.7476 0.547448 0.00778469
-5.74074 0.546176 -0.0102507
-5.74915 0.546382 -0.0641979
-5.75242 0.545852 -0.10017
-5.76049 0.546724 -0.109124
-5.75662 0.545455 -0.127136
-5.75989 0.545924 -0.163124
-5.76203 0.545659 -0.181106
-5.7653 0.545129 -0.217079
-5.76943 0.545865 -0.235061
-5.77351 0.54572 -0.245029
-4.80423 1.19087 7.5672
-4.82444 1.16954 7.40864
-4.91288 1.08002 6.69554
-4.92596 1.06191 6.55288
-4.93621 1.05845 6.52101
-4.94049 1.0539 6.4841
-4.95354 1.03687 6.34643
-4.96277 1.03342 6.31555
-4.98088 1.01627 6.16992
-5.00764 0.987859 5.93851
-5.00908 0.981002 5.88061
-5.01829 0.978594 5.85272
-5.02354 0.974125 5.82082
-5.02681 0.970594 5.78489
-5.04169 0.956889 5.66919
-5.04919 0.949918 5.60334
-5.05543 0.946463 5.57243
-5.09087 0.909739 5.2522
-5.09212 0.906252 5.21925
-5.10453 0.900447 5.16443
-5.10082 0.895882 5.12646
-5.11685 0.880896 4.99178
-5.12602 0.879562 4.96887
-5.13122 0.876167 4.94196
-5.13544 0.87374 4.91302
-5.14066 0.87033 4.88511
-5.14201 0.86565 4.83918
-5.1502 0.863286 4.81427
-5.15464 0.856431 4.7564
-5.15488 0.852958 4.72445
-5.15349 0.843773 4.64456
-5.16686 0.839058 4.59573
-5.17503 0.837723 4.5728
-5.1842 0.836404 4.55089
-5.18045 0.831913 4.51792
-5.17362 0.828583 4.49592
-5.19172 0.829389 4.48204
-5.18101 0.823819 4.44404
-5.20033 0.821211 4.40222
-5.19758 0.816721 4.36926
-5.20376 0.81537 4.34532
-5.21192 0.813065 4.32441
-5.20409 0.810734 4.30239
-5.2053 0.80732 4.27444
-5.21942 0.807094 4.25855
-5.21269 0.802571 4.22356
-5.22084 0.801266 4.20264
-5.22504 0.798884 4.1767
-5.22227 0.795438 4.14673
-5.22734 0.794294 4.13678
-5.22755 0.791895 4.10981
-5.22776 0.788481 4.08186
-5.23891 0.787207 4.06296
-5.23812 0.784793 4.03499
-5.24131 0.782425 4.01004
-5.23953 0.778994 3.98108
-5.24261 0.777834 3.97012
-5.24282 0.77542 3.94215
-5.246 0.773082 3.91921
-5.25018 0.770729 3.89527
-5.25535 0.769393 3.87232
-5.25655 0.767009 3.84636
-5.26272 0.764688 3.82444
-5.25884 0.762448 3.80844
-5.26301 0.761111 3.78549
-5.2807 0.753777 3.69472
-5.28588 0.75144 3.67179
-5.28398 0.750232 3.65779
-5.28716 0.747879 3.63385
-5.28338 0.744462 3.60587
-5.2965 0.745234 3.58995
-5.2947 0.741833 3.56299
-5.29986 0.740526 3.54204
-5.30602 0.73922 3.5211
-5.29934 0.733594 3.47913
-5.3065 0.733288 3.45819
-5.31663 0.732044 3.44128
-5.31383 0.729642 3.41429
-5.31899 0.727335 3.39336
-5.32813 0.727075 3.37543
-5.3256 0.721141 3.31249
-5.3238 0.717755 3.28652
-5.33013 0.714108 3.24262
-5.33746 0.711477 3.19971
-5.34253 0.711348 3.19075
-5.34171 0.708992 3.16677
-5.34089 0.706636 3.1428
-5.35419 0.704068 3.10393
-5.36112 0.694238 2.98011
-5.36961 0.689297 2.91624
-5.37783 0.687874 2.88732
-5.37917 0.684209 2.84238
-5.38449 0.680591 2.80046
-5.39702 0.676549 2.72961
-5.39736 0.672898 2.68566
-5.40151 0.671605 2.66571
-5.40673 0.669165 2.63578
-5.40889 0.667856 2.61481
-5.41104 0.666561 2.59484
-5.41851 0.662649 2.53295
-5.4292 0.65631 2.44211
-5.4345 0.653721 2.40218
-5.43865 0.653443 2.38322
-5.44387 0.651018 2.35429
-5.44817 0.648429 2.31435
-5.45661 0.645561 2.25545
-5.45577 0.64325 2.23448
-5.46697 0.642873 2.20856
-5.47042 0.638987 2.14864
-5.48369 0.638464 2.11274
-5.4751 0.633659 2.05874
-5.48254 0.629806 2.00084
-5.50263 0.631642 1.98897
-5.48775 0.628395 1.9729
-5.4899 0.6281 1.95292
-5.50202 0.627887 1.93801
-5.5096 0.623753 1.86112
-5.5178 0.623359 1.83418
-5.51296 0.621044 1.81318
-5.52822 0.620552 1.77929
-5.52253 0.617926 1.73728
-5.52069 0.615629 1.7173
-5.53387 0.616268 1.69239
-5.53303 0.614971 1.6724
-5.53246 0.611113 1.61444
-5.53368 0.609684 1.58547
-5.5458 0.610471 1.57055
-5.54609 0.607894 1.53158
-5.54923 0.607629 1.51361
-5.54859 0.603918 1.46565
-5.55572 0.604672 1.44869
-5.56741 0.600318 1.35683
-5.56962 0.598905 1.32886
-5.57076 0.59864 1.31087
-5.57717 0.59683 1.25594
-5.58152 0.595152 1.20999
-5.58794 0.592343 1.15508
-5.60909 0.588093 1.00228
-4.78546 1.26929 7.66291
-4.7861 1.25705 7.57908
-4.79639 1.25248 7.54022
-4.80471 1.24686 7.49836
-4.81105 1.2412 7.45349
-4.81541 1.23451 7.40661
-4.82372 1.22891 7.36575
-4.85356 1.19735 7.12441
-4.85592 1.19065 7.07752
-4.86619 1.18614 7.04266
-4.86242 1.18168 7.01169
-4.86873 1.17609 6.97182
-4.87305 1.17046 6.92893
-4.87737 1.16484 6.88704
-4.88367 1.16027 6.84815
-4.89096 1.1557 6.80927
-4.89627 1.15011 6.76938
-4.8915 1.14566 6.73941
-4.89878 1.14112 6.70253
-4.90309 1.13552 6.66164
-4.91169 1.12536 6.58284
-4.93118 1.11841 6.51808
-4.9307 1.1084 6.45022
-4.94192 1.10598 6.42133
-4.94324 1.10036 6.37942
-4.95347 1.09692 6.34954
-4.96073 1.09241 6.31466
-4.96122 1.08347 6.25079
-4.97045 1.08103 6.22089
-4.97275 1.07545 6.18198
-4.98 1.07197 6.14909
-4.98427 1.06744 6.11318
-4.99085 1.05732 6.03737
-4.991 1.05502 6.0174
-4.99626 1.05053 5.9835
-4.99755 1.04595 5.94457
-4.99984 1.0404 5.90767
-5.01331 1.03348 5.84486
-5.01757 1.02998 5.81094
-5.02366 1.02881 5.799
-5.0299 1.02534 5.7671
-5.04267 1.01287 5.66737
-5.04833 1.00257 5.57955
