-4.11152 1.71881 4.35028
-4.1286 1.71966 4.3394
-4.1427 1.71948 4.3265
-4.15383 1.71824 4.3096
-4.17784 1.72222 4.30773
-4.18599 1.71893 4.28783
-4.199 1.72193 4.28689
-4.21608 1.72278 4.276
-4.2272 1.72155 4.2601
-4.2413 1.72137 4.24721
-4.25441 1.72016 4.23232
-4.26852 1.71996 4.21843
-4.27766 1.71768 4.19953
-4.28868 1.71966 4.19758
-4.30278 1.71946 4.18369
-4.32085 1.72034 4.17481
-4.32603 1.71599 4.15091
-4.35401 1.72304 4.15302
-4.35225 1.71558 4.12211
-4.37131 1.71748 4.11423
-4.37538 1.71633 4.10427
-4.39147 1.71617 4.0924
-4.39962 1.71389 4.07349
-4.42166 1.71782 4.0676
-4.43378 1.71659 4.0517
-4.45383 1.7195 4.04481
-4.46496 1.71826 4.02791
-4.48016 1.71488 4.00207
-4.49624 1.71672 3.99016
-4.50637 1.71447 3.97327
-4.52445 1.71634 3.96338
-4.5326 1.71405 3.94347
-4.5467 1.71387 3.93058
-4.5468 1.71167 3.91761
-4.56785 1.71459 3.91072
-4.57698 1.71233 3.89282
-4.59704 1.71522 3.88493
-4.60618 1.71295 3.86603
-4.62227 1.71478 3.85412
-4.63339 1.71355 3.83822
-4.6465 1.71335 3.82432
-4.65852 1.71532 3.82138
-4.67162 1.71512 3.80748
-4.68673 1.71592 3.79358
-4.68593 1.71054 3.76765
-4.70897 1.71447 3.76177
-4.72208 1.71425 3.74687
-4.74314 1.71715 3.73898
-4.74125 1.71394 3.72501
-4.76031 1.71682 3.71611
-4.77442 1.71663 3.70222
-4.79151 1.71846 3.69032
-4.79071 1.71308 3.66439
-4.81375 1.717 3.6585
-4.82587 1.71677 3.6426
-4.83997 1.71658 3.6287
-4.85199 1.71954 3.62575
-4.86908 1.72039 3.61487
-4.88616 1.72223 3.60297
-4.8953 1.72097 3.58505
-4.90841 1.72077 3.57115
-4.92252 1.72156 3.55624
-4.93463 1.72134 3.54133
-4.94964 1.72434 3.5404
-4.95877 1.72308 3.52249
5.73744 1.73155 2.44663
5.60731 1.73431 2.69461
5.52836 1.73542 2.8342
5.50176 1.73723 2.88738
5.49006 1.74083 2.92742
5.44748 1.73969 2.98377
5.42757 1.73686 2.99496
5.42071 1.73815 3.014
5.41486 1.73945 3.03403
5.41604 1.74381 3.05796
5.3921 1.73994 3.0662
5.38818 1.74009 3.07622
5.37328 1.73931 3.09035
5.35939 1.73853 3.10447
5.35957 1.74288 3.12841
5.34267 1.74009 3.14158
5.33281 1.74136 3.15963
5.32695 1.74365 3.17865
5.32001 1.74277 3.18671
5.30612 1.74199 3.20083
5.29424 1.74225 3.21792
5.29643 1.74662 3.24284
5.27048 1.74174 3.25011
5.25961 1.74199 3.26619
5.2437 1.74119 3.27932
5.25586 1.74749 3.30014
5.23493 1.74364 3.30936
5.23411 1.748 3.3333
5.2162 1.74619 3.34547
5.20231 1.7454 3.35958
5.18541 1.74361 3.37274
5.18459 1.74796 3.39669
5.18368 1.75014 3.40866
5.16475 1.7473 3.41885
5.15288 1.74755 3.43494
5.14201 1.74882 3.453
5.11806 1.74395 3.46025
5.11422 1.74726 3.48124
5.10537 1.74855 3.50029
5.0964 1.74763 3.50537
5.08252 1.74686 3.52049
5.07668 1.75018 3.54149
5.06278 1.74939 3.5556
5.04789 1.74861 3.56973
5.03702 1.74987 3.5868
5.02916 1.75116 3.60584
5.0202 1.75024 3.61092
4.99926 1.74739 3.62012
4.99141 1.74867 3.63916
4.98054 1.74993 3.65623
4.97973 1.7553 3.68116
4.95376 1.7494 3.68644
4.95597 1.75579 3.71334
4.93503 1.75293 3.72154
4.92809 1.75305 3.72959
4.91118 1.75124 3.74174
4.90132 1.75252 3.7598
4.88742 1.75273 3.77391
4.87857 1.75402 3.79296
4.8687 1.75528 3.81001
4.85682 1.75654 3.82709
4.84383 1.75356 3.82823
4.83598 1.75587 3.84826
4.82008 1.75507 3.86139
4.80719 1.7553 3.87649
4.78928 1.75448 3.88763
4.77236 1.75265 3.89879
4.76451 1.75496 3.91882
4.76259 1.75712 3.9298
4.74468 1.7553 3.94097
4.72978 1.75551 3.95508
4.72697 1.75987 3.97904
4.70703 1.75702 3.98823
4.69515 1.75826 4.0043
4.68328 1.75851 4.02039
4.66827 1.75552 4.02055
4.64733 1.75266 4.02875
4.64351 1.757 4.05172
4.62458 1.75515 4.06089
4.61875 1.75849 4.08389
4.59982 1.75664 4.09306
4.595 1.761 4.11703
4.57002 1.75606 4.1203
4.56912 1.75925 4.13326
4.5381 1.75225 4.13159
4.52824 1.75452 4.14964
4.52442 1.75888 4.1736
4.51053 1.75909 4.18771
4.48958 1.75621 4.19491
4.48678 1.7616 4.22085
4.46472 1.7555 4.21311
4.45888 1.75883 4.23511
4.43794 1.75595 4.24231
4.42505 1.75718 4.25739
4.4041 1.7543 4.26459
4.40735 1.76177 4.29646
4.37632 1.75475 4.2938
4.37744 1.75897 4.30873
4.36153 1.75816 4.32086
4.34563 1.75836 4.33398
4.32266 1.75445 4.33921
4.32389 1.7619 4.3691
4.29688 1.7559 4.36839
4.28602 1.75818 4.38644
4.2821 1.76034 4.39744
4.25812 1.7564 4.40068
4.24221 1.75559 4.41281
4.23337 1.75889 4.43283
4.20838 1.75494 4.43508
4.20053 1.75724 4.45511
4.18765 1.75949 4.47117
4.17264 1.75547 4.46935
4.15875 1.7567 4.48443
4.1499 1.76001 4.50446
4.135 1.76021 4.51757
4.11001 1.75524 4.51883
4.10621 1.76063 4.54478
4.08929 1.76081 4.55591
4.06531 1.75687 4.55915
4.05936 1.75698 4.56619
4.05254 1.76132 4.58918
4.03159 1.75944 4.59637
4.01871 1.76069 4.61245
3.99673 1.75775 4.61566
3.99396 1.76418 4.64459
3.96088 1.75506 4.63497
3.96504 1.76136 4.65585
3.94004 1.75638 4.65611
3.93221 1.76073 4.67911
3.91428 1.75987 4.68826
3.89534 1.75901 4.69641
3.88247 1.76027 4.71349
3.86958 1.7615 4.72858
3.85759 1.76052 4.72968
3.84168 1.76071 4.7418
3.82375 1.75986 4.75095
3.81188 1.76112 4.76802
3.79193 1.76024 4.77519
3.77197 1.75733 4.78038
3.76112 1.76063 4.80042
3.75114 1.75968 4.80351
3.72916 1.75674 4.80671
3.71224 1.7569 4.81684
3.70644 1.76229 4.84281
3.68345 1.75834 4.84504
3.66249 1.75643 4.85023
3.65265 1.75974 4.87126
3.63269 1.75783 4.87643
3.62777 1.76 4.88744
3.61288 1.76122 4.90154
3.59291 1.75931 4.90672
3.58712 1.76471 4.93368
3.57424 1.76696 4.94975
3.54418 1.75986 4.94208
3.53231 1.76312 4.95912
3.52234 1.76219 4.96321
3.51452 1.76755 4.9872
3.49861 1.76772 4.99832
3.48674 1.77 5.01637
3.46173 1.76599 5.01462
3.44177 1.76409 5.0208
3.42587 1.76529 5.0339
3.41385 1.76227 5.03204
3.39694 1.76245 5.04317
3.379 1.76259 5.0523
3.35702 1.75964 5.05451
3.34213 1.76086 5.06861
3.33128 1.76516 5.08863
3.31639 1.76638 5.10272
3.30236 1.76335 5.09987
3.28341 1.76245 5.10603
3.26649 1.76262 5.11716
3.2526 1.76386 5.13224
3.23669 1.76503 5.14335
3.2147 1.76208 5.14556
3.19474 1.76117 5.15072
3.19287 1.76442 5.16769
3.17595 1.76458 5.17782
3.15598 1.76365 5.18198
3.13704 1.7628 5.19114
3.12518 1.76607 5.20918
3.10523 1.76518 5.21535
3.08931 1.76535 5.22647
3.07933 1.7654 5.22954
3.06139 1.76454 5.23769
3.0394 1.76257 5.23888
3.02451 1.7638 5.25398
3.00556 1.7629 5.26014
2.98965 1.76409 5.27224
2.97375 1.7653 5.28535
2.95683 1.76647 5.29646
2.9509 1.76861 5.30547
2.92992 1.76567 5.30867
2.9059 1.76164 5.30591
2.89404 1.76593 5.32494
2.869 1.76088 5.3202
2.85717 1.7652 5.34123
2.83821 1.7643 5.34739
2.83026 1.76539 5.35343
2.80827 1.76244 5.35564
2.79542 1.76673 5.37468
2.76427 1.75747 5.35605
2.75141 1.76076 5.3751
2.73753 1.76299 5.39017
2.71451 1.75998 5.38839
2.70657 1.7611 5.39644
2.69167 1.76331 5.40952
2.67273 1.76243 5.41667
2.65681 1.7636 5.42778
2.63685 1.76269 5.43294
2.61891 1.76282 5.44108
2.59895 1.76191 5.44624
2.58303 1.76308 5.45735
2.57305 1.76314 5.46042
2.54901 1.75908 5.45566
2.53311 1.76028 5.46876
2.51619 1.76144 5.47888
2.49723 1.76055 5.48503
2.48337 1.76482 5.50308
2.44832 1.75876 5.49743
2.43445 1.76201 5.51349
2.41448 1.76108 5.51765
2.39348 1.75911 5.51884
2.37657 1.76029 5.52995
2.35761 1.75937 5.53511
2.34071 1.76158 5.54821
2.33378 1.76372 5.55723
2.31073 1.75964 5.55146
2.29585 1.76189 5.56754
2.27487 1.76094 5.56971
2.25896 1.76213 5.58182
2.23694 1.76011 5.58001
2.22004 1.76132 5.59312
2.19415 1.76356 5.60829
2.17315 1.76157 5.60848
2.15316 1.7596 5.60966
2.13318 1.75866 5.61282
2.12036 1.76401 5.63584
2.09834 1.76098 5.63305
2.07734 1.75901 5.63424
2.07245 1.76322 5.64822
2.05453 1.76439 5.65834
2.0376 1.76555 5.66845
2.01356 1.76147 5.66269
1.97665 1.76168 5.67496
1.96076 1.76491 5.69004
1.94975 1.76289 5.68815
1.93285 1.7661 5.70123
1.91491 1.76623 5.70937
1.89799 1.7684 5.72046
1.87802 1.76748 5.72463
1.86112 1.77068 5.73771
1.84114 1.76873 5.73989
1.83319 1.77083 5.74692
1.81423 1.77092 5.75206
1.79528 1.77102 5.7582
1.7753 1.77008 5.76137
1.75943 1.77335 5.77844
1.74048 1.77446 5.78557
1.71945 1.77142 5.78177
1.70639 1.76831 5.77392
1.68641 1.76737 5.77708
1.6695 1.76955 5.78818
1.64847 1.76752 5.78537
1.62851 1.76761 5.79052
1.60954 1.76666 5.79367
1.59266 1.76991 5.80975
1.57957 1.76575 5.79791
1.56062 1.76586 5.80505
1.54163 1.76591 5.8072
1.52166 1.76497 5.81036
1.50271 1.76608 5.81749
1.48167 1.76302 5.81269
1.46272 1.76413 5.81882
1.45171 1.76212 5.81793
1.43586 1.76741 5.83698
1.41379 1.7633 5.8282
1.39793 1.76757 5.84626
1.37483 1.7624 5.83351
1.3569 1.76456 5.84361
1.33796 1.76569 5.85174
1.32005 1.76787 5.86285
1.30798 1.76474 5.85398
1.28798 1.76276 5.85416
1.26799 1.7628 5.85631
1.24902 1.76287 5.86045
1.23109 1.76502 5.86956
1.21007 1.76199 5.86676
1.19008 1.76202 5.86791
1.18111 1.76209 5.87198
1.16112 1.76213 5.87413
1.14219 1.76328 5.88326
1.12219 1.76229 5.88342
1.1053 1.76651 5.89749
1.08324 1.76241 5.88971
1.06533 1.76559 5.9008
1.05741 1.76775 5.91183
1.03846 1.76987 5.91894
1.01849 1.76993 5.92209
0.995348 1.76268 5.90437
0.979518 1.76902 5.9264
0.960557 1.77011 5.93153
0.941618 1.77124 5.93966
0.931633 1.77128 5.94173
0.911656 1.77133 5.94488
0.891618 1.76927 5.94006
0.87268 1.77141 5.94817
0.852719 1.7715 5.95332
0.831634 1.76735 5.94254
0.81268 1.76845 5.94867
0.802673 1.76844 5.94775
0.783766 1.77163 5.95984
0.764796 1.77171 5.96399
0.74482 1.77177 5.96714
0.724835 1.77181 5.96929
0.705882 1.77291 5.97541
0.685897 1.77296 5.97756
0.665913 1.773 5.97971
0.656936 1.77405 5.98277
0.636936 1.77307 5.98293
0.616921 1.77205 5.9811
0.595891 1.77101 5.97727
0.576899 1.77104 5.97841
0.55693 1.77111 5.98256
0.535853 1.76798 5.97277
0.526946 1.77116 5.98479
0.506853 1.767 5.973
0.485823 1.76496 5.96919
0.467993 1.77229 5.99122
0.447916 1.76816 5.98143
0.42687 1.76609 5.97562
0.408994 1.77134 5.99168
0.397956 1.76927 5.98679
0.377878 1.76514 5.977
0.358941 1.76827 5.9851
0.338918 1.76724 5.98226
0.318972 1.76836 5.9894
0.298888 1.76521 5.97859
0.278943 1.76733 5.98571
0.268888 1.76423 5.97883
0.250013 1.76948 5.9949
0.230013 1.7695 5.99505
0.209898 1.76429 5.98028
0.189937 1.76538 5.98541
0.171061 1.77063 6.00148
0.150884 1.7633 5.97874
0.130854 1.76226 5.9749
0.120931 1.76541 5.98493
0.10207 1.77069 6.003
0.0819321 1.76544 5.98523
0.0619791 1.76755 5.99135
0.00920445 1.76709 5.75572
-0.00983391 1.76503 5.75089
-0.028733 1.76923 5.76397
-0.0667394 1.76925 5.76326
-0.0768006 1.76714 5.75536
-0.113908 1.76296 5.7417
-0.133791 1.76819 5.75678
-0.152814 1.76716 5.75394
-0.171859 1.76509 5.74811
-0.190851 1.76612 5.74924
-0.199881 1.76506 5.74532
-0.219811 1.76821 5.75443
-0.237849 1.76615 5.74959
-0.25781 1.76824 5.75471
-0.276832 1.76821 5.75186
-0.294901 1.76509 5.74304
-0.332915 1.76509 5.74132
-0.341961 1.763 5.73542
-0.360968 1.763 5.73456
-0.379967 1.76402 5.73469
-0.398974 1.76402 5.73384
-0.418881 1.76821 5.74592
-0.43698 1.76503 5.73311
-0.455994 1.76501 5.73125
-0.466879 1.76924 5.74627
-0.48404 1.76295 5.72549
-0.50307 1.7629 5.72163
-0.523007 1.76603 5.72974
-0.541107 1.76185 5.71694
-0.57819 1.75972 5.70625
-0.589081 1.76493 5.72025
-0.607127 1.76286 5.71442
-0.626141 1.76284 5.71256
-0.645125 1.76488 5.71467
-0.666069 1.768 5.72179
-0.681293 1.75859 5.69304
-0.703145 1.76588 5.7121
-0.71026 1.76167 5.69721
-0.730205 1.76478 5.70432
-0.750174 1.76586 5.70845
-0.765404 1.75742 5.67869
-0.787225 1.76578 5.70173
-0.803425 1.75841 5.67596
-0.826239 1.76678 5.70001
-0.831439 1.7584 5.67417
-0.852384 1.76152 5.68128
-0.868538 1.75623 5.66148
-0.890374 1.76456 5.68252
-0.905567 1.7562 5.65776
-0.926488 1.76136 5.66784
-0.945525 1.7603 5.663
-0.962617 1.75714 5.65117
-0.972601 1.75818 5.65323
-0.991615 1.75916 5.65136
-1.01254 1.76332 5.66146
-1.02579 1.75384 5.62869
-1.04864 1.76114 5.64776
-1.06381 1.75483 5.62597
-1.08378 1.7569 5.63009
-1.09378 1.75791 5.63015
-1.11085 1.75579 5.6213
-1.13181 1.75888 5.62642
-1.14986 1.75779 5.61957
-1.16791 1.75671 5.61372
-1.18787 1.75878 5.61784
-1.20303 1.75349 5.59703
-1.2159 1.75975 5.61404
-1.22912 1.75134 5.58626
-1.25105 1.75549 5.59536
-1.26618 1.75125 5.57854
-1.28617 1.75328 5.57966
-1.31001 1.76159 5.59972
-1.32226 1.75213 5.56794
-1.33417 1.7563 5.57897
-1.35223 1.75519 5.57113
-1.37027 1.75513 5.56626
-1.38541 1.74986 5.54745
-1.40734 1.75503 5.55754
-1.42053 1.74767 5.53275
-1.4444 1.75492 5.54882
-1.45953 1.75069 5.53299
-1.46951 1.75273 5.53504
-1.49438 1.76 5.55212
-1.50755 1.75367 5.52931
-1.52365 1.75049 5.51648
-1.54557 1.75565 5.52657
-1.56266 1.75349 5.51473
-1.57973 1.75237 5.50587
-1.58778 1.75028 5.49996
-1.60485 1.74916 5.49111
-1.62776 1.75434 5.5022
-1.64483 1.75322 5.49335
-1.65896 1.74897 5.47551
-1.68385 1.75621 5.4906
-1.69505 1.74881 5.46379
-1.71287 1.75718 5.4878
-1.72212 1.7487 5.45499
-1.74505 1.75285 5.4641
-1.76503 1.75589 5.46621
-1.78016 1.75165 5.44938
-1.7982 1.75159 5.44452
-1.8133 1.74941 5.43166
-1.82232 1.74937 5.42873
-1.83842 1.74619 5.4159
-1.86037 1.7513 5.42199
-1.87744 1.74918 5.41315
-1.89745 1.75118 5.41227
-1.91353 1.74903 5.40142
-1.92472 1.74266 5.3766
-1.93962 1.74887 5.38962
-1.95668 1.74776 5.38176
-1.97276 1.74561 5.37091
-1.99765 1.75285 5.386
-2.00982 1.74752 5.36316
-2.0308 1.75058 5.36628
-2.04787 1.74944 5.35642
-2.06395 1.74831 5.34656
-2.06807 1.74407 5.33065
-2.09787 1.75446 5.35572
-2.10416 1.74392 5.31892
-2.12613 1.748 5.32303
-2.13829 1.74269 5.3022
-2.16516 1.75095 5.31828
-2.17731 1.74668 5.29943
-2.1824 1.7435 5.28751
-2.2034 1.74552 5.28764
-2.22243 1.74647 5.28377
-2.23655 1.74325 5.26792
-2.25558 1.7442 5.26405
-2.28245 1.75246 5.28013
-2.2897 1.74399 5.24831
-2.30066 1.74606 5.25236
-2.31871 1.74698 5.24648
-2.33481 1.7448 5.23363
-2.35285 1.74573 5.22776
-2.37186 1.74671 5.22588
-2.37909 1.73927 5.19604
-2.40795 1.74856 5.21413
-2.41108 1.74331 5.19723
-2.43896 1.75157 5.21332
-2.44423 1.74205 5.17849
-2.46718 1.74616 5.18461
-2.47835 1.74184 5.16275
-2.50426 1.74802 5.17386
-2.50952 1.73852 5.14003
-2.52444 1.74368 5.15007
-2.54346 1.74565 5.14718
-2.55463 1.74033 5.12534
-2.57071 1.7392 5.11548
-2.60056 1.7495 5.13455
-2.59892 1.7348 5.08775
-2.62189 1.73886 5.09087
-2.63797 1.73873 5.08099
-2.65092 1.74182 5.08704
-2.65911 1.73546 5.06219
-2.68603 1.74263 5.07229
-2.69028 1.73416 5.04044
-2.71916 1.7424 5.05554
-2.72933 1.73708 5.03369
-2.75329 1.74216 5.0378
-2.75344 1.73688 5.01888
-2.77938 1.74301 5.02698
-2.78659 1.73561 4.99914
-2.80857 1.73965 5.00125
-2.82071 1.73639 4.98339
-2.84072 1.73838 4.98151
-2.85384 1.73615 4.96564
-2.87667 1.74549 4.98767
-2.88288 1.7391 4.96081
-2.9029 1.74107 4.95793
-2.91997 1.74095 4.94906
-2.92815 1.7356 4.9252
-2.95803 1.74484 4.94029
-2.96227 1.73639 4.90944
-2.96635 1.73323 4.89852
-2.98244 1.73308 4.88764
-3.00246 1.73505 4.88476
-3.01656 1.73386 4.87188
-3.03164 1.73271 4.86101
-3.04771 1.73258 4.85113
-3.05885 1.73032 4.83325
-3.07085 1.73133 4.83332
-3.08889 1.73225 4.82745
-3.10497 1.73211 4.81757
-3.11808 1.7309 4.80268
-3.14008 1.73392 4.8028
-3.1512 1.73169 4.78692
-3.16431 1.72948 4.77205
-3.18138 1.73035 4.76316
-3.18942 1.73029 4.75822
-3.20352 1.7291 4.74534
-3.2275 1.73315 4.74747
-3.23764 1.72989 4.72959
-3.25569 1.7308 4.72271
-3.2767 1.73379 4.72082
-3.27993 1.72635 4.69095
-3.30378 1.73564 4.71
-3.30701 1.7282 4.68013
-3.32902 1.7322 4.67923
-3.33619 1.72687 4.65636
-3.37006 1.73713 4.67247
-3.37823 1.73281 4.65059
-3.39035 1.7306 4.63572
-3.40333 1.73364 4.63777
-3.43646 1.73439 4.62
-3.43968 1.72798 4.59212
-3.4696 1.73514 4.60124
-3.47084 1.72768 4.57036
-3.49384 1.73169 4.57047
-3.49495 1.72747 4.55554
-3.51993 1.73354 4.55864
-3.52413 1.72714 4.53176
-3.54021 1.727 4.52188
-3.55331 1.72581 4.508
-3.57137 1.72771 4.5011
-3.58546 1.72655 4.48922
-3.58954 1.72539 4.47827
-3.60462 1.72524 4.46739
-3.61574 1.72301 4.4515
-3.62886 1.72179 4.43661
-3.69525 1.72107 4.38512
-3.71825 1.72507 4.38423
-3.72937 1.72285 4.36835
-3.74149 1.72163 4.35345
-3.79181 1.72003 4.31085
-3.82297 1.72073 4.28907
-3.84102 1.72264 4.28218
-3.86624 1.72023 4.2534
-3.87935 1.72003 4.2395
-3.88936 1.72201 4.23755
-3.90445 1.72184 4.22566
-3.91656 1.72064 4.21177
-3.92867 1.71943 4.19687
-3.94375 1.71928 4.18599
-3.95587 1.71805 4.1701
-3.96798 1.71785 4.15619
-3.97403 1.71675 4.14925
-3.98813 1.71657 4.13636
-4.00222 1.7164 4.12446
-4.01829 1.71727 4.11457
-4.03834 1.72019 4.10868
-4.04748 1.71792 4.08978
-4.06157 1.71775 4.07788
-4.07159 1.71971 4.07493
-4.08668 1.71956 4.06404
-4.0968 1.71732 4.04715
-4.11685 1.72024 4.04126
-4.13491 1.72212 4.03237
-4.14801 1.72194 4.01947
-4.16409 1.72279 4.00857
-4.16618 1.72061 3.99662
-4.17928 1.72043 3.98372
-4.19834 1.72232 3.97583
-4.2174 1.72522 3.96793
-4.23348 1.72607 3.95704
-4.24955 1.72693 3.94715
-4.26772 1.72562 3.9253
-4.29372 1.73162 3.92441
-4.29392 1.72524 3.8985
-4.31397 1.72815 3.89161
-4.32708 1.72795 3.87771
-4.34713 1.73086 3.87081
-4.35626 1.72962 3.8539
-4.36936 1.72942 3.84
-4.3784 1.73035 3.83505
-4.38455 1.72706 3.81514
-4.40362 1.72894 3.80626
-4.44491 1.72939 3.76756
-4.46109 1.72805 3.7437
-4.4722 1.72783 3.72878
-4.50139 1.72848 3.70399
-4.53176 1.72478 3.65526
-4.56303 1.72427 3.6195
-4.57812 1.7261 3.60759
-4.60234 1.72569 3.57877
-5.89969 1.68457 0.882783
-5.90597 1.68401 0.844833
-5.90512 1.68273 0.825843
-5.92024 1.68549 0.808914
-5.92039 1.6842 0.789931
-5.90855 1.67889 0.768918
-5.91561 1.68076 0.759942
-5.89978 1.67444 0.738914
-5.89793 1.67214 0.718931
-5.92004 1.67793 0.70401
-5.91319 1.67463 0.684004
-5.90135 1.67031 0.662976
-5.91548 1.67307 0.646039
-5.90956 1.6709 0.635025
-5.90871 1.66962 0.616035
-5.93481 1.67642 0.601129
-5.91098 1.66708 0.579085
-5.92112 1.66982 0.561118
-5.91227 1.66551 0.541113
-5.91263 1.66282 0.494149
5.98937 1.7136 0.974797
5.98944 1.71375 0.984795
5.98188 1.71661 1.04282
5.0694 1.74074 3.10662
5.06757 1.74407 3.12859
5.04462 1.74019 3.13582
5.02871 1.73839 3.14897
5.03191 1.74376 3.17387
5.02605 1.74604 3.19288
5.00712 1.74321 3.20307
5.00319 1.74434 3.21208
4.98729 1.74255 3.22523
4.99753 1.751 3.25603
4.9786 1.74816 3.26622
4.97275 1.75044 3.28523
4.95181 1.74659 3.29445
4.95703 1.754 3.3223
4.92803 1.74704 3.32362
4.93416 1.75229 3.3405
4.91825 1.75048 3.35265
4.91844 1.75585 3.37757
4.89046 1.7489 3.37989
4.87756 1.74811 3.394
4.88077 1.75451 3.42088
4.85983 1.75166 3.43008
4.85691 1.75281 3.44009
4.84401 1.75201 3.4532
4.82508 1.74917 3.46339
4.82729 1.75557 3.49028
4.79829 1.74859 3.4906
4.78741 1.74984 3.50666
4.79062 1.75625 3.53455
4.77562 1.75226 3.53472
4.76071 1.75145 3.54685
4.77198 1.76096 3.58163
4.72889 1.74883 3.57113
4.71902 1.75009 3.58819
4.71921 1.75546 3.61311
4.69524 1.75053 3.61736
4.69936 1.75477 3.63327
4.68346 1.75397 3.64641
4.66149 1.75006 3.65163
4.65162 1.75132 3.66869
4.64881 1.75568 3.69265
4.63691 1.75589 3.70674
4.61195 1.75199 3.71198
4.61314 1.75736 3.7369
4.59613 1.75335 3.73609
4.58827 1.75563 3.75411
4.57336 1.75483 3.76724
4.56349 1.75609 3.7843
4.54053 1.75218 3.78953
4.53971 1.75753 3.81346
4.51977 1.75467 3.82165
4.51182 1.75376 3.82773
4.48301 1.75315 3.85296
4.48321 1.75955 3.87986
4.46629 1.75771 3.89002
4.4403 1.75276 3.89229
4.42036 1.7499 3.90048
4.43558 1.7593 3.92823
4.40353 1.75125 3.92359
4.39568 1.75354 3.94262
4.39388 1.75992 3.96854
4.3699 1.75498 3.9718
4.37011 1.76138 3.99871
4.34411 1.75642 3.99998
4.34825 1.76068 4.01788
4.3162 1.75262 4.01224
4.31541 1.75901 4.03916
4.3005 1.7582 4.05128
4.28357 1.75736 4.06143
4.27169 1.75861 4.0775
4.2467 1.75364 4.07876
4.25588 1.76098 4.10159
4.23089 1.75602 4.10385
4.22001 1.75727 4.11991
4.20107 1.7554 4.12809
4.19423 1.75872 4.14909
4.16722 1.75272 4.14838
4.15735 1.75498 4.16543
4.14345 1.75518 4.17853
4.13751 1.75631 4.18656
4.11655 1.75341 4.19276
4.11274 1.75777 4.21673
4.08976 1.75383 4.21996
4.08493 1.75817 4.24294
4.06296 1.75525 4.24714
4.05007 1.75647 4.26123
4.04413 1.75659 4.26927
4.03224 1.75782 4.28434
4.02238 1.76109 4.30237
4.00041 1.75717 4.3066
3.98954 1.75943 4.32365
3.96757 1.7555 4.32787
3.95266 1.75569 4.33998
3.94368 1.75474 4.34306
3.93988 1.76013 4.36902
3.91387 1.75514 4.36829
3.90501 1.75842 4.38731
3.89212 1.75964 4.40139
3.87317 1.75776 4.40856
3.8734 1.7652 4.43845
3.84626 1.75595 4.42079
3.83438 1.75719 4.43586
3.81442 1.75429 4.44206
3.80153 1.75652 4.45712
3.78562 1.7557 4.46826
3.78788 1.7652 4.50211
3.75781 1.7571 4.49445
3.74784 1.75615 4.49754
3.74605 1.76257 4.52546
3.71296 1.75443 4.51483
3.70917 1.76083 4.54177
3.69122 1.75895 4.54893
3.67126 1.75604 4.55413
3.6604 1.75931 4.57216
3.65244 1.75939 4.57722
3.6436 1.76271 4.59824
3.62059 1.75873 4.59847
3.60266 1.75787 4.60762
3.58673 1.75702 4.61676
3.56778 1.75613 4.62391
3.56197 1.76151 4.64888
3.5511 1.76377 4.66593
3.53506 1.75971 4.66111
3.52419 1.76296 4.67815
3.5022 1.759 4.67937
3.48426 1.75813 4.68752
3.47947 1.76453 4.71447
3.45141 1.75745 4.70778
3.44054 1.76071 4.72482
3.43157 1.75977 4.7289
3.41869 1.762 4.74397
3.39973 1.76011 4.75014
3.38888 1.7634 4.76917
3.36182 1.75631 4.76248
3.35096 1.75959 4.78052
3.34921 1.76908 4.8134
3.32201 1.75671 4.78778
3.31014 1.75997 4.80482
3.29525 1.76119 4.81892
3.28337 1.76344 4.83498
3.26137 1.76047 4.83619
3.24646 1.76066 4.8483
3.23359 1.7639 4.86435
3.21246 1.75568 4.84863
3.21172 1.76518 4.8825
3.18162 1.75701 4.86984
3.16774 1.75825 4.88493
3.15789 1.76255 4.90495
3.13285 1.75749 4.90021
3.13213 1.76703 4.93608
3.09797 1.75576 4.9165
3.09305 1.75791 4.92651
3.07409 1.75701 4.93266
3.06932 1.76444 4.96159
3.03617 1.7542 4.94399
3.02937 1.76059 4.96995
3.01346 1.76177 4.98106
2.99043 1.75674 4.9783
2.98755 1.76096 4.99326
2.97162 1.76111 5.00238
2.95064 1.75917 5.00557
2.94588 1.76663 5.0365
2.91372 1.75636 5.01689
2.9039 1.7617 5.03989
2.88189 1.75771 5.03912
2.8861 1.76712 5.06695
2.85089 1.75374 5.04041
2.85121 1.76635 5.08122
2.82717 1.76129 5.07648
2.81024 1.76144 5.08561
2.78518 1.75635 5.07887
2.78248 1.76692 5.11674
2.75928 1.75656 5.09206
2.7464 1.75881 5.10813
2.74674 1.77146 5.15195
2.70643 1.7549 5.11249
2.69966 1.76233 5.14143
2.67664 1.75832 5.13967
2.66072 1.75948 5.14977
2.66495 1.76892 5.1796
2.63888 1.76281 5.17089
2.62397 1.764 5.18299
2.60094 1.75995 5.17922
2.58705 1.76219 5.19429
2.56606 1.76022 5.19548
2.56437 1.77182 5.23633
2.52913 1.75839 5.20579
2.5283 1.76472 5.2277
2.51035 1.76382 5.23385
2.4863 1.75975 5.22809
2.48055 1.76823 5.26001
2.4514 1.75897 5.24137
2.44364 1.76743 5.27231
2.4206 1.76337 5.26754
2.4106 1.76138 5.26764
2.40384 1.77086 5.29956
2.37061 1.75744 5.27
2.3598 1.76382 5.29499
2.33778 1.76079 5.2922
2.31879 1.75883 5.29438
2.31106 1.76834 5.3283
2.28983 1.75693 5.29962
2.28208 1.76541 5.33156
2.26005 1.76236 5.32777
2.24311 1.76251 5.3369
2.22924 1.76576 5.35296
2.20312 1.75855 5.33826
2.19231 1.76493 5.36325
2.18233 1.76497 5.36532
2.1603 1.76093 5.36155
2.15255 1.77042 5.39447
2.12439 1.76114 5.37482
2.11664 1.76962 5.40675
2.08951 1.76239 5.39006
2.07359 1.76357 5.40117
2.06074 1.76886 5.42019
2.04665 1.7637 5.40937
2.02973 1.76486 5.41948
2.00974 1.76289 5.42066
1.99178 1.763 5.4268
1.98405 1.77352 5.4617
1.95384 1.76213 5.4341
1.94406 1.76956 5.46306
1.92791 1.76229 5.44429
1.91918 1.77282 5.47921
1.89612 1.76772 5.47145
1.88022 1.76992 5.48454
1.86535 1.77418 5.50159
1.84432 1.77114 5.4978
1.82636 1.77124 5.50393
1.7974 1.77032 5.50816
1.52405 1.77479 5.59617
1.50403 1.77176 5.59336
1.46816 1.77504 5.61059
1.42224 1.77524 5.62193
1.36428 1.77235 5.62741
1.34738 1.77556 5.64049
1.31734 1.77251 5.63577
1.24348 1.77283 5.65432
1.20657 1.77402 5.66558
1.19554 1.77297 5.66168
1.17862 1.77514 5.67278
1.1586 1.77313 5.67096
1.13962 1.77317 5.6731
1.12169 1.77432 5.68222
1.1027 1.77434 5.68336
1.08267 1.7713 5.67956
1.0737 1.77338 5.6846
1.01781 1.77463 5.699
0.998819 1.77366 5.70016
0.942897 1.77485 5.71056
0.295305 1.77309 5.76748
0.257229 1.76897 5.75782
0.238337 1.77319 5.7719
0.152254 1.76909 5.76161
0.114318 1.77223 5.76985
0.0761944 1.76603 5.75423
0.0562495 1.76914 5.76133
0.0473113 1.77127 5.76937
-0.0621924 1.76839 5.57021
-0.0811993 1.76839 5.56935
-0.145236 1.76736 5.56485
-0.182242 1.76737 5.56413
-0.238233 1.76843 5.56554
-0.25627 1.76736 5.56069
-0.284246 1.76843 5.56388
-0.357313 1.76735 5.55545
-0.37535 1.76629 5.5506
-0.38435 1.7663 5.55067
-0.420488 1.76106 5.53301
-0.44034 1.76735 5.55207
-0.458378 1.76629 5.54722
-0.477362 1.76733 5.54935
-0.494477 1.76312 5.53454
-0.522422 1.76625 5.54171
-0.559451 1.76622 5.53798
-0.577496 1.76514 5.53214
-0.595549 1.76305 5.5253
-0.614525 1.76511 5.52841
-0.632524 1.76612 5.52854
-0.641563 1.76405 5.52363
-0.660531 1.76613 5.52775
-0.714643 1.76394 5.51318
-0.760626 1.76601 5.5155
-0.778663 1.76595 5.51064
-0.795755 1.76178 5.49883
-0.832776 1.76276 5.49609
-0.850783 1.76376 5.49521
-0.877874 1.7606 5.48346
-0.9509 1.7636 5.47996
-0.995021 1.76039 5.46434
-1.03398 1.76449 5.46958
-1.05103 1.7634 5.46272
-1.08518 1.75915 5.44404
-1.10511 1.76328 5.45213
-1.12123 1.75907 5.43731
-1.13217 1.7622 5.44535
-1.14825 1.76005 5.4345
-1.16821 1.76313 5.4396
-1.18722 1.76312 5.43775
-1.22231 1.76198 5.42703
-1.24451 1.7546 5.4003
-1.26737 1.76288 5.41835
-1.28446 1.75973 5.40753
-1.30343 1.76279 5.41062
-1.35557 1.76056 5.39305
-1.38167 1.75839 5.38027
-1.41189 1.75098 5.35161
-1.45473 1.76131 5.37178
-1.47278 1.76023 5.36593
-1.47887 1.75706 5.35402
-1.49883 1.76015 5.35913
-1.51493 1.75796 5.34628
-1.53489 1.76105 5.35138
-1.55294 1.75996 5.34454
-1.58508 1.75671 5.32582
-1.59607 1.75874 5.32788
-1.61409 1.75971 5.325
-1.62918 1.75654 5.31316
-1.65015 1.7596 5.31627
-1.66721 1.75951 5.3094
-1.71836 1.75825 5.2898
-1.72445 1.75508 5.27789
-1.7454 1.75818 5.284
-1.76442 1.75917 5.28213
-1.81559 1.75787 5.25953
-1.83166 1.75574 5.25068
-1.85381 1.75246 5.2309
-1.88987 1.75337 5.22315
-1.91083 1.75745 5.22725
-1.92691 1.75531 5.2174
-1.96513 1.75091 5.18875
-2.01922 1.75277 5.17713
-2.03727 1.75268 5.17027
-2.06038 1.75048 5.15547
-2.08333 1.75559 5.16257
-2.10136 1.75655 5.15869
-2.12957 1.75116 5.13098
-2.16466 1.751 5.11925
-2.17464 1.75304 5.12129
-2.20876 1.75283 5.10555
-2.22285 1.75066 5.09369
-2.25892 1.75255 5.08493
-2.27303 1.74934 5.07008
-2.29419 1.74605 5.04928
-2.31222 1.747 5.04541
-2.33714 1.75317 5.0555
-2.35124 1.75098 5.04264
-2.36927 1.75194 5.03876
-2.40042 1.74966 5.01903
-2.40649 1.74854 5.01009
-2.42552 1.74949 5.00622
-2.44059 1.74835 4.99635
-2.45765 1.74825 4.98848
-2.4747 1.74917 4.98259
-2.49372 1.75114 4.9797
-2.50585 1.74688 4.96185
-2.51191 1.74578 4.95492
-2.53684 1.75193 4.96401
-2.55291 1.7508 4.95415
-2.568 1.74963 4.94228
-2.58505 1.75055 4.93639
-2.59816 1.74734 4.92154
-2.6162 1.74828 4.91666
-2.62127 1.74715 4.90771
-2.64128 1.74914 4.90583
-2.66129 1.75112 4.90395
-2.68948 1.74777 4.87921
-2.72358 1.74959 4.86544
-2.73261 1.74955 4.86251
-2.75981 1.74617 4.83576
-2.79491 1.747 4.82301
-2.82803 1.74779 4.80725
-2.84409 1.74767 4.79837
-2.84719 1.74448 4.78544
-2.8682 1.74748 4.78455
-2.88032 1.74525 4.76867
-2.8954 1.74412 4.7588
-2.92851 1.7449 4.74304
-2.94458 1.74478 4.73416
-2.9536 1.74574 4.73121
-2.97066 1.74564 4.72334
-2.97686 1.73926 4.69748
-3.00181 1.74538 4.70458
-3.03097 1.74407 4.68281
-3.04902 1.74498 4.67594
-3.06917 1.74372 4.6571
-3.09932 1.74243 4.63635
-3.11045 1.74018 4.61946
-3.13245 1.7432 4.61958
-3.1416 1.73993 4.6007
-3.18375 1.74065 4.58
-3.2139 1.74037 4.56023
-3.22404 1.73711 4.54235
-3.24109 1.73902 4.53545
-3.25308 1.74104 4.53651
-3.26619 1.73985 4.52263
-3.28028 1.73868 4.51075
-3.30029 1.74166 4.50885
-3.31142 1.73942 4.49197
-3.32551 1.73825 4.48009
-3.34454 1.74121 4.47619
-3.34565 1.73699 4.46126
-3.36766 1.74099 4.46037
-3.3768 1.73771 4.44148
-3.39583 1.73967 4.43759
-3.40201 1.73432 4.41372
-3.42402 1.73832 4.41282
-3.42919 1.73298 4.38994
-3.45417 1.73804 4.39305
-3.45824 1.7369 4.3831
-3.46937 1.73467 4.36721
-3.4884 1.73661 4.36233
-3.50348 1.73646 4.35144
-3.51361 1.73421 4.33455
-3.53463 1.7372 4.33266
-3.53783 1.7308 4.30578
-3.54586 1.73175 4.30182
-3.56787 1.73573 4.29993
-3.57404 1.73041 4.27805
-3.59505 1.7344 4.27615
-3.60717 1.73319 4.26126
-3.6173 1.72994 4.24438
-3.6393 1.73494 4.24347
-3.63942 1.73072 4.22853
-3.65648 1.73161 4.22065
-3.67849 1.7356 4.21875
-3.68762 1.73336 4.20185
-3.69973 1.73214 4.18696
-3.72373 1.73716 4.18707
-3.72889 1.73184 4.16518
-3.72603 1.72658 4.14824
-3.75796 1.73573 4.15634
-3.7671 1.73347 4.13844
-3.78514 1.73539 4.13255
-3.79824 1.73421 4.11966
-3.81233 1.73404 4.10777
-3.81551 1.72869 4.08387
-3.83247 1.73377 4.08892
-3.84557 1.73359 4.07602
-3.8537 1.73033 4.05813
-3.87276 1.73324 4.05123
-3.88783 1.7331 4.04134
-3.89597 1.73084 4.02344
-3.91403 1.73272 4.01454
-3.93614 1.73352 3.9997
-3.95123 1.73436 3.9888
-5.75179 1.68133 0.602678
-5.76833 1.68229 0.531779
-5.7664 1.68114 0.52178
-5.76055 1.67785 0.502782
-5.76768 1.67859 0.484822
-5.75684 1.67429 0.464801
-5.76696 1.67604 0.447849
-5.7711 1.67678 0.429867
-5.76923 1.67551 0.411869
-5.7703 1.67538 0.402878
-5.77444 1.67512 0.38491
-5.77857 1.67585 0.366928
-5.76573 1.67055 0.346907
-5.76586 1.67028 0.32891
-5.76001 1.667 0.309912
-5.76514 1.66773 0.291937
-5.75922 1.66558 0.281923
-5.77234 1.66934 0.264964
-5.76649 1.66605 0.245966
-5.76562 1.66579 0.227961
-5.76576 1.66452 0.209978
-5.7599 1.66223 0.190965
-5.76104 1.66197 0.172975
-5.76418 1.6617 0.155
-5.76524 1.66157 0.146009
-5.76139 1.65929 0.127011
-5.76951 1.66204 0.110029
-5.76566 1.65976 0.0910312
-5.77278 1.66151 0.0740566
-5.77193 1.66023 0.0550665
-5.76907 1.65896 0.0370612
-5.76627 1.65756 0.0100571
-5.77055 1.65701 -0.0269077
5.24871 1.74238 2.48216
5.23782 1.74161 2.49725
5.22794 1.74086 2.51334
5.22509 1.74415 2.53332
5.22417 1.7453 2.54331
5.20223 1.74045 2.55255
5.19637 1.74172 2.57057
5.19051 1.74399 2.58859
5.18163 1.74424 2.60465
5.16271 1.74041 2.61585
5.15182 1.73964 2.63095
5.15492 1.74283 2.64388
5.13599 1.74 2.65407
5.14018 1.74535 2.67796
5.12226 1.74153 2.68915
5.10434 1.7387 2.70033
5.1035 1.74201 2.72129
5.09563 1.74327 2.73833
5.09069 1.74339 2.74637
5.07579 1.7416 2.75951
5.0649 1.74183 2.77459
5.06306 1.74514 2.79556
5.05519 1.7454 2.81262
5.03526 1.74254 2.82181
5.03241 1.74484 2.8418
5.02546 1.74395 2.84887
5.01759 1.74521 2.86591
5.01876 1.74955 2.88884
5.00888 1.74978 2.90391
4.98292 1.74388 2.9102
4.97103 1.7441 2.92429
4.97623 1.75048 2.95016
4.9583 1.74764 2.96033
4.94834 1.74572 2.96544
4.94449 1.74802 2.98544
4.92656 1.74518 2.99562
4.91467 1.7454 3.0097
4.91484 1.74974 3.03264
4.88586 1.74279 3.03496
4.88804 1.74714 3.05888
4.89014 1.75134 3.07181
4.87322 1.74851 3.08298
4.86234 1.74876 3.09906
4.85949 1.75205 3.11904
4.84258 1.75023 3.13019
4.83068 1.74945 3.14429
4.82885 1.75377 3.16625
4.80982 1.74774 3.16348
4.80297 1.75003 3.1825
4.79409 1.75127 3.19855
4.7812 1.75049 3.21266
4.77735 1.75379 3.23264
4.7725 1.75709 3.25264
4.74652 1.75015 3.25593
4.75567 1.75742 3.27476
4.74579 1.75767 3.29083
4.72585 1.7548 3.29903
4.70691 1.75095 3.30823
4.70005 1.75322 3.32625
4.67206 1.74727 3.32855
4.6813 1.75572 3.35936
4.67444 1.75799 3.37738
4.65239 1.75092 3.37165
4.65156 1.75626 3.39458
4.64571 1.75855 3.41359
4.62778 1.75671 3.42375
4.60986 1.75387 3.43393
4.60099 1.75513 3.45098
4.58808 1.75533 3.46408
4.58214 1.75544 3.47112
4.57427 1.75771 3.48915
4.55232 1.75282 3.49539
4.54747 1.75612 3.51538
4.52771 1.7586 3.5475
4.5128 1.75779 3.55962
4.49679 1.75377 3.5578
4.48288 1.75298 3.57092
4.47703 1.75526 3.58993
4.47218 1.75956 3.60991
4.45425 1.75671 3.61909
4.43732 1.75487 3.62925
4.43047 1.75816 3.64825
4.41848 1.75519 3.65038
4.40156 1.75335 3.66054
4.39369 1.75561 3.67757
4.37072 1.7517 3.6828
4.37394 1.75911 3.71067
4.357 1.75726 3.71983
4.34612 1.75749 3.73491
4.3301 1.75347 3.73309
4.31821 1.7547 3.74816
4.31034 1.75696 3.76519
4.3045 1.76026 3.78519
4.28959 1.75945 3.79731
4.27971 1.76069 3.81337
4.26278 1.75885 3.82353
4.25492 1.76213 3.84154
4.24595 1.76119 3.84562
4.23104 1.76038 3.85775
4.2131 1.75851 3.86591
4.19617 1.75666 3.87507
4.1883 1.75893 3.8931
4.17844 1.7612 3.91114
4.1615 1.75933 3.9193
4.15656 1.76046 3.92732
4.14871 1.76274 3.94635
4.1217 1.75675 3.94564
4.11586 1.76106 3.96662
4.09489 1.75715 3.97184
4.07998 1.75733 3.98295
4.06304 1.75546 3.99111
4.05407 1.75454 3.99619
4.04016 1.75473 4.00829
4.03231 1.75801 4.0273
4.01941 1.75822 4.0404
4.00449 1.75739 4.05153
3.9916 1.75861 4.06561
3.97265 1.75572 4.07279
3.9788 1.76201 4.09266
3.95683 1.75909 4.09687
3.95099 1.76241 4.11787
3.92093 1.75432 4.11121
3.91409 1.75864 4.1322
3.89918 1.75781 4.14333
3.8893 1.76006 4.15937
3.87831 1.7581 4.16148
3.87248 1.76342 4.18345
3.84243 1.75534 4.1768
3.83458 1.75865 4.19681
3.82571 1.7609 4.21384
3.80474 1.75799 4.21905
3.78982 1.75815 4.22916
3.78489 1.75929 4.23818
3.77098 1.75948 4.25028
3.75102 1.75658 4.25648
3.74215 1.75984 4.2735
3.73128 1.76208 4.28955
3.7093 1.75814 4.29277
3.69943 1.76042 4.31082
3.68047 1.75851 4.31599
3.68362 1.76378 4.33489
3.66869 1.76394 4.345
3.64369 1.75896 4.34526
3.62675 1.75809 4.3534
3.62193 1.76344 4.37636
3.59691 1.75743 4.37464
3.58301 1.75863 4.38773
3.59423 1.76805 4.41651
3.56214 1.75891 4.40589
3.54824 1.7601 4.41797
3.53332 1.76027 4.42909
3.51537 1.75839 4.43625
3.50752 1.76269 4.45625
3.49261 1.76286 4.46736
3.47555 1.75777 4.46056
3.46164 1.75896 4.47265
3.44976 1.76021 4.48872
3.42473 1.75517 4.48499
3.41689 1.75947 4.50499
3.41309 1.76587 4.53192
3.39008 1.76087 4.53117
3.38212 1.76095 4.53623
3.36821 1.76214 4.54832
3.35027 1.76127 4.55647
3.33535 1.76143 4.56658
3.32954 1.7668 4.59155
3.30046 1.75868 4.58188
3.28554 1.75985 4.59298
3.27366 1.76208 4.60804
3.26469 1.76115 4.61212
3.24875 1.76128 4.62024
3.24395 1.76767 4.64619
3.20881 1.75643 4.62861
3.20198 1.76176 4.65059
3.19315 1.76609 4.6726
3.1691 1.76003 4.66787
3.16114 1.76011 4.67293
3.15129 1.7644 4.69194
3.1222 1.75626 4.68128
3.11032 1.7585 4.69734
3.09642 1.75969 4.70942
3.07846 1.75879 4.71557
3.06152 1.75792 4.72372
3.05761 1.76109 4.7347
3.04269 1.76126 4.74581
3.02575 1.76139 4.75394
3.00779 1.7595 4.7601
2.98274 1.75341 4.75338
2.98201 1.76393 4.78823
2.95393 1.7568 4.77855
2.94596 1.75687 4.78261
2.9351 1.76014 4.80065
2.92322 1.76239 4.8167
2.90627 1.7625 4.82383
2.88934 1.76265 4.83296
2.87341 1.76279 4.84208
2.85748 1.76294 4.8512
2.84546 1.75992 4.84933
2.83663 1.76525 4.87132
2.81461 1.76122 4.86855
2.79767 1.76135 4.87667
2.7787 1.75943 4.88085
2.76377 1.76058 4.89094
2.74582 1.7597 4.89809
2.73598 1.764 4.91811
2.71989 1.75885 4.9073
2.70498 1.76004 4.9194
2.69819 1.76745 4.94634
2.67414 1.76136 4.93961
2.66328 1.76565 4.95863
2.64634 1.76578 4.96676
2.62635 1.76281 4.96796
2.62043 1.76496 4.97797
2.60551 1.76714 4.98905
2.58755 1.76522 4.99422
2.56857 1.76328 4.99739
2.55671 1.76756 5.01542
2.54586 1.77186 5.03544
2.52892 1.77199 5.04356
2.51791 1.77097 5.04166
2.4969 1.76797 5.04086
2.47792 1.76603 5.04404
2.46606 1.7693 5.06208
2.44912 1.76943 5.07021
2.43116 1.76952 5.07534
2.41523 1.76968 5.08546
2.40014 1.76451 5.07365
2.38422 1.76569 5.08475
2.36626 1.76478 5.0899
2.35237 1.76799 5.10396
2.32358 1.77241 5.13112
2.30662 1.77251 5.13724
2.28968 1.77265 5.14537
2.27866 1.77061 5.14248
2.25764 1.7676 5.14069
2.24069 1.76771 5.14781
2.22376 1.76786 5.15694
2.20682 1.76797 5.16407
2.19293 1.7712 5.17913
2.16988 1.76612 5.17237
2.16701 1.77137 5.18932
2.14394 1.76626 5.18057
2.12698 1.76636 5.1867
2.10902 1.76544 5.19184
2.09311 1.76763 5.20393
2.07412 1.76566 5.20511
2.06127 1.77095 5.22413
2.03433 1.77009 5.23234
2.01943 1.77229 5.24543
1.99226 1.763 5.22477
1.9645 1.76948 5.25588
1.94962 1.77271 5.27095
1.92368 1.77285 5.27914
1.9047 1.77191 5.2823
0.0281364 1.75905 5.34864
0.011044 1.75488 5.33683
0.0020756 1.75695 5.34086
-0.0158781 1.75805 5.34698
-0.0330709 1.74969 5.32223
-0.050985 1.75387 5.33331
-0.0689299 1.75699 5.3404
-0.0869915 1.75388 5.33258
-0.103975 1.75492 5.33469
-0.113068 1.75075 5.32282
-0.130114 1.74868 5.31698
-0.148989 1.75493 5.33303
-0.166097 1.74973 5.31923
-0.183097 1.74974 5.31936
-0.201042 1.75286 5.32645
-0.21815 1.74767 5.31266
-0.236102 1.75077 5.31875
-0.245187 1.74661 5.30788
-0.263062 1.75286 5.32392
-0.281085 1.75183 5.32107
-0.298123 1.75077 5.31621
-0.316146 1.74974 5.31336
-0.334098 1.75284 5.31945
-0.351144 1.75076 5.31361
-0.360151 1.75075 5.31268
-0.377251 1.74657 5.29987
-0.395157 1.75177 5.31193
-0.413211 1.74967 5.3051
-0.430249 1.74761 5.30025
-0.448248 1.74863 5.30037
-0.465239 1.74965 5.30149
-0.474262 1.74862 5.29857
-0.492277 1.7486 5.29671
-0.5093 1.74757 5.29385
-0.526376 1.74543 5.28401
-0.544344 1.7475 5.28811
-0.562281 1.75064 5.2962
-0.579381 1.74646 5.28339
-0.58745 1.74433 5.27448
-0.606333 1.74956 5.28955
-0.623409 1.74743 5.27971
-0.640447 1.74637 5.27485
-0.658423 1.74742 5.27797
-0.676407 1.74947 5.28008
-0.694398 1.75049 5.2812
-0.711443 1.74942 5.27534
-0.719497 1.74732 5.26843
-0.737488 1.74835 5.26955
-0.754549 1.74624 5.26171
-0.772533 1.74729 5.26383
-0.789555 1.74725 5.26096
-0.806585 1.74721 5.25709
-0.823669 1.74406 5.24626
-0.831676 1.74405 5.24532
-0.851582 1.74924 5.2574
-0.867689 1.74604 5.24356
-0.884711 1.74601 5.24069
-0.904633 1.75017 5.25078
-0.92071 1.74704 5.24095
-0.939677 1.75011 5.24505
-0.945801 1.74488 5.22917
-0.962823 1.74485 5.2263
-0.979861 1.74378 5.22144
-1.00076 1.74999 5.23451
-1.01683 1.74787 5.22566
-1.03288 1.74678 5.21879
-1.05089 1.74678 5.21793
-1.06182 1.75092 5.22695
-1.07402 1.74253 5.20017
-1.09784 1.7519 5.22421
-1.10908 1.74243 5.19243
-1.12902 1.74657 5.20052
-1.14702 1.74758 5.20064
-1.1621 1.74543 5.18979
-1.174 1.75063 5.2028
-1.19009 1.74746 5.19097
-1.20712 1.74743 5.18809
-1.22223 1.74322 5.17327
-1.24314 1.74941 5.18534
-1.25532 1.74207 5.16153
-1.27623 1.74725 5.17262
-1.29228 1.74617 5.16675
-1.30032 1.74509 5.16083
-1.31737 1.74501 5.15496
-1.33343 1.7429 5.14711
-1.34949 1.7418 5.13924
-1.36751 1.74276 5.13636
-1.38744 1.74691 5.14545
-1.40255 1.74372 5.13161
-1.41154 1.74474 5.13267
-1.42955 1.74572 5.13079
-1.44561 1.74463 5.12392
-1.46264 1.74457 5.11905
-1.48358 1.7497 5.12713
-1.49671 1.74446 5.11031
-1.51376 1.74437 5.10344
-1.52275 1.74539 5.10449
-1.53589 1.74015 5.08767
-1.55487 1.74319 5.08976
-1.57485 1.74523 5.09188
-1.60696 1.74405 5.07814
-1.62203 1.74191 5.06828
-1.62909 1.7398 5.06037
-1.65004 1.74492 5.06745
-1.66609 1.74383 5.06059
-1.6802 1.74063 5.04674
-1.69723 1.74158 5.04285
-1.71622 1.7436 5.04297
-1.73129 1.74147 5.03411
-1.74129 1.74348 5.03416
-1.75833 1.74342 5.02928
-1.77439 1.74231 5.02142
-1.78946 1.74119 5.01255
-1.81335 1.74841 5.02662
-1.82648 1.74417 5.00978
-1.84251 1.74411 5.0049
-1.86347 1.74821 5.011
-1.86564 1.74089 4.98912
-1.88463 1.74392 4.99022
-1.90166 1.74386 4.98535
-1.91479 1.74063 4.9695
-1.93279 1.74263 4.9686
-1.94983 1.74257 4.96373
-1.95904 1.73517 4.93691
-1.97196 1.73932 4.94594
-1.99096 1.74234 4.94704
-2.00702 1.74124 4.93918
-2.02208 1.74012 4.93031
-2.04206 1.74317 4.93341
-2.05615 1.74201 4.92153
-2.07124 1.73984 4.90968
-2.08024 1.74085 4.90973
-2.09433 1.73868 4.89787
-2.10842 1.73651 4.886
-2.1284 1.73956 4.88811
-2.14053 1.73531 4.87126
-2.15955 1.7373 4.86938
-2.18248 1.74345 4.87846
-2.18264 1.73714 4.85755
-2.20066 1.73811 4.85467
-2.22065 1.74114 4.85578
-2.22883 1.73479 4.83193
-2.25178 1.73991 4.83903
-2.27177 1.74294 4.84013
-2.2829 1.73868 4.82228
-2.29192 1.73965 4.82033
-2.30797 1.73956 4.81345
-2.32205 1.73841 4.80257
-2.33222 1.73311 4.78173
-2.35317 1.7372 4.78682
-2.37022 1.73812 4.78094
-2.38529 1.737 4.77207
-2.40332 1.73794 4.76719
-2.40839 1.73581 4.75826
-2.4274 1.7388 4.75736
-2.4405 1.73561 4.7435
-2.45754 1.73755 4.7386
-2.47261 1.73642 4.72973
-2.48768 1.73529 4.71986
-2.50374 1.73518 4.71198
-2.50881 1.73305 4.70305
-2.53175 1.73917 4.71013
-2.54289 1.73491 4.69227
-2.5619 1.73791 4.69137
-2.5819 1.74092 4.69148
-2.59499 1.73874 4.67861
-2.60809 1.73656 4.66574
-2.61613 1.73649 4.6608
-2.62528 1.7322 4.64093
-2.64627 1.73625 4.64303
-2.65936 1.73408 4.63116
-2.67641 1.73499 4.62427
-2.69344 1.73593 4.61938
-2.70457 1.73268 4.60251
-2.71457 1.7347 4.60356
-2.7316 1.73564 4.59867
-2.74175 1.73137 4.57981
-2.76175 1.73537 4.5789
-2.77189 1.73111 4.56104
-2.78696 1.73099 4.55215
-2.80597 1.73297 4.55026
-2.81498 1.73495 4.5483
-2.82315 1.72963 4.52644
-2.84612 1.7347 4.53054
-2.85625 1.73046 4.51368
-2.86934 1.72929 4.50179
-2.88836 1.73226 4.49889
-2.90935 1.73629 4.49999
-2.91145 1.7321 4.48706
-2.93738 1.73924 4.49515
-2.9485 1.73702 4.48027
-2.95271 1.72963 4.45341
-2.96976 1.73054 4.44652
-2.98779 1.73249 4.44263
-2.99792 1.72923 4.42475
-3.01496 1.73117 4.41985
-3.02793 1.73424 4.4239
-3.02917 1.72578 4.39303
-3.0551 1.73292 4.40112
-3.06622 1.72969 4.38525
-3.07536 1.72643 4.36737
-3.09536 1.72943 4.36647
-3.10549 1.72718 4.34958
-3.1276 1.72699 4.33575
-3.14267 1.72686 4.32586
-3.1528 1.72361 4.30898
-3.16589 1.72246 4.2981
-3.18689 1.72646 4.2972
-3.19701 1.72423 4.2813
-3.20702 1.72622 4.28035
-3.21516 1.72195 4.26147
-3.23419 1.7239 4.25759
-3.25421 1.72687 4.25469
-3.26235 1.72361 4.2368
-3.27346 1.7214 4.22191
-3.28951 1.7233 4.215
-3.30052 1.7253 4.21406
-3.30766 1.72102 4.19517
-3.32372 1.72191 4.18728
-3.34473 1.72591 4.18638
-3.36993 1.72355 4.1606
-3.38103 1.72235 4.1467
-3.39104 1.72333 4.14476
-3.4071 1.72422 4.13687
-3.41623 1.72197 4.11997
-3.43625 1.72494 4.11707
-3.44043 1.71961 4.09418
-3.4555 1.71949 4.08529
-3.4775 1.72449 4.08439
-3.48455 1.7244 4.07844
-3.49664 1.72323 4.06655
-3.50577 1.72099 4.04965
-3.53075 1.72604 4.05176
-3.54383 1.72588 4.04086
-3.56287 1.72881 4.03496
-3.56803 1.7235 4.01407
-3.57715 1.72227 3.99816
-3.5842 1.72219 3.99221
-3.59233 1.71894 3.97532
-3.61632 1.72396 3.97542
-3.63436 1.7269 3.97052
-3.63953 1.72158 3.94863
-3.64468 1.71728 3.92873
-3.66669 1.72227 3.92682
-3.67275 1.72117 3.91988
-3.68583 1.72102 3.90898
-3.70388 1.72393 3.90207
-3.7021 1.71551 3.87418
-3.71617 1.71637 3.86427
-3.7372 1.72033 3.86037
-3.74037 1.71499 3.83747
-3.76535 1.72104 3.83957
-3.78529 1.72717 3.84763
-3.78647 1.72082 3.82373
-3.80056 1.72166 3.81282
-3.81761 1.72356 3.80492
-3.82773 1.72234 3.79002
-3.83784 1.72013 3.77512
-3.86382 1.72718 3.77721
-3.87186 1.72711 3.77227
-3.87007 1.71971 3.74537
-3.88812 1.72262 3.73846
-3.89823 1.7214 3.72355
-3.9133 1.72226 3.71365
-3.92043 1.71902 3.69675
-3.92659 1.71573 3.67684
-3.94751 1.72287 3.6859
-3.95266 1.7196 3.66698
-3.96277 1.71838 3.65207
-3.98381 1.72232 3.64717
-3.99194 1.72008 3.63026
-4.01098 1.723 3.62436
-4.01513 1.71871 3.60446
-4.03508 1.72481 3.61052
-4.0442 1.7236 3.5956
-4.04836 1.71929 3.57469
-4.06641 1.7222 3.56778
-4.08546 1.72511 3.56088
-4.09953 1.72597 3.55098
-4.11362 1.7268 3.53907
-4.1258 1.72346 3.51521
-4.15912 1.72186 3.47348
-4.1732 1.72271 3.46257
-4.19225 1.72662 3.45565
-4.20038 1.72437 3.43874
-5.49666 1.68635 0.884721
-5.50678 1.68812 0.868768
-5.499 1.68368 0.839771
-5.51011 1.68547 0.824827
-5.51325 1.6852 0.806852
-5.52037 1.68597 0.790892
-5.52983 1.68506 0.728968
-5.53196 1.68381 0.712
-5.52911 1.68153 0.69301
-5.53423 1.68228 0.676035
-5.53536 1.68103 0.65906
-5.52752 1.67673 0.639061
-5.53457 1.67863 0.632086
-5.53171 1.67635 0.613095
-5.52086 1.67206 0.594074
-5.52998 1.67381 0.577115
-5.52512 1.67054 0.559124
-5.52326 1.66927 0.541126
-5.53538 1.67205 0.525174
-5.52852 1.66876 0.506169
-5.5206 1.66561 0.496154
-5.52872 1.66737 0.480187
-5.52985 1.66611 0.462212
-5.52613 1.66357 0.426216
-5.53045 1.66194 0.383267
-5.53871 1.66243 0.348317
5.77251 1.71234 -0.334732
5.77265 1.71263 -0.315734
5.76478 1.7099 -0.297632
5.77492 1.71416 -0.279769
5.77306 1.71343 -0.261742
5.77812 1.71555 -0.25281
5.77226 1.71383 -0.234738
5.7774 1.71609 -0.216808
5.76653 1.71236 -0.198668
5.76166 1.71163 -0.180618
5.7658 1.7129 -0.162665
5.76294 1.71218 -0.143631
5.76208 1.71245 -0.125626
5.76015 1.71258 -0.116612
5.76728 1.71484 -0.0986967
5.76242 1.71411 -0.0806467
5.76255 1.71438 -0.0626492
5.76269 1.71565 -0.0446665
5.75682 1.71392 -0.0265942
5.76297 1.71619 -0.00767159
5.75703 1.71432 0.00040208
5.74716 1.71159 0.0185193
5.7473 1.71286 0.036502
5.75644 1.71613 0.0553872
5.75057 1.71539 0.0724448
5.74971 1.71567 0.0914497
5.75085 1.71594 0.10944
5.75893 1.72008 0.119319
5.75005 1.71734 0.136429
5.7542 1.71961 0.155366
5.74332 1.71687 0.172491
5.75361 1.72141 0.209352
5.74073 1.71768 0.226506
5.72037 1.7229 0.443612
5.68256 1.72027 0.601958
5.68584 1.72383 0.639886
5.68999 1.72611 0.658823
5.6824 1.72791 0.712861
5.65155 1.71925 0.734225
5.66786 1.72783 0.773981
5.64409 1.72232 0.806246
5.65125 1.72661 0.826131
5.63837 1.72386 0.842271
5.65146 1.72902 0.854098
4.76835 1.73892 2.83588
4.7526 1.74042 2.86898
4.70082 1.73288 2.89848
4.63453 1.73434 2.99398
4.55141 1.73612 3.11059
4.51671 1.73573 3.15086
4.32448 1.73834 3.38631
3.8719 1.74238 3.84272
3.72588 1.74339 3.97282
3.60961 1.74492 4.07069
3.53307 1.74486 4.13127
3.41175 1.74628 4.22218
2.71204 1.75023 4.66245
2.66422 1.74961 4.68583
2.64929 1.75077 4.69592
2.62335 1.7489 4.70415
2.59248 1.74918 4.72138
2.50379 1.74884 4.76206
2.49089 1.75104 4.77512
2.47292 1.75012 4.78027
2.45801 1.7513 4.79137
2.42612 1.75154 4.80661
2.41712 1.75055 4.80669
2.40322 1.75275 4.81976
2.38626 1.75184 4.82491
2.37643 1.75717 4.84691
2.35235 1.75104 4.83718
2.32046 1.75127 4.85141
2.31454 1.75344 4.86243
2.29758 1.75352 4.86756
2.28061 1.7516 4.87171
2.26568 1.75376 4.88179
2.25178 1.75494 4.89388
2.23177 1.75296 4.89406
2.22092 1.75725 4.91308
2.20785 1.75312 4.90424
2.18886 1.75117 4.90641
2.17394 1.75233 4.91651
2.16105 1.75554 4.93056
2.14103 1.75253 4.92876
2.12612 1.75472 4.94084
2.11222 1.7559 4.95293
2.10119 1.75487 4.95003
2.08423 1.75395 4.95517
2.07238 1.75824 4.9742
2.0544 1.7573 4.97735
2.03436 1.75324 4.97256
2.01945 1.75543 4.98464
2.00351 1.75656 4.99274
1.9935 1.75454 4.99085
1.97858 1.75671 5.00193
1.95755 1.75267 4.99815
1.94363 1.75484 5.00922
1.93383 1.76223 5.03519
1.90973 1.75504 5.02148
1.89685 1.75929 5.03751
1.88091 1.75942 5.04563
1.86578 1.75218 5.02885
1.85393 1.75748 5.04886
1.83802 1.75966 5.05995
1.81899 1.75663 5.05714
1.80102 1.7567 5.06128
1.78919 1.76203 5.08329
1.7712 1.76106 5.08444
1.76631 1.76527 5.09842
1.74935 1.76536 5.10354
1.72726 1.75921 5.0928
1.71439 1.76347 5.10984
1.70154 1.76876 5.12886
1.68252 1.76575 5.12704
1.66661 1.76792 5.13813
1.58877 1.76829 5.15972
1.53583 1.76645 5.16814
1.52992 1.76963 5.18014
1.49395 1.76771 5.18444
1.47494 1.76571 5.18362
1.45799 1.76681 5.18973
1.44102 1.76689 5.19386
1.42096 1.76178 5.18608
1.41711 1.76908 5.20601
1.39708 1.76604 5.2022
1.37909 1.76508 5.20435
1.36317 1.76724 5.21444
1.34413 1.76418 5.20963
1.32616 1.76425 5.21376
1.3123 1.76953 5.23179
1.29918 1.7623 5.216
1.28219 1.76234 5.21812
1.26731 1.76658 5.23317
1.24725 1.76249 5.22639
1.22824 1.76047 5.22456
1.21232 1.76265 5.23565
1.19121 1.75644 5.2209
1.18738 1.76377 5.24282
1.16838 1.76278 5.24298
1.14933 1.75971 5.23717
1.13135 1.75875 5.23932
1.11437 1.75881 5.24244
1.09744 1.76095 5.25154
1.07942 1.75894 5.24971
1.06349 1.76108 5.2588
1.05451 1.76113 5.26186
1.03754 1.7612 5.26599
1.01745 1.75604 5.25422
0.999475 1.7561 5.25735
0.982522 1.7582 5.26345
0.965576 1.75931 5.27056
0.948599 1.75937 5.27369
0.938584 1.75835 5.27178
0.922661 1.76051 5.28187
0.904684 1.76057 5.285
0.888761 1.76373 5.29508
0.870753 1.76172 5.29424
0.85173 1.76069 5.2914
0.834761 1.76076 5.29553
0.824699 1.75765 5.28765
0.806715 1.7577 5.28978
0.789784 1.75984 5.29888
0.771753 1.7578 5.29505
0.754831 1.76096 5.30513
0.736808 1.75893 5.30229
0.720908 1.76213 5.31537
0.709769 1.75587 5.29754
0.693893 1.76112 5.31359
0.675932 1.76221 5.31871
0.656847 1.75706 5.30793
0.639893 1.75916 5.31402
0.623994 1.76236 5.3271
0.603893 1.75719 5.31432
0.597002 1.7624 5.3283
0.578971 1.76035 5.32447
0.55994 1.75831 5.32064
0.542979 1.75939 5.32575
0.52501 1.76046 5.32987
0.508034 1.76152 5.33298
0.490018 1.7595 5.33115
0.482111 1.76369 5.34315
0.464089 1.76266 5.3403
0.445027 1.75955 5.33249
0.428082 1.76167 5.33958
0.410035 1.75859 5.33377
0.393098 1.76172 5.34185
0.374051 1.75865 5.33604
0.357106 1.76076 5.34313
0.348152 1.76286 5.34917
0.331246 1.76705 5.36124
0.313183 1.76294 5.35343
0.295184 1.76296 5.35357
0.277161 1.76193 5.35072
0.259139 1.76089 5.34787
0.242177 1.76198 5.35298
0.233263 1.76615 5.36399
0.215124 1.7599 5.34622
0.197086 1.75784 5.34138
0.180179 1.76203 5.35345
0.16218 1.76204 5.35358
0.144095 1.75789 5.34278
0.126126 1.75896 5.3469
0.117173 1.76106 5.35294
0.0991575 1.76004 5.35109
0.0821041 1.75795 5.34425
0.0640889 1.75693 5.3424
0.0461202 1.75801 5.34652
0.0260923 1.76199 5.20959
0.00786815 1.75158 5.18088
-0.00913137 1.75159 5.18101
-0.0259294 1.76098 5.207
