4.54209 1.75437 4.13538
4.50725 1.7517 4.15669
4.50142 1.75503 4.17869
4.45851 1.74926 4.1921
4.44967 1.75156 4.21213
4.44573 1.75269 4.22115
4.43789 1.75601 4.24216
4.41291 1.75207 4.24541
4.40305 1.75335 4.26346
4.37908 1.74942 4.2677
4.36216 1.7486 4.27884
4.35533 1.75293 4.30083
4.33931 1.7489 4.29801
4.32945 1.75119 4.31706
4.31555 1.75139 4.33016
4.30065 1.75161 4.34427
4.29281 1.75491 4.36428
4.27489 1.75408 4.37543
4.24586 1.74706 4.37276
4.24396 1.75026 4.38572
4.22805 1.74943 4.39686
4.20709 1.74653 4.40306
4.18715 1.74467 4.41124
4.18738 1.75211 4.44113
4.17349 1.75234 4.45623
4.14748 1.74735 4.4555
4.15265 1.75365 4.47637
4.11959 1.74558 4.46974
4.09863 1.74268 4.47594
4.0918 1.74701 4.49793
4.08094 1.74928 4.51599
4.05695 1.74533 4.51822
4.0471 1.74762 4.53727
4.03813 1.74769 4.54133
4.0202 1.74585 4.5515
4.01135 1.74915 4.57152
3.98838 1.74621 4.57474
3.97651 1.74847 4.59179
3.95656 1.74559 4.59899
3.94569 1.74886 4.61702
3.93572 1.74692 4.62013
3.92081 1.7471 4.63224
3.914 1.75248 4.65721
3.89202 1.74954 4.66042
3.87712 1.74974 4.67354
3.85716 1.74785 4.67971
3.84125 1.74804 4.69183
3.82534 1.74823 4.70395
3.81841 1.74835 4.712
3.79743 1.74642 4.71619
3.7896 1.75075 4.73819
3.77572 1.75199 4.75328
3.75879 1.75115 4.76342
3.74288 1.75134 4.77554
3.7199 1.74838 4.77775
3.70386 1.74432 4.77293
3.69502 1.74764 4.79395
3.67809 1.7478 4.80408
3.66522 1.74905 4.82016
3.64728 1.74818 4.82831
3.63137 1.74938 4.84142
3.61445 1.74854 4.85156
3.60244 1.74654 4.85068
3.58856 1.74878 4.86675
3.56758 1.74584 4.86995
3.55673 1.74913 4.88899
3.53779 1.74726 4.89716
3.51683 1.74535 4.90235
3.50091 1.74553 4.91347
3.50003 1.74977 4.92941
3.48817 1.75204 4.94747
3.4672 1.75011 4.95166
3.44826 1.74925 4.95981
3.43234 1.74941 4.96993
3.4144 1.74855 4.97908
3.39243 1.74661 4.98228
3.38649 1.74774 4.9903
3.36957 1.74791 5.00143
3.35062 1.74703 5.00859
3.3428 1.75138 5.03159
3.32385 1.75049 5.03874
3.29782 1.74545 5.03501
3.28191 1.74564 5.04713
3.26889 1.74361 5.04426
3.25702 1.74588 5.06232
3.21913 1.74412 5.07663
3.20017 1.74322 5.08279
3.18629 1.74545 5.09786
3.15142 1.74474 5.11614
3.1076 1.74512 5.13947
3.05379 1.74353 5.1649
3.00995 1.74388 5.18723
2.99912 1.7482 5.20825
2.98522 1.75042 5.22232
2.92634 1.7467 5.23882
2.86052 1.74409 5.26236
2.80873 1.74454 5.29075
2.78181 1.74472 5.30195
2.74492 1.74396 5.31624
2.6752 1.74556 5.35375
2.66521 1.74458 5.35484
2.63238 1.74694 5.37805
2.53065 1.74454 5.41386
2.47887 1.747 5.44322
2.44198 1.74725 5.45849
2.43301 1.74732 5.46256
2.41505 1.7464 5.46771
2.39406 1.74445 5.4699
2.38225 1.75081 5.49389
2.35716 1.74467 5.48317
2.34433 1.749 5.50521
2.32535 1.74806 5.50837
2.31537 1.7481 5.51044
2.29233 1.74404 5.50567
2.27644 1.74626 5.51976
2.25849 1.74638 5.5269
2.24157 1.74755 5.53801
2.23282 1.75603 5.56995
2.2108 1.753 5.56716
2.19388 1.75418 5.57828
2.17981 1.75006 5.56944
2.15983 1.74912 5.57261
2.14291 1.75028 5.58272
2.126 1.75247 5.59481
2.10602 1.75152 5.59798
2.08705 1.7506 5.60214
2.06912 1.75174 5.61126
2.05505 1.74761 5.60142
2.03915 1.74983 5.61551
2.01915 1.74884 5.61568
2.00021 1.74896 5.62282
1.93923 1.74405 5.62635
1.93538 1.74935 5.6463
1.69578 1.7453 5.70118
1.66578 1.74333 5.70143
1.64787 1.7445 5.71255
1.56304 1.74489 5.73519
1.54304 1.74392 5.73635
1.52305 1.74295 5.73752
1.50513 1.74511 5.74762
1.48512 1.74311 5.7468
1.46824 1.74736 5.76287
1.44924 1.74537 5.76304
1.43927 1.74542 5.76612
1.42235 1.7486 5.7772
1.4034 1.74872 5.78434
1.38445 1.74982 5.79047
1.3655 1.74992 5.79661
1.34963 1.75419 5.81367
1.32757 1.7511 5.80688
1.30653 1.74802 5.80108
1.29862 1.75121 5.8131
1.2786 1.74919 5.81128
1.25757 1.74715 5.80747
1.24068 1.75037 5.82155
1.22277 1.75254 5.83265
1.2038 1.75262 5.83679
1.1838 1.75265 5.83794
1.1717 1.74746 5.82511
1.15173 1.74752 5.82826
1.1338 1.74968 5.83836
1.11483 1.74974 5.84151
1.09483 1.74876 5.84167
1.07587 1.74884 5.84681
1.0569 1.74993 5.85194
1.04691 1.74995 5.85302
1.03003 1.75319 5.8681
1.0069 1.74697 5.85236
0.988973 1.74911 5.86147
0.968997 1.74917 5.86462
0.952151 1.75448 5.88467
0.931066 1.75033 5.87389
0.921066 1.75034 5.87396
0.903174 1.75356 5.88805
0.882105 1.75044 5.87926
0.864229 1.75469 5.89533
0.842089 1.74744 5.8776
0.824151 1.74958 5.88571
0.804136 1.74856 5.88387
0.793105 1.74651 5.87998
0.774136 1.74758 5.88411
0.753082 1.74449 5.87731
0.73516 1.74666 5.88742
0.71516 1.74667 5.88757
0.696191 1.74674 5.89171
0.676191 1.74676 5.89186
0.655091 1.74158 5.8791
0.648269 1.74893 5.90204
0.6272 1.74581 5.89325
0.606107 1.74165 5.88146
0.588223 1.74588 5.89654
0.568193 1.74384 5.89272
0.548193 1.74285 5.89288
0.529247 1.74497 5.9
0.520316 1.74711 5.90903
0.499132 1.73977 5.8853
0.480217 1.74294 5.8964
0.460217 1.74196 5.89656
0.441225 1.74199 5.8977
0.421194 1.73994 5.89388
0.403318 1.74519 5.90994
0.392265 1.7431 5.90306
0.372211 1.74001 5.89625
0.354443 1.74947 5.92625
0.334359 1.74632 5.91545
0.315443 1.74849 5.92656
0.295328 1.74429 5.91177
0.275321 1.74329 5.91094
0.266414 1.74747 5.92294
0.246376 1.74541 5.91812
0.227438 1.74754 5.92624
0.207431 1.74754 5.92539
0.188446 1.74759 5.92753
0.168493 1.74969 5.93365
0.149455 1.74763 5.92882
0.129533 1.75079 5.93893
0.119448 1.74764 5.92805
0.100549 1.75184 5.94113
0.0804495 1.74766 5.92834
0.0604344 1.74665 5.92651
0.0277364 1.74933 5.70068
-0.00929334 1.74829 5.69698
-0.0282081 1.75147 5.70807
-0.0472923 1.74832 5.69726
-0.0661605 1.75359 5.71433
-0.0762218 1.75148 5.70644
-0.0942834 1.74837 5.69862
-0.13229 1.74838 5.6979
-0.151196 1.75258 5.70998
-0.170257 1.75047 5.70216
-0.189288 1.74943 5.69832
-0.19738 1.74525 5.68644
-0.216372 1.74628 5.68757
-0.254401 1.74525 5.68387
-0.274231 1.75259 5.70591
-0.292322 1.74943 5.69409
-0.311314 1.74945 5.69524
-0.340313 1.75048 5.69544
-0.358413 1.7463 5.68263
-0.377334 1.75046 5.69272
-0.394519 1.74312 5.66895
-0.414395 1.74837 5.68503
-0.433448 1.74628 5.6782
-0.451493 1.7452 5.67235
-0.461454 1.74728 5.6774
-0.481361 1.75147 5.68949
-0.49946 1.7483 5.67667
-0.517506 1.74622 5.67083
-0.537428 1.75038 5.68092
-0.553674 1.74092 5.64918
-0.574511 1.74825 5.67023
-0.581665 1.74196 5.65038
-0.601564 1.74616 5.66347
-0.617771 1.73878 5.63669
-0.637716 1.74189 5.6438
-0.657669 1.744 5.64992
-0.676668 1.74501 5.65005
-0.692822 1.73873 5.63026
-0.70562 1.74812 5.65622
-0.720828 1.73973 5.62946
-0.742688 1.74601 5.64753
-0.757895 1.73863 5.62075
-0.778802 1.74282 5.63285
-0.794932 1.73858 5.61603
-0.815823 1.7438 5.63011
-0.823922 1.74061 5.61722
-0.841937 1.7406 5.61535
-0.860005 1.73848 5.60652
-0.879935 1.74163 5.61562
-0.897073 1.73737 5.59781
-0.917956 1.74261 5.6129
-0.933133 1.73628 5.5901
-0.953101 1.73835 5.59422
-0.961169 1.73623 5.58531
-0.983029 1.74251 5.60339
-0.998214 1.73616 5.57959
-1.01817 1.73927 5.5857
-1.03333 1.73397 5.56489
-1.05522 1.73919 5.57898
-1.0723 1.73704 5.56813
-1.0823 1.73705 5.56821
-1.09744 1.73179 5.5504
-1.12124 1.74219 5.57643
-1.13642 1.73485 5.55265
-1.1564 1.73791 5.55575
-1.17346 1.73579 5.54691
-1.19055 1.73364 5.53607
-1.19763 1.7305 5.52617
-1.21761 1.73254 5.52829
-1.23661 1.73355 5.52842
-1.25658 1.73661 5.53152
-1.2717 1.7324 5.5167
-1.29361 1.73758 5.52779
-1.30682 1.73019 5.50099
-1.3226 1.73962 5.52898
-1.33582 1.7312 5.5002
-1.3558 1.73426 5.5033
-1.37286 1.73315 5.49545
-1.39187 1.73415 5.49458
-1.40991 1.73307 5.48873
-1.42406 1.7278 5.46991
-1.44695 1.73401 5.48299
-1.45305 1.73082 5.47008
-1.47498 1.73599 5.48017
-1.48914 1.72969 5.45937
-1.50912 1.73273 5.46147
-1.52716 1.73267 5.45661
-1.54616 1.73367 5.45574
-1.55836 1.72631 5.43094
-1.57322 1.73357 5.44794
-1.58543 1.72618 5.42114
-1.60931 1.73242 5.43623
-1.62247 1.72713 5.4164
-1.64635 1.73437 5.43148
-1.65854 1.72701 5.40668
-1.68242 1.73425 5.42175
-1.68463 1.72585 5.39489
-1.70754 1.73203 5.40597
-1.72167 1.7278 5.39014
-1.74363 1.73189 5.39524
-1.75581 1.72555 5.37143
-1.77968 1.7328 5.3875
-1.78894 1.72332 5.35471
-1.80088 1.72643 5.36175
-1.81796 1.7253 5.3519
-1.83892 1.72839 5.35701
-1.8511 1.72204 5.33319
-1.87988 1.73449 5.36223
-1.89207 1.72813 5.33741
-1.9101 1.72808 5.33355
-1.92791 1.73745 5.35755
-1.93226 1.72377 5.31177
-1.95029 1.72473 5.3079
-1.96637 1.72359 5.29803
-1.98734 1.72565 5.30116
-1.99854 1.72029 5.27632
-2.02343 1.72651 5.29042
-2.03656 1.72326 5.27256
-2.05148 1.72743 5.28361
-2.06754 1.72732 5.27574
-2.08264 1.72413 5.26189
-2.09872 1.72299 5.25203
-2.12067 1.7271 5.25814
-2.14656 1.73432 5.27223
-2.14891 1.72064 5.22644
-2.16284 1.72479 5.23549
-2.17303 1.71944 5.21164
-2.194 1.7225 5.21475
-2.21302 1.72347 5.21188
-2.22812 1.72229 5.19901
-2.24517 1.72219 5.19214
-2.26519 1.72318 5.19027
-2.28009 1.72937 5.2023
-2.29029 1.72301 5.17746
-2.31224 1.72709 5.18257
-2.32048 1.71866 5.15275
-2.33753 1.71857 5.14588
-2.3536 1.71844 5.137
-2.36967 1.71731 5.12714
-2.37967 1.71832 5.1272
-2.40361 1.72345 5.13531
-2.41183 1.71603 5.10647
-2.43477 1.72115 5.11357
-2.4479 1.71791 5.09672
-2.46988 1.72197 5.09982
-2.48202 1.71769 5.08097
-2.48809 1.71557 5.07205
-2.51006 1.71963 5.07516
-2.52023 1.71431 5.05331
-2.54714 1.7215 5.06541
-2.5573 1.7172 5.04454
-2.57336 1.71708 5.03567
-2.59435 1.72011 5.03678
-2.60552 1.71481 5.01594
-2.61453 1.71578 5.01399
-2.63258 1.71669 5.00711
-2.64668 1.71451 4.99425
-2.66373 1.71442 4.98738
-2.68965 1.72159 4.99747
-2.69587 1.71416 4.96862
-2.71393 1.71407 4.96176
-2.72393 1.71606 4.9608
-2.73703 1.71388 4.94793
-2.75508 1.71379 4.94107
-2.77313 1.71571 4.93518
-2.78919 1.71559 4.9263
-2.80429 1.71343 4.91444
-2.82922 1.71956 4.92254
-2.84515 1.72471 4.93159
-2.84644 1.71415 4.89375
-2.87533 1.72237 4.90784
-2.88252 1.71601 4.88299
-2.89267 1.71274 4.86411
-2.91467 1.71575 4.86423
-2.92483 1.71145 4.84337
-2.93877 1.71556 4.85041
-2.95485 1.71541 4.83954
-2.96401 1.71111 4.81867
-2.99193 1.71829 4.82977
-3.00208 1.714 4.80991
-3.01914 1.71489 4.80202
-3.0283 1.71059 4.78115
-3.0472 1.7168 4.79421
-3.04943 1.70835 4.76434
-3.07439 1.71443 4.76844
-3.08552 1.71119 4.75157
-3.09864 1.70898 4.7367
-3.11471 1.70884 4.72682
-3.1367 1.71287 4.72793
-3.14374 1.71279 4.72198
-3.15982 1.71265 4.7121
-3.17985 1.7146 4.70823
-3.18998 1.71135 4.69035
-3.21001 1.7133 4.68647
-3.23004 1.71626 4.68258
-3.24116 1.71303 4.66671
-3.25625 1.71286 4.65482
-3.26329 1.71279 4.64987
-3.28233 1.71472 4.64399
-3.29346 1.71147 4.62712
-3.31053 1.71235 4.61823
-3.31473 1.70597 4.59235
-3.34465 1.71414 4.60246
-3.36269 1.71506 4.59658
-3.36479 1.71187 4.58364
-3.38186 1.71275 4.57476
-3.38804 1.7074 4.55088
-3.41005 1.7114 4.54999
-3.41326 1.70399 4.52212
-3.43626 1.70801 4.52223
-3.45134 1.70786 4.51134
-3.45542 1.70671 4.50139
-3.47148 1.70659 4.49251
-3.4935 1.71058 4.49062
-3.50363 1.70733 4.47374
-3.51376 1.70507 4.45585
-3.53577 1.70906 4.45395
-3.54393 1.70477 4.43408
-3.549 1.70364 4.42513
-3.56506 1.70352 4.41625
-3.57818 1.70231 4.40137
-3.58533 1.69901 4.38147
-3.62814 1.7134 4.40558
-3.62738 1.70494 4.37469
-3.64643 1.70685 4.36781
-3.64158 1.70055 4.34786
-3.67152 1.70868 4.35497
-3.67572 1.70231 4.33009
-3.70466 1.71043 4.33719
-3.70884 1.70508 4.3133
-3.72492 1.70495 4.30342
-3.74198 1.70682 4.29452
-3.76103 1.70875 4.28863
-3.75816 1.70348 4.27069
-3.78018 1.70745 4.26779
-3.80716 1.7135 4.26991
-3.81233 1.70918 4.24801
-3.84844 1.71198 4.23324
-3.8665 1.71388 4.22534
-3.86364 1.70861 4.2074
-3.8817 1.7105 4.1995
-3.89976 1.7124 4.19161
-3.91385 1.71223 4.17972
-3.92794 1.71205 4.16682
-3.93509 1.70877 4.14792
-3.96417 1.71163 4.1371
-3.97627 1.71145 4.12419
-4.00247 1.71007 4.09741
-4.01855 1.71092 4.08651
-4.04674 1.71057 4.06173
-4.07701 1.70805 4.02599
-4.09111 1.70787 4.01309
-4.10718 1.70974 4.00319
-4.11631 1.70749 3.98629
-4.13239 1.70835 3.97639
-4.14043 1.70927 3.97044
-4.15154 1.70706 3.95555
-5.88484 1.65354 0.471924
-5.88813 1.65198 0.433966
-5.88955 1.65015 0.377996
-5.88463 1.648 0.36799
-5.89176 1.64974 0.350015
-5.88291 1.64545 0.33101
-5.88904 1.64619 0.313042
-5.89818 1.64893 0.295068
-5.89432 1.64664 0.27607
-5.89846 1.64636 0.257103
-5.89553 1.64523 0.248096
-5.89268 1.64394 0.229091
-5.89881 1.64468 0.211124
-5.88696 1.64038 0.191096
-5.8921 1.64112 0.173121
-5.89723 1.64185 0.155146
-5.88738 1.63856 0.136118
-5.88852 1.63828 0.117128
-5.88959 1.63815 0.108137
-5.88873 1.63687 0.089147
-5.88987 1.6366 0.071157
-5.88102 1.63332 0.0521364
-5.89215 1.63606 0.0341772
-5.89829 1.63778 0.0151953
-5.88644 1.63349 -0.00383308
-5.8865 1.63336 -0.0128318
-5.87065 1.62807 -0.0318756
-5.87679 1.6288 -0.0498427
-5.87193 1.62752 -0.068863
-5.87307 1.62725 -0.0868529
-5.87721 1.62797 -0.105835
-5.89134 1.63172 -0.123786
-5.90141 1.63459 -0.132754
-5.90554 1.63533 -0.150737
-5.89069 1.63004 -0.169773
-5.89283 1.63076 -0.18877
-5.89697 1.63149 -0.206752
-5.89711 1.63121 -0.22575
-5.88425 1.62694 -0.243786
6.00639 1.70882 0.850572
5.9956 1.70724 0.878681
6.00476 1.71254 0.899536
5.98187 1.70678 0.914796
5.98001 1.70707 0.933808
5.97815 1.70835 0.952806
5.98532 1.71167 0.974706
5.96843 1.7079 0.989891
5.96558 1.7092 1.0099
5.96164 1.70832 1.01794
5.9598 1.70962 1.03794
5.95393 1.70889 1.05599
5.93805 1.70614 1.07216
5.0659 1.72892 3.04666
5.06909 1.73429 3.07156
5.06323 1.73657 3.09058
5.05938 1.73887 3.11057
5.05545 1.74001 3.11959
5.0305 1.73411 3.12586
5.02565 1.73741 3.14585
5.03086 1.74381 3.17272
5.0059 1.73792 3.179
4.99803 1.74019 3.19703
5.00726 1.74762 3.22685
4.98925 1.74262 3.22606
4.97636 1.74284 3.24016
4.96045 1.74103 3.25231
4.96466 1.74743 3.27918
4.95075 1.74663 3.2923
4.93284 1.7438 3.30348
4.92196 1.74405 3.31956
4.89901 1.74017 3.32679
4.9001 1.74335 3.33874
4.88419 1.74154 3.35089
4.85941 1.74098 3.38009
4.84753 1.74123 3.39617
4.84067 1.7435 3.41419
4.82979 1.74475 3.43026
4.82001 1.74818 3.45929
4.80208 1.74534 3.46947
4.78114 1.74248 3.47767
4.78636 1.74889 3.50554
4.75636 1.74193 3.50687
4.74749 1.74318 3.52392
4.74154 1.74329 3.53096
4.73066 1.74454 3.54703
4.70972 1.74067 3.55524
4.68695 1.74213 3.5854
4.68211 1.74544 3.60639
4.67828 1.74877 3.62837
4.67032 1.74887 3.63443
4.64233 1.7419 3.63574
4.64554 1.74932 3.66361
4.61554 1.74234 3.66394
4.61472 1.74769 3.68787
4.59478 1.74483 3.69607
4.57081 1.7399 3.70032
4.56597 1.74322 3.72131
4.56405 1.74538 3.7323
4.55217 1.74563 3.74838
4.53626 1.7448 3.75952
4.52639 1.74606 3.77657
4.5014 1.74111 3.77884
4.49254 1.74338 3.79687
4.4867 1.7467 3.81787
4.46866 1.74165 3.81408
4.45879 1.74291 3.83114
4.45094 1.7452 3.85017
4.44913 1.75057 3.8751
4.41809 1.74253 3.87146
4.42032 1.74996 3.90033
4.38525 1.73987 3.89275
4.38837 1.7451 3.90865
4.37851 1.74638 3.9267
4.35654 1.74245 3.93093
4.34969 1.74575 3.95093
4.3358 1.74597 3.96504
4.31988 1.74514 3.97617
4.30799 1.74637 3.99125
4.31314 1.75165 4.01013
4.27807 1.74154 4.00154
4.26215 1.74072 4.01268
4.26539 1.74918 4.04353
4.23334 1.74111 4.03789
4.22649 1.74441 4.0579
4.21259 1.74461 4.071
4.2006 1.74164 4.07214
4.1998 1.74804 4.09905
4.18489 1.74823 4.11116
4.16797 1.74639 4.12132
4.16718 1.75279 4.14823
4.12706 1.74159 4.1337
4.12929 1.74904 4.16358
4.10934 1.74616 4.17077
4.09935 1.74419 4.17287
4.09857 1.75161 4.20077
4.07054 1.74458 4.19809
4.05765 1.7458 4.21217
4.05888 1.75324 4.24205
4.01775 1.74102 4.22554
4.02099 1.74949 4.2574
4.00294 1.74442 4.25161
4.00216 1.75083 4.27952
3.97211 1.74377 4.27385
3.96325 1.74605 4.29289
3.93926 1.74209 4.29413
3.93041 1.74537 4.31315
3.91751 1.74559 4.32724
3.91056 1.74568 4.3333
3.89767 1.74692 4.34838
3.87973 1.74605 4.35653
3.86684 1.74626 4.37062
3.8489 1.74541 4.37977
3.84207 1.74973 4.40076
3.81504 1.7437 4.39805
3.83131 1.75621 4.43275
3.80226 1.74814 4.42709
3.78634 1.74831 4.43821
3.7785 1.75162 4.45822
3.75046 1.74558 4.45452
3.74059 1.74784 4.47156
3.73579 1.75422 4.49751
3.71671 1.74809 4.48774
3.71495 1.75554 4.51765
3.69296 1.75158 4.51987
3.66693 1.74556 4.51716
3.66819 1.75506 4.55101
3.64014 1.74798 4.54433
3.62018 1.74607 4.54951
3.6203 1.7503 4.56545
3.59933 1.74738 4.56965
3.59251 1.75274 4.59362
3.56546 1.74567 4.58793
3.5647 1.75413 4.61882
3.53665 1.74706 4.61313
3.51972 1.7472 4.62226
3.51897 1.75468 4.65416
3.49786 1.74749 4.64042
3.47789 1.74558 4.6456
3.47916 1.75508 4.67946
3.45515 1.7511 4.6797
3.43721 1.75021 4.68684
3.43746 1.7587 4.71972
3.4123 1.74842 4.70006
3.39639 1.7486 4.71118
3.39362 1.75604 4.74109
3.36353 1.7489 4.73042
3.36178 1.75638 4.76233
3.33473 1.75131 4.75661
3.31374 1.74835 4.75881
3.30086 1.74958 4.77389
3.301 1.75485 4.79182
3.28406 1.754 4.80096
3.25802 1.74893 4.79523
3.25323 1.75534 4.82317
3.22921 1.75032 4.82043
3.22544 1.75776 4.85035
3.19838 1.75268 4.84363
3.19143 1.75279 4.85068
3.17146 1.75085 4.85386
3.16567 1.75727 4.88181
3.14165 1.75324 4.87905
3.12977 1.75549 4.89511
3.11284 1.75565 4.90524
3.08983 1.75163 4.90347
3.08693 1.75483 4.91645
3.06391 1.75082 4.91468
3.04495 1.74892 4.92085
3.0341 1.75321 4.93987
3.01716 1.75234 4.94801
2.99617 1.74937 4.94922
2.97823 1.7495 4.95735
2.97549 1.759 4.99123
2.9513 1.74867 4.96757
2.94045 1.75196 4.9866
2.92452 1.7521 4.99572
2.90962 1.75331 5.00882
2.88761 1.75031 5.00803
2.87372 1.75254 5.0231
2.86084 1.75578 5.03915
2.84274 1.74859 5.02539
2.82987 1.75185 5.04244
2.81394 1.75301 5.05255
2.79396 1.75006 5.05474
2.77905 1.75124 5.06684
2.7611 1.75136 5.07397
2.7401 1.74838 5.07418
2.72808 1.74536 5.07231
2.71825 1.75069 5.09431
2.69726 1.74872 5.0955
2.68743 1.75405 5.1175
2.65932 1.74587 5.10383
2.64949 1.7512 5.12582
2.62747 1.74718 5.12405
2.62459 1.75142 5.14001
2.60359 1.74844 5.14021
2.56972 1.74972 5.15745
2.55076 1.7488 5.16261
2.5328 1.74791 5.16876
2.51383 1.74698 5.17292
2.50587 1.74704 5.17698
2.49707 1.75345 5.20395
2.47099 1.74731 5.19324
2.46116 1.75265 5.21623
2.43914 1.74962 5.21344
2.42324 1.75083 5.22655
2.40222 1.74781 5.22475
2.39121 1.74681 5.22385
2.38141 1.75318 5.24883
2.35938 1.74916 5.24606
2.34651 1.75342 5.26309
2.32447 1.74836 5.25833
2.31773 1.75787 5.29225
2.29265 1.75172 5.28153
2.28489 1.76019 5.31246
2.26469 1.75083 5.28775
2.23082 1.75211 5.30499
2.19798 1.75444 5.32621
2.18309 1.75766 5.34027
2.15922 1.75993 5.35742
2.13821 1.75692 5.35562
2.12127 1.75805 5.36374
2.1023 1.75714 5.36889
2.06947 1.76048 5.39109
2.05048 1.75851 5.39227
2.03947 1.75751 5.39136
2.02458 1.75972 5.40545
2.00458 1.75874 5.40561
1.98457 1.75574 5.40481
1.96766 1.75793 5.4169
1.94868 1.75697 5.41906
1.93174 1.7571 5.42719
1.92379 1.75921 5.43422
1.90378 1.7562 5.43241
1.88277 1.7542 5.4316
1.86889 1.75745 5.44766
1.84787 1.75442 5.44486
1.82788 1.75346 5.44703
1.81197 1.75564 5.45811
1.80196 1.75463 5.45721
1.78401 1.75474 5.46434
1.764 1.75274 5.46352
1.74604 1.75283 5.46865
1.73014 1.75504 5.48174
1.7081 1.75196 5.47595
1.69425 1.75727 5.49598
1.68117 1.75213 5.48616
1.66423 1.75426 5.49425
1.6473 1.75541 5.50336
1.62627 1.75236 5.49957
1.60831 1.75245 5.5047
1.58933 1.75151 5.50786
1.57344 1.75473 5.52193
1.55033 1.74854 5.5082
1.54444 1.75275 5.52218
1.52856 1.756 5.53826
1.50749 1.75188 5.52947
1.49163 1.75616 5.54753
1.46952 1.75097 5.53377
1.45364 1.7542 5.54885
1.43778 1.75848 5.56691
1.42776 1.75746 5.565
1.40774 1.75543 5.56218
1.39083 1.75762 5.57427
1.37081 1.75559 5.57146
1.35284 1.75566 5.57559
1.33592 1.75783 5.58669
1.31485 1.75372 5.5779
1.30591 1.75584 5.58594
1.27 1.75703 5.5972
1.25309 1.75922 5.60929
1.23411 1.75928 5.61244
1.21406 1.75619 5.60563
1.19509 1.75626 5.60977
1.05633 1.75782 5.6418
1.04735 1.75887 5.64485
1.00938 1.75794 5.64815
0.991414 1.75803 5.65329
0.93446 1.75816 5.65972
0.904391 1.75405 5.651
0.887499 1.75727 5.66508
0.812569 1.75746 5.67465
0.802592 1.75751 5.67772
0.783561 1.75546 5.67389
0.725546 1.75348 5.67236
0.688592 1.75359 5.67864
0.661686 1.75679 5.6908
0.641601 1.75264 5.68001
0.604717 1.75589 5.69524
0.585701 1.75488 5.6934
0.566694 1.75487 5.69254
0.547694 1.75389 5.6927
0.518641 1.75081 5.68596
0.500726 1.75398 5.69705
0.481734 1.75401 5.69819
0.462719 1.75299 5.69635
0.423635 1.74886 5.68571
0.415774 1.75413 5.70369
0.396767 1.75413 5.70283
0.377759 1.75313 5.70199
0.358783 1.75419 5.70512
0.320767 1.75219 5.70343
0.30173 1.75113 5.69859
0.273738 1.75116 5.6998
0.254761 1.75122 5.70295
0.235839 1.75438 5.71304
0.21677 1.75126 5.70423
0.178794 1.75233 5.7075
0.150772 1.75131 5.70473
0.131803 1.75238 5.70886
0.093688 1.74719 5.69422
0.0567506 1.74934 5.70247
0.0467823 1.7514 5.70651
-0.0166618 1.7496 5.51499
-0.144665 1.75068 5.51494
-0.263715 1.74967 5.50885
-0.372757 1.74966 5.50367
-0.417886 1.74544 5.48707
-0.472845 1.74855 5.49244
-0.499883 1.7475 5.48766
-0.572949 1.74742 5.47921
-0.608001 1.74634 5.47249
-0.654014 1.74734 5.47082
-0.673013 1.74736 5.47096
-0.690043 1.74731 5.46709
-0.70812 1.74418 5.45727
-0.751279 1.7399 5.43666
-0.789176 1.74612 5.44985
-0.807238 1.74401 5.44202
-0.844235 1.74604 5.44227
-0.870296 1.74394 5.43449
-0.906348 1.74386 5.42776
-0.924362 1.74384 5.4259
-0.960391 1.74481 5.42216
-1.02156 1.74052 5.39968
-1.05761 1.74045 5.39395
-1.07564 1.74041 5.39009
-1.11166 1.74239 5.38733
-1.12163 1.74345 5.39139
-1.15574 1.74126 5.37667
-1.21077 1.74324 5.37306
-1.22688 1.74004 5.35923
-1.23783 1.74314 5.36526
-1.25392 1.73997 5.35343
-1.30798 1.74189 5.34581
-1.326 1.74186 5.34294
-1.34306 1.74076 5.33509
-1.35111 1.73967 5.32916
-1.36718 1.73754 5.31931
-1.41735 1.73425 5.29774
-1.45631 1.73935 5.30296
-1.47946 1.73507 5.28319
-1.51745 1.73811 5.28443
-1.55251 1.73801 5.2757
-1.57153 1.73899 5.27383
-1.59857 1.73992 5.26802
-1.66677 1.73759 5.24256
-1.68478 1.73857 5.24068
-1.70086 1.73742 5.22982
-1.70694 1.73428 5.21991
-1.74299 1.7352 5.21317
-1.76199 1.73721 5.21328
-1.79316 1.73389 5.19056
-1.85526 1.73575 5.178
-1.87329 1.7367 5.17412
-1.88936 1.73456 5.16427
-1.95051 1.73533 5.14572
-1.9846 1.73516 5.13298
-1.99969 1.73299 5.12112
-2.01674 1.73292 5.11525
-2.06083 1.73376 5.10257
-2.14509 1.73331 5.0692
-2.15311 1.73328 5.06626
-2.16918 1.73315 5.05738
-2.18722 1.73309 5.05252
-2.19936 1.72882 5.03367
-2.21836 1.73183 5.03377
-2.25049 1.72959 5.01605
-2.27049 1.73261 5.01615
-2.27754 1.73152 5.01022
-2.28967 1.72728 4.99337
-2.31163 1.73235 4.99746
-2.32673 1.73019 4.98561
-2.33984 1.72698 4.97075
-2.3759 1.72988 4.96298
-2.3859 1.73089 4.96304
-2.41704 1.72963 4.94429
-2.43311 1.72851 4.93543
-2.46621 1.72933 4.92166
-2.49032 1.72814 4.90786
-2.53653 1.72574 4.87924
-2.55753 1.72976 4.87934
-2.58867 1.7275 4.8606
-2.62982 1.72825 4.8419
-2.67406 1.72481 4.81028
-2.71324 1.72448 4.78657
-2.77947 1.72507 4.75606
-2.80258 1.72386 4.74125
-2.85274 1.72557 4.7196
-2.86683 1.72542 4.70871
-2.89502 1.72207 4.68397
-2.93617 1.7228 4.66426
-3.02254 1.72313 4.6149
-3.04972 1.72079 4.59114
-3.06382 1.71961 4.57826
-3.21148 1.7204 4.49035
-3.31602 1.71941 4.41914
-3.34123 1.71703 4.39236
-3.35433 1.71583 4.37848
-3.38646 1.7176 4.36169
-3.47704 1.71353 4.28542
-3.56045 1.71577 4.23101
-5.74401 1.64725 -0.0821205
-5.73508 1.64411 -0.0911425
-5.74635 1.64658 -0.127099
-5.73362 1.64204 -0.163133
-5.74396 1.64438 -0.208096
-5.73111 1.64009 -0.227132
-5.72724 1.63782 -0.24513
5.24348 1.73709 2.45812
5.22958 1.73531 2.47226
5.22974 1.73862 2.49321
5.21585 1.73684 2.50734
5.19692 1.733 2.51754
5.2001 1.73834 2.54044
5.19014 1.73642 2.54555
5.18428 1.73771 2.56457
5.16234 1.73284 2.57281
5.16954 1.73922 2.59867
5.14459 1.73334 2.60594
5.14776 1.73868 2.62884
5.14591 1.74098 2.64883
5.1321 1.74134 2.67293
5.10213 1.73444 2.67826
5.10631 1.73978 2.70115
5.09542 1.73901 2.71625
5.07968 1.74152 2.75033
5.03605 1.7383 2.80072
5.02918 1.73955 2.81775
5.02533 1.74285 2.83773
5.01244 1.74107 2.85186
5.00448 1.74016 2.85793
4.9966 1.74141 2.87398
4.98974 1.74268 2.89201
4.97483 1.74087 2.90415
4.96596 1.74212 2.9212
4.94218 1.74157 2.95039
4.84236 1.74495 3.10712
4.82544 1.74313 3.11827
4.79461 1.73949 3.14156
4.79479 1.74483 3.16449
4.77997 1.7452 3.1886
4.7721 1.74646 3.20564
4.74932 1.74692 3.23581
4.71757 1.74643 3.26906
4.69864 1.74358 3.27825
4.69278 1.74586 3.29726
4.68291 1.7471 3.31332
4.66699 1.74528 3.32446
4.66012 1.74755 3.34249
4.64119 1.7447 3.35167
4.63634 1.74698 3.37068
4.63341 1.74813 3.38068
4.61145 1.74424 3.38691
4.59956 1.74445 3.401
4.59572 1.74777 3.42198
4.56691 1.74616 3.44722
4.56005 1.74843 3.46524
4.53901 1.74237 3.46049
4.53817 1.7467 3.48244
4.52326 1.74589 3.49456
4.51238 1.74712 3.50963
4.49143 1.74324 3.51684
4.49463 1.74962 3.54273
4.47368 1.74574 3.54995
4.47176 1.7479 3.56093
4.46188 1.74915 3.57699
4.43992 1.74524 3.58221
4.42501 1.74442 3.59434
4.42117 1.74874 3.61531
4.39921 1.74383 3.62054
4.38127 1.74196 3.62871
4.38439 1.74619 3.64462
4.3594 1.74124 3.64689
4.3596 1.74663 3.67281
4.35173 1.74888 3.68984
4.32473 1.74292 3.69113
4.31787 1.74519 3.70915
4.29389 1.74025 3.7124
4.30507 1.74859 3.7352
4.2821 1.74366 3.73945
4.27121 1.74489 3.75451
4.25126 1.742 3.76071
4.24843 1.74634 3.78367
4.22546 1.74241 3.7879
4.21961 1.74571 3.8079
4.20268 1.74386 3.81705
4.19774 1.74498 3.82507
4.18182 1.74414 3.83521
4.17497 1.74744 3.85521
4.15804 1.74559 3.86437
4.15218 1.74887 3.88337
4.13223 1.74599 3.89056
4.12236 1.74825 3.9076
4.10633 1.7432 3.9038
4.10048 1.7465 3.9238
4.08255 1.74565 3.93295
4.07469 1.74792 3.95097
4.05876 1.74708 3.96111
4.04284 1.74624 3.97124
4.03497 1.74851 3.98927
4.01693 1.74345 3.98448
4.01815 1.75087 4.01237
3.98912 1.74383 4.00869
3.98226 1.74712 4.02769
3.96432 1.74525 4.03586
3.95445 1.74751 4.0529
3.94255 1.74771 4.06599
3.94266 1.75193 4.08093
3.92068 1.74797 4.08315
3.8987 1.74405 4.08738
3.8979 1.75043 4.11329
3.8729 1.74545 4.11355
3.86505 1.74874 4.13257
3.84206 1.74379 4.13481
3.83813 1.74592 4.14381
3.8323 1.75025 4.1658
3.81233 1.74733 4.16999
3.79641 1.7465 4.18112
3.77745 1.7446 4.1873
3.77262 1.74893 4.20927
3.75064 1.74499 4.21249
3.74772 1.74714 4.22249
3.71687 1.74646 4.24273
3.70498 1.74769 4.25781
3.68906 1.74785 4.26792
3.67919 1.75011 4.28497
3.65922 1.74719 4.28916
3.65138 1.7515 4.31016
3.63634 1.74644 4.30535
3.61435 1.74349 4.30756
3.60751 1.74679 4.32756
3.58653 1.74386 4.33176
3.57768 1.74715 4.35079
3.56983 1.75145 4.37078
3.55479 1.74739 4.36596
3.53481 1.74445 4.36915
3.52394 1.74671 4.3862
3.506 1.74482 4.39337
3.4931 1.74704 4.40743
3.49233 1.75447 4.43633
3.45922 1.74429 4.42273
3.44632 1.7455 4.43681
3.44745 1.75074 4.45273
3.42444 1.74576 4.45297
3.40953 1.74593 4.46409
3.40269 1.75125 4.48506
3.37463 1.74416 4.47838
3.36578 1.74745 4.4974
3.35591 1.75072 4.51543
3.33986 1.74563 4.50862
3.32293 1.74478 4.51776
3.32317 1.75425 4.54962
3.29308 1.7451 4.53799
3.27412 1.7442 4.54414
3.26931 1.74956 4.5681
3.24528 1.74453 4.56536
3.23732 1.74461 4.57042
3.23252 1.751 4.59636
3.20445 1.74389 4.58768
3.19358 1.74615 4.60473
3.18574 1.75146 4.62571
3.1526 1.74022 4.60813
3.14882 1.74865 4.63703
3.13491 1.74884 4.64914
3.11784 1.7437 4.63934
3.11406 1.75114 4.66826
3.09509 1.74922 4.67343
3.07814 1.74833 4.67958
3.05816 1.74638 4.68276
3.05135 1.75174 4.70673
3.0263 1.74567 4.70101
3.02339 1.74885 4.71299
3.00949 1.75006 4.72607
2.98647 1.74604 4.72431
2.9675 1.74412 4.72848
2.96474 1.75258 4.75938
2.94071 1.74754 4.75563
2.93186 1.75284 4.77562
2.9158 1.74773 4.76782
2.90189 1.74892 4.77991
2.87887 1.74489 4.77714
2.87104 1.74924 4.80014
2.85207 1.74831 4.8043
2.82903 1.74326 4.79954
2.82629 1.75276 4.83343
2.81224 1.74867 4.82659
2.78617 1.74255 4.81788
2.78544 1.75209 4.85375
2.7614 1.74703 4.84901
2.74648 1.74819 4.8591
2.73259 1.75041 4.87318
2.70955 1.74535 4.86842
2.71073 1.75269 4.89131
2.69072 1.74969 4.8905
2.67175 1.74776 4.89468
2.668 1.75725 4.92757
2.63684 1.74698 4.90795
2.63106 1.7544 4.93589
2.60702 1.74934 4.93115
2.60616 1.75461 4.94908
2.57803 1.74539 4.93342
2.56516 1.74864 4.94947
2.55227 1.75187 4.96453
2.53837 1.75407 4.9776
2.51736 1.75107 4.9768
2.50346 1.75228 4.98989
2.48448 1.75133 4.99305
2.48161 1.75557 5.00901
2.45551 1.74841 4.99731
2.4406 1.74959 5.00841
2.42162 1.74865 5.01156
2.40771 1.74983 5.02365
2.39586 1.75514 5.04367
2.38196 1.75733 5.05574
2.3628 1.74804 5.03602
2.35603 1.75649 5.06595
2.33399 1.75244 5.06117
2.31603 1.75152 5.06632
2.29704 1.74957 5.0685
2.28317 1.75281 5.08456
2.26621 1.7529 5.08968
2.26029 1.75507 5.1007
2.24538 1.75725 5.11278
2.22844 1.75737 5.1199
2.21047 1.75646 5.12505
2.15554 1.75363 5.13451
0.111334 1.74951 5.51403
0.0933507 1.75055 5.51615
0.0563674 1.75161 5.51841
0.0285521 1.73508 5.27883
0.0105601 1.73511 5.27997
0.00250638 1.73301 5.27306
-0.0154391 1.73512 5.28016
-0.0334073 1.7372 5.28427
-0.0503679 1.73928 5.28936
-0.0674684 1.7341 5.27657
-0.085429 1.73619 5.28167
-0.103359 1.73934 5.29076
-0.111475 1.73412 5.2759
-0.128551 1.73099 5.26607
-0.147427 1.73724 5.28212
-0.163565 1.73098 5.26434
-0.182449 1.73622 5.2794
-0.19951 1.73411 5.27156
-0.216517 1.73411 5.27069
-0.23357 1.73202 5.26385
-0.242539 1.73308 5.2679
-0.260546 1.73308 5.26704
-0.278437 1.7383 5.2811
-0.29553 1.73414 5.26928
-0.312583 1.73205 5.26244
-0.330536 1.73515 5.26853
-0.347612 1.73201 5.25871
-0.35755 1.73514 5.26674
-0.374573 1.7341 5.26388
-0.391626 1.73201 5.25704
-0.408633 1.73201 5.25617
-0.426655 1.73198 5.2533
-0.444608 1.73408 5.25941
-0.462522 1.73926 5.27047
-0.470653 1.73301 5.25362
-0.488621 1.73508 5.25772
-0.504683 1.73298 5.24987
-0.522697 1.73296 5.24801
-0.53972 1.73193 5.24515
-0.556781 1.72982 5.23731
-0.574749 1.7319 5.24142
-0.583725 1.73395 5.24445
-0.600755 1.7329 5.2406
-0.620638 1.73914 5.25566
-0.635769 1.7339 5.23885
-0.652815 1.73182 5.23301
-0.670821 1.73282 5.23213
-0.68689 1.7297 5.22329
-0.703912 1.72966 5.22042
-0.712904 1.73069 5.22147
-0.730903 1.7317 5.22159
-0.747964 1.72959 5.21375
-0.764955 1.73062 5.21487
-0.782946 1.73165 5.21599
-0.800953 1.73265 5.21511
-0.816099 1.72638 5.19631
-0.826021 1.73053 5.20633
-0.843074 1.72944 5.19947
-0.859135 1.72733 5.19162
-0.878087 1.73044 5.19772
-0.89511 1.7304 5.19485
-0.908302 1.72304 5.17005
-0.928193 1.72826 5.18413
-0.937208 1.72824 5.18219
-0.95423 1.72821 5.17932
-0.974166 1.73234 5.18741
-0.987359 1.72398 5.16263
-1.00726 1.73019 5.17569
-1.02236 1.72701 5.16285
-1.04035 1.72804 5.16397
-1.04743 1.72488 5.15307
-1.06733 1.73108 5.16613
-1.08245 1.72586 5.15032
-1.10141 1.72895 5.15542
-1.11845 1.72888 5.15055
-1.13452 1.72676 5.1417
-1.15251 1.72879 5.1428
-1.16149 1.72983 5.14486
-1.17465 1.72354 5.12504
-1.19266 1.72452 5.12317
-1.21355 1.73075 5.13723
-1.22962 1.72863 5.12838
-1.2447 1.72647 5.11753
-1.26658 1.73373 5.13359
-1.28071 1.72848 5.11677
-1.28681 1.7253 5.10386
-1.30771 1.73049 5.11594
-1.32088 1.72519 5.09512
-1.33692 1.72411 5.08925
-1.35491 1.72614 5.09036
-1.37 1.72299 5.07952
-1.39092 1.72815 5.0896
-1.39896 1.72707 5.08368
-1.41405 1.7249 5.07182
-1.43108 1.72487 5.06895
-1.45005 1.72793 5.07205
-1.46319 1.72267 5.05422
-1.48021 1.72364 5.05133
-1.50212 1.72983 5.06341
-1.50625 1.72458 5.04652
-1.52231 1.72248 5.03867
-1.54225 1.72759 5.04574
-1.55538 1.72235 5.02892
-1.5773 1.72853 5.03999
-1.59042 1.7243 5.02415
-1.60942 1.72632 5.02426
-1.61938 1.7294 5.02929
-1.6335 1.72517 5.01346
-1.64955 1.72408 5.0066
-1.66658 1.72503 5.00271
-1.68165 1.72391 4.99384
-1.69772 1.72179 4.98499
-1.71865 1.72694 4.99407
-1.72178 1.72169 4.97717
-1.73688 1.71951 4.96432
-1.75586 1.72155 4.96643
-1.7758 1.72667 4.97351
-1.78893 1.72243 4.95667
-1.804 1.7213 4.94779
-1.82496 1.72539 4.95289
-1.83904 1.72324 4.94203
-1.84707 1.7232 4.93909
-1.86606 1.72523 4.9402
-1.88408 1.7262 4.93732
-1.89525 1.72088 4.91548
-1.91717 1.72605 4.92557
-1.92734 1.72073 4.90373
-1.94437 1.72068 4.89985
-1.95926 1.7279 4.91386
-1.97041 1.72261 4.89402
-1.98646 1.72252 4.88714
-2.00547 1.72452 4.88626
-2.01857 1.72134 4.8734
-2.03462 1.72124 4.86652
-2.05264 1.72221 4.86364
-2.05184 1.71383 4.83776
-2.07574 1.72104 4.85083
-2.09571 1.72511 4.85492
-2.10588 1.71878 4.83209
-2.12585 1.72285 4.83618
-2.13699 1.71858 4.81733
-2.15403 1.71852 4.81245
-2.16303 1.71952 4.81251
-2.18105 1.72149 4.80961
-2.19317 1.71826 4.79375
-2.20923 1.71817 4.78687
-2.22627 1.71809 4.781
-2.23838 1.7159 4.76712
-2.26328 1.72309 4.7792
-2.27032 1.72202 4.77427
-2.28046 1.71775 4.75541
-2.30047 1.71975 4.75453
-2.31552 1.71966 4.74764
-2.33257 1.72058 4.74176
-2.34469 1.71735 4.7259
-2.3627 1.71834 4.72402
-2.37368 1.72139 4.72705
-2.38776 1.72023 4.71618
-2.40479 1.72119 4.71229
-2.41494 1.7169 4.69243
-2.42706 1.71369 4.67756
-2.45394 1.72193 4.69265
-2.45915 1.71452 4.66479
-2.48506 1.72171 4.67688
-2.4921 1.72163 4.67094
-2.50619 1.71948 4.66007
-2.5183 1.71726 4.64519
-2.53731 1.71926 4.64431
-2.55041 1.71708 4.63144
-2.55758 1.71175 4.60857
-2.58448 1.71996 4.62165
-2.58759 1.71575 4.60773
-2.60757 1.7198 4.60982
-2.61672 1.71551 4.58995
-2.63081 1.71334 4.57809
-2.65279 1.7184 4.58118
-2.66588 1.71623 4.56931
-2.68291 1.71817 4.56441
-2.687 1.71501 4.55349
-2.70403 1.71595 4.5486
-2.72699 1.72104 4.5537
-2.73614 1.71776 4.53481
-2.74331 1.71143 4.51196
-2.75937 1.71234 4.50506
-2.77839 1.71431 4.50218
-2.78147 1.71215 4.49123
-2.79752 1.71205 4.48435
-2.82147 1.71816 4.49044
-2.8237 1.70972 4.46058
-2.84766 1.71481 4.46569
-2.8568 1.71155 4.4478
-2.87484 1.71349 4.44291
-2.8878 1.71657 4.44796
-2.89891 1.71436 4.43307
-2.90509 1.70801 4.40921
-2.93004 1.71413 4.41631
-2.93917 1.71087 4.39843
-2.95523 1.71178 4.39153
-2.97326 1.71372 4.38664
-2.98733 1.71359 4.37774
-2.98548 1.70731 4.35882
-3.01339 1.71549 4.36991
-3.0255 1.71328 4.35503
-3.03463 1.71003 4.33815
-3.0576 1.7151 4.34125
-3.0697 1.71391 4.32835
-3.07587 1.70859 4.30648
-3.08589 1.70957 4.30454
-3.10689 1.71357 4.30364
-3.1091 1.70617 4.27676
-3.12812 1.70914 4.27386
-3.14417 1.71005 4.26696
-3.15429 1.70682 4.25109
-3.17629 1.71183 4.25118
-3.17838 1.70866 4.23924
-3.19049 1.70646 4.22536
-3.20752 1.7084 4.22046
-3.22061 1.70823 4.20856
-3.24359 1.71328 4.21066
-3.2458 1.70588 4.18378
-3.26285 1.7078 4.17788
-3.27087 1.70776 4.17494
-3.28593 1.70864 4.16604
-3.29804 1.70744 4.15215
-3.31707 1.7094 4.14826
-3.32916 1.70923 4.13635
-3.34225 1.70806 4.12447
-3.35039 1.7048 4.10657
-3.36535 1.70888 4.11163
-3.36755 1.7025 4.08573
-3.38162 1.70236 4.07584
-3.40163 1.70635 4.07393
-3.40978 1.70207 4.05505
-3.43475 1.70814 4.05815
-3.44189 1.70487 4.04025
-3.45586 1.70893 4.0433
-3.46598 1.70671 4.0284
-3.47213 1.70242 4.00851
-3.49512 1.70745 4.00961
-3.50524 1.70522 3.99372
-3.52427 1.70816 3.98882
-3.53637 1.70698 3.97592
-3.54748 1.70578 3.96202
-3.55055 1.70364 3.95208
-3.56561 1.70453 3.94418
-3.58663 1.7085 3.94127
-3.60071 1.70936 3.93137
-3.60587 1.70405 3.91048
-3.62986 1.71009 3.91157
-3.63303 1.70475 3.88867
-3.64701 1.7088 3.89172
-3.66605 1.71073 3.88583
-3.67022 1.7064 3.86392
-3.68429 1.70627 3.85403
-3.71146 1.70696 3.83222
-3.74269 1.70552 3.80148
-3.75776 1.7074 3.79256
-3.79306 1.70484 3.75286
-3.82419 1.70761 3.73605
-3.81932 1.70134 3.7181
-5.50979 1.65343 0.345082
-5.50805 1.65091 0.310102
-5.51018 1.65066 0.293119
-5.51437 1.65128 0.267138
-5.5225 1.65303 0.250171
-5.52063 1.65078 0.233188
-5.51477 1.64851 0.215175
-5.52489 1.65126 0.198208
-5.51603 1.64699 0.180202
-5.52116 1.64774 0.163227
-5.52323 1.64861 0.154229
-5.52835 1.64936 0.137254
-5.52449 1.64709 0.119256
-5.51962 1.64484 0.10225
-5.52675 1.64659 0.0852755
-5.51888 1.64332 0.0672622
-5.52301 1.64407 0.0502798
-5.52115 1.6428 0.0322821
-5.52321 1.64367 0.0232836
-5.53333 1.64644 0.00731659
-5.52347 1.64217 -0.0106969
-5.52461 1.6419 -0.0286869
-5.52673 1.64265 -0.0456843
-5.52386 1.6414 -0.0626898
-5.526 1.64113 -0.0806722
-5.51707 1.63799 -0.0896943
-5.5202 1.63874 -0.106684
-5.51133 1.63548 -0.123705
-5.51746 1.63622 -0.141672
-5.51759 1.63597 -0.15867
-5.51472 1.63472 -0.175675
-5.51885 1.63545 -0.193658
-5.52298 1.6372 -0.210655
-5.52305 1.63707 -0.219654
-5.51918 1.63482 -0.236652
-5.5193 1.63457 -0.253649
5.71466 1.70971 0.22367
5.71428 1.71293 0.305637
5.70441 1.71119 0.322739
5.70755 1.71347 0.341685
5.70582 1.714 0.377695
5.69301 1.71138 0.402833
5.69615 1.71366 0.421779
5.69429 1.71393 0.439791
5.68642 1.71219 0.456879
5.67955 1.71144 0.473944
5.68469 1.71372 0.492874
5.67575 1.71184 0.50097
5.67788 1.71311 0.518938
5.67903 1.71439 0.537913
5.66314 1.71062 0.55309
5.65427 1.70888 0.570185
5.64639 1.70714 0.587273
5.64653 1.70841 0.605256
5.63659 1.70553 0.613374
5.64073 1.70881 0.632297
5.64387 1.71107 0.650242
5.637 1.70933 0.667322
5.64515 1.71362 0.6872
5.62826 1.70986 0.702385
5.63641 1.71315 0.722278
5.62546 1.71026 0.729404
5.63763 1.71556 0.750237
5.62474 1.71281 0.766377
5.61787 1.71205 0.782442
5.616 1.71332 0.80044
5.60112 1.70956 0.81661
5.61628 1.71586 0.837405
4.76622 1.7358 2.82379
4.74535 1.73409 2.84197
4.74653 1.73842 2.8649
4.70848 1.72738 2.86035
4.69659 1.7266 2.87446
4.69474 1.72989 2.89442
4.66877 1.72397 2.89871
4.65988 1.7242 2.91377
4.66499 1.7284 2.92767
4.64404 1.72452 2.93489
4.63734 1.7311 2.97385
4.60047 1.7244 2.99223
4.59561 1.72667 3.01023
4.56786 1.72619 3.04446
4.54004 1.72457 3.06869
4.53116 1.7258 3.08374
4.51029 1.72408 3.10193
4.50945 1.72739 3.12289
4.47963 1.72475 3.14616
4.43998 1.72548 3.19345
4.42038 1.73126 3.24552
4.39439 1.72531 3.2478
4.35777 1.72708 3.29806
4.14456 1.72974 3.53666
4.01849 1.72966 3.66063
3.89536 1.73045 3.77656
3.40339 1.73274 4.18129
3.23727 1.73358 4.29854
2.90984 1.73589 4.50801
2.8939 1.73603 4.51712
2.80723 1.73473 4.5608
2.79837 1.73902 4.57981
2.74649 1.73529 4.59626
2.73056 1.73542 4.60438
2.71562 1.73557 4.61349
2.69171 1.73475 4.62468
2.67577 1.73488 4.6328
2.6649 1.73814 4.64984
2.64388 1.73512 4.64804
2.61503 1.73643 4.66724
2.58808 1.73455 4.67447
2.57417 1.73574 4.68656
2.55923 1.73587 4.69467
2.54735 1.73911 4.71072
2.52532 1.73507 4.70694
2.5114 1.73624 4.71803
2.43966 1.73678 4.75157
2.42372 1.73691 4.75969
2.40573 1.73496 4.76185
2.40182 1.73814 4.77384
2.38589 1.73828 4.78295
2.36995 1.73841 4.79107
2.354 1.73853 4.79819
2.30413 1.7378 4.81458
2.29616 1.73787 4.81864
2.28124 1.73904 4.82974
2.26733 1.74123 4.84181
2.24732 1.73821 4.84001
2.23239 1.73937 4.8501
2.21544 1.73847 4.85625
2.20254 1.74167 4.8693
2.19457 1.74174 4.87336
2.18066 1.74393 4.88543
2.16371 1.74404 4.89256
2.14368 1.74 4.88877
2.13385 1.74533 4.91077
2.11894 1.74752 4.92285
2.10198 1.74761 4.92798
2.084 1.74566 4.93114
2.07806 1.74779 4.93915
2.06518 1.75102 4.95421
2.04823 1.75113 4.96133
2.03228 1.75123 4.96745
2.01532 1.75133 4.97358
1.99633 1.75036 4.97474
1.97548 1.75367 4.99485
1.95444 1.7496 4.98907
1.94156 1.75385 5.0051
1.92358 1.7519 5.00827
1.9056 1.75095 5.01042
1.8917 1.75415 5.02348
1.86963 1.74903 5.01472
1.86268 1.75014 5.02175
1.84777 1.75232 5.03284
1.82876 1.74931 5.03202
1.80976 1.74733 5.0322
1.79688 1.75157 5.04823
1.77276 1.74436 5.03252
1.75886 1.74757 5.04658
1.75192 1.74868 5.05361
1.73085 1.74458 5.04583
1.7139 1.74468 5.05196
1.69999 1.74687 5.06403
1.68201 1.74591 5.06618
1.66299 1.7429 5.06437
1.64912 1.74816 5.0814
1.62907 1.74307 5.07463
1.6211 1.74413 5.07867
1.60518 1.74629 5.08876
1.58614 1.74325 5.08495
1.56918 1.74333 5.09008
1.55427 1.74552 5.10216
1.53321 1.74142 5.09438
1.51522 1.74045 5.09552
1.51444 1.74886 5.12341
1.49233 1.74267 5.10967
1.47742 1.74586 5.12173
1.46251 1.74805 5.13381
1.4404 1.74186 5.12007
1.42243 1.74091 5.12322
1.40749 1.74306 5.1323
1.3944 1.73789 5.12048
1.38156 1.74421 5.14148
1.36459 1.74428 5.14561
1.34659 1.7433 5.14576
1.32962 1.74235 5.1489
1.31473 1.74659 5.16395
1.29569 1.74351 5.15814
1.28773 1.74461 5.16419
1.26975 1.74365 5.16634
1.25278 1.74372 5.17046
1.23476 1.7417 5.16863
1.22093 1.74904 5.19063
1.19981 1.74182 5.17489
1.18492 1.74504 5.18896
1.16695 1.74511 5.19309
1.15795 1.74511 5.19316
1.14097 1.74517 5.19629
1.12503 1.7463 5.20439
1.10497 1.7422 5.1966
1.08904 1.74434 5.20569
1.07209 1.74546 5.21281
1.05513 1.74654 5.21792
1.04719 1.74865 5.22495
1.02915 1.74561 5.22113
1.00905 1.74042 5.20735
0.995232 1.74778 5.23135
0.977255 1.74784 5.23449
0.958169 1.74269 5.22371
0.943309 1.74797 5.24174
0.934309 1.74797 5.24181
0.91527 1.74491 5.237
0.899347 1.74807 5.24707
0.881355 1.7471 5.24822
0.864378 1.74716 5.25135
0.846378 1.74617 5.2515
0.829417 1.74726 5.25661
0.819355 1.74415 5.24873
0.802417 1.74628 5.25683
0.785463 1.74738 5.26294
0.767448 1.74636 5.26109
0.74944 1.74536 5.26024
0.733525 1.74853 5.27132
0.714502 1.7465 5.26849
0.704378 1.74027 5.25266
0.688525 1.74657 5.27169
0.672641 1.7508 5.28675
0.654618 1.74877 5.28391
0.636626 1.7488 5.28505
0.617541 1.74465 5.27425
0.602719 1.752 5.29726
0.590488 1.74156 5.2675
0.574634 1.74686 5.28654
0.556573 1.74375 5.27872
0.538527 1.74168 5.27289
0.520542 1.74172 5.27502
0.503627 1.74489 5.28611
0.485566 1.74179 5.27829
0.47655 1.74077 5.27637
0.458505 1.73869 5.27054
0.442659 1.745 5.29057
0.423512 1.73773 5.27181
0.405536 1.73879 5.27493
0.388544 1.73882 5.27606
0.370482 1.73471 5.26826
0.353606 1.73996 5.28431
0.344622 1.741 5.28636
0.326483 1.73474 5.26859
0.309622 1.74002 5.28664
0.291585 1.73896 5.28179
0.274677 1.74215 5.29387
0.256616 1.73904 5.28605
0.239632 1.74009 5.28817
0.230593 1.73802 5.28327
0.213671 1.74118 5.29335
0.195602 1.73806 5.28453
0.177548 1.73497 5.27771
0.16058 1.73704 5.28181
0.142627 1.73914 5.28791
0.124588 1.73708 5.28308
0.116619 1.73815 5.28712
0.0985425 1.73501 5.2773
0.0815198 1.73398 5.27445
0.06359 1.73713 5.28354
0.0455748 1.73611 5.28169
0.00738429 1.7318 5.12402
-0.00964597 1.73075 5.12016
-0.0266455 1.73076 5.12029
-0.043591 1.73288 5.12739
-0.060428 1.7402 5.14841
-0.0694742 1.73812 5.14251
-0.0856513 1.73079 5.11973
-0.103434 1.74022 5.14773
-0.120465 1.73917 5.14387
-0.137603 1.73292 5.12609
-0.153696 1.72875 5.11427
-0.171525 1.73709 5.13629
-0.179594 1.73396 5.12739
-0.197485 1.73918 5.14145
-0.213624 1.73293 5.12367
-0.231507 1.73816 5.13872
-0.248545 1.7371 5.13387
-0.26473 1.72876 5.11011
-0.281737 1.72876 5.10924
-0.289752 1.72873 5.1073
-0.306775 1.7277 5.10444
-0.323782 1.7277 5.10357
-0.340805 1.72667 5.10071
-0.357812 1.72666 5.09984
-0.37478 1.72874 5.10394
-0.391802 1.7287 5.10107
-0.40884 1.72664 5.09622
-0.417793 1.72974 5.10225
-0.434769 1.73079 5.10536
-0.451823 1.7287 5.09852
-0.467923 1.72452 5.0857
-0.488604 1.74014 5.12663
-0.504688 1.73699 5.1158
-0.519874 1.72865 5.09203
-0.530617 1.74114 5.12493
-0.546764 1.73488 5.10614
-0.563732 1.73695 5.11024
-0.578917 1.7286 5.08648
-0.597792 1.73585 5.10251
-0.612938 1.72958 5.08372
-0.632721 1.74001 5.11172
-0.639813 1.73584 5.09983
-0.658742 1.73999 5.10891
-0.674803 1.73788 5.10106
-0.691849 1.7368 5.09521
-0.707894 1.73573 5.08934
-0.725839 1.73884 5.09643
-0.738117 1.72632 5.06071
-0.751861 1.73882 5.09363
-0.767899 1.73775 5.08876
-0.781146 1.72729 5.05701
-0.802873 1.74082 5.09198
-0.818958 1.73767 5.08115
-0.834073 1.73346 5.06632
-0.852009 1.73759 5.0744
-0.860993 1.73863 5.07645
-0.878985 1.73966 5.07757
-0.894107 1.73543 5.06175
-0.912036 1.73958 5.07082
-0.925237 1.7312 5.04504
-0.945112 1.73745 5.0611
-0.961212 1.73427 5.04827
-0.979171 1.73736 5.05336
-0.982419 1.72589 5.02155
-0.999426 1.72689 5.02066
-1.02025 1.73624 5.04368
-1.03823 1.73829 5.04579
-1.05428 1.73719 5.03892
-1.06648 1.72882 5.01314
-1.08735 1.73608 5.03019
-1.09635 1.73709 5.03024
-1.10857 1.72769 5.00247
-1.1304 1.73701 5.0235
-1.14066 1.72552 4.98974
-1.16344 1.73695 5.01775
-1.18049 1.73687 5.01188
-1.19459 1.73369 4.99903
-1.20551 1.73684 5.00906
-1.21866 1.73157 4.99024
-1.22987 1.72317 4.96244
-1.24787 1.72418 4.96256
-1.26779 1.72934 4.97264
-1.28769 1.73555 4.9857
-1.29698 1.72299 4.94795
-1.31275 1.73445 4.9779
-1.33073 1.73751 4.98099
-1.34 1.72598 4.94523
-1.3779 1.7342 4.95839
-1.38715 1.72373 4.92661
-1.4129 1.73621 4.95763
-1.419 1.73304 4.94572
-1.42726 1.72254 4.91193
-1.45303 1.73399 4.94096
-1.46909 1.7339 4.93408
-1.48611 1.73386 4.93121
-1.50117 1.73276 4.92334
-1.52741 1.7243 4.89166
-1.54323 1.73365 4.91464
-1.55053 1.7221 4.87686
-1.57046 1.72623 4.88495
-1.58162 1.72093 4.86411
-1.61663 1.72394 4.86333
-1.64049 1.73222 4.88139
-1.67376 1.72373 4.84676
-1.68884 1.72158 4.83591
-1.70389 1.72148 4.82902
-1.72092 1.72144 4.82515
-1.74088 1.72553 4.83024
-1.744 1.72131 4.81532
-1.76201 1.72229 4.81345
-1.77805 1.72221 4.80757
-1.79408 1.72316 4.80367
-1.80621 1.71894 4.78782
-1.82715 1.72306 4.79492
-1.83732 1.71774 4.77307
-1.84729 1.7198 4.77712
-1.86236 1.71867 4.76725
-1.87939 1.71962 4.76336
-1.89249 1.71644 4.75051
-1.90951 1.71741 4.74762
-1.92751 1.71942 4.74773
-1.94453 1.72039 4.74484
-1.95059 1.71927 4.7369
-1.96761 1.72024 4.73401
-1.98072 1.71704 4.72016
-1.99971 1.72007 4.72126
-2.01084 1.71583 4.7044
-2.02394 1.71264 4.69154
-2.04391 1.71672 4.69563
-2.05388 1.71977 4.69867
-2.06502 1.71451 4.68082
-2.08106 1.71545 4.67593
-2.09711 1.71536 4.66905
-2.11217 1.71425 4.66118
-2.13313 1.71934 4.66626
-2.14425 1.71611 4.65039
-2.15637 1.7119 4.63555
-2.16734 1.71495 4.63858
-2.18535 1.71695 4.63769
-2.19942 1.71582 4.62881
-2.21251 1.71366 4.61694
-2.22757 1.71353 4.60805
-2.24559 1.71552 4.60616
-2.25868 1.71335 4.59429
-2.26866 1.7154 4.59733
-2.28372 1.71528 4.58845
-2.30273 1.71728 4.58756
-2.31778 1.71718 4.58068
-2.33086 1.71603 4.56979
-2.34789 1.71698 4.5659
-2.36 1.71479 4.55202
-2.36507 1.71266 4.54309
-2.38308 1.71464 4.5412
-2.39717 1.71249 4.53034
-2.41517 1.71549 4.52943
-2.42531 1.71123 4.51156
-2.44037 1.71112 4.50368
-2.46133 1.71619 4.50776
-2.46542 1.71303 4.49684
-2.4785 1.71188 4.48595
-2.49357 1.71076 4.47708
-2.50961 1.7117 4.47219
-2.52664 1.71363 4.46729
-2.54367 1.71459 4.4634
-2.55874 1.71446 4.45451
-2.56281 1.71233 4.44557
-2.57885 1.71326 4.43968
-2.59194 1.71109 4.42781
-2.61192 1.71513 4.4299
-2.62402 1.71295 4.41702
-2.63415 1.70971 4.40014
-2.65415 1.71272 4.40025
-2.6692 1.71363 4.39335
-2.67526 1.71253 4.38641
-2.69032 1.71241 4.37752
-2.70735 1.71436 4.37362
-2.71649 1.7101 4.35575
-2.7345 1.71208 4.35386
-2.75945 1.7192 4.36094
-2.76265 1.71182 4.33507
-2.77463 1.71386 4.33713
-2.78771 1.71371 4.32623
-2.79784 1.70946 4.30937
-2.81881 1.71452 4.31245
-2.83387 1.71441 4.30457
-2.84697 1.71325 4.29268
-2.86103 1.71312 4.28379
-2.86807 1.71305 4.27884
-2.87523 1.70775 4.25797
-2.89424 1.71073 4.25607
-2.90831 1.71061 4.24718
-2.9204 1.70944 4.23528
-2.94436 1.71553 4.24037
-2.94954 1.70918 4.2165
-2.94965 1.70497 4.20256
-2.97361 1.71106 4.20766
-2.98867 1.71196 4.19975
-2.99879 1.70873 4.18388
-3.01089 1.70754 4.17098
-3.02595 1.70744 4.1631
-3.03804 1.70627 4.1512
-3.04508 1.7062 4.14626
-3.06014 1.70709 4.13836
-3.07817 1.70905 4.13446
-3.09224 1.70891 4.12457
-3.10828 1.71083 4.11866
-3.11642 1.70657 4.10078
-3.13445 1.70952 4.09687
-3.14149 1.70945 4.09193
-3.15159 1.70725 4.07803
-3.16271 1.70504 4.06315
-3.18271 1.70904 4.06224
-3.19777 1.70993 4.05434
-3.20789 1.70772 4.03945
-3.22394 1.70863 4.03255
-3.23307 1.70538 4.01567
-3.23811 1.7053 4.00971
-3.25219 1.70514 3.99881
-3.26725 1.70605 3.99191
-3.27637 1.70282 3.97603
-3.29143 1.7037 3.96713
-3.31045 1.70667 3.96422
-3.32156 1.70547 3.95032
-3.3286 1.7054 3.94538
-3.34365 1.70631 3.93848
-3.34585 1.69992 3.91258
-3.36882 1.70598 3.91567
-3.38686 1.70792 3.91077
-3.39697 1.70571 3.89588
-3.40906 1.70554 3.88397
-3.42214 1.70539 3.87307
-3.42522 1.70324 3.86313
-3.44028 1.70413 3.85523
-3.46029 1.70812 3.85332
-3.47734 1.71003 3.84642
-3.47556 1.70161 3.81852
-3.49558 1.70558 3.81561
-3.49875 1.70026 3.79371
-3.50777 1.70122 3.79077
-3.52184 1.70208 3.78086
-3.53889 1.70401 3.77496
-3.55098 1.70384 3.76305
-3.56406 1.70368 3.75215
-3.57912 1.70458 3.74425
-3.58427 1.70028 3.72435
-3.59825 1.70432 3.72639
-3.61134 1.70417 3.71549
-3.61351 1.69883 3.69259
-3.62857 1.69972 3.68469
-3.64066 1.69955 3.67278
-3.65276 1.69837 3.65988
-3.66682 1.70026 3.65196
-3.67486 1.70019 3.64702
-3.68695 1.70003 3.63511
-3.70896 1.70501 3.63321
-3.7141 1.70175 3.61529
-3.73215 1.70366 3.6084
-3.74026 1.70144 3.59349
-3.75533 1.70331 3.58357
-3.75443 1.69913 3.57163
-3.77445 1.70308 3.56772
-3.78654 1.70291 3.55581
-3.8026 1.70481 3.5479
-3.8137 1.70362 3.535
-3.82678 1.70447 3.52409
-3.82697 1.69811 3.50018
-3.84204 1.69998 3.49026
-3.85702 1.70403 3.49332
-3.89229 1.70352 3.45758
-3.90339 1.70232 3.44368
-3.92062 1.69989 3.41385
-5.37952 1.64893 0.114136
-5.37791 1.64617 0.0631573
-5.39548 1.65006 -0.0127783
-5.39373 1.64855 -0.0467739
-5.39492 1.64818 -0.0717629
-5.39005 1.64593 -0.0887686
-5.38619 1.64366 -0.106767
-5.38332 1.64241 -0.123772
-5.39344 1.64518 -0.139739
-5.38257 1.64092 -0.15676
-5.38064 1.64078 -0.165774
-5.38076 1.64053 -0.182772
