-1.61584 1.6912 5.89883
-3.23612 1.67591 5.20417
-3.35765 1.67494 5.13409
-3.38279 1.6747 5.11628
-3.40086 1.67458 5.10742
-3.48118 1.676 5.06499
-3.49627 1.67582 5.05211
-3.51138 1.67462 5.03824
-3.52945 1.67448 5.02838
-3.5485 1.67641 5.02249
-3.56262 1.67418 5.00663
-3.59453 1.68237 5.01775
-3.59268 1.67707 4.99781
-3.61076 1.67694 4.98795
-3.63179 1.67988 4.98306
-3.65481 1.68286 4.98119
-3.66694 1.68061 4.96331
-3.69193 1.68464 4.96444
-3.70704 1.68444 4.95056
-3.71113 1.68127 4.93863
-3.73316 1.68423 4.93475
-3.74826 1.68404 4.92187
-3.75842 1.67974 4.90101
-3.78639 1.6858 4.90413
-3.79654 1.68252 4.88425
-3.82352 1.68756 4.88638
-3.82563 1.68436 4.87244
-3.8437 1.68524 4.86356
-3.95226 1.68621 4.78935
-4.01762 1.68553 4.74085
-4.07196 1.6849 4.69626
-4.08806 1.68472 4.68338
-4.1002 1.68346 4.66549
-4.1585 1.6839 4.62492
-4.18276 1.68141 4.59113
-4.19191 1.67812 4.57125
-4.21197 1.68002 4.56337
-4.23202 1.68193 4.55649
-4.23623 1.67654 4.5296
-4.25419 1.68162 4.53466
-4.25738 1.67624 4.50876
-4.27646 1.67811 4.49888
-4.28958 1.67588 4.48301
-4.31757 1.68191 4.48413
-4.3168 1.67445 4.45323
-4.32992 1.67424 4.43833
-4.34391 1.67725 4.43839
-4.35208 1.67395 4.4175
-4.37213 1.67584 4.40962
-4.38228 1.67357 4.39073
-4.39441 1.67233 4.37383
-4.41546 1.67424 4.36696
-4.42461 1.67195 4.34706
-4.44257 1.67702 4.35112
-4.45768 1.67682 4.33724
-4.47179 1.67663 4.32335
-4.47398 1.67124 4.29744
-4.50496 1.67729 4.29958
-4.52205 1.67813 4.2877
-4.52425 1.67275 4.26179
-4.53836 1.67255 4.2479
-4.55236 1.67554 4.24696
-4.56647 1.67535 4.23307
-4.58356 1.67618 4.22118
-4.61079 1.67574 4.19039
-4.64606 1.67524 4.15466
-4.66215 1.67607 4.14276
-4.67825 1.67587 4.12889
6.01382 1.71811 2.6315
6.00697 1.71941 2.65154
6.00614 1.72176 2.67451
5.98122 1.71694 2.68577
5.97337 1.71824 2.70582
5.9625 1.7175 2.72291
5.95977 1.72202 2.75787
5.93986 1.71923 2.77106
5.93201 1.71951 2.79012
5.87778 1.72106 2.89252
5.85185 1.71723 2.90277
5.84399 1.71752 2.92183
5.84016 1.71985 2.94383
5.82327 1.71808 2.95898
5.80638 1.7163 2.97314
5.81652 1.72156 2.99099
5.78957 1.7157 2.99928
5.77771 1.71597 3.01737
5.76685 1.71625 3.03545
5.75096 1.71448 3.05059
5.75416 1.71986 3.07649
5.73325 1.71606 3.08871
5.7243 1.71517 3.09579
5.70941 1.7144 3.11092
5.69352 1.71262 3.12506
5.68567 1.71392 3.14511
5.66978 1.71315 3.16024
5.65791 1.71241 3.17734
5.64201 1.71063 3.19149
5.64412 1.71384 3.20543
5.63024 1.71309 3.22155
5.61837 1.71335 3.23864
5.61956 1.71772 3.26357
5.6077 1.71799 3.28165
5.57874 1.7121 3.28796
5.57189 1.7134 3.308
5.56706 1.71673 3.32998
5.55811 1.71584 3.33707
5.54221 1.71406 3.35121
5.53034 1.71432 3.3683
5.5235 1.71664 3.38932
5.50861 1.71487 3.40446
5.49373 1.7141 3.41959
5.4918 1.71525 3.42959
5.46988 1.71243 3.4408
5.45801 1.71269 3.45788
5.45016 1.71398 3.47693
5.43326 1.7132 3.49107
5.41838 1.71243 3.50619
5.41254 1.71475 3.52721
5.4066 1.71488 3.53625
5.38769 1.71308 3.54842
5.38688 1.71645 3.57338
5.36998 1.71565 3.58652
5.34705 1.7118 3.59575
5.3392 1.7141 3.61578
5.3233 1.71232 3.62993
5.33346 1.71861 3.64976
5.32561 1.72091 3.66979
5.30067 1.71605 3.67805
5.28477 1.71527 3.69218
5.27391 1.71654 3.71025
5.26405 1.71782 3.72831
5.24815 1.71704 3.74244
5.24433 1.72039 3.76642
5.23035 1.71743 3.76857
5.21948 1.71871 3.78664
5.20057 1.71688 3.79781
5.18568 1.71612 3.81293
5.17582 1.71741 3.83199
5.15891 1.7156 3.84415
5.15711 1.72098 3.87009
5.13407 1.71493 3.86535
5.12421 1.7162 3.88341
5.12341 1.72058 3.90935
5.09644 1.71568 3.91463
5.08457 1.71694 3.9317
5.06364 1.7141 3.9419
5.05781 1.71743 3.9639
5.05389 1.71858 3.97391
5.03094 1.7147 3.98114
5.02008 1.71598 3.99921
5.0082 1.71724 4.01628
4.98829 1.71542 4.02746
4.97943 1.7167 4.04651
4.96253 1.71591 4.05965
4.95559 1.71603 4.0677
4.9407 1.71625 4.08181
4.9248 1.71547 4.09595
4.90689 1.71466 4.1081
4.893 1.71489 4.1232
4.88113 1.71515 4.14029
4.85919 1.71229 4.1485
4.85829 1.71548 4.16146
4.84844 1.71677 4.18052
4.8275 1.71392 4.18972
4.81059 1.71311 4.20186
4.79571 1.71334 4.21697
4.78484 1.71462 4.23503
4.76491 1.71276 4.24421
4.75797 1.71289 4.25226
4.74308 1.7131 4.26638
4.72718 1.71332 4.28049
4.7133 1.71356 4.2956
4.70042 1.7138 4.31169
4.68552 1.71402 4.3258
4.67366 1.7153 4.34388
4.65876 1.71551 4.35799
4.64477 1.71354 4.35912
4.6329 1.7148 4.3762
4.61598 1.71397 4.38734
4.59807 1.71317 4.39949
4.58016 1.71236 4.41163
4.5703 1.71363 4.42969
4.55642 1.71488 4.44578
4.54444 1.71293 4.4489
4.53358 1.7152 4.46695
4.49976 1.71358 4.49123
4.49394 1.71794 4.51522
4.46594 1.71196 4.51551
4.45408 1.71424 4.53357
4.44512 1.71432 4.53864
4.41634 1.71477 4.56785
4.39842 1.71395 4.579
4.38656 1.71622 4.59706
4.37569 1.7175 4.61513
4.35475 1.71563 4.62331
4.34176 1.71365 4.62444
4.32686 1.71387 4.63855
4.30996 1.71306 4.65069
4.2991 1.71635 4.66973
4.28117 1.71451 4.67989
4.26528 1.71473 4.69401
4.24534 1.71386 4.70217
4.23537 1.71293 4.70626
4.22553 1.71525 4.72731
4.20458 1.71337 4.73449
4.19877 1.71874 4.75946
4.1758 1.71482 4.76369
4.16091 1.71604 4.77779
4.144 1.71523 4.78993
4.12507 1.71439 4.80009
4.1151 1.71344 4.80318
4.10727 1.71779 4.82617
4.08027 1.71281 4.82645
4.0674 1.71507 4.84352
4.03357 1.71442 4.86578
4.01666 1.71462 4.87891
4.01376 1.7168 4.8909
3.98877 1.71285 4.89315
3.97388 1.71407 4.90724
3.94005 1.71343 4.93051
3.92718 1.7157 4.94758
3.90522 1.7138 4.95377
3.89625 1.71287 4.95785
3.78885 1.71511 5.03764
3.70025 1.71295 5.09035
3.66049 1.71445 5.12263
3.64055 1.71358 5.13079
3.6206 1.7127 5.13796
3.59183 1.71517 5.16814
3.50612 1.71279 5.20683
3.4973 1.71715 5.23083
3.4733 1.71317 5.23107
3.41158 1.71377 5.26854
3.39567 1.71495 5.28064
3.37674 1.7141 5.2898
3.36388 1.71739 5.30885
3.34595 1.71654 5.318
3.32397 1.7146 5.32119
3.3221 1.71885 5.33814
3.29506 1.7138 5.33342
3.28221 1.71709 5.35247
3.26428 1.71725 5.36261
3.24839 1.71847 5.37671
3.23351 1.7207 5.39179
3.21845 1.71661 5.38496
3.20357 1.71784 5.40006
3.17753 1.7138 5.39632
3.1268 1.71636 5.43166
3.10482 1.71442 5.43486
3.08892 1.71562 5.44796
3.083 1.71779 5.45898
3.06508 1.71795 5.46911
3.04816 1.71812 5.48024
3.03532 1.72243 5.50027
3.01131 1.71843 5.49951
2.99642 1.72065 5.5136
2.97748 1.7208 5.52274
2.9665 1.71984 5.52483
2.95974 1.7273 5.55578
2.93573 1.7243 5.555
2.91881 1.72448 5.56613
2.9019 1.72567 5.57824
2.88195 1.72477 5.58441
2.86504 1.72596 5.59652
2.86421 1.73229 5.61843
2.81617 1.72525 5.6139
2.79622 1.72437 5.62106
2.77423 1.7224 5.62226
2.75224 1.72044 5.62445
2.73532 1.7206 5.63458
2.7284 1.72276 5.6446
2.70335 1.71869 5.63885
2.6834 1.7178 5.64601
2.65937 1.71376 5.64225
2.64551 1.71804 5.6603
2.62454 1.71613 5.66548
2.60457 1.7152 5.66965
2.59154 1.71315 5.66578
2.57464 1.71436 5.67889
2.5557 1.71449 5.68703
2.53676 1.71462 5.69517
2.51883 1.71475 5.70331
2.37014 1.71148 5.74648
2.35324 1.71367 5.75858
2.34223 1.71167 5.75769
2.2854 1.71205 5.78112
2.24955 1.71436 5.80035
2.22552 1.71132 5.79658
2.20657 1.71143 5.80372
2.20067 1.71463 5.81672
2.18071 1.71372 5.82189
2.16175 1.71382 5.82803
2.13975 1.71184 5.82822
2.12285 1.71404 5.84132
2.10494 1.71522 5.85244
2.08498 1.71532 5.85859
2.07397 1.7133 5.8567
2.05401 1.7134 5.86285
2.03405 1.71349 5.868
2.01406 1.71254 5.87017
1.99717 1.71476 5.88426
1.98027 1.71696 5.89736
1.9593 1.71703 5.90152
1.94829 1.71501 5.89963
1.92729 1.71303 5.89982
1.90939 1.71623 5.9129
1.89043 1.71634 5.91905
1.87048 1.71644 5.9252
1.85051 1.71551 5.92936
1.83156 1.71663 5.93649
1.82055 1.71462 5.9356
1.80571 1.71995 5.95664
1.78164 1.71482 5.94689
1.76271 1.71698 5.957
1.74172 1.71501 5.95819
1.72379 1.71715 5.9673
1.70694 1.72045 5.98638
1.69694 1.72045 5.98645
1.67595 1.7195 5.98863
1.65804 1.72169 6.00073
1.63911 1.72284 6.00986
1.61912 1.72187 6.01102
1.59916 1.72195 6.01617
1.57713 1.71891 6.01238
1.5551 1.71688 6.00958
1.54513 1.71795 6.01364
1.52723 1.72014 6.02574
1.50726 1.72023 6.03089
1.4873 1.72032 6.03604
1.46629 1.7183 6.03423
1.44633 1.71839 6.03938
1.4274 1.72055 6.04949
1.41946 1.72168 6.05753
1.39639 1.71856 6.04875
1.37643 1.71864 6.0529
1.35646 1.71871 6.05705
1.33547 1.71775 6.05923
1.31652 1.71886 6.06535
1.29553 1.7179 6.06753
1.28553 1.71691 6.06762
1.26869 1.72223 6.08867
1.24561 1.71809 6.0779
1.22562 1.71713 6.08007
1.20462 1.71615 6.08024
1.18674 1.72038 6.09531
1.16884 1.72259 6.10842
1.15573 1.71839 6.09458
1.1337 1.71635 6.09077
1.11372 1.71539 6.09294
1.09376 1.71648 6.09807
1.07275 1.71548 6.09724
1.05383 1.71766 6.10836
1.03176 1.71352 6.09858
1.02178 1.71458 6.10164
1.00388 1.71678 6.11475
0.981825 1.71469 6.10794
0.963941 1.71793 6.12303
0.940856 1.71378 6.11227
0.920879 1.71384 6.11542
0.901941 1.71597 6.12353
0.890941 1.71498 6.12363
0.870933 1.71398 6.12279
0.85098 1.71508 6.12893
0.831019 1.71617 6.13406
0.811019 1.71519 6.13423
0.78895 1.71207 6.12544
0.771096 1.71736 6.1445
0.759019 1.71423 6.13463
0.741142 1.71748 6.15072
0.721189 1.71858 6.15686
0.700174 1.71756 6.15503
0.679113 1.71546 6.14722
0.658105 1.71446 6.14639
0.638144 1.71555 6.15153
0.617129 1.71454 6.1497
0.608198 1.71668 6.15874
0.586075 1.71146 6.14298
0.566122 1.71256 6.14911
0.547207 1.71574 6.16021
0.526192 1.71472 6.15838
0.505154 1.71266 6.15357
0.485169 1.71271 6.15572
0.474069 1.70852 6.14286
0.454062 1.70852 6.14201
0.434109 1.70963 6.14815
0.414171 1.71176 6.15627
0.394225 1.71388 6.16339
0.373233 1.71391 6.16455
0.353203 1.71186 6.16073
0.343203 1.71187 6.1608
0.322149 1.70978 6.15399
0.302158 1.70981 6.15514
0.281181 1.70987 6.1583
0.262258 1.71303 6.1684
0.241144 1.70883 6.15362
0.221198 1.70994 6.16075
0.210214 1.71098 6.16282
0.190198 1.70997 6.16098
0.170284 1.71314 6.17209
0.149223 1.71104 6.16428
0.129154 1.70792 6.15547
0.109139 1.70791 6.15362
0.0881706 1.70898 6.15777
0.0781401 1.70793 6.15386
0.0581715 1.709 6.15799
0.0435452 1.70682 5.9421
0.02353 1.7058 5.94027
0.00357705 1.7079 5.94639
-0.0154839 1.7058 5.93856
-0.0354143 1.70795 5.94768
-0.0453983 1.70898 5.94974
-0.0653206 1.71215 5.95985
-0.0843276 1.71214 5.95899
-0.104312 1.71219 5.96114
-0.123434 1.70797 5.94535
-0.143472 1.70691 5.94051
-0.162579 1.70271 5.92672
-0.173371 1.71112 5.95368
-0.192447 1.70799 5.94387
-0.212454 1.70799 5.94302
-0.231523 1.70587 5.93419
-0.251499 1.70693 5.93733
-0.270522 1.7059 5.93448
-0.291351 1.71324 5.95653
-0.30952 1.70692 5.93476
-0.31952 1.70693 5.93484
-0.339457 1.71006 5.94294
-0.358627 1.70275 5.92119
-0.378564 1.70589 5.9293
-0.398532 1.70796 5.93342
-0.416717 1.70062 5.90966
-0.436607 1.70584 5.92373
-0.446615 1.70583 5.92281
-0.465637 1.7048 5.91997
-0.485683 1.70373 5.91413
-0.504666 1.70477 5.91626
-0.525634 1.70684 5.92039
-0.543719 1.7037 5.90957
-0.563672 1.7058 5.91569
-0.57274 1.70367 5.90679
-0.592724 1.70472 5.90892
-0.6127 1.70677 5.91205
-0.631784 1.70363 5.90123
-0.649891 1.70043 5.88742
-0.66989 1.70045 5.88757
-0.689851 1.70254 5.89269
-0.698873 1.7025 5.88975
-0.719803 1.70565 5.89887
-0.736979 1.69932 5.87609
-0.756955 1.70138 5.87921
-0.776946 1.70241 5.88034
-0.795069 1.69818 5.86454
-0.825975 1.70238 5.87671
-0.843113 1.69813 5.8589
-0.863088 1.70019 5.86202
-0.883087 1.7012 5.86216
-0.903078 1.70223 5.86329
-0.921154 1.7001 5.85346
-0.943061 1.70429 5.86556
-0.960191 1.70005 5.84875
-0.969229 1.69898 5.84384
-0.988251 1.69895 5.84098
-1.00732 1.69683 5.83215
-1.02442 1.69465 5.81931
-1.04537 1.69676 5.82544
-1.06731 1.70089 5.83355
-1.07536 1.69879 5.82664
-1.09248 1.69559 5.81181
-1.11151 1.69554 5.80796
-1.1515 1.69757 5.80823
-1.18765 1.69431 5.78954
-1.19669 1.69225 5.78464
-1.21573 1.69217 5.77879
-1.23474 1.69216 5.77693
-1.25669 1.69628 5.78404
-1.39506 1.69065 5.73615
-1.41605 1.69168 5.7373
-1.46216 1.69049 5.72266
-1.48314 1.69354 5.72477
-1.57635 1.69119 5.69751
-1.62248 1.68997 5.68087
-1.74377 1.68848 5.6428
-1.78182 1.68941 5.63607
-1.88114 1.68686 5.59485
-1.98239 1.68643 5.56162
-3.0089 1.67722 5.09942
-3.02089 1.68025 5.10147
-3.04388 1.68327 5.1016
-3.06096 1.68313 5.09173
-3.08098 1.6851 5.08885
-3.09017 1.67974 5.06399
-3.10723 1.68064 5.05611
-3.11739 1.67633 5.03524
-3.12444 1.67523 5.02831
-3.14843 1.67928 5.03043
-3.15958 1.67599 5.01056
-3.17664 1.67587 5.00169
-3.19273 1.67572 4.99082
-3.21177 1.67665 4.98494
-3.22786 1.67648 4.97307
-3.24182 1.67956 4.97813
-3.25989 1.68044 4.96925
-3.27004 1.67616 4.94939
-3.28613 1.67599 4.93751
-3.30517 1.67793 4.93262
-3.32916 1.68095 4.93276
-3.34524 1.68081 4.92288
-3.34735 1.67759 4.90794
-3.37925 1.6858 4.92106
-3.38644 1.68044 4.89619
-3.39955 1.67923 4.88131
-3.41959 1.68117 4.87643
-3.42974 1.67788 4.85655
-3.45374 1.6819 4.85667
-3.46277 1.68184 4.85274
-3.47787 1.68166 4.83985
-3.48801 1.67839 4.82098
-3.5031 1.67722 4.80911
-3.51918 1.67707 4.79823
-3.54615 1.68315 4.80234
-3.55729 1.67988 4.78347
-3.57535 1.68077 4.77559
-3.58933 1.68383 4.77865
-3.5965 1.67949 4.75577
-3.60864 1.67723 4.73789
-3.63857 1.68439 4.74701
-3.64477 1.67901 4.72113
-3.65689 1.67678 4.70526
-3.68287 1.68183 4.70738
-3.6919 1.68277 4.70343
-3.70006 1.67947 4.68254
-3.73099 1.68661 4.69067
-3.73322 1.67917 4.66079
-3.75129 1.68005 4.65191
-3.77232 1.683 4.64803
-3.78445 1.68076 4.63115
-3.79644 1.68377 4.6312
-3.81649 1.68569 4.62532
-3.81971 1.67927 4.59643
-3.83975 1.68119 4.59055
-3.86177 1.68417 4.58768
-3.87489 1.68295 4.57279
-3.88502 1.68069 4.5549
-3.90099 1.68476 4.55896
-3.90321 1.67834 4.53007
-3.92623 1.68131 4.52719
-3.94826 1.68427 4.52332
-3.95246 1.67888 4.49742
-3.97152 1.68078 4.48954
-3.98871 1.67842 4.4647
-4.01073 1.68138 4.46082
-4.02286 1.67914 4.44394
-4.03101 1.67685 4.42404
-4.05602 1.68085 4.42316
-4.0872 1.68152 4.39939
-4.09733 1.67926 4.38149
-4.11849 1.67798 4.36167
-4.13359 1.67778 4.34778
-4.16079 1.6774 4.32099
-4.1858 1.68139 4.31912
-4.20596 1.68109 4.29827
-4.29257 1.67996 4.21793
-4.29665 1.67881 4.20798
-4.40043 1.67635 4.10478
-4.44571 1.67782 4.0671
-4.45783 1.67659 4.0512
-4.48307 1.67515 4.02041
6.00533 1.70331 2.0367
6.0085 1.70765 2.05962
5.99563 1.70591 2.07674
5.98978 1.70619 2.09579
5.96988 1.70342 2.10998
6.00107 1.71475 2.13358
5.96511 1.70588 2.14098
5.95625 1.70515 2.15906
5.94939 1.70644 2.1781
5.94254 1.70672 2.19715
5.92866 1.70497 2.21328
5.91578 1.70322 2.22941
5.91687 1.70539 2.24137
5.907 1.70565 2.25844
5.90216 1.70697 2.27946
5.88526 1.70419 2.29363
5.88643 1.70751 2.31558
5.87958 1.70781 2.33563
5.85967 1.70401 2.34783
5.84579 1.70325 2.36395
5.84889 1.70544 2.3769
5.84304 1.70674 2.39692
5.83116 1.70599 2.41303
5.81728 1.70424 2.42916
5.82146 1.70859 2.45307
5.7865 1.7007 2.45945
5.79169 1.70507 2.48435
5.77872 1.70214 2.48849
5.62739 1.71648 2.84247
5.62155 1.71779 2.86349
5.62063 1.71994 2.87347
5.59387 1.71743 2.90571
5.58701 1.71872 2.92475
5.57313 1.71797 2.94087
5.57331 1.72231 2.9638
5.54929 1.71629 2.96207
5.54444 1.71759 2.98209
5.54865 1.72299 3.00899
5.53074 1.72018 3.02116
5.50516 1.72403 3.07731
5.47547 1.72366 3.11854
5.45454 1.71982 3.12876
5.45172 1.72316 3.15173
5.44285 1.72444 3.16978
5.42495 1.72164 3.18296
5.417 1.72074 3.18904
5.38602 1.71482 3.19336
5.38621 1.71817 3.21731
5.37232 1.71741 3.23243
5.35642 1.71663 3.24656
5.35359 1.71895 3.26855
5.34373 1.72023 3.28661
5.32582 1.71842 3.29877
5.30781 1.71342 3.29798
5.31504 1.72086 3.32782
5.30416 1.72111 3.3449
5.28324 1.71828 3.3551
5.26935 1.71751 3.37022
5.25546 1.71673 3.38434
5.24056 1.71595 3.39847
5.23765 1.71711 3.40947
5.2137 1.71323 3.41671
5.20986 1.71556 3.43871
5.18794 1.71273 3.44892
5.18007 1.714 3.46696
5.16317 1.7122 3.48012
5.14828 1.71142 3.49424
5.15642 1.71668 3.5121
5.13147 1.7128 3.51935
5.11959 1.71305 3.53544
5.10771 1.71329 3.55153
5.09985 1.71558 3.57055
5.08797 1.71583 3.58664
5.06906 1.713 3.59783
5.06815 1.71518 3.60981
5.04923 1.71336 3.62098
5.03131 1.71154 3.63214
5.02446 1.71384 3.65216
5.02768 1.71925 3.68006
4.99266 1.71124 3.67844
4.99185 1.71562 3.70339
4.97484 1.71261 3.70256
4.97302 1.71597 3.72653
4.94706 1.71106 3.7318
4.94927 1.71748 3.75969
4.92431 1.71357 3.76493
4.91344 1.71383 3.78201
4.89451 1.71199 3.79219
4.89763 1.71622 3.8081
4.87669 1.71236 3.81632
4.86583 1.71463 3.83437
4.85797 1.71592 3.85341
4.83905 1.71408 3.86358
4.82415 1.7133 3.87771
4.80824 1.71249 3.88984
4.79335 1.71271 3.90395
4.7874 1.71282 3.911
4.7705 1.71202 3.92414
4.76567 1.71535 3.94613
4.74271 1.71146 3.95236
4.73687 1.71477 3.97336
4.71895 1.71295 3.98452
4.70507 1.71318 3.99962
4.69611 1.71226 4.00471
4.6792 1.71145 4.01685
4.66732 1.71169 4.03293
4.64939 1.71086 4.04308
4.64658 1.71523 4.06804
4.62564 1.71236 4.07625
4.60671 1.71051 4.08542
4.60682 1.71372 4.09937
4.58285 1.70981 4.10461
4.57601 1.71312 4.12561
4.54319 1.71149 4.14889
4.52929 1.71171 4.16299
4.51238 1.7109 4.17513
4.5135 1.71412 4.19008
4.4986 1.71433 4.20419
4.48168 1.71351 4.21533
4.47182 1.71478 4.23339
4.44684 1.71085 4.23664
4.43295 1.71106 4.25074
4.42409 1.71335 4.26978
4.41009 1.71036 4.26993
4.3952 1.71058 4.28404
4.39441 1.717 4.31195
4.3664 1.711 4.31125
4.35352 1.71223 4.32633
4.34265 1.71451 4.34438
4.3217 1.71161 4.35058
4.30579 1.71082 4.36372
4.31096 1.71712 4.38459
4.26904 1.71133 4.39699
4.25112 1.71049 4.40714
4.2342 1.70967 4.41828
4.21348 1.71422 4.45437
4.18356 1.7114 4.46564
4.17068 1.71265 4.48172
4.15175 1.71079 4.4909
4.13684 1.71098 4.50301
4.12194 1.71119 4.51612
4.10805 1.71242 4.53121
4.1011 1.71253 4.53826
4.08722 1.71376 4.55335
4.04934 1.71002 4.56969
4.03544 1.71124 4.58378
4.00362 1.71062 4.60803
3.99567 1.71071 4.61409
3.96587 1.71212 4.6403
3.95299 1.71337 4.65638
3.93404 1.71148 4.66355
3.89919 1.71081 4.68382
3.89124 1.7109 4.68988
3.86043 1.71131 4.71611
3.52213 1.71087 4.9427
3.50521 1.71105 4.95383
3.46239 1.71043 4.97816
3.35985 1.7104 5.03894
3.00533 1.71156 5.23762
2.96151 1.71195 5.26195
2.9527 1.71731 5.28594
2.92867 1.71328 5.28318
2.9148 1.71553 5.29926
2.89077 1.7115 5.2965
2.88383 1.71362 5.30452
2.8659 1.71377 5.31365
2.85101 1.71499 5.32775
2.83104 1.71406 5.33191
2.81919 1.71737 5.35196
2.79313 1.71227 5.34423
2.77519 1.7124 5.35236
2.76825 1.71352 5.3604
2.75032 1.71367 5.36953
2.73543 1.7159 5.38461
2.72969 1.72439 5.41754
2.69549 1.71305 5.39296
2.68062 1.7163 5.40902
2.66369 1.71646 5.41915
2.65369 1.71546 5.41924
2.6317 1.7135 5.42044
2.6219 1.71889 5.44643
2.59581 1.71274 5.43572
2.57788 1.71389 5.44484
2.55994 1.71402 5.45297
2.53693 1.71101 5.45119
2.52305 1.71326 5.46726
2.51815 1.71645 5.48026
2.4931 1.71238 5.4745
2.47719 1.71356 5.48561
2.46128 1.71476 5.49871
2.41726 1.70975 5.49612
2.39933 1.70989 5.50525
2.37241 1.71008 5.51645
2.3555 1.71225 5.52755
2.31554 1.70937 5.53389
2.3027 1.71369 5.55493
2.21281 1.70898 5.57068
2.19895 1.71325 5.58872
2.15797 1.70933 5.59209
2.12903 1.70947 5.60031
2.09314 1.7097 5.61458
2.03935 1.71214 5.64195
1.99245 1.71237 5.6553
1.97042 1.70934 5.65251
1.95147 1.70944 5.65865
1.93251 1.70953 5.6638
1.91254 1.7086 5.66796
1.89665 1.71184 5.68303
1.88563 1.7098 5.68015
1.85181 1.71317 5.70335
1.83079 1.71115 5.70154
1.80977 1.70914 5.69973
1.79184 1.71028 5.70885
1.77187 1.71036 5.713
1.76186 1.70835 5.7121
1.747 1.71263 5.73016
1.72805 1.71273 5.7363
1.71013 1.71489 5.7464
1.6922 1.71604 5.75552
1.67323 1.71612 5.76066
1.64913 1.71095 5.74792
1.64119 1.71207 5.75597
1.62326 1.71322 5.76508
1.60329 1.71328 5.76823
1.58534 1.7134 5.77537
1.56947 1.71766 5.79243
1.55157 1.71986 5.80553
1.52952 1.71678 5.79874
1.52158 1.7189 5.80677
1.49952 1.7148 5.799
1.48058 1.71593 5.80713
1.4616 1.71499 5.81028
1.44058 1.71398 5.80846
1.42368 1.71617 5.82055
1.40472 1.71727 5.82668
1.39371 1.71526 5.82579
1.37786 1.72055 5.84484
1.35785 1.71855 5.84402
1.33684 1.71754 5.84219
1.31685 1.71658 5.84435
1.29683 1.71455 5.84153
1.27685 1.71461 5.84468
1.2679 1.71571 5.85074
1.24686 1.71265 5.84594
1.23205 1.71902 5.86996
1.2079 1.71275 5.85123
1.19 1.71496 5.86434
1.17103 1.71503 5.86848
1.15102 1.71403 5.86764
1.14208 1.71616 5.87568
1.12209 1.71518 5.87685
1.10311 1.71523 5.87899
1.08208 1.71318 5.87518
1.06207 1.71118 5.87436
1.04314 1.71333 5.88347
1.02625 1.71655 5.89755
1.00417 1.71342 5.88776
0.994137 1.71137 5.88387
0.97413 1.71037 5.88303
0.955199 1.71151 5.89216
0.934161 1.70946 5.88735
0.916253 1.71265 5.89944
0.895184 1.70953 5.89064
0.877284 1.71173 5.90375
0.86513 1.70545 5.88393
0.846238 1.70967 5.89801
0.827246 1.7087 5.89917
0.809377 1.71396 5.91623
0.790416 1.71405 5.92137
0.769339 1.71092 5.91157
0.749332 1.70992 5.91074
0.739324 1.70891 5.90983
0.719293 1.70686 5.90601
0.701416 1.71111 5.92208
0.680371 1.70904 5.91627
0.661417 1.71014 5.9224
0.641418 1.71016 5.92255
0.62134 1.70602 5.91276
0.611364 1.70708 5.91582
0.592441 1.70924 5.92593
0.572434 1.70924 5.92508
0.553495 1.71037 5.93321
0.533449 1.7083 5.92739
0.514504 1.71041 5.9345
0.494496 1.70941 5.93367
0.484504 1.70943 5.93474
0.464412 1.70527 5.92295
0.445528 1.70951 5.93804
0.425459 1.70639 5.92923
0.405444 1.70537 5.9274
0.386498 1.70749 5.93451
0.367545 1.70959 5.94062
0.347599 1.71071 5.94776
0.337468 1.70547 5.93091
0.317446 1.70444 5.92807
0.2985 1.70656 5.93519
0.278539 1.70764 5.94032
0.259648 1.71186 5.9544
0.239578 1.70875 5.9456
0.219509 1.70563 5.9368
0.209495 1.70561 5.93487
0.190618 1.70986 5.95095
0.170488 1.70462 5.93418
0.151642 1.71093 5.95423
0.131512 1.70569 5.93746
0.111613 1.7099 5.95055
0.0925588 1.70681 5.94374
0.082544 1.70679 5.94181
0.0625139 1.70574 5.93798
0.030423 1.70462 5.79322
0.0114084 1.7046 5.79136
0.00147024 1.70673 5.7994
-0.0174288 1.71093 5.81249
-0.036567 1.70568 5.7947
-0.0555514 1.70573 5.79685
-0.075527 1.70778 5.79997
-0.0936425 1.70258 5.78518
-0.113588 1.70469 5.7923
-0.122572 1.70573 5.79435
-0.142518 1.70785 5.80147
-0.161625 1.70365 5.78768
-0.180555 1.7068 5.79677
-0.199608 1.70471 5.78995
-0.218716 1.70052 5.77615
-0.237606 1.70574 5.79022
-0.246699 1.70157 5.77835
-0.266629 1.70472 5.78745
-0.284721 1.70155 5.77563
-0.30472 1.70157 5.77578
-0.322765 1.70049 5.76993
-0.342718 1.70259 5.77605
-0.361695 1.70365 5.77918
-0.371733 1.70259 5.77427
-0.39067 1.70572 5.78237
-0.408777 1.70152 5.76857
-0.428745 1.7036 5.77269
-0.447776 1.70255 5.76885
-0.465829 1.70046 5.76201
-0.484851 1.70043 5.75916
-0.494843 1.70045 5.76023
-0.512935 1.69729 5.74841
-0.531957 1.69726 5.74556
-0.552825 1.70353 5.76262
-0.571839 1.70351 5.76077
-0.589885 1.70143 5.75493
-0.607969 1.69928 5.7441
-0.62606 1.69612 5.73228
-0.637952 1.70034 5.74631
-0.655997 1.69926 5.74046
-0.675012 1.69924 5.7386
-0.694957 1.70236 5.74571
-0.714002 1.70129 5.73987
-0.732063 1.69918 5.73203
-0.740163 1.696 5.71914
-0.759193 1.69495 5.7153
-0.778199 1.69595 5.71443
-0.796229 1.6949 5.71058
-0.81619 1.69699 5.7157
-0.835196 1.69799 5.71482
-0.854234 1.69693 5.70998
-0.864226 1.69795 5.71104
-0.883248 1.69792 5.70819
-0.90227 1.69789 5.70533
-0.919353 1.69574 5.69449
-0.937414 1.69364 5.68666
-0.957398 1.69568 5.68878
-0.976405 1.69568 5.68792
-0.995411 1.69668 5.68705
-1.02346 1.69559 5.68027
-1.07761 1.69234 5.66073
-1.14371 1.69219 5.64823
-1.16173 1.69216 5.64536
-2.90576 1.67547 4.98566
-2.92676 1.67847 4.98477
-2.94283 1.67835 4.97589
-2.99205 1.67794 4.94626
-2.99614 1.67478 4.93534
-3.0283 1.67449 4.91458
-3.04635 1.6754 4.90771
-3.06539 1.67633 4.90183
-3.08245 1.67722 4.89395
-3.09853 1.67708 4.88407
-3.11051 1.67912 4.88613
-3.13054 1.68108 4.88225
-3.14661 1.68094 4.87237
-3.15579 1.67661 4.8495
-3.18075 1.6817 4.85462
-3.19682 1.68156 4.84474
-3.205 1.67623 4.82188
-3.22799 1.68026 4.82299
-3.23603 1.68019 4.81805
-3.25111 1.68002 4.80617
-3.27312 1.68302 4.80529
-3.28623 1.68081 4.79042
-3.29738 1.67854 4.77153
-3.31245 1.6784 4.76165
-3.34336 1.6866 4.77376
-3.34053 1.68027 4.75183
-3.35759 1.68015 4.74296
-3.38158 1.68419 4.74408
-3.38877 1.67984 4.72019
-3.40384 1.6797 4.71031
-3.41696 1.67747 4.69444
-3.43502 1.67837 4.68656
-3.4391 1.67722 4.67661
-3.45814 1.67815 4.67073
-3.46927 1.6759 4.65385
-3.49227 1.6799 4.65296
-3.50538 1.67871 4.63908
-3.51651 1.67646 4.62219
-3.53161 1.67528 4.60932
-3.54459 1.67832 4.61138
-3.55869 1.67714 4.5985
-3.56982 1.67489 4.58161
-3.59183 1.67788 4.57973
-3.60395 1.67665 4.56384
-3.62102 1.67753 4.55496
-3.64303 1.68052 4.55308
-3.63524 1.67211 4.52614
-3.6612 1.67819 4.53024
-3.6664 1.67281 4.50436
-3.68149 1.67266 4.49347
-3.69559 1.67146 4.4796
-3.71662 1.67442 4.47571
-3.72576 1.67114 4.45683
-3.74579 1.6741 4.45293
-3.75879 1.67611 4.453
-3.76299 1.67073 4.42711
-3.77609 1.67054 4.41421
-3.79811 1.67351 4.41133
-3.80726 1.67022 4.39144
-3.82333 1.67109 4.38155
-3.84634 1.67507 4.37966
-3.85241 1.67396 4.37173
-3.86055 1.67069 4.35283
-3.88258 1.67464 4.34894
-3.88974 1.67034 4.32805
-3.91473 1.67535 4.32817
-3.91496 1.66893 4.29926
-3.93599 1.67187 4.29438
-3.94403 1.6718 4.28944
-3.96011 1.67265 4.27854
-3.96727 1.66834 4.25766
-3.99227 1.67336 4.25777
-3.99645 1.66901 4.23387
-4.00856 1.66779 4.21897
-4.03356 1.67281 4.21909
-4.0427 1.67054 4.20019
-4.0448 1.66736 4.18825
-4.07377 1.67443 4.19136
-4.08489 1.6722 4.17548
-4.09899 1.67202 4.16258
-4.11705 1.6739 4.15369
-4.1361 1.67581 4.1468
-4.14028 1.67147 4.1239
-4.15031 1.67342 4.11994
-4.16638 1.67428 4.11005
-4.18445 1.67516 4.10117
-4.19557 1.67393 4.08527
-4.21364 1.67581 4.07638
-4.22277 1.67355 4.05848
-4.24778 1.67854 4.05659
-4.24789 1.67533 4.04264
-4.26397 1.67618 4.03175
-4.27807 1.676 4.01885
-4.29415 1.67685 4.00796
-4.30427 1.67562 3.99205
-4.32235 1.67748 3.98216
5.65487 1.69954 2.37545
5.63027 1.70036 2.42963
5.61839 1.6996 2.44573
5.61354 1.70089 2.46475
5.6117 1.7042 2.48572
5.59472 1.70026 2.4889
5.57597 1.69978 2.52306
5.5554 1.70262 2.57918
5.55447 1.70377 2.58917
5.54159 1.70301 2.60528
5.53674 1.7043 2.6243
5.51683 1.70149 2.63649
5.52101 1.70684 2.66039
5.50311 1.70405 2.67356
5.4852 1.70124 2.68574
5.4873 1.70343 2.6987
5.49449 1.70981 2.72455
5.46855 1.70395 2.73283
5.46873 1.70829 2.75577
5.45785 1.70753 2.77187
5.44798 1.70779 2.78894
5.4371 1.70704 2.80504
5.43317 1.70819 2.81505
5.41526 1.70538 2.82723
5.39735 1.70257 2.83941
5.39753 1.70691 2.86234
5.38866 1.70717 2.87941
5.39385 1.71255 2.90529
5.37092 1.7087 2.91452
5.36809 1.71203 2.9365
5.34908 1.70703 2.93572
5.35328 1.71241 2.96161
5.33637 1.70961 2.97478
5.33253 1.71291 2.99476
5.31361 1.7101 3.00695
5.30575 1.71038 3.02501
5.28784 1.70857 3.03717
5.29396 1.7128 3.05306
5.27203 1.70895 3.06229
5.2712 1.71329 3.08523
5.24927 1.70944 3.09445
5.2404 1.7097 3.11152
5.22851 1.70993 3.12661
5.21563 1.70917 3.14272
5.21672 1.71135 3.15468
5.20785 1.71261 3.17173
5.19196 1.71083 3.18588
5.19213 1.71517 3.20882
5.17422 1.71336 3.22098
5.16938 1.71567 3.24198
5.15348 1.71388 3.25513
5.14552 1.71296 3.26021
5.13062 1.71218 3.27433
5.11673 1.71139 3.28845
5.10686 1.71265 3.30551
5.08592 1.7088 3.31472
5.09014 1.71521 3.3426
5.08529 1.71751 3.36261
5.08036 1.71865 3.37163
5.07551 1.72095 3.39163
5.05156 1.71607 3.39889
5.03063 1.71322 3.40809
5.03584 1.71963 3.43596
5.01894 1.71883 3.4491
5.01008 1.72011 3.46715
4.98803 1.71305 3.46242
4.98621 1.71739 3.48537
4.96728 1.71555 3.49554
4.95842 1.71683 3.51359
4.93547 1.71295 3.52083
4.92661 1.71422 3.53888
4.9097 1.71241 3.55103
4.89882 1.71365 3.5671
4.89791 1.71483 3.57909
4.87899 1.71299 3.58926
4.86811 1.71424 3.60533
4.85924 1.71551 3.62338
4.85139 1.7178 3.6424
4.83145 1.71495 3.6516
4.81454 1.71312 3.66275
4.81765 1.71634 3.67768
4.79571 1.71348 3.68589
4.77778 1.71164 3.69606
4.7649 1.71187 3.71115
4.75703 1.71314 3.7292
4.74214 1.71336 3.74331
4.72824 1.71256 3.75642
4.71928 1.71164 3.76151
4.7074 1.71289 3.77758
4.6935 1.71211 3.7917
4.67155 1.70923 3.79891
4.67477 1.71564 3.82679
4.6498 1.71073 3.83205
4.63288 1.70989 3.84219
4.63802 1.71415 3.8601
4.60901 1.70818 3.8604
4.60015 1.71045 3.87844
4.5913 1.71174 3.89749
4.56934 1.70884 3.9037
4.54054 1.70825 3.92993
4.5217 1.70859 3.95207
4.50982 1.70983 3.96814
4.48887 1.70695 3.97534
4.478 1.70821 3.99241
4.46209 1.70739 4.00354
4.42936 1.70894 4.03977
4.39854 1.70732 4.06403
4.38666 1.70857 4.0801
4.34396 1.70919 4.12042
4.30921 1.7097 4.15368
4.26348 1.70827 4.19005
4.23961 1.70754 4.20724
4.22673 1.70777 4.22234
4.18402 1.70838 4.26166
4.14727 1.70889 4.29493
4.1076 1.71156 4.3382
4.05783 1.70906 4.36961
4.02006 1.70953 4.39989
2.93031 1.7086 5.10221
2.87751 1.70902 5.12861
2.78387 1.7098 5.17731
2.74798 1.70903 5.19159
2.74105 1.71017 5.20063
2.69025 1.71161 5.228
2.65131 1.70876 5.23633
2.63539 1.70993 5.24744
2.6254 1.70895 5.24853
2.61152 1.71119 5.2636
2.59663 1.71442 5.27867
2.57562 1.71142 5.27787
2.55971 1.71261 5.28997
2.54178 1.71274 5.29811
2.3403 1.70891 5.36869
1.80958 1.7068 5.54174
1.79367 1.70897 5.55283
1.78368 1.70799 5.55392
1.74471 1.7071 5.55923
1.7078 1.70729 5.57051
1.68984 1.70737 5.57564
1.67293 1.70956 5.58774
1.66497 1.70964 5.5928
1.64497 1.70867 5.59396
1.62704 1.70982 5.60308
1.60805 1.70885 5.60424
1.58806 1.70788 5.60541
1.57216 1.71008 5.6185
1.55525 1.71327 5.63058
1.54626 1.71331 5.63265
1.52423 1.71026 5.62886
1.50731 1.71242 5.63895
1.48833 1.71147 5.64111
1.47141 1.71364 5.65221
1.45142 1.71269 5.65437
1.43142 1.71069 5.65355
1.42038 1.70862 5.64866
1.40346 1.7108 5.65976
1.3845 1.71088 5.6649
1.36759 1.71406 5.67599
1.35172 1.71834 5.69404
1.32861 1.71213 5.67931
1.31067 1.71326 5.68743
1.2896 1.70915 5.67865
1.28373 1.7144 5.69562
1.26269 1.71133 5.68982
1.24267 1.70931 5.688
1.22473 1.71044 5.69612
1.20265 1.70631 5.68634
1.1868 1.71161 5.70539
1.16572 1.70747 5.69561
1.15677 1.70857 5.70166
1.13778 1.7076 5.70282
1.11881 1.70767 5.70696
1.09776 1.7056 5.70115
1.07982 1.70671 5.70827
1.04289 1.70789 5.71853
1.03395 1.71 5.72557
1.01494 1.708 5.72474
0.995961 1.70806 5.72788
0.975946 1.70704 5.72605
0.955907 1.70398 5.72124
0.938 1.70717 5.73333
0.9211 1.71038 5.74641
0.89 1.70521 5.73372
0.869985 1.70419 5.73189
0.851008 1.70425 5.73503
0.832001 1.70325 5.73419
0.813062 1.70438 5.74232
0.794078 1.70443 5.74446
0.786132 1.70653 5.75149
0.766094 1.70448 5.74667
0.747109 1.70452 5.74881
0.729202 1.70771 5.7609
0.670133 1.70262 5.75242
0.651179 1.70372 5.75855
0.643272 1.70791 5.77055
0.623226 1.70483 5.76474
0.604211 1.70382 5.7629
0.584211 1.70383 5.76305
0.566312 1.70704 5.77614
0.546235 1.7039 5.76634
0.527281 1.705 5.77246
0.518258 1.70397 5.76955
0.49822 1.70191 5.76473
0.48032 1.70511 5.77782
0.462436 1.70935 5.79289
0.442375 1.70724 5.78507
0.422306 1.70413 5.77627
0.403314 1.70415 5.77741
0.394368 1.70526 5.78446
0.375392 1.70632 5.78759
0.355353 1.70426 5.78277
0.336392 1.70535 5.7879
0.3174 1.70538 5.78904
0.298463 1.70851 5.79714
0.279363 1.70433 5.78434
0.269425 1.70646 5.79239
0.250417 1.70546 5.79155
0.231441 1.70652 5.79467
0.212457 1.70756 5.7968
0.193496 1.70865 5.80193
0.173411 1.7045 5.79114
0.154397 1.70448 5.78928
0.145397 1.70449 5.78935
0.12649 1.70768 5.80145
0.10749 1.7077 5.80159
0.0874063 1.70455 5.79079
0.0685223 1.70878 5.80587
0.0494224 1.7046 5.79307
0.0368311 1.71047 5.58105
0.0188856 1.71259 5.58816
-0.000113839 1.7126 5.5883
-0.0181133 1.71262 5.58843
-0.0552051 1.70847 5.57677
-0.0641277 1.71162 5.5868
-0.0831887 1.70952 5.57897
-0.120211 1.7085 5.57626
-0.138141 1.71165 5.58535
-0.156232 1.70848 5.57353
-0.175224 1.70851 5.57468
-0.185169 1.71162 5.58171
-0.221308 1.70538 5.56407
-0.240183 1.71163 5.58012
-0.258306 1.70641 5.56433
-0.277243 1.70954 5.57243
-0.294336 1.70537 5.56062
-0.314227 1.7106 5.57469
-0.322319 1.70742 5.5628
-0.341272 1.70953 5.56891
-0.361163 1.71475 5.58299
-0.377379 1.70535 5.55524
-0.396323 1.70846 5.56234
-0.414377 1.70637 5.55551
-0.43333 1.70848 5.56162
-0.443275 1.71159 5.56865
-0.460452 1.70426 5.54589
-0.480327 1.71051 5.56194
-0.496489 1.70421 5.54116
-0.516388 1.70842 5.55425
-0.533487 1.70524 5.54142
-0.552502 1.70522 5.53956
-0.559625 1.69999 5.52369
-0.578562 1.70312 5.53179
-0.598523 1.70521 5.53691
-0.616538 1.70519 5.53505
-0.634575 1.70413 5.5302
-0.652612 1.70407 5.52533
-0.67348 1.71034 5.5424
-0.679619 1.70408 5.52454
-0.699548 1.70823 5.53363
-0.715695 1.70196 5.51484
-0.733771 1.69982 5.505
-0.752746 1.70188 5.50812
-0.769823 1.69874 5.49829
-0.789737 1.70392 5.50937
-0.796868 1.69868 5.4925
-0.816782 1.70285 5.50358
-0.83575 1.70492 5.5077
-0.853795 1.70385 5.50185
-0.869902 1.70065 5.48802
-0.892707 1.71004 5.51305
-0.905008 1.69747 5.47432
-0.924968 1.70056 5.47943
-0.933038 1.69743 5.47054
-0.952021 1.69948 5.47265
-0.96619 1.69316 5.45085
-0.989018 1.7015 5.4729
-1.00515 1.69726 5.45608
-1.02604 1.70249 5.47016
-1.04022 1.69614 5.44636
-1.05018 1.69824 5.4524
-1.06631 1.694 5.43559
-1.08914 1.70132 5.45665
-1.10524 1.69814 5.44382
-1.1223 1.69705 5.43696
-1.13939 1.69489 5.42512
-1.15739 1.69589 5.42424
-1.16832 1.69903 5.43328
-1.18345 1.69479 5.41645
-1.20245 1.6958 5.41658
-1.21951 1.69469 5.40873
-1.23947 1.6978 5.41483
-1.25557 1.6946 5.401
-1.27362 1.69353 5.39515
-1.28745 1.70186 5.41713
-1.30065 1.69449 5.39134
-1.31867 1.69546 5.38846
-1.33574 1.69334 5.37962
-1.35181 1.6912 5.36977
-1.36983 1.69217 5.36689
-1.38788 1.69109 5.36104
-1.39785 1.69314 5.36409
-1.41685 1.69517 5.3652
-1.43389 1.6941 5.35934
-1.45194 1.69301 5.35249
-1.47092 1.69606 5.35559
-1.49382 1.70227 5.36868
-1.50505 1.69284 5.3389
-1.52405 1.69485 5.33901
-1.52916 1.69063 5.32411
-1.55011 1.69474 5.33021
-1.56814 1.6947 5.32734
-1.58423 1.69254 5.31549
-1.60419 1.69563 5.3206
-1.62026 1.69449 5.31073
-1.64219 1.69864 5.31984
-1.64439 1.69126 5.29396
-1.66436 1.69433 5.29807
-1.68046 1.69115 5.28523
-1.69944 1.69419 5.28733
-1.71164 1.68682 5.26153
-1.73648 1.69513 5.2816
-1.74769 1.68774 5.25479
-1.76157 1.69397 5.2698
-1.77863 1.69388 5.26293
-1.79179 1.68858 5.24211
-1.81372 1.69373 5.2512
-1.83078 1.69262 5.24334
-1.84194 1.68731 5.2215
-1.86194 1.68832 5.22163
-1.87194 1.69033 5.22168
-1.89092 1.69237 5.22379
-1.90407 1.6881 5.20495
-1.92308 1.6901 5.20407
-1.947 1.69526 5.21417
-1.9572 1.68789 5.18835
-1.97816 1.69197 5.19345
-1.98129 1.68671 5.17555
-1.99834 1.68663 5.16968
-2.01834 1.68965 5.16979
-2.03147 1.68541 5.15295
-2.04754 1.68427 5.14308
-2.07146 1.69045 5.15417
-2.08457 1.68724 5.13932
-2.10457 1.68925 5.13944
-2.10966 1.68608 5.12752
-2.12671 1.68599 5.12065
-2.13789 1.68066 5.09781
-2.16475 1.68894 5.11589
-2.17688 1.6857 5.09903
-2.19687 1.68771 5.09915
-2.20296 1.68555 5.08823
-2.22001 1.68546 5.08136
-2.23214 1.68122 5.06451
-2.26197 1.69157 5.08658
-2.26918 1.68416 5.05874
-2.28723 1.68508 5.05286
-2.30035 1.68186 5.03701
-2.31426 1.68603 5.04805
-2.32642 1.68174 5.0282
-2.34937 1.68685 5.0343
-2.38837 1.69186 5.03352
-2.39953 1.68656 5.01268
-2.41559 1.68645 5.0048
-2.42477 1.68112 4.98195
-2.44363 1.68838 4.99899
-2.45282 1.68203 4.97515
-2.47282 1.68503 4.97425
-2.48789 1.68391 4.96538
-2.49905 1.67962 4.94553
-2.52299 1.68474 4.95263
-2.53905 1.68464 4.94475
-2.54315 1.68145 4.93183
-2.56315 1.68445 4.93093
-2.5802 1.68437 4.92506
-2.59331 1.68216 4.91019
-2.61333 1.68414 4.90831
-2.63333 1.68714 4.90742
-2.64053 1.68076 4.88157
-2.65743 1.68697 4.8946
-2.6725 1.68583 4.88473
-2.69154 1.68677 4.87986
-2.70267 1.68353 4.86299
-2.72564 1.68859 4.86609
-2.73087 1.68016 4.83725
-2.74792 1.68107 4.83036
-2.76778 1.68934 4.84739
-2.77202 1.6809 4.81754
-2.79302 1.6839 4.81666
-2.81598 1.68899 4.82176
-2.82909 1.68679 4.80789
-2.84121 1.68456 4.79201
-2.8632 1.68759 4.79313
-2.86432 1.68336 4.7772
-2.88039 1.68323 4.76832
-2.90435 1.68831 4.77243
-2.91747 1.6861 4.75756
-2.93452 1.68701 4.75067
-2.95058 1.6869 4.74279
-2.95875 1.68157 4.71993
-2.97172 1.68463 4.72398
-2.98582 1.68345 4.7111
-3.00089 1.68333 4.70222
-3.01894 1.68424 4.69534
-3.036 1.68513 4.68745
-3.0491 1.68395 4.67457
-3.06912 1.68592 4.67169
-3.08024 1.68369 4.6558
-3.09321 1.68675 4.65886
-3.09841 1.68036 4.63299
-3.12759 1.67905 4.61022
-3.15156 1.68311 4.61334
-3.16762 1.684 4.60545
-3.18567 1.68491 4.59857
-3.1858 1.68066 4.58163
-3.21767 1.68992 4.59774
-3.21991 1.68246 4.56686
-3.24388 1.68754 4.57097
-3.25402 1.68428 4.55309
-3.27924 1.68087 4.52433
-3.30136 1.68063 4.50749
-3.34339 1.6866 4.50372
-3.37454 1.68733 4.48394
-3.3906 1.68721 4.47506
-3.40779 1.68386 4.45124
-3.42088 1.6837 4.43934
-3.44289 1.68668 4.43746
-3.45302 1.68444 4.42057
-3.47305 1.68638 4.41569
-3.48924 1.68304 4.39186
-3.51544 1.68166 4.36507
-3.5456 1.68137 4.3443
-3.56266 1.68226 4.33642
-3.58972 1.68515 4.32758
-3.61692 1.68378 4.3018
-3.64311 1.68242 4.27601
-3.66116 1.68432 4.26912
-3.66337 1.67793 4.24223
-3.68032 1.68203 4.24829
-3.69739 1.68391 4.23939
-3.70354 1.67962 4.2195
-3.74482 1.6791 4.18281
-3.78797 1.68182 4.1621
-3.80306 1.68267 4.1512
-3.81715 1.6825 4.1393
-3.84136 1.6801 4.11152
-3.85743 1.68096 4.10162
-3.86953 1.67978 4.08873
-5.87038 1.63345 0.133943
-5.87665 1.63392 0.0979788
-5.87379 1.63264 0.0789737
-5.87814 1.63196 0.0330101
-5.87428 1.62968 0.0140123
-5.87442 1.62941 -0.00398527
-5.8637 1.62485 -0.0410037
-5.85484 1.62157 -0.0600244
-5.84799 1.61928 -0.0790448
-5.85405 1.62115 -0.088028
-5.86019 1.62189 -0.105995
-5.84934 1.6186 -0.125031
-5.87446 1.62635 -0.142959
-5.89073 1.62983 -0.178893
-5.88801 1.62828 -0.215895
-5.89309 1.63013 -0.225886
6.00047 1.683 0.462823
5.99976 1.68457 0.500811
5.9989 1.68485 0.519816
5.99104 1.68412 0.537888
6.00113 1.68729 0.549767
5.98826 1.68455 0.566907
5.99141 1.68685 0.586852
5.98454 1.68612 0.604917
5.98884 1.68969 0.643837
5.96996 1.68494 0.660052
5.96718 1.68638 0.689056
5.96146 1.68693 0.726096
5.96361 1.68822 0.746063
5.94873 1.68547 0.762218
5.95489 1.68878 0.783126
5.94594 1.6859 0.791237
5.93581 1.6916 0.905244
5.01155 1.70618 2.99928
5.0077 1.70847 3.01928
4.97972 1.70256 3.02358
4.99599 1.71305 3.0573
4.97907 1.71022 3.06848
4.95813 1.70636 3.07669
4.94816 1.70442 3.0808
4.92722 1.70157 3.09
4.9284 1.70591 3.11293
4.92053 1.70718 3.13097
4.92071 1.71152 3.15391
4.89575 1.70661 3.15917
4.88788 1.70789 3.17721
4.87892 1.70697 3.18229
4.87106 1.70824 3.20034
4.86621 1.71154 3.22033
4.84124 1.70563 3.2256
4.85349 1.7151 3.25738
4.82852 1.71019 3.26264
4.83373 1.71658 3.28951
4.79367 1.70551 3.28297
4.79075 1.70666 3.29298
4.79395 1.71304 3.31886
4.76395 1.70508 3.32021
4.76313 1.71042 3.34314
4.74419 1.70757 3.35232
4.74337 1.71191 3.37527
4.73349 1.71215 3.39134
4.72252 1.71122 3.39544
4.70056 1.70633 3.40168
4.7088 1.71476 3.43149
4.67578 1.70676 3.42986
4.6659 1.707 3.44593
4.66004 1.71029 3.46493
4.64816 1.71052 3.48002
4.63718 1.70857 3.48313
4.63435 1.7129 3.50509
4.60434 1.70592 3.50542
4.59245 1.70614 3.51951
4.59365 1.71152 3.54543
4.57168 1.70761 3.55065
4.57288 1.713 3.57656
4.55889 1.71002 3.57771
4.548 1.71125 3.59278
4.53208 1.70943 3.60393
4.53933 1.71789 3.63575
4.5083 1.70987 3.6331
4.49339 1.70906 3.64523
4.48654 1.71235 3.66424
4.46155 1.7064 3.66651
4.45963 1.70856 3.6775
4.46487 1.71701 3.70834
4.42981 1.70694 3.70175
4.42195 1.70921 3.71978
4.42114 1.71458 3.74471
4.39314 1.7086 3.74501
4.39827 1.71385 3.76189
4.37127 1.70787 3.76218
4.36543 1.71118 3.78318
4.34043 1.70522 3.78446
4.33761 1.71056 3.8074
4.33681 1.71594 3.83333
4.30879 1.70893 3.83165
4.32401 1.71935 3.86038
4.28793 1.70923 3.8508
4.28008 1.71152 3.86983
4.26416 1.71069 3.88097
4.26538 1.71711 3.90887
4.23533 1.71005 3.9042
4.23756 1.7175 3.93407
4.21348 1.70935 3.92337
4.21267 1.71472 3.9483
4.19071 1.71181 3.95351
4.17882 1.71304 3.96859
4.15785 1.70912 3.9728
4.16814 1.72067 4.01056
4.1371 1.71262 4.00591
4.13126 1.71594 4.02691
4.11826 1.71395 4.02704
4.0983 1.71105 4.03323
4.08742 1.71228 4.0483
4.09065 1.71974 4.07917
4.06062 1.7127 4.0755
4.0447 1.71186 4.08563
4.03685 1.71516 4.10564
4.0319 1.71627 4.11267
4.02002 1.71751 4.12874
3.99704 1.71356 4.13097
3.98817 1.71583 4.14901
3.96418 1.71087 4.15026
3.97146 1.72141 4.18706
3.93738 1.71227 4.17645
3.93344 1.71341 4.18546
3.9135 1.71152 4.19264
3.91069 1.7169 4.21758
3.88669 1.71191 4.21784
3.88287 1.71727 4.24179
3.85383 1.71022 4.23711
3.848 1.71455 4.2591
3.83903 1.71463 4.26416
3.82008 1.71173 4.27035
3.80314 1.71086 4.27849
3.79227 1.71312 4.29554
3.77331 1.71023 4.30173
3.77051 1.71661 4.32766
3.74146 1.70955 4.32198
3.74561 1.71582 4.34086
3.71959 1.70981 4.33915
3.71478 1.71517 4.36311
3.69784 1.71432 4.37225
3.69101 1.71865 4.39424
3.67104 1.71572 4.39843
3.65511 1.71487 4.40757
3.64715 1.71496 4.41362
3.6383 1.71825 4.43265
3.61429 1.71425 4.43189
3.60544 1.71754 4.45091
3.57941 1.71151 4.44819
3.56752 1.71275 4.46326
3.55361 1.71393 4.47535
3.53061 1.70995 4.47559
3.52973 1.71317 4.49055
3.5037 1.70813 4.48682
3.508 1.71871 4.52563
3.47185 1.70745 4.50707
3.45996 1.70968 4.52213
3.44909 1.71194 4.53918
3.42911 1.709 4.54237
3.42621 1.7122 4.55535
3.40522 1.70923 4.55655
3.38728 1.70736 4.56472
3.37742 1.71063 4.58274
3.35745 1.70871 4.58692
3.34151 1.70785 4.59606
3.33773 1.71527 4.62398
3.31863 1.7081 4.61223
3.30069 1.70722 4.61938
3.27693 1.71171 4.65149
3.25999 1.71184 4.65962
3.24709 1.71304 4.6727
3.22408 1.70905 4.67194
3.22523 1.71434 4.69185
3.19919 1.70827 4.68614
3.20755 1.72296 4.73286
3.15443 1.70978 4.71846
3.14357 1.71305 4.73649
3.12056 1.70905 4.73572
3.10679 1.71551 4.76574
3.07466 1.7063 4.75011
3.06177 1.70751 4.76419
3.04685 1.70869 4.77529
3.03093 1.70885 4.78541
3.00211 1.71122 4.80959
2.97517 1.70936 4.81783
2.95621 1.70745 4.823
2.94028 1.70759 4.83212
2.92435 1.70774 4.84124
2.91045 1.70996 4.85531
2.89047 1.708 4.85749
2.88351 1.70809 4.86354
2.86758 1.70824 4.87266
2.85065 1.70838 4.88179
2.8337 1.7085 4.88891
2.82692 1.71492 4.91687
2.78186 1.70685 4.91033
2.78304 1.71319 4.93323
2.76 1.70913 4.92847
2.74307 1.70928 4.93759
2.74439 1.7209 4.97942
2.70916 1.70749 4.95088
2.69629 1.71075 4.96793
2.68748 1.71712 4.9919
2.65343 1.71005 4.98626
2.63649 1.71018 4.99439
2.61954 1.71028 5.00052
2.61377 1.71775 5.03145
2.58973 1.71368 5.02569
2.57277 1.71278 5.03184
2.56482 1.71387 5.03788
2.55905 1.72132 5.06782
2.535 1.71725 5.06206
2.514 1.71426 5.06226
2.50416 1.71858 5.08327
2.48112 1.71451 5.07751
2.46825 1.71779 5.09556
2.46131 1.71889 5.1026
2.44028 1.71587 5.0998
2.42538 1.71807 5.11288
2.40844 1.7182 5.12101
2.39151 1.71835 5.13013
2.37151 1.71636 5.13031
2.35049 1.71233 5.12753
2.34659 1.71654 5.1415
2.32762 1.71561 5.14566
2.30558 1.71056 5.1409
2.28864 1.71067 5.14802
2.27373 1.71286 5.16011
2.25069 1.7088 5.15534
2.2368 1.71102 5.16941
2.21985 1.71114 5.17654
2.20578 1.70702 5.16771
2.19597 1.71338 5.19169
2.17188 1.70723 5.18096
2.15495 1.70838 5.19007
2.14005 1.71058 5.20315
2.12105 1.70861 5.20433
2.11207 1.70865 5.20639
2.09819 1.71188 5.22145
2.08228 1.71407 5.23354
2.05819 1.70792 5.22281
2.04534 1.71221 5.24185
2.02327 1.7071 5.23309
2.0094 1.71136 5.25013
1.99144 1.71044 5.25528
1.98347 1.71152 5.26033
1.96654 1.71166 5.26845
1.94959 1.71277 5.27557
1.9306 1.7108 5.27674
1.91366 1.71195 5.28585
1.89366 1.70995 5.28503
1.87672 1.71008 5.29316
1.86671 1.70907 5.29225
1.85079 1.71124 5.30334
1.83384 1.71134 5.30946
1.81689 1.71246 5.31658
1.80099 1.71466 5.32966
1.78201 1.71371 5.33182
1.76608 1.71485 5.34093
1.75915 1.71701 5.35095
1.73914 1.71499 5.34913
1.72015 1.71403 5.35129
1.70423 1.71619 5.36137
1.68526 1.71527 5.36553
1.66727 1.71429 5.36668
1.65239 1.71754 5.38275
1.64034 1.71446 5.37688
1.62547 1.71871 5.39294
1.60647 1.71774 5.39409
1.5885 1.7168 5.39724
1.57362 1.72104 5.41329
1.55154 1.71591 5.40353
1.53253 1.71391 5.40271
1.52561 1.71706 5.41271
1.50457 1.71401 5.40792
1.49177 1.72038 5.43292
1.47173 1.71734 5.42912
1.4548 1.71847 5.43723
1.43683 1.71854 5.44137
1.41092 1.72074 5.45353
1.39194 1.7208 5.45667
1.37396 1.71984 5.45882
1.35599 1.71991 5.46296
1.33805 1.72104 5.47108
1.32109 1.72214 5.47719
1.30211 1.72119 5.47935
1.29313 1.72122 5.48141
1.25409 1.71718 5.47677
1.23509 1.71619 5.47693
1.19812 1.71529 5.48222
1.18119 1.71744 5.49131
1.15216 1.7144 5.48758
1.13318 1.71345 5.48974
1.11938 1.72184 5.51572
1.09515 1.71143 5.48705
1.07929 1.71569 5.50411
1.06235 1.71684 5.51322
1.04229 1.71372 5.50442
1.03437 1.71689 5.51543
1.01534 1.71384 5.51162
0.995308 1.7118 5.5078
0.97627 1.70974 5.50297
0.961455 1.7161 5.52699
0.940339 1.7109 5.51223
0.922409 1.71304 5.52133
0.913432 1.71309 5.5244
0.894409 1.71206 5.52156
0.877486 1.71422 5.53166
0.860571 1.7164 5.54275
0.838409 1.70911 5.52202
0.82361 1.7165 5.54803
0.803556 1.71341 5.54123
0.794533 1.71237 5.53831
0.775548 1.71242 5.54045
0.759726 1.71977 5.56347
0.738556 1.71146 5.54174
0.720618 1.71359 5.54985
0.704765 1.71888 5.56889
0.681487 1.70637 5.53325
0.675742 1.71686 5.56614
0.656673 1.71374 5.55733
0.638758 1.71692 5.56842
0.620789 1.71699 5.57255
0.582689 1.71182 5.55992
0.565844 1.71813 5.57995
0.545782 1.71503 5.57215
0.536759 1.71399 5.56923
0.51882 1.71512 5.57735
0.50086 1.71721 5.58246
0.481883 1.71727 5.5856
0.463937 1.71938 5.5927
0.44486 1.71525 5.58291
0.42693 1.7184 5.592
0.41683 1.71421 5.57913
0.398961 1.71848 5.59621
0.379924 1.71742 5.59137
0.360846 1.71328 5.58157
0.323816 1.71125 5.57788
0.305848 1.71332 5.58198
0.296871 1.71337 5.58505
0.258779 1.70922 5.5734
0.240918 1.7145 5.59146
0.221818 1.71032 5.57866
0.203958 1.7156 5.59672
0.184858 1.71142 5.58392
0.175889 1.71349 5.58796
0.157921 1.71456 5.59208
0.138921 1.71458 5.59222
0.120913 1.71357 5.59137
0.10196 1.71568 5.59749
0.0838298 1.71044 5.5807
0.0649307 1.71465 5.59378
0.0558613 1.71152 5.58489
-0.106472 1.714 5.40806
-0.187507 1.71399 5.40367
-0.285628 1.70982 5.38846
-0.339618 1.71087 5.38986
-0.357617 1.71189 5.38998
-0.383616 1.71191 5.39017
-0.401684 1.70979 5.38134
-0.419638 1.71189 5.38744
-0.437645 1.71189 5.38658
-0.454729 1.70874 5.37575
-0.482673 1.71186 5.38292
-0.517741 1.71075 5.3742
-0.535725 1.7118 5.37632
-0.55377 1.71072 5.37047
-0.570808 1.70866 5.36563
-0.588823 1.70864 5.36376
-0.61486 1.70859 5.35896
-0.65085 1.71063 5.3602
-0.66885 1.71064 5.36033
-0.703925 1.70852 5.35063
-0.73 1.70739 5.34084
-0.74893 1.71054 5.34994
-0.782122 1.70319 5.32529
-0.801043 1.70835 5.33536
-0.836126 1.70621 5.32466
-0.846094 1.70828 5.3287
-0.864086 1.70931 5.32982
-0.881131 1.70823 5.32397
-0.916191 1.70714 5.31624
-0.933259 1.70502 5.3074
-0.951266 1.70602 5.30652
-0.978272 1.70702 5.30571
-0.995309 1.70696 5.30084
-1.01329 1.708 5.30296
-1.03035 1.70691 5.2961
-1.04645 1.70272 5.28229
-1.07347 1.70471 5.28046
-1.09148 1.70469 5.2786
-1.12846 1.70776 5.28183
-1.14355 1.70559 5.26997
-1.17958 1.70655 5.26523
-1.19566 1.70441 5.25538
-1.2368 1.70116 5.23674
-1.27478 1.70423 5.23998
-1.29182 1.70415 5.23411
-1.30981 1.70618 5.23521
-1.3169 1.70203 5.22433
-1.35292 1.70401 5.22157
-1.36801 1.70184 5.20971
-1.41721 1.69749 5.18414
-1.46125 1.69843 5.17846
-1.48315 1.70463 5.19054
-1.50019 1.70457 5.18566
-1.53234 1.70131 5.16695
-1.55935 1.7033 5.16513
-1.57446 1.7001 5.15128
-1.64261 1.69984 5.1308
-1.66866 1.69977 5.125
-1.69982 1.69647 5.10328
-1.7378 1.70053 5.1055
-1.77188 1.7004 5.09576
-1.79793 1.70132 5.08894
-1.81497 1.70126 5.08407
-1.84807 1.70007 5.07034
-1.87315 1.69993 5.05953
-1.94032 1.69965 5.03803
-1.95639 1.69851 5.02817
-1.97245 1.69841 5.02029
-1.99753 1.69828 5.01048
-2.04865 1.69908 4.99485
-2.08174 1.69891 4.9821
-2.09879 1.69883 4.97623
-2.12288 1.69767 4.96443
-2.17106 1.69635 4.94081
-2.18907 1.69834 4.93891
-2.21415 1.69819 4.9281
-2.24627 1.69698 4.91236
-2.27445 1.69366 4.88962
-2.32051 1.69757 4.88191
-2.38474 1.69616 4.85141
-2.43897 1.69474 4.82083
-2.48714 1.69444 4.7982
-2.5604 1.69497 4.76374
-2.70901 1.69288 4.68387
-2.72508 1.69276 4.675
5.92482 1.69492 -0.288887
5.91703 1.69333 -0.261801
5.91559 1.69444 -0.186796
5.91173 1.69271 -0.168739
5.90094 1.69013 -0.140615
5.89907 1.6904 -0.122603
5.91322 1.69567 -0.103785
5.90136 1.69196 -0.084638
5.90849 1.69422 -0.0667228
5.90764 1.6945 -0.0477179
5.91471 1.69765 -0.0378163
5.89484 1.69191 -0.0205794
5.89598 1.69219 -0.00158952
5.89312 1.69246 0.0164306
5.88425 1.68974 0.0345402
5.8854 1.69102 0.0535153
5.88453 1.69128 0.0715203
5.90462 1.69843 0.0822647
5.88975 1.69371 0.100449
5.88489 1.69298 0.118499
5.89303 1.69625 0.137392
5.87216 1.69052 0.154636
5.88631 1.69581 0.174454
5.88845 1.69709 0.193422
5.86257 1.68934 0.209734
5.88566 1.69749 0.220441
5.87079 1.69377 0.23861
5.85392 1.68903 0.25581
5.87908 1.69832 0.276486
5.8542 1.69058 0.29279
5.85433 1.69184 0.310773
5.87149 1.69814 0.331553
5.87056 1.69828 0.340559
5.8667 1.69755 0.358602
5.85482 1.69481 0.375734
5.86197 1.6981 0.395634
5.8451 1.69336 0.412834
5.85225 1.69764 0.431719
5.85761 1.70134 0.479631
5.1773 1.7137 2.43384
5.16541 1.71293 2.44895
5.15151 1.71114 2.46208
