5.38982 1.67179 3.31266
5.38298 1.67409 3.33269
5.37301 1.67217 3.33779
5.3531 1.67035 3.34897
5.35128 1.67371 3.37294
5.33337 1.6719 3.3851
5.31546 1.67009 3.39726
5.31364 1.67344 3.42123
5.29473 1.67164 3.4334
5.29985 1.67487 3.44932
5.28395 1.67407 3.46245
5.26604 1.67226 3.47461
5.24713 1.66945 3.4868
5.24832 1.67482 3.51171
5.22236 1.66993 3.51798
5.20949 1.67019 3.53508
5.20858 1.67236 3.54605
5.19771 1.67263 3.56413
5.17477 1.66877 3.57237
5.16893 1.67108 3.59338
5.15403 1.67029 3.6065
5.14014 1.67052 3.62161
5.12625 1.66975 3.63673
5.12535 1.67194 3.6497
5.10543 1.67011 3.65988
5.09355 1.67035 3.67597
5.08268 1.67061 3.69305
5.06376 1.66879 3.70422
5.05088 1.66903 3.72032
5.02118 1.67065 3.76052
5.00226 1.66882 3.77169
4.99342 1.67013 3.79174
4.97952 1.67034 3.80585
4.93393 1.67118 3.86018
4.91602 1.66937 3.87235
4.90313 1.6696 3.88744
4.89327 1.67087 3.9055
4.87535 1.66905 3.91666
4.86449 1.67132 3.93472
4.84859 1.66953 3.94786
4.84768 1.67271 3.95982
4.80299 1.67136 4.00219
4.78809 1.67056 4.01531
4.77017 1.66974 4.02646
4.76636 1.6741 4.05043
4.75539 1.67217 4.05454
4.73646 1.67033 4.06471
4.70667 1.66976 4.09295
4.69883 1.67207 4.11298
4.6809 1.67123 4.12313
4.67004 1.6725 4.14119
4.65806 1.67055 4.14431
4.64417 1.67077 4.15841
4.63632 1.67307 4.17844
4.61337 1.67019 4.18566
4.60351 1.67247 4.2037
4.5866 1.67166 4.21584
4.58177 1.676 4.23882
4.56072 1.66993 4.23307
4.55288 1.67223 4.25309
4.53395 1.67139 4.26325
4.52006 1.67161 4.27735
4.50617 1.67184 4.29246
4.49027 1.67205 4.30558
4.48041 1.67332 4.32363
4.46148 1.67248 4.33379
4.45957 1.67466 4.34577
4.4356 1.67074 4.35001
4.42776 1.67405 4.37103
4.39595 1.67345 4.39628
4.37612 1.6748 4.41941
4.33726 1.6711 4.43776
4.28954 1.67068 4.47513
4.2817 1.674 4.49614
4.25683 1.67328 4.51434
4.05901 1.67272 4.67087
4.01621 1.67215 4.6982
3.97454 1.67483 4.74248
3.94765 1.67406 4.7567
3.92771 1.67219 4.76487
3.91584 1.67445 4.78193
3.89488 1.67256 4.78812
3.881 1.67379 4.80321
3.86711 1.67502 4.8183
3.85424 1.67628 4.83538
3.84426 1.67534 4.83847
3.83138 1.67758 4.85453
3.82761 1.68401 4.88347
3.81271 1.68423 4.89758
3.79883 1.68646 4.91265
3.77989 1.6846 4.92083
3.75792 1.68267 4.92502
3.75805 1.68692 4.94196
3.74215 1.68713 4.95508
3.71714 1.68313 4.95433
3.69618 1.68123 4.96051
3.6823 1.68248 4.9766
3.66134 1.68057 4.98179
3.64644 1.68177 4.99488
3.62737 1.67666 4.9861
3.60438 1.6727 4.98833
3.58948 1.67391 5.00143
3.58066 1.67827 5.02543
3.56373 1.67841 5.03456
3.54985 1.67966 5.05065
3.5208 1.67358 5.04396
3.50894 1.67685 5.062
3.49896 1.6759 5.06509
3.48609 1.67818 5.08316
3.46614 1.67728 5.08932
3.45935 1.68269 5.1163
3.43838 1.68076 5.12048
3.42652 1.68405 5.13953
3.40859 1.6832 5.14868
3.40064 1.68431 5.15572
3.38676 1.68554 5.17081
3.37085 1.68673 5.18291
3.35089 1.68483 5.18909
3.34411 1.69125 5.21705
3.32516 1.69037 5.22421
3.30927 1.69159 5.23831
3.2844 1.69286 5.25548
3.22555 1.6892 5.27598
3.19849 1.68411 5.26926
3.18564 1.6874 5.28831
3.17464 1.68541 5.28842
3.15266 1.68347 5.29162
3.13573 1.68363 5.30175
3.1178 1.68378 5.31088
3.09581 1.68081 5.31209
3.08092 1.68304 5.32717
3.05488 1.67797 5.32144
3.03984 1.67491 5.3166
3.02798 1.6782 5.33564
3.00295 1.67416 5.33189
2.97419 1.67764 5.36306
2.94813 1.67356 5.35632
2.93325 1.67479 5.37141
2.90738 1.67606 5.38859
2.59541 1.6763 5.52696
2.57644 1.67437 5.53113
2.5575 1.67451 5.53927
2.54853 1.67457 5.54334
2.53364 1.6778 5.5584
2.51267 1.67586 5.56159
2.49575 1.67704 5.5727
2.47679 1.67714 5.57884
2.45886 1.67729 5.58798
2.44195 1.67846 5.59909
2.43402 1.6806 5.60812
2.41201 1.6776 5.60733
2.39102 1.67565 5.60952
2.37615 1.6789 5.62558
2.35617 1.67797 5.62975
2.33721 1.67806 5.63489
2.32438 1.68239 5.65693
2.30727 1.6762 5.64314
2.2924 1.67945 5.65921
2.27957 1.6848 5.68223
2.2596 1.68385 5.6854
2.24166 1.684 5.69453
2.22373 1.68515 5.70365
2.20276 1.68421 5.70682
2.19277 1.68324 5.70891
2.17585 1.6844 5.71902
2.15691 1.68554 5.72715
2.13693 1.6846 5.73032
2.119 1.68474 5.73945
2.10108 1.6869 5.74955
2.08315 1.68806 5.75967
2.06523 1.68922 5.76979
2.05423 1.68823 5.76989
2.03117 1.68415 5.76312
2.01428 1.68637 5.77722
1.98816 1.68015 5.76151
1.97534 1.68551 5.78553
1.95537 1.68459 5.78969
1.93846 1.68678 5.80179
1.92643 1.68471 5.79691
1.90749 1.68484 5.80505
1.88649 1.68386 5.80522
1.86445 1.6808 5.80043
1.84961 1.68512 5.82149
1.82655 1.68102 5.81372
1.81069 1.68531 5.83278
1.8007 1.68434 5.83387
1.78174 1.68442 5.83901
1.76382 1.6866 5.85011
1.74078 1.68353 5.84433
1.72182 1.68363 5.85047
1.70389 1.68478 5.85959
1.68494 1.68489 5.86673
1.67394 1.6849 5.86682
1.656 1.68502 5.87395
1.63808 1.68719 5.88506
1.61709 1.68622 5.88623
1.59711 1.68528 5.88939
1.57918 1.68643 5.89851
1.55819 1.68546 5.89969
1.54408 1.68026 5.88587
1.5272 1.6845 5.90093
1.50927 1.68564 5.91005
1.49136 1.68783 5.92216
1.4693 1.68475 5.91537
1.45138 1.68591 5.92549
1.43347 1.6881 5.93759
1.41557 1.69129 5.94968
1.40143 1.68505 5.93288
1.38043 1.68405 5.93205
1.36147 1.68415 5.93819
1.3415 1.68423 5.94234
1.32256 1.68536 5.95047
1.3057 1.68962 5.96754
1.28466 1.68758 5.96372
1.27263 1.68551 5.95884
1.25366 1.68559 5.96299
1.23473 1.68673 5.97211
1.21473 1.68575 5.97228
1.19269 1.6837 5.96848
1.17375 1.68482 5.9756
1.15375 1.68384 5.97577
1.14479 1.68493 5.98182
1.12379 1.68393 5.98099
1.1038 1.68398 5.98314
1.08797 1.68931 6.00519
1.06593 1.68624 5.9994
1.04592 1.68524 5.99856
1.03592 1.68525 5.99864
1.01594 1.68531 6.00179
0.998049 1.68853 6.01588
0.978072 1.68859 6.01903
0.956011 1.68548 6.01124
0.938088 1.68764 6.02134
0.918142 1.68876 6.02848
0.90028 1.69304 6.04655
0.888157 1.68781 6.03072
0.871327 1.69415 6.05275
0.849257 1.69003 6.04398
0.829258 1.69005 6.04413
0.80822 1.68799 6.03932
0.788243 1.68805 6.04247
0.768228 1.68703 6.04063
0.759297 1.68917 6.04967
0.739374 1.69134 6.05979
0.718282 1.68717 6.04801
0.697259 1.68615 6.04518
0.677275 1.68619 6.04733
0.657213 1.68309 6.03953
0.637244 1.68316 6.04368
0.627298 1.68527 6.05072
0.608399 1.68848 6.06382
0.586222 1.68115 6.04109
0.567323 1.68536 6.05417
0.547338 1.6854 6.05632
0.527361 1.68546 6.05947
0.507362 1.68548 6.05962
0.497347 1.68445 6.05771
0.477301 1.68238 6.0519
0.45627 1.68034 6.04808
0.43734 1.68248 6.0572
0.417394 1.6846 6.06432
0.397325 1.68148 6.05551
0.376264 1.67938 6.0477
0.367411 1.68467 6.06669
0.347372 1.68261 6.06187
0.326342 1.68156 6.05805
0.307358 1.68161 6.06019
0.286297 1.6795 6.05238
0.267405 1.68273 6.06647
0.246336 1.68061 6.05766
0.237367 1.68167 6.06172
0.216283 1.67853 6.05092
0.197407 1.68278 6.067
0.176377 1.68173 6.06317
0.156323 1.67964 6.05636
0.13637 1.68075 6.06249
0.116386 1.68179 6.06463
0.0963475 1.67973 6.05981
0.0863942 1.68183 6.06585
0.0674638 1.68397 6.07496
0.0464261 1.68292 6.07014
0.0328839 1.68289 5.86521
0.0138154 1.68077 5.85638
-0.00516084 1.68183 5.85951
-0.0152459 1.67767 5.84865
-0.0342454 1.67769 5.84879
-0.0541287 1.68292 5.86387
-0.0731357 1.68292 5.86301
-0.0922431 1.67873 5.84921
-0.112227 1.67977 5.85135
-0.131203 1.68083 5.85448
-0.141249 1.67875 5.84858
-0.160279 1.67771 5.84474
-0.180194 1.68088 5.85584
-0.21827 1.67876 5.84616
-0.237269 1.67878 5.8463
-0.276283 1.67878 5.8446
-0.286244 1.68086 5.84964
-0.305282 1.6798 5.8448
-0.324335 1.67771 5.83798
-0.343311 1.67876 5.8411
-0.401309 1.67981 5.84152
-0.411331 1.67977 5.8386
-0.450291 1.68187 5.84386
-0.488359 1.67977 5.83518
-0.507405 1.67869 5.82934
-0.526442 1.67763 5.8245
-0.536434 1.67765 5.82557
-0.555449 1.67764 5.82372
-0.613461 1.67965 5.82212
-3.44589 1.67793 4.84535
-3.48203 1.67869 4.82761
-3.52927 1.67824 4.79497
-3.55018 1.68443 4.80704
-3.56132 1.68217 4.78915
-3.59151 1.68081 4.76339
-3.61155 1.68275 4.75852
-3.61971 1.67843 4.73664
-3.6457 1.68348 4.73876
-3.65486 1.68017 4.71788
-3.66685 1.6822 4.71894
-3.67996 1.68099 4.70405
-3.70916 1.67962 4.67829
-3.73119 1.68256 4.67341
-3.75643 1.67912 4.64265
-3.76645 1.68009 4.63971
-3.84489 1.68027 4.58129
-3.858 1.67906 4.5664
-4.59783 1.68004 3.92687
-4.60698 1.67777 3.90797
-4.62504 1.67965 3.89908
-4.63716 1.67942 3.88317
-4.66021 1.68335 3.87729
-4.66825 1.68326 3.87135
-4.67739 1.682 3.85343
-4.69348 1.68282 3.84054
-4.71057 1.68367 3.82965
-4.73063 1.68655 3.82076
-4.7348 1.68323 3.79884
-4.75387 1.6851 3.78895
-4.75396 1.68292 3.77699
-4.77701 1.68683 3.7701
-4.78714 1.68559 3.75319
-4.80522 1.68744 3.7423
-4.81634 1.68621 3.7264
-4.83542 1.68806 3.71551
-4.84953 1.68886 3.70161
-4.86154 1.69084 3.69967
-4.87764 1.69166 3.68677
-4.8997 1.69556 3.67888
-4.91579 1.69638 3.66599
-4.91499 1.69099 3.64006
-4.93009 1.69181 3.62716
-4.93923 1.69055 3.60924
-4.95333 1.69135 3.59534
-4.96834 1.69435 3.59441
-4.98344 1.69515 3.58051
-4.98661 1.69183 3.55858
-4.99376 1.68954 3.53866
-5.01184 1.69239 3.52775
-5.02297 1.69115 3.51085
-5.03806 1.69196 3.49795
-5.04015 1.6908 3.48698
-5.06321 1.6947 3.4791
-5.06438 1.69036 3.45617
-5.08545 1.69323 3.44628
-5.08961 1.69092 3.42535
-5.10372 1.69172 3.41144
-5.10988 1.68842 3.39053
-5.12587 1.69243 3.39059
-5.13502 1.69115 3.37168
-5.14912 1.69196 3.35777
-5.16124 1.69173 3.34186
-5.18032 1.69458 3.33096
6.00976 1.66763 1.70683
5.99788 1.66589 1.72395
5.982 1.66414 1.7401
5.98316 1.66645 1.76106
5.97329 1.66571 1.77815
5.96443 1.66498 1.79623
5.96158 1.66628 1.81623
5.96768 1.66946 1.82914
5.94778 1.66569 1.84335
5.93992 1.66596 1.86141
5.94008 1.66827 1.88237
5.94224 1.67159 1.90431
5.92435 1.66783 1.9195
5.9185 1.66911 1.93853
5.91557 1.66925 1.94755
5.9047 1.66852 1.96565
5.89583 1.66778 1.98273
5.89399 1.6701 2.00371
5.88312 1.66936 2.02081
5.89732 1.67574 2.04761
5.85936 1.66686 2.05403
5.88252 1.67514 2.07373
5.88369 1.67848 2.09668
5.84272 1.66757 2.10115
5.83886 1.66985 2.12015
5.83803 1.67218 2.14212
5.81612 1.66737 2.15436
5.81327 1.66967 2.17435
5.80131 1.66677 2.18048
5.79345 1.66704 2.19854
5.78559 1.66731 2.2166
5.78977 1.67167 2.24051
5.77789 1.67091 2.25661
5.75999 1.66812 2.26979
5.76919 1.67351 2.29664
5.7773 1.67771 2.31052
5.7584 1.67492 2.32371
5.7395 1.67114 2.33791
5.73866 1.67445 2.35887
5.74184 1.6788 2.38278
5.73197 1.67806 2.39987
5.74218 1.68445 2.4267
5.70311 1.67337 2.41916
5.71934 1.6818 2.44892
5.70044 1.678 2.46212
5.69659 1.6803 2.48211
5.67568 1.6765 2.49433
5.54085 1.68586 2.78325
5.50779 1.67576 2.77564
5.477 1.6722 2.80393
5.48421 1.6786 2.83079
5.47433 1.67885 2.84786
5.44939 1.67399 2.85612
5.4345 1.67221 2.87026
5.42454 1.67131 2.87635
5.40764 1.66851 2.88952
5.39777 1.66877 2.90659
5.39091 1.67006 2.92563
5.38506 1.67236 2.94564
5.36413 1.66851 2.95486
5.35828 1.67081 2.97487
5.35033 1.6699 2.98094
5.34247 1.67119 2.99999
5.3326 1.67145 3.01706
5.32977 1.67477 3.03904
5.29979 1.66786 3.04336
5.30399 1.67324 3.06926
5.28909 1.67144 3.0824
5.28516 1.67259 3.09241
5.26825 1.67078 3.10457
5.25537 1.67001 3.11968
5.24669 1.67564 3.16167
5.21871 1.66872 3.16598
5.21187 1.67102 3.186
5.20492 1.67113 3.19305
5.19203 1.67036 3.20816
5.18316 1.67162 3.22521
5.17631 1.67292 3.24525
5.15638 1.67007 3.25444
5.14752 1.67136 3.27349
5.13966 1.67263 3.29153
5.12175 1.67082 3.3037
5.12284 1.673 3.31566
5.09588 1.66809 3.32094
5.08902 1.66938 3.33997
5.08216 1.67166 3.35899
5.06425 1.66986 3.37115
5.03646 1.66829 3.39939
5.04058 1.67151 3.41431
5.02065 1.66966 3.42349
5.01077 1.66992 3.44057
4.99588 1.66913 3.45469
4.98198 1.66835 3.46881
4.97011 1.6686 3.4849
4.96426 1.6719 3.5049
4.94945 1.67328 3.52999
4.91361 1.66863 3.55233
4.88884 1.66909 3.58252
4.87202 1.67046 3.60663
4.85511 1.66865 3.61878
4.84625 1.66992 3.63683
4.82933 1.6691 3.64797
4.8255 1.67243 3.66996
4.80556 1.66958 3.67915
4.79066 1.66878 3.69228
4.77283 1.67013 3.71539
4.768 1.67246 3.7374
4.75008 1.67164 3.74855
4.67567 1.67083 3.82613
4.64485 1.66923 3.85139
4.61907 1.66967 3.88058
4.60025 1.67103 3.90371
4.58635 1.67023 3.91682
4.57245 1.67045 3.93093
4.55755 1.67065 3.94404
4.49501 1.6706 4.00552
4.48112 1.67082 4.01962
4.47729 1.67516 4.04259
4.45433 1.67125 4.04782
4.45152 1.67562 4.07278
4.41959 1.6718 4.08308
4.40972 1.67305 4.10014
4.37689 1.6714 4.12241
4.36905 1.67472 4.14343
4.33923 1.6741 4.16766
4.32926 1.67316 4.17175
4.31133 1.67133 4.18192
4.28858 1.67382 4.21406
4.25676 1.67319 4.23831
4.24185 1.67338 4.25042
4.21596 1.67162 4.26564
4.20811 1.67493 4.28566
4.16239 1.67451 4.32301
4.13841 1.67055 4.32525
4.12059 1.67192 4.34937
3.8571 1.67108 4.55139
3.7736 1.67211 4.61802
3.6891 1.67415 4.68463
3.58362 1.67325 4.75445
3.57377 1.67755 4.77446
3.54977 1.67357 4.7747
3.53386 1.67375 4.78582
3.51693 1.67291 4.79596
3.50897 1.67299 4.80102
3.49001 1.67209 4.80718
3.47714 1.67334 4.82326
3.45818 1.67244 4.82942
3.44631 1.6747 4.84648
3.41145 1.67399 4.86475
3.40552 1.67513 4.87378
3.38657 1.67425 4.88094
3.37064 1.67441 4.89106
3.35877 1.67667 4.90811
3.34286 1.67686 4.92023
3.33606 1.68223 4.94521
3.30105 1.67726 4.94555
3.28311 1.67639 4.95369
3.26415 1.67548 4.95885
3.2533 1.67878 4.97889
3.23436 1.6779 4.98604
3.21539 1.67599 4.99122
3.20657 1.68133 5.01421
3.19268 1.68256 5.02929
3.18371 1.68263 5.03336
3.16881 1.68383 5.04646
3.14885 1.68192 5.05164
3.138 1.68621 5.07066
3.1302 1.69162 5.09764
3.10009 1.68343 5.08399
3.08114 1.68253 5.09014
3.07014 1.68154 5.09024
3.05118 1.67964 5.09641
3.0373 1.68188 5.11149
3.01733 1.67995 5.11567
3.00041 1.68113 5.12678
2.97942 1.67816 5.12798
2.95843 1.6762 5.13017
2.95757 1.68047 5.14811
2.93659 1.67853 5.1513
2.91763 1.67762 5.15646
2.87769 1.67476 5.1648
2.86076 1.67491 5.17393
2.84383 1.67505 5.18306
2.83486 1.67512 5.18712
2.81691 1.67424 5.19427
2.79694 1.67331 5.19844
2.74717 1.67481 5.22979
2.68436 1.67421 5.25428
2.65458 1.67766 5.28346
2.63257 1.67566 5.28265
2.61563 1.67579 5.29078
2.60768 1.67589 5.29684
2.5718 1.67615 5.31311
2.55893 1.67941 5.33016
2.5359 1.67638 5.32738
2.50103 1.67664 5.34364
2.46125 1.6801 5.37289
2.43517 1.67397 5.36318
2.41825 1.67513 5.37329
2.40437 1.67838 5.38935
2.38235 1.67537 5.38756
2.36542 1.67651 5.39667
2.3595 1.67868 5.40768
2.3226 1.6779 5.42097
2.30874 1.68218 5.43902
2.29078 1.68126 5.44417
2.26672 1.67718 5.43741
2.2549 1.68253 5.46042
2.24285 1.67945 5.45456
2.22084 1.67643 5.45277
2.20595 1.67865 5.46685
2.18291 1.67561 5.46307
2.16802 1.67783 5.47715
2.15724 1.68526 5.50612
2.13315 1.6791 5.49439
2.1252 1.68021 5.50144
2.10828 1.68137 5.51155
2.09136 1.68353 5.52165
2.07138 1.68159 5.52483
2.05446 1.68375 5.53492
2.03343 1.68072 5.53212
2.01652 1.68191 5.54424
2.01266 1.68718 5.56219
1.98859 1.68207 5.55345
1.97269 1.68426 5.56554
1.9568 1.68749 5.58061
1.93476 1.68443 5.57582
1.91681 1.68453 5.58195
1.89682 1.68258 5.58413
1.88784 1.68263 5.5872
1.86788 1.6827 5.59135
1.85403 1.68701 5.61139
1.83916 1.69127 5.62845
1.81712 1.68721 5.62367
1.79506 1.68311 5.6159
1.77509 1.68319 5.62005
1.76226 1.68852 5.64207
1.7502 1.68543 5.6352
1.73023 1.6855 5.63935
1.70714 1.68034 5.6276
1.69331 1.68567 5.64963
1.67434 1.68475 5.65379
1.65435 1.68378 5.65495
1.63846 1.687 5.66903
1.62333 1.68077 5.65323
1.60643 1.68297 5.66633
1.58846 1.68305 5.67046
1.56642 1.67997 5.66467
1.55261 1.68635 5.68969
1.53468 1.6875 5.69881
1.51362 1.68441 5.69201
1.50363 1.68343 5.6931
1.48465 1.68348 5.69524
1.46467 1.68254 5.69841
1.44569 1.6826 5.70155
1.43189 1.68898 5.72656
1.40983 1.68489 5.71979
1.39982 1.68387 5.71788
1.37773 1.67972 5.7071
1.35775 1.67878 5.71027
1.34082 1.68092 5.71937
1.32291 1.68311 5.73147
1.30703 1.68735 5.74653
1.28599 1.68429 5.74173
1.26498 1.68227 5.73992
1.25393 1.68019 5.73403
1.23909 1.68552 5.75507
1.21908 1.6835 5.75325
1.19701 1.6804 5.74546
1.17908 1.68153 5.75358
1.16113 1.68265 5.7607
1.1401 1.6806 5.75689
1.13217 1.68274 5.76592
1.1153 1.68701 5.78298
1.09421 1.68284 5.7712
1.07423 1.6829 5.77435
1.05735 1.68614 5.78943
1.03734 1.68514 5.7886
1.01729 1.68206 5.7828
1.00941 1.68629 5.79779
0.989384 1.68426 5.79497
0.970423 1.68535 5.8001
0.949338 1.6812 5.78932
0.931422 1.68338 5.80043
0.911415 1.68238 5.79959
0.893492 1.68454 5.80969
0.884507 1.68457 5.81176
0.863438 1.68146 5.80297
0.843438 1.68047 5.80313
0.823369 1.67735 5.79433
0.805508 1.68163 5.8124
0.7876 1.68482 5.82449
0.765439 1.67853 5.80375
0.756493 1.67964 5.8108
0.736439 1.67655 5.804
0.717439 1.67656 5.80414
0.699563 1.68081 5.82021
0.680617 1.68193 5.82734
0.660563 1.67984 5.82052
0.641602 1.68093 5.82565
0.63154 1.67782 5.81777
0.612595 1.67994 5.82488
0.573626 1.68002 5.82917
0.555742 1.68426 5.84425
0.535665 1.68012 5.83446
0.51565 1.67911 5.83262
0.496674 1.68017 5.83575
0.486651 1.67913 5.83284
0.467689 1.68022 5.83797
0.448713 1.68028 5.84111
0.429728 1.68032 5.84326
0.390744 1.68038 5.84555
0.371722 1.67935 5.84271
0.361745 1.6804 5.84577
0.322754 1.68044 5.84706
0.303762 1.68047 5.8482
0.284724 1.67841 5.84338
0.246932 1.68584 5.87056
0.216732 1.67748 5.8449
0.197718 1.67746 5.84305
0.178872 1.68277 5.86311
0.158757 1.67856 5.84832
0.139819 1.68069 5.85644
0.119805 1.68068 5.85459
0.110751 1.67758 5.8477
0.0908132 1.68071 5.8558
0.0717673 1.67864 5.84998
0.052845 1.6818 5.86008
0.0386764 1.67752 5.70522
0.0107005 1.67858 5.70842
-0.00825256 1.68068 5.71453
-0.0272677 1.67967 5.71269
-0.0462672 1.67968 5.71283
-0.0653124 1.67861 5.70699
-0.112334 1.6776 5.70436
-0.13128 1.67971 5.71147
-0.168348 1.67761 5.70278
-0.216361 1.67761 5.70114
-0.234369 1.67761 5.70028
-0.31035 1.6797 5.70282
-0.377332 1.68078 5.70531
-3.60093 1.67903 4.57547
-4.44522 1.68018 3.87471
-4.46846 1.67873 3.84391
-4.48553 1.6796 3.83402
-4.50261 1.68145 3.82312
-4.50668 1.68032 3.81417
-4.52674 1.68321 3.80627
-4.54382 1.68506 3.79537
-4.55096 1.68179 3.77647
-4.56308 1.68157 3.76156
-4.59505 1.68963 3.76369
-4.59922 1.6853 3.74178
-4.61133 1.68511 3.72787
-4.61937 1.68602 3.72192
-4.64341 1.68997 3.71704
-4.6595 1.6918 3.70513
-4.66168 1.68745 3.68121
-4.67677 1.68828 3.66931
-4.7008 1.69222 3.66443
-4.71093 1.69098 3.64752
-4.71202 1.68882 3.63656
-4.72314 1.68859 3.62065
-4.75215 1.69458 3.61878
-4.75234 1.69021 3.59384
-4.77637 1.69415 3.58896
-4.79246 1.69598 3.57705
-4.78867 1.68957 3.54912
-4.81877 1.6934 3.53628
-4.83685 1.69525 3.52539
-4.86406 1.69585 3.49758
-4.91857 1.69588 3.42999
-5.11756 1.69411 3.16647
5.57216 1.6656 2.29424
5.52404 1.67035 2.41055
5.51508 1.66844 2.41665
5.51023 1.66973 2.43567
5.49132 1.66692 2.44785
5.48747 1.66822 2.46787
5.4786 1.66848 2.48493
5.48378 1.67383 2.50882
5.46989 1.67206 2.52395
5.45793 1.67014 2.52907
5.45809 1.67345 2.55002
5.43415 1.66861 2.55927
5.44838 1.67604 2.58906
5.41742 1.66914 2.5944
5.42361 1.6745 2.61927
5.40269 1.67068 2.63049
5.39474 1.66979 2.63756
5.39692 1.67413 2.66049
5.38604 1.67437 2.67657
5.37114 1.67259 2.69071
5.3673 1.67489 2.71071
5.3745 1.68027 2.73658
5.3596 1.67849 2.75072
5.34964 1.67757 2.75581
5.34981 1.68091 2.77876
5.33089 1.67809 2.78994
5.30796 1.67324 2.79919
5.29607 1.67347 2.81428
5.28017 1.67067 2.82744
5.27331 1.67294 2.84546
5.26536 1.67105 2.85255
5.24845 1.66924 2.86471
5.24661 1.67255 2.88567
5.23171 1.67077 2.89981
5.21983 1.671 2.9149
5.21096 1.67128 2.93297
5.2041 1.67255 2.951
5.18819 1.67074 2.96315
5.18124 1.67085 2.9702
5.17036 1.67109 2.98628
5.15747 1.66931 3.00041
5.14961 1.67159 3.01944
5.14375 1.67288 3.03847
5.12584 1.67006 3.04964
5.10993 1.66925 3.06178
5.10801 1.67041 3.07278
5.09109 1.66859 3.08393
5.08323 1.66986 3.10197
5.07737 1.67114 3.121
5.05745 1.66831 3.1312
5.05963 1.67366 3.1551
5.03769 1.66979 3.16333
5.03376 1.66993 3.17236
5.01785 1.66813 3.1855
5.00999 1.67041 3.20353
4.98622 1.66987 3.23372
4.97835 1.67114 3.25177
4.95943 1.6683 3.26195
4.9565 1.66945 3.27196
4.92971 1.66887 3.29917
4.91681 1.66809 3.31328
4.87521 1.6689 3.36659
4.85345 1.66938 3.39775
4.84055 1.6696 3.41185
4.80087 1.66825 3.45417
4.78405 1.66861 3.4783
4.77216 1.66885 3.49339
4.60756 1.6697 3.67964
4.55598 1.67057 3.73602
4.48356 1.67075 3.81258
4.46382 1.67327 3.84669
4.43289 1.66944 3.85698
4.40811 1.66989 3.88617
4.36641 1.67051 3.92648
4.30385 1.67041 3.98496
4.25821 1.67116 4.0333
4.2294 1.67155 4.05851
3.14833 1.67295 4.85075
3.11851 1.67431 4.87395
3.09854 1.67238 4.87813
3.08363 1.67357 4.89023
3.06972 1.67476 4.90232
3.04078 1.6729 4.91057
3.03094 1.67722 4.93158
3.01501 1.67736 4.9407
2.99605 1.67546 4.94687
2.97911 1.67559 4.955
2.96117 1.67473 4.96315
2.94423 1.67484 4.97027
2.89936 1.67314 4.98864
2.88343 1.67329 4.99776
2.86852 1.67447 5.00985
2.13889 1.67563 5.32738
2.0981 1.67906 5.35464
2.0581 1.67509 5.355
2.04526 1.68041 5.37602
2.02218 1.67427 5.36628
2.00728 1.67748 5.37935
1.99729 1.6765 5.38044
1.98138 1.67869 5.39253
1.96444 1.67882 5.40065
1.94854 1.68202 5.41373
1.92547 1.67691 5.40498
1.91263 1.68223 5.426
1.89366 1.6813 5.43016
1.88162 1.67822 5.42429
1.86263 1.67726 5.42645
1.8457 1.67841 5.43556
1.82876 1.67954 5.44367
1.80876 1.67756 5.44385
1.79286 1.67976 5.45694
1.77491 1.68088 5.46406
1.76899 1.68303 5.47408
1.75002 1.6831 5.47822
1.73309 1.68425 5.48733
1.71001 1.67912 5.47758
1.69103 1.67816 5.47974
1.67203 1.67719 5.48089
1.66614 1.6804 5.49489
1.64512 1.67837 5.49208
1.63023 1.6816 5.50715
1.61229 1.68272 5.51427
1.59331 1.68178 5.51742
1.5733 1.67978 5.5166
1.55638 1.68194 5.5267
1.53635 1.67889 5.5229
1.52635 1.6789 5.52297
1.50737 1.67796 5.52613
1.48942 1.67906 5.53225
1.47146 1.67915 5.53738
1.45455 1.68134 5.54948
1.43659 1.68144 5.55561
1.41554 1.67835 5.54882
1.40553 1.67734 5.54791
1.38859 1.67848 5.55602
1.36859 1.67749 5.55619
1.3527 1.68071 5.57026
1.33164 1.67661 5.56248
1.31266 1.67666 5.56562
1.29573 1.67781 5.57473
1.28986 1.68306 5.5917
1.26881 1.67998 5.5849
1.24981 1.67799 5.58508
1.22876 1.67592 5.57926
1.17388 1.67718 5.59466
1.16386 1.67616 5.59275
1.14592 1.67727 5.59987
1.13003 1.68051 5.61495
1.11 1.67846 5.61113
1.05305 1.67759 5.61757
1.04512 1.67973 5.6266
1.02609 1.6777 5.62377
0.9881 1.67674 5.62507
0.970192 1.67894 5.63718
0.951161 1.67689 5.63335
0.933238 1.67905 5.64345
0.922161 1.67591 5.63358
0.904239 1.67807 5.64369
0.8852 1.67601 5.63886
0.866254 1.67713 5.64599
0.829262 1.67617 5.64728
0.763324 1.67634 5.65578
0.708463 1.67964 5.67414
0.67044 1.67763 5.67146
0.660433 1.67762 5.67053
0.623472 1.67772 5.67581
0.604473 1.67773 5.67595
0.567573 1.67995 5.6892
0.53855 1.67893 5.68644
0.482597 1.67906 5.69286
0.463582 1.67804 5.69101
0.425614 1.67913 5.69528
0.415575 1.67706 5.69039
0.359646 1.67924 5.69978
0.293655 1.6783 5.70129
0.274678 1.67936 5.70442
0.199741 1.68053 5.71297
0.170704 1.67948 5.7082
0.151712 1.67951 5.70934
0.133797 1.68268 5.72043
0.076691 1.67852 5.70692
0.0576916 1.67853 5.70707
0.0273468 1.69289 5.52706
0.00916974 1.68556 5.5043
-0.00873749 1.68875 5.51639
-0.0266673 1.6919 5.52548
-0.0448595 1.68454 5.50072
-0.0546816 1.69189 5.52369
-0.0728047 1.68666 5.5079
-0.090781 1.68772 5.51102
-0.108811 1.68668 5.50717
-0.126872 1.68457 5.49934
-0.145787 1.68775 5.51044
-0.164686 1.69195 5.52352
-0.172855 1.68563 5.50167
-0.190916 1.68353 5.49384
-0.209847 1.68568 5.50295
-0.227768 1.68984 5.51302
-0.245861 1.68567 5.50122
-0.263883 1.68564 5.49835
-0.281913 1.6846 5.49451
-0.290889 1.68565 5.49756
-0.308927 1.68459 5.49271
-0.32788 1.68669 5.49882
-0.345941 1.68458 5.49099
-0.363956 1.68457 5.48912
-0.381963 1.68456 5.48826
-0.400955 1.68459 5.4894
-0.409892 1.68772 5.49742
-0.427015 1.68349 5.48161
-0.445999 1.68454 5.48374
-0.463052 1.68245 5.4769
-0.48202 1.68452 5.48101
-0.500089 1.6814 5.47219
-0.519034 1.68452 5.47929
-0.527065 1.68346 5.47537
-0.544172 1.68027 5.46154
-0.563125 1.68237 5.46765
-0.581155 1.68132 5.4638
-0.599193 1.68026 5.45896
-0.617222 1.68022 5.45509
-0.639935 1.69278 5.49208
-0.644244 1.68019 5.45229
-0.66412 1.68544 5.46837
-0.681235 1.68123 5.45356
-0.700149 1.68541 5.46464
-0.735286 1.68117 5.44697
-0.753308 1.68114 5.4441
-0.769415 1.67794 5.43027
-0.779361 1.68005 5.43731
-0.797398 1.67999 5.43245
-0.815412 1.67998 5.43058
-0.836288 1.68523 5.44667
-0.851457 1.67991 5.42486
-0.869494 1.67885 5.42001
-0.896508 1.67984 5.4182
-0.932522 1.68084 5.41645
-0.949621 1.67766 5.40363
-0.968573 1.68076 5.40972
-1.11886 1.67731 5.3729
-1.14687 1.6783 5.3711
-2.6196 1.67795 4.88113
-2.63764 1.67889 4.87625
-2.67469 1.6818 4.86849
-2.80929 1.67871 4.78954
-2.82733 1.67965 4.78466
-2.85636 1.68361 4.78082
-2.89666 1.67805 4.7412
-2.94276 1.68188 4.72749
-2.96797 1.67748 4.69974
-2.99096 1.68153 4.70185
-3.00307 1.68031 4.68696
-3.03619 1.6811 4.67119
-3.05832 1.67985 4.65338
-3.07043 1.67765 4.6395
-3.09144 1.68064 4.63761
-3.1206 1.67935 4.61685
-3.1588 1.67898 4.59014
-3.30452 1.67766 4.49524
-3.33962 1.68049 4.48246
-3.36075 1.68026 4.46562
-3.44925 1.67833 4.39931
-3.47137 1.67811 4.38348
-3.73784 1.67939 4.18844
-3.75898 1.67913 4.1706
-3.79112 1.67988 4.15183
-3.81931 1.67953 4.12704
-3.82744 1.67728 4.11013
-3.85541 1.68335 4.11326
-3.84858 1.67702 4.09129
-3.8696 1.67999 4.08841
-3.8837 1.6798 4.07552
-3.90175 1.6817 4.06762
-3.90592 1.67738 4.04571
-3.93687 1.68549 4.05183
-3.9461 1.68005 4.02198
-3.98003 1.68919 4.0301
-3.97528 1.68072 3.99818
-4.00722 1.68884 4.0053
-4.01933 1.68764 3.99141
-4.02449 1.68434 3.97049
-4.04056 1.6852 3.9606
-4.05554 1.68924 3.96266
-4.06368 1.68598 3.94476
-4.08075 1.68786 3.93586
-4.10476 1.69285 3.93397
-4.10595 1.68648 3.90907
-4.12401 1.68937 3.90116
-4.14604 1.69231 3.89628
-4.15507 1.69326 3.89234
-4.16221 1.691 3.87442
-4.18623 1.69597 3.87153
-4.19338 1.69268 3.85163
-4.20747 1.69251 3.83973
-4.24062 1.69524 3.81994
-4.24369 1.69411 3.81098
-4.25977 1.69496 3.80009
-4.26989 1.69373 3.78418
-4.36565 1.6933 3.68389
-4.3857 1.6962 3.676
-4.41091 1.6958 3.64819
-4.45626 1.69615 3.60252
-5.90049 1.68832 0.920148
-5.91561 1.6911 0.904219
-5.91383 1.68865 0.874238
-5.91298 1.68737 0.855248
-5.91326 1.68381 0.817297
-5.91242 1.68251 0.797307
-5.92354 1.68527 0.780348
-5.91769 1.68197 0.76035
-5.92284 1.68169 0.74139
-5.9259 1.68256 0.732399
-5.92205 1.67928 0.713416
-5.92719 1.68 0.694442
-5.94132 1.68376 0.67749
-5.92348 1.67643 0.656461
-5.93062 1.67716 0.637502
-5.93875 1.67891 0.620535
-5.92584 1.67372 0.608513
-5.92998 1.67446 0.59053
-5.94011 1.6762 0.572578
-5.94325 1.67594 0.554603
-5.94254 1.67336 0.515631
-5.96388 1.67771 0.470721
-5.95631 1.67186 0.413743
4.92493 1.67141 2.93012
4.92712 1.67576 2.95404
4.9122 1.67395 2.96618
4.90937 1.67727 2.98716
4.90451 1.67955 3.00616
4.89262 1.67977 3.02025
4.89672 1.68297 3.03418
4.8607 1.67397 3.03258
4.84378 1.67114 3.04375
4.84295 1.67547 3.0657
4.83207 1.6757 3.08078
4.82922 1.679 3.10075
4.81129 1.67616 3.11093
4.81038 1.67832 3.12191
4.79647 1.67651 3.13404
4.79463 1.68084 3.15599
4.78576 1.68208 3.17204
4.76381 1.6772 3.17928
4.75091 1.67742 3.19338
4.74807 1.68073 3.21435
4.73005 1.67571 3.21256
4.72319 1.67799 3.23058
4.70827 1.67616 3.24172
4.68934 1.67331 3.25091
4.67443 1.6725 3.26304
4.66858 1.67478 3.28205
4.64159 1.66883 3.28434
4.64772 1.67408 3.30122
4.66098 1.68357 3.33498
4.62292 1.6725 3.32843
4.61506 1.67477 3.34646
4.6102 1.67805 3.36545
4.59429 1.67623 3.3766
4.57534 1.67336 3.38479
4.57544 1.67554 3.39676
4.56053 1.67473 3.40888
4.55165 1.67597 3.42493
4.53976 1.6762 3.44002
4.52283 1.67435 3.44918
4.51597 1.67663 3.4682
4.5232 1.68507 3.49802
4.49419 1.67808 3.49734
4.49228 1.68024 3.50833
4.48239 1.68047 3.5234
4.46849 1.68067 3.53651
4.44955 1.67781 3.54469
4.44672 1.68213 3.56665
4.42173 1.6762 3.56993
4.41689 1.67949 3.58992
4.41497 1.68166 3.6009
4.39703 1.67979 3.60907
4.37607 1.6759 3.61528
4.38835 1.68642 3.65104
4.35329 1.67734 3.64444
4.34241 1.67757 3.65952
4.33958 1.6829 3.68146
4.33867 1.68508 3.69344
4.30965 1.67807 3.69176
4.31186 1.68448 3.71965
4.28789 1.68054 3.72289
4.28001 1.6818 3.73994
4.26207 1.67993 3.7481
4.25422 1.68222 3.76713
4.23114 1.67509 3.75741
4.23134 1.68147 3.78331
4.21441 1.67962 3.79247
4.19848 1.67878 3.8026
4.20171 1.68622 3.83247
4.17268 1.67918 3.8288
4.15978 1.67938 3.84189
4.1488 1.67744 3.845
4.14497 1.68177 3.86697
4.11492 1.67371 3.86232
4.11009 1.67803 3.88329
4.09618 1.67823 3.8964
4.07925 1.67638 3.90555
4.08551 1.68586 3.93837
4.05839 1.67566 3.92372
4.05759 1.68204 3.94964
4.03863 1.67915 3.95582
4.02876 1.68141 3.97287
4.00577 1.67745 3.9751
4.00699 1.68486 4.00298
3.97694 1.6768 3.99733
3.96606 1.67804 4.0134
3.96414 1.68021 4.02438
3.94015 1.67624 4.02562
3.93431 1.67956 4.04662
3.91536 1.67767 4.05379
3.91558 1.68409 4.0817
3.87745 1.67288 4.06615
3.87868 1.68032 4.09603
3.8586 1.67419 4.08627
3.85176 1.6775 4.10728
3.82977 1.67354 4.1085
3.81082 1.67165 4.11567
3.80902 1.67804 4.1416
3.78804 1.6741 4.14481
3.76909 1.6722 4.15098
3.77627 1.67955 4.17483
3.74923 1.6725 4.17013
3.73532 1.67269 4.18224
3.72242 1.67389 4.19532
3.71557 1.67719 4.21532
3.69157 1.67321 4.21556
3.68472 1.67651 4.23557
3.67374 1.67554 4.23767
3.66487 1.67782 4.2557
3.6449 1.67589 4.25988
3.62797 1.67404 4.26904
3.60901 1.67212 4.27421
3.60418 1.67747 4.29717
3.59128 1.67767 4.31027
3.57423 1.67358 4.30345
3.56639 1.6769 4.32447
3.55247 1.67707 4.33557
3.53958 1.67829 4.34965
3.51253 1.67222 4.34394
3.50771 1.67756 4.3669
3.47573 1.67264 4.37122
3.47091 1.67799 4.39418
3.45095 1.67508 4.39937
3.43198 1.67315 4.40355
3.4201 1.67539 4.4196
3.40315 1.67351 4.42676
3.3953 1.67781 4.44676
3.37533 1.67589 4.45094
3.36736 1.67495 4.45501
3.34739 1.67303 4.45919
3.35371 1.68463 4.49998
3.32159 1.67443 4.48537
3.30869 1.67663 4.49844
3.30591 1.68406 4.52735
3.28581 1.67688 4.51461
3.28202 1.68329 4.54154
3.258 1.67827 4.5398
3.25016 1.68259 4.5608
3.22107 1.67444 4.54914
3.22335 1.68498 4.58597
3.19224 1.6758 4.57234
3.19137 1.68103 4.58827
3.17543 1.68016 4.5964
3.15748 1.67928 4.60355
3.13344 1.67323 4.59882
3.12764 1.67961 4.62477
3.10866 1.67767 4.62794
3.09172 1.6768 4.63609
3.08693 1.68422 4.66402
3.08098 1.68431 4.67006
3.05088 1.67614 4.65741
3.05115 1.68666 4.69225
3.02711 1.6806 4.68752
3.01321 1.68281 4.7006
2.99525 1.68091 4.70676
2.9773 1.68001 4.71291
2.98452 1.68943 4.74172
2.95846 1.68335 4.73501
2.94759 1.68661 4.75204
2.92964 1.68571 4.75819
2.91574 1.68691 4.77128
2.89778 1.686 4.77643
2.8788 1.68406 4.7796
2.87489 1.68624 4.7916
2.85287 1.68221 4.78883
2.8339 1.68129 4.79298
2.82203 1.68455 4.81003
2.80203 1.68158 4.81122
2.78611 1.68174 4.82134
2.77118 1.68289 4.83144
2.76525 1.68402 4.83947
2.73815 1.67686 4.82778
2.73136 1.68326 4.85474
2.70426 1.67609 4.84204
2.69645 1.68247 4.86701
2.67543 1.67845 4.86523
2.66052 1.67964 4.87733
2.64848 1.67658 4.87246
2.63561 1.67982 4.88851
2.61968 1.67997 4.89763
2.6007 1.67803 4.9008
2.58883 1.68129 4.91785
2.5607 1.67307 4.90218
2.5529 1.67945 4.92715
2.54696 1.68158 4.93616
2.52188 1.67444 4.92546
2.5151 1.68187 4.9544
2.49002 1.67574 4.94468
2.47409 1.67689 4.95378
2.45917 1.67805 4.96388
2.4402 1.67612 4.96805
2.42121 1.67516 4.97021
2.41223 1.6742 4.97229
2.4034 1.67955 4.99528
2.3824 1.67655 4.99448
2.37156 1.68187 5.01549
2.34748 1.67574 5.00576
2.3346 1.67898 5.02181
2.31867 1.68013 5.03092
2.31071 1.68021 5.03598
2.29274 1.67928 5.04013
2.27986 1.68252 5.05618
2.25579 1.67741 5.04743
2.24291 1.68066 5.06348
2.22494 1.67971 5.06663
2.21106 1.68296 5.08269
2.20003 1.67991 5.07882
2.18717 1.68418 5.09686
2.17021 1.68429 5.10298
2.14918 1.68024 5.0992
2.1363 1.68349 5.11525
2.11631 1.68152 5.11643
2.0973 1.67952 5.1156
2.08934 1.6806 5.12065
2.07239 1.68071 5.12778
2.05442 1.67979 5.13193
2.0385 1.68094 5.14203
2.02361 1.68416 5.1561
2.00665 1.68426 5.16222
1.99174 1.68544 5.17332
1.98275 1.68547 5.17539
1.96377 1.68452 5.17754
1.95091 1.68881 5.19658
1.92679 1.68159 5.18087
1.91393 1.68588 5.1999
1.89393 1.68389 5.20008
1.87698 1.68399 5.20621
1.8672 1.69243 5.23516
1.85616 1.68935 5.22929
1.83614 1.68634 5.22749
1.82023 1.68852 5.23958
1.8002 1.68548 5.23577
1.78532 1.68871 5.25084
1.7694 1.69089 5.26193
1.74937 1.68784 5.25812
1.74345 1.68999 5.26814
1.72753 1.69217 5.27923
1.69057 1.69027 5.28453
1.67568 1.69349 5.2986
1.65359 1.68834 5.28784
1.63357 1.68631 5.28502
1.61174 1.69065 5.30712
1.59482 1.69283 5.31822
1.57478 1.68977 5.31342
1.55885 1.69091 5.32252
1.5219 1.69003 5.32881
1.51291 1.69007 5.33088
1.49082 1.68491 5.31912
1.47696 1.6902 5.33815
1.45794 1.68717 5.33534
1.43996 1.68722 5.33847
1.4251 1.69149 5.35552
1.40196 1.68424 5.3378
1.39919 1.69368 5.36769
1.37706 1.68646 5.35196
1.36014 1.68862 5.36206
1.34422 1.69078 5.37215
1.3283 1.69296 5.38324
1.30516 1.68571 5.36552
1.29132 1.69101 5.38554
1.27822 1.68584 5.37372
1.26541 1.69321 5.39771
1.24328 1.68597 5.38098
1.22741 1.69124 5.39802
1.20629 1.68503 5.38327
1.19039 1.68823 5.39635
1.16829 1.68206 5.3836
1.16448 1.68942 5.40753
1.14549 1.68946 5.40967
1.12959 1.69265 5.42174
1.10848 1.68647 5.40899
1.09257 1.68965 5.42007
1.07252 1.68657 5.41426
1.05352 1.68557 5.41342
1.03762 1.68877 5.42649
1.02551 1.68358 5.41266
1.01171 1.69097 5.43866
0.991631 1.68684 5.42887
0.974708 1.689 5.43897
0.955685 1.68697 5.43614
0.919747 1.68811 5.44439
0.909685 1.685 5.43651
0.893824 1.69028 5.45456
0.872693 1.68404 5.43781
0.854716 1.6841 5.44094
0.839878 1.69042 5.46196
0.821948 1.69257 5.47107
0.800762 1.68323 5.44736
0.773816 1.68435 5.45455
0.756878 1.68648 5.46265
0.741087 1.69489 5.48965
0.719895 1.68654 5.46493
0.701941 1.68764 5.47105
0.674964 1.68771 5.47425
0.658072 1.69092 5.48833
0.640088 1.69097 5.49046
0.621081 1.69097 5.48961
0.603042 1.68791 5.48479
0.56605 1.68795 5.48607
0.558158 1.69216 5.50007
0.540174 1.6922 5.5022
0.502105 1.6881 5.49355
0.484136 1.68917 5.49767
0.467291 1.69548 5.5177
0.447113 1.68715 5.49498
0.429137 1.68821 5.4981
0.420168 1.68928 5.50215
0.402091 1.68514 5.49234
0.384192 1.68935 5.50542
0.366285 1.69354 5.51749
0.348223 1.69043 5.50967
0.330301 1.69359 5.51976
0.311247 1.6905 5.51295
0.302224 1.68947 5.51004
0.265217 1.68848 5.50933
0.247256 1.69056 5.51443
0.228156 1.68539 5.50165
0.21028 1.69064 5.51771
0.192257 1.6896 5.51486
0.165188 1.68649 5.50611
0.146282 1.69068 5.51819
0.128328 1.69178 5.52431
0.110267 1.68968 5.51648
0.0922289 1.68762 5.51164
0.0821369 1.68445 5.49977
0.0641374 1.68446 5.4999
0.0461147 1.68343 5.49705
0.0360312 1.69529 5.35193
0.0178849 1.68902 5.33316
0.0100163 1.69428 5.35014
-0.0260291 1.69222 5.34444
-0.043974 1.69533 5.35153
-0.06102 1.69326 5.34569
-0.0790195 1.69327 5.34583
-0.0970805 1.69116 5.33799
-0.105995 1.69433 5.34902
-0.124018 1.6943 5.34615
-0.141033 1.69328 5.3443
-0.159055 1.69225 5.34145
-0.176101 1.69118 5.33559
-0.195031 1.69432 5.34469
-0.212107 1.69119 5.33486
-0.22113 1.69015 5.33194
-0.238137 1.69015 5.33107
-0.256214 1.68701 5.32125
-0.274121 1.6912 5.33333
-0.292081 1.69329 5.33843
-0.309219 1.68804 5.32064
-0.328049 1.69538 5.34267
-0.336141 1.69121 5.33079
-0.353179 1.69014 5.32594
-0.37207 1.69536 5.34
-0.388232 1.68907 5.31922
-0.407185 1.69117 5.32533
-0.424207 1.69114 5.32246
-0.441291 1.68799 5.31163
-0.460167 1.69324 5.3277
-0.468221 1.69114 5.32079
-0.484374 1.68485 5.301
-0.504196 1.69321 5.32403
-0.521311 1.689 5.30922
-0.538341 1.68795 5.30536
-0.555386 1.68688 5.29951
-0.574277 1.6921 5.31357
-0.581416 1.68584 5.29572
-0.599446 1.68579 5.29185
-0.619313 1.69206 5.30891
-0.633506 1.6847 5.28412
-0.652482 1.68575 5.28725
-0.672334 1.69305 5.3063
-0.687495 1.68675 5.2855
-0.695564 1.68462 5.27659
-0.714494 1.68777 5.28569
-0.730586 1.6846 5.27386
-0.749515 1.68875 5.28294
-0.765638 1.68453 5.26712
-0.784567 1.68767 5.27622
-0.800644 1.68554 5.26637
-0.809666 1.6845 5.26345
-0.829572 1.68969 5.27553
-0.845664 1.68653 5.26369
-0.864601 1.69066 5.27178
-0.877809 1.68227 5.245
-0.8987 1.68749 5.25908
-0.914768 1.68537 5.25023
-0.924729 1.68745 5.25527
-0.938898 1.68113 5.23347
-0.95975 1.68843 5.25252
-0.973934 1.68209 5.22872
-0.992895 1.68417 5.23383
-1.01183 1.68831 5.24192
-1.02696 1.68406 5.22509
-1.03596 1.68407 5.22516
-1.05588 1.68823 5.23525
-1.0691 1.68083 5.20745
-1.08997 1.6871 5.22452
-1.1041 1.68184 5.2067
-1.1202 1.67866 5.19387
-1.14109 1.6849 5.20893
-1.15619 1.68172 5.19609
-1.16615 1.6848 5.20112
-1.18416 1.68478 5.19926
-1.20118 1.68475 5.19639
-1.22017 1.68678 5.1975
-1.23429 1.68356 5.18265
-1.25522 1.68771 5.19175
-1.27029 1.68558 5.18189
-1.27736 1.68345 5.17298
-1.29732 1.68654 5.17808
-1.31242 1.68335 5.16524
-1.32654 1.67913 5.14941
-1.35035 1.68951 5.17444
-1.36353 1.68217 5.15064
-1.38249 1.68526 5.15574
-1.39344 1.68837 5.16278
-1.40368 1.67992 5.13198
-1.42558 1.68511 5.14407
-1.44066 1.68297 5.13421
-1.45866 1.68397 5.13333
-1.47376 1.68181 5.12147
-1.49371 1.68591 5.12757
-1.50077 1.6838 5.11965
-1.51684 1.68166 5.1098
-1.5368 1.68576 5.11589
-1.5509 1.68257 5.10204
-1.56404 1.67731 5.08422
-1.58887 1.68665 5.10627
-1.60006 1.68029 5.08144
-1.60714 1.67715 5.07154
-1.63002 1.68439 5.08661
-1.64217 1.6791 5.06678
-1.66309 1.68426 5.07686
-1.68209 1.68628 5.07697
-1.69522 1.68203 5.06013
-1.71324 1.683 5.05725
-1.7332 1.68609 5.06236
-1.73732 1.68187 5.04745
-1.7573 1.68493 5.05055
-1.77141 1.68172 5.03571
-1.78745 1.68166 5.03083
-1.80451 1.68155 5.02296
-1.8235 1.68358 5.02407
-1.8376 1.6814 5.01121
-1.84856 1.68348 5.01626
-1.86462 1.68237 5.0084
-1.90065 1.68532 5.00362
-1.91475 1.68214 4.99077
-1.92688 1.6789 4.97391
-1.94276 1.68515 4.98994
-1.95489 1.68191 4.97308
-1.99191 1.68489 4.97031
-2.00796 1.6848 4.96343
-2.01814 1.67845 4.9396
-2.04006 1.68361 4.94969
-2.05221 1.67934 4.93084
-2.06025 1.67827 4.92592
-2.08021 1.68234 4.93001
-2.0953 1.68119 4.91914
-2.10743 1.67695 4.90229
-2.13132 1.68416 4.91537
-2.14543 1.68096 4.90152
-2.16346 1.68292 4.89762
-2.1705 1.68185 4.89269
-2.19146 1.68592 4.89679
-2.20162 1.68062 4.87594
-2.23865 1.68359 4.87218
-2.2498 1.67931 4.85332
-2.26683 1.68027 4.84943
-2.28173 1.68645 4.86146
-2.29288 1.68218 4.8426
-2.30501 1.67792 4.82475
-2.33286 1.68824 4.84481
-2.34499 1.68398 4.82697
-2.38102 1.68795 4.82318
-2.39922 1.68258 4.79739
-2.42314 1.68874 4.80748
-2.43035 1.68135 4.78064
-2.4533 1.68645 4.78674
-2.46934 1.68738 4.78085
-2.47359 1.67791 4.74901
-2.49343 1.68722 4.76903
-2.50851 1.68608 4.75916
-2.52063 1.68285 4.74329
-2.5426 1.68693 4.7474
-2.56161 1.68991 4.7455
-2.56979 1.68358 4.72265
-2.58879 1.68658 4.72175
-2.59584 1.68549 4.71582
-2.60598 1.68122 4.69695
-2.62993 1.68734 4.70405
-2.64599 1.68723 4.69617
-2.65909 1.68503 4.6823
-2.67909 1.68805 4.6824
-2.6981 1.69103 4.6805
-2.70824 1.68677 4.66264
-2.72021 1.68984 4.66668
-2.72938 1.68452 4.64483
-2.74247 1.68335 4.63294
-2.76444 1.68741 4.63605
-2.77952 1.68726 4.62516
-2.79163 1.68506 4.61128
-2.81755 1.69123 4.62139
-2.82164 1.68906 4.60945
-2.83177 1.68581 4.59257
-2.85276 1.68984 4.59367
-2.87179 1.6908 4.5898
-2.87896 1.68648 4.56792
-2.90094 1.69052 4.57002
-2.92094 1.69352 4.56913
-2.92404 1.69033 4.5562
-2.94207 1.69228 4.5523
-2.96109 1.69425 4.54942
-2.97223 1.691 4.53155
-3.08057 1.69639 4.48628
-3.08971 1.69313 4.46839
-3.10577 1.69403 4.4605
-3.12084 1.69389 4.45061
-3.12393 1.69073 4.43968
-3.14691 1.69576 4.44078
-3.16001 1.69459 4.42889
-3.17706 1.6955 4.42201
-3.18126 1.68912 4.39613
-3.20028 1.69109 4.39324
-3.20941 1.68783 4.37536
-3.23031 1.69604 4.3884
-3.23747 1.69073 4.36753
-3.25254 1.69161 4.35863
-3.26959 1.69252 4.35174
-3.28961 1.69549 4.34885
-3.29677 1.69118 4.32796
-3.31284 1.69206 4.31907
-3.32383 1.69408 4.32012
-3.33593 1.69288 4.30623
-3.35299 1.69379 4.29934
-3.36707 1.69364 4.28845
-3.37818 1.69143 4.27356
-3.39722 1.69437 4.26866
-3.41526 1.69629 4.26277
-3.42539 1.69305 4.24589
-3.43144 1.69295 4.23894
-3.44553 1.69279 4.22804
-3.45862 1.69163 4.21616
-3.47567 1.69353 4.20926
-3.4838 1.69027 4.19136
-3.50582 1.69326 4.18949
-3.52385 1.6962 4.18458
-3.52495 1.69301 4.17163
-3.53607 1.69078 4.15575
-3.55411 1.69272 4.15085
-3.56721 1.69253 4.13795
-3.58228 1.6924 4.12807
-3.59736 1.69326 4.11817
-3.61342 1.69415 4.11027
-3.61353 1.69093 4.09532
-3.63257 1.69286 4.08943
-3.64467 1.69167 4.07654
-3.66172 1.69358 4.06964
-3.67085 1.69134 4.05274
-3.68197 1.69012 4.03784
-3.70596 1.69414 4.03796
-3.73006 1.69596 4.02511
-3.73918 1.69373 4.00921
-3.75426 1.69458 3.99831
-3.76934 1.69545 3.98841
-3.81962 1.69592 3.95078
-3.84382 1.69454 3.92398
-3.85691 1.69437 3.91208
-3.87001 1.69419 3.89918
-3.88112 1.69297 3.88428
-3.89015 1.69393 3.88133
-4.05926 1.69585 3.73355
-5.77906 1.68819 0.578188
-5.78318 1.68894 0.561206
-5.79731 1.6917 0.544269
-5.78147 1.68537 0.523241
-5.78653 1.68726 0.51525
-5.79966 1.69002 0.498305
-5.77982 1.68269 0.477262
-5.78396 1.68343 0.459279
-5.79009 1.68417 0.441312
-5.78923 1.68288 0.422322
-5.79337 1.68262 0.404355
-5.80143 1.68551 0.396372
-5.79457 1.68222 0.377366
-5.79671 1.68196 0.359383
-5.80384 1.6827 0.341424
-5.79499 1.67941 0.322403
-5.79912 1.67914 0.304436
-5.79727 1.67786 0.285438
-5.78941 1.67457 0.266425
-5.79947 1.67746 0.258457
-5.80361 1.6782 0.240475
-5.80075 1.67692 0.221469
-5.81188 1.67967 0.20451
-5.81002 1.67739 0.185527
-5.80017 1.6741 0.166499
-5.8013 1.67384 0.148509
-5.79838 1.67169 0.138518
-5.80351 1.67342 0.120528
-5.80978 1.67389 0.0845633
-5.8112 1.67208 0.0295932
-5.82471 1.67111 -0.171318
5.81953 1.66179 -0.315925
5.7621 1.66184 0.292591
5.74499 1.66258 0.409725
5.74312 1.66285 0.427738
5.74533 1.66526 0.455689
5.74175 1.66708 0.510697
5.07188 1.67732 2.38985
5.05797 1.67552 2.40298
5.06616 1.68189 2.42783
5.04724 1.67805 2.43803
5.03735 1.67828 2.45311
5.02847 1.67852 2.46917
5.0175 1.67559 2.4733
4.99054 1.66868 2.4786
4.99973 1.67606 2.50443
4.98081 1.67222 2.51463
4.97193 1.67247 2.5307
4.96505 1.67371 2.54673
4.95416 1.67294 2.56183
4.94319 1.67101 2.56594
4.94435 1.67532 2.58687
4.93045 1.67352 2.6
4.91755 1.67272 2.61311
4.90464 1.67092 2.62624
4.9028 1.67422 2.64621
4.88286 1.67037 2.65541
4.88897 1.67457 2.66931
4.86301 1.66866 2.67459
4.86618 1.674 2.69749
4.8573 1.67423 2.71256
4.84742 1.67448 2.72863
4.83351 1.67266 2.74076
4.82161 1.67188 2.75487
4.83677 1.68016 2.77463
4.80778 1.67222 2.77697
4.80091 1.67347 2.79401
4.79102 1.6737 2.80908
4.78012 1.67392 2.82316
4.77024 1.67415 2.83823
4.76941 1.67747 2.86019
4.75541 1.6745 2.86134
4.75156 1.67678 2.88034
4.75072 1.68109 2.90129
4.71871 1.67212 2.90166
4.71184 1.67437 2.91868
4.71301 1.6787 2.94061
4.68805 1.67279 2.94589
4.68611 1.67492 2.95487
4.69031 1.68029 2.97976
4.66735 1.6754 2.98601
4.66349 1.67868 3.00499
4.65562 1.67994 3.02204
4.64271 1.67913 3.03415
4.63182 1.67934 3.04823
4.61782 1.67537 3.04939
4.60391 1.67455 3.06151
4.59 1.67374 3.07363
4.58816 1.67705 3.0946
4.57525 1.67624 3.10671
4.56538 1.67749 3.12277
4.55347 1.67669 3.13587
4.53756 1.67486 3.14702
4.53562 1.676 3.15602
4.51668 1.67313 3.1642
4.50478 1.67333 3.17729
4.4949 1.67357 3.19336
4.49205 1.67686 3.21234
4.47512 1.67502 3.2225
4.48033 1.68241 3.24935
4.46533 1.67842 3.24952
4.44135 1.67349 3.25278
4.42945 1.6737 3.26687
4.42862 1.67803 3.28881
4.4127 1.67619 3.29896
4.4018 1.6764 3.31304
4.39594 1.67867 3.33105
4.37691 1.67363 3.32727
4.37205 1.67591 3.34628
4.36418 1.67817 3.3633
4.35128 1.67837 3.3764
4.34542 1.68064 3.39441
4.34258 1.68496 3.41537
4.3196 1.68003 3.41962
4.30559 1.67603 3.41879
4.29873 1.6793 3.43679
4.28885 1.67953 3.45186
4.28299 1.68281 3.47086
4.26706 1.68096 3.48001
4.25516 1.68116 3.4931
4.24024 1.68034 3.50423
4.23228 1.67942 3.5093
4.22743 1.68271 3.52929
4.20848 1.67983 3.53648
4.20766 1.68517 3.55941
4.17561 1.67612 3.55478
4.16975 1.67939 3.57278
4.15987 1.68064 3.58884
4.1509 1.6797 3.59292
4.13598 1.67886 3.60305
4.11905 1.67701 3.6122
4.11521 1.68032 3.63319
4.10129 1.68049 3.64429
4.08939 1.6807 3.65738
4.08555 1.68401 3.67836
4.0666 1.68213 3.68553
4.0677 1.68532 3.69848
4.04371 1.68037 3.70073
4.03383 1.68161 3.71679
4.02192 1.6818 3.72888
4.00801 1.68197 3.73998
4.00116 1.68527 3.75999
3.98119 1.68134 3.7642
3.97826 1.68349 3.77419
3.96032 1.68161 3.78135
3.94338 1.67974 3.78951
3.93451 1.682 3.80655
3.92765 1.68529 3.82555
3.90869 1.68237 3.83074
3.89377 1.68155 3.84186
3.89185 1.6837 3.85185
3.87693 1.68287 3.86297
3.86704 1.6841 3.87803
3.85212 1.68426 3.88814
3.83619 1.68342 3.89828
3.81218 1.67742 3.89755
3.81541 1.68586 3.9274
3.80745 1.68494 3.93248
3.78647 1.682 3.93568
3.77054 1.68015 3.94483
3.76571 1.68548 3.96679
3.74371 1.68051 3.96803
3.73181 1.68171 3.9811
3.7179 1.6819 3.9932
3.70489 1.67888 3.99135
3.70006 1.68321 4.01332
3.68513 1.68337 4.02343
3.66213 1.67838 4.02368
3.6573 1.68271 4.04566
3.64338 1.68289 4.05676
3.62139 1.67892 4.05799
3.61645 1.68005 4.06701
3.61364 1.68641 4.09094
3.59164 1.68144 4.09218
3.57874 1.68264 4.10526
3.55876 1.6797 4.10845
3.54485 1.67988 4.11956
3.53093 1.68005 4.13066
3.52812 1.68542 4.15561
3.51409 1.68237 4.15176
3.49614 1.68049 4.15892
3.49132 1.68583 4.18188
3.46326 1.67773 4.17421
3.45035 1.67894 4.18729
3.44148 1.68118 4.20333
3.43755 1.68333 4.21333
3.42364 1.6835 4.22443
3.40973 1.68469 4.23652
3.38368 1.67762 4.23082
3.36775 1.67777 4.23994
3.35888 1.68104 4.25796
3.35305 1.68535 4.27894
3.34205 1.68338 4.28005
3.33319 1.68665 4.29808
3.3122 1.68268 4.29929
3.29222 1.67974 4.30249
3.28538 1.68506 4.32346
3.26135 1.67901 4.31973
3.24946 1.68124 4.33479
3.24565 1.68762 4.35973
3.22858 1.6825 4.35093
3.21871 1.68476 4.36798
3.20379 1.68491 4.37809
3.18076 1.67989 4.37533
3.16381 1.679 4.38248
3.159 1.68436 4.40644
3.13901 1.68141 4.40863
3.12396 1.67731 4.4018
3.12017 1.68473 4.42973
3.10322 1.68383 4.43587
3.08728 1.68296 4.444
3.0764 1.68521 4.46005
3.05438 1.68119 4.45828
3.0344 1.67824 4.46047
3.03857 1.68556 4.48234
3.01554 1.68053 4.47958
2.99859 1.67965 4.48673
2.99379 1.68604 4.51267
2.97482 1.6841 4.51584
2.95685 1.68217 4.52001
2.94597 1.68541 4.53604
2.93901 1.68551 4.5421
2.93017 1.68981 4.5621
2.90815 1.6858 4.56033
2.88917 1.68385 4.5635
2.88235 1.6892 4.58647
2.86641 1.68933 4.59459
2.85147 1.68946 4.60271
2.84553 1.69058 4.61073
2.82758 1.68968 4.61688
2.81163 1.6888 4.62402
2.79164 1.68684 4.6262
2.77974 1.68804 4.63927
2.75873 1.68504 4.63847
2.74584 1.68726 4.65254
2.73584 1.68527 4.65264
2.71991 1.68541 4.66176
2.70598 1.68657 4.67185
2.686 1.68462 4.67403
2.67411 1.68685 4.68909
2.65411 1.68386 4.68929
2.63918 1.68501 4.69838
2.62426 1.68516 4.70849
2.6173 1.68626 4.71453
2.60238 1.68642 4.72464
2.58035 1.68237 4.72087
2.56846 1.6856 4.73591
2.55049 1.68368 4.74008
2.53353 1.68276 4.74522
2.52267 1.68704 4.76324
2.51064 1.684 4.76037
2.49063 1.681 4.75957
2.47672 1.68218 4.77066
2.46383 1.68541 4.78571
2.44992 1.68658 4.7968
2.42482 1.67942 4.78509
2.41295 1.68267 4.80114
2.40803 1.68583 4.81213
2.39208 1.68595 4.81925
2.37311 1.68401 4.82242
2.3592 1.68619 4.83449
2.34223 1.68527 4.83864
2.32426 1.68334 4.8428
2.31035 1.68553 4.85487
2.30033 1.6835 4.85298
2.28746 1.68775 4.86902
2.27151 1.68786 4.87614
2.25761 1.68907 4.88922
2.23759 1.68605 4.88742
2.2186 1.68408 4.88859
2.20267 1.68523 4.8977
2.19571 1.6863 4.90273
2.17976 1.68642 4.90985
2.16281 1.68654 4.91698
2.1438 1.68354 4.91617
2.13093 1.68678 4.93222
2.11192 1.68478 4.93139
2.096 1.68594 4.9415
2.08209 1.68813 4.95357
2.07209 1.68714 4.95366
2.05615 1.68727 4.96178
2.04019 1.68737 4.9679
2.02018 1.68537 4.96708
2.00423 1.68547 4.9732
1.98829 1.6856 4.98132
1.97542 1.68986 4.99835
1.96541 1.68783 4.99646
1.94844 1.68791 5.00059
1.93455 1.69114 5.01565
1.91554 1.68814 5.01483
1.89859 1.68824 5.02096
1.88571 1.69248 5.037
1.8667 1.69048 5.03617
1.85773 1.69054 5.03924
1.84077 1.69062 5.04436
1.82483 1.69075 5.05248
1.80786 1.69082 5.05661
1.79295 1.69301 5.06869
1.77496 1.69205 5.07084
1.75595 1.68904 5.06903
1.73205 1.69126 5.08318
1.71714 1.69344 5.09426
1.69711 1.69039 5.09046
1.52853 1.69333 5.14669
1.51157 1.69343 5.15282
1.49461 1.69352 5.15794
1.45658 1.68949 5.15429
1.42367 1.69069 5.16652
1.41673 1.69281 5.17454
1.38077 1.69191 5.17983
1.34685 1.69308 5.19007
1.32576 1.68794 5.1793
1.30881 1.68804 5.18543
1.28284 1.68812 5.18962
1.26486 1.68716 5.19177
1.25099 1.69142 5.20882
1.21602 1.69051 5.21309
1.179 1.6875 5.21142
1.17312 1.69173 5.2264
1.15617 1.69384 5.2335
1.13711 1.68974 5.2257
1.11705 1.68565 5.21891
1.08419 1.68993 5.2361
1.06826 1.69207 5.24519
1.06032 1.6942 5.25322
1.04128 1.69114 5.24841
1.02429 1.69016 5.24955
1.00839 1.69437 5.26261
0.947478 1.69459 5.27507
0.841602 1.6949 5.29186
0.83361 1.69492 5.29292
0.797625 1.69398 5.29521
0.77961 1.69296 5.29336
0.744688 1.69514 5.30359
0.594789 1.69344 5.31775
0.585812 1.69449 5.3208
0.479875 1.69368 5.32961
0.470875 1.69369 5.32968
0.452844 1.69165 5.32584
0.399884 1.69276 5.33123
0.380807 1.68862 5.32143
0.355924 1.69386 5.33654
0.336869 1.69077 5.32973
