-0.550866 1.15802 15.9139
-0.657158 1.16648 16.0076
-0.709868 1.17008 16.046
-0.763571 1.17369 16.0853
-0.898703 1.18448 16.2002
-1.75338 1.25145 16.9048
-1.81209 1.25604 16.9421
-1.87272 1.26081 16.9915
3.4098 0.900807 12.6895
3.3551 0.903439 12.7299
3.31933 0.905909 12.7601
3.24575 0.908777 12.8156
3.21206 0.912408 12.8568
3.17322 0.913747 12.8781
3.15533 0.913983 12.8932
3.11856 0.916439 12.9225
3.08078 0.917895 12.9517
3.04397 0.920307 12.978
3.00722 0.921822 13.0112
2.91689 0.928176 13.0988
2.87913 0.930677 13.1311
2.84133 0.932089 13.1574
2.80253 0.934517 13.1846
2.76271 0.935901 13.2089
2.72495 0.938388 13.2402
2.68821 0.940918 13.2744
2.6316 0.943714 13.3258
2.59284 0.946216 13.358
2.51424 0.950058 13.4116
2.41686 0.956327 13.4932
2.38019 0.958991 13.5365
2.33938 0.96139 13.5618
2.29962 0.963893 13.594
2.26089 0.966454 13.6303
2.16149 0.971681 13.709
2.1207 0.974125 13.7372
2.07996 0.976658 13.7715
2.04025 0.979249 13.8098
1.99946 0.981693 13.8381
1.95974 0.98427 13.8753
1.91694 0.986686 13.9016
1.8971 0.988011 13.9227
1.85743 0.991677 13.966
1.81563 0.994107 13.9933
1.77385 0.995566 14.0226
1.69035 1.0006 14.0891
1.62779 1.00549 14.1465
1.58503 1.008 14.1788
1.54227 1.01049 14.2101
1.45779 1.01656 14.2787
1.41403 1.01906 14.311
1.34944 1.02291 14.3654
1.30669 1.02543 14.3987
1.26296 1.02899 14.435
1.13076 1.03763 14.5399
1.02048 1.04511 14.6356
0.975798 1.04877 14.6779
0.885324 1.05485 14.7475
0.725321 1.06591 14.8796
0.632838 1.07098 14.9482
0.422201 1.08679 15.1286
0.374468 1.09034 15.1639
0.326765 1.09395 15.2032
1.54937 1.19045 14.2064
1.56629 1.27516 14.187
5.58074 1.70074 10.2029
5.56208 1.70642 10.248
5.5353 1.70886 10.2772
5.51228 1.70684 10.2744
5.50071 1.71469 10.3313
5.48917 1.7226 10.3923
5.07799 1.70473 9.57357
5.06336 1.71146 9.62259
5.03451 1.71277 9.64179
5.00058 1.71194 9.65206
4.96972 1.71223 9.67029
6.02393 1.68332 8.23458
6.01526 1.68897 8.27857
6.01368 1.69779 8.33346
5.98682 1.69807 8.35166
5.9711 1.70163 8.38873
5.94019 1.70083 8.40098
5.91311 1.6967 8.39124
5.88423 1.69696 8.40745
5.83816 1.69086 8.39889
5.80422 1.68901 8.40718
5.77028 1.68715 8.41546
5.7495 1.68958 8.44358
5.0406 1.69417 8.85891
5.01578 1.69653 8.88207
4.99298 1.69894 8.90921
4.96613 1.70024 8.92839
4.95016 1.69931 8.93253
4.9223 1.70062 8.95172
4.89849 1.70199 8.97588
4.87772 1.70546 9.00699
4.85189 1.70781 9.02916
4.82707 1.70918 9.05333
4.80326 1.71157 9.07847
4.7934 1.71384 9.09652
4.63275 1.70965 9.1448
4.58458 1.70235 9.12226
4.56151 1.69923 9.11348
5.71999 1.68275 7.84582
5.70625 1.68626 7.87988
5.69252 1.6908 7.91592
5.67981 1.69536 7.95296
5.66709 1.70092 7.98997
5.64527 1.70229 8.01412
5.62222 1.69921 8.00834
5.59737 1.69951 8.02752
5.55734 1.69548 8.02389
5.52338 1.6926 8.03019
5.48942 1.6907 8.03547
5.45646 1.68781 8.04176
5.42655 1.68701 8.054
5.41361 1.68714 8.0621
5.3837 1.68634 8.07434
5.3548 1.68554 8.08657
5.32893 1.68682 8.10475
5.27416 1.68631 8.13517
5.23434 1.68669 8.15947
5.13492 1.68989 8.23618
5.10399 1.68904 8.24543
5.08015 1.69037 8.26659
5.06621 1.6905 8.27469
5.04237 1.69183 8.29586
5.01143 1.69098 8.30511
4.99368 1.69447 8.33719
4.96376 1.69366 8.34843
4.93384 1.69283 8.35867
4.90999 1.69414 8.37883
4.89909 1.69534 8.3919
4.87323 1.69664 8.41108
4.84837 1.69692 8.42926
4.82048 1.69717 8.44447
4.79361 1.69844 8.46166
4.77079 1.70079 8.4848
4.74391 1.70107 8.502
4.73402 1.70228 8.51606
4.70917 1.70359 8.53623
4.67926 1.70378 8.54745
4.65339 1.70406 8.56564
4.62449 1.70428 8.57886
4.59862 1.70555 8.59604
4.57377 1.70686 8.61621
4.55096 1.70925 8.64135
4.53905 1.71044 8.65342
4.51318 1.71171 8.6706
4.49039 1.71412 8.69774
4.26903 1.71253 8.78344
4.233 1.70851 8.78078
4.20511 1.70974 8.79497
4.16603 1.70462 8.78534
4.14394 1.70146 8.77355
4.11402 1.70063 8.78379
4.079 1.69762 8.7821
4.02118 1.69801 8.80553
5.47477 1.68154 7.55165
5.46182 1.68165 7.55875
5.45414 1.68727 7.59973
5.41208 1.68219 7.59312
5.39934 1.68671 7.62715
5.34352 1.6841 7.65161
5.29762 1.68233 7.66499
5.24888 1.68288 7.70035
5.20016 1.68445 7.7367
5.10955 1.68429 7.78939
5.06183 1.68587 7.82673
5.00803 1.68529 7.85315
4.97123 1.68672 7.88041
4.92048 1.68723 7.91279
4.87377 1.68984 7.95211
4.84789 1.69008 7.9673
4.81289 1.68711 7.96761
4.80118 1.69269 8.00662
4.79229 1.69391 8.02067
4.75728 1.69092 8.01998
4.74256 1.69546 8.05603
4.69944 1.68927 8.04144
4.69078 1.69694 8.0864
4.65983 1.69506 8.09266
4.65906 1.7005 8.12259
4.62202 1.69645 8.11793
4.61034 1.70308 8.15993
4.5804 1.70122 8.16818
4.5596 1.70462 8.19429
4.53269 1.70382 8.20651
4.51595 1.70834 8.24057
4.47382 1.70213 8.22498
4.47611 1.70969 8.26285
4.42233 1.71014 8.29126
4.39136 1.70824 8.29652
4.34266 1.71085 8.33585
4.30384 1.71224 8.36013
3.95801 1.71377 8.51673
3.93592 1.70961 8.50496
3.90903 1.71084 8.51915
3.86788 1.70459 8.50054
3.84506 1.70694 8.52369
3.81205 1.70395 8.52298
3.77702 1.70092 8.51929
3.64324 1.69745 8.54935
5.67567 1.67337 6.87316
5.63397 1.67499 6.91346
5.58924 1.67656 6.94978
5.57059 1.68225 6.99584
5.53863 1.67835 7.00114
5.52182 1.68073 7.02623
5.50098 1.68206 7.04737
5.47912 1.68334 7.06552
5.4613 1.68472 7.09064
5.45038 1.68588 7.10071
5.42246 1.68406 7.11195
5.40565 1.68644 7.13704
5.39087 1.68988 7.1661
5.36194 1.68804 7.17535
5.33807 1.68831 7.19253
5.30105 1.68429 7.18987
5.29821 1.6876 7.21084
5.27634 1.68789 7.22901
5.25449 1.6892 7.24915
5.22758 1.68838 7.26037
5.20775 1.68974 7.2835
5.17881 1.68788 7.29175
5.1519 1.68706 7.30297
5.14198 1.68823 7.31402
5.1181 1.68848 7.3302
5.08714 1.68659 7.33647
5.06428 1.68688 7.35464
5.05051 1.69133 7.38468
5.0155 1.68734 7.384
4.99871 1.68975 7.4111
4.9969 1.69413 7.43605
4.95885 1.68906 7.43041
4.93598 1.69033 7.44756
4.91919 1.69376 7.47564
4.89024 1.69188 7.48289
4.86637 1.69215 7.50007
4.84958 1.69557 7.52715
4.83056 1.69353 7.52432
4.81378 1.69698 7.5534
4.78887 1.69619 7.5666
4.76196 1.69537 7.57782
4.73606 1.69558 7.59101
4.72232 1.70009 7.62505
4.69135 1.69818 7.62932
4.68245 1.69939 7.64337
4.6687 1.70489 7.67639
4.64078 1.70406 7.68662
4.61589 1.70428 7.7008
4.59304 1.70559 7.72096
4.55801 1.70158 7.71828
4.53717 1.7029 7.73942
4.52929 1.70513 7.75445
4.50136 1.70428 7.76368
4.4785 1.70558 7.78283
4.40181 1.70624 7.8244
3.57777 1.71262 8.22057
3.54881 1.71171 8.22581
3.51986 1.71082 8.23204
3.48785 1.70883 8.23131
3.46674 1.70464 8.21753
3.43369 1.70058 8.21184
3.40169 1.69859 8.21111
3.37374 1.69771 8.21833
3.34885 1.69894 8.2325
3.3199 1.69806 8.23973
3.29094 1.69716 8.24497
-1.86898 1.72875 8.27238
-1.90373 1.73724 8.30452
-1.93369 1.74034 8.3097
-1.96169 1.74136 8.30989
-1.98778 1.7402 8.29811
-2.00178 1.74121 8.2982
-2.02692 1.73796 8.28043
-2.05395 1.73892 8.27662
-2.07519 1.73247 8.24487
-2.09933 1.73022 8.22708
-2.12346 1.72797 8.2093
-2.1505 1.72792 8.2045
-2.16255 1.72682 8.19761
-2.1896 1.72775 8.1918
-2.21469 1.72559 8.18001
5.10916 1.67478 6.67438
5.06338 1.67525 6.70473
5.06053 1.67854 6.7237
5.03157 1.67565 6.72996
5.01575 1.67801 6.75405
4.99287 1.67825 6.76922
4.9811 1.6827 6.79925
4.96023 1.68297 6.8164
4.93735 1.68322 6.83257
4.9264 1.68334 6.83966
4.90654 1.68463 6.85879
4.88972 1.68698 6.88188
4.86785 1.68825 6.89903
4.83485 1.68428 6.89934
4.81904 1.68666 6.92443
4.78907 1.68374 6.9287
4.78217 1.68595 6.94272
4.76333 1.68828 6.96383
4.73539 1.6864 6.97107
4.71452 1.68668 6.98922
4.69264 1.68794 7.00537
4.66773 1.68712 7.01657
4.64788 1.68843 7.03671
4.64099 1.69065 7.05173
4.61608 1.69083 7.06291
4.59318 1.69106 7.07709
4.57233 1.69237 7.09723
4.54742 1.69155 7.10843
4.52655 1.69282 7.12557
4.50468 1.69409 7.14272
4.49374 1.69423 7.1518
4.46883 1.69341 7.163
4.451 1.69676 7.18609
4.42811 1.69698 7.20026
4.40016 1.69511 7.2075
4.37627 1.69533 7.22168
4.36453 1.70085 7.25569
4.34266 1.70211 7.27284
4.33375 1.7033 7.28489
4.30274 1.70031 7.28416
4.28088 1.7016 7.30331
4.23916 1.70417 7.33959
4.21222 1.7033 7.34781
3.29851 1.7114 7.78864
3.27362 1.71262 7.80281
3.23951 1.70644 7.78915
3.20952 1.70448 7.79041
3.1945 1.70346 7.78854
3.16551 1.70149 7.78978
3.14264 1.70276 7.80694
3.11059 1.69968 7.80023
3.07953 1.6956 7.79352
3.05258 1.69471 7.79974
-1.17461 1.73506 8.05202
-1.2016 1.73711 8.05419
-1.21461 1.73709 8.05229
-1.23969 1.73496 8.04251
-1.26573 1.73489 8.03671
-1.29178 1.73482 8.0309
-1.31974 1.73691 8.03609
-1.34674 1.73691 8.03529
-1.37085 1.73473 8.0215
-1.38579 1.73685 8.02958
-1.41276 1.73892 8.03275
-1.43882 1.73883 8.02595
-1.46389 1.7367 8.01617
-1.49091 1.73768 8.01336
-2.11878 1.74139 7.90002
-2.1699 1.74119 7.88441
-2.19789 1.74222 7.8856
-2.22199 1.74105 7.8728
-2.24801 1.74202 7.86998
-2.26106 1.74094 7.86409
-2.28417 1.73974 7.84928
-2.31021 1.73968 7.84448
-2.33625 1.74061 7.83866
-2.35938 1.73738 7.82188
-2.38641 1.73834 7.81807
-2.41244 1.7393 7.81425
-2.42352 1.73714 7.80337
-2.44761 1.73698 7.79155
-2.47071 1.73481 7.77875
-2.49774 1.73577 7.77494
-2.5189 1.73246 7.75315
-2.54786 1.73555 7.75832
-2.57295 1.73439 7.74652
-2.58302 1.73327 7.73761
-2.61103 1.73527 7.7368
-2.63218 1.73199 7.717
-2.65432 1.72974 7.6992
-2.67742 1.72855 7.68539
-2.70738 1.73165 7.69057
-2.73343 1.73156 7.68377
-2.7585 1.73145 7.67495
-2.76956 1.73034 7.66705
-2.79364 1.73019 7.65624
-2.81969 1.73011 7.64943
-2.84476 1.72999 7.64062
-2.87081 1.73092 7.6348
-2.89587 1.73081 7.62599
-2.92387 1.73283 7.62617
-2.92905 1.72849 7.60327
-2.9502 1.72621 7.58346
-2.97919 1.72825 7.58465
-2.99837 1.72491 7.56084
-3.02343 1.72481 7.55303
-3.05046 1.72577 7.54922
6.02174 1.66464 5.42049
6.00087 1.66391 5.43765
5.983 1.66419 5.45579
5.96616 1.6655 5.4759
5.9352 1.66161 5.48219
5.92137 1.66296 5.50528
5.90856 1.66533 5.52934
5.89056 1.66235 5.53052
5.8498 1.66186 5.56284
5.82993 1.66212 5.57999
5.82014 1.66453 5.60703
5.80127 1.66481 5.62517
5.78241 1.66509 5.64331
5.77247 1.66522 5.65139
5.7307 1.66371 5.68273
5.53111 1.66761 5.8702
5.51814 1.66668 5.87431
5.51341 1.6722 5.90927
5.49051 1.67041 5.92247
5.46559 1.66959 5.93367
5.44268 1.66778 5.94587
5.4208 1.66803 5.96204
5.41605 1.67353 5.995
5.40208 1.6716 5.99913
5.39433 1.67707 6.03111
5.37142 1.67527 6.04331
5.35357 1.67658 6.06343
5.32057 1.67262 6.06474
5.32089 1.68022 6.10563
5.31414 1.68472 6.13862
5.29916 1.68377 6.14175
5.2803 1.68405 6.15989
5.26446 1.68639 6.18197
5.24358 1.68563 6.19714
5.2227 1.68588 6.2133
5.18699 1.68848 6.25254
5.17403 1.68757 6.25765
5.13126 1.68804 6.28797
5.11139 1.68832 6.30611
2.75695 1.70868 7.58273
2.73887 1.70455 7.57292
2.71903 1.70787 7.59403
2.69204 1.70691 7.59524
2.66711 1.70707 7.60543
2.64113 1.70612 7.60764
2.61005 1.702 7.59794
2.58204 1.7 7.59718
2.5752 1.7033 7.61718
2.54207 1.69809 7.60151
2.51917 1.6993 7.61466
2.49422 1.69941 7.62085
2.46518 1.69635 7.61611
2.44025 1.6965 7.6253
2.41632 1.69765 7.63446
-0.674903 1.72024 7.74743
-0.699948 1.71917 7.74164
-0.725863 1.72235 7.75279
-0.739785 1.72551 7.76285
-0.765723 1.72764 7.77101
-0.792653 1.72979 7.78018
-0.818598 1.73292 7.78733
-0.845535 1.73505 7.79551
-1.83365 1.73852 7.65088
-1.85866 1.73851 7.64907
-1.88372 1.73841 7.64126
-1.90875 1.73837 7.63745
-1.91982 1.73725 7.62854
-1.94487 1.73717 7.62273
-1.96894 1.73604 7.61293
-1.99302 1.73491 7.60313
-2.01805 1.73586 7.5983
-2.04504 1.73789 7.59947
-2.06621 1.73358 7.57769
-2.0831 1.7378 7.59176
-2.10328 1.73346 7.56797
-2.12734 1.73338 7.56116
-2.1514 1.73327 7.55334
-2.17744 1.7332 7.54753
-2.19956 1.73098 7.53173
-2.22556 1.733 7.5319
-2.24963 1.73189 7.52309
-2.26166 1.73182 7.51818
-2.28379 1.72959 7.50138
-2.30589 1.72741 7.48858
-2.32996 1.72729 7.47976
-2.35404 1.72615 7.46896
-2.37809 1.72608 7.46314
-2.4051 1.72807 7.46131
-2.41616 1.72696 7.45341
-2.44022 1.72686 7.44559
-2.46622 1.72887 7.44576
-2.48738 1.72558 7.42496
-2.51144 1.72548 7.41715
-2.53648 1.72541 7.41134
-2.55663 1.72213 7.39153
-2.57062 1.72417 7.39361
-2.59371 1.72301 7.3818
6.03172 1.66768 5.01831
6.01083 1.66692 5.03348
6.00391 1.66809 5.04452
5.99108 1.66942 5.0666
5.9712 1.66868 5.08276
5.94729 1.66687 5.09497
5.93043 1.66716 5.11409
5.9035 1.66432 5.12334
5.88664 1.6646 5.14146
5.87872 1.66477 5.15252
5.85783 1.66399 5.16669
5.85205 1.66742 5.19569
5.83015 1.66664 5.20987
5.80624 1.66484 5.22208
5.79845 1.66824 5.24909
5.77554 1.66645 5.26229
5.76057 1.66552 5.26642
5.74472 1.66582 5.28554
5.72988 1.66714 5.30663
5.70697 1.66533 5.31883
5.68608 1.66457 5.334
5.6672 1.66482 5.35014
5.64228 1.663 5.36136
5.64746 1.66734 5.38426
5.62355 1.66553 5.39647
5.60064 1.66373 5.40867
5.57874 1.66294 5.42185
5.53998 1.66244 5.45415
5.52111 1.66271 5.47129
5.46159 1.6657 5.53571
5.40598 1.66649 5.58712
5.40006 1.66666 5.59816
5.37716 1.66587 5.61135
5.36433 1.6682 5.63341
5.3384 1.66637 5.64364
5.32356 1.66769 5.66473
5.3198 1.67317 5.69668
5.28379 1.66717 5.69504
5.27212 1.67382 5.73904
5.25324 1.67408 5.75518
5.22427 1.67016 5.75946
5.22659 1.67878 5.80132
5.19762 1.67486 5.8056
5.18178 1.67718 5.82668
5.16477 1.67418 5.82586
5.15499 1.6776 5.85388
5.1462 1.68202 5.88189
5.13439 1.6854 5.90693
5.1135 1.68463 5.9221
5.09463 1.6859 5.93923
5.06581 1.68628 5.96344
5.04593 1.68653 5.97959
5.03009 1.68784 5.99969
5.00112 1.68493 6.00495
4.98628 1.68725 6.02603
4.94956 1.68881 6.06229
4.93759 1.68789 6.0674
4.92275 1.69022 6.08848
4.89984 1.68941 6.10066
4.883 1.69072 6.12077
2.60012 1.7112 7.34084
2.58712 1.7102 7.34095
2.56522 1.71141 7.3541
2.53312 1.70623 7.34042
2.50609 1.70421 7.33765
2.48215 1.70433 7.34483
2.45515 1.70235 7.34506
2.42711 1.69929 7.34032
2.40625 1.70159 7.35944
2.39119 1.69948 7.35159
2.36929 1.70069 7.36474
2.34536 1.70184 7.3739
2.29133 1.69682 7.37038
2.26943 1.69904 7.38452
2.24139 1.69598 7.37877
-0.322984 1.71791 7.46978
-0.348845 1.72219 7.48791
-0.372928 1.72005 7.47712
-0.383974 1.71897 7.47122
-0.409019 1.7179 7.46543
-0.433895 1.72215 7.48155
-0.458841 1.72427 7.48871
-0.48474 1.72748 7.50186
-0.508793 1.7264 7.49506
-0.532838 1.72533 7.48925
-0.545784 1.72744 7.49632
-0.56799 1.72106 7.46958
-0.592989 1.72207 7.46975
-0.618888 1.72529 7.4829
-0.642872 1.72633 7.48507
-0.66974 1.7316 7.50219
-0.69377 1.73056 7.49839
-0.718784 1.73055 7.49658
-0.730783 1.73156 7.49665
-0.80385 1.73048 7.48822
-1.73278 1.73626 7.36711
-1.77991 1.73504 7.35048
-1.80397 1.73494 7.34267
-1.82508 1.73173 7.32787
-1.85301 1.73589 7.33702
-1.86018 1.73057 7.31515
-1.88327 1.72941 7.30334
-1.91214 1.73468 7.32048
-1.93425 1.73349 7.30666
-1.95635 1.7313 7.29286
-1.98428 1.73445 7.30203
-2.00249 1.72906 7.27524
-2.01451 1.72903 7.27233
-2.04537 1.73532 7.29047
-2.0587 1.72669 7.24769
-2.08372 1.72766 7.24487
-2.11066 1.73079 7.25203
-2.1279 1.72434 7.22125
-2.1539 1.72636 7.22141
-2.16884 1.72849 7.2295
-2.18703 1.72412 7.20369
-2.21009 1.72403 7.19687
-2.23705 1.72711 7.20103
-2.25721 1.72383 7.18122
-2.28124 1.72379 7.1774
-2.3043 1.72367 7.16858
-2.31144 1.71941 7.15069
-2.33743 1.72244 7.15184
-2.36245 1.72342 7.14902
-2.38161 1.71912 7.12822
-2.40469 1.71899 7.1184
-2.43165 1.72207 7.12256
-2.48979 1.72184 7.10499
-2.50895 1.71855 7.08418
-2.5629 1.72367 7.09052
-5.81907 1.721 5.08581
-5.85732 1.72154 5.05309
-5.87942 1.72336 5.04022
-5.90252 1.72517 5.02637
-5.92363 1.72596 5.01151
-5.93679 1.72466 4.99063
-5.94586 1.72453 4.9817
6.01634 1.66306 4.57043
6.00753 1.66542 4.59447
5.99959 1.66556 4.60353
5.98574 1.66587 4.62363
5.95982 1.66303 4.63387
5.95502 1.66644 4.66086
5.92709 1.66259 4.67013
5.91626 1.66493 4.69217
5.91752 1.67043 4.72609
5.89851 1.66743 4.72528
5.89674 1.67189 4.75623
5.87183 1.66907 4.76746
5.85898 1.67039 4.78854
5.8401 1.66962 4.80369
5.83028 1.67199 4.82774
5.80132 1.6681 4.83401
5.79138 1.66822 4.84209
5.79365 1.67474 4.87698
5.76066 1.66879 4.87932
5.73876 1.667 4.89251
5.72491 1.66831 4.9126
5.70301 1.66652 4.92579
5.68715 1.66781 4.94489
5.68526 1.67002 4.95888
5.65127 1.66407 4.96122
5.63743 1.66538 4.98131
5.63365 1.66983 5.01128
5.60066 1.66486 5.0126
5.58581 1.66617 5.03269
5.58305 1.67063 5.06365
5.55799 1.66555 5.05692
5.54414 1.66685 5.077
5.52828 1.66713 5.09512
5.50637 1.66533 5.10731
5.48547 1.66453 5.12049
5.47667 1.66792 5.1465
5.44972 1.66505 5.15375
5.44682 1.66626 5.16776
5.42794 1.66651 5.1839
5.39696 1.66156 5.1862
5.38211 1.66287 5.2063
5.36927 1.66519 5.22737
5.34534 1.66235 5.23759
5.32746 1.6626 5.25372
5.32559 1.66584 5.26969
5.30165 1.66299 5.27891
5.2868 1.66428 5.29801
5.26993 1.66556 5.31612
5.23318 1.66506 5.34841
5.2173 1.66633 5.36551
5.20636 1.66544 5.37261
5.18142 1.66358 5.38083
5.17565 1.66802 5.41081
5.14667 1.66409 5.41408
5.13485 1.66645 5.43814
5.12503 1.66982 5.46217
5.10918 1.67111 5.48127
5.09721 1.67019 5.48638
5.08337 1.67151 5.50746
5.05742 1.66962 5.51369
5.03652 1.66883 5.52686
5.03277 1.67433 5.56081
5.01186 1.67353 5.57298
4.99703 1.67585 5.59406
4.99125 1.6803 5.62404
4.97929 1.67938 5.62915
4.97656 1.6859 5.66408
4.93172 1.68326 5.68646
4.91788 1.68558 5.70753
4.88501 1.68385 5.72481
4.85128 1.68641 5.76103
4.80847 1.6848 5.78538
4.77272 1.68631 5.81863
4.74792 1.68873 5.84578
4.69027 1.68945 5.89221
4.23069 1.69451 6.21465
4.10626 1.69573 6.29158
4.05247 1.69518 6.31999
2.28053 1.71027 7.13023
2.25039 1.70403 7.11255
2.22645 1.70415 7.11973
2.20554 1.70634 7.13185
2.17131 1.69593 7.10226
2.15831 1.69595 7.10336
2.13639 1.69711 7.11351
2.1114 1.69615 7.11471
2.08744 1.69524 7.11991
2.06654 1.69746 7.13403
1.96178 1.699 7.1658
1.93676 1.69697 7.16302
1.91382 1.6971 7.17119
1.86589 1.69727 7.18055
0.201793 1.70913 7.43895
-0.0436205 1.72449 7.25055
-0.115595 1.72559 7.25407
-0.127549 1.72668 7.26015
-1.82802 1.73293 7.07084
-1.88514 1.73272 7.05427
-1.9322 1.73364 7.04661
-1.95721 1.73464 7.04578
-1.97637 1.73034 7.02499
-1.99454 1.72602 7.00219
-2.00947 1.72917 7.01225
-2.03446 1.73121 7.01341
-2.05557 1.729 6.9986
-2.07765 1.72787 6.98878
-2.10458 1.73201 6.99693
-2.11983 1.72553 6.96413
-2.14581 1.72759 6.9673
-2.15489 1.72544 6.9564
-2.18086 1.72851 6.96055
-2.19806 1.72314 6.93475
-2.22596 1.72834 6.94689
-2.24318 1.72294 6.91909
-2.26913 1.72605 6.92524
-2.29121 1.7249 6.91443
-2.30224 1.72485 6.91051
-2.32139 1.72157 6.8907
-2.34444 1.72149 6.88487
-2.36552 1.72035 6.87405
-2.38955 1.7213 6.87021
-2.41258 1.72226 6.86637
-2.43465 1.72213 6.85654
-2.43982 1.71681 6.83465
-2.4658 1.71987 6.83781
-2.48494 1.7166 6.819
-2.51092 1.71967 6.82215
-2.53005 1.71743 6.80532
-2.55407 1.7184 6.80249
-2.57515 1.71726 6.79166
-2.58717 1.71722 6.78875
-2.60925 1.71709 6.77892
-2.63131 1.71698 6.77109
-2.65337 1.71687 6.76225
-4.48935 1.71937 5.84192
-4.59988 1.7204 5.77173
-4.61702 1.71915 5.75387
-4.66414 1.72293 5.73717
-5.32534 1.71812 5.18215
-5.34743 1.71994 5.16928
-5.36159 1.71866 5.14941
-5.38962 1.7216 5.14457
-5.40676 1.72135 5.1267
-5.41694 1.719 5.10281
-5.43902 1.72085 5.09195
-5.45006 1.72177 5.08602
-5.47414 1.72363 5.07517
-5.48829 1.72234 5.05529
-5.5084 1.72315 5.04143
-5.51957 1.72082 5.01855
-5.5496 1.72578 5.0147
-5.56474 1.72551 4.99581
-5.57877 1.72646 4.99191
-5.59689 1.72723 4.97603
-5.62097 1.72909 4.96518
-5.63611 1.72882 4.9463
-5.66119 1.73169 4.93644
-5.67533 1.73042 4.91756
-5.68949 1.72912 4.89669
-5.71145 1.73419 4.90078
-5.71468 1.72975 4.87086
-5.73678 1.73157 4.858
-5.77079 1.73657 4.85618
-5.78395 1.73527 4.8353
-5.80406 1.73706 4.82042
-5.8192 1.73579 4.80155
-5.83236 1.73449 4.78067
5.48136 1.67637 4.8393
5.45453 1.67573 4.86252
5.39206 1.67782 4.93297
5.34333 1.67637 4.96836
5.33249 1.6787 4.99041
5.3126 1.67792 5.00457
5.29774 1.6782 5.02268
5.25491 1.67557 5.04605
5.25706 1.67987 5.06597
5.23716 1.67908 5.07913
5.22432 1.6804 5.10021
5.19534 1.67646 5.10349
5.19056 1.68089 5.13247
5.16158 1.67696 5.13574
5.13967 1.67515 5.14794
5.13591 1.68062 5.17889
5.12595 1.68071 5.18496
5.10908 1.68096 5.20109
5.0932 1.68122 5.21821
5.07734 1.6825 5.23631
5.05744 1.68171 5.24947
5.04359 1.68301 5.26956
5.01576 1.68336 5.29177
1.80554 1.71163 6.99977
1.73254 1.7087 7.00136
1.72259 1.7098 7.00742
1.69759 1.70782 7.00764
1.67358 1.70682 7.00684
1.64547 1.70162 6.99212
1.62351 1.70172 6.99829
1.60366 1.70502 7.01739
1.5745 1.69875 6.9977
1.5656 1.70193 7.00972
1.53953 1.69782 7.00098
1.51968 1.70213 7.02107
1.49776 1.70429 7.0312
1.47584 1.70545 7.04135
1.45286 1.70451 7.04454
1.43198 1.70777 7.06065
1.41893 1.70569 7.05478
1.39701 1.70785 7.06491
1.37406 1.70796 7.07109
1.35007 1.70699 7.07228
1.32708 1.70704 7.07445
1.30518 1.70924 7.08759
1.28117 1.70823 7.08578
1.26814 1.7062 7.08291
1.24829 1.71049 7.102
1.22324 1.70842 7.09622
1.19818 1.70532 7.08845
1.17627 1.7075 7.09959
1.1502 1.7044 7.09183
1.12826 1.70552 7.09898
1.12045 1.7119 7.12395
1.09123 1.70349 7.09529
1.07138 1.7078 7.11537
1.04845 1.70895 7.12453
1.02444 1.70794 7.12273
1.00041 1.70591 7.11994
0.976376 1.70485 7.11513
0.966521 1.70914 7.13415
0.939337 1.70181 7.11046
0.919552 1.70824 7.13851
0.896568 1.70828 7.14069
0.875799 1.71574 7.17074
0.852799 1.71476 7.17093
0.828853 1.71588 7.17809
0.816799 1.71378 7.17121
0.793853 1.7149 7.17837
0.769854 1.71492 7.17855
0.746916 1.71606 7.18671
0.722901 1.71504 7.1849
0.699947 1.71615 7.19106
0.675963 1.7162 7.19324
0.652979 1.71624 7.19541
0.639848 1.712 7.17857
0.616911 1.71414 7.18671
0.595088 1.71949 7.2098
0.569995 1.71533 7.19805
0.545965 1.71429 7.19425
0.524142 1.71965 7.21734
0.500112 1.71861 7.21353
0.488051 1.7165 7.20565
0.465152 1.71971 7.21878
0.441152 1.71872 7.21898
0.418191 1.71981 7.22413
0.394245 1.72193 7.23128
0.371314 1.72308 7.24044
0.347262 1.722 7.23364
0.335308 1.7231 7.23971
0.311255 1.72101 7.23292
0.287217 1.71995 7.22812
0.264309 1.72215 7.24026
0.240179 1.71791 7.2235
0.217326 1.72221 7.24261
0.157358 1.72331 7.24705
-0.836163 1.72702 6.91543
-0.859169 1.72702 6.91461
-0.879322 1.72274 6.89482
-0.903259 1.72587 6.90295
-0.927205 1.72799 6.9101
-0.968471 1.72051 6.87552
-1.00632 1.72683 6.89572
-1.04944 1.72462 6.88007
-1.07437 1.72776 6.88821
-1.09355 1.72243 6.86543
-1.1175 1.72454 6.87158
-1.12758 1.7234 6.86168
-1.15058 1.72442 6.86183
-1.16975 1.71909 6.83905
-1.19948 1.72863 6.87414
-1.21577 1.72009 6.83739
-1.24165 1.72533 6.8525
-1.26178 1.7221 6.8357
-1.27375 1.72317 6.83978
-1.29485 1.72097 6.82597
-1.32072 1.72624 6.84309
-1.33896 1.7188 6.81233
-1.36196 1.7198 6.81149
-1.38206 1.71764 6.79967
-1.40605 1.71967 6.80082
-1.41708 1.71862 6.79692
-1.44008 1.71962 6.79608
-1.46212 1.71956 6.79124
-1.48416 1.71949 6.78541
-1.50525 1.71734 6.7746
-1.5263 1.71725 6.76776
-1.54932 1.71723 6.76493
-1.57039 1.71611 6.7561
-1.5814 1.71609 6.75419
-1.60444 1.71603 6.74936
-1.62742 1.71808 6.7515
-1.64852 1.7159 6.73869
-1.66861 1.71475 6.72786
-1.69454 1.71789 6.73601
-1.71367 1.71465 6.7192
-1.72276 1.71248 6.7073
-1.74866 1.71769 6.72042
-1.76585 1.71235 6.69662
-1.79276 1.71653 6.70777
-1.8148 1.71646 6.70193
-1.83393 1.71322 6.68512
-1.86895 1.71522 6.68336
-1.91204 1.71507 6.67168
-1.93118 1.7118 6.65287
-1.95417 1.71383 6.65402
-1.99924 1.71473 6.64534
-2.05435 1.71455 6.63076
-2.07445 1.71236 6.61694
-2.09746 1.71436 6.61608
-5.35184 1.71425 4.71734
-5.37094 1.71506 4.70347
-5.38695 1.71805 4.70255
-5.40927 1.71445 4.66076
-5.43235 1.7173 4.64989
-5.46237 1.72226 4.64604
-5.46956 1.7189 4.62114
-5.50654 1.72596 4.62332
-5.50479 1.71947 4.5904
-5.5208 1.72246 4.58947
-5.5409 1.72427 4.5756
-5.55007 1.72195 4.5537
-5.57713 1.72585 4.54584
-5.59822 1.72669 4.53399
-5.61634 1.72747 4.51811
-5.62948 1.72719 4.49921
-5.67056 1.73305 4.48743
-5.68271 1.73176 4.46754
-5.70503 1.72815 4.42575
-5.73407 1.73308 4.4199
-5.74635 1.72956 4.38404
-5.75949 1.72829 4.36515
-5.78578 1.72673 4.32637
-5.83913 1.73007 4.27972
-5.85019 1.73098 4.27278
-5.88465 1.7271 4.21209
6.01655 1.66069 3.66734
6.00278 1.66216 3.69843
5.98389 1.66038 3.7126
5.97103 1.66067 3.73169
5.9642 1.66301 3.75471
5.93928 1.65918 3.76496
5.93848 1.66358 3.7919
5.93457 1.66475 3.80292
5.91366 1.66195 3.81612
5.90684 1.6643 3.83914
5.88996 1.66355 3.85528
5.88514 1.66691 3.87927
5.85619 1.66203 3.88656
5.85439 1.66542 3.91253
5.83942 1.66349 3.91667
5.82656 1.66376 3.93476
5.7938 1.66226 3.96704
5.78596 1.66459 3.98906
5.78015 1.66695 4.01308
5.76327 1.6662 4.02922
5.74124 1.66118 4.02646
5.72637 1.66144 4.04357
5.71552 1.66274 4.06363
5.70065 1.662 4.08076
5.69383 1.66536 4.10476
5.66386 1.66045 4.10906
5.66308 1.66488 4.13801
5.65212 1.66296 4.14312
5.63222 1.66216 4.15628
5.61734 1.66243 4.17339
5.61253 1.6648 4.1984
5.58156 1.65988 4.2027
5.58178 1.66431 4.23164
5.582 1.66974 4.26056
5.55495 1.66366 4.25386
5.54712 1.66599 4.27588
5.53829 1.66834 4.29892
5.51939 1.66654 4.31209
5.51962 1.67199 4.34201
5.49166 1.6681 4.34828
5.47276 1.6663 4.36145
5.47992 1.67161 4.38232
5.4542 1.67317 4.4195
5.40656 1.67292 4.46787
5.35881 1.67044 4.50127
5.352 1.67382 4.52627
5.33814 1.67409 4.54437
5.30715 1.66915 4.54668
5.29932 1.67149 4.56971
5.28345 1.67176 4.58683
5.2585 1.66888 4.59406
5.26063 1.67213 4.611
5.24979 1.67445 4.63205
5.22082 1.67053 4.63632
5.20191 1.66872 4.64849
5.19309 1.67107 4.67153
5.17015 1.66922 4.68073
5.15428 1.66948 4.69785
5.15743 1.67376 4.71676
5.12239 1.66673 4.71313
5.12163 1.67218 4.74406
5.09971 1.67035 4.75425
5.08483 1.67161 4.77135
5.06896 1.67186 4.78747
5.04501 1.66898 4.79469
5.03102 1.66702 4.79683
5.01212 1.66623 4.80998
5.00733 1.67063 4.83696
4.97229 1.6636 4.83333
4.95339 1.6628 4.84648
4.95667 1.67033 4.88235
4.93574 1.6685 4.89254
4.9268 1.66862 4.9006
4.92504 1.67508 4.93153
4.89604 1.67012 4.93282
4.87512 1.6683 4.944
4.87336 1.67476 4.97493
4.85042 1.67189 4.98314
4.83353 1.67213 4.99827
4.83971 1.67746 5.02115
4.82182 1.67768 5.03528
4.79788 1.67582 5.04349
4.79914 1.68233 5.07839
4.77822 1.6815 5.08856
4.75629 1.67965 5.09775
4.74445 1.68197 5.11881
4.49606 1.6863 5.33365
3.96495 1.69235 5.71961
3.90621 1.69189 5.75407
3.89625 1.69199 5.76014
3.87633 1.69215 5.77029
3.8554 1.6913 5.77946
3.83244 1.68939 5.78466
3.81151 1.68855 5.79483
3.78248 1.68452 5.79111
3.78079 1.69311 5.831
3.76272 1.689 5.8232
3.74584 1.69024 5.83831
3.72997 1.69252 5.8564
3.70195 1.68849 5.85367
3.68203 1.68765 5.86383
3.67022 1.69203 5.88886
3.63915 1.68592 5.88018
3.63324 1.6881 5.8922
3.62041 1.69145 5.91525
3.59645 1.69055 5.92044
3.57854 1.69074 5.93258
3.54175 1.69218 5.96084
3.52488 1.69443 5.97693
3.51695 1.69557 5.98598
3.48891 1.69151 5.98125
3.45921 1.69713 6.02139
3.43523 1.69419 6.02462
3.41836 1.69645 6.04171
3.38239 1.69354 6.04603
3.36856 1.69687 6.06809
1.24808 1.71214 6.80794
1.18013 1.71129 6.81546
1.15713 1.71031 6.81565
1.13515 1.71037 6.81882
1.12311 1.70829 6.81294
1.09908 1.70625 6.80915
1.0792 1.7105 6.82524
1.05093 1.7 6.7906
1.03109 1.70533 6.81167
1.00807 1.7033 6.80888
0.986125 1.70442 6.81603
0.971972 1.69913 6.79621
0.951095 1.70239 6.81232
0.928056 1.70033 6.80752
0.907141 1.70251 6.81865
0.884119 1.70148 6.81584
0.863242 1.70473 6.83195
0.839173 1.70161 6.82318
0.818296 1.70587 6.83927
0.805165 1.70062 6.82245
0.78432 1.70594 6.84253
0.762366 1.70604 6.84869
0.738205 1.70075 6.82795
0.717344 1.70503 6.84605
0.696536 1.71041 6.87113
0.671359 1.70409 6.84841
0.661414 1.7062 6.85545
0.638399 1.70519 6.85364
0.615353 1.70312 6.84784
0.594499 1.70741 6.86694
0.571499 1.70643 6.86713
0.547393 1.70324 6.85335
0.526508 1.70648 6.86847
0.514439 1.70435 6.85959
0.492555 1.70759 6.87471
0.469463 1.70443 6.86292
0.448694 1.71189 6.89297
0.425633 1.70879 6.88519
0.402564 1.70667 6.8764
0.380711 1.71097 6.8955
0.369742 1.71204 6.89957
0.346765 1.7131 6.90273
0.324835 1.71525 6.91186
0.301735 1.71107 6.89909
0.278798 1.71321 6.90724
0.233853 1.71534 6.91455
0.222915 1.71747 6.9226
0.199938 1.71753 6.92577
0.176939 1.71755 6.92594
0.154962 1.71861 6.92909
0.13204 1.72077 6.93924
0.0750569 1.72184 6.94165
-0.300017 1.72201 6.66743
-0.343092 1.7199 6.65779
-0.365068 1.72096 6.66094
-0.38706 1.72199 6.66209
-0.409105 1.72092 6.65627
-0.431097 1.72095 6.65744
-0.442119 1.72091 6.65452
-0.463187 1.71879 6.64571
-0.485156 1.71987 6.64986
-0.506286 1.71563 6.63308
-0.52827 1.71668 6.63523
-0.550268 1.71769 6.63538
-0.57136 1.71453 6.62358
-0.58329 1.71767 6.63263
-0.604366 1.71554 6.62282
-0.62538 1.71553 6.62098
-0.647426 1.71445 6.61516
-0.668456 1.71341 6.61133
-0.690454 1.71442 6.61148
-0.712461 1.71443 6.61065
-0.724422 1.71651 6.61571
-0.74546 1.71545 6.61088
-0.767458 1.71647 6.61103
-0.78945 1.7175 6.61218
-0.811487 1.71644 6.60736
-0.830625 1.71219 6.58957
-0.853585 1.71428 6.59471
-0.862685 1.71109 6.58182
-0.884676 1.71212 6.58297
-0.905752 1.70999 6.57316
-0.927735 1.71203 6.5753
-0.947842 1.70884 6.56149
-0.970795 1.71095 6.56764
-0.993755 1.71304 6.57278
-1.00288 1.70981 6.55689
-1.02487 1.71084 6.55805
-1.04782 1.71294 6.56419
-1.06792 1.71077 6.55137
-1.08993 1.71075 6.54954
-1.11194 1.71175 6.54869
-1.132 1.71065 6.54085
-1.15497 1.71273 6.545
-1.16313 1.70742 6.52413
-1.18511 1.70847 6.52628
-1.20904 1.71262 6.5354
-1.22914 1.70944 6.5226
-1.25016 1.71043 6.52074
-1.2712 1.70935 6.51492
-1.29418 1.71141 6.51806
-1.30519 1.71139 6.51614
-1.32815 1.71448 6.52127
-1.34728 1.71024 6.50448
-1.3693 1.71122 6.50163
-1.39035 1.71014 6.4958
-1.41042 1.70902 6.48697
-1.50752 1.71087 6.47267
-1.54963 1.7097 6.459
-1.62375 1.70951 6.44356
-1.73999 1.70912 6.41244
-4.93281 1.71202 4.71922
-4.96405 1.71157 4.68745
-4.98513 1.71344 4.67758
-5.01116 1.71738 4.67272
-5.01438 1.71197 4.64482
-5.03037 1.71498 4.6449
-5.04649 1.71476 4.62902
-5.0636 1.71556 4.61513
-5.07476 1.71326 4.59425
-5.10476 1.71926 4.59339
-5.10897 1.71487 4.56648
-5.13898 1.71984 4.56363
-5.14108 1.71765 4.55068
-5.16613 1.72057 4.54382
-5.17629 1.71928 4.52392
-5.20829 1.72529 4.52307
-5.20555 1.71778 4.48915
-5.23457 1.72376 4.48628
-5.25366 1.72458 4.47341
-5.25675 1.7234 4.46145
-5.28082 1.72629 4.45259
-5.29892 1.72709 4.43871
-5.29915 1.72165 4.40879
-5.3252 1.72558 4.40293
-5.33735 1.72429 4.38304
-5.35445 1.7251 4.36915
-5.37542 1.72916 4.37225
-5.38856 1.7289 4.35435
5.84681 1.66139 3.43758
5.83003 1.66282 3.46569
5.81816 1.66309 3.48377
5.79143 1.66263 3.51899
5.78258 1.66393 3.53904
5.77172 1.66422 3.55812
5.75182 1.66243 3.5713
5.74286 1.66152 3.57738
5.73503 1.66286 3.59942
5.71813 1.66208 3.61356
5.71029 1.66339 3.6346
5.6914 1.66161 3.64877
5.6745 1.66083 3.66291
5.66063 1.66009 3.68003
5.65872 1.66227 3.69202
5.63379 1.65843 3.70126
5.62896 1.66077 3.72427
5.61811 1.66206 3.74333
5.60021 1.66028 3.7575
5.58633 1.66053 3.7736
5.58453 1.66391 3.79957
5.56251 1.65888 3.79681
5.55567 1.66121 3.81883
5.54079 1.66146 3.83494
5.51988 1.65864 3.84614
5.51204 1.66096 3.86717
5.50621 1.6633 3.89018
5.48731 1.66151 3.90335
5.47535 1.66059 3.90845
5.47052 1.66294 3.93146
5.45061 1.66113 3.94364
5.43875 1.6624 3.96171
5.4289 1.66371 3.98177
5.41401 1.66294 3.99689
5.39512 1.66216 4.01105
5.39431 1.66655 4.03699
5.38235 1.66463 4.04211
5.37049 1.6659 4.06018
5.36768 1.66928 4.08516
5.34274 1.66641 4.09339
5.3349 1.66874 4.11542
5.32103 1.66901 4.13252
5.30011 1.66617 4.14272
5.29619 1.66733 4.15374
5.29037 1.67069 4.17773
5.27649 1.67094 4.19384
5.26665 1.67326 4.21488
5.23286 1.67168 4.24216
5.22402 1.67402 4.2642
5.19617 1.67232 4.28343
5.18632 1.67362 4.30349
5.1278 1.67461 4.36793
5.11382 1.67265 4.37006
5.09188 1.6698 4.37927
5.08104 1.6721 4.39932
5.06515 1.67134 4.41445
5.05631 1.67366 4.43549
5.01647 1.67101 4.45783
5.01457 1.6732 4.47081
4.99969 1.67345 4.48693
4.97474 1.66956 4.49317
4.97093 1.67395 4.51914
4.95303 1.67315 4.53229
4.92908 1.67027 4.53951
4.92125 1.67361 4.56152
4.9123 1.67272 4.56861
4.89137 1.67086 4.57779
4.87448 1.67108 4.59192
4.86464 1.6734 4.61296
4.84371 1.67157 4.62315
4.82681 1.67077 4.63629
4.81496 1.67306 4.65535
4.80601 1.67217 4.66243
4.79718 1.6755 4.68445
4.77827 1.67469 4.6966
4.75632 1.67183 4.70481
4.75253 1.67723 4.73177
4.74068 1.67852 4.75084
4.7258 1.67977 4.76693
4.71382 1.67782 4.77005
4.69591 1.67701 4.7822
4.68608 1.68034 4.80423
4.59364 1.67952 4.87995
4.57574 1.67973 4.89308
4.54699 1.68124 4.92628
4.52404 1.67936 4.93348
4.51522 1.68271 4.9565
4.49529 1.68085 4.96568
4.47348 1.68325 4.99181
4.45557 1.68244 5.00396
4.4417 1.68371 5.02105
4.41572 1.68077 5.02429
4.39277 1.67788 5.03051
4.37385 1.67705 5.04166
4.38205 1.68443 5.0675
4.36213 1.68361 5.07866
4.33816 1.68069 5.08288
4.32228 1.68092 5.098
4.30236 1.6801 5.10917
4.28747 1.68133 5.12426
4.27361 1.68261 5.14235
4.27072 1.68582 5.15633
4.24978 1.68396 5.16551
4.21296 1.68333 5.1888
4.20313 1.68666 5.21083
3.87184 1.68825 5.43933
3.84989 1.68737 5.44651
3.81003 1.68567 5.46484
3.79804 1.68471 5.46695
3.78115 1.68493 5.48107
3.75817 1.68299 5.48428
3.74634 1.68632 5.50632
3.72945 1.68756 5.52143
3.71053 1.68672 5.53159
3.6916 1.68688 5.54173
3.68569 1.68906 5.55374
3.6617 1.68609 5.55497
3.6438 1.6863 5.5681
3.6188 1.68332 5.56833
3.59583 1.68141 5.57353
3.58096 1.68266 5.58963
3.56406 1.68388 5.60374
3.54903 1.68083 5.5999
3.53011 1.681 5.61104
3.51524 1.68327 5.62812
3.48923 1.67926 5.62638
3.4693 1.6794 5.63553
3.45949 1.6838 5.66154
3.43449 1.68081 5.66177
3.42351 1.67985 5.66387
3.40763 1.6821 5.67996
3.38668 1.68122 5.68713
3.37181 1.68348 5.70421
3.36201 1.68787 5.73022
3.336 1.68488 5.72946
3.31606 1.68401 5.73763
3.30628 1.68943 5.76562
3.29528 1.68846 5.76672
3.27739 1.68968 5.78084
3.25339 1.68669 5.78106
3.23447 1.68686 5.79121
3.2186 1.68912 5.80829
3.20171 1.69135 5.82339
3.19173 1.6904 5.82648
3.17383 1.69161 5.8396
3.15898 1.6949 5.85866
3.136 1.69296 5.86187
3.11707 1.69311 5.87101
3.10221 1.6954 5.89009
3.07923 1.69345 5.89229
3.06336 1.69571 5.90938
3.0544 1.69681 5.91543
3.03448 1.69697 5.92558
3.01353 1.69609 5.93275
2.99563 1.69729 5.94587
2.97975 1.69954 5.96196
2.67179 1.70178 6.10027
2.63091 1.70205 6.11657
2.55015 1.70258 6.14918
2.49829 1.70288 6.16757
2.48039 1.70409 6.18069
2.32681 1.70502 6.23684
2.03754 1.70765 6.33499
1.8479 1.7065 6.38444
1.784 1.70574 6.39794
-0.507179 1.7209 6.38097
-0.538193 1.72089 6.37921
-0.579268 1.71977 6.36953
-0.600282 1.71976 6.36769
-0.622235 1.72186 6.37382
-0.642342 1.71867 6.36002
-0.664272 1.72182 6.36914
-0.684348 1.71969 6.35932
-0.737376 1.71967 6.35572
-0.758375 1.72068 6.35586
-0.779351 1.72174 6.35901
-0.799427 1.71961 6.34919
-0.82048 1.71852 6.34236
-0.832402 1.72168 6.35241
-0.853424 1.72165 6.34957
-0.893522 1.71948 6.3369
-0.91456 1.71943 6.33206
-0.933643 1.71728 6.32123
-0.955619 1.71834 6.32438
-0.966603 1.71937 6.32645
-0.989525 1.72354 6.33656
-1.00575 1.71611 6.30679
-1.02966 1.7203 6.31891
-1.04876 1.71712 6.3061
-1.06883 1.71601 6.29726
-1.09078 1.71811 6.3034
-1.10273 1.72021 6.30946
-1.11989 1.71591 6.28865
-1.13995 1.71482 6.28182
-1.16001 1.71372 6.27398
-1.18489 1.71896 6.28909
-1.20204 1.71469 6.27028
-1.22403 1.7157 6.27043
-1.23502 1.71674 6.2725
-1.25698 1.71883 6.27764
-1.27608 1.71665 6.26481
-1.29614 1.71555 6.25698
-1.31811 1.71761 6.26011
-1.33817 1.71651 6.25228
-1.35727 1.71434 6.24045
-1.36824 1.71539 6.24352
-1.38733 1.71323 6.2317
-1.40835 1.71422 6.22984
-1.42741 1.7131 6.221
-1.44651 1.70993 6.20919
-1.46848 1.71299 6.21231
-1.49144 1.71508 6.21745
-1.51245 1.71608 6.21659
-1.52344 1.71711 6.21766
-1.54545 1.71811 6.21681
-1.56257 1.71487 6.19999
-1.58555 1.71693 6.20313
-1.6056 1.71684 6.19628
-1.6237 1.71466 6.18345
-1.64374 1.7146 6.1786
-1.65573 1.71563 6.17967
-1.6748 1.71451 6.17083
-1.69484 1.71443 6.16499
-1.71586 1.7144 6.16214
-1.73398 1.71219 6.14731
-1.75498 1.71321 6.14745
-1.77308 1.71103 6.13462
-1.787 1.71519 6.14467
-1.80413 1.71195 6.12784
-1.82613 1.71297 6.12799
-1.84619 1.71286 6.12014
-1.86719 1.71386 6.11929
-1.88434 1.70959 6.10048
-1.90828 1.71371 6.1076
-1.91439 1.71051 6.09369
-1.9354 1.7115 6.09183
-1.95156 1.7072 6.07101
-1.97551 1.7113 6.07713
-1.99362 1.70811 6.06332
-2.03272 1.70793 6.04961
-2.70356 1.70878 5.80862
-3.43815 1.71216 5.46606
-3.46033 1.70982 5.44225
-3.48039 1.71071 5.43439
-3.50144 1.71164 5.42854
-3.57066 1.71525 5.399
-3.57886 1.70987 5.37314
-3.67125 1.71015 5.32082
-3.69031 1.71205 5.31294
-3.73453 1.71165 5.28427
-3.77169 1.71236 5.26354
-3.79571 1.71534 5.26067
-3.82283 1.71512 5.24488
-3.83695 1.71388 5.228
-3.8501 1.71161 5.20913
-3.87313 1.71356 5.20528
-3.88329 1.71025 5.1834
-3.9244 1.71305 5.16866
-3.94461 1.71067 5.14185
-3.96566 1.71158 5.13499
-3.99688 1.71017 5.10625
-4.01794 1.71207 5.09837
-4.05918 1.71061 5.0657
-4.08023 1.71252 5.05883
-4.09436 1.7113 5.04295
-4.10849 1.71004 5.02508
-4.12756 1.71091 5.01521
-4.15568 1.7117 5.0004
-4.18986 1.71236 4.97565
-4.22604 1.71303 4.95191
-4.23521 1.70971 4.93002
-4.25725 1.71164 4.92416
-4.26333 1.71049 4.91422
-4.28835 1.71447 4.91135
-4.29851 1.71116 4.89047
-4.32353 1.71514 4.8876
-4.35177 1.71269 4.85585
-4.36787 1.71249 4.84197
-4.36998 1.71028 4.82802
-4.39996 1.71633 4.83015
-4.41012 1.71303 4.80928
-4.43515 1.71699 4.8054
-4.44035 1.71161 4.77952
-4.46537 1.71557 4.77565
-4.48643 1.71746 4.76778
-4.48668 1.71099 4.73587
-4.49374 1.70988 4.72794
-4.52868 1.71801 4.73508
-4.5319 1.71258 4.70618
-4.55792 1.71655 4.70332
-4.57502 1.71737 4.69044
-4.5812 1.71302 4.66654
-4.59731 1.71281 4.65167
-4.61429 1.71687 4.65474
-4.63733 1.7198 4.64886
-4.64749 1.71749 4.62797
-4.66558 1.71833 4.61609
-4.68068 1.71813 4.60221
-4.68687 1.71377 4.57732
-4.71985 1.72084 4.58046
-4.7279 1.72074 4.57352
-4.73607 1.71742 4.55163
-4.75515 1.71927 4.54075
-4.77423 1.72012 4.52987
-4.78339 1.7178 4.50798
-4.81339 1.72382 4.50811
-4.81858 1.71946 4.48321
-4.83756 1.72351 4.4863
-4.8477 1.72224 4.46739
-4.87274 1.72517 4.46153
-4.87892 1.72182 4.43763
-4.90495 1.72578 4.43376
-4.92404 1.72761 4.42188
-4.93618 1.72636 4.40399
-4.9482 1.72731 4.40006
-4.96034 1.72605 4.38217
-4.9695 1.72374 4.36127
-4.98064 1.72247 4.34237
-5.00569 1.7264 4.3365
-5.02279 1.7272 4.32261
-5.0369 1.72699 4.30772
-5.06007 1.72667 4.2849
-5.07519 1.72644 4.26901
-5.12054 1.7268 4.22334
-5.15176 1.72737 4.19357
4.70215 1.67757 4.4151
3.43254 1.69196 5.40158
3.3967 1.6923 5.42285
3.37271 1.68933 5.42408
3.32401 1.69295 5.4634
3.31709 1.69411 5.47443
3.29815 1.69425 5.48257
3.28023 1.69441 5.49271
3.2623 1.69457 5.50284
0.0380654 1.7051 6.14707
0.0171513 1.70928 6.15816
-0.00296419 1.70407 6.14339
-0.0229555 1.7051 6.14453
-0.0429398 1.70514 6.14668
-0.0529703 1.70409 6.14277
-0.0739151 1.70721 6.14988
-0.0939917 1.70408 6.14007
-0.114022 1.70303 6.13624
-0.134021 1.70305 6.13639
-0.154044 1.70202 6.13356
-0.175051 1.70202 6.13271
-0.185004 1.70411 6.13876
-0.205011 1.70411 6.13791
-0.225065 1.70202 6.13109
-0.24601 1.70414 6.13822
-0.266017 1.70414 6.13737
-0.286062 1.70307 6.13154
-0.306077 1.70305 6.12969
-0.326099 1.70202 6.12685
-0.33613 1.70097 6.12294
-0.356183 1.69988 6.11611
-0.37709 1.70307 6.12822
-0.397142 1.70199 6.12139
-0.417149 1.70199 6.12054
-0.437133 1.70303 6.12267
-0.457171 1.70197 6.11784
-0.467163 1.70199 6.11891
-0.507223 1.7009 6.11123
-0.527245 1.70087 6.10838
-0.548244 1.70089 6.10854
-0.568243 1.7019 6.10868
-0.618279 1.70186 6.10405
-0.638325 1.70079 6.09822
-0.748419 1.70068 6.08605
-4.44653 1.70832 4.48957
-4.48369 1.71004 4.46883
-4.50684 1.71076 4.44899
-4.53309 1.70829 4.41622
-4.54422 1.70703 4.39832
-4.5784 1.7087 4.37455
-4.60442 1.71267 4.37168
-4.61049 1.71254 4.36273
-4.61765 1.70924 4.34183
-4.65062 1.71631 4.34497
-4.6548 1.71195 4.32107
-4.67686 1.71485 4.31319
-4.68006 1.71047 4.28727
-4.70508 1.71443 4.2834
-4.72814 1.71734 4.27653
-4.72725 1.71412 4.26157
-4.75625 1.72012 4.2607
-4.75449 1.71266 4.2298
-4.77654 1.71658 4.2229
-4.7976 1.71847 4.21503
-4.80676 1.71617 4.19413
-4.82583 1.71803 4.18425
-4.83488 1.71895 4.1783
-4.85594 1.72183 4.16941
-4.85814 1.71645 4.14351
-4.88119 1.71936 4.13664
-4.90623 1.72429 4.13075
-4.91339 1.72099 4.10985
-4.92155 1.71868 4.08895
-4.93953 1.72272 4.09102
-4.94868 1.72145 4.07211
-4.98685 1.72414 4.04935
-4.99997 1.72391 4.03345
-5.02621 1.72345 4.00165
-5.04529 1.7253 3.99077
6.00782 1.64964 2.11035
5.96761 1.65221 2.21463
5.95774 1.65148 2.23272
5.94587 1.65074 2.24982
5.93802 1.65103 2.26888
5.92614 1.65029 2.28598
5.92138 1.65275 2.31699
5.90348 1.64997 2.33117
5.90064 1.65228 2.35216
5.8692 1.6534 2.42639
5.86144 1.65587 2.45741
5.85056 1.65613 2.47449
5.83367 1.65335 2.48866
5.83184 1.65567 2.51065
5.81595 1.65391 2.52579
5.8121 1.65521 2.54581
5.80917 1.65636 2.55581
5.78543 1.65488 2.59002
5.77657 1.65515 2.60808
5.76971 1.65644 2.62712
5.75683 1.65568 2.64323
5.74697 1.65596 2.6613
5.74404 1.65611 2.67132
5.73518 1.65638 2.68939
5.72732 1.65767 2.70843
5.71946 1.65795 2.72749
5.70458 1.65719 2.74262
5.69371 1.65645 2.75971
5.68393 1.65888 2.78875
5.66804 1.65712 2.8039
5.66319 1.65842 2.82392
5.63643 1.65691 2.85615
5.61953 1.65511 2.8693
5.62172 1.65948 2.89423
5.61176 1.65758 2.90033
5.59486 1.65578 2.91349
5.60007 1.66118 2.94037
5.57312 1.6563 2.94765
5.56426 1.65659 2.96671
5.55339 1.65685 2.98379
5.54352 1.65711 3.00087
5.52552 1.65314 3.00206
5.52671 1.65749 3.02599
5.51282 1.65574 3.04212
5.51502 1.66111 3.06703
5.49309 1.65727 3.07725
5.48222 1.65753 3.09433
5.46532 1.65574 3.10749
5.45645 1.65601 3.12555
5.45856 1.65922 3.13949
5.43663 1.65538 3.14972
5.43078 1.65768 3.16973
5.42594 1.65999 3.19073
5.39899 1.65512 3.19801
5.39415 1.65743 3.21902
5.38127 1.65668 3.23513
5.37633 1.6568 3.24316
5.36848 1.65809 3.26221
5.35057 1.65628 3.27437
5.33166 1.65447 3.28654
5.32481 1.65577 3.30657
5.31192 1.656 3.32167
5.30206 1.65628 3.33974
5.29813 1.65741 3.34876
5.28425 1.65666 3.36488
5.27337 1.6569 3.38096
5.25847 1.65612 3.39508
5.24559 1.65637 3.41118
5.22869 1.65457 3.42433
5.22184 1.65686 3.44335
5.22093 1.65804 3.45534
5.20905 1.65828 3.47143
5.19718 1.65854 3.48852
5.1853 1.65879 3.50461
5.17744 1.66108 3.52364
5.16054 1.65928 3.53679
5.14564 1.6585 3.55092
5.14473 1.66066 3.56189
5.12582 1.65886 3.57407
5.11394 1.6591 3.59015
5.10106 1.65935 3.60625
5.0922 1.66062 3.6243
5.07831 1.65985 3.63942
5.0614 1.65804 3.65157
5.06753 1.66329 3.66845
5.04258 1.65841 3.67571
5.02969 1.65864 3.69081
5.0148 1.65786 3.70493
5.00091 1.65808 3.71904
4.99205 1.65937 3.73809
4.98219 1.66164 3.75613
4.97021 1.65869 3.75927
4.96034 1.65997 3.77732
4.94645 1.66018 3.79143
4.93357 1.66043 3.80752
4.92472 1.66272 3.82656
4.90881 1.66092 3.83971
4.89392 1.66114 3.85382
4.88496 1.66022 3.8589
4.86301 1.65736 3.86711
4.85416 1.65864 3.88616
4.84429 1.6599 3.90322
4.83242 1.66116 3.92029
4.82155 1.66242 3.93736
4.80967 1.66268 3.95444
4.79769 1.66072 3.95656
4.7838 1.66095 3.97167
4.75481 1.65499 3.97297
4.76004 1.66245 4.00383
4.7381 1.65957 4.01104
4.73227 1.66291 4.03403
4.70931 1.66002 4.04025
4.71557 1.6675 4.0731
4.68747 1.65933 4.06043
4.68365 1.66369 4.0844
4.66271 1.66082 4.0926
4.65688 1.66416 4.11559
4.63896 1.66333 4.12574
4.62608 1.66357 4.14184
4.60111 1.65965 4.14609
4.61229 1.667 4.1699
4.58027 1.65998 4.16724
4.57142 1.66228 4.18728
4.55047 1.6594 4.19448
4.54766 1.66477 4.21942
4.52067 1.65982 4.2217
4.51383 1.66313 4.2427
4.50085 1.66017 4.24485
4.49199 1.66346 4.26387
4.4781 1.66368 4.27797
4.45817 1.66083 4.28716
4.44226 1.66102 4.29928
4.42937 1.66125 4.31438
4.42153 1.66456 4.33539
4.41559 1.66569 4.34342
4.40473 1.66696 4.36149
4.38681 1.66614 4.37264
4.37494 1.6674 4.38971
4.36408 1.66967 4.40776
4.3401 1.66573 4.411
4.32924 1.66801 4.42905
4.3233 1.66813 4.43709
4.31243 1.6704 4.45514
4.29753 1.67061 4.46826
4.28466 1.67187 4.48534
4.27379 1.67413 4.50239
4.25486 1.67228 4.51156
4.25106 1.67766 4.53751
4.25118 1.6809 4.55346
4.22037 1.68131 4.57969
4.19539 1.67736 4.58194
4.17266 1.6819 4.61805
4.15082 1.68223 4.63921
4.1339 1.68241 4.65034
4.11295 1.67951 4.65654
4.09907 1.68076 4.67263
4.07811 1.67785 4.67783
4.05817 1.67698 4.68599
4.04024 1.67614 4.69614
4.03229 1.67624 4.7022
4.02849 1.68164 4.72915
4.00248 1.67664 4.72842
3.98961 1.6789 4.74549
3.9727 1.67808 4.75663
3.95882 1.67933 4.77272
3.94291 1.67952 4.78484
3.94505 1.68478 4.80275
3.92006 1.68083 4.80499
3.90111 1.67895 4.81217
3.89734 1.68538 4.8411
3.8794 1.68452 4.85025
3.60787 1.68859 5.04626
3.58792 1.68671 5.05344
3.57303 1.68793 5.06754
3.53891 1.67873 5.05293
3.522 1.67891 5.06406
3.51014 1.68218 5.0821
3.49727 1.68445 5.09917
3.47717 1.67828 5.08741
3.4562 1.67636 5.09159
3.44637 1.67969 5.11362
3.42844 1.67984 5.12276
3.41153 1.68003 5.13488
3.3855 1.67499 5.13115
3.36452 1.67306 5.13534
3.35658 1.67417 5.14238
3.33865 1.67332 5.15153
3.32071 1.67345 5.15967
3.30784 1.67571 5.17673
3.29295 1.67794 5.19181
3.273 1.67605 5.19799
3.24204 1.67316 5.20427
3.19027 1.67364 5.23466
3.15947 1.67606 5.26186
3.13851 1.67515 5.26703
3.12954 1.67522 5.2711
3.11262 1.67538 5.28122
3.0957 1.67555 5.29235
3.0798 1.67676 5.30545
3.04494 1.67706 5.32471
3.02398 1.67615 5.32989
3.0211 1.67938 5.34486
3.00519 1.68057 5.35697
2.99234 1.68387 5.37702
2.97237 1.68295 5.38118
2.95444 1.68309 5.39032
2.93854 1.6843 5.40342
2.92061 1.68446 5.41355
2.91164 1.68451 5.41662
2.89777 1.68778 5.43468
2.87883 1.6869 5.44184
2.86192 1.68809 5.45395
2.84399 1.68824 5.46308
2.82911 1.69048 5.47916
2.80405 1.6854 5.47243
2.79612 1.68652 5.48047
2.77919 1.68768 5.49058
2.76635 1.692 5.51162
2.74639 1.69109 5.51678
2.73354 1.69438 5.53583
2.71154 1.69241 5.53703
2.69463 1.69259 5.54815
2.68566 1.69367 5.55321
2.66773 1.69382 5.56234
2.65185 1.69605 5.57743
2.63189 1.69514 5.58259
2.61802 1.6984 5.59965
2.59705 1.69747 5.60383
2.5561 1.69461 5.61118
2.51332 1.69807 5.64045
2.49436 1.69717 5.64661
2.47746 1.69938 5.65971
2.45952 1.69949 5.66684
2.39271 1.69891 5.69236
2.37172 1.69696 5.69454
2.35176 1.69705 5.69969
2.33281 1.69716 5.70683
2.31181 1.69518 5.70702
2.30591 1.69738 5.72004
2.288 1.69955 5.73114
2.26905 1.69967 5.73828
2.25113 1.70083 5.7484
2.18328 1.70017 5.76892
2.16433 1.70029 5.77607
2.14744 1.70251 5.79016
2.12849 1.70263 5.79731
2.10647 1.6996 5.79452
2.08344 1.69657 5.79173
2.06755 1.69879 5.80582
2.05964 1.70196 5.81684
2.04067 1.70103 5.82099
2.01763 1.69798 5.81621
1.99972 1.69917 5.82833
1.98076 1.69927 5.83447
1.9608 1.69934 5.83862
1.94083 1.69842 5.84279
1.93084 1.69845 5.84486
1.91394 1.70066 5.85796
1.89397 1.69973 5.86212
1.874 1.69981 5.86627
1.85302 1.69885 5.86845
1.83305 1.69793 5.87261
1.81512 1.69907 5.88173
1.7931 1.69706 5.87993
1.78412 1.69711 5.88299
1.76518 1.69823 5.89012
1.74625 1.69937 5.89925
1.72831 1.70052 5.90837
1.71041 1.70273 5.92147
1.68632 1.69757 5.90973
1.66635 1.69764 5.91388
1.65637 1.69768 5.91595
1.63949 1.70093 5.93203
1.61746 1.69788 5.92824
1.60364 1.70425 5.95226
1.58267 1.70331 5.95543
1.56063 1.70025 5.95064
1.54065 1.70031 5.95379
1.53168 1.70037 5.95786
1.51274 1.70149 5.96498
1.4938 1.70262 5.97311
1.47384 1.70373 5.97925
1.4549 1.70384 5.98639
1.4339 1.70286 5.98656
1.41494 1.70396 5.99269
1.40495 1.70298 5.99378
1.38601 1.70412 6.0019
1.36709 1.70628 6.01202
1.34504 1.70321 6.00623
1.32506 1.70225 6.00839
1.30925 1.70863 6.03342
1.28408 1.70132 6.01172
1.27616 1.70449 6.02273
1.25516 1.70251 6.02292
1.23828 1.70674 6.03798
1.21726 1.70473 6.03617
1.19628 1.70477 6.03833
1.17836 1.70695 6.04943
1.1584 1.70702 6.05358
1.14635 1.70494 6.04771
1.12739 1.70503 6.05285
1.10849 1.70824 6.06594
1.08747 1.70622 6.06413
1.0675 1.70628 6.06728
1.04647 1.70525 6.06446
1.02751 1.70534 6.0696
1.01756 1.70644 6.07566
0.996503 1.70335 6.06886
0.978642 1.70863 6.08692
0.958696 1.70975 6.09405
0.936619 1.70561 6.08428
0.916635 1.70566 6.08643
0.897735 1.70886 6.09953
0.888758 1.70891 6.10259
0.868789 1.70999 6.10673
0.849874 1.71216 6.11784
0.828874 1.71118 6.11801
0.788928 1.71231 6.1253
0.414196 1.71409 6.1621
0.394173 1.71206 6.15928
0.373196 1.71312 6.16242
0.353166 1.71107 6.15861
0.342151 1.71105 6.15669
0.322112 1.70899 6.15187
0.302136 1.71005 6.155
0.281083 1.70796 6.14819
0.261091 1.70799 6.14934
0.240083 1.70699 6.14852
0.220069 1.70698 6.14667
0.210069 1.70699 6.14674
0.190062 1.70599 6.14591
0.169054 1.70499 6.14508
0.149101 1.70709 6.1512
0.129148 1.70919 6.15732
0.109056 1.70503 6.14553
0.08818 1.71028 6.16161
0.0781496 1.70923 6.1577
0.0580805 1.70611 6.1489
0.0434385 1.7029 5.93103
0.023478 1.70498 5.93615
0.00354006 1.70712 5.94427
-0.0155516 1.70395 5.93246
-0.0356126 1.70185 5.92464
-0.0455357 1.704 5.93468
-0.0645659 1.70296 5.93084
-0.08448 1.70714 5.94193
-0.103603 1.70191 5.92615
-0.122648 1.70084 5.92031
-0.142655 1.70084 5.91946
-0.161686 1.69879 5.91563
-0.171678 1.69982 5.91669
-0.192546 1.70508 5.93377
-0.211623 1.70195 5.92396
-0.230599 1.70301 5.92709
-0.249714 1.6988 5.91229
-0.269736 1.69877 5.90945
-0.288743 1.69877 5.90859
