-2.67576 1.7455 4.31644
-2.68587 1.74328 4.30155
-2.71178 1.75146 4.31263
-2.71994 1.74617 4.29276
-2.73203 1.745 4.28087
-2.75104 1.74699 4.27898
-2.76412 1.74683 4.26808
-2.78115 1.74879 4.26418
-2.79114 1.75081 4.26523
-2.80423 1.74864 4.25336
-2.82423 1.75266 4.25345
-2.83731 1.75252 4.24355
-2.85039 1.75136 4.23266
-2.85754 1.74607 4.21279
-2.88644 1.75629 4.22586
-2.89248 1.7552 4.21992
-2.90063 1.75093 4.20104
-2.91963 1.75392 4.20014
-2.92679 1.74962 4.17925
-2.94876 1.75469 4.18335
-2.95987 1.7525 4.16946
-2.97295 1.75134 4.15857
-2.99394 1.75637 4.15966
-2.99209 1.75009 4.14073
-3.00715 1.75098 4.13283
-3.03924 1.75281 4.12005
-3.05528 1.75474 4.11414
-3.07232 1.75667 4.10924
-3.07749 1.75035 4.08737
-3.09046 1.75442 4.0914
-3.10848 1.75737 4.0875
-3.11464 1.75208 4.06762
-3.13069 1.75399 4.06071
-3.15269 1.75801 4.06082
-3.15784 1.75371 4.04092
-3.16598 1.74945 4.02304
-3.19896 1.75751 4.02517
-3.21304 1.75735 4.01427
-3.22611 1.75722 4.00437
-3.23622 1.75502 3.99048
-3.24733 1.75282 3.97659
-3.27338 1.75672 3.96873
-3.28745 1.75659 3.95984
-3.31064 1.75424 3.93504
-3.32472 1.75409 3.92415
-3.44333 1.75696 3.84299
-3.51775 1.75818 3.78753
5.16518 1.62229 0.037605
5.16254 1.623 0.085621
5.15359 1.62607 0.224662
5.14026 1.62638 0.31277
5.13356 1.62598 0.352832
5.13393 1.6297 0.401781
5.11835 1.62754 0.457938
5.12949 1.6328 0.475779
4.36606 1.67192 2.54524
4.33304 1.66191 2.54363
4.33714 1.66609 2.55554
4.32019 1.66222 2.56373
4.30627 1.66038 2.57386
4.28847 1.66079 2.60099
4.28059 1.66202 2.61604
4.27873 1.6653 2.635
4.27578 1.66641 2.64201
4.26387 1.66559 2.65412
4.25699 1.66682 2.66915
4.24306 1.66498 2.67928
4.2402 1.66825 2.69726
4.22627 1.66641 2.70739
4.21033 1.66354 2.71556
4.21947 1.66978 2.7324
4.20554 1.66794 2.74253
4.20168 1.67121 2.76052
4.18272 1.66731 2.76672
4.17181 1.6665 2.77881
4.16693 1.66874 2.79482
4.16005 1.66998 2.81085
4.15108 1.66803 2.81395
4.14419 1.67026 2.82897
4.14032 1.67251 2.84597
4.1274 1.67168 2.85708
4.11247 1.66983 2.86622
4.10559 1.67107 2.88226
4.09568 1.67125 2.89433
4.08276 1.67043 2.90544
4.06472 1.66437 2.90067
4.06489 1.66969 2.92259
4.05398 1.66988 2.93467
4.05012 1.67215 2.95267
4.03116 1.66823 2.95787
4.02125 1.66843 2.97094
4.02544 1.67579 2.99481
4.00942 1.67077 2.993
3.99952 1.67097 3.00608
3.98861 1.67115 3.01816
3.96663 1.66621 3.0214
3.96981 1.67255 3.04428
3.95287 1.66968 3.05245
3.93692 1.6678 3.0596
3.94304 1.67303 3.07548
3.93415 1.67424 3.08953
3.92425 1.67444 3.1026
3.90931 1.67259 3.11175
3.89638 1.67173 3.12086
3.88749 1.67296 3.13591
3.87558 1.67313 3.147
3.86659 1.67117 3.14909
3.86374 1.67547 3.16905
3.85687 1.67771 3.18508
3.83386 1.67172 3.18534
3.82414 1.67826 3.22132
3.80014 1.67228 3.22159
3.79115 1.67032 3.22369
3.79334 1.67669 3.24858
3.77455 1.6791 3.27569
3.75154 1.67312 3.27595
3.74164 1.67432 3.28901
3.74484 1.6817 3.31488
3.72075 1.67254 3.30319
3.71085 1.67374 3.31625
3.71304 1.68011 3.34115
3.68903 1.67411 3.34041
3.67913 1.67531 3.35347
3.68032 1.68268 3.37836
3.65731 1.67668 3.37762
3.65539 1.67883 3.3876
3.64649 1.68004 3.40166
3.63054 1.67816 3.4088
3.61661 1.6773 3.41792
3.61679 1.68364 3.44083
3.59882 1.67973 3.44603
3.58691 1.6799 3.45711
3.58701 1.68409 3.47005
3.56702 1.68014 3.47226
3.55712 1.68034 3.48534
3.55226 1.68462 3.50431
3.53833 1.68377 3.51343
3.52339 1.6829 3.52156
3.52257 1.68924 3.54447
3.50148 1.68109 3.53375
3.49562 1.68436 3.55175
3.48269 1.6835 3.56086
3.47077 1.68367 3.57195
3.45583 1.6828 3.58008
3.45199 1.68812 3.60103
3.43402 1.68419 3.60522
3.42917 1.68847 3.6242
3.43128 1.69369 3.63911
3.4113 1.68974 3.64132
3.40543 1.69301 3.65932
3.39252 1.69318 3.67041
3.37454 1.69024 3.67359
3.36061 1.68938 3.68271
3.35777 1.69571 3.70464
3.35081 1.69579 3.70969
3.33183 1.69183 3.71189
3.32092 1.69303 3.72496
3.30901 1.69321 3.73605
3.29003 1.69026 3.73924
3.28518 1.69456 3.75921
3.26316 1.68955 3.75745
3.25619 1.68861 3.76152
3.2554 1.69701 3.7884
3.23843 1.69409 3.79258
3.21339 1.68703 3.78787
3.2045 1.68924 3.8019
3.18955 1.68836 3.80903
3.16956 1.68439 3.81024
3.17573 1.69171 3.83209
3.15572 1.68772 3.8323
3.15088 1.69304 3.85326
3.13291 1.69011 3.85744
3.11998 1.69025 3.86654
3.10503 1.68937 3.87366
3.08807 1.68746 3.87882
3.0902 1.6927 3.89573
3.07424 1.69079 3.90088
3.06031 1.69095 3.91098
3.03829 1.68592 3.90822
3.03042 1.68918 3.92523
3.01749 1.68932 3.93433
3.00861 1.69256 3.95035
2.99759 1.68954 3.94848
2.98063 1.68763 3.95364
2.97681 1.69397 3.97657
2.95478 1.68894 3.97381
2.94691 1.6922 3.99083
2.92792 1.68923 3.99201
2.92107 1.69352 4.01101
2.91207 1.69254 4.01209
2.89713 1.69167 4.02021
2.88217 1.69075 4.02534
2.86824 1.6909 4.03445
2.86442 1.69725 4.05838
2.85454 1.69948 4.07343
2.83453 1.69548 4.07264
2.82959 1.6976 4.08064
2.82375 1.70292 4.10161
2.80678 1.70099 4.10577
2.79386 1.70216 4.11685
2.77689 1.70022 4.12001
2.76498 1.70141 4.13208
2.75105 1.70155 4.14119
2.74509 1.70264 4.14722
2.73217 1.7028 4.15731
2.71418 1.70084 4.15948
2.69417 1.69683 4.15769
2.68732 1.70113 4.17768
2.67541 1.70332 4.18974
2.65945 1.7014 4.19489
2.65958 1.70765 4.21179
2.6426 1.70571 4.21495
2.6317 1.70791 4.228
2.61474 1.706 4.23316
2.59776 1.70405 4.23632
2.58484 1.70521 4.2464
2.5709 1.70534 4.2545
2.56495 1.70645 4.26153
2.55508 1.71071 4.27854
2.54013 1.70981 4.28467
2.52823 1.71201 4.29773
2.51329 1.71214 4.30584
2.48236 1.71031 4.3161
2.46742 1.71044 4.32422
2.44854 1.71269 4.34033
2.43055 1.70971 4.34151
2.3828 1.71324 4.37482
2.32505 1.71475 4.40724
2.18254 1.71582 4.4733
2.16061 1.71598 4.48347
2.11475 1.71528 4.50183
2.0988 1.7154 4.50894
2.06499 1.71878 4.53315
2.03205 1.71692 4.54143
2.01505 1.71495 4.54259
1.9782 1.71726 4.56183
1.93335 1.71759 4.58217
1.90143 1.71776 4.59241
1.88853 1.71996 4.60547
1.86252 1.71696 4.60472
1.84962 1.71916 4.61778
1.81565 1.71725 4.62207
1.79966 1.71629 4.6242
1.78983 1.72162 4.6462
1.77777 1.71851 4.63834
1.76077 1.71653 4.63849
1.74891 1.7208 4.65652
1.73396 1.72191 4.66362
1.71595 1.7189 4.6618
1.68707 1.72116 4.67799
1.67111 1.72124 4.6831
1.66517 1.72336 4.69112
1.64817 1.72138 4.69128
1.63221 1.72146 4.6964
1.61828 1.72362 4.70647
1.60131 1.72269 4.71061
1.58635 1.72278 4.71573
1.56731 1.71972 4.71091
1.56139 1.72287 4.72091
1.54644 1.72298 4.72802
1.53046 1.72303 4.73014
1.51246 1.72104 4.73031
1.49546 1.72007 4.73145
1.48358 1.7233 4.7465
1.46453 1.72022 4.74068
1.46169 1.72652 4.76061
1.44264 1.72245 4.75482
1.42873 1.72562 4.76588
1.41173 1.72364 4.76703
1.39476 1.7237 4.77016
1.37981 1.72482 4.77726
1.36279 1.72178 4.77443
1.3548 1.72182 4.77649
1.33576 1.71876 4.77168
1.32289 1.72402 4.7887
1.30589 1.72202 4.78786
1.29404 1.72832 4.80786
1.27499 1.72423 4.80106
1.26212 1.72849 4.8181
1.25207 1.72641 4.8122
1.23298 1.72025 4.80044
1.22116 1.72761 4.82442
1.20416 1.72663 4.82456
1.18922 1.72774 4.83166
1.17325 1.72781 4.83578
1.15315 1.72265 4.82401
1.15033 1.72999 4.84692
1.1323 1.72694 4.8431
1.11632 1.727 4.84622
1.10039 1.72914 4.85531
1.08441 1.7292 4.85843
1.06845 1.72927 4.86255
1.05038 1.72517 4.85475
1.04345 1.7283 4.86375
0.992453 1.72534 4.86418
0.9796 1.73163 4.88319
0.961553 1.72756 4.87738
0.946646 1.73175 4.88944
0.93863 1.72972 4.88753
0.905669 1.72982 4.89277
0.872715 1.72993 4.89902
0.855707 1.72893 4.89816
0.840792 1.7321 4.90923
0.832823 1.73317 4.91328
0.816839 1.73321 4.9154
0.7998 1.73015 4.91057
0.783877 1.73331 4.92064
0.767909 1.73438 4.92475
0.750885 1.73235 4.92191
0.733901 1.73239 4.92403
0.726939 1.73347 4.92907
0.70887 1.72935 4.92027
0.692924 1.73146 4.92736
0.678017 1.73465 4.93942
0.62697 1.7306 4.93387
0.620056 1.73477 4.94486
0.603064 1.73479 4.94599
0.58708 1.73484 4.94811
0.553079 1.73286 4.94839
0.537087 1.73289 4.94951
0.521157 1.73603 4.95859
0.502995 1.72774 4.93784
0.495033 1.72881 4.94289
0.479134 1.73302 4.95595
0.462142 1.73305 4.95708
0.446166 1.7341 4.96018
0.430236 1.73725 4.96926
0.412127 1.73105 4.95548
0.397228 1.73526 4.96853
0.389275 1.73735 4.97456
0.37119 1.7332 4.96376
0.355175 1.73218 4.9619
0.338167 1.73118 4.96104
0.322214 1.73328 4.96713
0.305207 1.73328 4.96626
0.289331 1.73853 4.9823
0.280262 1.7354 4.97341
0.264223 1.73334 4.96856
0.247293 1.73548 4.97766
0.231293 1.73549 4.97778
0.21427 1.73446 4.97493
0.198302 1.73553 4.97903
0.181263 1.73347 4.97419
0.173341 1.73763 4.98419
0.156271 1.73351 4.97538
0.139288 1.73455 4.97749
0.123249 1.73248 4.97264
0.106219 1.73144 4.96878
0.0903355 1.73667 4.98383
0.0734131 1.73983 4.99391
0.065313 1.73565 4.98103
0.0482978 1.73463 4.97917
0.0333866 1.73285 4.8583
0.000442126 1.73597 4.8655
-0.00748046 1.73913 4.87551
-0.0236036 1.7339 4.85971
-0.0394714 1.74017 4.87674
-0.0555563 1.73602 4.86592
-0.0724704 1.74019 4.87699
-0.0885321 1.73708 4.86915
-0.112508 1.73815 4.87232
-0.12953 1.73811 4.86945
-0.145546 1.7371 4.86758
-0.161592 1.73502 4.86173
-0.193606 1.73501 4.85997
-0.210504 1.74022 4.87303
-0.217667 1.73191 4.8522
-0.234628 1.734 4.8573
-0.249728 1.72982 4.84447
-0.282649 1.73399 4.85466
-0.300524 1.74124 4.87069
-0.314694 1.73292 4.84892
-0.324554 1.7402 4.86688
-0.340607 1.7381 4.86003
-0.35663 1.73707 4.85717
-0.371722 1.73291 4.84534
-0.387721 1.73392 4.84545
-0.406527 1.7433 4.87046
-0.420728 1.73393 4.8447
-0.428689 1.73601 4.84973
-0.445626 1.74014 4.8578
-0.461648 1.7391 4.85493
-0.477679 1.73806 4.85107
-0.491903 1.72764 4.82233
-0.5107 1.73804 4.84832
-0.524862 1.73174 4.82751
-0.535675 1.7411 4.85146
-0.548876 1.73172 4.82569
-0.566744 1.73799 4.84274
-0.582805 1.73588 4.83489
-0.598788 1.73792 4.83698
-0.613873 1.73377 4.82615
-0.630833 1.73686 4.83124
-0.638902 1.73373 4.82234
-0.653932 1.73368 4.81846
-0.6709 1.73575 4.82255
-0.686915 1.73573 4.82067
-0.703891 1.73779 4.82377
-0.719913 1.73776 4.82089
-0.736865 1.74086 4.82698
-0.743981 1.73564 4.8121
-0.760942 1.73773 4.8172
-0.775987 1.73665 4.81133
-0.792947 1.73974 4.81641
-0.809954 1.74073 4.81553
-0.825015 1.73763 4.80768
-0.839107 1.73446 4.79584
-0.847161 1.73236 4.78893
-0.865051 1.73858 4.80297
-0.877275 1.72916 4.7742
-0.898064 1.74058 4.80119
-0.911219 1.73329 4.78139
-0.932008 1.7447 4.80839
-0.941333 1.73009 4.76667
-0.962153 1.74045 4.78967
-0.968268 1.73523 4.7748
-0.985221 1.73833 4.78088
-1.00126 1.73727 4.77601
-1.01631 1.73617 4.76914
-1.03329 1.73822 4.77124
-1.04643 1.73296 4.75341
-1.06726 1.7423 4.77544
-1.07044 1.73396 4.75258
-1.08744 1.73497 4.75269
-1.10444 1.73699 4.75279
-1.11949 1.73489 4.74593
-1.13357 1.73274 4.73507
-1.15638 1.74413 4.76008
-1.15953 1.73683 4.74021
-1.17459 1.73474 4.73335
-1.19353 1.73986 4.74042
-1.20761 1.73672 4.73057
-1.21976 1.73043 4.71075
-1.24546 1.74701 4.74871
-1.25372 1.73553 4.71593
-1.26368 1.73861 4.72096
-1.28165 1.74167 4.72405
-1.29379 1.73643 4.70722
-1.30592 1.73017 4.6894
-1.33262 1.74777 4.72835
-1.33894 1.73317 4.68761
-1.36177 1.74349 4.70863
-1.37197 1.73412 4.68284
-1.379 1.73406 4.67889
-1.39892 1.73922 4.68897
-1.41493 1.74122 4.68806
-1.4261 1.7339 4.66625
-1.447 1.74111 4.6793
-1.4601 1.73691 4.66546
-1.47611 1.73891 4.66455
-1.48316 1.73683 4.65863
-1.49916 1.73882 4.65772
-1.51324 1.73569 4.64788
-1.53024 1.73768 4.64697
-1.5492 1.74177 4.65206
-1.5623 1.73859 4.6392
-1.57735 1.73851 4.63332
-1.58828 1.74265 4.64234
-1.6004 1.73842 4.62649
-1.61349 1.73526 4.61463
-1.63929 1.74766 4.64065
-1.64457 1.73511 4.60387
-1.66354 1.73819 4.60797
-1.68053 1.74121 4.60905
-1.68562 1.73806 4.59813
-1.70067 1.73696 4.59126
-1.71375 1.73481 4.58039
-1.74152 1.74827 4.6104
-1.76772 1.74291 4.58468
-1.78373 1.74389 4.58278
-1.78979 1.74178 4.57486
-1.80484 1.74168 4.56797
-1.81793 1.73951 4.5561
-1.83591 1.74257 4.55919
-1.85195 1.74251 4.55431
-1.86504 1.74034 4.54244
-1.88301 1.7434 4.54553
-1.88417 1.7371 4.52563
-1.90903 1.74639 4.54369
-1.91525 1.73696 4.51487
-1.94109 1.74728 4.53491
-1.94632 1.73784 4.50509
-1.97217 1.74814 4.52413
-1.98034 1.74182 4.50228
-1.99228 1.74594 4.51031
-2.00439 1.74273 4.49545
-2.02827 1.75099 4.51151
-2.03056 1.73843 4.47371
-2.0574 1.74976 4.49475
-2.06753 1.7445 4.4769
-2.09664 1.74431 4.46312
-2.12364 1.74831 4.46226
-2.14066 1.7503 4.46036
-2.14784 1.74295 4.43652
-2.16977 1.7491 4.4456
-2.18285 1.74794 4.43471
-2.2038 1.75306 4.44179
-2.20297 1.74574 4.41989
-2.22097 1.74773 4.419
-2.23701 1.74867 4.4141
-2.25205 1.74961 4.4092
-2.40747 1.75486 4.35229
-2.43562 1.7536 4.33352
-2.46472 1.75442 4.31972
-2.75997 1.75316 4.15494
-3.12467 1.75605 3.92962
5.0832 1.62744 -0.22589
5.06956 1.62316 -0.177717
5.06085 1.62174 -0.138625
5.06146 1.62393 -0.0586511
5.05858 1.62317 -0.0426159
5.06876 1.62751 -0.0187537
5.05111 1.62322 0.0284493
5.05235 1.6247 0.0604225
5.05253 1.62605 0.0844044
5.05578 1.62852 0.116348
4.45656 1.651 2.0818
4.46876 1.65936 2.10659
4.47492 1.66566 2.12745
4.42512 1.6551 2.15499
4.41521 1.6543 2.16808
4.41528 1.65643 2.17704
4.40739 1.65665 2.1911
4.40552 1.6589 2.20809
4.39475 1.66137 2.23913
4.36877 1.65443 2.24243
4.37594 1.66075 2.26429
4.35994 1.65576 2.26448
4.37515 1.66615 2.29122
4.3453 1.66047 2.31153
4.34659 1.66903 2.3494
4.32771 1.66628 2.36558
4.30675 1.66139 2.37182
4.31593 1.66873 2.39564
4.28407 1.66302 2.41397
4.26813 1.66017 2.42313
4.26425 1.66241 2.43913
4.24824 1.65741 2.43832
4.26548 1.66884 2.46803
4.23446 1.65885 2.46741
4.26074 1.67436 2.50299
4.22169 1.6613 2.49748
4.21279 1.6615 2.51054
4.2059 1.66271 2.52458
4.19592 1.66076 2.52768
4.18702 1.66098 2.54175
4.19521 1.66832 2.56558
4.17424 1.66341 2.57081
4.16836 1.66464 2.58584
4.15443 1.6628 2.59597
4.15156 1.66605 2.61295
4.13764 1.66421 2.62308
4.12866 1.66226 2.62618
4.14691 1.67474 2.65886
4.10885 1.66165 2.65134
4.12811 1.67514 2.685
4.09708 1.66611 2.68237
4.10025 1.67144 2.70427
4.07425 1.66446 2.70457
4.0874 1.67274 2.72435
4.06744 1.66783 2.72957
4.06658 1.67211 2.74852
4.04662 1.6672 2.75374
4.0508 1.67354 2.77662
4.01977 1.66452 2.77399
4.04004 1.67802 2.80864
4.01396 1.66889 2.79897
4.02217 1.67729 2.82579
3.99213 1.66825 2.82215
4.00135 1.67666 2.84996
3.98842 1.67581 2.86007
3.9755 1.67497 2.87018
3.96358 1.67414 2.88128
3.95863 1.67424 2.88732
3.94771 1.67341 2.89842
3.94284 1.67666 2.91541
3.93294 1.67686 2.92848
3.92404 1.67806 2.94153
3.91614 1.67827 2.95559
3.9012 1.6764 2.96373
3.90129 1.67956 2.97468
3.88031 1.67463 2.97792
3.87257 1.68115 3.01288
3.85261 1.67724 3.01809
3.85276 1.68153 3.03803
3.84387 1.68275 3.05208
3.81491 1.67686 3.05839
3.80114 1.68031 3.08844
3.78419 1.67843 3.0956
3.76035 1.67676 3.11681
3.77755 1.68813 3.14251
3.76463 1.6883 3.15361
3.72065 1.67738 3.1571
3.7319 1.68884 3.18885
3.6968 1.67569 3.17731
3.70706 1.68717 3.21007
3.69606 1.68418 3.21019
3.68715 1.68538 3.22325
3.66919 1.68247 3.22843
3.66836 1.68779 3.25036
3.6504 1.68488 3.25553
3.63646 1.68301 3.26367
3.60951 1.67813 3.27094
3.61271 1.68551 3.29681
3.60381 1.68773 3.31085
3.59895 1.691 3.32884
3.57492 1.68397 3.32613
3.55008 1.6843 3.34731
3.54421 1.68656 3.36432
3.54631 1.69175 3.37723
3.5213 1.68474 3.37553
3.52147 1.69107 3.39843
3.49947 1.68509 3.39869
3.49965 1.69243 3.42158
3.48167 1.6885 3.42578
3.47884 1.69382 3.44672
3.43977 1.68173 3.43919
3.42602 1.68823 3.47221
3.41511 1.68841 3.48429
3.38522 1.68564 3.49855
3.37844 1.69207 3.52751
3.37055 1.6943 3.54254
3.33277 1.69476 3.57183
3.3159 1.69502 3.58895
3.28218 1.69758 3.62517
3.2454 1.69805 3.65545
3.21056 1.69639 3.67674
3.1738 1.69787 3.708
3.15389 1.69708 3.72116
3.11794 1.69121 3.72852
3.11814 1.6996 3.7544
3.1042 1.69872 3.76251
3.08522 1.69477 3.76472
3.06027 1.69189 3.77195
3.03844 1.69425 3.79508
3.0336 1.69955 3.81504
3.0136 1.69558 3.81625
3.0128 1.70296 3.84215
2.99684 1.70105 3.8473
2.98583 1.69902 3.84541
2.97189 1.69815 3.85353
2.94199 1.69638 3.86779
2.93311 1.69961 3.88281
2.92119 1.69978 3.8939
2.91331 1.70402 3.90989
2.89724 1.6969 3.90112
2.89342 1.70425 3.92404
2.87038 1.69719 3.91932
2.86453 1.70249 3.93929
2.84958 1.70159 3.94542
2.83564 1.70172 3.95352
2.81866 1.69878 3.95669
2.80787 1.70518 3.98368
2.79393 1.70533 3.99279
2.77594 1.70235 3.99397
2.75312 1.70571 4.01709
2.73817 1.70483 4.02422
2.73019 1.70388 4.02729
2.70534 1.70619 4.04745
2.67949 1.7075 4.06763
2.64958 1.70569 4.07888
2.61574 1.70704 4.10112
2.55707 1.70972 4.14453
2.54313 1.70985 4.15263
2.22342 1.7146 4.32499
2.09784 1.7145 4.38095
2.07896 1.71674 4.39606
2.04804 1.71593 4.40731
2.03308 1.71602 4.41342
2.00418 1.71622 4.42563
1.97514 1.71119 4.42193
1.9374 1.71772 4.45612
1.92142 1.71676 4.45825
1.88439 1.71073 4.45462
1.85463 1.71722 4.48675
1.82677 1.72051 4.50492
1.81182 1.72061 4.51103
1.79278 1.71655 4.50623
1.7809 1.72079 4.52226
1.7678 1.71461 4.50945
1.75794 1.7199 4.52845
1.74198 1.71997 4.53257
1.72601 1.71904 4.5367
1.71308 1.7212 4.54677
1.69711 1.72027 4.55091
1.67009 1.71624 4.54817
1.65718 1.71943 4.56022
1.6422 1.71849 4.56335
1.63033 1.72273 4.57938
1.59531 1.71873 4.5777
1.57236 1.71885 4.58487
1.54655 1.72422 4.60899
1.49657 1.7203 4.61242
1.47671 1.72458 4.63051
1.44169 1.72058 4.62884
1.37287 1.72197 4.65234
1.28212 1.72652 4.68596
1.22723 1.72677 4.70037
1.06948 1.72638 4.73457
0.902765 1.72904 4.77279
0.798866 1.72831 4.78659
0.784966 1.73252 4.79963
0.727997 1.73062 4.80409
0.647067 1.73081 4.8137
0.592175 1.73306 4.82808
0.559168 1.73206 4.82734
0.544253 1.73524 4.83841
0.519262 1.73527 4.8396
0.503231 1.73322 4.83575
0.470247 1.73328 4.838
0.439332 1.73546 4.8492
0.398278 1.73239 4.84255
0.349318 1.7335 4.8479
0.293373 1.73464 4.85531
0.276397 1.7357 4.85842
0.244366 1.73366 4.85469
0.228444 1.73682 4.86477
0.203421 1.7358 4.86197
0.171453 1.73688 4.8662
0.138415 1.73483 4.86147
0.122423 1.73486 4.8626
0.098354 1.73174 4.85382
0.0654403 1.73593 4.86501
0.0495022 1.73806 4.8731
0.0292611 1.72564 4.70941
0.00518457 1.72251 4.69964
-0.0258302 1.72151 4.69789
-0.0418455 1.72049 4.69602
-0.0577283 1.72672 4.71105
-0.0968514 1.72051 4.69544
-0.112843 1.72154 4.69654
-0.144757 1.72573 4.70772
-0.190871 1.72054 4.69314
-0.2308 1.7247 4.70238
-0.293859 1.72363 4.69487
-0.363918 1.72256 4.68742
-0.46599 1.72249 4.67819
-0.740169 1.72532 4.65521
-2.11701 1.73465 4.28239
-2.18224 1.73423 4.25188
-2.19727 1.73517 4.24698
-2.23537 1.73701 4.23424
-2.28049 1.7388 4.21855
-2.28863 1.73353 4.19969
-2.30466 1.73448 4.19579
-2.3107 1.73441 4.19084
-2.32476 1.7343 4.18295
-2.34277 1.7363 4.18205
-2.35682 1.73621 4.17516
-2.37185 1.73816 4.17124
-2.40365 1.75255 4.19627
-2.41377 1.74832 4.18041
-2.42783 1.74821 4.17252
-2.44991 1.74908 4.16267
-2.47111 1.7437 4.1359
-2.48122 1.7405 4.12203
-2.49232 1.73831 4.10914
-2.50736 1.73923 4.10324
-2.51834 1.74227 4.10528
-2.52451 1.73597 4.08441
-2.5504 1.74518 4.09747
-2.55163 1.73575 4.06862
-2.5726 1.74081 4.0717
-2.58073 1.73656 4.05482
-2.58775 1.73652 4.05188
-2.6028 1.73743 4.04498
-2.61983 1.7394 4.04207
-2.63289 1.73929 4.03417
-2.66397 1.74215 4.02336
-2.67408 1.73893 4.00849
-2.67813 1.73783 4.00153
-2.69516 1.73979 3.99763
-2.70328 1.73556 3.98175
-2.72427 1.7406 3.98384
-2.73436 1.73842 3.97094
-2.75139 1.74037 3.96704
-2.75952 1.73712 3.95015
-2.78939 1.74838 3.96621
-2.79862 1.74096 3.93738
-2.80773 1.73774 3.9225
-2.81981 1.7366 3.9126
-2.82991 1.7344 3.89871
-2.85781 1.74462 3.91177
-2.85705 1.73416 3.88092
-2.86605 1.73616 3.88095
-2.88604 1.74118 3.88103
-2.89615 1.73898 3.86714
-2.91613 1.74302 3.86923
-2.92941 1.73448 3.83245
-2.95336 1.74159 3.83853
-2.99268 1.737 3.79689
-3.00971 1.73995 3.79297
-3.01486 1.73466 3.77308
-3.03386 1.73867 3.77317
-3.03694 1.73653 3.76322
-3.04902 1.73537 3.75233
-3.06901 1.7404 3.7534
-3.07713 1.73717 3.73751
-3.08822 1.736 3.72561
-3.10525 1.73895 3.72169
-3.11932 1.73883 3.7128
-3.13327 1.74393 3.71883
-3.13545 1.73759 3.69594
-3.16139 1.7457 3.70201
-3.15961 1.73628 3.67414
-3.18654 1.74542 3.6822
-3.18575 1.73702 3.65532
-3.21368 1.74617 3.6644
-3.20981 1.73992 3.64746
-3.23674 1.74906 3.65553
-3.22803 1.7355 3.61866
-3.24803 1.74052 3.61873
-3.25615 1.73729 3.60284
-3.27814 1.74332 3.60392
-3.28624 1.74111 3.59001
-3.30022 1.74517 3.59305
-3.30239 1.73885 3.57116
-3.33131 1.749 3.58023
-3.33646 1.74472 3.56133
-3.33664 1.73737 3.53744
-3.36656 1.74754 3.54751
-3.36576 1.74015 3.52161
-3.39072 1.74724 3.52669
-3.39082 1.74405 3.51374
-3.41182 1.74905 3.51283
-3.40803 1.73965 3.48593
-3.43201 1.74669 3.48801
-3.44409 1.74654 3.4771
-3.46311 1.75051 3.47418
-3.46131 1.74212 3.44829
-3.47429 1.74618 3.45133
-3.48736 1.74704 3.44141
-3.50044 1.7479 3.4315
-3.50855 1.74568 3.41659
-3.53649 1.75481 3.42367
-3.53569 1.74744 3.39877
-3.55372 1.75038 3.39386
-3.55678 1.74926 3.3859
-3.57084 1.75015 3.37799
-3.59087 1.75411 3.37408
-3.58608 1.7457 3.34716
-3.62115 1.75157 3.33634
-3.62124 1.7494 3.32537
-3.64225 1.75339 3.32347
-3.65848 1.74996 3.29364
-3.67651 1.7529 3.28873
-3.68661 1.75271 3.27581
-3.73899 1.75301 3.22619
3.78936 1.66684 2.8537
3.64457 1.66832 3.01479
3.64164 1.66945 3.0238
3.602 1.67118 3.07108
3.57034 1.67486 3.11627
3.51961 1.67144 3.1527
3.4542 1.67564 3.23115
3.40658 1.67841 3.28147
3.39264 1.67654 3.2896
3.36677 1.67481 3.30683
3.36182 1.67592 3.31385
3.3509 1.67608 3.32393
3.35209 1.68344 3.34882
3.32705 1.67539 3.34412
3.32118 1.67964 3.36111
3.30219 1.67569 3.36331
3.2943 1.6779 3.37734
3.29338 1.68106 3.3883
3.29861 1.69049 3.41712
3.27155 1.68141 3.41046
3.2687 1.6867 3.43041
3.25072 1.68376 3.43359
3.24587 1.68805 3.45256
3.22486 1.68205 3.45181
3.22596 1.68624 3.46474
3.21303 1.68638 3.47384
3.19505 1.68244 3.47703
3.18312 1.6826 3.48712
3.17624 1.68582 3.50213
3.16634 1.68702 3.51519
3.15239 1.68614 3.5223
3.14643 1.68621 3.52735
3.12844 1.68326 3.52953
3.12459 1.68756 3.5495
3.10662 1.68461 3.55268
3.10984 1.69404 3.58152
3.08176 1.68491 3.57186
3.06984 1.68507 3.58195
3.07195 1.69029 3.59686
3.04892 1.68425 3.59312
3.0481 1.6906 3.61704
3.02204 1.68251 3.60935
3.01819 1.6878 3.62931
2.99516 1.68176 3.62557
2.99939 1.6912 3.6554
2.97737 1.68617 3.65264
2.97343 1.6873 3.66065
2.94958 1.68861 3.68082
2.91663 1.68374 3.68814
2.90673 1.68594 3.70118
2.89582 1.68712 3.71325
2.89289 1.68926 3.72224
2.88804 1.69456 3.7422
2.85792 1.68334 3.72659
2.85408 1.68866 3.74755
2.8272 1.68891 3.76375
2.81224 1.68701 3.76989
2.81438 1.69326 3.78678
2.79132 1.68618 3.78006
2.78648 1.69149 3.80102
2.76849 1.68852 3.8022
2.76162 1.69279 3.82019
2.73857 1.6857 3.81347
2.74284 1.69822 3.84826
2.72472 1.69001 3.83351
2.71685 1.69327 3.85053
2.69785 1.69028 3.85071
2.68897 1.69251 3.86575
2.67502 1.69262 3.87285
2.66309 1.69276 3.88194
2.65218 1.69495 3.89399
2.64319 1.69297 3.89509
2.62923 1.69307 3.9012
2.61427 1.69116 3.90634
2.60337 1.69336 3.91939
2.59347 1.69555 3.93243
2.57445 1.69154 3.93063
2.56558 1.6958 3.94764
2.55252 1.69069 3.93981
2.55276 1.70116 3.97166
2.54186 1.70335 3.98371
2.51879 1.69623 3.97499
2.50281 1.69429 3.97814
2.49495 1.69856 3.99614
2.48505 1.70177 4.01017
2.46794 1.69358 3.99642
2.45907 1.69682 4.01244
2.44917 1.70004 4.02647
2.43219 1.69808 4.02862
2.42129 1.70028 4.04167
2.40834 1.70039 4.04877
2.38527 1.69328 4.04005
2.3854 1.69953 4.05696
2.37855 1.70481 4.07593
2.35548 1.6977 4.06721
2.34356 1.69887 4.07829
2.33467 1.7031 4.09329
2.3187 1.70117 4.09744
2.31491 1.70957 4.12435
2.30794 1.70963 4.1284
2.27977 1.69833 4.10678
2.26888 1.70155 4.12082
2.25899 1.70376 4.13486
2.24097 1.70074 4.13304
2.23211 1.70502 4.15105
2.21613 1.70407 4.15418
2.19711 1.69904 4.1514
2.2003 1.70841 4.17624
2.1772 1.70023 4.16353
2.16528 1.70241 4.17459
2.14727 1.6994 4.17377
2.14147 1.70678 4.19871
2.11633 1.69755 4.18203
2.11356 1.70699 4.21192
2.09947 1.70082 4.20011
2.08655 1.70298 4.21018
2.07463 1.70515 4.22124
2.05763 1.70217 4.22141
2.04368 1.70226 4.22752
2.01477 1.70248 4.24073
2.00678 1.7015 4.24181
1.99283 1.7016 4.24791
1.97277 1.69651 4.24114
1.96799 1.70593 4.26904
1.94794 1.70085 4.26326
1.93603 1.70302 4.27432
1.91903 1.70105 4.27548
1.91511 1.7042 4.28546
1.89505 1.6981 4.2777
1.88313 1.70027 4.28876
1.86919 1.7014 4.29685
1.85626 1.70254 4.30593
1.85149 1.71299 4.33582
1.82327 1.69858 4.30724
1.82242 1.70588 4.32714
1.80848 1.70699 4.33423
1.78738 1.69983 4.3225
1.77855 1.70616 4.34447
1.74656 1.70221 4.34677
1.72259 1.70129 4.35097
1.71068 1.70346 4.36203
1.69572 1.70355 4.36714
1.68177 1.70466 4.37423
1.66784 1.7058 4.38332
1.64979 1.70173 4.37751
1.64404 1.7122 4.4094
1.62005 1.71025 4.41161
1.59793 1.70203 4.3959
1.59013 1.71042 4.42184
1.57721 1.71258 4.43191
1.56019 1.71056 4.43006
1.55241 1.71998 4.45799
1.54339 1.71794 4.45508
1.52841 1.717 4.45821
1.51241 1.71503 4.45936
1.50259 1.72237 4.48233
1.47839 1.71101 4.45668
1.46342 1.71108 4.46079
1.44847 1.71118 4.4669
1.44663 1.71849 4.48781
1.42857 1.7144 4.48101
1.41464 1.71553 4.48909
1.38059 1.71046 4.48343
1.36668 1.71365 4.49548
1.35375 1.71579 4.50455
1.3509 1.72208 4.52348
1.33287 1.71905 4.52066
1.31686 1.71703 4.51881
1.29676 1.71086 4.50705
1.29209 1.72549 4.54888
1.26993 1.71619 4.52818
1.25108 1.7215 4.54825
1.23199 1.71636 4.53747
1.22218 1.72372 4.56143
1.20102 1.71444 4.54173
1.18813 1.71965 4.55575
1.17005 1.7135 4.54497
1.15819 1.71979 4.56397
1.1422 1.71882 4.56511
1.13213 1.7147 4.55624
1.11615 1.71374 4.55838
1.10119 1.71482 4.56348
1.09036 1.72215 4.58545
1.07229 1.71705 4.57766
1.0563 1.71708 4.57878
1.04829 1.71505 4.57687
1.03956 1.72859 4.61274
1.01735 1.71619 4.58509
1.00757 1.72663 4.61401
0.989494 1.72149 4.60423
0.971416 1.71636 4.59444
0.956423 1.71539 4.59556
0.943579 1.72269 4.61556
0.932431 1.71442 4.59676
0.921679 1.7259 4.62867
0.905648 1.72285 4.62484
0.887562 1.7177 4.61405
0.874686 1.72295 4.63007
0.856624 1.71884 4.62227
0.841671 1.72094 4.62835
0.835764 1.72512 4.64033
0.819725 1.72206 4.6355
0.802686 1.719 4.63067
0.785608 1.71387 4.62088
0.772756 1.72116 4.63987
0.754655 1.71498 4.62709
0.740763 1.71919 4.64114
0.734856 1.72338 4.65312
0.71674 1.71717 4.63835
0.703949 1.72658 4.66531
0.685802 1.71831 4.64657
0.671895 1.7225 4.65861
0.655919 1.72355 4.66172
0.640949 1.72362 4.66583
0.631872 1.71948 4.65596
0.615887 1.71952 4.65808
0.599872 1.7185 4.65621
0.585942 1.72165 4.66527
0.571074 1.72691 4.68231
0.553926 1.71864 4.66356
0.540081 1.72595 4.68356
0.529903 1.71661 4.66077
0.514973 1.71976 4.66984
0.498934 1.7177 4.66499
0.484051 1.72293 4.68002
0.469136 1.7261 4.69109
0.453098 1.72404 4.68624
0.437028 1.71992 4.67742
0.429074 1.72201 4.68345
0.413052 1.72098 4.68059
0.397005 1.7179 4.67475
0.383145 1.72418 4.69277
0.3683 1.73149 4.71277
0.35113 1.72317 4.69102
0.335154 1.72423 4.69413
0.319076 1.71909 4.68432
0.312208 1.72635 4.70127
0.280061 1.71809 4.68263
0.2641 1.71918 4.68774
0.24807 1.71813 4.68387
0.233155 1.7223 4.69492
0.218256 1.72651 4.70798
0.209171 1.72235 4.6971
0.194195 1.72341 4.7002
0.178141 1.72031 4.69337
0.162211 1.72446 4.70243
0.147219 1.72448 4.70354
0.115235 1.72454 4.70578
0.0911507 1.72039 4.69502
0.0441289 1.71938 4.69239
0.0301849 1.72553 4.56639
0.0140693 1.72032 4.55158
-0.0318748 1.72345 4.55888
-0.0469365 1.72035 4.55104
-0.0548202 1.72557 4.56603
-0.0699823 1.71827 4.54525
-0.0848808 1.72348 4.55828
-0.0999118 1.72143 4.55443
-0.115872 1.72351 4.55952
-0.130949 1.72038 4.54968
-0.145879 1.72352 4.55874
-0.152995 1.7183 4.54387
-0.168917 1.72246 4.55393
-0.183932 1.72145 4.55206
-0.2149 1.72353 4.55626
-0.251999 1.71936 4.5436
-0.26799 1.72039 4.54471
-0.282998 1.72038 4.54382
-0.313942 1.72351 4.55101
-0.329026 1.72036 4.54017
-0.344018 1.72038 4.54128
-0.35201 1.7214 4.54232
-0.367916 1.72659 4.55437
-0.397977 1.7245 4.54663
-0.427998 1.72447 4.54385
-0.443068 1.72135 4.53501
-0.451044 1.7234 4.53804
-0.48198 1.72754 4.54621
-0.511119 1.7213 4.52852
-0.542116 1.72332 4.52873
-0.566045 1.72747 4.53785
-0.596106 1.72537 4.5301
-0.656211 1.72321 4.51659
-0.740229 1.72723 4.51416
-0.823332 1.72708 4.50079
-0.854361 1.72804 4.497
-0.875437 1.72491 4.48721
-0.908395 1.73001 4.49238
-0.936494 1.72684 4.47964
-0.989545 1.72777 4.47302
-1.07267 1.72858 4.45664
-1.1478 1.72837 4.4392
-1.17082 1.72936 4.43736
-1.1999 1.72821 4.4266
-1.25902 1.72802 4.41104
-1.28299 1.73208 4.41416
-1.36321 1.72871 4.38581
-1.53258 1.73009 4.33706
-1.6479 1.72856 4.29595
-1.69299 1.7304 4.28326
-1.72304 1.73131 4.27647
-1.74215 1.72912 4.26264
-1.75719 1.72906 4.25776
-1.78005 1.73833 4.2748
-1.80227 1.73193 4.24705
-1.82938 1.72973 4.23229
-1.85928 1.73892 4.24438
-1.86648 1.73056 4.21955
-1.89947 1.73558 4.21973
-1.93361 1.73434 4.202
-1.95973 1.73212 4.18623
-1.98362 1.74135 4.20027
-1.98685 1.73091 4.17045
-2.00188 1.73084 4.16556
-2.02379 1.73904 4.17761
-2.02689 1.73485 4.16469
-2.03896 1.73371 4.1548
-2.05596 1.73572 4.1549
-2.07001 1.73564 4.149
-2.08208 1.7345 4.13911
-2.10106 1.73856 4.14219
-2.11117 1.73535 4.12731
-2.12423 1.73424 4.11943
-2.14111 1.74249 4.13543
-2.1463 1.73512 4.11058
-2.15739 1.73295 4.09869
-2.1862 1.74533 4.12273
-2.1845 1.73175 4.08391
-2.20052 1.73373 4.082
-2.22934 1.74709 4.10503
-2.22158 1.73461 4.07315
-2.24056 1.73867 4.07623
-2.2556 1.73959 4.07033
-2.26078 1.73226 4.04748
-2.27975 1.73633 4.05156
-2.2938 1.73623 4.04467
-2.30575 1.74133 4.05068
-2.31388 1.73609 4.03382
-2.3378 1.74425 4.04388
-2.34101 1.73585 4.01702
-2.3659 1.74508 4.03108
-2.37502 1.74085 4.0152
-2.39301 1.74488 4.01628
-2.39016 1.73758 3.99636
-2.41803 1.74885 4.01341
-2.41532 1.7353 3.97659
-2.43527 1.74039 3.98166
-2.44736 1.73924 3.97077
-2.46338 1.7412 3.96786
-2.47152 1.73694 3.94998
-2.49247 1.74303 3.95505
-2.48667 1.73266 3.93016
-2.50861 1.73978 3.93722
-2.52463 1.74174 3.93431
-2.52979 1.73544 3.91344
-2.54581 1.7374 3.91053
-2.56875 1.74454 3.9186
-2.57689 1.74028 3.90072
-2.58292 1.74022 3.89676
-2.60388 1.7463 3.90083
-2.61793 1.7472 3.89392
-2.631 1.74608 3.88504
-2.64209 1.74391 3.87315
-2.65219 1.74173 3.86026
-2.66131 1.73851 3.84537
-2.67425 1.74362 3.8524
-2.68336 1.74141 3.83749
-2.69446 1.73924 3.82561
-2.71245 1.74325 3.82569
-2.71861 1.73796 3.80581
-2.7455 1.74817 3.81886
-2.75758 1.74703 3.80897
-2.76361 1.74698 3.80501
-2.77668 1.74685 3.79611
-2.78974 1.74673 3.78721
-2.79786 1.74351 3.77232
-2.81191 1.74442 3.76541
-2.82004 1.74017 3.74853
-2.83706 1.74314 3.74561
-2.84704 1.74618 3.74765
-2.85813 1.74501 3.73574
-2.87119 1.7449 3.72784
-2.88031 1.74169 3.71296
-2.90227 1.74876 3.71702
-2.91137 1.74657 3.70412
-2.92345 1.74542 3.69322
-2.93741 1.75052 3.69925
-2.94553 1.74729 3.68336
-2.95562 1.74612 3.67145
-2.96769 1.74599 3.66254
-2.98076 1.74585 3.65264
-2.99184 1.7447 3.64174
-3.00986 1.74868 3.63982
-3.01392 1.74657 3.63188
-3.03193 1.75055 3.62996
-3.044 1.75043 3.62105
-3.05013 1.74618 3.60416
-3.05825 1.74295 3.58826
-3.08122 1.75001 3.59133
-3.09428 1.7499 3.58343
-3.10536 1.74975 3.57251
-3.11437 1.75174 3.57155
-3.12745 1.7516 3.56165
-3.13753 1.75044 3.55074
-3.15258 1.75135 3.54384
-3.16366 1.7512 3.53293
-3.1698 1.74693 3.51503
-3.17394 1.74267 3.49713
-3.18989 1.74877 3.50316
-3.198 1.74657 3.48925
-3.21503 1.74851 3.48435
-3.23305 1.75248 3.48142
-3.24215 1.75029 3.46852
-3.26729 1.75103 3.4497
-3.27945 1.74772 3.42884
-3.29252 1.7486 3.41992
-3.30658 1.74949 3.41201
-3.31568 1.74831 3.3991
-3.33677 1.75014 3.38723
-3.35281 1.75207 3.38132
3.87272 1.66058 2.50212
3.82027 1.6627 2.57549
3.80856 1.66727 2.61351
3.77077 1.66372 2.64186
3.74699 1.66416 2.67103
3.71925 1.6647 2.70624
3.69052 1.66524 2.74145
3.64201 1.66825 2.80778
3.61824 1.66871 2.83796
3.5885 1.66924 2.87218
3.53497 1.6712 2.93456
3.50221 1.67069 2.96682
3.396 1.67133 3.07263
3.3524 1.67513 3.12491
3.33845 1.67324 3.13204
3.33156 1.67545 3.14606
3.30585 1.68005 3.18519
3.29182 1.675 3.18137
3.28292 1.6762 3.19442
3.27905 1.68045 3.21139
3.26409 1.67855 3.21753
3.2562 1.68077 3.23156
3.24729 1.68195 3.24361
3.23234 1.68005 3.24975
3.22738 1.68014 3.25579
3.22353 1.68543 3.27474
3.20553 1.68045 3.27595
3.19463 1.68164 3.28802
3.19278 1.68694 3.30796
3.19497 1.69531 3.33282
3.18305 1.69546 3.34291
3.17002 1.69141 3.33907
3.15708 1.69056 3.34818
3.13607 1.68454 3.34643
3.13423 1.69085 3.36735
3.12028 1.68897 3.37448
3.10935 1.68912 3.38457
3.10349 1.69338 3.40155
3.08651 1.69045 3.40572
3.08256 1.69154 3.41174
3.07266 1.69274 3.42479
3.05265 1.68774 3.42402
3.04374 1.68993 3.43606
3.03384 1.69113 3.44911
3.01988 1.69023 3.45523
3.013 1.69345 3.47024
3.00805 1.69356 3.47728
2.99713 1.69472 3.48734
2.97813 1.69074 3.48854
2.96822 1.69091 3.49962
2.95629 1.69106 3.50871
2.94638 1.69324 3.52075
2.93445 1.69338 3.52984
2.91637 1.68625 3.52008
2.91049 1.68949 3.53608
2.89856 1.68963 3.54517
2.88663 1.68977 3.55426
2.87167 1.68887 3.56038
2.8648 1.69213 3.57739
2.84175 1.68506 3.57167
2.84488 1.69129 3.58755
2.83497 1.69248 3.59961
2.81092 1.68541 3.5939
2.79797 1.68552 3.60099
2.79312 1.6908 3.61996
2.77714 1.68786 3.62312
2.76521 1.68802 3.63321
2.77239 1.69735 3.65602
2.74832 1.68924 3.64732
2.7364 1.69039 3.65739
2.72649 1.69158 3.66945
2.70647 1.68656 3.66768
2.7006 1.69182 3.68465
2.70083 1.70125 3.71351
2.6817 1.69203 3.69779
2.66572 1.68908 3.70095
2.65886 1.69435 3.71893
2.6449 1.69244 3.72406
2.62994 1.69152 3.72919
2.62408 1.69681 3.74816
2.60305 1.69076 3.74441
2.59809 1.69186 3.75043
2.59426 1.69818 3.77237
2.57728 1.69523 3.77454
2.56028 1.69325 3.7757
2.56152 1.7037 3.80554
2.53844 1.69558 3.79683
2.52145 1.69261 3.798
2.5236 1.69889 3.81689
2.50256 1.69383 3.81213
2.49366 1.69604 3.82616
2.48376 1.69923 3.83819
2.46677 1.69627 3.84036
2.45788 1.69948 3.85439
2.45001 1.70374 3.87138
2.43391 1.69658 3.85961
2.41894 1.69465 3.86375
2.41511 1.70197 3.88567
2.3961 1.69696 3.88389
2.38213 1.69704 3.889
2.37123 1.69924 3.90205
2.36133 1.70143 3.91409
2.34332 1.69743 3.91329
2.34345 1.70368 3.9302
2.32746 1.70172 3.93235
2.31452 1.70183 3.93944
2.30462 1.70505 3.95347
2.2856 1.70102 3.95067
2.27468 1.70219 3.96174
2.26174 1.70331 3.96982
2.25477 1.70338 3.97387
2.24081 1.70246 3.97899
2.23193 1.70669 3.994
2.219 1.70683 4.0031
2.20402 1.70589 4.00622
2.18906 1.70499 4.01235
2.1751 1.70407 4.01747
2.17118 1.70722 4.02745
2.16027 1.70941 4.03951
2.14529 1.70846 4.04263
2.13438 1.71064 4.05368
2.11738 1.70765 4.05386
2.10241 1.70773 4.05897
2.08643 1.70477 4.06113
2.08047 1.70585 4.06616
2.06244 1.70282 4.06334
2.05153 1.70501 4.0754
2.03758 1.70511 4.0815
2.02058 1.70212 4.08167
2.0117 1.70636 4.09768
1.99674 1.70545 4.10281
1.98468 1.70135 4.09596
1.97479 1.70557 4.10997
1.95981 1.70362 4.11311
1.94078 1.69958 4.10931
1.93292 1.70485 4.1273
1.91999 1.70599 4.13638
1.905 1.70503 4.13851
1.89904 1.70611 4.14354
1.88714 1.70931 4.15658
1.87012 1.70528 4.15377
1.86024 1.70952 4.16978
1.83916 1.70339 4.16003
1.82521 1.70349 4.16613
1.81635 1.70876 4.18413
1.8063 1.70468 4.17826
1.79438 1.70685 4.18932
1.77942 1.70694 4.19443
1.7624 1.70391 4.19161
1.74743 1.70298 4.19573
1.73552 1.70616 4.20778
1.72054 1.7052 4.2099
1.71662 1.70837 4.22089
1.70367 1.70948 4.22797
1.68667 1.70749 4.22813
1.67169 1.70553 4.23027
1.65875 1.70766 4.23834
1.64685 1.71086 4.25138
1.63289 1.71095 4.25649
1.62183 1.70685 4.24963
1.6089 1.70799 4.25871
1.59496 1.70911 4.2658
1.58303 1.71126 4.27586
1.565 1.70822 4.27204
1.55308 1.71038 4.2821
1.54221 1.71563 4.29911
1.53113 1.7105 4.28926
1.51819 1.71162 4.29735
1.50015 1.70755 4.29154
1.48824 1.71073 4.30359
1.47428 1.71183 4.30968
1.46138 1.71402 4.32174
1.44434 1.71096 4.31692
1.44248 1.71724 4.33584
1.42548 1.71524 4.335
1.40947 1.71324 4.33415
1.39653 1.71436 4.34223
1.37951 1.71235 4.34039
1.36761 1.71553 4.35243
1.35469 1.7187 4.36348
1.3397 1.71673 4.36462
1.3317 1.71674 4.36468
1.31776 1.71786 4.37277
1.30176 1.71688 4.37291
1.28676 1.71489 4.37305
1.27693 1.72222 4.39502
1.2568 1.715 4.37928
1.25396 1.7223 4.39919
1.23487 1.71513 4.38744
1.2209 1.71622 4.39253
1.21107 1.72355 4.4145
1.19405 1.72052 4.41167
1.17493 1.71331 4.39692
1.16306 1.71855 4.41293
1.14705 1.71655 4.41209
1.13802 1.7145 4.40818
1.12718 1.72182 4.42916
1.11117 1.7198 4.42731
1.09413 1.71574 4.4225
1.0812 1.7189 4.43255
1.06417 1.71585 4.42872
1.04813 1.71277 4.42289
1.04428 1.72007 4.44281
1.03032 1.72115 4.4479
1.01327 1.71708 4.44209
1.00141 1.72335 4.46009
0.983333 1.71822 4.4503
0.968341 1.71724 4.45143
0.95648 1.72352 4.46943
0.945348 1.71628 4.45261
0.929356 1.7153 4.45375
0.918503 1.72159 4.47274
0.899371 1.71435 4.45599
0.888573 1.72375 4.48194
0.872541 1.7207 4.4781
0.854456 1.71555 4.46731
0.84958 1.72179 4.48326
0.834603 1.72184 4.48637
0.818579 1.71881 4.48354
0.803571 1.71781 4.48266
0.791743 1.72614 4.50463
0.772564 1.71582 4.48193
0.75761 1.71692 4.48802
0.752734 1.72316 4.50397
0.735633 1.71698 4.49119
0.72068 1.71908 4.49727
0.706726 1.72017 4.50336
0.693858 1.72644 4.52037
0.674688 1.71712 4.49865
0.662905 1.72755 4.52659
0.651695 1.71616 4.49984
0.637765 1.7193 4.50889
0.624928 1.72662 4.52989
0.606781 1.71835 4.51114
0.593881 1.72255 4.52418
0.577882 1.72256 4.5243
0.562866 1.72055 4.52244
0.54789 1.7216 4.52554
0.538827 1.71749 4.51767
0.524881 1.7196 4.52474
0.508835 1.71753 4.51889
0.494936 1.72173 4.53194
0.477874 1.71762 4.52413
0.464999 1.72387 4.54013
0.448952 1.72079 4.5343
0.440913 1.71872 4.52939
0.424898 1.71771 4.52752
0.412092 1.72708 4.55249
0.394914 1.71776 4.52975
0.381093 1.72611 4.55273
0.363945 1.71784 4.53398
0.350039 1.72303 4.54601
0.341953 1.71787 4.53515
0.32814 1.72723 4.55912
0.31093 1.71585 4.53241
0.297063 1.72311 4.54941
0.281016 1.72003 4.54358
0.266048 1.7211 4.54767
0.25104 1.7201 4.5468
0.243102 1.72322 4.55482
0.226978 1.717 4.53903
0.213096 1.72323 4.55404
0.19701 1.71808 4.54324
0.182166 1.72539 4.56324
0.167018 1.71812 4.54446
0.152213 1.7285 4.56942
0.144073 1.72024 4.55161
0.129058 1.72022 4.54972
0.113035 1.71819 4.54687
0.0981911 1.72649 4.56686
0.0829895 1.71612 4.54113
0.0681688 1.72547 4.5641
0.0520525 1.71926 4.54931
0.045037 1.71823 4.54738
0.0241523 1.7225 4.42946
0.00911385 1.72044 4.4246
-0.00584682 1.72252 4.42968
-0.0128623 1.7215 4.42775
-0.0279083 1.71942 4.4219
-0.0428922 1.72046 4.42399
-0.0578918 1.72047 4.42411
-0.0727822 1.72669 4.43813
-0.0878984 1.72048 4.42333
-0.102843 1.72359 4.4304
-0.109875 1.72154 4.42648
-0.12482 1.72465 4.43355
-0.13985 1.72361 4.42968
-0.154772 1.72776 4.43973
-0.168903 1.72152 4.42293
-0.184817 1.7257 4.43399
-0.198895 1.72156 4.42415
-0.214816 1.72672 4.4342
-0.221792 1.72777 4.43723
-0.23597 1.71944 4.41446
-0.250916 1.72155 4.42154
-0.265954 1.72049 4.41667
-0.280945 1.72152 4.41777
-0.294952 1.72151 4.41688
-0.310014 1.71841 4.40903
-0.317936 1.72256 4.41903
-0.332943 1.72255 4.41815
-0.348849 1.72774 4.43019
-0.362004 1.72046 4.4104
-0.376972 1.72253 4.41448
-0.391963 1.72355 4.41558
-0.406962 1.72456 4.41567
-0.413993 1.72251 4.41176
-0.430845 1.7308 4.43076
-0.443046 1.72143 4.40499
-0.459022 1.72248 4.4081
-0.474951 1.72763 4.41714
-0.48995 1.72764 4.41725
-0.503035 1.72449 4.4064
-0.511934 1.72968 4.41939
-0.525081 1.72241 4.40059
-0.541017 1.72654 4.40865
-0.556009 1.72757 4.40975
-0.571016 1.72756 4.40886
-0.584132 1.72235 4.39404
-0.601045 1.72753 4.40509
-0.607138 1.72335 4.3932
-0.621168 1.72231 4.38932
-0.635199 1.72126 4.38544
-0.652143 1.72537 4.39251
-0.666158 1.72535 4.39061
-0.682133 1.72741 4.3937
-0.69521 1.72427 4.38385
-0.70417 1.72735 4.38887
-0.733223 1.72627 4.3821
-0.748237 1.72625 4.38022
-0.763213 1.7283 4.3833
-0.791312 1.72513 4.37056
-0.797374 1.72202 4.36265
-0.812381 1.72301 4.36174
-0.828356 1.72507 4.36483
-0.842394 1.72401 4.35996
-0.859339 1.72812 4.36702
-0.873376 1.72706 4.36214
-0.886438 1.72495 4.35427
-0.901475 1.72389 4.3494
-0.92445 1.72695 4.35253
-0.937535 1.72379 4.34167
-0.952557 1.72376 4.33879
-0.968509 1.72786 4.34485
-0.984484 1.72992 4.34794
-0.990554 1.72679 4.33903
-1.00554 1.72883 4.34111
-1.0317 1.72354 4.32038
-1.06366 1.72762 4.32456
-1.11378 1.72642 4.30896
-1.13168 1.73262 4.322
-1.14185 1.72531 4.30018
-1.17284 1.72834 4.30137
-1.19389 1.72826 4.29453
-1.23895 1.72917 4.28686
-1.25007 1.72496 4.272
-1.26606 1.72698 4.27309
-1.28106 1.72799 4.27319
-1.28613 1.72586 4.26426
-1.31908 1.73096 4.26943
-1.3341 1.73194 4.26753
-1.3612 1.72976 4.25376
-1.37428 1.72762 4.24389
-1.38031 1.72656 4.23995
-1.39532 1.72754 4.23805
-1.47352 1.72722 4.21264
-1.49244 1.73338 4.22269
-1.51661 1.72707 4.20097
-1.53164 1.72802 4.19707
-1.5597 1.72791 4.18828
-1.56769 1.72993 4.18931
-1.59578 1.72877 4.17754
-1.61569 1.73596 4.18958
-1.62484 1.72969 4.17074
-1.63889 1.72959 4.16385
-1.6539 1.73058 4.16194
-1.65993 1.72952 4.158
-1.67299 1.72943 4.1511
-1.69096 1.73248 4.15419
-1.70304 1.73033 4.14332
-1.71903 1.73337 4.14539
-1.74092 1.74158 4.15844
-1.74319 1.72906 4.12363
-1.75919 1.73108 4.12372
-1.77504 1.74037 4.14271
-1.78319 1.73409 4.12386
-1.79626 1.73297 4.11498
-1.81323 1.73703 4.11804
-1.82237 1.73177 4.10019
-1.83642 1.73169 4.09429
-1.86027 1.74197 4.11232
-1.86141 1.73572 4.09542
-1.86954 1.73046 4.07756
-1.8885 1.73455 4.08264
-1.89566 1.72826 4.06279
-1.91068 1.73022 4.05987
-1.92963 1.73533 4.06594
-1.93273 1.73114 4.05302
-1.9507 1.73521 4.0571
-1.96866 1.73928 4.06117
-1.97976 1.73609 4.0483
-1.9879 1.73083 4.03044
-2.00292 1.7328 4.02752
-2.01697 1.73271 4.02063
-2.02497 1.73371 4.02067
-2.04786 1.74294 4.03471
-2.05403 1.73562 4.01286
-2.06611 1.73448 4.00297
-2.08409 1.73852 4.00505
-2.10109 1.74053 4.00514
-2.10134 1.72904 3.97231
-2.13114 1.74345 3.99833
-2.12437 1.732 3.96844
-2.14531 1.73813 3.97651
-2.16034 1.73907 3.97161
-2.16944 1.73589 3.95872
-2.18743 1.73991 3.9598
-2.20147 1.73985 3.9549
-2.21158 1.73765 3.94101
-2.21761 1.73658 3.93607
-2.23363 1.73856 3.93416
-2.24668 1.73847 3.92726
-2.25974 1.73836 3.91936
-2.27575 1.74034 3.91745
-2.28388 1.73609 3.90057
-2.2999 1.73808 3.89866
-2.30889 1.7401 3.8997
-2.31702 1.73585 3.88282
-2.335 1.73989 3.8849
-2.34511 1.7367 3.87102
-2.36013 1.73865 3.8671
-2.3722 1.73752 3.85821
-2.38427 1.7364 3.84932
-2.39524 1.74046 3.85334
-2.41422 1.74451 3.85542
-2.41345 1.73406 3.82557
-2.43046 1.73706 3.82465
-2.44056 1.73488 3.81176
-2.46865 1.73572 3.79996
-2.47764 1.73773 3.79999
-2.48576 1.73451 3.7851
-2.50573 1.73957 3.78818
-2.51779 1.73946 3.78027
-2.51999 1.73108 3.75441
-2.55412 1.73185 3.73765
-2.56816 1.73277 3.73174
-2.59724 1.73564 3.72192
-2.60535 1.73243 3.70702
-2.62434 1.73645 3.70811
-2.63442 1.7353 3.6972
-2.64442 1.73731 3.69724
-2.6555 1.73617 3.68734
-2.66955 1.73707 3.68043
-2.68854 1.7421 3.6815
-2.69369 1.73582 3.66263
-2.70773 1.73775 3.65671
-2.7188 1.73661 3.64681
-2.74571 1.74679 3.65786
-2.73395 1.73334 3.62797
-2.76282 1.74559 3.64401
-2.77193 1.74339 3.6301
-2.7751 1.73607 3.60823
-2.79805 1.74317 3.6143
-2.80814 1.742 3.60239
-2.82317 1.74396 3.59848
-2.8302 1.74389 3.59353
-2.84721 1.74788 3.5926
-2.86324 1.74982 3.58769
-2.87234 1.74764 3.57479
-2.89648 1.74737 3.55597
-2.92053 1.7503 3.55011
-2.92962 1.74913 3.53819
-2.94467 1.75004 3.53129
-3.07743 1.75062 3.43027
-3.14391 1.74774 3.36781
4.57721 1.63559 0.573912
4.57532 1.63582 0.588925
3.89826 1.67369 2.3077
3.89035 1.67387 2.31976
3.87856 1.67628 2.34682
3.85953 1.66924 2.34306
3.83352 1.66126 2.34338
3.81369 1.6596 2.36556
3.7525 1.66624 2.47393
3.70097 1.6662 2.53633
3.69026 1.67277 2.57432
3.66324 1.66374 2.57166
3.6296 1.66648 2.61988
3.61868 1.66565 2.63097
3.61387 1.67001 2.65495
3.60596 1.67119 2.66699
3.59402 1.66933 2.67611
3.56024 1.66779 2.70539
3.53444 1.66719 2.7316
3.52754 1.6684 2.74563
3.5146 1.66652 2.75276
3.50871 1.66874 2.76777
3.48291 1.66915 2.79397
3.475 1.66933 2.80602
3.4691 1.67154 2.82004
3.45516 1.66965 2.82717
3.44423 1.66981 2.83725
3.41858 1.67551 2.88337
3.37287 1.67311 2.92175
3.36791 1.67318 2.92679
3.36303 1.67642 2.94278
3.34504 1.67147 2.94499
3.32319 1.67178 2.96515
3.31126 1.67092 2.97426
3.30243 1.67425 2.99628
3.2846 1.67661 3.01938
3.26662 1.67265 3.02157
3.25671 1.67283 3.03365
3.24594 1.6793 3.06464
3.22593 1.6733 3.06388
3.23308 1.68158 3.0827
3.22013 1.67969 3.08983
3.20921 1.67985 3.09991
3.20333 1.68309 3.11591
3.17928 1.67502 3.11021
3.17441 1.67927 3.12719
3.16752 1.68148 3.14121
3.16962 1.68567 3.15413
3.15466 1.68377 3.16027
3.14273 1.68292 3.16938
3.14088 1.6882 3.18831
3.134 1.69144 3.20432
3.12206 1.69157 3.21241
3.08836 1.69417 3.25163
3.0734 1.69227 3.25777
3.06247 1.69241 3.26685
3.05055 1.69257 3.27694
3.04063 1.69374 3.288
3.03365 1.69279 3.29107
3.02374 1.69396 3.30213
3.00574 1.68998 3.30332
3.00088 1.69425 3.3213
2.98389 1.6903 3.32348
2.97095 1.69042 3.33158
2.95901 1.68954 3.33869
2.95809 1.6927 3.34965
2.94919 1.6949 3.36268
2.92615 1.68784 3.35796
2.92431 1.69415 3.37888
2.90934 1.69122 3.38304
2.90448 1.69649 3.401
2.8885 1.69355 3.40417
2.8684 1.68437 3.39145
2.86757 1.6917 3.41335
2.85665 1.69187 3.42443
2.84269 1.69097 3.43055
2.83682 1.69521 3.44654
2.81882 1.69124 3.44773
2.80688 1.69037 3.45584
2.80598 1.69454 3.46778
2.78797 1.68954 3.46699
2.77704 1.6907 3.47706
2.77017 1.69495 3.49405
2.75621 1.69304 3.49918
2.73821 1.68905 3.49938
2.7374 1.69742 3.52426
2.72738 1.6944 3.52238
2.70433 1.68731 3.51566
2.69644 1.69054 3.53068
2.69057 1.69378 3.54667
2.66852 1.68771 3.54093
2.65962 1.68991 3.55397
2.65173 1.69314 3.56898
2.64981 1.69629 3.57895
2.63989 1.69746 3.59001
2.62493 1.69654 3.59513
2.60996 1.69461 3.59928
2.59903 1.69475 3.60836
2.58609 1.69488 3.61645
2.56909 1.69191 3.61763
2.55716 1.69205 3.62672
2.55221 1.69314 3.63274
2.54128 1.69428 3.6418
2.5253 1.69234 3.64495
2.52146 1.69865 3.66589
2.50649 1.69672 3.67003
2.49253 1.69581 3.67515
2.48566 1.70006 3.69214
2.47362 1.696 3.68729
2.46473 1.69921 3.70132
2.45076 1.69728 3.70545
2.43782 1.69741 3.71355
2.42589 1.69855 3.72262
2.41497 1.69972 3.73369
2.40405 1.70188 3.74374
2.39808 1.70194 3.74778
2.38311 1.70001 3.75193
2.37117 1.70014 3.76002
2.35822 1.70025 3.76711
2.34123 1.69728 3.76829
2.33436 1.70254 3.78526
2.31532 1.69749 3.78148
2.30835 1.69754 3.78453
2.30453 1.7049 3.80845
2.29057 1.70398 3.81357
2.27965 1.70615 3.82463
2.26264 1.70214 3.82281
2.25376 1.70638 3.83882
2.2398 1.70546 3.84394
2.22672 1.69933 3.83413
2.21783 1.70355 3.84913
2.20693 1.70574 3.86118
2.19194 1.70378 3.86333
2.18306 1.70701 3.87835
2.16504 1.70399 3.87653
2.15311 1.70413 3.88562
2.1502 1.70831 3.89758
2.13115 1.70222 3.89081
2.1243 1.70852 3.91077
2.10627 1.70448 3.90697
2.08344 1.70782 3.92909
2.07151 1.70996 3.93815
2.04345 1.70288 3.93147
2.02468 1.71034 3.9615
2.01173 1.71044 3.9676
1.98482 1.71063 3.9798
1.95195 1.71191 3.99703
1.93798 1.71099 4.00215
1.91893 1.7059 3.99537
1.90803 1.7091 4.00841
1.88998 1.70403 4.00262
1.88606 1.70618 4.01262
1.87414 1.70935 4.02366
1.8462 1.70749 4.0319
1.83326 1.7086 4.03898
1.82032 1.70973 4.04706
1.79836 1.70884 4.05324
1.79052 1.71514 4.07321
1.7745 1.71212 4.07138
1.76055 1.71222 4.07748
1.74251 1.70716 4.07269
1.73671 1.71655 4.0986
1.7156 1.70835 4.08488
1.6708 1.71279 4.11215
1.66093 1.71703 4.12817
1.64595 1.71609 4.13129
1.62791 1.71203 4.12649
1.61393 1.71108 4.12961
1.60798 1.71317 4.13562
1.5981 1.7174 4.15064
1.57801 1.71125 4.13988
1.56304 1.71032 4.14401
1.5511 1.71145 4.15208
1.53919 1.71464 4.16412
1.53425 1.71674 4.17113
1.52029 1.71683 4.17624
1.49135 1.71698 4.18545
1.47738 1.71704 4.18856
1.46137 1.71504 4.18771
1.4505 1.72029 4.20471
1.42935 1.71003 4.18602
1.4234 1.71212 4.19204
1.4156 1.72051 4.21798
1.38562 1.71858 4.22123
1.37268 1.72071 4.2293
1.35359 1.71354 4.21755
1.34271 1.71777 4.23257
1.33368 1.71574 4.22967
1.32073 1.71683 4.23575
1.30267 1.71274 4.22894
1.29386 1.7211 4.25289
1.27783 1.71806 4.24905
1.26387 1.71816 4.25516
1.25197 1.72236 4.26819
1.24189 1.7172 4.25734
1.22896 1.71934 4.26641
1.21397 1.71838 4.26853
1.1959 1.71327 4.25974
1.18503 1.71852 4.27675
1.16899 1.71545 4.27092
1.15504 1.71656 4.27801
1.14909 1.71865 4.28402
1.13411 1.71871 4.28713
1.11911 1.71672 4.28728
1.10618 1.71886 4.29634
1.0912 1.71892 4.29946
1.07622 1.71896 4.30157
1.06017 1.71488 4.29575
1.05424 1.71802 4.30475
1.03821 1.71497 4.30091
1.02529 1.71813 4.31097
1.01236 1.72027 4.32003
0.997379 1.72033 4.32314
0.981332 1.71725 4.31731
0.969464 1.72251 4.33432
0.959363 1.71733 4.32148
0.945401 1.71741 4.32658
0.934564 1.72573 4.34754
0.902509 1.71965 4.34087
0.888524 1.71969 4.34298
0.872501 1.71766 4.34013
0.85961 1.72287 4.35415
0.834508 1.7157 4.34144
0.822617 1.71991 4.35547
0.80871 1.7241 4.36752
0.795772 1.72623 4.37558
0.762632 1.71799 4.35795
0.757756 1.72323 4.37391
0.740686 1.71911 4.3651
0.725647 1.71604 4.36026
0.711733 1.72022 4.3713
0.69674 1.71924 4.37243
0.68381 1.72238 4.38148
0.669896 1.72656 4.39253
