-2.90034 1.76426 6.86976
-2.92047 1.76203 6.85294
-2.94646 1.76405 6.85311
-2.97762 1.76277 6.83336
-3.02472 1.7636 6.8197
-3.04483 1.76239 6.80487
-3.07084 1.7644 6.80403
-3.101 1.76209 6.78229
-3.12505 1.76302 6.77646
-3.15008 1.76497 6.77162
-3.19423 1.7647 6.75195
-3.23347 1.76127 6.72129
-3.24648 1.76225 6.71938
-3.27052 1.76319 6.71454
-3.35686 1.76158 6.66921
-3.39193 1.76345 6.65945
-3.41303 1.76228 6.64662
-3.43511 1.76213 6.63579
-3.45917 1.76304 6.62895
-3.47829 1.76181 6.61211
-3.50825 1.76592 6.61828
-3.52146 1.76151 6.59044
-3.53446 1.76252 6.59052
-3.55161 1.76024 6.57068
-3.58158 1.76432 6.57485
-3.60267 1.76416 6.56301
-3.62969 1.76613 6.56018
-3.64682 1.76388 6.54234
-3.67284 1.76685 6.5395
-3.67994 1.76466 6.52658
-3.70695 1.76767 6.52574
-3.71917 1.76225 6.49691
-3.75506 1.76947 6.51007
-3.77418 1.76826 6.49523
-3.79329 1.76705 6.48039
-3.81932 1.76901 6.47656
-3.83036 1.76893 6.47064
-3.84356 1.76555 6.44479
-3.87748 1.77173 6.45495
-3.89166 1.76738 6.43112
-3.91967 1.77139 6.43027
-3.93387 1.76701 6.40444
-3.96976 1.77424 6.41861
-3.97802 1.76775 6.38476
-3.99597 1.77183 6.38984
-4.0141 1.7696 6.373
-4.03323 1.76836 6.35616
-4.04641 1.76501 6.33231
-4.0764 1.76906 6.33447
-4.08959 1.76569 6.30862
-4.11464 1.7666 6.3018
-4.13259 1.77072 6.30887
-4.13788 1.76316 6.27102
-4.16688 1.76718 6.27118
-4.19093 1.76808 6.26334
-4.20314 1.76469 6.23648
-4.23016 1.76667 6.23365
-4.25719 1.76963 6.22981
-4.26031 1.76639 6.21388
-4.27647 1.76409 6.19304
-4.31338 1.77128 6.20421
-4.32657 1.76792 6.17936
-4.34766 1.76876 6.1675
-4.37469 1.77072 6.16367
-4.38885 1.7684 6.14181
-4.39298 1.76516 6.12489
-4.42791 1.77231 6.13405
-4.43418 1.7658 6.09919
-4.46121 1.76875 6.09435
-4.48329 1.7696 6.0835
-4.50142 1.76836 6.06665
-4.52252 1.76818 6.05381
-4.54345 1.77333 6.06289
-4.54674 1.76577 6.02502
-4.57674 1.76978 6.02419
-4.59387 1.76854 6.00734
-4.61497 1.76836 5.9945
-4.62221 1.76289 5.96263
-4.65717 1.76899 5.9678
-4.65732 1.7657 5.94785
-4.68237 1.76761 5.94101
-4.70645 1.76848 5.93117
-4.72654 1.7693 5.91831
-4.73774 1.76593 5.89244
-4.76676 1.7689 5.88962
-4.77004 1.76237 5.85373
-4.78603 1.7654 5.85481
-4.81703 1.76941 5.85398
-4.82624 1.765 5.82611
-4.83942 1.76267 5.80324
-4.87933 1.77086 5.81443
-4.88359 1.76436 5.78055
-4.90667 1.76521 5.76971
-4.92564 1.76929 5.77379
-4.93188 1.76382 5.74192
-4.96189 1.76781 5.74008
-4.97704 1.76652 5.72021
-4.99913 1.76736 5.70837
-5.01924 1.76817 5.6945
-5.04827 1.77113 5.69068
-5.0545 1.76668 5.65979
-5.07447 1.77075 5.66388
-5.08566 1.76739 5.63901
-5.11568 1.77136 5.63617
-5.12984 1.77006 5.6153
-5.16311 1.76756 5.57958
-5.18818 1.76943 5.56974
-5.19229 1.76822 5.55579
-5.21933 1.77115 5.54995
-5.23646 1.7699 5.53209
-5.27768 1.7715 5.50337
-5.29679 1.77129 5.48852
-5.37836 1.77022 5.41314
5.87263 1.70093 4.57929
5.87175 1.70315 4.59426
5.85109 1.70684 4.63937
5.82818 1.70503 4.65157
5.81635 1.70736 4.67363
5.82565 1.71495 4.71345
5.78663 1.70793 4.71085
5.78575 1.71017 4.72683
5.76888 1.71043 4.74395
5.74294 1.70757 4.75219
5.73714 1.71098 4.77919
5.7243 1.7123 4.80027
5.7034 1.71052 4.81445
5.68049 1.7087 4.82565
5.6898 1.7173 4.86646
5.65871 1.71014 4.8548
5.64385 1.71044 4.87391
5.64813 1.71797 4.90977
5.61414 1.71202 4.91212
5.61037 1.71747 4.94207
5.60155 1.71983 4.9661
5.57662 1.71698 4.97534
5.56667 1.71709 4.98241
5.56492 1.72258 5.01535
5.53193 1.71662 5.01668
5.52512 1.72001 5.04269
5.52338 1.7265 5.07561
5.50348 1.72572 5.08977
5.49064 1.72704 5.11085
5.48976 1.72928 5.12683
5.47189 1.72954 5.14396
3.62815 1.75095 6.51272
3.59608 1.74583 6.50304
3.57619 1.74706 6.51817
3.55711 1.74293 6.50838
3.54127 1.74525 6.52946
3.5295 1.7507 6.55948
3.49539 1.74351 6.54484
3.46636 1.74048 6.5421
3.45052 1.74381 6.56317
3.42048 1.73875 6.55848
3.40363 1.74205 6.57756
3.39978 1.74535 6.59754
3.3677 1.74021 6.58685
3.34375 1.73933 6.59405
3.32689 1.74162 6.61314
3.29684 1.73754 6.60643
-0.916557 1.77742 7.09765
-1.0418 1.77302 7.06566
-1.0677 1.77725 7.07979
-1.08979 1.77608 7.06797
-1.11282 1.77503 7.06316
-1.13682 1.77604 7.06333
-1.15985 1.776 7.0595
-1.1709 1.77492 7.0536
-1.19488 1.77697 7.05575
-1.21693 1.77588 7.04893
-1.23899 1.77478 7.04111
-1.25917 1.76945 7.01834
-1.28794 1.77792 7.04843
-1.30617 1.77147 7.01766
-1.32012 1.77359 7.02474
-1.3422 1.77245 7.01492
-1.36426 1.77135 7.0071
-1.3892 1.77447 7.01424
-1.40934 1.77022 6.99646
-1.42951 1.76591 6.97467
-1.45347 1.768 6.97982
-1.46643 1.77009 6.98489
-1.48465 1.76367 6.95612
-1.51059 1.76681 6.96426
-1.53071 1.76359 6.94846
-1.55276 1.7635 6.94163
-1.57675 1.76453 6.94279
-1.60076 1.76552 6.94096
-1.61179 1.76547 6.93704
-1.63192 1.76223 6.92024
-1.65493 1.76323 6.9194
-1.67507 1.75897 6.90061
-1.6981 1.75992 6.89677
-1.72307 1.762 6.90093
-1.74414 1.76088 6.8921
-1.77723 1.75973 6.88037
-1.79929 1.75963 6.87253
-1.82427 1.76167 6.87469
-1.84438 1.75948 6.86087
-1.88948 1.75831 6.84723
-2.21612 1.76027 6.76365
-3.64974 1.75515 6.15544
-3.76319 1.75534 6.09629
-4.72009 1.75135 5.44946
-4.82565 1.75231 5.37424
-4.89724 1.7482 5.29682
-4.92625 1.75319 5.29497
-4.93942 1.75088 5.2731
-4.9605 1.75173 5.26224
-5.0106 1.75756 5.24853
-5.00195 1.74689 5.20362
-5.03877 1.75724 5.22575
-5.03209 1.74863 5.18482
-5.05417 1.75048 5.17396
-5.07724 1.75135 5.16412
-5.09436 1.75112 5.14825
-5.12735 1.75716 5.14941
-5.13654 1.7538 5.12452
-5.1446 1.75369 5.11658
-5.15776 1.75239 5.0957
-5.17983 1.75425 5.08583
-5.19696 1.75401 5.06896
-5.22698 1.75899 5.06612
-5.24013 1.7567 5.04625
-5.26519 1.75959 5.03739
-5.26829 1.7574 5.02445
-5.29733 1.76235 5.01959
-5.31842 1.76317 5.00674
-5.33455 1.76294 4.99086
-5.36879 1.76348 4.9581
5.38123 1.70343 4.65996
5.30902 1.71004 4.76543
5.28006 1.70613 4.7707
5.28534 1.71368 4.80756
5.26443 1.71187 4.81974
5.26959 1.71716 4.83963
5.2517 1.7164 4.85477
5.22877 1.71456 4.86498
5.225 1.71899 4.89394
5.20711 1.71923 4.90908
5.19627 1.72155 4.93013
5.15722 1.71349 4.92454
5.1523 1.71465 4.93556
5.15962 1.72425 4.97637
5.11954 1.71515 4.9678
5.09964 1.71436 4.98097
5.07066 1.70942 4.98426
5.06386 1.71381 5.01025
5.0451 1.71629 5.04136
5.01913 1.71338 5.0466
5.01436 1.71781 5.07557
4.99243 1.71598 5.08577
4.96647 1.71307 5.09101
4.9506 1.71333 5.10812
4.93876 1.71565 5.12918
4.91885 1.71486 5.14234
4.90487 1.7129 5.14448
4.88697 1.7131 5.15761
4.87109 1.71337 5.17473
4.85018 1.71255 5.1859
4.84541 1.71799 5.21586
4.82953 1.71824 5.23198
4.80559 1.71638 5.24019
4.8027 1.7186 5.25518
4.78682 1.71985 5.27128
4.775 1.7222 5.29434
4.76114 1.72449 5.31341
4.73012 1.71848 5.31174
4.72132 1.72286 5.33674
4.70645 1.72414 5.35484
4.69448 1.72321 5.35894
4.68568 1.7266 5.38496
4.66173 1.72472 5.39217
4.64384 1.72494 5.4063
4.62898 1.72623 5.4254
4.62321 1.73168 5.45537
4.59219 1.72666 5.45267
4.58526 1.72781 5.46271
4.57949 1.73326 5.49268
4.55757 1.73142 5.50287
4.5518 1.73688 5.53384
4.52886 1.73502 5.54204
4.51097 1.73524 5.55617
4.48919 1.73869 5.58529
4.44735 1.73703 5.60663
3.48508 1.75097 6.23776
3.46314 1.7501 6.24594
3.44507 1.74598 6.23714
3.41805 1.74196 6.2344
3.38494 1.73478 6.22076
3.36808 1.73807 6.23984
3.30124 1.73543 6.26138
0.0304603 1.76589 6.83165
0.00754567 1.76907 6.84278
-0.00345402 1.76908 6.84286
-0.0254383 1.76913 6.84503
-0.0483762 1.77126 6.85317
-0.0704446 1.76914 6.84436
-0.799723 1.77208 6.80981
-0.822738 1.77207 6.80798
-0.843821 1.76992 6.79717
-0.867751 1.77307 6.80631
-0.888819 1.77095 6.7975
-0.900811 1.77198 6.79857
-0.921863 1.77089 6.79175
-0.943932 1.76877 6.78294
-0.966923 1.7698 6.7841
-0.987991 1.76869 6.77527
-1.00909 1.76551 6.76248
-1.03113 1.76544 6.75664
-1.04216 1.7644 6.75374
-1.06513 1.76648 6.75789
-1.08618 1.76539 6.75106
-1.10825 1.76426 6.74124
-1.13121 1.76636 6.74738
-1.15231 1.76418 6.73457
-1.17624 1.76732 6.74271
-1.18535 1.76412 6.72882
-1.20641 1.76302 6.721
-1.22749 1.76087 6.71019
-1.25144 1.76399 6.71732
-1.27253 1.76183 6.70551
-1.2955 1.7639 6.70965
-1.31657 1.76177 6.69984
-1.32856 1.76281 6.70192
-1.34962 1.76169 6.69309
-1.37167 1.76162 6.68726
-1.39369 1.76159 6.68442
-1.41475 1.76049 6.6766
-1.43486 1.7583 6.66278
-1.45783 1.76036 6.66592
-1.47697 1.7561 6.64813
-1.48992 1.75922 6.65518
-1.51004 1.75599 6.63938
-1.5369 1.76227 6.65649
-1.55214 1.75482 6.62571
-1.57806 1.75898 6.63584
-1.59718 1.75578 6.62103
-1.63022 1.75671 6.61527
-1.65127 1.75562 6.60844
-1.6733 1.7566 6.60559
-1.69536 1.75549 6.59777
-1.71641 1.7554 6.59093
-1.73745 1.75533 6.58509
-1.75949 1.75527 6.58026
-1.77051 1.75524 6.57734
-1.81359 1.75512 6.56767
-3.97775 1.75048 5.62391
-4.08325 1.75158 5.55868
-4.11351 1.74808 5.52395
-4.21702 1.74815 5.45672
-4.34979 1.74672 5.35473
-4.42007 1.74921 5.31722
-4.4905 1.74842 5.26075
-4.568 1.7475 5.19534
-4.58213 1.74624 5.17746
-4.60221 1.74709 5.1666
-4.61833 1.74587 5.15074
-4.64138 1.74878 5.14387
-4.63954 1.74448 5.12391
-4.67052 1.74953 5.12607
-4.68168 1.74722 5.10419
-4.7097 1.75121 5.10234
-4.72186 1.74891 5.08146
-4.73104 1.74556 5.05758
-4.75707 1.74952 5.05372
-4.77306 1.75254 5.05479
-4.78421 1.75024 5.03391
-4.81025 1.75318 5.02906
-4.81943 1.74984 5.00517
-4.84646 1.7538 5.00132
-4.85663 1.75146 4.97843
-4.88664 1.75647 4.97758
-4.88874 1.75428 4.96462
-4.92271 1.76035 4.96779
-4.92396 1.75386 4.93489
-4.95496 1.75988 4.93504
-4.96413 1.75655 4.91215
-4.99414 1.76154 4.9103
-5.00232 1.75819 4.88641
-5.0213 1.76225 4.8895
-5.03246 1.75995 4.86861
-5.04163 1.75761 4.84571
-5.06965 1.76159 4.84286
-5.08577 1.76136 4.82699
5.40286 1.69879 4.21281
5.38396 1.698 4.22596
5.38407 1.70021 4.23993
5.3354 1.69891 4.28532
5.32456 1.70123 4.30638
5.29884 1.70278 4.34255
5.274 1.70212 4.36475
5.25509 1.70032 4.37692
5.24727 1.70366 4.39993
5.23743 1.70498 4.42099
5.22054 1.70521 4.43612
5.21472 1.70857 4.46011
5.20678 1.7087 4.46817
5.19794 1.71101 4.48921
5.18509 1.71231 4.50829
5.16417 1.71048 4.51948
5.15735 1.71384 4.54348
5.13542 1.71099 4.55269
5.12861 1.71437 4.57769
5.12268 1.71551 4.58672
5.09571 1.7116 4.59198
5.11005 1.72324 4.63571
5.09519 1.72352 4.65382
5.07627 1.72269 4.66498
5.04754 1.72423 4.70018
5.02964 1.72345 4.71432
5.01666 1.72149 4.71645
4.98364 1.71449 4.7148
4.96474 1.71369 4.72796
4.9559 1.71703 4.74998
4.94406 1.71933 4.77004
4.92111 1.71647 4.77825
4.90221 1.71567 4.79141
4.89528 1.71581 4.80046
4.87334 1.71395 4.80866
4.85141 1.71211 4.81885
4.84359 1.71546 4.84186
4.81763 1.71155 4.84712
4.80578 1.71385 4.86717
4.79595 1.71619 4.88922
4.77691 1.71214 4.88542
4.76203 1.71339 4.90152
4.75119 1.71569 4.92157
4.72825 1.71283 4.92978
4.70228 1.70992 4.93502
4.6874 1.71017 4.95113
4.66156 1.71048 4.97132
4.64769 1.71176 4.98941
4.62979 1.71097 5.00256
4.6139 1.7122 5.01766
4.60206 1.71452 5.03872
4.56323 1.71287 5.06104
4.56235 1.71611 5.077
4.54344 1.7153 5.08916
4.52353 1.71448 5.10032
4.51066 1.71576 5.1184
4.50488 1.72117 5.14637
4.48597 1.72037 5.15853
4.47412 1.72267 5.17858
4.46214 1.72172 5.18169
4.44828 1.723 5.19978
4.42836 1.72218 5.21094
4.41551 1.72448 5.23101
4.40063 1.72673 5.24709
4.38476 1.72698 5.26321
4.36787 1.72821 5.27832
4.36295 1.72938 5.28934
4.35414 1.73374 5.31334
4.3322 1.73189 5.32254
4.31531 1.73211 5.33666
4.30347 1.73543 5.35771
4.27951 1.73254 5.36393
4.2606 1.73271 5.37507
4.25771 1.73494 5.39006
4.24285 1.73721 5.40814
4.18813 1.7368 5.44557
3.14095 1.74998 6.08935
3.12896 1.74901 6.09046
3.09989 1.74289 6.08176
3.0698 1.73674 6.07008
3.04683 1.73483 6.07528
3.02486 1.73391 6.07946
3.0029 1.733 6.08464
0.407981 1.75072 6.76802
0.386043 1.75285 6.77616
0.364144 1.75606 6.78928
0.342152 1.75609 6.79044
0.320191 1.75718 6.79559
0.298238 1.75928 6.80173
0.287246 1.75931 6.80281
0.264193 1.75722 6.79601
0.242193 1.75724 6.79618
0.220278 1.75941 6.80731
0.197263 1.7594 6.80549
0.175194 1.75629 6.7967
0.15318 1.75627 6.79486
0.142303 1.76052 6.81088
0.120442 1.7648 6.82899
0.0974119 1.76376 6.82518
0.075459 1.76586 6.83131
0.052444 1.76485 6.8295
-1.06812 1.77054 6.49181
-1.20536 1.76816 6.46088
-1.24839 1.76914 6.45719
-1.27848 1.76698 6.44544
-1.29666 1.76165 6.42266
-1.32153 1.76791 6.43875
-1.34256 1.76787 6.43491
-1.36359 1.76782 6.43107
-1.3856 1.76882 6.43022
-1.40471 1.76563 6.41641
-1.41765 1.76874 6.42346
-1.43289 1.76129 6.39268
-1.45778 1.76652 6.40679
-1.47787 1.76436 6.39498
-1.49984 1.76642 6.39811
-1.518 1.76213 6.37831
-1.53708 1.75999 6.36748
-1.55003 1.7631 6.37454
-1.57009 1.76198 6.3657
-1.5921 1.76298 6.36485
-1.60927 1.75767 6.34306
-1.6332 1.76182 6.35218
-1.6523 1.75963 6.33835
-1.6743 1.76064 6.3385
-1.68338 1.7585 6.3286
-1.70536 1.76055 6.33074
-1.72641 1.76047 6.3249
-1.74646 1.76038 6.31805
-1.76167 1.75298 6.29027
-1.78757 1.75919 6.30337
-1.80958 1.76018 6.30152
-1.82771 1.75695 6.28571
-1.83967 1.75904 6.29077
-1.85973 1.75893 6.28292
-1.87589 1.75363 6.26212
-1.89596 1.75252 6.25328
-1.92285 1.75874 6.26739
-1.93705 1.75235 6.24059
-1.96101 1.75544 6.24573
-1.96812 1.75224 6.23183
-1.99109 1.7553 6.23495
-2.03122 1.75408 6.21827
-2.05031 1.75192 6.20645
-2.07523 1.75708 6.21656
-2.0794 1.75176 6.19467
-2.10044 1.7517 6.18983
-2.14644 1.75572 6.18911
-2.18656 1.75453 6.17443
-2.21369 1.75228 6.15667
-2.25577 1.75315 6.14597
-2.27584 1.75303 6.13712
-2.29392 1.75188 6.12627
-2.31302 1.7497 6.11345
-2.33797 1.75382 6.12057
-2.36708 1.75262 6.10581
-2.38518 1.75144 6.09296
-2.40424 1.75032 6.08412
-2.42725 1.75233 6.08326
-2.44632 1.75221 6.07441
-2.46343 1.75 6.05957
-2.48742 1.75203 6.06072
-2.49648 1.75092 6.0528
-2.51556 1.75078 6.04295
-2.5356 1.75071 6.0371
-2.57474 1.75047 6.01939
-2.59873 1.7525 6.02054
-2.62489 1.7502 5.99877
-2.65674 1.75851 6.01889
-2.688 1.75302 5.9842
-2.70708 1.75189 5.97436
-2.74425 1.75057 5.95166
-2.75624 1.7516 5.95273
-2.77828 1.75354 5.94787
-2.81741 1.7533 5.93017
-2.83255 1.75004 5.91233
-2.8526 1.74995 5.90548
-2.88467 1.75184 5.89669
-2.92479 1.75264 5.88098
-2.93992 1.74938 5.86314
-2.96293 1.75238 5.86227
-2.98103 1.7502 5.84943
-3.00403 1.75321 5.84856
-3.01111 1.75206 5.83863
-3.03709 1.75511 5.84078
-3.0532 1.75392 5.82692
-3.06539 1.74854 5.80109
-3.08742 1.75051 5.79822
-3.12852 1.75233 5.78451
-3.13856 1.75227 5.77958
-3.15566 1.75107 5.76573
-3.1767 1.75201 5.76087
-3.19972 1.75399 5.75801
-3.21682 1.75279 5.74416
-3.23392 1.75161 5.7313
-3.25596 1.75355 5.72644
-3.27701 1.75446 5.71958
-3.28704 1.75441 5.71566
-3.30316 1.75319 5.6998
-3.32618 1.75516 5.69694
-3.33736 1.75081 5.67309
-3.36137 1.75381 5.67222
-3.38144 1.7537 5.66337
-3.38653 1.75152 5.65144
-3.40265 1.7503 5.63558
-3.42172 1.75018 5.62672
-3.44277 1.75107 5.61887
-3.4579 1.74985 5.603
-3.4829 1.75285 5.60214
-3.50789 1.75588 5.60329
-3.50905 1.75157 5.58236
-3.52319 1.74932 5.56449
-3.54818 1.75235 5.56564
-3.58831 1.75411 5.54791
-3.60639 1.75396 5.53705
-3.62053 1.75171 5.51919
-3.62959 1.7506 5.51127
-3.65557 1.75464 5.5134
-3.66872 1.75236 5.49354
-3.6878 1.75222 5.48368
-3.7138 1.75623 5.48282
-3.72298 1.75188 5.45895
-3.75097 1.75593 5.4611
-3.75916 1.75155 5.43522
-3.77612 1.75464 5.4403
-3.79718 1.75655 5.43343
-3.81724 1.75743 5.42457
-3.82446 1.75202 5.3967
-3.84946 1.75502 5.39584
-3.86261 1.75274 5.37597
-3.88861 1.75676 5.37611
-3.88776 1.75146 5.35618
-3.92267 1.75965 5.36732
-3.919 1.74902 5.32545
-3.95291 1.75721 5.33658
-3.9621 1.75285 5.31171
-3.98513 1.75579 5.30684
-3.99927 1.75353 5.28898
-4.00535 1.75138 5.27806
-4.02344 1.75223 5.26718
-4.04548 1.75415 5.26131
-4.0606 1.75293 5.24544
-4.07572 1.7517 5.22957
-4.1047 1.75675 5.23172
-4.11289 1.75239 5.20684
-4.12392 1.75334 5.20291
-4.14696 1.75628 5.19804
-4.15218 1.74985 5.16917
-4.17819 1.75384 5.16731
-4.19529 1.75366 5.15444
-4.21735 1.75556 5.14657
-4.22851 1.75326 5.12569
-4.2415 1.75527 5.12576
-4.24771 1.74987 5.09888
-4.27768 1.75594 5.10202
-4.28983 1.75365 5.08214
-4.31387 1.75659 5.07728
-4.33196 1.75643 5.06541
-4.34312 1.75413 5.04453
-4.3492 1.75298 5.03459
-4.37422 1.75596 5.03173
-4.39529 1.75782 5.02186
-4.41635 1.75972 5.01399
-4.41858 1.75326 4.9831
-4.44857 1.75831 4.98525
-4.45774 1.75498 4.96237
-4.47373 1.75801 4.96344
-4.49479 1.7599 4.95557
-4.50991 1.75968 4.93969
-4.52701 1.75948 4.92582
-4.55725 1.75803 4.89406
-4.5855 1.75556 4.86131
-4.6176 1.75839 4.84851
-4.65378 1.76005 4.82375
6.02106 1.68015 2.77723
6.01924 1.6835 2.8002
6.00938 1.68378 2.81927
5.98646 1.67996 2.8305
5.98665 1.68333 2.85545
5.97981 1.68463 2.87549
5.96483 1.68171 2.87964
5.96702 1.68507 2.90458
5.97022 1.68946 2.9305
5.95334 1.68769 2.94565
5.93142 1.68488 2.95786
5.93965 1.69031 2.98672
5.92276 1.68854 3.00188
5.9339 1.69481 3.0207
5.92906 1.69613 3.04172
5.92122 1.69745 3.06276
5.90232 1.69565 3.07593
5.89065 1.6993 3.11897
5.87175 1.69652 3.13316
5.85586 1.69575 3.14829
5.85897 1.69796 3.16224
5.83002 1.69208 3.16955
5.83725 1.69852 3.1994
5.80127 1.69059 3.20279
5.80648 1.697 3.23066
5.7926 1.69525 3.24679
5.76667 1.6914 3.25604
5.77581 1.69566 3.27392
5.76796 1.69796 3.29394
5.74202 1.69312 3.30321
5.73518 1.69443 3.32425
5.72332 1.69471 3.34233
5.70241 1.6919 3.35453
5.69757 1.69423 3.37654
5.69767 1.69642 3.38951
5.67876 1.69461 3.40168
5.66388 1.69386 3.4178
5.65704 1.69518 3.43884
5.64517 1.69544 3.45593
5.61823 1.69158 3.46419
5.61742 1.69495 3.48915
5.60043 1.69199 3.49132
5.59359 1.69329 3.51136
5.58172 1.69356 3.52944
5.56985 1.69383 3.54653
5.54994 1.69202 3.55871
5.54009 1.69332 3.57877
5.53023 1.69359 3.59684
5.5253 1.69475 3.60686
5.50338 1.69191 3.61707
5.49151 1.69217 3.63416
5.47461 1.69039 3.64831
5.47683 1.69582 3.67722
5.45691 1.694 3.6884
5.45209 1.69634 3.7114
5.4532 1.69955 3.72535
5.42825 1.69568 3.7336
5.42544 1.69904 3.75757
5.41659 1.70034 3.77762
5.39466 1.69751 3.78783
5.39285 1.70188 3.81278
5.38301 1.70318 3.83284
5.38411 1.70639 3.84679
5.35112 1.69943 3.84814
5.3634 1.70896 3.88491
5.34348 1.70614 3.8961
5.33162 1.70742 3.91418
5.33284 1.71285 3.94309
5.31392 1.71102 3.95426
5.31303 1.71323 3.96824
5.2019 1.71201 4.08411
5.20111 1.71643 4.11205
5.17918 1.71358 4.12126
5.15724 1.71173 4.13046
5.15948 1.71718 4.16136
5.13955 1.71535 4.17154
5.11561 1.71248 4.17976
5.09882 1.7139 4.20687
5.06603 1.71333 4.23513
5.04432 1.71591 4.27326
4.78837 1.72111 4.54615
4.76264 1.72366 4.58231
4.74473 1.72285 4.59446
4.72291 1.72421 4.61761
4.70601 1.72343 4.63175
4.68911 1.72364 4.64488
4.65027 1.72097 4.66621
4.63235 1.72015 4.67736
4.61634 1.71615 4.67654
4.60852 1.72049 4.69954
4.59262 1.72071 4.71366
4.57572 1.71992 4.7268
4.56386 1.72221 4.74586
4.54898 1.72244 4.76097
4.52905 1.7216 4.77113
4.53018 1.72485 4.78808
4.50924 1.72299 4.79626
4.48427 1.71907 4.80051
4.46535 1.71824 4.81167
4.45451 1.72155 4.8317
4.43255 1.71865 4.83791
4.4207 1.72096 4.85797
4.4168 1.72314 4.86997
4.40796 1.72647 4.89199
4.38602 1.7246 4.90018
4.3772 1.72795 4.9232
4.35524 1.72505 4.92941
4.3444 1.72837 4.95045
4.32649 1.72756 4.96259
4.31854 1.72766 4.96865
4.29861 1.72681 4.97782
4.28171 1.72703 4.99194
4.27389 1.73039 5.01596
4.25902 1.73163 5.03205
4.21323 1.73108 5.06041
2.63125 1.74795 5.99821
2.62434 1.75011 6.00923
2.60133 1.74712 6.00845
2.57732 1.74512 6.00766
2.55838 1.74525 6.0158
2.54049 1.74749 6.0309
2.51239 1.74131 6.0182
2.49244 1.74042 6.02437
2.47532 1.73521 6.00957
2.45742 1.73641 6.02269
2.41754 1.73667 6.03799
2.37254 1.73271 6.03939
2.35158 1.7328 6.04455
2.34468 1.735 6.05757
2.30275 1.73416 6.0669
2.28382 1.73533 6.07702
2.24291 1.73452 6.08834
2.22807 1.73884 6.1094
2.21502 1.73576 6.10354
2.20329 1.74429 6.1385
2.17718 1.7381 6.12479
2.15727 1.73928 6.13593
2.1414 1.74354 6.15298
2.11635 1.73947 6.14723
2.0964 1.73957 6.15338
2.0895 1.74277 6.16639
2.06649 1.73977 6.16561
2.0445 1.73882 6.16779
2.02558 1.73998 6.17791
2.00357 1.73798 6.17711
1.98158 1.73701 6.17829
1.96268 1.73922 6.1914
1.95066 1.7372 6.18952
1.93173 1.73834 6.19865
1.89184 1.73958 6.21293
1.86882 1.73757 6.21113
1.85094 1.7398 6.22624
1.77705 1.73906 6.24081
1.75914 1.74127 6.25391
1.73921 1.74242 6.26305
1.71928 1.74356 6.27218
1.70244 1.74787 6.29225
1.68249 1.74899 6.29938
1.6684 1.74482 6.28755
1.64947 1.74599 6.29767
1.63057 1.74819 6.31079
1.60963 1.74931 6.31793
1.58969 1.75044 6.32606
1.57077 1.75162 6.33719
1.54568 1.74746 6.32544
1.53573 1.74856 6.3315
1.51785 1.75181 6.34759
1.49483 1.74978 6.34479
1.47282 1.74778 6.34398
1.45393 1.751 6.35808
1.43191 1.74899 6.35628
1.413 1.75118 6.36839
1.40305 1.75228 6.37445
1.37583 1.74288 6.34679
1.3601 1.75241 6.38177
1.34015 1.75251 6.38792
1.31918 1.75259 6.39208
1.29612 1.74949 6.3843
1.27723 1.75272 6.39939
1.26418 1.75063 6.39252
1.24631 1.75389 6.40961
1.22431 1.75291 6.40979
1.2044 1.75509 6.42091
1.18236 1.75304 6.41711
1.16143 1.75519 6.42623
1.14047 1.75527 6.43039
1.12842 1.75319 6.42451
1.11057 1.75849 6.44457
1.08544 1.75226 6.42785
1.0634 1.7502 6.42304
1.04768 1.75975 6.45903
1.02672 1.75984 6.46418
1.00474 1.7599 6.46735
0.995843 1.7631 6.48037
0.973805 1.76104 6.47557
0.951774 1.759 6.47176
0.930836 1.76113 6.47989
0.717023 1.76164 6.5055
0.633193 1.76503 6.52808
0.610086 1.76084 6.51431
0.589171 1.76401 6.52543
0.471273 1.76529 6.5393
-0.0852325 1.76371 6.34149
-0.106209 1.76477 6.34463
-0.169207 1.76481 6.3451
-0.200229 1.76479 6.34234
-0.24222 1.76484 6.34365
-0.283264 1.76378 6.33798
-0.304287 1.76375 6.33514
-0.325255 1.76482 6.33928
-0.336239 1.76586 6.34135
-0.357246 1.76586 6.3405
-0.377276 1.76481 6.33667
-0.398329 1.76373 6.32984
-0.419352 1.7627 6.32702
-0.439405 1.76061 6.3202
-0.460404 1.76162 6.32034
-0.470411 1.76162 6.31942
-0.491464 1.75953 6.3126
-0.512479 1.75951 6.31076
-0.532493 1.7595 6.30891
-0.553508 1.75948 6.30707
-0.574492 1.76053 6.30922
-0.595475 1.76157 6.31136
-0.61652 1.7605 6.30553
-0.625597 1.75836 6.29563
-0.646619 1.75833 6.29279
-0.667618 1.75835 6.29295
-0.687633 1.75833 6.2911
-0.708639 1.75933 6.29024
-0.729669 1.75829 6.28641
-0.749684 1.75827 6.28457
-0.760698 1.75825 6.28265
-0.780713 1.75824 6.2808
-0.80175 1.75818 6.27596
-0.82178 1.75713 6.27212
-0.842802 1.7571 6.26928
-0.863793 1.75813 6.27042
-0.8848 1.75913 6.26957
-0.894838 1.75807 6.26466
-0.91486 1.75804 6.26181
-0.935897 1.75698 6.25698
-0.956896 1.75799 6.25713
-0.976949 1.7569 6.25029
-0.997002 1.75582 6.24346
-1.0161 1.75264 6.23065
-1.02804 1.75576 6.23869
-1.04809 1.75468 6.23186
-1.06906 1.75675 6.23599
-1.09008 1.75672 6.23315
-1.1111 1.75771 6.23129
-1.13209 1.75872 6.23143
-1.15118 1.75657 6.22061
-1.16215 1.75764 6.22467
-1.18127 1.75442 6.20886
-1.2013 1.75437 6.20501
-1.22327 1.75645 6.20915
-1.24428 1.75743 6.20729
-1.26336 1.7553 6.19747
-1.28146 1.75212 6.18465
-1.29152 1.75101 6.17674
-1.31249 1.75307 6.17987
-1.35357 1.75195 6.17019
-1.4137 1.75073 6.15266
-1.46284 1.74848 6.13406
-1.50194 1.74732 6.12137
-1.52585 1.75251 6.13348
-3.28108 1.74441 5.44573
-3.38051 1.74362 5.38848
-3.43573 1.74423 5.35988
-3.56836 1.74309 5.27689
-3.5774 1.74301 5.27095
-3.62146 1.74792 5.26321
-3.6829 1.74309 5.20474
-3.712 1.74392 5.19194
-3.73007 1.74478 5.18207
-3.78134 1.74429 5.14645
-3.81143 1.74613 5.13465
-3.84166 1.74371 5.10491
-3.85676 1.74251 5.09104
-3.87385 1.74235 5.07917
-3.89293 1.74321 5.0693
-3.90408 1.74093 5.04942
-3.92104 1.74401 5.0545
-3.95423 1.74367 5.02975
-3.98544 1.74227 5.002
-4.00352 1.74312 4.99112
-4.02359 1.74401 4.98226
-4.0507 1.74579 4.96644
-4.0579 1.74042 4.94157
-4.08587 1.74649 4.94469
-4.09307 1.74111 4.91882
-4.11906 1.74613 4.91894
-4.1312 1.74387 4.90106
-4.15325 1.74578 4.8942
-4.15337 1.74255 4.87825
-4.18532 1.74966 4.88438
-4.18657 1.74218 4.8525
-4.2096 1.74513 4.84763
-4.22471 1.74493 4.83374
-4.25469 1.75098 4.83588
-4.25691 1.74455 4.80699
-4.27189 1.74759 4.80905
-4.28701 1.74638 4.79418
-4.30905 1.74931 4.78831
-4.31921 1.74601 4.76743
-4.34523 1.75098 4.76455
-4.34943 1.7456 4.73866
-4.3804 1.75167 4.7418
-4.38448 1.75051 4.73085
-4.40554 1.7524 4.72298
-4.41372 1.74907 4.70009
-4.43675 1.75201 4.69522
-4.43997 1.74558 4.66633
-4.464 1.74954 4.66245
-4.48506 1.75144 4.65458
-4.48518 1.7482 4.63863
-4.5231 1.75738 4.64878
-4.5283 1.753 4.62288
-4.5434 1.7528 4.609
-4.56644 1.75573 4.60313
-4.57362 1.75239 4.58023
-4.59964 1.75637 4.57736
-4.60274 1.75418 4.56442
-4.63593 1.75482 4.53865
-4.65302 1.75565 4.52677
-4.66814 1.75544 4.51188
5.73854 1.67928 2.84138
5.7326 1.6794 2.84942
5.72374 1.67969 2.86849
5.70702 1.68225 2.90558
5.70921 1.68562 2.93052
5.68227 1.68076 2.93879
5.68245 1.68411 2.96275
5.67551 1.68422 2.9698
5.66363 1.68348 2.9869
5.65277 1.68375 3.00498
5.6409 1.68401 3.02207
5.62399 1.68122 3.03524
5.61112 1.68148 3.05234
5.60728 1.68379 3.07333
5.60034 1.68292 3.0814
5.58646 1.68216 3.09752
5.57559 1.68242 3.1146
5.56473 1.6827 3.13268
5.55888 1.685 3.15269
5.54198 1.6832 3.16585
5.53212 1.68349 3.18492
5.48069 1.68466 3.2613
5.45302 1.68531 3.3045
5.4353 1.68687 3.34162
5.3057 1.68971 3.52758
5.26806 1.69045 3.57586
5.25519 1.69071 3.59295
5.24632 1.69198 3.61101
5.23546 1.69325 3.62907
5.24662 1.69856 3.64991
5.21866 1.69365 3.65519
5.2108 1.69594 3.67422
5.19491 1.69516 3.68836
5.18404 1.69543 3.70644
5.17921 1.69876 3.72843
5.15728 1.69591 3.73764
5.14741 1.69718 3.75569
5.13343 1.69422 3.75784
5.12558 1.69652 3.77787
5.11069 1.69576 3.793
5.09177 1.69393 3.80417
5.08493 1.69625 3.82519
5.07104 1.69647 3.83929
5.05212 1.69364 3.85048
5.04921 1.69582 3.86247
5.04237 1.69813 3.88249
5.01561 1.69862 3.91469
4.95111 1.69864 3.98118
4.93117 1.69579 3.99038
4.92434 1.69912 4.01238
4.91348 1.7004 4.03045
4.90059 1.70063 4.04554
4.88066 1.69779 4.05574
4.87976 1.70098 4.0687
4.85984 1.69815 4.07889
4.84797 1.69941 4.09596
4.83509 1.70065 4.11204
4.8212 1.70088 4.12715
4.82444 1.70734 4.15803
4.8035 1.70448 4.16623
4.80663 1.70872 4.18315
4.78368 1.70584 4.19037
4.78389 1.71126 4.21829
4.76397 1.70942 4.22847
4.75814 1.71277 4.25146
4.74325 1.71298 4.26557
4.73038 1.71424 4.28266
4.73049 1.71745 4.29661
4.71258 1.71564 4.30877
4.70675 1.71999 4.33176
4.68983 1.71916 4.3429
4.65681 1.71214 4.34025
4.63789 1.71032 4.35142
4.62803 1.71259 4.36946
4.60596 1.70649 4.36172
4.59108 1.70672 4.37683
4.57618 1.70694 4.39094
4.56028 1.70615 4.40407
4.53833 1.70327 4.41128
4.53252 1.70763 4.43526
4.52165 1.7099 4.45332
4.50664 1.7069 4.45247
4.4867 1.70403 4.46067
4.44204 1.70571 4.50498
4.42512 1.70489 4.51613
4.41326 1.70716 4.53418
4.40833 1.7083 4.54321
4.3894 1.70646 4.55338
4.37148 1.70564 4.56453
4.35658 1.70584 4.57764
4.0923 1.7104 4.80659
4.09243 1.71465 4.82353
4.0735 1.71379 4.83269
4.05962 1.71504 4.84877
4.04473 1.71526 4.86289
4.02781 1.71544 4.87401
4.01091 1.71564 4.88714
3.995 1.71583 4.89926
3.9921 1.71804 4.91325
3.97519 1.71821 4.92437
3.95828 1.7184 4.9365
3.94338 1.71862 4.95061
3.92951 1.72087 4.96669
3.91158 1.72003 4.97683
3.90074 1.72333 4.99687
3.89178 1.72343 5.00294
3.87789 1.72466 5.01802
3.85594 1.72277 5.02422
3.84105 1.72298 5.03833
3.83222 1.72733 5.06134
3.81936 1.72961 5.0794
3.78829 1.7225 5.07074
3.78641 1.72573 5.08671
3.77859 1.73109 5.11069
3.75765 1.72921 5.11788
3.74377 1.73146 5.13395
3.72584 1.73062 5.1441
3.71298 1.7329 5.16217
3.70012 1.73517 5.18023
3.68712 1.73318 5.18036
3.67324 1.73543 5.19643
3.6543 1.73456 5.20459
3.63436 1.7337 5.21275
3.6124 1.73179 5.21795
3.60156 1.7351 5.23898
3.58362 1.73425 5.24813
3.57365 1.73432 5.25221
3.55675 1.73452 5.26533
3.53984 1.7347 5.27646
3.52496 1.73694 5.29254
3.50299 1.73502 5.29673
3.47322 1.73749 5.32693
3.39257 1.73823 5.37353
3.37263 1.73736 5.38169
3.35976 1.73963 5.39976
3.31496 1.74005 5.42609
3.23923 1.73964 5.46268
3.22232 1.73983 5.4748
3.21538 1.74095 5.48284
3.19138 1.73797 5.48306
3.17244 1.7381 5.49121
3.15858 1.74038 5.50928
3.14167 1.74157 5.52139
3.10482 1.74188 5.54067
3.09282 1.73989 5.54079
3.07592 1.74109 5.5539
3.0421 1.74347 5.57812
3.0191 1.7405 5.57934
3.00524 1.74377 5.5964
2.97734 1.74399 5.6106
2.9574 1.74313 5.61877
2.9175 1.74235 5.63208
2.90262 1.7446 5.64816
2.88165 1.74267 5.65235
2.22969 1.74711 5.92523
2.20871 1.74617 5.92841
2.18977 1.74629 5.93555
2.16572 1.74322 5.92978
2.13963 1.73706 5.91806
2.1258 1.74241 5.94109
2.10279 1.7394 5.93931
2.08283 1.7395 5.94546
2.07286 1.73955 5.94853
1.6217 1.73653 6.06299
1.58279 1.73773 6.07527
1.56283 1.73782 6.08042
1.55183 1.73683 6.08052
1.53185 1.73689 6.08367
1.5119 1.73699 6.08982
1.49401 1.74021 6.1039
1.47302 1.73924 6.10508
1.43102 1.73729 6.10642
1.42207 1.73838 6.11247
1.40109 1.73744 6.11565
1.38215 1.73957 6.12376
1.34329 1.74187 6.14202
1.32125 1.7398 6.13622
1.30128 1.73987 6.14037
1.29338 1.74307 6.15338
1.27238 1.7421 6.15455
1.22935 1.73807 6.15094
1.20938 1.73813 6.15409
1.18945 1.74029 6.16421
1.16946 1.74032 6.16536
1.15949 1.74039 6.16943
1.14058 1.74256 6.18054
1.12063 1.74368 6.18768
1.09858 1.74161 6.18187
1.07862 1.7417 6.18702
1.05866 1.74279 6.19216
1.03976 1.74499 6.20527
1.02979 1.74606 6.20933
1.00982 1.74613 6.21348
0.987808 1.74512 6.21166
0.968901 1.74831 6.22376
0.946854 1.74524 6.21797
0.92687 1.74528 6.22012
0.905908 1.74537 6.22528
0.898039 1.75063 6.24226
0.875986 1.74754 6.23547
0.85497 1.74653 6.23364
0.832893 1.7424 6.22387
0.813994 1.7456 6.23697
0.793002 1.74563 6.23812
0.774095 1.74882 6.25022
0.763102 1.74885 6.2513
0.742087 1.74683 6.24949
0.722102 1.74688 6.25164
0.70218 1.75004 6.26175
0.682226 1.75114 6.26788
0.663419 1.75752 6.29293
0.643481 1.75966 6.30105
0.623551 1.76181 6.31017
0.0339918 1.75714 6.10565
0.0139923 1.75715 6.1058
-0.00694555 1.75929 6.11393
-0.026945 1.7593 6.11408
-0.0369754 1.75825 6.11017
-0.0770433 1.75615 6.1015
-0.097012 1.75722 6.10564
-0.117074 1.75412 6.09784
-0.137018 1.75723 6.10494
-0.157917 1.76144 6.11804
-0.178032 1.75723 6.10325
-0.188048 1.75621 6.10134
-0.207094 1.75414 6.09551
-0.228069 1.7562 6.09864
-0.247976 1.75939 6.11074
-0.268114 1.75414 6.09297
-0.288044 1.75729 6.10208
-0.308128 1.75414 6.09127
-0.319012 1.75937 6.10628
-0.338096 1.75622 6.09547
-0.359003 1.76041 6.10757
-0.37904 1.75935 6.10273
-0.399125 1.7562 6.09193
-0.419123 1.75722 6.09206
-0.439161 1.75616 6.08723
-0.449092 1.7583 6.09627
-0.46916 1.75618 6.08746
-0.489205 1.75511 6.08162
-0.509204 1.75612 6.08176
-0.529243 1.75406 6.07694
-0.549211 1.75613 6.08106
-0.568287 1.754 6.07123
-0.579263 1.75505 6.0743
-0.6002 1.75819 6.08241
-0.619261 1.75608 6.07459
-0.639276 1.75607 6.07274
-0.657452 1.74974 6.04996
-0.678428 1.7518 6.05309
-0.699358 1.75495 6.0622
-0.709381 1.75391 6.05929
-0.729379 1.75493 6.05943
-0.747533 1.74964 6.03964
-0.767508 1.7517 6.04276
-0.788484 1.75276 6.04591
-0.809444 1.75585 6.05102
-0.826606 1.74955 6.03024
-0.83759 1.75059 6.03231
-0.857596 1.75159 6.03144
-0.876673 1.74846 6.02163
-0.896679 1.74946 6.02077
-0.916701 1.74943 6.01792
-0.933847 1.74416 5.99912
-0.955753 1.74935 6.01121
-0.985798 1.74828 6.00545
-1.00483 1.74824 6.0016
-1.02392 1.74607 5.98977
-1.04298 1.74397 5.98194
-1.0649 1.74813 5.99205
-1.08298 1.74598 5.98122
-1.103 1.74697 5.97935
-1.11302 1.74593 5.97644
-1.13397 1.74904 5.98256
-1.15209 1.74583 5.96774
-1.19306 1.7489 5.971
-1.21115 1.74675 5.96017
-1.22214 1.74777 5.96124
-1.24217 1.74773 5.95739
-1.28027 1.74557 5.9447
-1.29833 1.74446 5.93685
-1.31933 1.74546 5.936
-1.33839 1.74436 5.92816
-1.35031 1.74853 5.93919
-1.36841 1.74533 5.92537
-1.38843 1.74632 5.9235
-1.40748 1.74523 5.91666
-1.42651 1.74518 5.91281
-1.46657 1.74609 5.90509
-1.48561 1.74603 5.90024
-1.49465 1.74495 5.89432
-3.22679 1.74101 5.21834
-3.26292 1.74178 5.20159
-3.29709 1.74147 5.17885
-3.31219 1.74029 5.16598
-3.32418 1.74231 5.16704
-3.41057 1.7416 5.1157
-3.42863 1.74248 5.10682
-3.45081 1.74016 5.08402
-3.48792 1.74195 5.06827
-3.50105 1.73971 5.0514
-3.52307 1.74268 5.04852
-3.54016 1.74251 5.03665
-3.54326 1.73932 5.02372
-3.56332 1.74023 5.01685
-3.59648 1.73993 4.99511
-3.66382 1.74031 4.9506
-3.70503 1.73992 4.92191
-3.75529 1.74045 4.88828
-3.76742 1.73821 4.8714
-3.79354 1.73799 4.8556
-3.82572 1.73766 4.83184
-3.84577 1.73955 4.82397
-3.86186 1.73939 4.81209
-3.8959 1.74434 4.80727
-3.93725 1.74068 4.76163
-3.96745 1.73931 4.73487
-3.99542 1.74537 4.738
-4.01065 1.74094 4.70817
-4.02773 1.74079 4.6973
-4.04184 1.74059 4.68341
-4.05496 1.73936 4.66752
-4.08592 1.74546 4.67267
-4.08516 1.73799 4.64077
-4.10312 1.74307 4.64583
-4.12219 1.74395 4.63696
-4.13134 1.74166 4.61706
-4.14644 1.74148 4.60417
-4.16055 1.74027 4.58929
-4.16872 1.73695 4.5674
-4.19274 1.74092 4.56452
-4.1978 1.73879 4.55559
-4.21389 1.73963 4.5437
-4.23296 1.74151 4.53481
-4.256 1.74445 4.52994
-4.2602 1.73905 4.50305
-4.28521 1.74304 4.50118
-4.3013 1.74388 4.48929
-4.31332 1.74586 4.48735
-4.32644 1.74463 4.47146
-4.35442 1.75066 4.47258
-4.35565 1.74424 4.44369
-4.36778 1.74199 4.42681
-4.39082 1.74592 4.42092
-4.4079 1.74677 4.41004
-4.41694 1.7467 4.40511
-4.43403 1.74854 4.39321
-4.45706 1.75148 4.38833
-4.46721 1.74921 4.36944
-4.48231 1.74901 4.35556
-4.49642 1.74881 4.34166
-4.51946 1.75274 4.33578
-4.54062 1.75243 4.31394
-4.55474 1.75122 4.29906
-4.59707 1.7506 4.25538
6.00675 1.66282 1.67344
5.99989 1.6631 1.69249
5.99804 1.6644 1.71249
5.98417 1.66266 1.72962
6.00138 1.67005 1.75639
5.97839 1.6641 1.75865
5.97655 1.66641 1.77963
5.95279 1.66291 1.81286
5.95211 1.66754 1.85481
5.94325 1.66781 1.87287
5.92928 1.66389 1.87804
5.92243 1.66418 1.89709
5.91858 1.66648 1.91708
5.88913 1.66658 1.99031
5.89239 1.67108 2.02423
5.88352 1.67134 2.04129
5.87264 1.6706 2.05839
5.84488 1.66709 2.09065
5.83702 1.66737 2.10871
5.8371 1.66853 2.1197
5.73397 1.67426 2.36742
5.70427 1.67188 2.40769
5.53607 1.68349 2.77983
5.50812 1.67762 2.78713
5.51533 1.68301 2.814
5.4944 1.68017 2.8242
5.49349 1.68135 2.83619
5.47458 1.67853 2.84738
5.44597 1.67932 2.89959
5.42029 1.67998 2.94278
5.35705 1.6815 3.04325
5.06927 1.68902 3.47136
5.01097 1.69344 3.56475
4.99104 1.69059 3.57394
4.98117 1.69186 3.592
4.98127 1.69405 3.60497
4.97342 1.69634 3.624
4.94946 1.69245 3.63024
4.9416 1.69373 3.64928
4.92771 1.69395 3.66338
4.92389 1.69729 3.68637
4.91704 1.6996 3.70639
4.89197 1.6925 3.69868
4.88513 1.6948 3.7187
4.85935 1.69526 3.74889
4.84445 1.69446 3.76202
4.8356 1.69675 3.78105
4.80871 1.69401 3.7973
4.77308 1.69574 3.84555
4.75717 1.69493 3.85768
4.75133 1.69825 3.87868
4.73643 1.69747 3.8928
4.72848 1.69756 3.89886
4.71358 1.69676 3.91199
4.70774 1.70009 3.93399
4.69485 1.70031 3.94808
4.687 1.70261 3.96811
4.67009 1.7018 3.98025
4.65519 1.70101 3.99338
4.65127 1.70316 4.00338
4.65047 1.70856 4.03031
4.62549 1.70362 4.03357
4.62067 1.70696 4.05656
4.60779 1.70821 4.07264
4.5949 1.70843 4.08674
4.58706 1.71174 4.10775
4.58616 1.71394 4.12072
4.56521 1.71106 4.12793
4.55534 1.71333 4.14597
4.53462 1.71688 4.18208
4.49956 1.7078 4.17547
4.49071 1.7111 4.1955
4.48174 1.70917 4.19959
4.46987 1.71143 4.21665
4.45598 1.71165 4.23075
4.43301 1.70774 4.23599
4.41912 1.70795 4.25009
4.39716 1.70504 4.2553
4.37621 1.70216 4.2625
4.3603 1.70235 4.27462
4.36445 1.70765 4.29451
4.34652 1.70579 4.30368
4.32759 1.70394 4.31285
4.32378 1.70931 4.3378
4.29879 1.70436 4.34006
4.28187 1.70354 4.3512
4.27303 1.70684 4.37122
4.26306 1.7059 4.37531
4.23425 1.70631 4.40153
4.20143 1.70569 4.42579
4.18451 1.70485 4.43593
4.1518 1.70744 4.47414
4.06631 1.70751 4.54279
3.97893 1.71077 4.62442
3.96592 1.70776 4.62356
3.93511 1.70917 4.64977
3.89647 1.71389 4.697
3.87752 1.71201 4.70417
3.8726 1.71316 4.71419
3.85164 1.71125 4.71938
3.83371 1.7104 4.72853
3.82386 1.7127 4.74857
3.81098 1.71495 4.76464
3.78698 1.71098 4.76588
3.78623 1.71846 4.79778
3.77425 1.71749 4.79988
3.75428 1.71558 4.80506
3.73636 1.71474 4.81521
3.72347 1.71598 4.83029
3.70453 1.71511 4.83845
3.69772 1.71947 4.86244
3.68081 1.71966 4.87456
3.67184 1.71972 4.87863
3.65896 1.72197 4.8947
3.65216 1.72736 4.92067
3.62816 1.72338 4.92091
3.61123 1.72254 4.93105
3.60342 1.7279 4.95504
3.58346 1.726 4.96122
3.57955 1.72818 4.97321
3.56264 1.72836 4.98434
3.54572 1.72853 4.99547
3.53082 1.72974 5.00856
3.5139 1.72991 5.01969
3.48209 1.7313 5.04491
3.46314 1.73042 5.05207
3.44709 1.72533 5.04526
3.44333 1.73379 5.07617
3.42337 1.73189 5.08235
3.40139 1.72896 5.08556
3.38245 1.72807 5.09272
3.36856 1.7303 5.10779
3.35468 1.73155 5.12388
3.35078 1.73475 5.13686
3.32779 1.73178 5.13808
3.31086 1.73194 5.14821
3.29192 1.73107 5.15636
3.28615 1.7375 5.18532
3.26517 1.73556 5.1885
3.2432 1.73364 5.1927
3.23321 1.73268 5.19479
3.21629 1.73284 5.20491
3.19937 1.73301 5.21604
3.18651 1.73629 5.23409
3.16756 1.73541 5.24125
3.15166 1.73661 5.25435
3.12561 1.73053 5.24764
3.12274 1.73478 5.2646
3.1058 1.73492 5.27373
3.09294 1.7382 5.29178
3.06893 1.73419 5.29002
3.05302 1.73539 5.30312
3.04018 1.7397 5.32316
3.01818 1.73673 5.32437
3.01023 1.73782 5.33041
2.97334 1.73607 5.34572
2.95948 1.73935 5.36377
2.93849 1.73739 5.36596
2.92158 1.73857 5.37707
2.90771 1.74083 5.39415
2.89772 1.73987 5.39624
2.86187 1.74117 5.41549
2.84596 1.74236 5.42759
2.82904 1.74254 5.43872
2.80706 1.74058 5.44091
2.78811 1.7407 5.44806
2.7832 1.74287 5.45906
2.76222 1.74093 5.46225
2.7453 1.7421 5.47336
2.72331 1.74013 5.47456
2.7074 1.74132 5.48666
2.67154 1.74162 5.50493
2.6585 1.73857 5.50107
2.62163 1.73883 5.51735
2.60369 1.73896 5.52548
2.56579 1.7392 5.53977
2.55092 1.74246 5.55683
2.54092 1.74147 5.55692
2.51995 1.73953 5.56011
2.50711 1.74386 5.58215
2.47023 1.74411 5.59742
0.125051 1.75919 6.11294
0.0941131 1.76133 6.12114
0.0740521 1.75923 6.11332
0.0540991 1.76133 6.11944
0.0418545 1.7559 5.95459
0.021739 1.75069 5.93982
0.0128089 1.75383 5.94884
-0.00717482 1.75487 5.95098
-0.0272207 1.7528 5.94516
-0.0462201 1.75281 5.9453
-0.066212 1.75284 5.94645
-0.086273 1.75074 5.93863
-0.105172 1.75495 5.95171
-0.115272 1.75076 5.93885
-0.135233 1.75285 5.94397
-0.154301 1.75073 5.93514
-0.174347 1.74866 5.92932
-0.193308 1.75074 5.93444
-0.213346 1.74868 5.92962
-0.233306 1.75077 5.93474
-0.24229 1.75181 5.93679
-0.262297 1.75181 5.93594
-0.28232 1.75078 5.93311
-0.301389 1.74866 5.92428
-0.320411 1.74763 5.92144
-0.340325 1.75181 5.93253
-0.36034 1.75179 5.93068
-0.369417 1.74865 5.92079
-0.388455 1.74759 5.91595
-0.408423 1.74866 5.92009
-0.42933 1.75286 5.93218
-0.448429 1.74968 5.91937
-0.467413 1.75072 5.9215
-0.48745 1.74966 5.91667
-0.496473 1.74862 5.91375
-0.516457 1.75067 5.91587
-0.534603 1.7444 5.8971
-0.555478 1.75065 5.91316
-0.5736 1.74643 5.89736
-0.594538 1.74856 5.90549
-0.613614 1.74643 5.89566
-0.632644 1.74638 5.89181
-0.640767 1.74115 5.87594
-0.661635 1.74742 5.89301
-0.680727 1.74426 5.8812
-0.699788 1.74215 5.87337
-0.720655 1.74842 5.89044
-0.738763 1.74422 5.87663
-0.757808 1.74315 5.87079
-0.767807 1.74416 5.87085
-0.787798 1.74519 5.87199
-0.806859 1.74308 5.86416
-0.825881 1.74305 5.86131
-0.845873 1.74408 5.86244
-0.863949 1.74194 5.85261
-0.873933 1.74298 5.85467
-0.894893 1.74607 5.85978
-0.912984 1.74291 5.84796
-0.951044 1.74182 5.84026
-0.971043 1.74283 5.8404
-0.989111 1.74171 5.83155
-1.03911 1.74375 5.8319
-1.05619 1.7416 5.82106
-1.07716 1.74367 5.82518
-1.69723 1.74197 5.68486
-2.86364 1.74006 5.23662
-2.89977 1.73983 5.21989
-3.20003 1.73856 5.05415
-3.22005 1.74052 5.05027
-3.23911 1.74143 5.0434
-3.2552 1.74126 5.03152
-3.28638 1.73993 5.00777
-3.31431 1.74607 5.01589
-3.32136 1.74497 5.00896
-3.33153 1.74065 4.9871
-3.34958 1.74256 4.9802
-3.36766 1.74242 4.97034
-3.37683 1.73811 4.94847
-3.40773 1.7463 4.96058
-3.409 1.73779 4.92572
-3.41802 1.73775 4.92278
-3.44695 1.74489 4.9309
-3.4581 1.74162 4.91203
-3.46924 1.73834 4.89316
-3.49324 1.74236 4.89328
-3.51948 1.73891 4.86152
-3.53147 1.74093 4.86258
-3.53866 1.73658 4.8387
-3.57677 1.73839 4.82396
-3.627 1.73996 4.79331
-3.66622 1.73855 4.76362
-3.6974 1.73821 4.73986
-3.71546 1.73911 4.73198
-3.7266 1.73685 4.71409
-3.73762 1.73781 4.71116
-3.76162 1.74283 4.71127
-3.76483 1.73542 4.6834
-3.77994 1.73522 4.66951
-3.80196 1.73819 4.66663
-3.81507 1.73698 4.65175
-3.82919 1.73577 4.63687
-3.84713 1.74089 4.64393
-3.85826 1.73863 4.62605
-3.87533 1.73951 4.61716
-3.89538 1.74143 4.61128
-3.91246 1.74228 4.6004
-3.92161 1.73899 4.58051
-3.94562 1.74298 4.57863
-3.94278 1.73768 4.55869
-3.96579 1.74167 4.5568
-3.97792 1.73943 4.53992
-3.98806 1.73715 4.52103
-4.00712 1.73805 4.51316
-4.04203 1.74824 4.52427
-4.03433 1.73665 4.48538
-4.04734 1.73965 4.48444
-4.06837 1.74159 4.47957
-4.08049 1.74036 4.46367
-4.1055 1.74536 4.46279
-4.11168 1.74101 4.43889
-4.12975 1.74188 4.42902
-4.14385 1.7417 4.41612
-4.16192 1.74256 4.40625
-4.17492 1.74557 4.4063
-4.19795 1.74853 4.40243
-4.20512 1.74521 4.38053
-4.21823 1.74399 4.36564
-4.2363 1.74587 4.35675
-4.25536 1.74775 4.34786
-4.26749 1.74651 4.33097
-4.27355 1.7454 4.32303
-4.29756 1.75039 4.32114
-4.3109 1.74274 4.27735
-4.33493 1.7467 4.27347
-4.35696 1.74964 4.26859
-4.37713 1.74932 4.24574
-4.4113 1.75102 4.22397
6.00754 1.65554 1.11447
5.99281 1.6541 1.1516
5.98988 1.65423 1.16062
5.99103 1.65653 1.18058
5.99219 1.65784 1.20156
5.97846 1.65738 1.23767
5.98864 1.66271 1.26052
5.97075 1.65895 1.27571
4.85846 1.68954 3.49795
4.82089 1.69241 3.5552
4.80397 1.69059 3.56635
4.79209 1.69082 3.58144
4.77819 1.69104 3.59554
4.76932 1.6923 3.61259
4.72572 1.6931 3.66492
4.66035 1.69639 3.74937
4.64746 1.69662 3.76447
4.62772 1.69914 3.79859
4.60677 1.69626 3.80579
4.59187 1.69546 3.81891
4.59509 1.70187 3.8468
4.58109 1.6989 3.84795
4.57827 1.70324 3.87091
4.57344 1.70757 3.89288
4.55047 1.70366 3.89811
4.54162 1.70595 3.91715
4.5398 1.7103 3.9411
4.51784 1.70741 3.94731
4.52209 1.71488 3.97917
4.5101 1.7129 3.98029
4.49116 1.71105 3.98946
4.48735 1.71541 4.01343
4.4805 1.71771 4.03345
4.45451 1.71276 4.03572
4.43558 1.71091 4.04489
4.4247 1.71215 4.06096
4.40063 1.70504 4.05224
4.37363 1.70006 4.05252
4.37383 1.70545 4.07944
4.34885 1.70152 4.08269
4.341 1.7038 4.10172
4.32509 1.70299 4.11385
4.3132 1.70422 4.12893
4.28429 1.70142 4.14119
4.26939 1.70163 4.1543
3.77757 1.7082 4.57796
3.74876 1.7086 4.60318
3.73285 1.70879 4.6153
3.70897 1.70904 4.63148
3.69407 1.70924 4.64459
3.67815 1.70942 4.65571
3.66425 1.71062 4.66879
3.65339 1.71289 4.68684
3.63849 1.7141 4.69994
3.62762 1.71636 4.71699
3.61562 1.71438 4.71811
3.60881 1.71974 4.74209
3.59591 1.72096 4.75617
3.58101 1.72116 4.76928
3.56307 1.72029 4.77743
3.55222 1.72358 4.79646
3.5363 1.72376 4.80758
3.53037 1.72489 4.81661
3.51648 1.72611 4.8307
3.50461 1.72937 4.84774
3.48767 1.72852 4.85689
3.46772 1.72662 4.86306
3.45079 1.72676 4.87219
3.43892 1.72904 4.89025
3.43199 1.73016 4.89829
3.41708 1.73135 4.91038
3.39408 1.72738 4.91161
3.38221 1.73064 4.92866
3.36023 1.7277 4.93187
3.35039 1.73101 4.9519
3.32536 1.72698 4.94914
3.31639 1.72605 4.95323
3.30048 1.72724 4.96533
3.2805 1.7243 4.96852
3.27371 1.7307 4.99548
3.25173 1.72775 4.99769
3.23986 1.73102 5.01574
3.21888 1.72807 5.01794
3.21295 1.73022 5.02795
3.194 1.72932 5.03411
3.17301 1.72637 5.03631
3.16014 1.72863 5.05338
3.14727 1.73187 5.06943
3.12527 1.7289 5.07064
3.10936 1.72909 5.08276
3.09837 1.72812 5.08386
3.08853 1.73243 5.10487
3.07363 1.73364 5.11797
3.05671 1.7338 5.12809
3.04181 1.73602 5.14217
3.02082 1.73305 5.14337
3.00694 1.73529 5.15945
2.99696 1.73433 5.16154
2.98206 1.73655 5.17562
2.94212 1.7337 5.18396
2.92723 1.73491 5.19806
2.8944 1.73626 5.22029
2.8844 1.73529 5.22138
2.87153 1.73855 5.23843
2.84853 1.73555 5.23765
2.83465 1.7378 5.25372
2.81976 1.74001 5.2678
2.79775 1.73703 5.26801
2.77388 1.73828 5.28418
2.75391 1.73737 5.28934
2.73698 1.73752 5.29847
2.72108 1.73972 5.31156
2.70313 1.73884 5.31871
2.68519 1.73897 5.32684
2.66929 1.74016 5.33895
2.64627 1.73715 5.33716
2.64339 1.74139 5.35312
2.62445 1.7405 5.36028
2.5855 1.73764 5.36762
2.57061 1.74087 5.38268
2.55166 1.73997 5.38884
2.52963 1.73694 5.38605
2.52983 1.74331 5.41096
2.50273 1.73714 5.39825
2.48885 1.7394 5.41533
2.47194 1.74158 5.42642
2.45094 1.73859 5.42663
2.43707 1.74185 5.44368
2.42015 1.74303 5.4548
2.40914 1.74201 5.45289
2.39121 1.74215 5.46203
2.37225 1.74226 5.46817
2.35328 1.74033 5.47234
2.3333 1.73939 5.47551
2.30151 1.74381 5.50268
0.336793 1.75558 5.94537
0.316847 1.7567 5.95251
0.287871 1.75776 5.95571
0.267879 1.75779 5.95686
0.248849 1.75675 5.95302
0.227741 1.75156 5.93925
0.208773 1.75263 5.94338
0.188789 1.75367 5.94552
0.149844 1.7558 5.95278
0.139813 1.75475 5.94887
0.120891 1.75691 5.95898
0.100891 1.75693 5.95913
0.0808227 1.75481 5.95031
0.0618075 1.75379 5.94847
0.0280631 1.75438 5.71668
-0.00990508 1.75547 5.72096
-0.0289045 1.75548 5.7211
-0.113932 1.75549 5.71774
-0.189007 1.75239 5.70835
-0.217968 1.75449 5.71354
-0.23599 1.75446 5.71067
-0.255043 1.75237 5.70385
-0.274004 1.75446 5.70896
-0.292996 1.75448 5.7101
-0.311972 1.75554 5.71323
-0.330071 1.75236 5.70041
-0.340117 1.75028 5.69452
-0.377154 1.74923 5.68981
-0.39613 1.75129 5.69292
-0.434152 1.75128 5.69021
-0.443144 1.7513 5.69128
-0.463112 1.75337 5.6954
-0.481135 1.75234 5.69255
-0.519179 1.75228 5.68683
-0.557185 1.75229 5.68612
-0.565254 1.75016 5.67721
-0.583322 1.74804 5.66838
-0.620414 1.74489 5.6567
-0.640343 1.74904 5.66579
-0.658373 1.748 5.66194
-0.678333 1.75108 5.66705
-0.708239 1.75528 5.67921
-0.726285 1.75421 5.67336
-0.745299 1.75419 5.67151
-0.763368 1.75207 5.66267
-0.783343 1.75413 5.66579
-0.801404 1.75203 5.65796
-0.818465 1.75092 5.6501
-0.829402 1.75405 5.65814
-0.848424 1.75401 5.65529
-0.866485 1.75191 5.64745
-0.886422 1.75504 5.65556
-0.901607 1.7487 5.63176
-0.940604 1.75073 5.63203
-0.949604 1.75073 5.63209
-0.97151 1.75593 5.64418
-0.985718 1.74754 5.61741
-1.00665 1.75169 5.62651
-1.02275 1.74849 5.61267
-1.04465 1.7537 5.62576
-1.05885 1.74632 5.59998
-1.07172 1.75259 5.61698
-1.08689 1.74627 5.59519
-1.10974 1.75357 5.61425
-1.12396 1.74516 5.58648
-1.14295 1.74718 5.5866
-1.16098 1.74713 5.58273
-1.18098 1.74815 5.58287
-1.19097 1.74918 5.58493
-1.20514 1.74287 5.56312
-1.23093 1.75329 5.59017
-1.24219 1.74379 5.55639
-1.26507 1.75003 5.57147
-1.27926 1.74267 5.54668
-1.30019 1.74682 5.55578
-1.30729 1.74363 5.54288
-1.32822 1.74778 5.55198
-1.34337 1.74251 5.53317
-1.36624 1.74976 5.54923
-1.37846 1.74134 5.52045
-1.40428 1.7507 5.54351
-1.43358 1.74016 5.50588
-1.46549 1.74635 5.51703
-1.47771 1.73893 5.48823
-1.5006 1.74415 5.50232
-1.51477 1.73884 5.48051
-1.53766 1.74506 5.49459
-1.56179 1.74183 5.47782
-1.5779 1.73863 5.46398
-1.59692 1.7396 5.46111
-1.61397 1.73851 5.45425
-1.6359 1.74366 5.46334
-1.65102 1.73943 5.44752
-1.67395 1.74458 5.45662
-1.67906 1.74038 5.44272
-1.70295 1.74659 5.45581
-1.74002 1.74748 5.44707
-1.77415 1.74525 5.43036
-1.7873 1.73997 5.41053
-1.80315 1.74826 5.42953
-1.81339 1.73881 5.39875
-1.83435 1.7429 5.40384
-1.8485 1.73863 5.38501
-1.87044 1.74275 5.39212
-1.88457 1.73851 5.37528
-1.91239 1.74887 5.39834
-1.91164 1.73839 5.36649
-1.93457 1.74353 5.37458
-1.96968 1.74234 5.36086
-1.98479 1.74015 5.34701
-2.01065 1.74842 5.36408
-2.03184 1.74308 5.34032
-2.04498 1.73881 5.32148
-2.13716 1.7415 5.29713
-2.15128 1.73829 5.28228
-2.18031 1.74025 5.27847
-2.21247 1.73797 5.25774
-2.3719 1.73921 5.19992
-2.40503 1.73898 5.18317
-2.44112 1.73983 5.17143
-2.4572 1.73868 5.16056
-2.47523 1.73963 5.15669
-2.50328 1.74155 5.14987
-2.52527 1.74459 5.15199
-2.5384 1.74134 5.13413
-2.55545 1.74126 5.12826
-2.57154 1.7401 5.1164
-2.58564 1.73791 5.10354
-2.60762 1.74196 5.10564
-2.61566 1.74088 5.09972
-2.63174 1.74074 5.08984
-2.64978 1.74168 5.08496
-2.67275 1.74574 5.08807
-2.69179 1.74668 5.0832
-2.70786 1.74654 5.07332
-2.72985 1.74957 5.07444
-2.72903 1.74323 5.05153
-2.7451 1.7421 5.04167
-2.76807 1.74717 5.04576
-2.77922 1.74288 5.02591
-2.80023 1.74588 5.02502
-2.81532 1.74372 5.01317
-2.83435 1.74567 5.00928
-2.83745 1.74247 4.99535
-2.85944 1.7455 4.99647
-2.86862 1.74016 4.97362
-2.88667 1.74107 4.96674
-2.91458 1.74927 4.97883
-2.9277 1.74604 4.96297
-2.93786 1.74174 4.94211
-2.95576 1.74793 4.95415
-2.96887 1.74573 4.94028
-2.98101 1.74248 4.92242
-3.00103 1.74545 4.91953
-3.01315 1.74222 4.90366
-3.03516 1.7452 4.90179
-3.05123 1.74508 4.89291
-3.06717 1.75021 4.90095
-3.0704 1.74176 4.8701
-3.10228 1.75202 4.88619
-3.1075 1.74459 4.85733
-3.13543 1.75174 4.86644
-3.14261 1.74539 4.84258
-3.1656 1.75043 4.84368
-3.16771 1.7462 4.82876
-3.18675 1.74814 4.82387
-3.20579 1.75008 4.81899
-3.21792 1.74684 4.80212
-3.23695 1.74878 4.79724
-3.26812 1.74746 4.77449
-3.27715 1.74843 4.77154
-3.29125 1.74723 4.75767
-3.30041 1.74294 4.7378
-3.33131 1.75214 4.74989
-3.33552 1.74473 4.72203
-3.34369 1.74041 4.70015
-3.37262 1.74756 4.70927
