-2.11724 1.72589 3.95466
-2.11639 1.71859 3.93476
-2.13731 1.72575 3.94482
-2.1484 1.72358 3.93293
-2.16861 1.7172 3.90617
-2.20062 1.72219 3.90434
-2.21367 1.7221 3.89744
-2.21675 1.71895 3.88751
-2.23276 1.72094 3.8856
-2.24188 1.71771 3.86971
-2.25592 1.71764 3.86482
-2.27193 1.72064 3.86389
-2.30801 1.72349 3.85212
-2.31911 1.72132 3.84024
-2.33315 1.72224 3.83433
-2.37428 1.72402 3.81761
-2.38536 1.72186 3.80672
-2.44461 1.72242 3.77416
-2.53906 1.72058 3.71389
-2.6074 1.71997 3.6694
4.71475 1.6911 0.607246
3.97383 1.70734 2.34783
3.98704 1.71873 2.37456
3.96707 1.7128 2.3788
3.9461 1.70688 2.38305
3.93813 1.70494 2.38714
3.9272 1.7041 2.39723
3.86391 1.70652 2.49069
3.84019 1.7081 2.52885
3.80729 1.70132 2.5422
3.81037 1.70548 2.55311
3.80146 1.70566 2.56518
3.77761 1.70296 2.5844
3.75778 1.70232 2.60757
3.75189 1.70353 2.62159
3.73112 1.706 2.65272
3.68751 1.70579 2.70406
3.65072 1.70223 2.73239
3.59718 1.70319 2.79479
3.58927 1.70337 2.80685
3.58137 1.70457 2.81989
3.54364 1.70413 2.85619
3.44743 1.70574 2.9609
3.42356 1.70401 2.97811
3.41961 1.70411 2.98514
3.40768 1.70426 2.99423
3.39893 1.71075 3.0272
3.37894 1.7058 3.02943
3.36012 1.70715 3.05255
3.3602 1.71031 3.06351
3.34222 1.70636 3.0657
3.33634 1.7096 3.0817
3.31937 1.70567 3.08588
3.31247 1.70788 3.09991
3.29651 1.70597 3.10506
3.28659 1.70612 3.11513
3.28365 1.70724 3.12314
3.27475 1.70844 3.13619
3.26181 1.70757 3.1443
3.25391 1.70877 3.15734
3.23996 1.70788 3.16446
3.23206 1.70908 3.1775
3.2171 1.70718 3.18365
3.21416 1.7093 3.19164
3.20022 1.70741 3.19877
3.19735 1.71268 3.21672
3.18946 1.71489 3.23075
3.17147 1.70994 3.23296
3.16459 1.71316 3.24796
3.15366 1.71332 3.25804
3.14064 1.70929 3.2552
3.13678 1.71356 3.27317
3.12283 1.71267 3.28029
3.11695 1.7159 3.29529
3.10502 1.71605 3.30538
3.10116 1.72032 3.32334
3.08014 1.71431 3.32159
3.06619 1.71342 3.32871
3.06829 1.71761 3.34163
3.05839 1.71981 3.35468
3.03938 1.71481 3.3539
3.02847 1.71498 3.36498
3.01956 1.71717 3.37701
3.0147 1.72145 3.39599
3.00873 1.72151 3.40003
2.99175 1.71856 3.40221
2.97982 1.71871 3.41229
2.97496 1.72298 3.43027
2.95495 1.71798 3.4295
2.943 1.7171 3.4366
2.93512 1.72032 3.45161
2.91915 1.71739 3.45578
2.92126 1.7226 3.46969
2.89841 1.72391 3.48984
2.87657 1.72524 3.51099
2.8437 1.72353 3.52927
2.82065 1.71644 3.52254
2.8158 1.72174 3.5425
2.80488 1.7229 3.55257
2.78284 1.71584 3.54784
2.78404 1.72524 3.5747
2.76008 1.72133 3.57993
2.74713 1.72144 3.58703
2.74329 1.72676 3.60798
2.72429 1.72276 3.60719
2.71842 1.72703 3.62517
2.68647 1.72214 3.63148
2.6706 1.7244 3.64857
2.65866 1.72454 3.65766
2.63762 1.71949 3.65289
2.6348 1.72583 3.67583
2.61578 1.72181 3.67403
2.60992 1.72608 3.69201
2.60599 1.72822 3.70101
2.58595 1.72316 3.69624
2.57099 1.72125 3.70138
2.5621 1.72446 3.7154
2.54003 1.71736 3.70767
2.53519 1.72367 3.72861
2.52023 1.72176 3.73376
2.51729 1.72388 3.74175
2.49727 1.71885 3.73897
2.49445 1.7262 3.76289
2.46732 1.71597 3.74624
2.46857 1.72645 3.77808
2.45561 1.72654 3.78418
2.43659 1.72153 3.7824
2.43266 1.72466 3.79138
2.41972 1.72478 3.79848
2.40676 1.72388 3.80459
2.38977 1.7209 3.80576
2.38088 1.72412 3.81978
2.35882 1.71703 3.81305
2.34993 1.72024 3.82708
2.339 1.7224 3.83713
2.33102 1.72143 3.8392
2.31503 1.71846 3.84037
2.30816 1.72373 3.85834
2.29625 1.7259 3.8694
2.2762 1.71983 3.86364
2.27238 1.72717 3.88656
2.24624 1.71593 3.86893
2.24942 1.72528 3.89277
2.23648 1.72539 3.89986
2.22454 1.72652 3.90794
2.20754 1.72355 3.90911
2.18673 1.72893 3.93419
2.16871 1.7239 3.9314
2.15665 1.71981 3.92455
2.14573 1.72096 3.93462
2.13482 1.72415 3.94665
2.12391 1.72632 3.95771
2.10792 1.72436 3.95986
2.09804 1.72759 3.97488
2.07797 1.72147 3.96612
2.07811 1.72774 3.98403
2.06008 1.7237 3.98123
2.05222 1.72898 3.99921
2.02911 1.71979 3.98552
2.01819 1.72196 3.99657
2.00526 1.72309 4.00465
1.99843 1.73042 4.0266
1.9833 1.72219 4.01083
1.96628 1.71817 4.00902
1.95538 1.72136 4.02106
1.94753 1.72766 4.04103
1.9295 1.72261 4.03724
1.9186 1.72581 4.05027
1.90259 1.72281 4.04944
1.90071 1.72903 4.06436
1.87961 1.72087 4.05264
1.86871 1.72407 4.06568
1.85678 1.72622 4.07474
1.83977 1.72321 4.07391
1.82786 1.72538 4.08497
1.81389 1.72547 4.09007
1.80589 1.72347 4.09016
1.79396 1.72562 4.09922
1.73914 1.727 4.12262
1.72518 1.7271 4.12872
1.70918 1.72411 4.12889
1.70731 1.73035 4.14481
1.6743 1.72536 4.14413
1.65045 1.73067 4.16424
1.59852 1.72684 4.17369
1.57265 1.73011 4.19083
1.49178 1.72642 4.2085
1.47678 1.72545 4.20963
1.46488 1.72865 4.22267
1.43594 1.72877 4.22989
1.41501 1.72892 4.23905
1.35815 1.73024 4.25846
1.29225 1.72848 4.27198
1.27932 1.73063 4.28105
1.25139 1.73178 4.29024
1.21342 1.72987 4.29456
1.11856 1.7272 4.31332
1.09168 1.73146 4.32946
1.07568 1.73047 4.32959
1.0537 1.72953 4.33277
1.03561 1.72337 4.321
1.02579 1.73171 4.34395
1.00874 1.72764 4.33814
0.994778 1.72872 4.34323
0.950863 1.72992 4.35454
0.92887 1.72795 4.35574
0.914948 1.73111 4.3658
0.899955 1.73113 4.36691
0.884963 1.73016 4.36804
0.870994 1.73123 4.37213
0.856017 1.73128 4.37524
0.847993 1.72924 4.37233
0.834032 1.73033 4.37742
0.819016 1.72831 4.37556
0.803008 1.72731 4.3747
0.775117 1.73153 4.38885
0.759039 1.7264 4.37905
0.751047 1.72642 4.38011
0.707078 1.72551 4.38445
0.69421 1.73177 4.40146
0.677124 1.72662 4.39066
0.663171 1.72772 4.39675
0.656209 1.7288 4.40179
0.641225 1.72884 4.4039
0.626194 1.72679 4.40004
0.610147 1.72371 4.39421
0.581225 1.72688 4.40438
0.567248 1.72694 4.40749
0.559201 1.72385 4.40159
0.54528 1.72801 4.41164
0.529225 1.72392 4.40482
0.513117 1.71873 4.39101
0.499186 1.72087 4.40009
0.485303 1.7271 4.4151
0.470257 1.72402 4.40926
0.462249 1.72301 4.40834
0.447225 1.72098 4.40548
0.432226 1.72099 4.40559
0.418319 1.72518 4.41764
0.403311 1.72418 4.41676
0.38725 1.72107 4.40893
0.373258 1.72109 4.41003
0.36525 1.72009 4.40911
0.351312 1.72321 4.41717
0.33525 1.71911 4.40935
0.321304 1.72122 4.41642
0.306297 1.72122 4.41554
0.291289 1.72021 4.41467
0.277383 1.7244 4.42671
0.269414 1.72647 4.43074
0.255461 1.72856 4.43682
0.239322 1.72131 4.41904
0.223151 1.712 4.3973
0.209291 1.71927 4.4153
0.195361 1.72242 4.42436
0.180338 1.72138 4.42149
0.1723 1.71931 4.41658
0.157284 1.7183 4.4147
0.142292 1.71832 4.41582
0.128238 1.71523 4.40897
0.113355 1.72146 4.42399
0.0984254 1.7246 4.43306
0.083387 1.72254 4.4282
0.061333 1.71945 4.42141
0.0463335 1.71947 4.42152
-0.805298 1.71883 4.20792
-0.821258 1.72191 4.21299
-0.836234 1.72397 4.21608
-0.842304 1.72084 4.20717
-0.857294 1.72287 4.20825
-0.871317 1.72283 4.20536
-0.884378 1.72072 4.19749
-0.897416 1.71966 4.1926
-0.914337 1.72482 4.20265
-0.926444 1.72062 4.1888
-0.932483 1.71855 4.18388
-0.945544 1.71644 4.17601
-0.963441 1.72365 4.18904
-0.977479 1.72258 4.18416
-0.991493 1.72356 4.18225
-1.00357 1.72042 4.17238
-1.0205 1.72557 4.18144
-1.03455 1.72348 4.17457
-1.0367 1.7162 4.15569
-1.05461 1.72237 4.16674
-1.06671 1.71819 4.15389
-1.08265 1.72332 4.16194
-1.09572 1.7202 4.15308
-1.10685 1.71495 4.13624
-1.12086 1.71595 4.13533
-1.12787 1.71592 4.13338
-1.14481 1.72004 4.14045
-1.15883 1.72102 4.13854
-1.17384 1.722 4.13664
-1.18593 1.71885 4.12577
-1.20091 1.72089 4.12786
-1.20987 1.72397 4.13288
-1.2239 1.72392 4.12899
-1.23598 1.72076 4.11812
-1.24806 1.71862 4.10824
-1.26209 1.71858 4.10435
-1.27318 1.71542 4.09348
-1.29012 1.71954 4.10055
-1.30707 1.72464 4.1066
-1.31409 1.72461 4.10465
-1.32909 1.72561 4.10375
-1.34019 1.72243 4.09088
-1.35618 1.72445 4.09197
-1.37117 1.72648 4.09305
-1.37934 1.71916 4.07122
-1.39142 1.71702 4.06134
-1.40233 1.72219 4.07235
-1.41443 1.71902 4.06048
-1.43039 1.72209 4.06456
-1.45746 1.72198 4.05576
-1.47346 1.72499 4.05584
-1.48845 1.72701 4.05692
-1.49548 1.72596 4.05299
-1.50754 1.72485 4.0451
-1.53071 1.71854 4.02336
-1.54278 1.71742 4.01447
-1.57474 1.7235 4.01862
-1.58176 1.72348 4.01667
-1.60689 1.72023 3.99891
-1.62484 1.72534 4.00597
-1.64406 1.71693 3.97723
-1.66202 1.72102 3.98231
-1.68109 1.72088 3.97245
-1.71209 1.7249 3.97263
-1.73819 1.72373 3.95984
-1.75433 1.71946 3.94102
-1.76933 1.72147 3.94111
-1.78534 1.72347 3.9402
-1.79837 1.7234 3.9353
-1.80849 1.72019 3.92042
-1.82546 1.72325 3.9235
-1.83752 1.72314 3.91559
-1.84552 1.72416 3.91664
-1.85758 1.72303 3.90774
-1.87162 1.72297 3.90285
-1.88563 1.72495 3.90093
-1.89869 1.72384 3.89304
-1.90879 1.72066 3.88016
-1.92478 1.72368 3.88124
-1.93783 1.7236 3.87533
-1.95298 1.71932 3.85551
-1.98399 1.72331 3.85368
-1.99705 1.72322 3.84678
-2.00811 1.72209 3.83788
-2.02215 1.72203 3.83299
-2.02621 1.71991 3.82505
-2.04419 1.72497 3.82811
-2.05329 1.72178 3.81522
-2.0693 1.72376 3.81331
-2.09637 1.72464 3.8035
-2.11052 1.72037 3.78467
-2.12849 1.72442 3.78775
-2.13957 1.72328 3.77785
-2.14868 1.71907 3.76297
-2.16666 1.72412 3.76604
-2.17774 1.72197 3.75515
-2.18376 1.72193 3.7522
-2.19386 1.71976 3.7403
-2.22192 1.72165 3.73148
-2.23693 1.72363 3.72957
-2.24703 1.72146 3.71767
-2.26305 1.72342 3.71477
-2.29418 1.72318 3.697
-2.3183 1.72296 3.68118
-2.3615 1.72261 3.65551
-2.466 1.72069 3.58932
-2.5002 1.71832 3.56261
-2.57247 1.72184 3.52709
4.04274 1.69922 1.93737
4.01895 1.69665 1.96559
3.94884 1.69845 2.08411
3.942 1.70076 2.10513
3.92418 1.69912 2.12829
3.91928 1.70133 2.1423
3.89455 1.70088 2.1785
3.87666 1.6981 2.19268
3.87076 1.69929 2.2057
3.82921 1.69921 2.26603
3.82827 1.70133 2.274
3.81145 1.7017 2.29813
3.80957 1.70494 2.3141
3.78973 1.70326 2.33527
3.78383 1.70446 2.3483
3.78088 1.70557 2.35531
3.76493 1.70168 2.36249
3.76507 1.70595 2.38043
3.74811 1.70203 2.38561
3.74724 1.70629 2.40256
3.74637 1.70954 2.41952
3.72633 1.70248 2.41477
3.7154 1.70064 2.42488
3.71353 1.70489 2.44184
3.70059 1.70302 2.44996
3.69268 1.7032 2.46202
3.68981 1.70644 2.478
3.67183 1.70151 2.48221
3.66493 1.70271 2.49524
3.65998 1.7028 2.50128
3.65609 1.70503 2.51628
3.64416 1.70417 2.52538
3.63826 1.70537 2.53841
3.62331 1.70248 2.54557
3.61439 1.70265 2.55663
3.60649 1.70385 2.56968
3.60354 1.70495 2.57668
3.59161 1.7031 2.5858
3.58773 1.70633 2.60179
3.53806 1.70301 2.64522
3.53316 1.70522 2.65922
3.5172 1.7013 2.6644
3.49937 1.70266 2.68752
3.48162 1.70614 2.7196
3.45186 1.70564 2.75184
3.42109 1.70612 2.78307
3.41714 1.70621 2.7891
3.40218 1.70331 2.79526
3.3983 1.70654 2.81024
3.38234 1.70364 2.8164
3.37141 1.70378 2.82548
3.36753 1.70702 2.84147
3.35358 1.70413 2.84862
3.34862 1.70421 2.85365
3.3387 1.70437 2.86373
3.32576 1.70349 2.87184
3.32389 1.70776 2.88979
3.30995 1.70588 2.89693
3.30205 1.70807 2.90996
3.29111 1.70722 2.91905
3.2922 1.71138 2.92998
3.27723 1.70846 2.93514
3.26127 1.70555 2.9403
3.25538 1.70776 2.95432
3.24445 1.70792 2.9644
3.23251 1.70604 2.97252
3.22864 1.7103 2.98949
3.21763 1.70729 2.98861
3.20973 1.70949 3.00164
3.20787 1.71376 3.0196
3.18888 1.7098 3.0218
3.17896 1.70996 3.03187
3.17207 1.71217 3.04589
3.16114 1.71232 3.05597
3.15323 1.71351 3.06802
3.14929 1.71461 3.07503
3.13231 1.71067 3.07822
3.11936 1.70978 3.08533
3.11751 1.71507 3.10427
3.10658 1.71522 3.11435
3.09363 1.71432 3.12046
3.08666 1.71339 3.12453
3.07269 1.71147 3.12966
3.06782 1.71472 3.14665
3.06295 1.71896 3.16263
3.04495 1.71499 3.16382
3.03 1.71209 3.16998
3.03017 1.71942 3.19187
3.01318 1.71546 3.19406
3.00822 1.71554 3.1991
3.00739 1.72286 3.221
2.98435 1.71581 3.21628
2.97443 1.71598 3.22735
2.96854 1.7192 3.24235
2.95156 1.71625 3.24452
2.93862 1.71537 3.25263
2.94477 1.72265 3.27148
2.92474 1.71662 3.26872
2.90978 1.71471 3.27386
2.90895 1.72203 3.29576
2.89499 1.72013 3.3019
2.88204 1.71923 3.30801
2.87515 1.72246 3.32302
2.86212 1.71741 3.31919
2.85523 1.72063 3.33419
2.85136 1.72589 3.35115
2.82933 1.71884 3.34742
2.79554 1.72028 3.37565
2.77479 1.72577 3.40773
2.73797 1.72515 3.43202
2.71996 1.72115 3.43122
2.72208 1.72637 3.44613
2.7061 1.72343 3.44929
2.66927 1.7228 3.47258
2.63943 1.72313 3.49381
2.62243 1.72014 3.49398
2.61657 1.72441 3.51196
2.60463 1.72454 3.52005
2.59269 1.72467 3.52814
2.56285 1.726 3.54935
2.53391 1.72214 3.55762
2.52501 1.72434 3.57066
2.51205 1.72444 3.57676
2.50316 1.72765 3.59078
2.4892 1.72573 3.59591
2.47422 1.72379 3.59905
2.46927 1.7249 3.60608
2.43245 1.72527 3.62935
2.41848 1.72433 3.63347
2.39157 1.72253 3.6457
2.38863 1.72565 3.65368
2.3767 1.72579 3.66277
2.35666 1.71974 3.65801
2.35283 1.72706 3.67993
2.32388 1.7242 3.68819
2.31498 1.7274 3.70121
2.308 1.72644 3.70328
2.27805 1.72356 3.71055
2.26915 1.72676 3.72357
2.24527 1.72702 3.73975
2.22726 1.72401 3.73893
2.22636 1.72821 3.75188
2.19539 1.72429 3.75617
2.14764 1.7268 3.7885
2.13964 1.72582 3.78957
2.11374 1.72603 3.80277
2.10383 1.72821 3.81481
2.07793 1.72843 3.828
2.06498 1.72852 3.8341
2.01712 1.72784 3.85347
2.0062 1.729 3.86354
1.99121 1.72804 3.86567
1.97331 1.72924 3.87879
1.93345 1.72954 3.89708
-1.14483 1.71205 4.00655
-1.16077 1.71717 4.0136
-1.17186 1.713 4.00174
-1.18686 1.71503 4.00282
-1.20088 1.71498 3.99893
-1.21683 1.72009 4.00597
-1.23084 1.72107 4.00406
-1.23494 1.71588 3.99117
-1.247 1.71379 3.98429
-1.26493 1.71992 3.99234
-1.27113 1.71055 3.96752
-1.28612 1.71258 3.9686
-1.30014 1.71355 3.96569
-1.31512 1.71559 3.96777
-1.3202 1.71244 3.95786
-1.33225 1.71035 3.95098
-1.34724 1.71337 3.95205
-1.36225 1.71437 3.95115
-1.37529 1.7143 3.94624
-1.38833 1.71322 3.94036
-1.40235 1.71419 3.93745
-1.40934 1.71623 3.93947
-1.42532 1.71927 3.94155
-1.43835 1.71922 3.93765
-1.4475 1.71294 3.9188
-1.46249 1.71497 3.91989
-1.47749 1.71698 3.91997
-1.49052 1.71691 3.91507
-1.49754 1.71689 3.91312
-1.51154 1.71888 3.9122
-1.52363 1.71673 3.90132
-1.53862 1.71876 3.9024
-1.55264 1.71972 3.89949
-1.56665 1.7207 3.89758
-1.57773 1.71856 3.8877
-1.59176 1.71951 3.88379
-1.59779 1.71846 3.87985
-1.6118 1.71944 3.87794
-1.62288 1.7173 3.86805
-1.63396 1.71516 3.85817
-1.64895 1.71717 3.85825
-1.66494 1.7202 3.85933
-1.67897 1.72116 3.85642
-1.68401 1.71908 3.85049
-1.69608 1.71795 3.84159
-1.72511 1.72091 3.83777
-1.73519 1.71876 3.82687
-1.75511 1.72492 3.83693
-1.76521 1.72174 3.82405
-1.77124 1.72168 3.8201
-1.80026 1.72466 3.81727
-1.80544 1.71732 3.79442
-1.82439 1.72242 3.80049
-1.8394 1.72442 3.79957
-1.83952 1.71818 3.78366
-1.85846 1.7243 3.79071
-1.8715 1.72424 3.78581
-1.88356 1.72413 3.7779
-1.89562 1.72302 3.77001
-1.91777 1.71975 3.75122
-1.94889 1.71852 3.73447
-1.96488 1.72155 3.73555
-1.989 1.72034 3.72075
-2.02012 1.72011 3.70398
-2.0622 1.72298 3.69326
-2.11843 1.72258 3.66368
-2.13147 1.7235 3.65777
-2.19876 1.72197 3.61929
-2.21082 1.72188 3.61238
-2.23592 1.72169 3.59857
4.50544 1.6907 0.300787
4.51155 1.69391 0.315695
4.50766 1.69312 0.329738
4.52284 1.70147 0.353503
4.47571 1.69122 0.470026
4.48683 1.69745 0.485852
4.4639 1.68861 0.496157
4.46412 1.69204 0.525109
4.43679 1.68938 0.614367
3.80457 1.71694 2.17894
3.79062 1.71406 2.18609
3.75864 1.70414 2.19047
3.75073 1.70432 2.20253
3.73478 1.70144 2.2097
3.72988 1.70263 2.22272
3.71708 1.70503 2.24878
3.71313 1.70512 2.25481
3.70118 1.70225 2.26295
3.69831 1.70549 2.27892
3.68637 1.70361 2.28704
3.68248 1.70584 2.30204
3.68161 1.71009 2.31898
3.66867 1.70822 2.32711
3.67276 1.71238 2.33802
3.66585 1.71257 2.35107
3.64487 1.70664 2.35432
3.63796 1.70782 2.36635
3.63609 1.71106 2.38232
3.61812 1.70713 2.38652
3.61624 1.71037 2.40248
3.62034 1.71456 2.41539
3.59834 1.70759 2.41666
3.58741 1.70673 2.42576
3.58755 1.71099 2.4437
3.56555 1.70503 2.44495
3.5667 1.71031 2.46387
3.55878 1.71047 2.47493
3.54678 1.70648 2.47508
3.54491 1.71074 2.49203
3.53699 1.71091 2.50309
3.52204 1.70801 2.50924
3.51916 1.71124 2.52522
3.50119 1.70632 2.52943
3.49125 1.70646 2.5385
3.49636 1.71166 2.55239
3.48745 1.71183 2.56346
3.46947 1.7069 2.56766
3.45552 1.704 2.57381
3.45365 1.70825 2.59077
3.44876 1.71047 2.60477
3.43179 1.70755 2.60994
3.42783 1.70763 2.61497
3.4169 1.70679 2.62507
3.42007 1.71409 2.64594
3.4041 1.71018 2.65112
3.39015 1.70829 2.65825
3.38425 1.70949 2.67128
3.37231 1.70862 2.67939
3.36836 1.70871 2.68542
3.36448 1.71195 2.7014
3.34247 1.70495 2.70067
3.3406 1.7092 2.71762
3.32363 1.70527 2.72181
3.3268 1.7126 2.74368
3.31284 1.7107 2.74981
3.29989 1.70881 2.75694
3.29896 1.71094 2.76592
3.29206 1.71313 2.77794
3.28214 1.7133 2.78901
3.27926 1.71654 2.80499
3.26027 1.71158 2.8072
3.24833 1.71071 2.81531
3.24136 1.70976 2.81838
3.22841 1.70787 2.8255
3.21848 1.70802 2.83558
3.22368 1.71739 2.8604
3.20972 1.71449 2.86655
3.20182 1.71669 2.87958
3.18786 1.71479 2.88571
3.17995 1.71496 2.89677
3.17095 1.71298 2.89787
3.16809 1.71824 2.91581
3.15011 1.71329 2.91802
3.13917 1.71241 2.92612
3.13428 1.71564 2.94111
3.11629 1.71168 2.94331
3.11645 1.71798 2.96321
3.10948 1.71704 2.96728
3.09551 1.71513 2.97242
3.08862 1.71734 2.98644
3.07768 1.71647 2.99453
3.05969 1.71251 2.99673
3.04271 1.70855 2.99891
3.04691 1.71793 3.02475
3.03388 1.71288 3.02092
3.02497 1.71407 3.03297
3.02311 1.72035 3.05189
3.00612 1.71538 3.0531
2.99418 1.7145 3.0612
2.97635 1.71786 3.08429
2.9724 1.71795 3.09032
2.95642 1.71501 3.09348
2.94851 1.71719 3.10551
2.94162 1.7194 3.11953
2.93372 1.7216 3.13256
2.92279 1.72174 3.14164
2.90882 1.71982 3.14678
2.90185 1.71887 3.14984
2.89697 1.72311 3.16582
2.88402 1.72223 3.17293
2.87207 1.72134 3.18004
2.85812 1.71944 3.18617
2.85324 1.72368 3.20215
2.8413 1.72281 3.21025
2.83735 1.7239 3.21626
2.8244 1.72301 3.22338
2.76671 1.72266 3.26482
2.67916 1.72161 3.32551
2.65435 1.725 3.35065
2.63148 1.72527 3.36782
2.5907 1.72571 3.39612
2.57977 1.72587 3.4062
2.56379 1.72291 3.40837
2.55285 1.72304 3.41645
2.52299 1.72334 3.43567
2.5161 1.72655 3.44968
2.48918 1.72474 3.46091
2.47724 1.72486 3.469
2.45235 1.72409 3.4832
2.4484 1.72619 3.4902
2.43645 1.72631 3.49729
2.4235 1.72541 3.5034
2.41054 1.7245 3.50951
2.38059 1.72062 3.5158
2.37674 1.72691 3.53573
2.37076 1.72696 3.53878
2.3568 1.72505 3.54391
2.34283 1.72412 3.54803
2.32098 1.72641 3.56717
2.30701 1.72548 3.57129
2.29506 1.72559 3.57837
2.28503 1.72256 3.5755
2.27513 1.72474 3.58754
2.26622 1.72693 3.59958
2.24921 1.72292 3.59876
2.18352 1.72558 3.64022
2.15965 1.72685 3.65739
2.14871 1.72797 3.66545
2.1317 1.72397 3.66464
2.11581 1.72719 3.67872
1.96731 1.72528 3.74587
1.85376 1.72823 3.80569
-1.17249 1.71677 3.91868
-1.27187 1.70709 3.86856
-1.35204 1.70882 3.84714
-1.38412 1.70868 3.83638
-1.42225 1.70646 3.8197
-1.44227 1.70843 3.81682
-1.45532 1.70733 3.80993
-1.46931 1.70936 3.81101
-1.49635 1.71129 3.80518
-1.50548 1.70606 3.78932
-1.51948 1.70806 3.7884
-1.52553 1.70597 3.78248
-1.53953 1.70898 3.78254
-1.57864 1.70879 3.76783
-1.59265 1.70978 3.76692
-1.61171 1.70968 3.75907
-1.62474 1.70961 3.75417
-1.63482 1.70747 3.74427
-1.64885 1.70842 3.74036
-1.66285 1.71043 3.74044
-1.67295 1.70623 3.72658
-1.68499 1.70617 3.72167
-1.69299 1.70817 3.7217
-1.70504 1.70708 3.7148
-1.71904 1.70909 3.71488
-1.73405 1.71107 3.71296
-1.74216 1.70687 3.69908
-1.76209 1.71402 3.70813
-1.77413 1.71395 3.70322
-1.77524 1.70773 3.68832
-1.79319 1.71383 3.69436
-1.80918 1.71686 3.69544
-1.81729 1.71266 3.68156
-1.83426 1.71773 3.68562
-1.84435 1.71456 3.67374
-1.96462 1.7221 3.63753
-1.97667 1.72202 3.63162
-1.98577 1.71782 3.61775
-1.99683 1.71671 3.60984
-2.00791 1.71557 3.59994
-2.02795 1.71649 3.59408
-2.04098 1.71844 3.59015
-2.05403 1.71836 3.58425
-2.06705 1.72033 3.58132
-2.08108 1.72128 3.57741
-2.10717 1.72212 3.56559
-2.11319 1.72208 3.56264
-2.11341 1.71167 3.53479
-2.13334 1.7188 3.54283
-2.14539 1.7187 3.53592
-2.15941 1.71967 3.53302
-2.17147 1.71957 3.52611
-2.20357 1.72139 3.51232
-2.2097 1.71614 3.49544
-2.23677 1.71903 3.4866
-2.25177 1.72203 3.48567
-2.26382 1.72193 3.47876
-2.27391 1.71978 3.46787
-2.306 1.72161 3.45508
-2.31509 1.71943 3.44318
-2.38039 1.71989 3.40366
-2.39344 1.72081 3.39774
-2.40548 1.72073 3.39183
-2.42563 1.71845 3.37202
-2.43265 1.71942 3.37005
-2.45675 1.72023 3.35622
-2.50398 1.71983 3.32658
-2.53015 1.7185 3.30379
-2.53923 1.71635 3.29289
-2.56631 1.71922 3.28305
-2.5834 1.71905 3.27118
-2.61758 1.71972 3.24743
-2.73729 1.7174 3.15335
-2.82984 1.71739 3.08104
4.43224 1.68242 0.00942036
3.62963 1.6982 2.18953
3.61682 1.69958 2.21461
3.60588 1.69872 2.22371
3.60105 1.70305 2.24569
3.60822 1.71137 2.26751
3.59126 1.70646 2.27271
3.5763 1.70256 2.27888
3.56449 1.70494 2.30394
3.54853 1.70104 2.31012
3.53955 1.69908 2.31222
3.54471 1.70638 2.33307
3.53076 1.7035 2.34022
3.51983 1.70164 2.34933
3.51694 1.70586 2.36429
3.49796 1.69992 2.36753
3.48811 1.70221 2.38657
3.48019 1.70238 2.39763
3.47328 1.70256 2.40968
3.46335 1.7027 2.41875
3.45054 1.70508 2.44382
3.4376 1.70321 2.45194
3.43163 1.70227 2.456
3.41077 1.70057 2.47519
3.40286 1.70074 2.48625
3.39494 1.70191 2.49729
3.38501 1.70106 2.50738
3.37307 1.70019 2.51548
3.37019 1.70341 2.53046
3.3612 1.70145 2.53256
3.3553 1.70265 2.54558
3.3494 1.70484 2.5586
3.33545 1.70196 2.56575
3.32351 1.70108 2.57385
3.32063 1.70431 2.58883
3.30674 1.70454 2.60393
3.28991 1.70588 2.62604
3.27193 1.70094 2.62925
3.26904 1.70416 2.64423
3.26113 1.70534 2.65627
3.24819 1.70346 2.6634
3.24524 1.70456 2.6704
3.23028 1.70165 2.67556
3.21343 1.70297 2.69667
3.21358 1.70825 2.71559
3.20366 1.70841 2.72567
3.18869 1.70549 2.73082
3.19078 1.70965 2.74175
3.17077 1.70367 2.74199
3.16488 1.70588 2.756
3.15394 1.70501 2.7641
3.13898 1.70209 2.76925
3.13207 1.70427 2.78127
3.12114 1.70341 2.79037
3.1202 1.70553 2.79835
3.10726 1.70466 2.80646
3.1064 1.70993 2.82439
3.09445 1.70904 2.83149
3.08453 1.7092 2.84157
3.06955 1.70627 2.84573
3.06165 1.70746 2.85877
3.05365 1.70547 2.85886
3.04877 1.7087 2.87385
3.04086 1.70988 2.88589
3.02993 1.71002 2.89497
3.01799 1.70915 2.90308
3.01511 1.71339 2.91904
3.00215 1.71149 2.92517
2.99215 1.70849 2.92529
2.9792 1.70759 2.9314
2.97431 1.71082 2.94639
2.96136 1.70893 2.95352
2.9474 1.70701 2.95865
2.94656 1.71331 2.97857
2.93662 1.71345 2.98764
2.91955 1.70533 2.97889
2.91568 1.71058 2.99584
2.91483 1.71587 3.01477
2.89683 1.71189 3.01597
2.88993 1.71409 3.02899
2.88203 1.71628 3.04102
2.86805 1.71334 3.04517
2.86108 1.71239 3.04823
2.85216 1.71356 3.05928
2.84224 1.71472 3.06934
2.84139 1.72101 3.08926
2.8234 1.71704 3.09045
2.79572 1.72368 3.13257
2.78075 1.72076 3.13673
2.76475 1.71778 3.13789
2.75685 1.71998 3.15092
2.73885 1.71499 3.15113
2.72993 1.71615 3.16118
2.72102 1.71833 3.17322
2.7132 1.72469 3.19719
2.68609 1.71251 3.18357
2.68123 1.71778 3.20153
2.67634 1.722 3.21651
2.66037 1.71906 3.21967
2.64337 1.71509 3.22086
2.64446 1.71926 3.23279
2.63454 1.72042 3.24285
2.61753 1.71541 3.24205
2.61468 1.72271 3.26197
2.59567 1.7167 3.2602
2.58777 1.7199 3.27321
2.5748 1.71798 3.27834
2.56883 1.71804 3.28238
2.55486 1.7161 3.28552
2.54292 1.71622 3.29361
2.52894 1.71329 3.29776
2.52104 1.71649 3.31077
2.5091 1.7166 3.31786
2.50119 1.71879 3.32989
2.48713 1.71268 3.32208
2.48024 1.71691 3.33707
2.47133 1.71808 3.34813
2.46242 1.72126 3.36015
2.44541 1.71626 3.35935
2.4365 1.71844 3.37139
2.41747 1.71341 3.3686
2.41149 1.71245 3.37066
2.40663 1.71772 3.38862
2.23936 1.71726 3.4859
2.22256 1.72367 3.51294
2.20351 1.7176 3.50717
2.19664 1.72284 3.52315
2.18661 1.71879 3.51928
2.17872 1.72301 3.53428
2.15562 1.71284 3.52161
2.14569 1.71499 3.53165
2.13781 1.71922 3.54665
2.12687 1.72035 3.55472
2.11899 1.72458 3.56972
2.11402 1.72464 3.57375
2.09295 1.71752 3.56502
2.08709 1.72279 3.58298
2.07412 1.72186 3.5871
2.05913 1.7199 3.58924
2.05225 1.72514 3.60521
2.04133 1.7263 3.61528
2.02735 1.72535 3.6184
2.00436 1.72138 3.61963
1.99647 1.7256 3.63363
1.95657 1.72283 3.64798
1.92772 1.72615 3.66815
1.90078 1.72327 3.67539
1.89188 1.72749 3.6894
1.86596 1.72665 3.69961
1.85998 1.7267 3.70265
1.83203 1.72481 3.70889
1.82007 1.72491 3.71498
1.80711 1.72499 3.72008
1.79517 1.72612 3.72815
1.78323 1.72723 3.73523
1.77826 1.7273 3.73927
1.75133 1.72746 3.74947
1.73835 1.72652 3.75258
1.72641 1.72763 3.75965
1.69948 1.72678 3.76887
1.68054 1.72692 3.77701
1.66757 1.727 3.78211
1.65461 1.72708 3.78721
1.64063 1.72512 3.78934
1.61469 1.72426 3.79755
1.60276 1.7264 3.80661
1.59679 1.72746 3.81064
1.58483 1.72856 3.81671
1.56983 1.72557 3.81687
1.54187 1.72367 3.82211
1.52992 1.72477 3.82819
1.51201 1.72696 3.84029
1.49803 1.72601 3.84341
1.48405 1.72507 3.84653
1.4721 1.72616 3.8526
1.45914 1.72625 3.8577
1.43423 1.72844 3.86986
1.41223 1.72546 3.87007
1.4003 1.7276 3.87913
1.38528 1.72458 3.87729
1.37538 1.72878 3.8903
1.35934 1.72472 3.88548
1.31348 1.72602 3.90381
1.30051 1.72609 3.90791
1.28857 1.72821 3.91597
1.27356 1.7262 3.91411
1.25853 1.72316 3.91127
1.23653 1.72018 3.91148
-1.32053 1.71882 3.78074
-1.31971 1.70848 3.75789
-1.34283 1.70526 3.74211
-1.35782 1.70729 3.74319
-1.38583 1.71028 3.74135
-1.39495 1.70606 3.72648
-1.40291 1.70914 3.7315
-1.41693 1.71011 3.72859
-1.42897 1.70903 3.7227
-1.45599 1.712 3.71986
-1.46412 1.70577 3.70401
-1.47618 1.70466 3.69611
-1.48611 1.70979 3.70411
-1.50923 1.70658 3.68933
-1.52225 1.70755 3.68642
-1.53723 1.71059 3.68848
-1.55223 1.7136 3.68855
-1.56232 1.70943 3.67669
-1.57044 1.70521 3.66181
-1.58234 1.71241 3.67479
-1.59243 1.70924 3.66292
-1.6084 1.7133 3.66598
-1.61848 1.71016 3.6561
-1.6374 1.71732 3.66614
-1.63865 1.70485 3.63433
-1.65758 1.71199 3.64336
-1.66163 1.70889 3.63644
-1.6776 1.71295 3.6395
-1.6867 1.70978 3.62761
-1.69973 1.71073 3.6237
-1.70883 1.70653 3.60983
-1.72283 1.70854 3.6099
-1.73476 1.71468 3.6189
-1.74091 1.7084 3.60004
-1.75099 1.70525 3.58916
-1.77189 1.71445 3.60218
-1.77901 1.70922 3.58631
-1.79302 1.7112 3.58439
-1.80901 1.71524 3.58645
-1.81711 1.71104 3.57257
-1.83199 1.71929 3.58856
-1.84109 1.7161 3.57568
-1.85117 1.71395 3.56478
-1.86222 1.71285 3.55788
-1.87231 1.7107 3.54699
-1.88829 1.71474 3.54905
-1.89935 1.71363 3.54115
-1.91325 1.72082 3.55315
-1.91742 1.71351 3.53228
-1.93045 1.71446 3.52837
-1.94544 1.71747 3.52843
-1.95553 1.71531 3.51754
-1.96461 1.71216 3.50665
-1.98651 1.72237 3.51967
-1.98071 1.71098 3.49379
-2.00261 1.71917 3.50584
-2.02966 1.72209 3.499
-2.03677 1.71788 3.48511
-2.04981 1.71882 3.48019
-2.05792 1.7146 3.46532
-2.06887 1.71971 3.47232
-2.08191 1.72065 3.46741
-2.08309 1.7113 3.44355
-2.10204 1.7174 3.4496
-2.33005 1.71757 3.3163
-2.34506 1.71955 3.31439
-2.34822 1.71325 3.2945
-2.36125 1.71519 3.28957
-2.37231 1.71509 3.28265
-2.38841 1.71391 3.26979
-2.41249 1.71475 3.25796
-2.42751 1.71772 3.25503
-2.43956 1.71864 3.2491
-2.45071 1.71435 3.22925
-2.47382 1.71416 3.21542
-2.49692 1.71497 3.20158
-2.51293 1.71795 3.19966
-2.5141 1.71064 3.17877
-2.52209 1.71365 3.17879
-2.54917 1.71652 3.16895
-2.5533 1.71127 3.15205
-2.56535 1.71218 3.14513
-2.57839 1.71311 3.14021
-2.5844 1.71409 3.13825
-2.59843 1.71704 3.13431
-2.61147 1.71796 3.12839
-2.79255 1.71696 2.98575
-2.81772 1.71665 2.96394
-2.83588 1.71435 2.94311
3.54724 1.69849 2.13814
3.53342 1.69886 2.16225
3.52852 1.70105 2.17525
3.51456 1.69815 2.1814
3.49477 1.69858 2.20955
3.48686 1.69875 2.22061
3.489 1.70402 2.23851
3.4374 1.70085 2.29296
3.41956 1.70118 2.31409
3.4107 1.70245 2.33214
3.38782 1.69972 2.34936
3.37011 1.70428 2.38643
3.34428 1.70264 2.40965
3.29268 1.70046 2.46308
3.27281 1.69974 2.48124
3.23712 1.70038 2.52251
3.16674 1.70163 2.60403
3.09139 1.70597 2.69154
3.03274 1.70269 2.73804
2.98013 1.7035 2.79043
2.92745 1.70216 2.83285
2.92256 1.70537 2.84685
2.90766 1.70559 2.86096
2.90883 1.7129 2.88184
2.87097 1.70821 2.9012
2.85296 1.70321 2.90041
2.8421 1.7065 2.91945
2.83015 1.7046 2.92556
2.81921 1.70474 2.93465
2.81029 1.70589 2.9447
2.80238 1.70708 2.95674
2.79043 1.70617 2.96285
2.78243 1.70419 2.96394
2.76948 1.70329 2.97005
2.76056 1.70445 2.9801
2.76072 1.71176 3.00099
2.74473 1.7078 3.00317
2.73076 1.70487 3.00732
2.72588 1.70911 3.0233
2.72494 1.71223 3.03126
2.70694 1.70724 3.03147
2.70711 1.71457 3.05336
2.68304 1.70545 3.04468
2.68119 1.71175 3.0646
2.66318 1.70573 3.06282
2.66032 1.712 3.08076
2.64727 1.70592 3.07494
2.64441 1.7122 3.09387
2.63145 1.71029 3.099
2.6195 1.7094 3.10611
2.61059 1.71157 3.11714
2.59459 1.70758 3.11732
2.58466 1.70874 3.12738
2.5807 1.70981 3.1324
2.3472 1.7249 3.33096
2.33322 1.72295 3.33409
2.31419 1.71691 3.33032
2.30628 1.72009 3.34234
2.2842 1.71096 3.33264
2.28328 1.71512 3.34359
2.27742 1.72038 3.36055
2.25128 1.70815 3.34393
2.2444 1.71238 3.35892
2.23853 1.71763 3.37589
2.20245 1.70652 3.36733
2.20458 1.71276 3.38322
2.18756 1.70774 3.38142
2.17662 1.70887 3.38949
2.16974 1.7131 3.40448
2.13185 1.71135 3.41979
2.1119 1.70946 3.42697
1.80237 1.72655 3.62208
1.78433 1.72147 3.61629
1.76117 1.70919 3.59664
1.75228 1.71341 3.61065
1.73625 1.70937 3.60783
1.72836 1.71359 3.62183
1.71934 1.71055 3.61894
1.7135 1.71786 3.63988
1.69848 1.71485 3.63804
1.68653 1.71494 3.64413
1.67357 1.71503 3.64922
1.65651 1.70994 3.64243
1.64864 1.71519 3.65941
1.64163 1.71418 3.65848
1.62867 1.71427 3.66357
1.61774 1.71541 3.67264
1.60476 1.71546 3.67574
1.59079 1.71452 3.67886
1.57781 1.71357 3.68197
1.56381 1.71158 3.68211
1.55885 1.71267 3.68813
1.5469 1.71377 3.6942
1.523 1.71598 3.70735
1.50697 1.71193 3.70353
1.49603 1.71306 3.7116
1.48101 1.71004 3.70976
1.4771 1.71421 3.72073
1.46412 1.71326 3.72384
1.45421 1.71643 3.73487
1.43817 1.71238 3.73105
1.42929 1.71761 3.74604
1.4112 1.71046 3.73528
1.40131 1.71568 3.74928
1.39533 1.71572 3.75232
1.38031 1.71269 3.74948
1.36836 1.71279 3.75557
1.35743 1.71593 3.76461
1.34138 1.71085 3.7588
1.33046 1.71402 3.76984
1.31442 1.70996 3.76502
1.31562 1.72033 3.78986
1.29855 1.71522 3.78206
1.28352 1.71116 3.77724
1.27772 1.72156 3.80413
1.25552 1.7082 3.77849
1.24459 1.71034 3.78754
1.24088 1.72589 3.82435
-1.34052 1.72188 3.64883
-1.34556 1.71979 3.6429
-1.41066 1.72365 3.63033
-1.42171 1.72355 3.62341
-1.47591 1.72021 3.59787
-1.4969 1.72322 3.59798
-1.52098 1.72309 3.58816
4.21356 1.68027 -0.212931
3.95289 1.70076 1.15992
3.94097 1.69792 1.17005
3.94002 1.69902 1.17704
3.94113 1.70123 1.191
3.91716 1.69232 1.19632
3.91927 1.69654 1.21124
3.89368 1.69536 1.26546
3.81382 1.69165 1.41714
3.7982 1.69542 1.46821
3.76759 1.6932 1.51948
3.76067 1.69336 1.53053
3.74683 1.6927 1.55264
3.74499 1.69601 1.57361
3.73909 1.69619 1.58566
3.73117 1.69536 1.59673
3.7373 1.70161 1.61359
3.71733 1.6947 1.61885
3.71142 1.69488 1.63089
3.71048 1.69599 1.63788
3.70557 1.69717 1.6499
3.70769 1.7014 1.66583
3.69676 1.69954 1.67494
3.67489 1.69483 1.69317
3.67501 1.69805 1.70813
3.66313 1.69729 1.72423
3.66223 1.7005 1.73819
3.66536 1.70575 1.75509
3.64941 1.70085 1.76129
3.64751 1.70306 1.77527
3.63558 1.7012 1.78439
3.63062 1.70028 1.78944
3.63375 1.70553 1.80634
3.61478 1.6986 1.81059
3.60987 1.69978 1.82261
3.61401 1.70605 1.84049
3.59905 1.70215 1.84666
3.60017 1.70638 1.86259
3.60325 1.70953 1.87252
3.58528 1.7036 1.87675
3.58338 1.70681 1.89071
3.58149 1.70902 1.9047
3.57358 1.7092 1.91676
3.57068 1.71139 1.92975
3.56578 1.71259 1.94277
3.54881 1.70766 1.94697
3.54586 1.70877 1.95398
3.54107 1.71319 1.98195
3.51832 1.71368 2.01412
3.51341 1.71487 2.02714
3.50844 1.71394 2.03119
3.47576 1.71358 2.07345
3.45106 1.71518 2.11262
3.43723 1.71553 2.13572
3.42931 1.71568 2.14578
3.41146 1.71499 2.16593
3.4085 1.71608 2.17193
3.39366 1.7164 2.19304
3.38675 1.71659 2.20509
3.3699 1.71689 2.22522
3.35896 1.71502 2.23333
3.35111 1.71731 2.25236
3.33816 1.71542 2.25949
3.32131 1.71473 2.27962
3.31239 1.7149 2.29069
3.3105 1.71811 2.30466
3.29447 1.71206 2.30087
3.28856 1.71324 2.3129
3.28668 1.71748 2.32885
3.27272 1.71458 2.335
3.26882 1.71677 2.348
3.26191 1.71796 2.36004
3.24191 1.71097 2.36029
3.23097 1.7101 2.36839
3.24009 1.71733 2.38421
3.21708 1.70932 2.3825
3.22023 1.71561 2.40239
3.21231 1.71678 2.41343
3.19734 1.71285 2.41761
3.18741 1.71199 2.42669
3.17251 1.71119 2.43982
3.16962 1.71542 2.45478
3.15479 1.71675 2.47688
3.13982 1.71282 2.48105
3.13391 1.71501 2.49306
3.12492 1.71204 2.49517
3.11901 1.71422 2.50719
3.0931 1.70942 2.51946
3.09223 1.71467 2.53639
3.08633 1.71685 2.5484
3.0774 1.71701 2.55847
3.0725 1.71921 2.57147
3.06754 1.71928 2.57651
3.04753 1.71328 2.57575
3.04666 1.71853 2.59268
3.03874 1.7187 2.60374
3.02679 1.71782 2.61084
3.00995 1.71912 2.63095
3.00699 1.71922 2.63698
2.9772 1.71964 2.6642
2.96927 1.71979 2.67426
2.95041 1.72009 2.6934
2.92759 1.72044 2.71657
2.8839 1.72108 2.75789
2.87497 1.72122 2.76696
2.84516 1.72163 2.79318
2.69598 1.71635 2.9034
4.06522 1.68657 0.274161
4.06142 1.68696 0.300187
4.05169 1.68551 0.337287
4.01983 1.68477 0.488559
4.02394 1.68898 0.502467
4.02905 1.6922 0.517383
4.00155 1.68719 0.583674
3.80558 1.70321 1.25201
3.81567 1.70937 1.26284
3.80574 1.70652 1.27296
3.78076 1.69659 1.27629
3.76883 1.69373 1.28543
3.76191 1.6929 1.29649
3.76815 1.70235 1.32731
3.75414 1.69636 1.3275
3.74221 1.6925 1.33665
3.73239 1.69287 1.36072
3.73461 1.70029 1.3896
3.73271 1.70249 1.40259
3.70773 1.69255 1.40592
3.72284 1.70175 1.41967
3.71592 1.70091 1.43074
3.70097 1.69603 1.43793
3.69205 1.69418 1.44802
3.69919 1.70145 1.46586
3.69227 1.70061 1.47693
3.6873 1.69968 1.48098
3.68741 1.70288 1.49493
3.66945 1.69699 1.50116
3.68261 1.70629 1.52192
3.66465 1.70039 1.52815
3.64668 1.69446 1.53237
3.65182 1.70072 1.55024
3.6569 1.70487 1.56014
3.64796 1.70301 1.56924
3.63201 1.69812 1.57643
3.63614 1.70336 1.59233
3.63625 1.70658 1.60728
3.6223 1.70269 1.61444
3.62743 1.70894 1.63131
3.61349 1.70505 1.63848
3.6025 1.70109 1.64062
3.60161 1.7033 1.6546
3.59167 1.70244 1.66368
3.58576 1.70261 1.67473
3.58889 1.70786 1.69163
3.58599 1.70905 1.70464
3.57003 1.70415 1.71083
3.57109 1.70727 1.71878
3.56317 1.70642 1.72885
3.56026 1.70862 1.74184
3.56139 1.71285 1.75777
3.54442 1.70694 1.76299
3.54353 1.71015 1.77695
3.52662 1.70634 1.78913
3.51769 1.70549 1.79922
3.50486 1.70583 1.82131
3.50598 1.71006 1.83724
3.49114 1.71039 1.85835
3.48618 1.70946 1.8634
3.47033 1.70877 1.88354
3.47246 1.71402 1.90044
3.45762 1.71334 1.92157
3.10213 1.71849 2.38924
4.01715 1.68953 -0.000559144
4.01134 1.68791 0.0245122
3.99642 1.68108 0.0357272
3.98246 1.68314 0.173821
3.99567 1.69153 0.200601
3.88728 1.69071 0.681496
3.87455 1.68926 0.717618
3.86518 1.69648 0.799594
3.86522 1.69757 0.805578
3.83926 1.68667 0.811935
3.83535 1.68685 0.823964
3.83344 1.68803 0.835963
3.83355 1.69024 0.849931
3.82964 1.69042 0.86196
3.82472 1.68959 0.87301
3.8368 1.69673 0.882815
3.82788 1.6939 0.893926
3.81996 1.69207 0.905014
3.82206 1.69526 0.917953
3.81314 1.69243 0.929063
3.81424 1.69562 0.94201
3.81334 1.69781 0.954986
3.79635 1.68984 0.956232
3.80246 1.69505 0.971111
3.80157 1.69726 0.985087
3.79966 1.69844 0.997085
3.78673 1.69358 1.00626
3.78482 1.69476 1.01825
3.77289 1.69192 1.02839
3.78196 1.69705 1.03724
3.77404 1.69522 1.04833
3.76813 1.69438 1.05939
3.77726 1.70163 1.07622
3.76733 1.69978 1.08632
3.77145 1.704 1.10123
3.76252 1.70116 1.11134
3.76558 1.70427 1.11927
3.75365 1.70042 1.12842
3.75074 1.70159 1.14043
3.74683 1.70178 1.15246
3.74192 1.70196 1.16449
3.74203 1.70516 1.17844
3.73912 1.70634 1.19045
3.72819 1.70248 1.19959
3.72221 1.70155 1.20365
3.72031 1.70274 1.21665
3.7124 1.70191 1.22772
3.70648 1.70108 1.23878
3.70458 1.70227 1.25178
3.70268 1.70447 1.26476
3.70071 1.70454 1.26978
3.69079 1.7027 1.27988
3.68587 1.70286 1.29092
3.692 1.70911 1.30778
3.68709 1.70929 1.31982
3.66512 1.70037 1.32412
3.6582 1.69954 1.33518
3.66728 1.70568 1.34502
3.65233 1.70079 1.35221
3.65545 1.70503 1.36813
3.65355 1.70722 1.38111
3.64663 1.70637 1.39118
3.63379 1.70571 1.41328
3.62687 1.70488 1.42435
3.62592 1.70597 1.43034
3.61509 1.70631 1.45342
3.60617 1.70547 1.4635
3.60427 1.70666 1.4765
3.60036 1.70784 1.48852
3.58742 1.70497 1.49666
3.5965 1.71113 1.5075
3.57574 1.70962 1.53968
3.5638 1.70674 1.54782
3.55989 1.70692 1.55984
3.558 1.71013 1.57381
3.53897 1.7021 1.57107
3.54912 1.71038 1.58988
3.53126 1.70767 1.60906
3.52535 1.70784 1.6201
3.51452 1.70819 1.64318
3.51357 1.70928 1.64917
3.49872 1.7086 1.67029
3.49783 1.7118 1.68426
3.48009 1.71332 1.71837
3.45524 1.70865 1.73963
0.108721 -0.612664 16.9263
0.0551057 -0.612869 16.9777
0.00058823 -0.613882 17.0421
-0.0540121 -0.615057 17.0956
-0.1095 -0.617009 17.164
-0.249256 -0.619464 17.3302
-0.362359 -0.621619 17.4501
-0.477372 -0.624595 17.582
-0.534904 -0.625634 17.6444
-1.62965 -0.650648 18.8812
-1.69805 -0.652414 18.9618
-1.76455 -0.653402 19.0273
-1.93898 -0.65818 19.2377
-2.00842 -0.660018 19.3133
-2.0798 -0.661766 19.3949
-2.2217 -0.664501 19.542
-2.29406 -0.666174 19.6286
2.10479 -0.575384 14.6644
2.02253 -0.576872 14.7631
1.82999 -0.579859 14.9586
0.850403 -0.597616 16.0824
0.825682 -0.59805 16.1196
0.727436 -0.599497 16.2203
0.677934 -0.600484 16.2867
0.627198 -0.601928 16.3222
0.57671 -0.602884 16.3906
0.501419 -0.604437 16.4852
0.346686 -0.606836 16.6544
0.294115 -0.607954 16.7118
0.241477 -0.609204 16.7602
0.188915 -0.610307 16.8186
0.162224 -0.61068 16.8599
0.0372639 -0.503691 16.9882
-0.0163209 -0.503837 17.0436
-0.125424 -0.505995 17.1635
-0.321674 -0.508416 17.3971
-0.378282 -0.509605 17.4495
-0.435761 -0.510541 17.519
-0.550781 -0.511532 17.6499
-1.51158 -0.526732 18.7445
-1.57803 -0.527588 18.819
-1.64351 -0.528533 18.8875
-1.71097 -0.529418 18.9601
-2.02221 -0.53477 19.3285
-2.09362 -0.535563 19.4071
-2.16311 -0.536505 19.4756
-2.49512 -0.542398 19.8743
-2.5695 -0.544115 19.9579
6.06114 -0.465416 10.1663
6.03841 -0.465866 10.2025
5.94013 -0.465388 10.2983
5.84693 -0.46475 10.405
5.49296 -0.464539 10.8097
5.43744 -0.463566 10.8731
5.38091 -0.463607 10.9355
5.3264 -0.463589 11.002
5.31151 -0.463371 11.0161
5.28377 -0.463847 11.0503
5.25602 -0.463339 11.0835
5.22623 -0.463887 11.1127
5.17075 -0.46384 11.1812
5.13893 -0.463461 11.2054
5.11019 -0.463937 11.2396
5.09935 -0.463603 11.2617
5.07365 -0.463992 11.3019
5.03778 -0.463714 11.3192
5.0121 -0.464073 11.3614
4.97928 -0.463694 11.3856
4.9536 -0.464054 11.4278
4.93972 -0.463806 11.4439
3.55058 -0.468529 13.0257
3.47806 -0.468528 13.0903
3.44335 -0.46894 13.1285
3.42753 -0.468573 13.1526
3.39387 -0.468867 13.1989
3.35506 -0.469469 13.2242
3.32348 -0.469631 13.2795
3.28466 -0.469247 13.3038
3.25 -0.469556 13.349
3.21531 -0.469923 13.3903
3.20058 -0.470379 13.4264
3.16487 -0.470776 13.4657
3.12818 -0.471142 13.507
3.0894 -0.470684 13.5363
3.05267 -0.471124 13.5726
3.01806 -0.471344 13.6238
2.97826 -0.471929 13.6501
2.96459 -0.472268 13.6943
2.92686 -0.472707 13.7306
2.89019 -0.473029 13.7748
2.85043 -0.472541 13.8061
2.81482 -0.473745 13.8584
2.77403 -0.4733 13.8867
2.73635 -0.473636 13.93
2.72064 -0.474062 13.9682
2.68296 -0.474397 14.0115
2.64222 -0.474864 14.0458
2.60247 -0.474347 14.0791
2.52411 -0.475031 14.1647
2.46772 -0.475805 14.2451
2.42801 -0.476198 14.2844
2.38733 -0.476532 14.3278
2.34663 -0.476925 14.3671
2.20788 -0.478365 14.5342
2.1662 -0.478713 14.5765
2.12556 -0.478972 14.6248
2.08285 -0.479378 14.6631
1.93813 -0.480755 14.8343
1.89648 -0.481029 14.8816
1.85281 -0.48136 14.9249
0.927676 -0.492239 15.9752
0.758184 -0.494153 16.1765
0.708577 -0.494347 16.2289
0.658946 -0.495585 16.2783
0.609339 -0.495779 16.3307
0.328767 -0.499805 16.6549
0.00866873 -0.421983 17.0342
-0.353298 -0.425765 17.4391
-1.55408 -0.436823 18.8035
-1.62055 -0.437737 18.874
-1.92794 -0.440404 19.2214
-1.99739 -0.441272 19.295
-2.06778 -0.442021 19.3765
-2.46931 -0.446916 19.8397
0.354538 -0.419381 16.6165
0.086852 -0.290816 16.9127
-0.103427 -0.291301 17.1422
-0.158011 -0.290447 17.1976
-0.213596 -0.290592 17.253
-0.269105 -0.290589 17.3184
-0.526848 -0.290973 17.6194
-0.585328 -0.290909 17.6889
-1.28936 -0.291696 18.4843
-1.32111 -0.29117 18.5185
-1.38559 -0.291101 18.588
-1.45009 -0.291091 18.6535
-1.75141 -0.2916 19.0118
-1.81889 -0.291529 19.0814
-1.88639 -0.292502 19.1479
-1.95582 -0.292341 19.2234
-2.02523 -0.29212 19.303
-2.20555 -0.292701 19.5264
-2.27605 -0.292672 19.5929
-2.34845 -0.292435 19.6735
-2.42278 -0.293063 19.763
-2.49618 -0.292839 19.8426
-2.57155 -0.292555 19.9262
6.06909 -0.316705 10.1461
6.01756 -0.316749 10.2085
5.95112 -0.315605 10.283
5.89656 -0.314706 10.3414
5.84505 -0.314706 10.4068
5.63873 -0.312254 10.6313
5.41965 -0.310333 10.887
5.39392 -0.310796 10.9222
5.36311 -0.310403 10.9474
5.33434 -0.309923 10.9786
5.31269 -0.310226 11.0248
5.25108 -0.309411 11.0773
5.22233 -0.308902 11.1105
5.20744 -0.308683 11.1246
5.17969 -0.30916 11.1588
5.15602 -0.308506 11.202
5.12421 -0.308112 11.2272
5.09444 -0.307632 11.2584
5.06467 -0.308165 11.2887
5.03591 -0.307671 11.3209
5.02307 -0.30735 11.342
4.99839 -0.307696 11.3852
4.96558 -0.307301 11.4104
4.93683 -0.306792 11.4436
3.56045 -0.299013 12.9921
3.52469 -0.298513 13.0244
3.49307 -0.29875 13.0746
3.45938 -0.298118 13.1159
3.42365 -0.297559 13.1521
3.38792 -0.298 13.1884
3.33639 -0.298044 13.2508
3.30171 -0.297382 13.2941
3.26292 -0.296954 13.3214
3.2303 -0.297175 13.3726
3.19358 -0.2966 13.4099
3.15582 -0.297114 13.4412
3.12116 -0.296422 13.4864
3.10541 -0.296907 13.5206
3.06768 -0.296361 13.5559
3.03096 -0.296772 13.5941
2.99633 -0.296021 13.6434
2.95656 -0.296548 13.6737
2.91988 -0.295899 13.716
2.88219 -0.296264 13.7573
2.86642 -0.295794 13.7884
2.82872 -0.296174 13.8287
2.75337 -0.295846 13.9153
2.7126 -0.295372 13.9456
2.67493 -0.294693 13.9899
2.63624 -0.295057 14.0312
2.61949 -0.294556 14.0643
2.58084 -0.294847 14.1106
2.54112 -0.29427 14.1479
2.50038 -0.294722 14.1832
2.46174 -0.294998 14.2305
2.36362 -0.294194 14.3482
2.32393 -0.294558 14.3896
2.28325 -0.293906 14.4319
2.16127 -0.293818 14.5678
2.1196 -0.293136 14.6121
2.10083 -0.293663 14.6433
2.05918 -0.292952 14.6896
2.01752 -0.293255 14.7349
1.97484 -0.293602 14.7772
1.93318 -0.292905 14.8225
1.8916 -0.293046 14.8789
1.83023 -0.292772 14.9623
0.900109 -0.291633 16.0135
0.851471 -0.291887 16.0618
0.802887 -0.291037 16.1172
0.753204 -0.291379 16.1596
0.579729 -0.291261 16.3629
0.529099 -0.291499 16.4123
0.246636 -0.291317 16.7505
0.193036 -0.290493 16.8039
0.140399 -0.290744 16.8523
0.096882 -0.0830388 16.8965
-0.0378409 -0.0804382 17.0665
-0.147987 -0.0796846 17.1804
-0.203451 -0.0785929 17.2518
-0.259004 -0.0776787 17.3112
-0.344219 -0.0770766 17.4159
-0.458319 -0.0752313 17.5357
-0.515851 -0.0742713 17.5981
-0.574329 -0.073207 17.6676
-1.30908 -0.0634255 18.5001
-1.37353 -0.0622976 18.5735
-1.43801 -0.0622288 18.643
-1.50346 -0.061115 18.7155
-1.94368 -0.0553902 19.2188
-2.26393 -0.0507521 19.5862
-2.33538 -0.0496339 19.6588
-2.40875 -0.0483366 19.7433
6.07312 -0.170842 10.1359
5.29877 -0.158247 11.0217
5.18167 -0.1564 11.1415
5.08358 -0.155551 11.2623
5.05279 -0.155114 11.2905
5.0281 -0.154489 11.3317
4.99426 -0.154154 11.3529
4.96552 -0.153629 11.3872
4.93577 -0.153104 11.4214
3.60326 -0.13264 12.9503
3.56546 -0.132213 12.9776
3.4991 -0.130906 13.0631
3.46128 -0.130523 13.0874
3.44755 -0.129995 13.1225
3.41284 -0.130392 13.1617
3.37505 -0.12995 13.19
3.34139 -0.129259 13.2353
3.3067 -0.128641 13.2755
3.26996 -0.128096 13.3108
3.23324 -0.127522 13.3481
3.18278 -0.126433 13.4195
3.14812 -0.125742 13.4647
3.11143 -0.125108 13.506
3.07266 -0.124621 13.5373
3.03696 -0.125002 13.5776
3.00133 -0.124266 13.6258
2.98349 -0.123942 13.647
2.94474 -0.12341 13.6812
2.91015 -0.122585 13.7355
2.87035 -0.122171 13.7618
2.83474 -0.121375 13.8141
2.79706 -0.120726 13.8563
2.75732 -0.120193 13.8906
2.71859 -0.119632 13.9269
2.70184 -0.119131 13.96
2.66417 -0.119452 14.0043
2.62446 -0.118846 14.0436
2.58681 -0.118137 14.0899
2.54608 -0.117589 14.1252
2.50742 -0.116895 14.1705
2.46874 -0.11623 14.2138
2.44995 -0.115802 14.2419
2.41132 -0.115063 14.2902
2.33096 -0.114731 14.3768
2.25064 -0.113354 14.4664
2.19123 -0.112141 14.5459
2.10787 -0.110837 14.6305
2.06514 -0.110272 14.6668
2.02558 -0.110385 14.7251
1.94122 -0.109064 14.8107
1.92149 -0.108517 14.8469
1.87884 -0.107805 14.8932
1.83615 -0.107167 14.9345
1.00532 -0.0955086 15.8897
0.860466 -0.0931671 16.0418
0.811821 -0.0924357 16.0892
0.763304 -0.0924526 16.1536
0.639377 -0.0902596 16.2965
0.539277 -0.0884246 16.4162
0.308181 -0.0855246 16.67
0.150549 -0.0837295 16.8521
-0.748855 0.0146947 17.8556
-0.809364 0.0157012 17.9211
1.82439 -0.0347957 14.9585
1.77861 -0.0343329 14.9879
1.73602 -0.0334875 15.0432
1.69339 -0.0327309 15.0925
1.62904 -0.0304106 15.179
1.5844 -0.0296821 15.2263
1.5408 -0.0288508 15.2806
1.49405 -0.0283281 15.314
1.44946 -0.027496 15.3683
1.4048 -0.0268119 15.4127
0.104037 0.107009 16.8987
0.0494607 0.108878 16.9551
-0.0040782 0.10982 17.0165
-0.0586089 0.111778 17.0789
-0.251952 0.117162 17.2993
-0.308559 0.117973 17.3517
-0.365082 0.119947 17.4151
-0.421704 0.120728 17.4655
-0.508759 0.123643 17.5911
-0.566305 0.124573 17.6516
-0.684359 0.12751 17.7774
-0.742905 0.129441 17.8379
-0.803353 0.131566 17.9113
-1.01749 0.137364 18.1589
-1.0799 0.138565 18.2373
-1.14143 0.140527 18.2998
-1.20396 0.141506 18.3632
-1.36548 0.146511 18.5594
-1.43091 0.148669 18.6349
-1.5618 0.151941 18.7828
-1.62738 0.152818 18.8393
-1.69479 0.155022 18.9178
-1.93468 0.161328 19.1986
-2.00413 0.163459 19.2721
-2.07356 0.16562 19.3476
-2.14494 0.166886 19.4301
-2.32632 0.172187 19.6454
-2.39971 0.17444 19.7269
-2.47406 0.176753 19.8125
-2.54844 0.178036 19.896
-2.62002 0.179902 19.9515
-2.73786 0.183254 20.1054
-2.81329 0.185434 20.1819
-2.89063 0.187778 20.2695
-2.96802 0.189019 20.3501
6.05447 -0.036325 10.169
6.02971 -0.0358331 10.2012
6.00192 -0.0353983 10.2294
5.97211 -0.0350212 10.2537
5.96226 -0.0337031 10.2747
5.93651 -0.0332105 10.3069
5.90669 -0.0328334 10.3311
5.88194 -0.0323119 10.3653
5.85113 -0.0319341 10.3895
5.82334 -0.0314993 10.4177
5.79859 -0.0309778 10.4519
5.78369 -0.0307744 10.465
5.76099 -0.0301804 10.5042
5.73118 -0.0297885 10.5294
5.67359 -0.027947 10.5838
5.64581 -0.0274826 10.6141
5.61905 -0.0269892 10.6462
5.60721 -0.0266844 10.6663
5.58248 -0.0261185 10.7035
5.55268 -0.0257118 10.7297
5.52796 -0.0251459 10.7669
5.49817 -0.0247244 10.7941
5.47142 -0.0232016 10.8283
5.44161 -0.0228097 10.8536
5.43079 -0.0224612 10.8766
5.39998 -0.0220538 10.9029
5.37628 -0.0214442 10.943
5.3465 -0.0209931 10.9723
5.31875 -0.0204842 11.0055
5.28896 -0.0200479 11.0337
5.26224 -0.0184955 11.0699
5.23448 -0.0180014 11.1021
5.19184 -0.0172596 11.1504
3.90772 0.0119833 12.5988
3.8193 0.0131731 12.6755
3.78658 0.0147447 12.7127
3.46845 0.0225883 13.0941
3.39903 0.0237791 13.1716
3.36536 0.025455 13.2158
3.13227 0.030371 13.4705
3.00639 0.0336542 13.6194
2.93202 0.0359373 13.703
2.6494 0.0427925 14.0191
2.47489 0.0468366 14.2173
2.39551 0.0491234 14.3009
2.33707 0.0502617 14.3753
2.17439 0.0539567 14.5505
1.90571 0.0606981 14.8595
1.86307 0.062425 14.9068
1.75601 0.0653539 15.0326
1.71337 0.0660809 15.0799
1.6261 0.0685807 15.1775
1.58144 0.0692648 15.2219
1.47143 0.0722846 15.3537
0.986511 0.0846335 15.8972
0.817978 0.0886289 16.0925
0.71975 0.0912107 16.1952
0.670188 0.0921056 16.2535
0.620559 0.0938673 16.3029
0.341025 0.100898 16.6309
0.288336 0.102543 16.6723
-0.118043 0.220787 17.1437
-0.370879 0.229206 17.4315
-0.427477 0.231031 17.4849
-0.484963 0.23308 17.5533
-0.631662 0.237734 17.7264
-0.871641 0.245862 17.9951
-1.21377 0.257722 18.3766
-1.27726 0.259761 18.444
-1.70558 0.274283 18.9341
-1.77403 0.276414 19.0076
-2.01695 0.284648 19.2834
-2.08734 0.286898 19.3649
-2.23019 0.292253 19.5179
-2.4889 0.300913 19.8217
-2.63585 0.306078 19.9618
-2.8301 0.31264 20.1942
-2.90935 0.316178 20.2948
-2.98678 0.318345 20.3703
4.88829 0.0676468 11.4685
4.85855 0.0681719 11.5027
4.78214 0.0703825 11.5812
4.7534 0.0709217 11.6165
4.6929 0.0729429 11.6829
4.62469 0.0755325 11.7874
4.38854 0.0813322 12.0341
4.35984 0.0819454 12.0743
4.32605 0.0823846 12.1026
4.29329 0.0838674 12.1338
4.26461 0.084525 12.177
4.23697 0.086241 12.2242
4.22112 0.0865487 12.2443
1.42574 0.169796 15.3856
0.669289 0.194169 16.257
-2.73292 0.452776 20.0714
0.467966 0.403329 16.4605
5.50319 0.499622 10.7463
0.086358 0.944545 16.8604
0.0327682 0.948384 16.9148
-0.0207839 0.952296 16.9741
-0.0752977 0.957283 17.0385
0.271718 0.929213 16.6432
0.246127 0.933031 16.6974
0.193553 0.936898 16.7537
0.139933 0.940678 16.8041
0.852934 0.971352 16.0011
3.00353 0.899777 13.5536
2.98882 0.90235 13.5917
2.95109 0.90491 13.628
2.91129 0.906324 13.6543
2.83899 0.912738 13.7467
2.41553 0.946959 14.2165
2.33619 0.953305 14.304
2.19643 0.965804 14.4669
1.65105 1.01222 15.0794
1.06415 1.06457 15.7541
1.01645 1.06819 15.7934
0.968948 1.0732 15.8597
0.920245 1.07681 15.899
0.751696 1.09176 16.0911
4.76571 0.921405 11.5758
4.73598 0.923945 11.611
4.70216 0.924325 11.6352
4.67343 0.926864 11.6704
4.64573 0.929476 11.7106
4.6278 0.930622 11.7197
