-1.36005 1.70937 5.03918
-1.37804 1.71139 5.04028
-1.4121 1.71129 5.03154
-1.42621 1.70809 5.01769
-1.45418 1.71217 5.02184
-1.46828 1.70897 5.008
-1.48629 1.70997 5.00712
-1.5043 1.71097 5.00624
-1.51936 1.70986 4.99837
-1.53541 1.70877 4.9915
-1.56145 1.7097 4.98568
-1.59354 1.70854 4.97394
-1.61058 1.70848 4.96907
-1.62663 1.70839 4.96219
-1.64365 1.70836 4.95932
-1.65971 1.70827 4.95244
-1.66577 1.70615 4.94452
-1.70276 1.71019 4.94574
-1.75092 1.7079 4.92413
-1.76598 1.70781 4.91724
-1.77401 1.70674 4.91232
-1.79005 1.70668 4.90744
-1.80708 1.70763 4.90355
-1.82217 1.70547 4.8917
-1.84115 1.70751 4.89381
-1.85523 1.70637 4.88393
-1.86737 1.70211 4.86608
-1.8803 1.70626 4.87512
-1.89536 1.70513 4.86625
-1.90847 1.70194 4.85239
-1.92649 1.70292 4.85052
-1.94547 1.70696 4.8526
-1.96054 1.70484 4.84374
-1.98149 1.70995 4.84983
-1.98166 1.70261 4.82693
-2.00067 1.7046 4.82605
-2.02161 1.70974 4.83413
-2.03571 1.70654 4.82028
-2.05176 1.70646 4.8144
-2.06781 1.70637 4.80752
-2.08681 1.70939 4.80762
-2.08795 1.70311 4.78872
-2.10891 1.70721 4.79482
-2.11612 1.6998 4.76698
-2.142 1.70806 4.78305
-2.16098 1.7111 4.78515
-2.17408 1.7089 4.77128
-2.19211 1.70987 4.7684
-2.2021 1.71189 4.76945
-2.21421 1.70868 4.75458
-2.2342 1.71171 4.75569
-2.25025 1.71162 4.74881
-2.26334 1.70945 4.73694
-2.28037 1.7104 4.73305
-2.2925 1.70717 4.71719
-2.3025 1.70818 4.71725
-2.3215 1.71118 4.71635
-2.33557 1.71006 4.70747
-2.34671 1.7058 4.68962
-2.36276 1.70571 4.68274
-2.38372 1.71078 4.68682
-2.3919 1.70445 4.66397
-2.40991 1.70643 4.66208
-2.41794 1.70638 4.65814
-2.434 1.70627 4.65026
-2.45399 1.71031 4.65235
-2.472 1.7123 4.65046
-2.47722 1.70387 4.62162
-2.49721 1.7069 4.62272
-2.52326 1.70882 4.61589
-2.53735 1.70766 4.60501
-2.57142 1.70954 4.59524
-2.58451 1.70837 4.58336
-2.69898 1.70752 4.52122
-2.76332 1.7049 4.47674
-2.80655 1.70249 4.4471
-2.84569 1.70424 4.42836
-2.91101 1.70265 4.38587
-2.92805 1.70357 4.37999
-2.95028 1.69914 4.35022
-2.96534 1.70004 4.34231
-2.98436 1.70201 4.33943
-3.04672 1.69934 4.29193
-3.1281 1.69966 4.24253
5.6607 1.67546 -0.334954
5.65882 1.67471 -0.317926
5.66296 1.67597 -0.299973
5.6671 1.67824 -0.282036
5.66223 1.67651 -0.263971
5.65837 1.67578 -0.245928
5.6715 1.68103 -0.228103
5.65656 1.67616 -0.219917
5.6547 1.67543 -0.20189
5.66584 1.67969 -0.184034
5.65596 1.67695 -0.166917
5.6571 1.67721 -0.148927
5.65823 1.67848 -0.130952
5.64984 1.67767 -0.0508653
5.65511 1.6802 -0.0149375
5.6463 1.67859 0.0111563
5.65344 1.68085 0.0290715
5.62931 1.68354 0.277248
5.6009 1.68669 0.488444
5.58904 1.69193 0.639477
5.59018 1.69421 0.658437
5.57844 1.69272 0.692552
5.57377 1.69438 0.736569
5.56603 1.6939 0.771639
5.59021 1.70422 0.794307
5.55328 1.6924 0.804762
5.55543 1.69468 0.823715
5.56652 1.69985 0.835556
5.5907 1.70917 0.858239
4.75667 1.73816 2.84837
4.74376 1.73736 2.86148
4.71276 1.72938 2.86183
4.69676 1.72439 2.86203
4.21117 1.72641 3.45073
4.14572 1.72753 3.52322
4.12797 1.73103 3.55631
4.11505 1.7302 3.56742
4.09812 1.72835 3.57658
4.09821 1.73152 3.58853
4.08933 1.73377 3.60457
4.06635 1.72881 3.60681
4.06251 1.73213 3.62779
4.05161 1.73334 3.64186
4.03972 1.73456 3.65593
4.03083 1.73579 3.67099
4.02389 1.73589 3.67804
4.00795 1.73402 3.68619
3.99605 1.73524 3.70026
3.98919 1.73751 3.71828
3.97527 1.73668 3.7294
3.96639 1.73893 3.74543
3.9545 1.74014 3.75951
3.94855 1.74024 3.76555
3.93463 1.73941 3.77667
3.91366 1.73648 3.78087
3.89672 1.73462 3.78903
3.89591 1.73999 3.81396
3.87494 1.73706 3.81816
3.86203 1.73725 3.83026
3.86415 1.74148 3.84618
3.84417 1.73754 3.84939
3.82723 1.73567 3.85755
3.81635 1.7379 3.8726
3.80242 1.73706 3.88272
3.78649 1.73621 3.89185
3.77156 1.73537 3.90198
3.78579 1.74578 3.93072
3.74867 1.73359 3.91618
3.74282 1.73789 3.93616
3.73294 1.74013 3.9522
3.71399 1.73724 3.95839
3.70511 1.73948 3.97443
3.70027 1.74479 3.99539
3.68424 1.73975 3.99158
3.67436 1.74199 4.00763
3.66246 1.74319 4.0207
3.64854 1.74336 4.0318
3.63765 1.74458 4.04587
3.61768 1.74165 4.05006
3.59972 1.73876 4.05624
3.5958 1.74091 4.06624
3.58995 1.74521 4.08622
3.57099 1.7423 4.09141
3.54798 1.7373 4.09066
3.54518 1.74468 4.11657
3.52217 1.73969 4.11582
3.50927 1.73989 4.12892
3.50848 1.74729 4.15582
3.49344 1.74323 4.15099
3.47447 1.74031 4.15618
3.47167 1.7477 4.18209
3.45068 1.74373 4.18331
3.4317 1.74079 4.1865
3.42487 1.74512 4.20849
3.40489 1.74218 4.21168
3.40297 1.74434 4.22266
3.38806 1.74452 4.23378
3.37413 1.74467 4.24388
3.35517 1.74276 4.24905
3.34731 1.74705 4.26805
3.32734 1.74411 4.27124
3.31038 1.74221 4.2774
3.30746 1.74437 4.28839
3.29052 1.74349 4.29553
3.27357 1.74261 4.30268
3.26471 1.74588 4.3207
3.2427 1.74088 4.31994
3.23181 1.74311 4.33499
3.22297 1.74741 4.35499
3.20892 1.74334 4.34916
3.19804 1.74558 4.36521
3.17704 1.7416 4.36543
3.16414 1.7438 4.37849
3.14517 1.74087 4.38268
3.13529 1.74411 4.39871
3.11733 1.7422 4.40387
3.11139 1.74332 4.4119
3.09847 1.7445 4.42298
3.08659 1.74673 4.43804
3.06862 1.7448 4.44221
3.05774 1.74704 4.45826
3.0418 1.74717 4.46638
3.02687 1.74732 4.47549
3.01486 1.74431 4.47462
3.00499 1.74757 4.49165
2.98399 1.74359 4.49187
2.9731 1.74682 4.50691
2.9592 1.74802 4.51999
2.94731 1.75023 4.53405
2.9344 1.75142 4.54613
2.92948 1.75357 4.55614
2.91353 1.75369 4.56326
2.87862 1.75089 4.57557
0.97057 1.74992 5.24105
0.952578 1.74995 5.24218
0.924538 1.7459 5.23745
0.908624 1.74907 5.24853
0.873632 1.74811 5.24981
0.85567 1.7482 5.25494
0.847724 1.75031 5.26197
0.828654 1.74619 5.25317
0.8106 1.7431 5.24636
0.794717 1.74833 5.2614
0.776708 1.74633 5.26056
0.758686 1.7453 5.25771
0.740701 1.74534 5.25985
0.730592 1.73914 5.24602
0.715809 1.74857 5.27399
0.696725 1.74442 5.2632
0.679787 1.74655 5.27129
0.661717 1.74243 5.26249
0.643756 1.74352 5.26761
0.625686 1.7394 5.2588
0.617795 1.74461 5.27279
0.599733 1.7415 5.26497
0.581749 1.74155 5.26711
0.564779 1.74162 5.27123
0.548896 1.74685 5.28628
0.528756 1.7396 5.26853
0.511788 1.74067 5.27265
0.493765 1.73964 5.2698
0.485819 1.74175 5.27683
0.466726 1.73659 5.26504
0.450835 1.74181 5.27909
0.432866 1.74188 5.28322
0.414797 1.73876 5.2744
0.39782 1.73981 5.27752
0.379828 1.73984 5.27865
0.370774 1.73675 5.27177
0.353859 1.73992 5.28285
0.336883 1.74098 5.28596
0.318914 1.74205 5.29008
0.300853 1.73894 5.28226
0.282683 1.73163 5.2605
0.265846 1.73896 5.28152
0.256908 1.74108 5.28956
0.238784 1.73486 5.27379
0.221785 1.73487 5.27392
0.203793 1.7349 5.27505
0.185677 1.72969 5.26026
0.168771 1.73388 5.27233
0.151763 1.73388 5.27146
0.142686 1.72974 5.26159
0.124764 1.7339 5.27166
0.107765 1.73391 5.27179
0.0898111 1.73501 5.27791
0.0727576 1.73292 5.27107
0.0548121 1.73504 5.27817
0.0335979 1.72967 5.11739
0.0165519 1.72759 5.11155
-0.000478349 1.72654 5.10769
-0.0174935 1.72553 5.10583
-0.0264236 1.72867 5.11486
-0.0434539 1.72762 5.111
-0.0604227 1.72869 5.11511
-0.0773833 1.73078 5.12021
-0.0945296 1.72451 5.10143
-0.111537 1.72451 5.10056
-0.128505 1.72558 5.10467
-0.136482 1.72663 5.10771
-0.153589 1.72243 5.0939
-0.170473 1.72767 5.10896
-0.187534 1.72456 5.10113
-0.20451 1.72662 5.10423
-0.221603 1.72245 5.09242
-0.238579 1.72351 5.09553
-0.254647 1.72139 5.08668
-0.263624 1.72244 5.08973
-0.280615 1.72347 5.09085
-0.297638 1.72244 5.08799
-0.314629 1.72346 5.0891
-0.330683 1.72137 5.08225
-0.348675 1.7214 5.08339
-0.364775 1.71722 5.07057
-0.373728 1.71931 5.07661
-0.389743 1.7193 5.07473
-0.423788 1.71823 5.069
-0.457794 1.71924 5.06824
-0.474777 1.72028 5.07035
-0.48187 1.71611 5.05847
-0.499854 1.71715 5.06059
-0.566912 1.71708 5.05309
-0.607972 1.716 5.04541
-0.718066 1.71688 5.03323
-0.767149 1.71476 5.02263
-0.842275 1.71356 5.00621
-0.93244 1.7113 4.98492
-0.967414 1.71437 4.98814
-0.998528 1.71117 4.97342
-1.05663 1.71 4.95987
-1.0746 1.71308 4.96396
-1.09161 1.71306 4.96209
-1.12368 1.71295 4.95333
-1.13974 1.71086 4.94648
-1.14778 1.70977 4.94056
-1.18662 1.7201 4.9607
-1.22894 1.70852 4.92019
-1.35021 1.70606 4.88413
-1.3913 1.70593 4.87344
-1.43942 1.70471 4.85682
-1.45544 1.70568 4.85393
-1.49554 1.70452 4.84124
-1.51257 1.70547 4.83736
-1.54563 1.70538 4.82961
-1.56967 1.70632 4.82477
-1.61779 1.7051 4.80815
-1.71812 1.70153 4.76495
-1.73418 1.70142 4.75708
-1.75314 1.70452 4.76317
-1.82142 1.70102 4.72674
-1.83744 1.70098 4.72286
-1.85447 1.70193 4.71897
-1.86952 1.70185 4.71308
-1.88047 1.70495 4.71912
-1.89359 1.70173 4.70426
-1.90669 1.69855 4.69141
-1.92371 1.70052 4.68851
-1.95381 1.69933 4.67475
-1.97279 1.70239 4.67785
-1.97689 1.69819 4.66394
-1.99588 1.70123 4.66604
-2.01192 1.70115 4.66016
-2.02796 1.70209 4.65526
-2.04105 1.69992 4.64339
-2.062 1.70503 4.64948
-2.0741 1.70184 4.63661
-2.09015 1.70175 4.62974
-2.1021 1.70586 4.63677
-2.11813 1.7068 4.63187
-2.13122 1.70463 4.62
-2.15218 1.70872 4.6251
-2.16331 1.70448 4.60824
-2.17542 1.70228 4.59436
-2.19736 1.7074 4.60146
-2.20144 1.70426 4.59153
-2.21454 1.70207 4.57866
-2.23255 1.70406 4.57677
-2.24957 1.70602 4.57387
-2.25971 1.70177 4.556
-2.27871 1.70378 4.55612
-2.29572 1.70576 4.55421
-2.30081 1.7036 4.54328
-2.31684 1.70354 4.5384
-2.32896 1.70133 4.52353
-2.34696 1.70334 4.52363
-2.35611 1.69905 4.50376
-2.3751 1.70208 4.50486
-2.3851 1.70309 4.50492
-2.3972 1.7009 4.49204
-2.41226 1.7008 4.48416
-2.43322 1.70588 4.48924
-2.44039 1.69955 4.46638
-2.46334 1.70567 4.47347
-2.48951 1.70235 4.45071
-2.50345 1.70748 4.45874
-2.51851 1.70737 4.45085
-2.52764 1.70311 4.43298
-2.57184 1.70176 4.40733
-2.58984 1.70475 4.40642
-2.69329 1.70396 4.34821
-2.72958 1.69841 4.30956
-2.75155 1.70348 4.31365
-2.77475 1.6991 4.28688
-2.78672 1.70217 4.29093
-2.80178 1.70306 4.28303
-2.81092 1.6988 4.26516
-2.89028 1.69913 4.21674
5.49962 1.67538 -0.211722
5.4906 1.67531 -0.081635
5.50004 1.68513 0.109175
5.49017 1.68239 0.126292
5.49931 1.68665 0.144163
5.47941 1.67989 0.159415
5.48649 1.68303 0.169316
5.50577 1.69055 0.205065
4.83075 1.71343 2.3301
4.81692 1.71377 2.35221
4.80818 1.71729 2.38723
4.79327 1.71447 2.39838
4.78438 1.7147 2.41345
4.77951 1.71695 2.43045
4.77155 1.71505 2.43654
4.7717 1.71933 2.45548
4.76583 1.72058 2.47251
4.78507 1.73203 2.5032
4.7792 1.73328 2.52023
4.7414 1.72773 2.5486
4.73855 1.73001 2.56759
4.72262 1.72817 2.57774
4.71374 1.7284 2.5928
4.69681 1.72456 2.60299
4.67788 1.72171 2.61217
4.65893 1.71784 2.62037
4.65909 1.72215 2.64131
4.64208 1.71615 2.64053
4.62531 1.7176 2.67064
4.07061 1.72439 3.37581
4.00713 1.72546 3.44529
3.98332 1.72584 3.47046
3.95951 1.72623 3.49564
3.95163 1.72847 3.51167
3.94165 1.72653 3.51477
3.93881 1.73184 3.53572
3.91582 1.72689 3.53797
3.91097 1.73017 3.55696
3.90511 1.73346 3.57595
3.88917 1.73159 3.5841
3.87323 1.72972 3.59225
3.87736 1.73496 3.60915
3.86747 1.73718 3.62319
3.85052 1.73429 3.63036
3.83257 1.73141 3.63754
3.81966 1.73158 3.64864
3.81279 1.73486 3.66664
3.79484 1.73196 3.67282
3.78384 1.72998 3.67393
3.77798 1.73325 3.69193
3.756 1.7293 3.69415
3.74813 1.73157 3.71218
3.73421 1.73073 3.7223
3.7223 1.73091 3.73439
3.70636 1.73004 3.74252
3.70141 1.73115 3.74955
3.69153 1.73238 3.7646
3.66166 1.73067 3.78286
3.65581 1.73395 3.80186
3.63381 1.72999 3.80308
3.61788 1.72913 3.81221
3.61404 1.73344 3.83318
3.61112 1.73559 3.84317
3.59215 1.73267 3.84736
3.60245 1.74524 3.8861
3.56127 1.72994 3.86464
3.55139 1.73217 3.87968
3.54453 1.73544 3.89769
3.52253 1.73147 3.89891
3.51961 1.73362 3.9089
3.51376 1.73792 3.92888
3.48672 1.73087 3.92419
3.48389 1.7362 3.94614
3.46189 1.73123 3.94738
3.44797 1.73139 3.95748
3.43505 1.73156 3.96858
3.43618 1.73679 3.98449
3.41619 1.73284 3.9867
3.40429 1.73404 3.99978
3.38633 1.73213 4.00494
3.35948 1.73246 4.02614
3.34658 1.73264 4.03824
3.33557 1.73064 4.03735
3.32164 1.7308 4.04745
3.31378 1.73407 4.06547
3.29581 1.73114 4.06965
3.28392 1.73336 4.08371
3.27605 1.73663 4.10172
3.25404 1.73163 4.10096
3.24607 1.7317 4.10502
3.22025 1.73305 4.1282
3.21238 1.73631 4.14521
3.19038 1.73233 4.14543
3.17746 1.7325 4.15653
3.16151 1.73162 4.16366
3.15354 1.73067 4.16674
3.12569 1.732 4.18793
3.11481 1.73423 4.20298
3.11605 1.74368 4.23384
3.08189 1.73141 4.21427
3.07404 1.7357 4.23327
3.06506 1.73475 4.23635
3.04708 1.73181 4.23953
3.04227 1.73817 4.26348
3.0162 1.73107 4.25578
3.00835 1.73536 4.27478
2.98735 1.73137 4.275
2.97341 1.73152 4.2841
2.97658 1.73882 4.30497
2.95456 1.73381 4.30321
2.94165 1.735 4.31529
2.92974 1.73718 4.32735
2.91178 1.73527 4.33251
2.90189 1.7375 4.34756
2.89405 1.7428 4.36754
2.87797 1.73667 4.35775
2.86709 1.73991 4.37379
2.85317 1.74007 4.38389
2.83824 1.74021 4.393
2.82533 1.7414 4.40509
2.80736 1.74047 4.40924
2.8066 1.74993 4.4401
2.79254 1.74484 4.43329
2.77963 1.74602 4.44537
2.76268 1.74513 4.45151
2.74976 1.7463 4.46259
2.73179 1.74437 4.46675
2.72092 1.74863 4.48378
2.70394 1.74669 4.48693
2.69901 1.74882 4.49594
2.67901 1.74484 4.49615
2.66509 1.746 4.50624
2.64812 1.74508 4.51138
2.6213 1.74744 4.53455
2.59928 1.74342 4.53178
2.59433 1.74452 4.5388
2.57941 1.74568 4.54889
2.56954 1.74995 4.56691
2.55157 1.74801 4.57007
2.53763 1.74816 4.57918
2.51967 1.74724 4.58433
2.50081 1.75052 4.60242
2.48588 1.75068 4.61253
2.47094 1.7508 4.61965
1.2041 1.74888 5.04528
1.14208 1.74388 5.04282
1.08109 1.73994 5.04434
1.03325 1.74429 5.06563
1.01314 1.73809 5.05188
0.997232 1.74228 5.06394
0.989232 1.74129 5.06401
0.971224 1.74029 5.06316
0.956325 1.74349 5.07623
0.924448 1.74775 5.09241
0.889463 1.74581 5.0947
0.877316 1.73853 5.0759
0.861347 1.7396 5.08
0.843324 1.73757 5.07717
0.826347 1.73763 5.08029
0.791339 1.73564 5.07959
0.774347 1.73467 5.08073
0.758401 1.73678 5.08782
0.74937 1.73473 5.08392
0.715433 1.73687 5.09214
0.698409 1.73484 5.0893
0.681464 1.73696 5.0964
0.664448 1.73494 5.09456
0.647495 1.73704 5.10065
0.641619 1.74228 5.11662
0.621487 1.73505 5.09988
0.605518 1.73612 5.10398
0.589665 1.74241 5.12301
0.57265 1.74139 5.12116
0.553541 1.7352 5.10739
0.538713 1.74353 5.12938
0.527488 1.73211 5.10063
0.513736 1.7436 5.13257
0.49348 1.73112 5.0999
0.476519 1.73221 5.10501
0.45952 1.73222 5.10514
0.442589 1.73437 5.11424
0.42776 1.7417 5.13624
0.417574 1.73336 5.11244
0.384799 1.74281 5.14155
0.367792 1.74181 5.1407
0.3508 1.74183 5.14182
0.333777 1.7408 5.13897
0.314521 1.72833 5.10629
0.307754 1.73978 5.13618
0.290778 1.73983 5.1393
0.272755 1.7388 5.13646
0.254585 1.73049 5.11471
0.238794 1.7399 5.1417
0.221787 1.7399 5.14082
0.20354 1.72844 5.10913
0.195733 1.73681 5.13406
0.178695 1.73475 5.12922
0.161742 1.73685 5.13532
0.143556 1.72851 5.11158
0.127588 1.72958 5.11568
0.110619 1.73066 5.1198
0.0936507 1.73273 5.12389
0.0846661 1.73276 5.12596
0.0676979 1.73483 5.13006
0.0505666 1.7286 5.11328
0.0316171 1.73773 4.98627
0.0155398 1.73359 4.97645
-0.00149047 1.73254 4.97259
-0.00942812 1.73567 4.98061
-0.0264741 1.73359 4.97476
-0.042404 1.73674 4.98384
-0.0763798 1.73781 4.98708
-0.0924565 1.73467 4.97725
-0.117487 1.73363 4.97345
-0.133479 1.73366 4.97457
-0.15054 1.73155 4.96673
-0.166532 1.73158 4.96785
-0.1835 1.73365 4.97195
-0.199538 1.73159 4.9671
-0.215631 1.72742 4.95528
-0.225499 1.73368 4.97226
-0.240622 1.72845 4.95645
-0.257598 1.72951 4.95956
-0.273652 1.72742 4.95271
-0.290643 1.72844 4.95383
-0.30665 1.72844 4.95295
-0.323618 1.73051 4.95705
-0.331634 1.72949 4.95512
-0.348641 1.72949 4.95425
-0.365609 1.73156 4.95835
-0.380732 1.72633 4.94254
-0.397716 1.72737 4.94465
-0.413754 1.72631 4.93979
-0.429776 1.72528 4.93692
-0.439667 1.73149 4.9509
-0.453868 1.72212 4.92515
-0.471735 1.72938 4.94218
-0.487835 1.7252 4.92936
-0.503819 1.72624 4.93146
-0.519887 1.72412 4.92261
-0.536856 1.7252 4.92673
-0.544879 1.72516 4.92379
-0.561893 1.72514 4.92192
-0.577908 1.72512 4.92004
-0.593946 1.72406 4.91517
-0.609992 1.72198 4.90932
-0.626975 1.72402 4.91142
-0.641082 1.71983 4.89759
-0.657128 1.71775 4.89174
-0.66612 1.71877 4.89279
-0.683104 1.71981 4.8949
-0.698149 1.71874 4.88903
-0.715155 1.71973 4.88815
-0.732131 1.72179 4.89124
-0.748161 1.72074 4.88738
-0.766091 1.72489 4.89645
-0.770307 1.71548 4.86862
-0.787275 1.71755 4.87272
-0.803313 1.71649 4.86786
-0.821258 1.7196 4.87495
-0.836327 1.71748 4.86609
-0.851418 1.71431 4.85425
-0.86231 1.71953 4.86825
-0.876417 1.71533 4.85442
-0.893385 1.7184 4.8585
-0.909407 1.71837 4.85562
-0.925452 1.71729 4.84976
-0.94342 1.71937 4.85387
-0.957496 1.71723 4.844
-0.973526 1.71718 4.84012
-0.97865 1.71095 4.82425
-0.999501 1.71924 4.84329
-1.01167 1.71293 4.82147
-1.03059 1.71709 4.83155
-1.04665 1.716 4.82469
-1.06266 1.71698 4.8228
-1.07578 1.71175 4.80697
-1.08573 1.71486 4.814
-1.10178 1.71377 4.80714
-1.11781 1.71372 4.80326
-1.13383 1.71369 4.80038
-1.14889 1.71258 4.79251
-1.16878 1.71882 4.80757
-1.18286 1.71667 4.7967
-1.18992 1.71455 4.78879
-1.21077 1.72285 4.80782
-1.22197 1.71447 4.78203
-1.24092 1.71859 4.78911
-1.25985 1.72272 4.79719
-1.26908 1.7133 4.7684
-1.28707 1.71533 4.7695
-1.29991 1.72363 4.78948
-1.30817 1.71214 4.75571
-1.3242 1.71209 4.75183
-1.34705 1.7214 4.77187
-1.35529 1.71093 4.74008
-1.3723 1.71193 4.73919
-1.39026 1.71602 4.74427
-1.39827 1.71599 4.74233
-1.41333 1.7149 4.73546
-1.43326 1.72003 4.74353
-1.44636 1.71585 4.73069
-1.46143 1.71473 4.72182
-1.48331 1.72197 4.73688
-1.4925 1.71462 4.71305
-1.50052 1.71458 4.71011
-1.51654 1.71555 4.70722
-1.53159 1.71447 4.70135
-1.54081 1.70505 4.67255
-1.56562 1.71642 4.69658
-1.57285 1.70698 4.66677
-1.59182 1.71006 4.67086
-1.60178 1.71315 4.67689
-1.61488 1.70995 4.66304
-1.62992 1.70989 4.65815
-1.64889 1.71296 4.66225
-1.66004 1.70768 4.64241
-1.67019 1.70239 4.62256
-1.69404 1.7117 4.64261
-1.71008 1.71162 4.63673
-1.71418 1.70743 4.62382
-1.73609 1.71463 4.63588
-1.74917 1.71247 4.62501
-1.76129 1.70825 4.60916
-1.77731 1.70923 4.60726
-1.79334 1.71018 4.60337
-1.81037 1.71013 4.5995
-1.82229 1.71527 4.60851
-1.83539 1.71211 4.59666
-1.84456 1.70579 4.57482
-1.86058 1.70674 4.57092
-1.88152 1.71187 4.57901
-1.89657 1.7118 4.57312
-1.91456 1.71482 4.57421
-1.95267 1.71461 4.5585
-1.96477 1.71143 4.54564
-1.98376 1.71446 4.54673
-1.99882 1.71437 4.53985
5.33366 1.67161 -0.338433
5.34079 1.67385 -0.321518
5.33185 1.67098 -0.313407
5.32797 1.67023 -0.296364
5.33209 1.67147 -0.280411
5.32922 1.67072 -0.263376
5.32935 1.67097 -0.246379
5.33348 1.67322 -0.229441
5.33261 1.67347 -0.212436
5.34367 1.67758 -0.204579
5.3418 1.67684 -0.187551
5.34505 1.67834 -0.153593
5.3343 1.67583 -0.120471
5.33543 1.67708 -0.103495
5.33549 1.6772 -0.0954963
5.34875 1.6827 -0.0616729
5.33287 1.67794 -0.0454807
5.338 1.68019 -0.0285502
5.34113 1.68144 -0.0115899
5.33225 1.6787 0.00551984
5.34238 1.68294 0.022383
5.33644 1.68107 0.0304567
5.32556 1.67831 0.0465817
5.34871 1.68758 0.0652727
5.33282 1.68182 0.0814797
5.32194 1.67906 0.0966049
5.34008 1.68632 0.115363
5.3292 1.68257 0.131503
5.32426 1.68169 0.139554
5.34341 1.68896 0.158305
5.34053 1.6892 0.174325
5.32064 1.68243 0.189577
5.34079 1.6907 0.208306
5.31689 1.68292 0.222603
5.33297 1.68907 0.233392
5.3331 1.69033 0.250375
5.32421 1.68756 0.265485
5.32935 1.69082 0.283401
5.31847 1.68706 0.29954
5.30658 1.68429 0.314673
5.32173 1.69056 0.333469
5.31585 1.68981 0.349527
5.30991 1.68793 0.3576
5.31704 1.69119 0.375501
5.32017 1.69344 0.392446
5.31429 1.69268 0.408504
5.31042 1.69193 0.425546
5.31355 1.69418 0.442492
5.30767 1.69343 0.45855
5.29472 1.68954 0.465706
5.31287 1.69682 0.485464
5.29899 1.69305 0.500626
5.2891 1.69028 0.515744
5.30124 1.69656 0.534562
5.28735 1.69279 0.549725
5.28548 1.69304 0.566737
5.28955 1.69517 0.575676
5.27866 1.6924 0.590802
5.27979 1.69365 0.607777
5.28594 1.69793 0.62667
5.27204 1.69415 0.640832
5.28419 1.69943 0.660665
4.50513 1.7333 2.64531
4.48517 1.72941 2.65152
4.46925 1.72657 2.66168
4.45533 1.72474 2.67281
4.43839 1.72187 2.68098
4.42748 1.72107 2.69408
4.42563 1.72536 2.71303
4.41164 1.72138 2.7142
4.40073 1.72058 2.72729
4.38581 1.71874 2.73743
4.38596 1.72304 2.75737
4.365 1.71814 2.7636
4.35611 1.71835 2.77767
4.3442 1.71854 2.78976
4.33824 1.71763 2.79582
4.32835 1.71785 2.80989
4.32146 1.71908 2.82493
4.31358 1.7203 2.83997
4.30167 1.71949 2.85207
4.27391 1.71898 2.88429
4.23029 1.71876 2.93463
4.2214 1.71899 2.9497
4.20454 1.71926 2.96782
4.19179 1.72276 3.00087
4.17098 1.72316 3.02703
4.16008 1.72336 3.04011
4.14213 1.72048 3.04729
4.14423 1.72366 3.05923
4.12929 1.7218 3.06837
4.12644 1.72508 3.08734
4.11353 1.72527 3.09944
4.0986 1.72341 3.10858
4.08669 1.7226 3.12068
4.07779 1.72381 3.13473
4.0809 1.72802 3.14865
4.05993 1.72309 3.15288
4.05003 1.72429 3.16594
4.05221 1.73065 3.18983
4.0393 1.72983 3.20194
4.02034 1.72592 3.20715
4.01044 1.72714 3.2212
4.01053 1.7293 3.23217
4.00667 1.73358 3.25114
3.99376 1.73276 3.26225
3.9758 1.72986 3.26843
3.97396 1.73417 3.28939
3.96306 1.73437 3.30247
3.94611 1.73249 3.30962
3.94822 1.73669 3.32355
3.93731 1.73688 3.33563
3.92138 1.73502 3.34478
3.90863 1.73952 3.37781
3.89269 1.73765 3.38596
3.87684 1.73896 3.40606
3.86392 1.73813 3.41717
3.83708 1.73746 3.43839
3.83323 1.74176 3.45836
3.80941 1.74213 3.48253
3.79548 1.74128 3.49165
3.75966 1.73866 3.51596
3.73987 1.74109 3.54408
3.73199 1.74331 3.55911
3.70606 1.73947 3.56836
3.65256 1.74448 3.6347
3.63863 1.74364 3.64482
3.62965 1.74269 3.6479
3.60079 1.74098 3.66615
3.59392 1.74424 3.68315
3.57111 1.74562 3.70831
3.54811 1.74064 3.70856
3.55023 1.74487 3.72448
3.53225 1.74193 3.72766
3.52438 1.74519 3.74467
3.4816 1.74365 3.77402
3.46474 1.74494 3.79313
3.45282 1.7451 3.80322
3.42396 1.7444 3.82245
3.39409 1.74268 3.8397
3.38016 1.74182 3.84882
3.38127 1.74603 3.86275
3.35926 1.74104 3.86299
3.35442 1.74636 3.88395
3.3415 1.74651 3.89405
3.32657 1.74566 3.90318
3.30658 1.7417 3.90539
3.30073 1.74599 3.92437
3.29478 1.7471 3.9314
3.28084 1.74623 3.93952
3.26692 1.74638 3.94962
3.25298 1.74653 3.95873
3.23603 1.74463 3.96488
3.21907 1.74271 3.97004
3.21019 1.74496 3.98608
3.19132 1.74622 4.0032
3.17638 1.74535 4.01133
3.15841 1.74343 4.01549
3.15256 1.74773 4.03548
3.12167 1.74597 4.05074
3.09775 1.74414 4.06095
3.08887 1.74738 4.07697
3.05899 1.74664 4.0932
3.04709 1.74784 4.10628
3.02417 1.74702 4.11746
3.01226 1.7482 4.12954
2.9953 1.74629 4.1347
2.97833 1.74436 4.13885
2.9525 1.74571 4.16103
2.93755 1.74582 4.16814
2.91566 1.74605 4.18231
2.87588 1.74752 4.21259
0.871282 1.74449 4.93783
0.729367 1.74176 4.94995
0.679328 1.73772 4.94538
0.639468 1.74302 4.96361
0.54753 1.7422 4.97231
0.513499 1.73917 4.96861
0.497507 1.7392 4.96973
0.464562 1.74132 4.97695
0.44757 1.74135 4.97808
0.439578 1.74137 4.97914
0.389586 1.74042 4.98053
0.355548 1.73737 4.97583
0.314533 1.73637 4.97415
0.297525 1.73537 4.9733
0.264596 1.73853 4.9825
0.247534 1.73542 4.97467
0.231651 1.74066 4.98972
0.206644 1.73966 4.98892
0.189574 1.73654 4.98009
0.172435 1.72929 4.96233
0.156598 1.73761 4.98333
0.140606 1.73763 4.98445
0.123607 1.73765 4.98457
0.106576 1.7356 4.98073
0.098592 1.73663 4.98278
0.0815693 1.7356 4.97992
0.0654769 1.73144 4.9681
0.00969862 1.73594 4.86444
-0.0074176 1.72973 4.84966
-0.0393778 1.73182 4.85487
-0.0803528 1.7339 4.85815
-0.0964069 1.73081 4.85132
-0.112414 1.7308 4.85044
-0.128344 1.73395 4.85951
-0.144552 1.72456 4.83277
-0.169412 1.73185 4.85085
-0.185357 1.73396 4.85794
-0.249471 1.72979 4.84348
-0.274407 1.73392 4.85161
-0.355459 1.73288 4.84524
-0.41065 1.72555 4.82076
-0.476561 1.73176 4.83216
-0.499614 1.72967 4.82537
-0.516621 1.72967 4.82449
-0.531683 1.72756 4.81664
-0.564665 1.72962 4.81886
-0.580703 1.72855 4.81399
-0.601888 1.72121 4.79026
-0.635785 1.72743 4.80342
-0.667846 1.72534 4.79569
-0.699851 1.72734 4.7949
-0.722005 1.72106 4.77516
-0.754988 1.72312 4.77738
-0.786055 1.72201 4.76863
-0.810093 1.72095 4.76383
-0.842121 1.72191 4.76005
-0.875119 1.72394 4.76027
-0.890172 1.72285 4.7534
-0.906194 1.72281 4.75052
-0.93117 1.72488 4.75368
-0.961284 1.72168 4.73895
-0.992359 1.72055 4.7292
-1.00738 1.72052 4.72631
-1.01733 1.72363 4.73334
-1.03333 1.72462 4.73245
-1.04359 1.71314 4.69969
-1.07948 1.72036 4.71286
-1.09742 1.72449 4.72093
-1.11248 1.72339 4.71306
-1.11854 1.72129 4.70614
-1.1336 1.71916 4.69728
-1.15059 1.72121 4.69938
-1.17777 1.71487 4.67567
-1.21174 1.71894 4.67887
-1.21978 1.71789 4.67495
-1.2479 1.71466 4.6582
-1.26781 1.72085 4.67026
-1.28092 1.71664 4.65542
-1.29984 1.72181 4.66649
-1.31294 1.71863 4.65363
-1.3229 1.72171 4.65866
-1.33697 1.71957 4.6488
-1.35007 1.71539 4.63596
-1.36903 1.71949 4.64204
-1.39523 1.71311 4.61533
-1.42627 1.71406 4.61055
-1.43721 1.71819 4.61857
-1.48429 1.71904 4.60691
-1.51439 1.71687 4.59417
-1.52943 1.71681 4.58928
-1.55444 1.7188 4.58744
-1.56948 1.71873 4.58255
-1.59959 1.71755 4.5688
-1.6367 1.71635 4.55409
-1.65272 1.71732 4.5512
-1.66776 1.71724 4.54531
-1.68086 1.71408 4.53346
-1.69785 1.71609 4.53355
-1.70702 1.70977 4.51171
-1.71894 1.71493 4.52173
-1.73204 1.71174 4.50887
-1.76114 1.71157 4.49609
-1.79122 1.71143 4.48532
-1.84436 1.71119 4.46672
5.2137 1.67277 -0.332546
5.21082 1.67101 -0.316496
5.21095 1.67126 -0.299498
5.21207 1.67249 -0.283523
5.2082 1.67175 -0.26648
5.22732 1.67797 -0.250714
5.21538 1.6741 -0.242566
5.22851 1.67934 -0.22574
5.22463 1.67858 -0.209697
5.22576 1.67883 -0.192707
5.21688 1.67607 -0.176597
5.24801 1.6873 -0.159996
5.20411 1.67256 -0.144445
5.22419 1.67968 -0.1357
5.2073 1.67393 -0.119485
5.20642 1.67416 -0.10348
5.21155 1.67641 -0.0865497
5.21267 1.67765 -0.0705742
5.22481 1.68289 -0.0537409
5.20586 1.67602 -0.0454954
5.21799 1.68126 -0.028662
5.21211 1.67951 -0.0125895
5.20523 1.67775 0.00349059
5.21073 1.68172 0.0693994
5.2168 1.68485 0.0783086
5.20904 1.68333 0.110394
5.21717 1.68657 0.127287
5.1974 1.68105 0.158522
4.6254 1.7179 2.15056
4.61952 1.71814 2.1666
4.63171 1.7275 2.19138
4.60775 1.7206 2.19666
4.61492 1.72693 2.21952
4.60001 1.72411 2.23067
4.59405 1.7232 2.23673
4.58831 1.72871 2.2707
4.57641 1.72691 2.28381
4.47067 1.72746 2.45163
4.4589 1.72992 2.48268
4.42518 1.7275 2.51998
4.41736 1.73086 2.54399
4.40043 1.727 2.55318
4.37459 1.72435 2.57541
4.34976 1.72171 2.59864
4.3609 1.72895 2.61545
4.33792 1.72303 2.61972
4.33607 1.72631 2.63868
4.32215 1.72448 2.64982
4.3203 1.72777 2.66878
4.29732 1.72183 2.67205
4.30853 1.73123 2.69983
4.29151 1.72622 2.69803
4.28262 1.72643 2.71209
4.26266 1.72253 2.7183
4.26081 1.72582 2.73727
4.24688 1.72397 2.74741
4.24905 1.7293 2.76931
4.22406 1.72335 2.77159
4.23319 1.72959 2.78843
4.2072 1.72163 2.78974
4.20333 1.72488 2.80673
4.17834 1.71793 2.80902
4.18051 1.72425 2.83091
4.16357 1.72038 2.8391
4.1758 1.73082 2.86886
4.14972 1.72169 2.85919
4.16094 1.73111 2.88797
4.13595 1.72516 2.89024
4.13208 1.72741 2.90724
4.10407 1.71942 2.90657
4.11329 1.72883 2.93437
4.08829 1.72186 2.93566
4.10246 1.73117 2.95742
4.07546 1.72419 2.95772
4.07663 1.72952 2.97964
4.0627 1.72766 2.98877
4.05481 1.72889 3.00381
4.03686 1.72601 3.01099
4.04407 1.7344 3.03782
4.02301 1.72731 3.03108
4.01714 1.72955 3.04709
4.01227 1.73182 3.0651
4.00036 1.732 3.07619
3.99247 1.73322 3.09123
3.97451 1.73033 3.09741
3.97971 1.73771 3.12327
3.95866 1.73062 3.11653
3.95782 1.73493 3.13747
3.94691 1.73512 3.14956
3.93197 1.73326 3.1587
3.91906 1.73343 3.16979
3.9152 1.7367 3.18778
3.90026 1.73483 3.19592
3.89237 1.73606 3.21096
3.88541 1.73614 3.21601
3.87853 1.73838 3.23203
3.85755 1.73344 3.23527
3.83171 1.73277 3.25647
3.82785 1.73605 3.27546
3.82198 1.73931 3.29245
3.814 1.73736 3.29554
3.80109 1.73753 3.30664
3.76938 1.73912 3.34486
3.60257 1.74058 3.50412
3.57864 1.73674 3.51436
3.54391 1.73829 3.5496
3.53905 1.74257 3.56858
3.50424 1.74095 3.59287
3.48242 1.74232 3.61701
3.43274 1.743 3.66038
3.36015 1.74185 3.71495
3.10764 1.74495 3.91384
3.07078 1.74325 3.93214
2.94346 1.74467 4.02309
2.73241 1.74469 4.1507
0.659533 1.74117 4.83947
0.626548 1.74022 4.84173
0.447635 1.73851 4.8541
0.341636 1.73559 4.85495
0.220701 1.7368 4.86384
0.187725 1.73787 4.86707
0.155656 1.73376 4.85837
0.130633 1.73273 4.85558
0.0986496 1.73378 4.8578
0.0656732 1.73385 4.86105
0.0213398 1.71728 4.68561
0.00535537 1.71732 4.68773
-0.0104967 1.72461 4.70674
-0.0257052 1.71523 4.67999
-0.0417362 1.71318 4.67614
-0.0966957 1.71529 4.68152
-0.111671 1.71735 4.68461
-0.127749 1.71321 4.67479
-0.143678 1.71736 4.68385
-0.150763 1.7132 4.67296
-0.16677 1.71319 4.67208
-0.181793 1.71216 4.66921
-0.228776 1.71323 4.67155
-0.267774 1.71425 4.67183
-0.298851 1.71113 4.66211
-0.31664 1.72254 4.68907
-0.33081 1.71423 4.6673
-0.346817 1.71422 4.66642
-0.363677 1.7215 4.68444
-0.368871 1.71213 4.65962
-0.385823 1.71524 4.6657
-0.400892 1.71211 4.65686
-0.41593 1.71105 4.65199
-0.430945 1.71103 4.6501
-0.463874 1.71519 4.65929
-0.501004 1.70996 4.64264
-0.517018 1.70995 4.64076
-0.533901 1.71618 4.6558
-0.548985 1.71303 4.64496
-0.564016 1.71198 4.64109
-0.571039 1.71094 4.63816
-0.588007 1.71301 4.64225
-0.601138 1.70777 4.62543
-0.618098 1.71086 4.63051
-0.632152 1.70776 4.62366
-0.648166 1.70775 4.62178
-0.686226 1.70766 4.61407
-0.704108 1.71389 4.62911
-0.717255 1.70762 4.6103
-0.733231 1.70967 4.61339
-0.789242 1.71269 4.61177
-0.802358 1.70747 4.59694
-0.817365 1.70747 4.59606
-0.88743 1.70939 4.58756
-0.931566 1.70515 4.56995
-0.964556 1.70819 4.57115
-0.986586 1.70815 4.56732
-1.01475 1.70284 4.54561
-1.06783 1.70273 4.53601
-1.08286 1.70267 4.53112
-1.1168 1.70781 4.5393
-1.183 1.70448 4.51384
-1.19704 1.7034 4.50797
-1.22809 1.70433 4.50218
-1.27317 1.70419 4.49052
-1.29525 1.70206 4.48072
-1.31126 1.70405 4.47981
-1.34033 1.70293 4.47005
-1.35538 1.70185 4.46418
-1.3704 1.70281 4.46127
-1.38619 1.71422 4.48823
-1.40457 1.69851 4.43959
-1.42643 1.70678 4.45664
-1.43756 1.70154 4.4398
-1.45747 1.70873 4.45184
-1.46566 1.70037 4.42702
-1.47952 1.70864 4.44501
-1.48772 1.69926 4.4192
-1.50862 1.70647 4.43226
-1.51778 1.70017 4.41142
-1.53183 1.69907 4.40454
-1.54882 1.70211 4.40662
-1.5668 1.70516 4.40871
-1.57772 1.71031 4.41872
-1.58787 1.70404 4.39989
-1.6029 1.70398 4.395
-1.6189 1.70599 4.39509
-1.63981 1.71217 4.40616
-1.65813 1.70057 4.36546
-1.67299 1.70885 4.38345
-1.68901 1.70982 4.38056
-1.70306 1.70872 4.37368
-1.723 1.71386 4.38176
-1.74326 1.70437 4.34804
-1.76319 1.71051 4.3571
-1.78036 1.70419 4.33432
-1.7944 1.70412 4.32943
-1.81238 1.70817 4.33151
-1.82547 1.70601 4.32064
-1.84148 1.70699 4.31874
-1.85749 1.70899 4.31783
-1.87449 1.711 4.31793
-1.89458 1.70983 4.3051
-1.90667 1.70767 4.29422
-1.92465 1.71071 4.29631
-1.93379 1.70645 4.27844
-1.94391 1.70123 4.26259
-1.98397 1.70514 4.25483
-2.03005 1.70799 4.24314
-2.06419 1.70675 4.22541
-2.09426 1.70762 4.21562
-2.10832 1.70752 4.20773
-2.5512 1.69912 3.96016
4.97349 1.68724 0.702192
4.14507 1.71945 2.64022
4.12913 1.71658 2.64839
4.05584 1.71703 2.74295
4.00135 1.71707 2.81137
3.92102 1.71543 2.90001
3.87745 1.71831 2.9573
3.85763 1.71868 2.98145
3.82683 1.7171 3.00871
3.80315 1.72074 3.05084
3.78452 1.72846 3.09887
3.7574 1.71726 3.08424
3.74565 1.72276 3.11725
3.73071 1.72089 3.12539
3.71979 1.72106 3.13647
3.7119 1.72227 3.15052
3.70099 1.72246 3.1626
3.68403 1.71956 3.16877
3.68412 1.72272 3.17972
3.66414 1.71778 3.18295
3.6544 1.72529 3.21691
3.63744 1.72239 3.22309
3.62754 1.72259 3.23616
3.62469 1.72788 3.2551
3.61268 1.72387 3.25425
3.59471 1.72096 3.25943
3.60699 1.73347 3.29416
3.58196 1.72644 3.29145
3.56903 1.72558 3.30056
3.55005 1.72164 3.30377
3.54612 1.72278 3.31278
3.53621 1.72396 3.32484
3.54042 1.73236 3.35169
3.52648 1.7315 3.36081
3.5186 1.73373 3.37583
3.48852 1.72261 3.36622
3.48568 1.72792 3.38717
3.46963 1.72284 3.38136
3.46275 1.72508 3.39739
3.44983 1.72524 3.40748
3.43992 1.72543 3.41956
3.428 1.7256 3.43064
3.40901 1.72164 3.43285
3.40214 1.72488 3.44885
3.40233 1.73225 3.47375
3.39334 1.73027 3.47484
3.38546 1.73352 3.49086
3.35941 1.72445 3.48519
3.35354 1.7287 3.50217
3.33556 1.72476 3.50536
3.32769 1.72802 3.52238
3.32788 1.73537 3.54627
3.30273 1.72413 3.52862
3.29788 1.72841 3.5476
3.28092 1.7255 3.55277
3.28919 1.73801 3.58753
3.26717 1.73299 3.58577
3.24616 1.727 3.58502
3.24636 1.73538 3.61089
3.23434 1.73136 3.60904
3.23453 1.73871 3.63294
3.20242 1.72755 3.62034
3.21069 1.74006 3.6551
3.18464 1.73199 3.64941
3.17373 1.73316 3.66048
3.15372 1.72816 3.6597
3.15079 1.73031 3.6697
3.13585 1.72942 3.67682
3.13201 1.73474 3.69778
3.12211 1.73694 3.71082
3.11121 1.73814 3.72389
3.09221 1.73415 3.72409
3.0712 1.72915 3.72332
3.06625 1.73026 3.73034
3.06847 1.73969 3.75919
3.0424 1.73057 3.75052
3.03958 1.73791 3.77344
3.01654 1.73087 3.76971
3.01474 1.73824 3.79462
2.99674 1.73527 3.7958
2.99989 1.74155 3.81469
2.97786 1.73652 3.81193
2.95684 1.73049 3.80917
2.94795 1.73372 3.8242
2.94715 1.74111 3.8501
2.91502 1.72988 3.8335
2.91828 1.74036 3.86633
2.9022 1.73423 3.85654
2.88724 1.73233 3.86268
2.87229 1.73143 3.86881
2.85835 1.73157 3.87791
2.84643 1.73273 3.88798
2.84261 1.73907 3.91092
2.82057 1.73301 3.90618
2.82473 1.74032 3.92704
2.80269 1.73426 3.9223
2.80089 1.74265 3.94819
2.77177 1.73145 3.93357
2.77199 1.74088 3.96243
2.74592 1.73275 3.95275
2.73006 1.73604 3.97182
2.72726 1.74343 3.99774
2.69711 1.73217 3.97913
2.69837 1.74266 4.01197
2.68037 1.73967 4.01215
2.64844 1.73684 4.02243
2.64449 1.73795 4.02945
2.62246 1.73291 4.02569
2.61358 1.73615 4.04171
2.60673 1.74143 4.06068
2.58873 1.73845 4.06086
2.5677 1.73342 4.0581
2.55172 1.73148 4.06125
2.5379 1.73583 4.08429
2.53309 1.74318 4.10822
2.51002 1.73608 4.1005
2.48214 1.73633 4.11571
2.46413 1.73334 4.11589
2.44424 1.73456 4.13002
2.4303 1.73469 4.13812
2.42244 1.73996 4.15611
2.39936 1.73283 4.14639
2.3976 1.74229 4.17726
2.37858 1.73827 4.17547
2.36668 1.74046 4.18752
2.35667 1.73845 4.18663
2.34474 1.74061 4.19669
2.3308 1.74072 4.20379
2.3128 1.73775 4.20497
2.30495 1.74304 4.22396
2.26996 1.73809 4.22629
2.264 1.73817 4.23134
2.24397 1.73413 4.22755
2.22116 1.73851 4.25266
2.20824 1.74067 4.26273
2.19532 1.74184 4.27381
2.17338 1.74198 4.28197
2.1564 1.73902 4.28414
2.09655 1.73738 4.30562
2.08466 1.74058 4.31867
2.07972 1.74271 4.32767
2.02191 1.74313 4.35311
1.93914 1.74263 4.38374
1.78954 1.74151 4.43689
1.77255 1.73955 4.43905
1.76167 1.74378 4.45407
1.74262 1.73971 4.44827
1.70081 1.74311 4.47354
1.68873 1.73795 4.46271
1.67583 1.74117 4.47676
1.65677 1.73607 4.46898
1.6418 1.73614 4.47309
1.61292 1.73838 4.48828
1.59385 1.73327 4.48049
1.592 1.73956 4.49942
1.57911 1.74277 4.51347
1.55799 1.73557 4.49873
1.52909 1.73678 4.51193
1.51414 1.73788 4.51803
1.48604 1.72972 4.50636
1.4463 1.73824 4.53954
1.42929 1.73624 4.5387
1.4174 1.74047 4.55373
1.4004 1.73847 4.55288
1.3924 1.73747 4.55296
1.37746 1.7396 4.56104
1.36042 1.73554 4.55623
1.32846 1.73464 4.56148
1.31556 1.73784 4.57454
1.29749 1.73272 4.56575
1.29362 1.73897 4.58268
1.27351 1.73178 4.56894
1.25442 1.72563 4.55818
1.24256 1.73191 4.57617
1.22658 1.73095 4.57831
1.21369 1.73518 4.59335
1.19871 1.73522 4.59546
1.18865 1.73111 4.58759
1.17886 1.74053 4.61553
1.15669 1.73122 4.59383
1.14378 1.73441 4.60589
1.12882 1.73448 4.61
1.11181 1.73349 4.61014
1.09685 1.73358 4.61525
1.08986 1.7336 4.6163
1.07598 1.73883 4.63133
1.05686 1.73162 4.61658
1.04708 1.74106 4.64552
1.02694 1.73279 4.62679
1.01093 1.73179 4.62593
0.997053 1.73603 4.64197
0.989038 1.73501 4.64005
0.971991 1.73193 4.63422
0.94103 1.73203 4.63945
0.926083 1.73315 4.64655
0.910115 1.73422 4.65065
0.895153 1.7343 4.65577
0.878114 1.73224 4.65092
0.870083 1.73019 4.64702
0.856191 1.7344 4.66106
0.837051 1.72615 4.64332
0.823168 1.73138 4.65835
0.808175 1.73041 4.65948
0.795338 1.73773 4.68047
0.778331 1.73673 4.67961
0.769268 1.73261 4.67174
0.755369 1.73682 4.68479
0.736214 1.72854 4.66505
0.720199 1.72752 4.66319
0.703113 1.72237 4.65239
0.693462 1.73904 4.69722
0.672175 1.72351 4.66061
0.666268 1.72769 4.67259
0.633229 1.72464 4.66788
0.618229 1.72365 4.66801
0.603315 1.72782 4.67906
0.588369 1.72994 4.68615
0.572401 1.73101 4.69025
0.56223 1.72169 4.66846
0.548346 1.72692 4.68349
0.531284 1.72382 4.67567
0.51737 1.72699 4.68673
0.501424 1.72911 4.69381
0.484308 1.7229 4.67903
0.469393 1.72607 4.6901
0.461308 1.72191 4.67922
0.430448 1.7282 4.69736
0.414371 1.72407 4.68754
0.398363 1.72306 4.68668
0.38127 1.7179 4.67488
0.36634 1.72104 4.68395
0.359387 1.72314 4.68997
0.34341 1.72419 4.69308
0.328519 1.72841 4.70713
0.311279 1.71696 4.67642
0.296427 1.72426 4.69543
0.280318 1.71806 4.68164
0.264357 1.71915 4.68675
0.249404 1.72225 4.69281
0.240319 1.71709 4.68196
0.225326 1.71712 4.68307
0.209273 1.71502 4.67622
0.194553 1.72857 4.71214
0.162343 1.71719 4.68554
0.138344 1.71721 4.68573
0.12336 1.71825 4.68782
0.107368 1.71828 4.68894
0.0913843 1.71932 4.69105
0.07647 1.72349 4.7021
0.0603074 1.71519 4.68134
0.0523233 1.71623 4.68339
0.0373156 1.71522 4.68252
0.0293564 1.72133 4.55447
0.0141786 1.713 4.5317
-0.000642774 1.72136 4.55469
-0.0156731 1.72031 4.55082
-0.0238053 1.71306 4.53399
-0.0387346 1.71721 4.54304
-0.0538119 1.71307 4.53321
-0.0696483 1.72139 4.55421
-0.0848418 1.71203 4.52946
-0.0997868 1.71515 4.53653
-0.114833 1.71307 4.53067
-0.122794 1.71515 4.5357
-0.137855 1.71204 4.52786
-0.152832 1.7131 4.53096
-0.167862 1.71205 4.52709
-0.182892 1.711 4.52321
-0.198783 1.71622 4.53726
-0.220867 1.71307 4.52647
-0.250952 1.70893 4.51576
-0.281819 1.7162 4.53288
-0.296942 1.71098 4.51707
-0.312864 1.71514 4.52713
-0.318996 1.70789 4.51028
-0.334003 1.70789 4.5094
-0.364962 1.71098 4.51459
-0.395023 1.70889 4.50684
-0.409991 1.71096 4.51092
-0.417038 1.70887 4.50501
-0.433021 1.71092 4.5071
-0.44802 1.71093 4.50721
-0.463957 1.71506 4.51527
-0.478065 1.70986 4.50145
-0.494041 1.71192 4.50454
-0.507149 1.70672 4.49072
-0.516071 1.71087 4.50072
-0.532985 1.71605 4.51178
-0.547069 1.7129 4.50093
-0.56017 1.70771 4.4881
-0.576169 1.70872 4.48821
-0.590207 1.70766 4.48333
-0.606198 1.70869 4.48443
-0.612244 1.7066 4.47851
-0.627275 1.70555 4.47464
-0.642289 1.70554 4.47275
-0.659195 1.71172 4.48479
-0.674248 1.70963 4.47793
-0.689255 1.71063 4.47703
-0.704254 1.71064 4.47714
-0.710324 1.70751 4.46823
-0.725338 1.70749 4.46635
-0.740384 1.70641 4.46047
-0.756359 1.70847 4.46356
-0.770405 1.70739 4.45769
-0.785427 1.70736 4.4548
-0.801387 1.71044 4.45987
-0.806495 1.70524 4.44599
-0.824416 1.7104 4.45605
-0.837509 1.70623 4.44421
-0.853469 1.70932 4.44928
-0.869437 1.71239 4.45336
-0.880614 1.70406 4.43056
-0.896621 1.70505 4.42967
-0.915472 1.71335 4.44869
-0.918666 1.70398 4.42385
-0.932688 1.70395 4.42095
-0.949641 1.70705 4.42704
-0.963678 1.70698 4.42214
-0.9787 1.70695 4.41926
-0.994683 1.70899 4.42135
-1.00877 1.70584 4.4105
-1.01579 1.7048 4.40757
-1.02884 1.70371 4.40068
-1.04678 1.70784 4.40875
-1.05792 1.70158 4.39093
-1.07585 1.70673 4.39999
-1.0899 1.70563 4.39311
-1.102 1.70145 4.38026
-1.1129 1.70765 4.39325
-1.12694 1.70657 4.38737
-1.13908 1.70131 4.36954
-1.15505 1.70438 4.37362
-1.17199 1.7085 4.38068
-1.18702 1.70845 4.3768
-1.19912 1.70427 4.36395
-1.20615 1.70421 4.36
-1.22311 1.70731 4.36608
-1.23424 1.70207 4.34924
-1.25024 1.70408 4.34933
-1.26428 1.703 4.34346
-1.28027 1.70503 4.34455
-1.29529 1.70601 4.34264
-1.3033 1.70599 4.3407
-1.31832 1.70595 4.33782
-1.32748 1.69967 4.31798
-1.34933 1.70896 4.33701
-1.36433 1.71096 4.33609
-1.3745 1.70366 4.31527
-1.39049 1.70567 4.31536
-1.39654 1.70358 4.30944
-1.41059 1.70349 4.30255
-1.4256 1.70448 4.30164
-1.44647 1.71375 4.31867
-1.45467 1.70437 4.29286
-1.47066 1.7064 4.29395
-1.48959 1.71153 4.30202
-1.48881 1.70112 4.27417
-1.50773 1.70728 4.28422
-1.52471 1.71032 4.2863
-1.53386 1.70405 4.26746
-1.55376 1.71125 4.28051
-1.56586 1.70805 4.26664
-1.57892 1.70696 4.25976
-1.60293 1.70895 4.25791
-1.63004 1.70776 4.24413
-1.64507 1.70771 4.24024
-1.67413 1.7086 4.23144
-1.69715 1.71057 4.22859
4.90892 1.6783 0.0957276
4.30002 1.70939 2.10213
4.2871 1.70756 2.11326
4.28925 1.71184 2.13218
4.2703 1.70696 2.1394
4.27036 1.70907 2.14737
4.2685 1.71234 2.16533
4.25255 1.70847 2.17351
4.25168 1.71172 2.19047
4.23374 1.70786 2.19867
4.22584 1.70805 2.21173
4.21794 1.70825 2.22478
4.22404 1.71244 2.23768
4.20911 1.70958 2.24683
4.2002 1.70877 2.25891
4.19632 1.71101 2.27491
4.18641 1.71119 2.28699
4.16746 1.70631 2.2942
4.14871 1.70681 2.32734
4.13981 1.70701 2.34041
4.1319 1.70721 2.35346
4.02705 1.70954 2.50624
4.02418 1.71279 2.52322
3.99143 1.7103 2.55651
3.97067 1.71079 2.58866
3.94899 1.71443 2.63077
3.92422 1.71489 2.66096
3.89649 1.71545 2.69716
3.87373 1.71594 2.72933
3.84485 1.71119 2.74562
3.84701 1.7175 2.76652
3.83106 1.71462 2.77368
3.8203 1.71909 2.8047
3.81031 1.71712 2.8068
3.79134 1.7122 2.81102
3.79452 1.71953 2.83389
3.77857 1.71665 2.84105
3.76866 1.71683 2.85313
3.76881 1.72213 2.87305
3.74379 1.71412 2.87136
3.73188 1.71329 2.88246
3.72994 1.71541 2.89045
3.72003 1.7156 2.90252
3.71113 1.71579 2.91559
3.70625 1.71903 2.93158
3.69332 1.71818 2.94069
3.68341 1.71836 2.95276
3.68759 1.72571 2.97662
3.66551 1.71658 2.96692
3.65661 1.71778 2.97998
3.65476 1.72206 2.99893
3.63378 1.71712 3.00216
3.62789 1.72035 3.01716
3.62402 1.7236 3.03414
3.611 1.71958 3.0323
3.59707 1.71773 3.04143
3.59824 1.72405 3.06333
3.58329 1.72217 3.07048
3.57438 1.72335 3.08253
3.56851 1.72661 3.09953
3.55557 1.72474 3.10765
3.54458 1.72176 3.10878
3.53668 1.72396 3.12181
3.52576 1.72413 3.13289
3.51183 1.72227 3.14202
3.50997 1.72754 3.15996
3.5041 1.72979 3.17697
3.48915 1.72791 3.18412
3.47924 1.72909 3.19617
3.46723 1.72509 3.19532
3.4553 1.72523 3.20441
3.45043 1.72849 3.2214
3.42843 1.7235 3.22164
3.41953 1.7237 3.23471
3.41163 1.72591 3.24874
3.3997 1.72606 3.25783
3.39072 1.72411 3.26092
3.38384 1.72633 3.27594
3.36485 1.72238 3.27815
3.35192 1.72152 3.28726
3.34302 1.72372 3.30029
3.3321 1.72389 3.31138
3.31614 1.72098 3.31654
3.31521 1.72412 3.3265
3.3053 1.72531 3.33856
3.29741 1.72752 3.35259
3.27944 1.72359 3.35678
3.27457 1.72785 3.37376
3.25861 1.72595 3.37991
3.25072 1.72816 3.39394
3.23567 1.72209 3.38814
3.2298 1.72634 3.40512
3.22393 1.7296 3.42212
3.20393 1.72461 3.42235
3.18999 1.72374 3.43046
3.18916 1.73007 3.45238
3.17623 1.72921 3.46149
3.16522 1.7272 3.4606
3.15834 1.72944 3.47663
3.15247 1.7337 3.49361
3.13348 1.72973 3.49481
3.11448 1.72476 3.49603
3.10761 1.72901 3.51302
3.10275 1.73328 3.53099
3.09578 1.73335 3.53505
3.07174 1.72529 3.53035
3.06688 1.73056 3.54831
3.05899 1.73278 3.56234
3.03798 1.72778 3.56157
3.02908 1.72999 3.5756
3.01917 1.73117 3.58766
3.02028 1.73638 3.60158
3.01037 1.73757 3.61364
2.98936 1.73155 3.61189
2.97136 1.72858 3.61307
2.96349 1.73182 3.62908
2.9556 1.73505 3.64409
2.94267 1.73519 3.65319
2.93367 1.7322 3.6533
2.92276 1.73439 3.66535
2.9169 1.73866 3.68334
2.89385 1.73158 3.67761
2.88698 1.73584 3.69461
2.87 1.7329 3.69778
2.86212 1.73614 3.71379
2.85818 1.73826 3.72179
2.83614 1.7312 3.71706
2.81815 1.72823 3.71824
2.81836 1.73663 3.74512
2.79431 1.72956 3.7394
2.78541 1.73176 3.75244
2.76853 1.73401 3.76853
2.75458 1.73312 3.77565
2.74164 1.73325 3.78375
2.7277 1.73236 3.79087
2.71072 1.72942 3.79404
2.71195 1.73986 3.82388
2.6899 1.73379 3.81814
2.67595 1.7329 3.82526
2.68011 1.7402 3.84512
2.66212 1.73824 3.84728
2.64412 1.73425 3.84748
2.63118 1.73438 3.85558
2.61319 1.73041 3.85677
2.60632 1.73567 3.87375
2.59642 1.73787 3.88679
2.58844 1.73692 3.88987
2.57347 1.73599 3.89399
2.55851 1.73407 3.89913
2.54861 1.73729 3.91316
2.53669 1.73844 3.92324
2.50677 1.73663 3.93449
2.49777 1.73462 3.93359
2.47088 1.73486 3.94879
2.46099 1.73707 3.96283
2.43613 1.73937 3.98199
2.41508 1.7333 3.97624
2.41723 1.74058 3.99512
2.39821 1.73555 3.99233
2.38629 1.73772 4.00339
2.3764 1.74094 4.01742
2.35434 1.73385 4.01069
2.34141 1.73499 4.01977
2.33252 1.73822 4.03479
2.32452 1.73723 4.03487
2.31363 1.74044 4.04891
2.29968 1.73954 4.05502
2.28166 1.73652 4.05321
2.27178 1.73977 4.06923
2.25377 1.73677 4.06841
2.23881 1.73585 4.07354
2.22498 1.74119 4.09557
2.20292 1.73408 4.08784
2.19506 1.73936 4.10582
2.16716 1.73958 4.12003
2.14508 1.73245 4.1103
2.14521 1.73869 4.12621
2.12822 1.73673 4.12837
2.11528 1.73786 4.13645
2.1054 1.74109 4.15148
2.09145 1.7412 4.15858
2.07648 1.74027 4.16271
2.0615 1.73933 4.16584
2.05454 1.74041 4.17087
2.02156 1.73548 4.1742
2.00862 1.7366 4.18228
1.99568 1.73773 4.19036
1.98379 1.74093 4.2034
1.96678 1.73793 4.20258
1.96081 1.73901 4.20761
1.93291 1.73922 4.22082
1.9149 1.7362 4.219
1.90298 1.73838 4.23005
1.87711 1.74065 4.24722
1.86912 1.73967 4.24829
1.85212 1.73768 4.24845
1.83816 1.73778 4.25456
1.82626 1.74098 4.2676
1.80822 1.73692 4.26279
1.79325 1.73599 4.26692
1.77028 1.73507 4.27111
1.75838 1.73727 4.28417
1.74238 1.73528 4.28432
1.7264 1.73432 4.28645
1.71347 1.73648 4.29652
1.7036 1.74072 4.31253
1.68557 1.73769 4.30971
1.6786 1.73775 4.31377
1.64867 1.73789 4.32199
1.63165 1.73488 4.32016
1.62179 1.74015 4.33816
1.60578 1.73815 4.33731
1.58876 1.73513 4.33548
1.58386 1.73831 4.34748
1.56579 1.73421 4.33967
1.55289 1.73639 4.35174
1.53995 1.73852 4.35981
1.52192 1.73448 4.356
1.50899 1.73663 4.36607
1.48396 1.73259 4.36232
1.47207 1.73681 4.37634
1.45708 1.73585 4.37847
1.44008 1.73385 4.37763
1.42817 1.73703 4.38967
1.39824 1.7372 4.3999
1.37834 1.73939 4.41202
1.3603 1.73633 4.4072
1.34327 1.73229 4.40339
1.33035 1.73546 4.41444
1.31538 1.73553 4.41855
1.29834 1.73247 4.41372
1.29446 1.73769 4.42868
1.27846 1.7357 4.42883
1.2645 1.7368 4.43492
1.2325 1.73383 4.4352
1.21649 1.73181 4.43335
1.2036 1.73604 4.44839
1.19353 1.73191 4.43952
1.1806 1.73406 4.44859
1.16771 1.73827 4.46263
1.14653 1.72795 4.43994
1.13467 1.73322 4.45795
1.12279 1.73847 4.47396
1.10265 1.7302 4.45524
1.08869 1.73129 4.46033
1.08173 1.73238 4.46636
1.06468 1.7283 4.46055
1.05178 1.73249 4.47259
1.03785 1.73463 4.48166
1.02285 1.73366 4.48279
1.00788 1.73372 4.4859
0.992932 1.73583 4.49298
0.979745 1.72549 4.46923
0.966823 1.72864 4.47929
0.954978 1.73495 4.49928
0.935853 1.72772 4.48353
0.920876 1.72778 4.48665
0.907985 1.732 4.50068
0.891961 1.72996 4.49783
0.88393 1.72791 4.49392
0.870008 1.73107 4.50398
0.853984 1.72904 4.50113
0.837961 1.727 4.49828
0.823023 1.72913 4.50637
0.809085 1.73126 4.51444
0.791984 1.72508 4.50166
0.7861 1.73031 4.51663
0.770085 1.72929 4.51476
0.754014 1.72417 4.50596
0.742193 1.73252 4.52893
0.725154 1.72946 4.5241
0.708068 1.72431 4.5133
0.69517 1.72951 4.52633
0.684038 1.72226 4.50951
0.669053 1.7223 4.51163
0.656154 1.72651 4.52466
0.642239 1.72968 4.53572
0.624138 1.7245 4.52293
0.610169 1.72457 4.52704
0.595239 1.72771 4.53611
0.586161 1.72357 4.52624
0.572216 1.72569 4.53331
0.555115 1.71951 4.52053
0.540123 1.71953 4.52164
0.526271 1.72682 4.54064
0.509146 1.7196 4.52487
0.495263 1.72483 4.5399
0.479185 1.72069 4.53008
0.472224 1.72277 4.53511
0.456185 1.71971 4.53027
0.442271 1.72388 4.54132
0.426194 1.71975 4.5315
0.411248 1.72186 4.53858
0.39521 1.7198 4.53373
0.380233 1.71986 4.53684
0.372225 1.71985 4.5359
0.358303 1.723 4.54596
0.343389 1.72718 4.55701
0.327234 1.71889 4.53726
0.312304 1.72204 4.54632
0.29625 1.71895 4.53949
0.289312 1.72207 4.5475
0.273242 1.71795 4.53868
0.259367 1.7242 4.55469
0.242212 1.71591 4.53494
0.228352 1.72319 4.55294
0.213422 1.72633 4.56201
0.197329 1.72117 4.5502
0.19043 1.72636 4.56318
0.174275 1.71808 4.54342
0.159291 1.71912 4.54552
0.144299 1.71915 4.54663
0.128269 1.7181 4.54277
0.113346 1.72126 4.55283
0.0982923 1.71816 4.54599
0.0914092 1.72439 4.56096
0.0752622 1.71712 4.54218
0.0603555 1.72131 4.55423
0.0452398 1.7161 4.53942
0.0243237 1.71831 4.41753
0.0162926 1.71626 4.41362
0.00223842 1.71316 4.40677
-0.0127066 1.71628 4.41384
-0.0277061 1.71629 4.41395
-0.0427365 1.71524 4.41008
-0.0576658 1.71938 4.41913
-0.0718285 1.71108 4.39836
-0.0797975 1.71215 4.4024
-0.0947425 1.71526 4.40947
-0.10882 1.71112 4.39964
-0.123718 1.71633 4.41267
-0.137866 1.70906 4.39389
-0.153756 1.71528 4.40792
-0.167833 1.71114 4.39808
-0.17488 1.70905 4.39217
-0.190754 1.7163 4.40818
-0.204847 1.71114 4.39636
-0.219878 1.71009 4.39249
-0.234784 1.71528 4.40453
-0.248876 1.71111 4.39269
-0.263868 1.71113 4.39381
-0.27093 1.70802 4.3859
-0.285937 1.70802 4.38502
-0.300913 1.71007 4.3881
-0.31492 1.71007 4.3872
-0.329974 1.70798 4.38035
-0.344926 1.71107 4.38642
-0.359903 1.71213 4.38951
-0.366956 1.71003 4.3826
-0.381018 1.70692 4.37475
-0.397869 1.71522 4.39375
-0.411892 1.71418 4.39087
-0.425946 1.71209 4.38401
-0.44093 1.71313 4.38611
-0.454998 1.71101 4.37724
-0.461107 1.7048 4.36338
-0.47799 1.71204 4.3784
-0.491082 1.70787 4.36656
-0.507058 1.70993 4.36965
-0.522979 1.71409 4.37971
