-3.13015 1.71433 3.27145
-3.13123 1.71218 3.26149
-3.14726 1.71412 3.25658
-3.15834 1.71398 3.24666
-3.1704 1.71487 3.23874
-3.17652 1.71164 3.22283
-3.1866 1.71148 3.21191
-3.21065 1.7154 3.20503
-3.23066 1.7204 3.20411
-3.22884 1.71304 3.1802
-3.24785 1.71702 3.17828
-3.25992 1.7179 3.16936
-3.27298 1.71879 3.16144
-3.28009 1.71659 3.14753
-3.2881 1.71856 3.14556
-3.29125 1.71328 3.12666
-3.32431 1.72017 3.1178
-3.35655 1.71972 3.08605
-3.39994 1.71699 3.03441
-4.29762 1.69757 1.75328
-4.78737 1.70073 0.325728
-4.7886 1.70029 0.29574
-4.78572 1.69805 0.279749
-4.797 1.69951 0.242807
-4.78612 1.69426 0.226801
-4.79323 1.69705 0.211811
-4.80234 1.69885 0.197851
-4.79357 1.69438 0.166847
-4.79169 1.69314 0.150849
-4.78276 1.68902 0.142842
-4.80086 1.69582 0.128875
-4.80596 1.69662 0.1149
-4.81507 1.6994 0.0999254
-4.7992 1.69216 0.0839109
-4.81231 1.69694 0.0689368
-4.80542 1.69372 0.0539306
-4.80248 1.6916 0.0459387
-4.79461 1.68835 0.0299252
-4.78772 1.68513 0.014919
-4.79583 1.68791 -6.31835e-05
-4.79695 1.68769 -0.0150536
-4.78107 1.68044 -0.0310681
-4.79717 1.68625 -0.0450346
-4.79723 1.68613 -0.0530335
-4.80234 1.68791 -0.0680235
-4.79746 1.68468 -0.0830146
-4.79757 1.68446 -0.0980125
-4.79869 1.68424 -0.113003
-4.7878 1.68001 -0.128024
-4.79191 1.68079 -0.143007
-4.80696 1.6867 -0.149982
-4.80208 1.68446 -0.165988
-4.79931 1.68301 -0.195991
-4.80142 1.68279 -0.210974
-4.79954 1.68257 -0.225987
4.05546 1.74489 2.39274
4.05373 1.75241 2.42765
4.02874 1.74444 2.42895
4.02486 1.74668 2.44495
3.99878 1.73657 2.4363
3.98385 1.73371 2.44545
3.96502 1.73307 2.46861
3.95612 1.73327 2.48167
3.9462 1.73344 2.49275
3.9373 1.73362 2.50481
3.93335 1.73373 2.51184
3.92458 1.73819 2.54285
3.90763 1.7343 2.54903
3.90375 1.73653 2.56503
3.89887 1.73977 2.58102
3.88192 1.73588 2.58721
3.87804 1.73812 2.60321
3.87409 1.73922 2.61022
3.86217 1.73738 2.62034
3.85929 1.74062 2.63631
3.84435 1.73775 2.64447
3.84148 1.742 2.66143
3.83156 1.74117 2.67252
3.83365 1.74535 2.68444
3.80663 1.73634 2.68278
3.8108 1.74366 2.70464
3.79486 1.74079 2.71281
3.78293 1.73893 2.72193
3.77503 1.74013 2.73497
3.77921 1.74748 2.75883
3.76318 1.74244 2.75503
3.74924 1.73956 2.76318
3.74838 1.74485 2.78211
3.72539 1.73788 2.78338
3.72755 1.74419 2.80428
3.71361 1.74232 2.81241
3.69967 1.74044 2.82055
3.68968 1.73848 2.82265
3.70292 1.74993 2.85339
3.6769 1.74192 2.8517
3.65894 1.73801 2.85689
3.66715 1.7474 2.8837
3.64515 1.74142 2.88395
3.63725 1.74263 2.89799
3.64547 1.75304 2.92578
3.62742 1.74596 2.92002
3.62053 1.74817 2.93404
3.6086 1.74733 2.94415
3.59768 1.74649 2.95424
3.57467 1.74051 2.9545
3.5708 1.74376 2.97149
3.55585 1.74086 2.97764
3.564 1.74913 2.99646
3.55207 1.74829 3.00657
3.53913 1.74642 3.01469
3.52821 1.74659 3.02577
3.51527 1.74572 3.03389
3.50637 1.74692 3.04694
3.50351 1.75118 3.0649
3.49553 1.75024 3.06797
3.47958 1.74734 3.07414
3.47067 1.74752 3.0862
3.46378 1.75075 3.10121
3.4569 1.75297 3.11623
3.43186 1.74493 3.11254
3.42305 1.7493 3.13654
3.4022 1.74962 3.1577
3.39129 1.74979 3.16878
3.36743 1.74909 3.18797
3.36055 1.75232 3.20298
3.32669 1.74862 3.22229
3.31678 1.74981 3.23435
3.30889 1.75202 3.24838
3.29191 1.74809 3.25256
3.282 1.74926 3.26362
3.27906 1.75038 3.27163
3.26915 1.75157 3.28369
3.25219 1.74866 3.28886
3.22631 1.74691 3.30508
3.21942 1.75014 3.32009
3.2085 1.75029 3.33017
3.16473 1.74879 3.36153
3.10215 1.74965 3.41699
3.09425 1.75286 3.43101
3.07829 1.74994 3.43617
3.03956 1.75251 3.47243
2.8943 1.75006 3.57157
2.86751 1.75248 3.59874
2.84951 1.74851 3.59994
2.78976 1.74604 3.63343
2.78289 1.7503 3.65042
1.24595 1.74628 4.32815
1.17903 1.74349 4.3397
1.16508 1.74561 4.34677
1.13511 1.74367 4.35003
1.12219 1.74685 4.36108
1.08316 1.74182 4.35745
1.06922 1.74394 4.36552
1.05527 1.74504 4.37161
0.959429 1.74642 4.39332
0.943413 1.74441 4.39147
0.929459 1.7455 4.39756
0.913427 1.74246 4.39372
0.890396 1.73942 4.38994
0.863551 1.74573 4.41005
0.845458 1.73957 4.39828
0.829395 1.73546 4.39046
0.815481 1.73963 4.4015
0.800457 1.7366 4.39866
0.79348 1.73765 4.4017
0.777473 1.73665 4.40083
0.763535 1.73877 4.40891
0.747465 1.73465 4.40009
0.734612 1.74094 4.4191
0.718573 1.73788 4.41426
0.701457 1.73167 4.39948
0.695527 1.73481 4.40848
0.680526 1.73382 4.40861
0.664496 1.73177 4.40476
0.650526 1.73184 4.40886
0.636627 1.73704 4.42189
0.621588 1.73398 4.41705
0.60451 1.72885 4.40725
0.597503 1.72884 4.40631
0.583588 1.73201 4.41737
0.568604 1.73205 4.41948
0.554643 1.73413 4.42455
0.539674 1.7352 4.42865
0.524682 1.73523 4.42976
0.508627 1.73114 4.42294
0.503791 1.73945 4.44386
0.485581 1.72807 4.41716
0.471612 1.72914 4.42125
0.457737 1.73538 4.43727
0.427768 1.73546 4.44149
0.411652 1.72925 4.4267
0.403613 1.72719 4.42179
0.389675 1.72931 4.42987
0.374675 1.72933 4.42998
0.360807 1.73559 4.447
0.344714 1.73042 4.43519
0.330722 1.73045 4.4363
0.314629 1.72528 4.42449
0.292684 1.7274 4.43163
0.277677 1.7274 4.43074
0.2627 1.72745 4.43385
0.247732 1.72952 4.43794
0.233755 1.72958 4.44104
0.217716 1.72751 4.43619
0.210802 1.73268 4.44717
0.195717 1.72753 4.43636
0.180779 1.73066 4.44442
0.150749 1.72862 4.44068
0.135749 1.72863 4.44079
0.121851 1.73383 4.45382
0.113851 1.73384 4.45388
0.0988281 1.73281 4.45101
0.083789 1.72974 4.44617
0.0687744 1.72973 4.44428
0.0538445 1.73287 4.45335
0.0388298 1.73285 4.45146
-0.791975 1.72087 4.21587
-0.939251 1.71843 4.18001
-1.14866 1.71577 4.12662
-1.25989 1.71539 4.09646
-1.2739 1.71637 4.09455
-1.28891 1.71737 4.09365
-1.33002 1.71719 4.07996
-1.37518 1.7139 4.05834
-1.3902 1.71387 4.05546
-1.40323 1.71382 4.05155
-1.44124 1.71883 4.05077
-1.48137 1.71659 4.0331
-1.49343 1.71548 4.0252
-1.50649 1.71439 4.01832
-1.52441 1.72053 4.02736
-1.52556 1.71325 4.00848
-1.54547 1.72045 4.02052
-1.5585 1.72038 4.01562
-1.56765 1.71411 3.99678
-1.58362 1.71818 4.00084
-1.60158 1.72226 4.00592
-1.61658 1.72427 4.006
-1.62064 1.72114 3.99708
-1.63467 1.7221 3.99317
-1.64284 1.71579 3.97232
-1.66175 1.72197 3.98337
-1.67382 1.72084 3.97448
-1.68491 1.71767 3.96261
-1.70091 1.71967 3.9617
-1.71184 1.72483 3.9717
-1.71704 1.71545 3.94588
-1.73499 1.72055 3.95194
-1.75 1.72253 3.95002
-1.7601 1.71934 3.93714
-1.77217 1.71722 3.92827
-1.79013 1.72231 3.93333
-1.78928 1.71501 3.91342
-1.80527 1.71704 3.91452
-1.82619 1.72521 3.92555
-1.83039 1.71583 3.89972
-1.84934 1.72093 3.90579
-1.86533 1.72396 3.90686
-1.86756 1.71352 3.87703
-1.87261 1.71143 3.8711
-1.89746 1.72273 3.89012
-1.90362 1.71643 3.86926
-1.91962 1.71842 3.86835
-1.93661 1.72246 3.87042
-1.94374 1.7162 3.85256
-1.95974 1.71923 3.85364
-1.96775 1.72021 3.85168
-1.97685 1.71702 3.8388
-1.99481 1.72209 3.84286
-2.00984 1.72306 3.83996
-2.02288 1.72298 3.83406
-2.03593 1.72288 3.82715
-2.04897 1.72382 3.82224
-2.05107 1.71863 3.80933
-2.06412 1.71855 3.80343
-2.07421 1.71638 3.79153
-2.09317 1.72147 3.7966
-2.1072 1.7224 3.79169
-2.11237 1.71508 3.76984
-2.12739 1.71806 3.76791
-2.13538 1.71907 3.76795
-2.14252 1.71381 3.75008
-2.16148 1.7189 3.75515
-2.17255 1.71777 3.74625
-2.18165 1.71458 3.73336
-2.19176 1.71239 3.71947
-2.20677 1.71437 3.71755
-2.20787 1.70917 3.70464
-2.22388 1.71217 3.70371
-2.23495 1.71103 3.69381
-2.24898 1.71198 3.6899
-2.27014 1.70869 3.66911
-2.28417 1.71064 3.66518
-2.29119 1.7106 3.66224
-2.31433 1.70835 3.64444
-2.3414 1.71122 3.6346
-2.35346 1.71111 3.62669
-2.36553 1.70999 3.6178
-2.38065 1.70776 3.60194
-2.39962 1.71283 3.60601
-2.40675 1.70757 3.58814
-2.43087 1.70737 3.57332
-2.44293 1.70726 3.56542
-2.45192 1.71028 3.56644
-2.462 1.70812 3.55555
-2.48908 1.70998 3.54472
-2.52724 1.7117 3.52398
-2.54927 1.71464 3.5191
-2.56747 1.70927 3.49331
-2.57855 1.70913 3.4834
-2.58565 1.70593 3.4695
-2.59969 1.70686 3.46459
-2.61165 1.71094 3.46962
-2.61877 1.70771 3.45372
-2.6338 1.70966 3.4498
-2.64883 1.71162 3.44589
-2.6589 1.71047 3.43598
-2.67196 1.71138 3.42906
-2.68599 1.71332 3.42414
-2.68509 1.70812 3.41121
-2.69814 1.70903 3.40429
-2.71021 1.70891 3.39538
-2.72128 1.70878 3.38647
-2.73729 1.71176 3.38454
-2.74737 1.71062 3.37463
-2.7624 1.71256 3.36972
-2.76745 1.71247 3.36376
-2.77653 1.71032 3.35285
-2.78959 1.71121 3.34494
-2.80264 1.71213 3.33902
-2.81172 1.71097 3.32811
-2.82478 1.71186 3.32019
-2.83782 1.71278 3.31427
-2.85087 1.71369 3.30736
-2.86086 1.71671 3.30839
-2.86401 1.71143 3.28949
-2.88004 1.71438 3.28557
-2.89705 1.71737 3.28365
-2.90317 1.71413 3.26774
-2.91721 1.71607 3.26282
-2.93125 1.71699 3.25691
-2.93927 1.71897 3.25494
-2.94538 1.71575 3.24003
-2.96339 1.71975 3.23911
-2.9695 1.71653 3.2242
-2.97761 1.71433 3.21029
-2.9966 1.71936 3.21136
-3.00074 1.7151 3.19345
-3.00577 1.71502 3.18849
-3.02874 1.7221 3.19256
-3.02594 1.71271 3.16667
-3.03997 1.71565 3.16173
-3.056 1.7186 3.15781
-3.06708 1.71846 3.1479
-3.07319 1.71524 3.13299
-3.08716 1.72031 3.13702
-3.0903 1.71505 3.11912
-3.10136 1.71492 3.1102
-3.12351 1.71566 3.09135
-3.13557 1.71655 3.08343
-3.15762 1.72045 3.07554
-3.21612 1.71651 3.01003
-4.64799 1.70043 0.243671
-4.65859 1.70025 0.163743
-4.64471 1.69401 0.147728
-4.65382 1.69681 0.133754
-4.66092 1.6986 0.119779
-4.65803 1.69738 0.104773
-4.6622 1.69806 0.0827913
-4.65831 1.69483 0.0678077
-4.66242 1.69663 0.0538101
-4.66153 1.6954 0.0388195
-4.65565 1.69218 0.0238208
-4.65476 1.69096 0.00883018
-4.65387 1.69073 -0.00617529
-4.65698 1.69053 -0.0201508
-4.65504 1.69041 -0.0281647
-4.66314 1.69321 -0.042147
-4.66026 1.69098 -0.0571379
-4.66536 1.69278 -0.071128
-4.66747 1.69256 -0.0861109
-4.66259 1.69033 -0.101117
-4.6537 1.6861 -0.116123
-4.65775 1.688 -0.123122
-4.66086 1.6888 -0.137112
-4.65497 1.68557 -0.152111
-4.66009 1.68735 -0.167101
-4.66719 1.69015 -0.18109
-4.6623 1.68793 -0.196096
-4.66841 1.68972 -0.210079
-4.66447 1.6876 -0.218078
-4.66658 1.68838 -0.233076
-4.66169 1.68617 -0.247082
-4.6648 1.68695 -0.262072
4.13207 1.73217 1.94229
3.98091 1.7329 2.18745
3.91759 1.73229 2.27895
3.90969 1.73247 2.29101
3.8721 1.73331 2.34629
3.86922 1.73554 2.36128
3.85227 1.73266 2.36845
3.84141 1.73294 2.38753
3.8266 1.73433 2.41262
3.8187 1.73552 2.42567
3.80777 1.73368 2.43578
3.79987 1.73488 2.44882
3.80403 1.74117 2.4687
3.78901 1.73615 2.46689
3.77809 1.73532 2.47798
3.78225 1.74163 2.49886
3.76228 1.7367 2.50309
3.75337 1.73689 2.51515
3.7525 1.74114 2.5321
3.73856 1.73827 2.54025
3.73762 1.74039 2.54822
3.73274 1.74261 2.56323
3.7198 1.74076 2.57235
3.70989 1.74093 2.58343
3.70298 1.74212 2.59646
3.69308 1.74231 2.60854
3.67812 1.73941 2.61469
3.67323 1.74163 2.6297
3.66928 1.74173 2.63573
3.66741 1.74598 2.65268
3.6575 1.74616 2.66476
3.65664 1.75043 2.6827
3.63464 1.74346 2.68397
3.63379 1.74874 2.7029
3.60978 1.74075 2.7022
3.61388 1.74594 2.7151
3.60396 1.74611 2.72617
3.588 1.74219 2.73135
3.58211 1.74442 2.74636
3.57134 1.74987 2.77637
3.55337 1.74494 2.78058
3.55041 1.74603 2.78658
3.53647 1.74416 2.79472
3.52455 1.74332 2.80482
3.52772 1.75064 2.82669
3.50773 1.74569 2.82892
3.50486 1.74894 2.84589
3.4889 1.74603 2.85106
3.48092 1.74408 2.85414
3.47805 1.74833 2.87111
3.46713 1.7485 2.88219
3.45519 1.74663 2.89031
3.44326 1.74677 2.89939
3.42443 1.74713 2.92253
3.42049 1.74823 2.92955
3.40955 1.74737 2.93864
3.40165 1.74957 2.95167
3.39174 1.74974 2.96275
3.38283 1.75093 2.9748
3.36385 1.74598 2.97802
3.34106 1.74841 3.00615
3.33215 1.7486 3.01822
3.32627 1.75184 3.03422
3.31635 1.752 3.04429
3.29551 1.75232 3.06545
3.28349 1.7493 3.06358
3.25576 1.75184 3.09876
3.215 1.75034 3.13109
3.18223 1.75081 3.16134
3.16239 1.75214 3.18247
3.14945 1.75128 3.19158
3.13054 1.75047 3.20374
3.09877 1.75194 3.23396
3.01615 1.74675 3.28567
2.99935 1.75015 3.31175
1.48633 1.74794 4.11229
1.37355 1.74545 4.14218
1.28277 1.74694 4.17184
1.25483 1.74707 4.17905
1.05516 1.74587 4.22458
0.975268 1.74413 4.23921
-1.21366 1.71485 3.9941
-1.2306 1.71996 4.00115
-1.31487 1.71551 3.96685
-1.33182 1.72061 3.9729
-1.35694 1.71739 3.95714
-1.376 1.71629 3.9493
-1.40208 1.71514 3.93851
-1.41611 1.71611 3.9356
-1.42817 1.714 3.92772
-1.44218 1.71498 3.92581
-1.4492 1.71494 3.92287
-1.46223 1.71489 3.91896
-1.47822 1.71793 3.92104
-1.49028 1.71682 3.91315
-1.50526 1.71986 3.91521
-1.52223 1.72292 3.9183
-1.53135 1.7187 3.90343
-1.53934 1.71972 3.90447
-1.55042 1.71758 3.89459
-1.56541 1.71959 3.89467
-1.58042 1.72159 3.89375
-1.59249 1.71947 3.88487
-1.61042 1.72561 3.89392
-1.61955 1.72037 3.87706
-1.62755 1.72237 3.87709
-1.64255 1.72438 3.87718
-1.65264 1.72121 3.8653
-1.66666 1.72218 3.86239
-1.68558 1.72934 3.87243
-1.69372 1.72308 3.85458
-1.70675 1.72302 3.84968
-1.71671 1.72711 3.85569
-1.72977 1.726 3.8478
-1.74083 1.72489 3.8399
-1.75289 1.72378 3.83201
-1.77184 1.72888 3.83808
-1.78095 1.72468 3.82421
-1.79496 1.72666 3.82228
-1.80001 1.72458 3.81635
-1.80815 1.71932 3.79849
-1.82412 1.72337 3.80155
-1.83914 1.72434 3.79865
-1.84726 1.72011 3.78277
-1.86226 1.72212 3.78285
-1.87728 1.72409 3.77994
-1.8774 1.71787 3.76503
-1.89635 1.72397 3.77108
-1.90939 1.7239 3.76618
-1.91948 1.72073 3.7543
-1.93645 1.7258 3.75835
-1.94851 1.7247 3.75046
-1.95565 1.71943 3.73259
-1.96857 1.72559 3.7426
-1.97768 1.72138 3.72772
-1.9917 1.72334 3.7248
-2.00572 1.72431 3.72189
-2.01581 1.72215 3.711
-2.02491 1.71897 3.69811
-2.04288 1.72302 3.70119
-2.04793 1.72194 3.69524
-2.05702 1.71977 3.68334
-2.07204 1.72073 3.68044
-2.08409 1.72064 3.67353
-2.09023 1.71538 3.65565
-2.10721 1.71942 3.65772
-2.11631 1.71623 3.64483
-2.12135 1.71516 3.63989
-2.13636 1.71714 3.63797
-2.14942 1.71705 3.63107
-2.15555 1.7128 3.61418
-2.16662 1.71066 3.60429
-2.17966 1.7116 3.59937
-2.18875 1.70843 3.58749
-2.20574 1.71246 3.58856
-2.21868 1.71858 3.59656
-2.22087 1.70921 3.57172
-2.23588 1.7122 3.56978
-2.24695 1.71107 3.56088
-2.27007 1.70985 3.54507
-2.27807 1.71186 3.5451
-2.28914 1.71073 3.5362
-2.30218 1.71165 3.53029
-2.31424 1.71156 3.52338
-2.32333 1.70839 3.51149
-2.33835 1.71135 3.50856
-2.34744 1.70818 3.49667
-2.35545 1.71017 3.4957
-2.36848 1.71111 3.49079
-2.38153 1.71103 3.48489
-2.39357 1.71195 3.47896
-2.40761 1.71388 3.47404
-2.41472 1.70967 3.45915
-2.42678 1.70956 3.45124
-2.42885 1.70643 3.44231
-2.44486 1.71042 3.44137
-2.45593 1.7093 3.43247
-2.47491 1.71434 3.43453
-2.48102 1.71012 3.41964
-2.4921 1.70998 3.40972
-2.50117 1.70784 3.39982
-2.52015 1.71289 3.40189
-2.52519 1.71281 3.39693
-2.53131 1.70858 3.38104
-2.54238 1.70746 3.37214
-2.55741 1.70941 3.36822
-2.56847 1.7093 3.3603
-2.57755 1.70814 3.34939
-2.59654 1.71319 3.35146
-2.60356 1.71415 3.34849
-2.60869 1.7089 3.33161
-2.61876 1.70876 3.32169
-2.63182 1.70866 3.31478
-2.63792 1.70546 3.30088
-2.65988 1.71255 3.30594
-2.66105 1.70523 3.28405
-2.66807 1.7062 3.28209
-2.68111 1.70812 3.27616
-2.69217 1.70801 3.26824
-2.70523 1.7079 3.26034
-2.72619 1.71499 3.26539
-2.72834 1.7087 3.2455
-2.7404 1.70959 3.23758
-2.74741 1.71056 3.23562
-2.75155 1.7053 3.21772
-2.7646 1.70722 3.21179
-2.78656 1.71329 3.21587
-2.78475 1.70494 3.19197
-2.80571 1.71201 3.19603
-2.81084 1.70778 3.18013
-2.82282 1.71182 3.18216
-2.82992 1.70963 3.16924
-2.84098 1.70951 3.16033
-2.85205 1.70938 3.15141
-2.86014 1.70721 3.1395
-2.87715 1.71119 3.13757
-2.88822 1.71107 3.12865
-2.88731 1.7069 3.11771
-2.90531 1.7119 3.11677
-2.90943 1.70767 3.10086
-2.92447 1.7096 3.09594
-2.93256 1.70843 3.08402
-2.9575 1.71755 3.09108
-2.96064 1.71229 3.07317
-2.96964 1.7143 3.07321
-2.98269 1.7162 3.06628
-2.98087 1.70786 3.04339
-2.99194 1.70772 3.03347
-3.01192 1.71376 3.03553
-3.02002 1.71258 3.02261
-3.03208 1.71347 3.01469
-3.04207 1.71649 3.01572
-3.04719 1.71327 3.0008
-3.06024 1.71418 2.99389
-3.07428 1.7171 2.98795
-3.07742 1.71183 2.97005
-3.09344 1.7158 2.96711
-3.09855 1.71258 2.95219
-3.10963 1.71244 2.94228
-3.1216 1.7165 2.94531
-3.13862 1.72046 2.94238
-3.14076 1.7162 2.92445
-3.1568 1.71914 2.91953
-3.16786 1.71903 2.91161
-3.17297 1.71581 2.8967
-3.18305 1.71565 2.88577
-3.19007 1.71763 2.8838
-3.1942 1.71338 2.86689
-3.21121 1.71836 2.86494
-3.22029 1.7172 2.85403
-4.54256 1.70123 0.166855
-4.55015 1.70008 0.0889181
-4.55125 1.69987 0.0749275
-4.54747 1.69644 0.0459458
-4.55658 1.69924 0.0319711
-4.55169 1.69701 0.0169651
-4.55974 1.69992 0.00998185
-4.55385 1.6967 -0.00401694
-4.55296 1.69548 -0.0190076
-4.55707 1.69728 -0.0330052
-4.56517 1.70008 -0.0469875
-4.54729 1.69184 -0.0620024
-4.55339 1.69464 -0.0759997
-4.5525 1.69343 -0.0899905
-4.55455 1.69433 -0.0969893
-4.54967 1.6911 -0.11198
-4.56177 1.6959 -0.125962
-4.55887 1.69369 -0.139953
-4.56499 1.69648 -0.15495
-4.55909 1.69326 -0.168949
-4.5602 1.69306 -0.18294
-4.55426 1.69094 -0.190954
-4.56436 1.69474 -0.204936
-4.56947 1.69653 -0.218926
-4.55358 1.68931 -0.232941
-4.56879 1.69489 -0.261913
4.58831 1.72972 0.377672
3.88002 1.74916 2.20097
3.86508 1.74629 2.20913
3.84315 1.74045 2.21938
3.79744 1.73407 2.25883
3.79054 1.73526 2.27186
3.78364 1.73646 2.2849
3.76875 1.73469 2.30004
3.75883 1.73486 2.31111
3.74892 1.73403 2.3222
3.73798 1.73218 2.33131
3.7341 1.7354 2.3463
3.72619 1.73558 2.35835
3.71325 1.73271 2.3665
3.71936 1.73891 2.38036
3.71044 1.73908 2.39143
3.68845 1.73213 2.39369
3.69562 1.73945 2.41553
3.68169 1.73759 2.42467
3.67076 1.73673 2.43376
3.67492 1.74306 2.45564
3.66694 1.74109 2.45773
3.653 1.73922 2.46587
3.64609 1.7404 2.4779
3.63919 1.7406 2.49095
3.62826 1.74076 2.50103
3.61935 1.74093 2.5121
3.61949 1.74521 2.53104
3.60647 1.74119 2.5292
3.6036 1.74443 2.54517
3.5957 1.74462 2.55823
3.58074 1.74172 2.56439
3.57786 1.74496 2.58036
3.57097 1.74718 2.59438
3.56507 1.74837 2.60741
3.55809 1.74742 2.61048
3.53609 1.74045 2.61175
3.53322 1.74471 2.62871
3.53336 1.74897 2.64665
3.51841 1.74607 2.6528
3.50144 1.74316 2.65798
3.50058 1.74743 2.67592
3.49159 1.74546 2.67802
3.47966 1.74361 2.68714
3.47679 1.74786 2.7041
3.46384 1.74597 2.71123
3.45393 1.74614 2.7223
3.44199 1.74427 2.73042
3.42804 1.74238 2.73755
3.43315 1.74759 2.75144
3.4192 1.7457 2.75857
3.41331 1.74791 2.77259
3.39432 1.74296 2.7748
3.39044 1.7462 2.79079
3.37045 1.74123 2.79201
3.37765 1.7506 2.81782
3.37068 1.74967 2.82189
3.36277 1.75085 2.83393
3.3478 1.74794 2.83909
3.34293 1.75118 2.85508
3.333 1.75133 2.86515
3.32309 1.7515 2.87623
3.31115 1.75064 2.88533
3.29526 1.74986 2.89946
3.28029 1.74695 2.90462
3.2665 1.75136 2.93166
3.23968 1.75073 2.95588
3.22473 1.74883 2.96202
3.21883 1.75104 2.97603
3.19682 1.74503 2.97429
3.15116 1.74575 3.02063
3.09861 1.74966 3.07997
3.03303 1.75053 3.13646
1.12017 1.74488 4.09309
-1.52316 1.71211 3.79645
-1.72175 1.71109 3.71895
-1.73576 1.71307 3.71702
-1.74781 1.71299 3.71111
-1.77583 1.71595 3.70728
-1.79799 1.71167 3.68751
-1.80893 1.71678 3.69452
-1.81901 1.71462 3.68362
-1.83401 1.71664 3.68371
-1.84999 1.72068 3.68577
-1.865 1.72267 3.68485
-1.87311 1.71847 3.67097
-1.8891 1.7215 3.67205
-1.88725 1.7142 3.65214
-1.90817 1.72136 3.66219
-1.92218 1.72436 3.66125
-1.93129 1.72016 3.64738
-1.95219 1.72835 3.65942
-1.96129 1.72516 3.64653
-1.96744 1.71889 3.62767
-1.98441 1.72394 3.63072
-1.99043 1.7239 3.62777
-1.99559 1.7166 3.60691
-2.00667 1.71446 3.59703
-2.01674 1.71333 3.58812
-2.02978 1.71327 3.58322
-2.04085 1.71213 3.57332
-2.04787 1.7131 3.57135
-2.06582 1.71819 3.57641
-2.07985 1.72016 3.57349
-2.08401 1.71285 3.55263
-2.10416 1.70857 3.53284
-2.1252 1.71151 3.52795
-2.13626 1.71038 3.51905
-2.14634 1.70824 3.50916
-2.36433 1.70645 3.37881
-2.54016 1.70893 3.26908
-2.89736 1.70185 2.97884
-2.90942 1.70274 2.97092
-2.91948 1.70262 2.96199
-2.9426 1.7044 2.94614
-2.95061 1.70639 2.94517
-2.95771 1.7042 2.93225
-2.96877 1.70409 2.92434
-2.97487 1.70189 2.91041
-3.00196 1.70573 2.89856
-3.01203 1.7056 2.88963
-3.01707 1.70553 2.88467
-3.03309 1.7095 2.88173
-3.03324 1.7032 2.86183
-3.04628 1.70512 2.8559
-3.06131 1.70808 2.85196
-3.07039 1.70692 2.84105
-3.08245 1.70882 2.83411
-3.0865 1.70772 2.82716
-3.10053 1.70966 2.82223
-3.11557 1.7126 2.8173
-3.12464 1.71245 2.80737
-3.13571 1.71333 2.79844
-3.14083 1.71011 2.78352
-3.15883 1.71611 2.78257
-3.16585 1.71607 2.77962
-3.17096 1.71387 2.76569
-3.18302 1.71576 2.75775
-3.19309 1.71562 2.74783
-3.20416 1.71549 2.73892
-3.20828 1.71227 2.72399
-3.21338 1.71007 2.71006
-3.22338 1.71307 2.71009
-3.23445 1.71395 2.70116
-3.24948 1.71689 2.69623
-3.25658 1.7147 2.68331
-3.27375 1.71439 2.66145
-3.2958 1.71828 2.65355
-3.30091 1.71608 2.63962
-3.33212 1.71769 2.61183
-3.34119 1.71755 2.6019
-3.41987 1.71727 2.51248
-3.45015 1.71673 2.47471
-3.47945 1.71517 2.43595
-3.55414 1.71587 2.34449
-4.44169 1.6969 0.149156
-4.45305 1.6992 0.101201
-4.45626 1.69879 0.0732277
-4.44238 1.69256 0.0582133
-4.46547 1.70139 0.0462547
-4.45958 1.69817 0.0312561
-4.44464 1.69204 0.0232331
-4.46673 1.69988 0.0112819
-4.45585 1.69565 -0.00373958
-4.43696 1.68641 -0.0187472
-4.46505 1.69824 -0.0317124
-4.47016 1.69904 -0.0456877
-4.44728 1.6888 -0.0607106
-4.46732 1.69772 -0.0666926
-4.45743 1.69251 -0.0806918
-4.45254 1.69028 -0.0956978
-4.46564 1.6951 -0.108672
-4.46274 1.69389 -0.122678
-4.47584 1.69869 -0.136652
-4.46795 1.69448 -0.150651
-4.477 1.69838 -0.157642
-4.46811 1.69417 -0.171648
-4.47421 1.69697 -0.185646
-4.47232 1.69576 -0.199644
-4.47243 1.69555 -0.213642
-4.47453 1.69634 -0.22764
-4.46964 1.69313 -0.241631
-4.48074 1.69793 -0.255621
-4.4718 1.69382 -0.262628
3.63583 1.73194 2.31108
3.59721 1.73171 2.36138
3.58339 1.73407 2.38546
3.57059 1.73647 2.41152
3.5508 1.73791 2.44065
3.52003 1.73538 2.47093
3.51312 1.73656 2.48296
3.50521 1.73774 2.49501
3.49529 1.7369 2.50509
3.4863 1.73494 2.50719
3.47738 1.7351 2.51826
3.48355 1.74243 2.54011
3.46961 1.74055 2.54824
3.45466 1.73765 2.5544
3.44372 1.73678 2.56249
3.43682 1.73798 2.57553
3.42783 1.73601 2.57763
3.42495 1.73924 2.5926
3.41402 1.73839 2.6027
3.39704 1.73345 2.6059
3.38511 1.73259 2.615
3.38021 1.7348 2.62901
3.37432 1.73802 2.64301
3.3754 1.74116 2.65295
3.35641 1.73521 2.65519
3.34346 1.73332 2.66231
3.34764 1.74166 2.68516
3.33369 1.73876 2.69131
3.32578 1.73994 2.70335
3.3088 1.735 2.70656
3.30787 1.73813 2.71552
3.306 1.7424 2.73347
3.29406 1.74151 2.74057
3.28312 1.74065 2.74967
3.26514 1.73571 2.75288
3.25824 1.73791 2.7659
3.25134 1.74009 2.77792
3.25343 1.74327 2.78986
3.23142 1.73627 2.78913
3.2235 1.73744 2.80017
3.21055 1.73655 2.80729
3.2107 1.74183 2.82621
3.19776 1.74096 2.83432
3.18682 1.74008 2.84242
3.1869 1.74325 2.85337
3.17396 1.74136 2.8605
3.15798 1.73742 2.86368
3.14604 1.73756 2.87277
3.13612 1.73771 2.88284
3.1282 1.73788 2.8939
3.11727 1.73802 2.90298
3.10928 1.73604 2.90407
3.10742 1.74233 2.92299
3.10153 1.74454 2.93701
3.08354 1.73958 2.93922
3.07463 1.74075 2.95027
3.07075 1.74499 2.96624
3.04671 1.73593 2.96155
3.04779 1.7401 2.97248
3.03989 1.74228 2.98451
3.02694 1.74039 2.99164
3.01802 1.74156 3.00269
3.01011 1.74375 3.01472
2.99414 1.73982 3.0189
2.99127 1.74507 3.03584
2.9853 1.74413 3.0399
2.97235 1.74323 3.04601
2.96545 1.74544 3.06004
2.95755 1.74763 3.07206
2.94661 1.74777 3.08115
2.93063 1.74482 3.08431
2.91869 1.74395 3.09241
2.91272 1.743 3.09547
2.90582 1.74521 3.1095
2.90095 1.74945 3.12547
2.76663 1.7459 3.21755
2.76571 1.74905 3.22751
2.74486 1.75034 3.24665
2.71894 1.74754 3.25889
2.70599 1.74664 3.265
2.69809 1.74884 3.27803
2.67917 1.74801 3.28919
2.60943 1.74358 3.32478
2.59547 1.74167 3.32992
2.59463 1.74898 3.35082
2.56772 1.74718 3.36305
2.53887 1.74749 3.38326
2.53097 1.74968 3.39529
2.51599 1.74773 3.39843
2.5 1.74477 3.4006
2.48218 1.74913 3.42367
2.45232 1.74943 3.4429
2.25919 1.74926 3.55837
2.23823 1.74736 3.56456
2.2273 1.7485 3.57362
2.20421 1.73936 3.56293
2.17749 1.74791 3.59901
2.16656 1.74907 3.60908
2.15553 1.74602 3.6052
2.13265 1.74727 3.62136
2.11969 1.74635 3.62647
2.10875 1.74748 3.63454
2.09377 1.74552 3.63668
2.04993 1.74588 3.65901
2.02503 1.74609 3.6722
2.01309 1.74722 3.68027
2.00216 1.74836 3.68934
1.99022 1.74847 3.69643
1.91945 1.74798 3.72797
1.9065 1.74808 3.73407
1.89544 1.74398 3.72721
1.88451 1.74512 3.73628
1.77487 1.7449 3.78411
1.74996 1.7461 3.79628
1.73801 1.74721 3.80336
1.59341 1.74608 3.85647
1.54652 1.74534 3.87184
1.50764 1.7466 3.88812
1.4737 1.74475 3.8964
1.45666 1.73967 3.8906
1.44676 1.74387 3.90362
1.41879 1.74297 3.90884
1.39492 1.74622 3.92498
1.37496 1.74632 3.93113
1.35995 1.74432 3.93027
1.34599 1.7444 3.93537
1.33199 1.74241 3.93551
1.30011 1.74467 3.95172
1.28613 1.74471 3.95382
1.25814 1.74176 3.95608
1.24623 1.74494 3.96712
-1.30822 1.71984 3.78671
-1.32418 1.72392 3.79177
-1.74151 1.71559 3.61702
-1.76168 1.71028 3.59524
-1.76966 1.71233 3.59827
-1.78072 1.71121 3.58937
-1.79473 1.7132 3.58845
-1.81071 1.71724 3.59051
-1.81784 1.712 3.57364
-1.84784 1.71702 3.57379
-1.86186 1.71898 3.57087
-1.85999 1.71173 3.55396
-1.87697 1.71577 3.55603
-1.88311 1.70951 3.53816
-1.8981 1.71254 3.53923
-1.91902 1.7207 3.54927
-1.92219 1.71237 3.52741
-1.93424 1.71229 3.5215
-1.95013 1.72151 3.53549
-1.95429 1.71421 3.51463
-1.96436 1.71208 3.50573
-1.98823 1.72333 3.52175
-1.99436 1.71809 3.50487
-2.00345 1.71493 3.49398
-2.0155 1.71484 3.48707
-2.02152 1.7148 3.48412
-2.03751 1.71882 3.48518
-2.0466 1.71565 3.47329
-2.04976 1.70834 3.45242
-2.06182 1.70825 3.44551
-2.08175 1.71538 3.45356
-2.08887 1.71116 3.43867
-2.10179 1.71732 3.44868
-2.13081 1.72228 3.44483
-2.1478 1.72631 3.44589
-2.23223 1.72353 3.38956
-2.25445 1.71711 3.36082
-2.29454 1.72196 3.34905
-2.29672 1.71363 3.32619
-2.31864 1.72279 3.33622
-2.32674 1.71959 3.32232
-2.32387 1.71235 3.30641
-2.37008 1.71297 3.27874
-2.39319 1.71276 3.26392
-2.43553 1.70713 3.21931
-2.45963 1.70795 3.20648
-2.49585 1.70654 3.17677
-2.56823 1.70583 3.12632
-2.62228 1.71777 3.11955
-2.63828 1.72176 3.11861
-2.69862 1.72214 3.07405
-2.73807 1.7123 3.01549
-2.74913 1.71219 3.00757
-2.75515 1.71315 3.0046
-2.76324 1.71098 2.9927
-2.76637 1.70673 2.97578
-2.78536 1.71175 2.97685
-2.84188 1.70477 2.90837
-2.84798 1.70259 2.89544
-2.85805 1.70246 2.88652
-2.87209 1.7044 2.8816
-2.88512 1.70633 2.87667
-2.8852 1.70318 2.86671
-2.90534 1.70292 2.84787
-2.92532 1.70896 2.84993
-2.93142 1.70677 2.837
-2.93753 1.70457 2.82308
-2.94653 1.70658 2.82312
-2.95362 1.7054 2.81119
-2.95674 1.70117 2.79527
-2.97078 1.70309 2.78935
-2.99077 1.70912 2.79041
-2.99488 1.70592 2.77649
-3.00495 1.70578 2.76656
-3.00999 1.70571 2.7616
-3.02601 1.70967 2.75866
-3.02714 1.70442 2.74175
-3.04713 1.71145 2.74279
-3.0582 1.71132 2.73388
-3.06033 1.70708 2.71695
-3.07833 1.71207 2.71601
-3.07841 1.70893 2.70606
-3.09542 1.71391 2.70411
-3.10052 1.71072 2.6912
-3.10762 1.70953 2.67827
-3.12463 1.71451 2.67632
-3.12874 1.7103 2.66141
-3.14775 1.71629 2.66047
-3.15682 1.71615 2.65054
-3.19306 1.7177 2.61878
-3.19718 1.71449 2.60386
-3.20923 1.71639 2.59692
-3.2193 1.71726 2.58798
-3.21837 1.71312 2.57804
-3.25355 1.71779 2.55423
-3.26262 1.71764 2.5443
-3.43216 1.71573 2.34057
-3.55745 1.71329 2.17053
-4.34528 1.70165 0.203367
-4.34639 1.70144 0.189377
-4.35495 1.70034 0.114447
-4.35516 1.69992 0.0864511
-4.35826 1.69973 0.0734754
-4.36336 1.70153 0.0594853
-4.35147 1.69531 0.0454858
-4.35253 1.69521 0.0384943
-4.36362 1.70002 0.0255049
-4.36283 1.69861 -0.00248399
-4.37093 1.70142 -0.0154664
-4.37014 1.70001 -0.0434553
-4.36719 1.6979 -0.0504473
-4.3634 1.6955 -0.077444
-4.3715 1.6983 -0.0914264
-4.36861 1.69709 -0.105432
-4.3727 1.6979 -0.118415
-4.37686 1.69959 -0.139412
-4.36897 1.69538 -0.153411
-4.36207 1.69218 -0.166417
-4.36717 1.69398 -0.180407
-4.37328 1.69577 -0.19439
-4.37737 1.69758 -0.207388
-4.37048 1.69437 -0.221394
-4.37953 1.69827 -0.228384
-4.38164 1.69907 -0.242382
-4.37274 1.69486 -0.256389
-4.36684 1.69166 -0.269388
3.43846 1.73033 2.3966
3.42954 1.73048 2.40667
3.41975 1.7349 2.43468
3.40802 1.74143 2.46968
3.37205 1.73053 2.47511
3.36514 1.73171 2.48715
3.36039 1.73919 2.51908
3.34435 1.73313 2.51429
3.3314 1.73124 2.52141
3.32147 1.73038 2.5305
3.31457 1.73158 2.54354
3.28679 1.73204 2.57375
3.27492 1.7323 2.59083
3.26399 1.73245 2.59992
3.2542 1.73685 2.62693
3.21643 1.73434 2.65825
3.20478 1.74503 2.70419
3.15981 1.73314 2.70971
3.12699 1.73052 2.73399
3.11232 1.73916 2.77698
3.08433 1.73121 2.77931
3.02685 1.73626 2.84768
3.01087 1.73232 2.85086
2.99 1.73258 2.86801
2.97014 1.73288 2.88716
2.96021 1.73302 2.89624
2.94331 1.73223 2.90938
2.93338 1.73237 2.91845
2.91151 1.73163 2.93563
2.90157 1.73177 2.9447
2.89265 1.73293 2.95476
2.89475 1.73812 2.96766
2.87876 1.73416 2.96984
2.86682 1.73329 2.97795
2.87102 1.74265 3.00278
2.83804 1.73474 3.00715
2.82408 1.73282 3.01228
2.81911 1.73289 3.01632
2.81423 1.73713 3.03229
2.79539 1.73944 3.0524
2.77738 1.73343 3.05163
2.78463 1.7469 3.08338
2.75954 1.73576 3.07273
2.75054 1.73376 3.07283
2.7396 1.73391 3.08191
2.73068 1.73506 3.09196
2.7157 1.73212 3.09512
2.71891 1.74251 3.12195
2.69585 1.73341 3.11425
2.69502 1.74074 3.13615
2.68904 1.74079 3.1392
2.67507 1.73786 3.14335
2.66716 1.74104 3.15536
2.64409 1.73194 3.14767
2.63316 1.73208 3.15675
2.62323 1.73322 3.16581
2.35079 1.74247 3.37375
2.34189 1.74465 3.38579
2.32699 1.74687 3.39987
2.30492 1.73875 3.39116
2.29905 1.74401 3.40813
2.27515 1.74322 3.42132
2.25712 1.73717 3.41754
2.24112 1.73419 3.41771
2.23717 1.73629 3.42471
2.23029 1.74052 3.4397
2.20719 1.73036 3.42802
2.19827 1.73353 3.43904
2.1995 1.74496 3.46787
2.15644 1.73288 3.46137
2.14753 1.73507 3.47341
2.13052 1.73105 3.4716
1.79488 1.73795 3.65305
1.77988 1.73596 3.65319
1.76385 1.73192 3.65037
1.76806 1.74332 3.67717
1.74593 1.73309 3.66049
1.73805 1.73733 3.67649
1.72 1.73224 3.6697
1.70703 1.73131 3.67381
1.69814 1.73653 3.6888
1.68721 1.73768 3.69787
1.67017 1.73361 3.69306
1.66318 1.73264 3.69412
1.65633 1.73892 3.71309
1.64029 1.73487 3.70927
1.6314 1.73909 3.72327
1.61638 1.73607 3.72143
1.60035 1.73202 3.71761
1.59148 1.73726 3.7336
1.58244 1.7342 3.72871
1.57255 1.73841 3.74273
1.5565 1.73333 3.73692
1.54761 1.73856 3.75191
1.5326 1.73554 3.75007
1.5176 1.73256 3.75023
1.51978 1.74291 3.77406
1.49967 1.73472 3.76033
1.48466 1.73171 3.75949
1.47477 1.73593 3.77351
1.45975 1.73289 3.77066
1.44985 1.73709 3.78368
1.43482 1.73305 3.77985
1.428 1.7424 3.80377
1.41588 1.73418 3.78798
1.40293 1.73529 3.79506
1.39199 1.7364 3.80213
1.37597 1.73338 3.80029
1.36605 1.73655 3.81132
1.35207 1.73659 3.81343
1.33704 1.73255 3.8096
1.33004 1.73155 3.80967
1.31914 1.73575 3.82269
1.30514 1.73376 3.82282
1.29113 1.73176 3.82196
1.27816 1.73183 3.82605
1.2611 1.72674 3.81926
1.25017 1.72888 3.82831
1.2514 1.7413 3.85712
-1.31228 1.71675 3.64577
-1.32237 1.7136 3.63489
-1.33733 1.71767 3.63894
-1.34645 1.71245 3.62409
-1.36239 1.71858 3.63212
-1.36548 1.71341 3.62022
-1.39151 1.71537 3.61638
-1.40453 1.71633 3.61347
-1.42146 1.72246 3.6215
-1.43546 1.72447 3.62158
-1.44064 1.71513 3.59875
-1.44666 1.71509 3.5958
-1.46067 1.71709 3.59487
-1.47368 1.71808 3.59396
-1.48573 1.71799 3.58705
-1.49873 1.71898 3.58613
-1.5098 1.71787 3.57823
-1.52282 1.71784 3.57533
-1.52982 1.71883 3.57437
-1.53696 1.71358 3.5575
-1.55292 1.71765 3.56156
-1.56594 1.71863 3.55964
-1.57308 1.71237 3.54178
-1.59003 1.71747 3.54784
-1.60303 1.71947 3.54691
-1.61214 1.71527 3.53303
-1.61913 1.71729 3.53406
-1.63509 1.72237 3.5391
-1.6442 1.71717 3.52525
-1.65426 1.71606 3.51734
-1.67123 1.72113 3.52139
-1.68129 1.71902 3.5135
-1.68939 1.71482 3.49962
-1.70524 1.72611 3.51857
-1.70747 1.71369 3.48977
-1.7244 1.72082 3.49779
-1.73842 1.7218 3.49588
-1.74554 1.71656 3.48001
-1.75758 1.7165 3.4751
-1.76766 1.71434 3.46421
-2.04949 1.72689 3.35413
-2.05857 1.72373 3.34325
-2.0716 1.72568 3.33931
-2.08365 1.7256 3.33341
-2.0867 1.7235 3.32646
-2.10072 1.72547 3.32354
-2.10389 1.71816 3.30266
-2.11691 1.71911 3.29875
-2.125 1.71695 3.28784
-2.13607 1.71583 3.27894
-2.15303 1.7219 3.28298
-2.15708 1.71981 3.27704
-2.16715 1.71869 3.26813
-2.17721 1.71858 3.2602
-2.19222 1.72056 3.25829
-2.20426 1.72148 3.25236
-2.2234 1.71822 3.23455
-2.23139 1.72124 3.23557
-2.24244 1.72115 3.22865
-2.26554 1.72197 3.21581
-2.27363 1.7188 3.20392
-2.27876 1.71357 3.18803
-2.52689 1.7205 3.03778
-2.53893 1.72142 3.03186
-2.54306 1.71718 3.01595
-2.55807 1.72017 3.01402
-2.57308 1.72315 3.01209
-2.57127 1.71479 2.98819
-2.58323 1.71886 2.99222
-2.58537 1.71359 2.97431
-2.60138 1.71759 2.97338
-2.60848 1.7144 2.96047
-2.62151 1.71634 2.95554
-2.63256 1.71724 2.94861
-2.64362 1.71815 2.94168
-2.65368 1.71804 2.93376
-2.6607 1.718 2.93081
-2.67175 1.7189 2.92388
-2.68478 1.72185 2.91993
-2.69485 1.72172 2.91101
-2.69996 1.71751 2.89611
-2.71902 1.7204 2.88821
-2.72413 1.7172 2.87429
-2.74921 1.72004 2.86244
-2.77132 1.72085 2.84859
-2.77941 1.71968 2.83667
-2.79648 1.72054 2.82678
-2.80754 1.72143 2.81885
-2.85084 1.72087 2.77918
-2.86998 1.72062 2.76132
-2.88005 1.72049 2.7524
4.0252 1.7317 1.16299
4.02732 1.73593 1.17892
4.00736 1.72804 1.18519
3.60919 1.73376 1.96021
3.59725 1.73089 1.96834
3.59134 1.73207 1.98037
3.5914 1.73419 1.98834
3.58348 1.73436 1.9994
3.57456 1.73351 2.00948
3.56174 1.73488 2.03356
3.54578 1.72996 2.03875
3.54389 1.73318 2.05372
3.53993 1.73326 2.05875
3.52698 1.73038 2.06589
3.5271 1.73461 2.08183
3.52522 1.73785 2.0978
3.50724 1.73191 2.10102
3.49832 1.73206 2.11109
3.49844 1.7363 2.12703
3.4955 1.7374 2.13403
3.47953 1.73249 2.13923
3.48469 1.73978 2.15908
3.47275 1.73791 2.1672
3.46784 1.73911 2.18022
3.46797 1.74334 2.19616
3.45099 1.73841 2.20036
3.43798 1.73341 2.19954
3.44213 1.74069 2.2184
3.42517 1.73577 2.2236
3.42429 1.74001 2.23955
3.42341 1.74425 2.25549
3.40946 1.74135 2.26164
3.39752 1.73947 2.26976
3.40161 1.74365 2.28167
3.38664 1.73973 2.28684
3.37973 1.7409 2.29788
3.37885 1.74514 2.31382
3.36792 1.74428 2.32292
3.35094 1.73934 2.32612
3.35108 1.7446 2.34404
3.34107 1.74061 2.34418
3.34322 1.74689 2.36307
3.32034 1.74414 2.37929
3.31343 1.74533 2.39132
3.28767 1.74581 2.42252
3.27679 1.74605 2.4386
3.26183 1.74315 2.44475
3.25304 1.74856 2.47174
3.24311 1.7477 2.48083
3.2262 1.74589 2.49299
3.22129 1.74808 2.50599
3.19452 1.74855 2.53619
3.15386 1.74924 2.58149
3.12407 1.74866 2.60873
3.09031 1.74816 2.641
3.00689 1.74638 2.71966
2.99998 1.74855 2.73068
2.87086 1.74837 2.84868
2.8361 1.74886 2.87994
2.74057 1.74386 2.94374
-1.40412 1.72814 3.53328
-1.41321 1.72399 3.5224
-1.43015 1.7301 3.52944
-1.43924 1.72695 3.51856
-1.44637 1.7207 3.5017
-1.46834 1.72576 3.50479
-1.48037 1.72571 3.50088
-1.49633 1.7308 3.50593
-1.50151 1.72146 3.4831
-1.51158 1.71933 3.47421
-1.52949 1.72751 3.48522
-1.5376 1.72229 3.47036
-1.54461 1.72328 3.4694
-1.56867 1.72318 3.46158
-1.58168 1.72516 3.45965
-1.59471 1.72613 3.45673
-1.60183 1.7209 3.44086
-1.61189 1.71879 3.43297
-1.63288 1.72282 3.43407
-1.64885 1.72687 3.43713
-1.67194 1.72672 3.4263
-1.68004 1.72252 3.41242
-1.69809 1.72345 3.40654
-1.7121 1.72543 3.40462
-1.73222 1.72221 3.38882
-1.74525 1.72316 3.3849
-1.75827 1.72514 3.38297
-1.7644 1.71889 3.3661
-1.77337 1.72194 3.36913
-1.78835 1.726 3.37218
-1.79941 1.72588 3.36426
-1.80651 1.7217 3.35138
-1.83256 1.72361 3.34455
-1.84756 1.72662 3.34461
-1.86067 1.72341 3.32976
-1.8727 1.72436 3.32583
-1.88376 1.72325 3.31793
-1.88988 1.71803 3.30305
-2.22719 1.72467 3.12947
-2.23428 1.7225 3.11756
-2.24632 1.72242 3.11165
-2.25836 1.72335 3.10672
-2.26446 1.72017 3.09382
-2.27552 1.72006 3.0859
-2.27857 1.71797 3.07995
-2.28863 1.71784 3.07103
-2.29375 1.71263 3.05614
-2.31765 1.72382 3.06816
-2.73211 1.71926 2.7433
-2.75223 1.72004 2.72744
-2.94156 1.71956 2.55185
4.1084 1.7292 0.525316
3.88305 1.74045 1.27495
3.85807 1.73052 1.27929
3.85512 1.73061 1.28531
3.84719 1.72877 1.2954
3.86838 1.74211 1.31904
3.86347 1.74229 1.33108
3.76944 1.72928 1.462
3.74479 1.72898 1.50819
3.74295 1.73329 1.52915
3.73011 1.73263 1.55126
3.72421 1.73281 1.5633
3.70435 1.72911 1.58251
3.69643 1.72828 1.59358
3.68466 1.73074 1.62464
3.66491 1.73025 1.6578
3.65499 1.7284 1.6679
3.65114 1.7317 1.68788
3.64121 1.72984 1.69699
3.6363 1.73104 1.71001
3.63943 1.73627 1.72591
3.62347 1.73137 1.7321
3.62057 1.73257 1.74511
3.62365 1.73671 1.75503
3.61371 1.73485 1.76413
3.60881 1.73605 1.77715
3.61194 1.74128 1.79305
3.58693 1.7313 1.79339
3.58605 1.73453 1.80835
3.59219 1.7418 1.8272
3.57115 1.73274 1.82249
3.5773 1.73902 1.84135
3.57239 1.7402 1.85337
3.54839 1.73123 1.85469
3.54449 1.73343 1.86769
3.55165 1.74072 1.88753
3.53066 1.73377 1.88979
3.53173 1.7359 1.89875
3.53988 1.74519 1.91855
3.5199 1.73725 1.92182
3.51298 1.73742 1.93287
3.51612 1.74368 1.95076
3.49211 1.73468 1.95007
3.49424 1.73993 1.96698
3.50436 1.74715 1.9818
3.47934 1.73715 1.98114
3.47444 1.73935 1.99414
3.48261 1.74765 2.01496
3.46664 1.74274 2.02016
3.46073 1.7439 2.03119
3.45884 1.74713 2.04615
3.43778 1.73704 2.03946
3.43288 1.73924 2.05247
3.433 1.74347 2.06841
3.41805 1.73957 2.07458
3.41414 1.74175 2.08658
3.41628 1.74802 2.10447
3.40031 1.7431 2.10966
3.39541 1.74428 2.12168
3.39748 1.74843 2.13161
3.37649 1.74046 2.13288
3.3746 1.74368 2.14785
3.37272 1.74791 2.16281
3.35976 1.74401 2.16896
3.34398 1.74745 2.19804
3.31619 1.74488 2.22629
3.30827 1.74505 2.23735
3.29249 1.74849 2.26642
3.24685 1.74622 2.3138
3.24591 1.74834 2.32178
3.22805 1.74763 2.34093
-1.40381 1.72878 3.44125
-1.5834 1.72676 3.36462
3.90312 1.7267 0.88795
3.90434 1.73111 0.915879
3.89838 1.73019 0.920938
3.90148 1.7334 0.934869
3.89958 1.73459 0.947868
3.88675 1.73194 0.971007
3.88785 1.73513 0.983953
3.87598 1.73239 1.00109
3.8822 1.73982 1.02993
3.86727 1.73496 1.03912
3.86436 1.73614 1.05112
3.85242 1.73228 1.06027
3.84646 1.73036 1.06535
3.84255 1.73054 1.07737
3.84065 1.73274 1.09036
3.84176 1.73494 1.10432
3.84086 1.73715 1.1183
3.83294 1.73531 1.12838
3.82502 1.73347 1.13947
3.82412 1.73567 1.15245
3.81816 1.73375 1.15752
3.81725 1.73594 1.1705
3.80934 1.73411 1.18159
3.80042 1.73328 1.19267
3.80153 1.73548 1.20663
3.79962 1.73768 1.21961
3.78468 1.73281 1.2278
3.78574 1.73491 1.23476
3.78383 1.7361 1.24776
3.76588 1.73021 1.25398
3.76598 1.73241 1.26795
3.7681 1.73563 1.28289
3.75315 1.73075 1.29007
3.74724 1.73093 1.30212
3.75231 1.73506 1.31102
3.73536 1.72918 1.31824
3.73145 1.73036 1.33025
3.72654 1.73054 1.34229
3.71973 1.73191 1.36732
3.71582 1.73309 1.37933
3.70985 1.73216 1.38339
3.71097 1.73538 1.39834
3.70706 1.73656 1.41035
3.69211 1.73167 1.41754
3.69523 1.73591 1.43345
3.6863 1.73406 1.44355
3.67537 1.7322 1.45266
3.67242 1.73229 1.45868
3.67352 1.7355 1.47263
3.66359 1.73364 1.48173
3.66069 1.73484 1.49474
3.6598 1.73804 1.5087
3.64585 1.73417 1.51686
3.63693 1.73233 1.52696
3.63899 1.73444 1.53491
3.63006 1.73358 1.544
3.61511 1.7287 1.55118
3.62225 1.73496 1.56904
3.60931 1.73209 1.57718
3.60841 1.7353 1.59114
3.60852 1.7385 1.60509
3.59753 1.73454 1.60723
3.59162 1.73471 1.61828
3.59072 1.73692 1.63225
3.56873 1.72896 1.63454
3.56986 1.7332 1.65047
3.58001 1.74149 1.67027
3.55501 1.73151 1.67061
3.56109 1.73666 1.68149
3.56422 1.74191 1.69839
3.54424 1.73497 1.70164
3.53733 1.73514 1.71269
3.53744 1.73836 1.72765
3.5265 1.73649 1.73576
3.51857 1.73564 1.74583
3.52768 1.74283 1.75866
3.50267 1.73185 1.75901
3.50982 1.74012 1.77784
3.50189 1.73928 1.78791
3.48694 1.73538 1.79408
3.48504 1.73858 1.80805
3.47913 1.73875 1.81909
3.47216 1.73682 1.82318
3.46422 1.73595 1.83225
3.46937 1.74323 1.85111
3.4524 1.7373 1.85532
3.45453 1.74255 1.87223
3.4476 1.74271 1.88228
3.43466 1.73982 1.88942
3.42975 1.74 1.90146
3.43182 1.74413 1.91038
3.41686 1.74023 1.91655
3.41497 1.74244 1.93054
3.41106 1.74462 1.94254
3.3961 1.74072 1.94871
3.39722 1.74496 1.96464
3.39427 1.74605 1.97065
3.37227 1.73708 1.97194
3.3754 1.74333 1.98883
3.37351 1.74654 2.0028
3.35553 1.7406 2.00602
3.34761 1.74076 2.01708
3.3417 1.74193 2.02811
3.33874 1.74201 2.03313
3.33685 1.74523 2.0481
3.32792 1.74437 2.05718
3.321 1.74454 2.06823
3.31207 1.74368 2.07732
3.30716 1.74586 2.08932
3.29723 1.744 2.09842
3.29326 1.74408 2.10345
3.28044 1.74643 2.12652
3.24081 1.74618 2.17583
3.23484 1.74525 2.17989
3.22 1.74557 2.201
3.21308 1.74673 2.21203
3.13082 1.74725 2.31066
3.09509 1.74681 2.34694
2.96516 1.74799 2.48892
2.95226 1.7482 2.50302
0.0882293 -0.645599 18.6903
0.0288319 -0.647371 18.7707
-0.0620611 -0.650127 18.9185
-0.184758 -0.653476 19.0925
-0.309425 -0.656763 19.2705
-0.372002 -0.657888 19.327
2.57495 -0.588072 15.1822
2.34835 -0.592182 15.503
2.30681 -0.593249 15.5643
2.11281 -0.597182 15.8309
2.07034 -0.598115 15.9012
2.02571 -0.599356 15.9506
1.98117 -0.600406 16.013
1.87045 -0.602822 16.1829
1.77835 -0.604977 16.3036
1.68528 -0.607073 16.4283
1.52216 -0.611266 16.6787
1.42507 -0.612418 16.7994
1.35294 -0.614648 16.916
0.518792 -0.634637 18.0978
0.462357 -0.636485 18.1732
0.405847 -0.637481 18.2387
0.349427 -0.639299 18.3161
0.263496 -0.641133 18.4588
0.146649 -0.644782 18.6128
0.133791 -0.524653 18.6201
-0.197629 -0.530376 19.0978
-0.258913 -0.530924 19.1933
-0.321227 -0.532531 19.2848
5.02998 -0.467996 11.7094
4.9766 -0.467742 11.7919
4.91612 -0.467662 11.8623
4.76285 -0.469159 12.0925
4.70344 -0.46896 12.171
4.60357 -0.469666 12.3218
4.54317 -0.470437 12.4022
4.17608 -0.472498 12.9231
4.11069 -0.473251 13.0046
4.0336 -0.473403 13.1262
3.99991 -0.473771 13.1675
3.96828 -0.474022 13.2167
3.93459 -0.47439 13.258
3.89989 -0.474788 13.2973
3.85348 -0.474584 13.3766
3.81778 -0.47498 13.4159
3.78718 -0.475158 13.4702
3.75148 -0.475555 13.5094
3.71683 -0.475848 13.5557
3.68319 -0.476113 13.604
3.66945 -0.476584 13.6391
3.63377 -0.476936 13.6814
3.60117 -0.477128 13.7346
3.56345 -0.477537 13.7729
3.52882 -0.477801 13.8212
3.49419 -0.478036 13.8715
2.77376 -0.485641 14.8811
2.73518 -0.485799 14.9364
2.71955 -0.486047 14.9866
2.67791 -0.48732 15.0339
2.63727 -0.48758 15.0822
2.5967 -0.487706 15.1395
2.55607 -0.487951 15.1889
2.51553 -0.489018 15.2502
2.45627 -0.489523 15.3486
2.41362 -0.489796 15.396
2.37205 -0.490936 15.4523
2.18312 -0.492726 15.7288
2.13954 -0.493865 15.7852
2.09599 -0.493959 15.8445
2.05348 -0.494951 15.9108
1.89919 -0.497476 16.1391
1.85252 -0.497805 16.1824
1.80702 -0.49778 16.2498
1.76153 -0.498755 16.3172
1.60028 -0.501201 16.5504
1.5538 -0.502145 16.6198
1.50522 -0.502281 16.6762
1.40926 -0.504167 16.815
0.559328 -0.51773 18.0247
0.503879 -0.518609 18.0982
0.448444 -0.519458 18.1736
0.392025 -0.520276 18.2511
0.192233 -0.523791 18.5457
0.127147 -0.435065 18.6588
0.0677656 -0.435807 18.7413
0.00838385 -0.43655 18.8238
-0.0520657 -0.437425 18.8973
-0.113425 -0.438121 18.9828
-0.174814 -0.438877 19.0642
3.17969 -0.411031 14.3309
2.4406 -0.414957 15.3857
2.1655 -0.41707 15.7718
1.92307 -0.418843 16.1147
1.8775 -0.418966 16.1721
1.57772 -0.421423 16.6014
1.45902 -0.42279 16.7744
0.583193 -0.431128 17.9983
0.527699 -0.431095 18.0657
0.387402 -0.432646 18.2928
0.330968 -0.433494 18.3682
0.272459 -0.433488 18.4337
0.214986 -0.43441 18.5042
5.05274 -0.307681 11.6629
5.02709 -0.306981 11.7091
4.99836 -0.307442 11.7443
4.98756 -0.307034 11.7714
4.95884 -0.306466 11.8086
4.93014 -0.306852 11.8488
4.90142 -0.306284 11.886
4.8717 -0.306714 11.9233
4.8481 -0.305912 11.9764
4.8143 -0.305502 12.0027
4.80554 -0.306007 12.0358
4.77788 -0.305321 12.081
4.74511 -0.304853 12.1112
4.71439 -0.305282 12.1485
4.68875 -0.304553 12.1967
4.65805 -0.304953 12.2359
4.6263 -0.304441 12.2691
4.58585 -0.304316 12.3435
4.55822 -0.303585 12.3917
4.5275 -0.304 12.4299
4.49475 -0.303487 12.4631
4.461 -0.302974 12.4964
4.43439 -0.303199 12.5476
4.42263 -0.302717 12.5797
4.39195 -0.303057 12.6229
4.35922 -0.302515 12.6582
4.32753 -0.30287 12.7004
4.29684 -0.302241 12.7417
4.26516 -0.302596 12.7839
4.22071 -0.302482 12.8572
4.18904 -0.301822 12.9005
4.15634 -0.301206 12.9407
4.12468 -0.301517 12.986
4.09096 -0.30093 13.0242
4.01185 -0.301139 13.1418
3.97814 -0.300537 13.1811
3.91284 -0.300127 13.2736
3.80013 -0.299498 13.4465
3.73079 -0.299159 13.534
3.57945 -0.298791 13.7551
3.54481 -0.299055 13.8034
3.51019 -0.298289 13.8537
3.47455 -0.298567 13.901
2.83035 -0.29574 14.8079
2.61573 -0.294919 15.1245
2.5335 -0.295348 15.2272
2.34847 -0.294348 15.4896
2.02687 -0.293435 15.9431
1.33435 -0.292255 16.9394
0.13119 -0.194302 18.6413
0.0728544 -0.193956 18.7297
0.0124884 -0.193668 18.8142
-0.138761 -0.193122 19.0473
-0.201179 -0.191937 19.1248
-0.263478 -0.191514 19.2183
2.7861 -0.216339 14.9001
2.5664 -0.214677 15.2057
2.52686 -0.213745 15.267
2.42397 -0.213493 15.4148
2.33983 -0.212744 15.5295
2.23394 -0.21149 15.6773
2.1489 -0.210547 15.8049
2.10432 -0.210685 15.8612
2.06076 -0.20978 15.9206
2.01622 -0.209859 15.9809
1.97066 -0.208967 16.0393
1.85995 -0.208354 16.2111
1.7689 -0.207422 16.3378
1.72234 -0.207514 16.3972
1.67586 -0.206473 16.4655
1.55915 -0.205856 16.6374
1.51059 -0.204947 16.6967
1.461 -0.205111 16.7511
1.41356 -0.204981 16.8255
1.36507 -0.203938 16.8939
0.615178 -0.198487 17.9736
0.504386 -0.197037 18.1344
0.448861 -0.197064 18.1978
0.391397 -0.19697 18.2693
0.335024 -0.1967 18.3527
0.249088 -0.19555 18.4944
0.190691 -0.195322 18.5748
5.01929 -0.1498 11.7198
4.83928 -0.14576 11.9851
4.77883 -0.145635 12.0586
4.67689 -0.143488 12.1994
4.61852 -0.142201 12.2838
4.51769 -0.139847 12.4385
4.48392 -0.139364 12.4698
4.45427 -0.139661 12.516
4.42459 -0.139017 12.5582
4.36527 -0.137641 12.6487
4.31977 -0.136616 12.716
4.29013 -0.135884 12.7642
4.25641 -0.135326 12.8005
4.19305 -0.134021 12.886
4.0822 -0.132675 13.0398
3.83982 -0.12836 13.3886
3.65786 -0.124229 13.66
0.080089 0.0282069 18.7394
0.0206633 0.0293756 18.8158
-0.0397473 0.0305746 18.8942
-0.101105 0.0318779 18.9797
-0.161508 0.0330917 19.0591
-0.317748 0.0376556 19.2933
2.30333 -0.0249824 15.578
1.63655 -0.00834069 16.5389
1.37226 -0.00284701 16.8988
0.649947 0.0147532 17.9221
0.594566 0.0160078 18.0046
0.45613 0.0191738 18.2126
0.342271 0.0214927 18.3644
0.284928 0.0238227 18.4518
0.227457 0.0249011 18.5223
5.03924 -0.00609727 11.6995
5.02438 -0.00482 11.7176
4.96897 -0.00360984 11.797
4.94536 -0.00283745 11.8482
4.91255 -0.00242855 11.8745
4.88589 -0.000742892 11.9196
4.8582 -0.000115598 11.9608
4.82951 0.000512424 12.0021
4.81466 0.000804593 12.0212
4.75523 0.00297314 12.0976
4.72858 0.00367372 12.1438
4.69785 0.00422918 12.18
4.66918 0.0049016 12.2242
4.59596 0.00748002 12.3278
4.56934 0.00823981 12.378
4.53864 0.00883967 12.4172
4.50897 0.0105127 12.4614
4.45063 0.0118583 12.5498
4.43172 0.012035 12.561
4.40615 0.0128976 12.6181
4.37239 0.014396 12.6504
4.34172 0.0150698 12.6946
4.30901 0.0156564 12.7329
4.28244 0.0165198 12.79
4.23492 0.0184871 12.8534
4.20017 0.0190159 12.8876
4.16952 0.0197194 12.9339
4.10619 0.0220685 13.0223
4.04084 0.0233896 13.1088
4.02502 0.0237565 13.1329
3.99337 0.0254754 13.1801
3.92909 0.0269289 13.2756
3.81432 0.0304261 13.4395
3.7776 0.0310007 13.4767
3.746 0.0327937 13.529
3.56004 0.038927 13.8003
3.36402 0.0439641 14.0647
2.62989 0.0669129 15.1111
5.54904 0.0582466 11.0006
5.47559 0.0593811 11.0742
5.05029 0.0748858 11.6982
5.01851 0.0753384 11.7275
4.9898 0.0759368 11.7667
4.98308 0.0774747 11.8027
4.9503 0.0779428 11.833
4.92261 0.0785701 11.8742
4.89594 0.0802409 11.9184
4.86316 0.0806794 11.9466
4.83548 0.0813363 11.9898
4.81086 0.0830945 12.04
4.79601 0.0834015 12.0601
4.76631 0.0840155 12.1003
4.70893 0.0862566 12.1817
4.67719 0.086798 12.217
4.65056 0.0885428 12.2661
4.61578 0.0889976 12.2954
4.60399 0.0904207 12.3235
4.57839 0.0912241 12.3767
4.54462 0.091693 12.4069
4.51392 0.0933075 12.4471
4.48631 0.0940976 12.4993
4.45152 0.0945228 12.5266
4.42187 0.0962254 12.5728
4.41215 0.0967804 12.6099
4.3784 0.0983083 12.6441
4.34774 0.0989822 12.6883
4.31911 0.100729 12.7375
4.28741 0.101344 12.7778
4.25574 0.103018 12.822
4.22304 0.103635 12.8622
4.2072 0.103957 12.8833
4.17554 0.105632 12.9276
4.14388 0.106321 12.9728
4.1122 0.107981 13.016
4.04789 0.109375 13.1075
3.9994 0.111417 13.1758
3.9688 0.113224 13.229
3.93307 0.113768 13.2643
3.89939 0.11543 13.3075
3.71637 0.121428 13.5699
3.56199 0.127723 13.786
3.52839 0.128533 13.8392
3.49276 0.130269 13.8875
3.29787 0.137542 14.1679
5.94962 0.12918 10.4045
5.81611 0.135194 10.6024
5.79543 0.135831 10.6446
5.76563 0.136252 10.6718
5.74396 0.137905 10.715
5.71924 0.139471 10.7521
5.69349 0.139993 10.7863
5.6698 0.140617 10.8275
5.63424 0.142502 10.8857
5.47788 0.148829 11.1039
5.41259 0.151268 11.1983
5.33243 0.153955 11.3089
5.30571 0.155537 11.3471
5.26616 0.15744 11.4064
5.23741 0.157949 11.4396
5.20867 0.159488 11.4748
5.18096 0.160071 11.513
5.15527 0.161697 11.5542
5.12959 0.162338 11.5963
5.11472 0.1626 11.6135
5.08702 0.164212 11.6536
5.05931 0.164795 11.6918
