-3.94289 1.70039 1.69358
-3.95297 1.70224 1.68263
-3.95409 1.70002 1.66767
-3.95812 1.69994 1.6627
-3.96422 1.69976 1.64975
-3.97529 1.70262 1.63979
-3.98039 1.70143 1.62684
-3.9876 1.69902 1.59893
-3.9937 1.69884 1.58698
-3.99381 1.69562 1.57202
-4.00085 1.69755 1.56705
-4.01291 1.70043 1.55809
-4.01004 1.69618 1.54113
-4.01912 1.69802 1.53017
-4.0322 1.70088 1.52023
-4.0343 1.69867 1.50627
-4.04942 1.70145 1.49034
-4.04368 1.69296 1.45742
-4.05774 1.69683 1.44847
-4.06185 1.69663 1.4345
-4.07093 1.69747 1.42356
-4.08101 1.69932 1.4126
-4.0681 1.69213 1.40061
-4.0752 1.69294 1.38765
-4.0793 1.69175 1.3747
-4.0895 1.69138 1.34877
-4.10168 1.69201 1.32385
-4.10894 1.68952 1.28994
-4.11604 1.69033 1.27698
-4.1291 1.6942 1.26802
-4.12423 1.68895 1.25106
-4.13032 1.68978 1.23909
-4.14041 1.69161 1.22714
-4.14755 1.69133 1.20819
-4.14866 1.68912 1.19423
-4.15077 1.6879 1.17926
-4.16385 1.69176 1.1693
-4.16495 1.68956 1.15534
-4.16905 1.68937 1.14238
-4.16922 1.68604 1.12042
-4.17532 1.68685 1.10746
-4.18341 1.68768 1.0955
-4.19149 1.68951 1.08353
-4.19758 1.69034 1.07157
-4.1967 1.68712 1.05661
-4.20485 1.68782 1.03665
-4.20207 1.68339 1.00769
-4.20817 1.68321 0.994741
-4.21227 1.68302 0.981773
-4.21936 1.68483 0.968798
-4.22839 1.68778 0.964822
-4.22252 1.68252 0.947853
-4.22263 1.68131 0.93387
-4.2367 1.68517 0.923917
-4.24501 1.68357 0.882998
-4.24917 1.68227 0.862046
-4.24927 1.68106 0.848062
-4.26146 1.6827 0.823126
-4.26158 1.68048 0.808158
-4.25968 1.67827 0.794175
-4.26777 1.6801 0.782207
-4.27304 1.67858 0.747264
-4.27613 1.67839 0.734289
-4.28123 1.6792 0.721313
-4.29132 1.68203 0.709346
-4.28639 1.67889 0.700354
-4.29847 1.68174 0.689401
-4.29758 1.68053 0.67541
-4.29769 1.67831 0.660442
-4.2948 1.6761 0.646451
-4.30888 1.68093 0.634484
-4.31298 1.68074 0.621516
-4.30411 1.6755 0.605524
-4.32512 1.68447 0.602549
-4.31824 1.68024 0.587558
-4.31934 1.67904 0.573582
-4.31346 1.67481 0.558598
-4.31456 1.67361 0.544623
-4.33164 1.67945 0.533663
-4.31977 1.67321 0.517664
-4.32581 1.67612 0.511666
-4.33291 1.67694 0.498705
-4.32003 1.67069 0.482698
-4.34721 1.67935 0.458772
-4.33333 1.67211 0.442772
-4.33045 1.66988 0.427781
-4.34747 1.67684 0.423806
-4.34059 1.67261 0.408815
-4.3357 1.66938 0.393824
-4.35578 1.67724 0.382857
-4.3469 1.67201 0.367866
-4.347 1.6708 0.353882
-4.36009 1.67563 0.341908
-4.35814 1.67353 0.334923
-4.35426 1.6713 0.319925
-4.36135 1.67311 0.30695
-4.36545 1.67393 0.293967
-4.35857 1.6697 0.278975
-4.36766 1.67251 0.266
-4.36377 1.6703 0.252002
-4.37287 1.67312 0.239027
-4.36992 1.67201 0.23202
-4.37702 1.67381 0.218045
-4.36814 1.66858 0.203054
-4.37623 1.67141 0.191071
-4.36535 1.66616 0.175065
-4.38543 1.67401 0.164098
-4.38454 1.67281 0.150107
-4.39458 1.67672 0.144124
-4.3817 1.67048 0.128117
-4.37881 1.66827 0.114126
-4.37892 1.66706 0.100143
-4.37712 1.66566 0.0731465
-4.38622 1.66846 0.0591717
-4.37029 1.66133 0.0511561
-4.38537 1.66716 0.0391818
-4.38848 1.66796 0.0251915
-4.3766 1.66173 0.0101921
-4.39768 1.67057 -0.00178152
-4.39679 1.66936 -0.0157723
-4.3889 1.66514 -0.0297713
-4.39295 1.66704 -0.0367699
-4.39405 1.66684 -0.0507604
-4.38316 1.66162 -0.0647672
-4.40425 1.67044 -0.0777407
-4.39237 1.66421 -0.0927401
-4.39447 1.66502 -0.105738
-4.40657 1.66982 -0.11972
-4.39968 1.66661 -0.133726
-4.38473 1.6595 -0.140734
-4.40782 1.66932 -0.153708
-4.40793 1.66911 -0.167706
-4.40104 1.6659 -0.181712
-4.41114 1.6687 -0.195679
-4.41324 1.66951 -0.208677
-4.40535 1.6663 -0.222691
-4.4094 1.6682 -0.22969
-4.4065 1.66599 -0.243681
-4.40961 1.66778 -0.257686
-4.40971 1.66758 -0.271684
-3.55691 1.72593 2.21837
-3.565 1.72577 2.20743
-3.55916 1.71846 2.18649
-3.57818 1.72341 2.18256
-3.58023 1.72232 2.17659
-3.56942 1.71296 2.15265
-3.58048 1.71484 2.1437
-3.58957 1.71468 2.13277
-3.5887 1.71043 2.11583
-3.6107 1.71743 2.11489
-3.60778 1.71426 2.10391
-3.61984 1.71615 2.09597
-3.62196 1.71393 2.08102
-3.63401 1.71582 2.07308
-3.62917 1.70952 2.05314
-3.65118 1.71651 2.0512
-3.65329 1.71329 2.03626
-3.64844 1.70701 2.01731
-3.67736 1.72017 2.02734
-3.66753 1.71084 2.0054
-3.67561 1.71168 1.99445
-3.69066 1.71559 1.9875
-3.68382 1.70829 1.96755
-3.70086 1.71221 1.96162
-3.71292 1.71509 1.95267
-3.71099 1.71195 1.9437
-3.72306 1.71483 1.93475
-3.7192 1.70856 1.91681
-3.72927 1.71042 1.90686
-3.72541 1.70415 1.88892
-3.7315 1.70398 1.87696
-3.74854 1.7089 1.87102
-3.73765 1.70169 1.85704
-3.75071 1.70458 1.8491
-3.75083 1.70134 1.83314
-3.76588 1.70525 1.8262
-3.77906 1.7049 1.8023
-3.78721 1.70363 1.78338
-3.78931 1.70142 1.76942
-3.80038 1.7033 1.76048
-3.80349 1.70109 1.74653
-3.82153 1.70701 1.74058
-3.82276 1.70057 1.71068
-3.81984 1.69742 1.7007
-3.8309 1.7003 1.69174
-3.83699 1.70012 1.67979
-3.85105 1.70401 1.67184
-3.84619 1.69774 1.65389
-3.85825 1.70062 1.64494
-3.85339 1.69535 1.62698
-3.8664 1.69934 1.62601
-3.86253 1.69509 1.60905
-3.88654 1.70306 1.60611
-3.89674 1.70268 1.58019
-3.90693 1.70132 1.55528
-3.91607 1.70105 1.53635
-3.90622 1.69376 1.51738
-3.9133 1.6936 1.50644
-3.93135 1.69951 1.49948
-3.9215 1.69222 1.48052
-3.94254 1.69915 1.47457
-3.93767 1.69389 1.45761
-3.94869 1.69786 1.45463
-3.94581 1.69362 1.43867
-3.9529 1.69446 1.42771
-3.95401 1.69224 1.41275
-3.9611 1.69207 1.4008
-3.96818 1.69291 1.38984
-3.98025 1.69577 1.37989
-3.97544 1.69041 1.35593
-3.9977 1.69291 1.32106
-3.99781 1.6907 1.30709
-4.00191 1.6895 1.29314
-4.02411 1.69411 1.26623
-4.02224 1.68988 1.25028
-4.03153 1.68731 1.21138
-4.03757 1.68922 1.2054
-4.04765 1.69108 1.19544
-4.05175 1.69089 1.18247
-4.04787 1.68665 1.16651
-4.05596 1.68848 1.15454
-4.05507 1.68527 1.14058
-4.05617 1.68406 1.1266
-4.06226 1.68389 1.11465
-4.07229 1.68784 1.11066
-4.07639 1.68765 1.0977
-4.07251 1.68341 1.08173
-4.0786 1.68324 1.06977
-4.08968 1.68708 1.0588
-4.08879 1.68387 1.04484
-4.09289 1.68368 1.03187
-4.09095 1.68256 1.02387
-4.09903 1.68341 1.01292
-4.10612 1.68524 1.00094
-4.10922 1.68403 0.986982
-4.10733 1.68182 0.972999
-4.1224 1.68568 0.963054
-4.12251 1.68448 0.949071
-4.11758 1.68134 0.940079
-4.12666 1.68318 0.929118
-4.13785 1.68482 0.904175
-4.14893 1.68767 0.893215
-4.13707 1.68039 0.875231
-4.15114 1.68425 0.865278
-4.1452 1.68113 0.857278
-4.14232 1.67791 0.842302
-4.14741 1.67872 0.829327
-4.16847 1.68661 0.821368
-4.15959 1.68037 0.805391
-4.16369 1.68018 0.792423
-4.17079 1.68199 0.779448
-4.16186 1.67686 0.770455
-4.16496 1.67667 0.75748
-4.18103 1.68253 0.747513
-4.17514 1.6783 0.732529
-4.18833 1.68094 0.707586
-4.19044 1.67974 0.693617
-4.19547 1.68167 0.688626
-4.21055 1.68651 0.677666
-4.19968 1.68027 0.661675
-4.21276 1.68511 0.6507
-4.22484 1.68896 0.639733
-4.199 1.67565 0.619732
-4.20608 1.67647 0.607772
-4.22909 1.68646 0.605797
-4.20824 1.67618 0.587789
-4.22032 1.68001 0.575822
-4.2354 1.68486 0.564863
-4.22752 1.67963 0.549878
-4.22662 1.67842 0.535888
-4.25069 1.68731 0.526936
-4.22478 1.67511 0.51492
-4.23986 1.68096 0.503945
-4.23398 1.67673 0.488962
-4.24107 1.67856 0.476986
-4.23518 1.67433 0.462002
-4.24128 1.67614 0.44902
-4.24338 1.67595 0.436037
-4.24049 1.67374 0.422046
-4.25352 1.67868 0.41707
-4.25063 1.67647 0.403079
-4.24773 1.67326 0.389103
-4.25483 1.67607 0.376113
-4.24595 1.67085 0.361121
-4.25004 1.67166 0.348138
-4.26912 1.67851 0.337179
-4.25719 1.67236 0.328179
-4.26029 1.67317 0.315189
-4.27937 1.68002 0.304229
-4.25749 1.66977 0.288214
-4.26259 1.67158 0.275224
-4.26969 1.6734 0.262249
-4.2648 1.67019 0.248257
-4.26585 1.67008 0.241266
-4.27394 1.6729 0.228284
-4.27205 1.67069 0.2143
-4.27015 1.66949 0.201302
-4.27225 1.66929 0.187319
-4.27735 1.6701 0.174343
-4.26946 1.66689 0.160329
-4.28449 1.67282 0.155354
-4.26762 1.66457 0.139347
-4.27072 1.66538 0.126356
-4.2928 1.67322 0.114405
-4.28091 1.66801 0.100391
-4.28601 1.66882 0.0874154
-4.2961 1.67263 0.0744331
-4.28322 1.6664 0.0594263
-4.27627 1.66329 0.052419
-4.30336 1.67413 0.0404609
-4.27848 1.66289 0.0254377
-4.28457 1.66471 0.0124551
-4.28567 1.66451 -0.000535614
-4.28678 1.66431 -0.0145262
-4.28588 1.66411 -0.0275319
-4.28993 1.66501 -0.0345156
-4.29303 1.66582 -0.0475061
-4.27714 1.6586 -0.0615209
-4.28723 1.66242 -0.0745031
-4.28734 1.66221 -0.0885011
-4.29743 1.66603 -0.101483
-4.28354 1.65881 -0.115483
-4.27959 1.6577 -0.122497
-4.30469 1.66753 -0.135456
-4.29579 1.66333 -0.148462
-4.2849 1.65811 -0.162469
-4.29699 1.66293 -0.175451
-4.2951 1.66172 -0.189449
-4.2902 1.65953 -0.202456
-4.29225 1.66042 -0.209454
-4.29935 1.66322 -0.223444
-4.29645 1.66103 -0.236435
-4.29855 1.66182 -0.250433
-4.29865 1.66163 -0.263431
-3.59018 1.7185 1.91769
-3.60137 1.71613 1.89281
-3.61753 1.71783 1.8719
-3.62573 1.71444 1.84501
-3.63076 1.71538 1.84103
-3.63884 1.71523 1.83009
-3.64493 1.71507 1.81914
-3.65202 1.7149 1.80719
-3.66209 1.71676 1.79724
-3.66718 1.71558 1.7853
-3.66829 1.71338 1.77133
-3.67942 1.71413 1.7544
-3.67356 1.70686 1.73647
-3.68462 1.70974 1.72751
-3.69071 1.70956 1.71555
-3.70377 1.71245 1.70761
-3.70388 1.70923 1.69265
-3.69896 1.70408 1.68269
-3.71203 1.70796 1.67373
-3.70816 1.7027 1.65678
-3.71126 1.70051 1.64383
-3.73128 1.70847 1.63986
-3.74136 1.70933 1.62993
-3.74745 1.70915 1.61797
-3.74955 1.70796 1.605
-3.7516 1.70686 1.59803
-3.75669 1.70669 1.58607
-3.75979 1.7045 1.57313
-3.77385 1.70839 1.56518
-3.77695 1.70718 1.55121
-3.78104 1.70601 1.53926
-3.78613 1.70583 1.5273
-3.78719 1.70473 1.52032
-3.7863 1.70151 1.50536
-3.80235 1.70642 1.49841
-3.80944 1.70624 1.48646
-3.81851 1.7081 1.4765
-3.82261 1.70691 1.46355
-3.8277 1.70674 1.45159
-3.83075 1.70665 1.44561
-3.83485 1.70546 1.43266
-3.83296 1.70224 1.41769
-3.84004 1.70308 1.40673
-3.84613 1.70291 1.39478
-3.85422 1.70475 1.38381
-3.86529 1.70661 1.37386
-3.85937 1.70246 1.36388
-3.87442 1.70735 1.35592
-3.87254 1.70413 1.34095
-3.88161 1.70499 1.331
-3.87674 1.69973 1.31404
-3.88283 1.70057 1.30308
-3.88692 1.69938 1.29012
-3.898 1.70324 1.28015
-3.90104 1.70316 1.27417
-3.91521 1.70483 1.25125
-3.91731 1.70264 1.2383
-3.92241 1.70245 1.22534
-3.9265 1.70227 1.21337
-3.92462 1.69905 1.1984
-3.92567 1.69795 1.19142
-3.93674 1.70181 1.18145
-3.94183 1.70163 1.16949
-3.94592 1.70146 1.15752
-3.94404 1.69723 1.14256
-3.95423 1.69787 1.11763
-3.95129 1.69575 1.10964
-3.96136 1.69761 1.09968
-3.96944 1.69945 1.08872
-3.96955 1.69725 1.07475
-3.97564 1.69807 1.06278
-3.97874 1.69688 1.04982
-3.98683 1.69871 1.03785
-3.9779 1.69357 1.02886
-3.979 1.69136 1.0149
-3.9831 1.69117 1.00193
-3.9832 1.68998 0.988945
-4.00326 1.69688 0.980993
-4.00735 1.6967 0.969025
-4.00745 1.6945 0.955056
-4.01349 1.69643 0.950073
-4.0116 1.69322 0.936104
-4.01769 1.69403 0.923136
-4.0158 1.69182 0.909153
-4.02887 1.69568 0.899192
-4.02898 1.69347 0.885224
-4.03307 1.6933 0.873256
-4.02913 1.69118 0.865256
-4.04031 1.69183 0.841328
-4.04541 1.69264 0.828352
-4.0505 1.69347 0.816377
-4.05061 1.69126 0.802408
-4.0507 1.69007 0.789425
-4.05385 1.68878 0.769465
-4.06294 1.69062 0.758505
-4.07112 1.69125 0.733553
-4.07422 1.69106 0.720578
-4.07932 1.69188 0.707602
-4.0664 1.68572 0.697595
-4.07847 1.68958 0.687627
-4.08666 1.68921 0.662691
-4.08976 1.68902 0.649715
-4.09595 1.68864 0.623764
-4.10729 1.68899 0.578838
-4.11049 1.6876 0.552879
-4.11773 1.68713 0.520936
-4.13232 1.68599 0.443052
-4.13656 1.6855 0.410087
-4.14611 1.68345 0.338179
-4.14841 1.68086 0.29823
-4.15051 1.68066 0.285246
-4.1487 1.67828 0.259265
-4.15695 1.6788 0.226315
-4.16334 1.67803 0.174367
-4.16749 1.67875 0.155385
-4.16659 1.67754 0.141394
-4.16689 1.67597 0.102414
-4.17104 1.67667 0.0824322
-4.16614 1.67348 0.0694408
-4.16833 1.67309 0.0434594
-4.16963 1.6715 0.00348728
-4.17468 1.67342 -0.00250387
-4.17587 1.67303 -0.0284928
-4.17817 1.67244 -0.0684722
-4.17327 1.67025 -0.0814784
-4.18042 1.67196 -0.101453
-4.16753 1.66575 -0.11446
-4.17872 1.66938 -0.140433
-3.81862 1.70097 1.19757
-4.67496 -0.415792 7.47422
-4.67655 -0.414961 7.39521
-4.68487 -0.415576 7.35328
-4.69515 -0.415117 7.31634
-4.69652 -0.414856 7.26634
-4.7068 -0.414397 7.22941
-4.71312 -0.414014 7.18744
-4.71943 -0.413632 7.14548
-4.71963 -0.414017 7.11948
-4.72593 -0.413605 7.07952
-4.75566 -0.411989 6.84969
-4.76096 -0.411578 6.80972
-4.77022 -0.41109 6.77477
-4.77453 -0.411694 6.73381
-4.78379 -0.41119 6.69987
-4.78611 -0.410826 6.65687
-4.7914 -0.410399 6.6179
-4.7896 -0.410786 6.59189
-4.7939 -0.410375 6.55191
-4.81041 -0.41037 6.48403
-4.8147 -0.40993 6.44605
-4.81998 -0.409489 6.40807
-4.82113 -0.409784 6.38808
-5.10212 -0.402065 4.26379
-5.10532 -0.402463 4.23682
-5.12556 -0.401892 4.07194
-5.13372 -0.402197 4.051
-5.14437 -0.402477 3.96408
-5.15293 -0.402567 3.89013
-5.15731 -0.402304 3.84016
-5.1584 -0.402481 3.82816
-5.17172 -0.402108 3.78525
-5.17211 -0.401878 3.73325
-5.17827 -0.402185 3.71229
-5.1869 -0.402422 3.62835
-5.19107 -0.402745 3.60638
-5.20519 -0.402972 3.59049
-5.20158 -0.402759 3.53745
-5.2092 -0.402968 3.4555
-5.21237 -0.402292 3.43351
-5.22468 -0.40289 3.39261
-5.22395 -0.402439 3.35559
-5.24258 -0.402669 3.27172
-5.24403 -0.403542 3.21274
-5.24918 -0.402834 3.19277
-5.25434 -0.403141 3.17181
-5.26347 -0.403401 3.15388
-5.26564 -0.403725 3.13189
-5.26482 -0.403081 3.10788
-5.26499 -0.403422 3.08488
-5.27239 -0.404201 3.03194
-5.27057 -0.403558 3.00791
-5.28611 -0.403598 2.93702
-5.28628 -0.403939 2.91402
-5.29176 -0.403883 2.85005
-5.29989 -0.404143 2.83212
-5.30305 -0.404437 2.81214
-5.30114 -0.404631 2.79913
-5.31342 -0.40517 2.76222
-4.73064 -0.371057 6.98091
-4.72547 -0.305816 6.99691
-5.10363 -0.317229 4.31956
-5.11081 -0.317565 4.29661
-5.115 -0.317932 4.27165
-5.10915 -0.317232 4.25159
-5.1183 -0.317522 4.23166
-5.11454 -0.317999 4.19963
-5.13405 -0.318991 4.13179
-5.13426 -0.318406 4.10378
-5.13138 -0.318645 4.08776
-5.13755 -0.318981 4.0648
-5.14074 -0.319349 4.03983
-5.14195 -0.319748 4.01284
-5.14811 -0.319069 3.99087
-5.14931 -0.319468 3.96389
-5.15647 -0.319774 3.94294
-5.15061 -0.320045 3.9249
-5.1528 -0.320413 3.89992
-5.16592 -0.320655 3.88302
-5.16612 -0.32004 3.85701
-5.16831 -0.320409 3.83202
-5.17646 -0.320699 3.81209
-5.17665 -0.321084 3.78609
-5.17377 -0.321323 3.77007
-5.17495 -0.320678 3.74607
-5.18311 -0.320983 3.72513
-5.18828 -0.321305 3.70317
-5.18648 -0.321706 3.67616
-5.18866 -0.32206 3.65218
-5.19482 -0.322366 3.63123
-5.19899 -0.321689 3.60924
-5.1971 -0.321913 3.59423
-5.20126 -0.322235 3.57226
-5.20245 -0.322605 3.54728
-5.2096 -0.322896 3.52733
-5.21675 -0.323187 3.50739
-5.21992 -0.32351 3.48541
-5.22209 -0.322849 3.46241
-5.2202 -0.323058 3.4484
-5.22337 -0.323396 3.42543
-5.23051 -0.323672 3.40648
-5.2307 -0.324042 3.38149
-5.23088 -0.324398 3.35749
-5.23406 -0.323736 3.3345
-5.24119 -0.323997 3.31656
-5.2373 -0.324222 3.30153
-5.24048 -0.324561 3.27855
-5.2516 -0.324789 3.26264
-5.2478 -0.325192 3.23561
-5.25693 -0.325437 3.21868
-5.26009 -0.325761 3.19671
-5.25729 -0.325148 3.17067
-5.26235 -0.325262 3.16271
-5.2685 -0.325554 3.14276
-5.26867 -0.325895 3.11976
-5.27482 -0.326186 3.09981
-5.26305 -0.326639 3.06973
-5.27418 -0.326883 3.05281
-5.28231 -0.326143 3.03486
-5.28448 -0.326468 3.01288
-5.28158 -0.326662 2.99986
-5.28772 -0.326939 2.9809
-5.28989 -0.327263 2.95892
-5.29304 -0.327572 2.93795
-5.29637 -0.328206 2.89498
-5.30549 -0.328451 2.87805
-5.29364 -0.327742 2.85894
-5.30177 -0.327987 2.84201
-5.3099 -0.328248 2.82407
-5.31837 -0.32916 2.76214
-4.72758 -0.261086 6.97826
-4.77094 -0.20377 6.65969
-5.21669 -0.246135 3.37523
-4.68063 -0.0955257 7.35451
-4.69288 -0.0970201 7.32062
-4.68419 -0.0976336 7.27956
-4.69743 -0.0980978 7.24766
-4.70572 -0.0986545 7.20972
-4.71007 -0.100332 7.16377
-4.7227 -0.101567 7.07988
-4.76716 -0.108377 6.75327
-4.77049 -0.109011 6.7103
-4.78701 -0.111021 6.64144
-4.78835 -0.111686 6.59645
-4.79183 -0.112631 6.53249
-4.80305 -0.113067 6.50257
-4.80636 -0.114672 6.46162
-4.81065 -0.115231 6.42365
-5.09376 -0.157684 4.28812
-5.10987 -0.157894 4.27324
-5.09806 -0.158273 4.24815
-5.11239 -0.158914 4.20426
-5.11856 -0.15925 4.18131
-5.1148 -0.160726 4.1493
-5.12991 -0.160938 4.13442
-5.13582 -0.16271 4.01447
-5.14717 -0.163383 3.96856
-5.14637 -0.164783 3.94157
-5.15741 -0.164849 3.93665
-5.15065 -0.165328 3.90461
-5.15284 -0.165697 3.87962
-5.16298 -0.165971 3.8607
-5.16536 -0.166724 3.80972
-5.16258 -0.167156 3.78071
-5.16467 -0.167332 3.76872
-5.16586 -0.167701 3.74373
-5.17699 -0.167945 3.72682
-5.1752 -0.169361 3.69882
-5.18951 -0.169957 3.65793
-5.19666 -0.170248 3.63799
-5.19595 -0.170826 3.59899
-5.20727 -0.17144 3.55708
-5.20646 -0.171826 3.53107
-5.21561 -0.1721 3.51214
-5.21877 -0.172424 3.49017
-5.21209 -0.17405 3.44814
-5.22422 -0.174293 3.43123
-5.22141 -0.17468 3.40521
-5.22557 -0.174988 3.38424
-5.23571 -0.175247 3.36632
-5.2339 -0.175634 3.34031
-5.23201 -0.175842 3.32629
-5.23617 -0.17615 3.30533
-5.24846 -0.176719 3.26642
-5.24666 -0.177105 3.24041
-5.25281 -0.177397 3.22046
-5.25199 -0.177753 3.19646
-5.25316 -0.178093 3.17347
-5.25542 -0.179594 3.1395
-5.26373 -0.18021 3.09757
-5.25893 -0.180599 3.07153
-5.27005 -0.180828 3.05562
-5.26326 -0.181247 3.02757
-5.2733 -0.181314 3.02264
-5.27845 -0.181606 3.00269
-5.28558 -0.181868 2.98474
-5.29389 -0.182469 2.94381
-5.2851 -0.18289 2.91574
-5.29424 -0.18315 2.89781
-5.29233 -0.183329 2.8858
-5.29648 -0.183622 2.86583
-5.30163 -0.184914 2.84589
-5.29881 -0.185257 2.82287
-5.29898 -0.185597 2.79987
-5.31308 -0.185794 2.78598
-5.3023 -0.186232 2.7569
-5.31234 -0.186298 2.75198
-4.68067 -0.0406798 7.34369
-4.68323 -0.0427884 7.26873
-4.69844 -0.0431919 7.24085
-4.69389 -0.0450688 7.18184
-4.70515 -0.0455789 7.14692
-4.71146 -0.0471665 7.10699
-4.76169 -0.0545128 6.81144
-4.76221 -0.0565488 6.74146
-4.76454 -0.0571839 6.69848
-4.77082 -0.0587419 6.66055
-4.78205 -0.059178 6.63063
-4.78834 -0.0597361 6.59268
-4.79461 -0.0612645 6.55675
-4.80187 -0.0617775 6.52181
-4.79511 -0.0622563 6.48976
-4.80732 -0.0636619 6.46187
-4.81557 -0.0641445 6.42893
-4.80898 -0.0659489 6.3749
-5.18924 -0.131457 3.55635
-5.61783 -0.188508 0.428989
-5.68343 -0.195538 -0.0484785
-5.08863 -0.0675638 4.29575
-5.10098 -0.068236 4.24984
-5.10914 -0.0685558 4.22791
-5.10539 -0.0700323 4.19589
-5.11245 -0.0701456 4.18795
-5.10967 -0.0705919 4.15793
-5.12478 -0.070803 4.14304
-5.12996 -0.0711546 4.11909
-5.14262 -0.0734336 4.0322
-5.14581 -0.0748014 4.00724
-5.16183 -0.0778035 3.87139
-5.16799 -0.0781099 3.85044
-5.19134 -0.0827434 3.67166
-5.19173 -0.0844982 3.62068
-5.1941 -0.0862367 3.57072
-5.21602 -0.0890272 3.44891
-5.21847 -0.0898991 3.38993
-5.24208 -0.0920961 3.30813
-5.23747 -0.0938545 3.25711
-5.24452 -0.0939531 3.25017
-5.24968 -0.0942603 3.22921
-5.25185 -0.0945845 3.20723
-5.258 -0.0948761 3.18727
-5.25437 -0.0966191 3.13726
-5.2635 -0.0968642 3.12033
-5.26865 -0.0971566 3.10037
-5.25381 -0.0974784 3.07926
-5.26992 -0.0976739 3.06539
-5.28454 -0.0998922 2.98252
-5.27874 -0.100281 2.95648
-5.28977 -0.100347 2.95156
-5.28614 -0.102061 2.90355
-5.29925 -0.102273 2.88865
-5.28847 -0.102711 2.85957
-5.30274 -0.103233 2.82368
-5.30399 -0.104721 2.79071
-5.31112 -0.104982 2.77277
-5.30931 -0.105339 2.74875
-5.61064 -0.146237 0.58233
-5.61884 -0.146616 0.556394
-5.62097 -0.146881 0.538412
-5.63684 -0.148573 0.42354
-5.63511 -0.149107 0.38753
-5.65597 -0.15078 0.273697
-5.67184 -0.152471 0.158825
-5.67411 -0.153003 0.122845
-5.67324 -0.15327 0.10484
-5.68344 -0.153647 0.0789191
-5.17989 -0.0479114 3.72806
-5.2263 -0.0566009 3.4095
-5.24738 -0.0607177 3.2657
-5.26129 -0.0634992 3.14483
-5.26961 -0.065115 3.10291
-5.27918 -0.0662186 3.02799
-5.28907 -0.0699733 2.9091
-5.3007 -0.0721938 2.82621
-5.30892 -0.0726173 2.79727
-5.60344 -0.11689 0.605845
-5.6159 -0.117784 0.544944
-5.60918 -0.118337 0.507896
-5.62644 -0.118828 0.474029
-5.6307 -0.119343 0.439064
-5.64044 -0.120787 0.341145
-5.63964 -0.121188 0.314141
-5.6509 -0.121683 0.280229
-5.65017 -0.122217 0.244226
-5.65144 -0.122749 0.208238
-5.66364 -0.123125 0.182332
-5.6755 -0.124819 0.067431
-5.6909 -0.124593 0.0145363
-5.69317 -0.125124 -0.0214437
-5.69938 -0.12552 -0.0483948
-5.69565 -0.126055 -0.0844199
-5.70991 -0.126563 -0.11931
-5.71105 -0.126829 -0.1373
-5.70325 -0.127235 -0.164356
-4.67655 0.121344 7.34427
-4.68189 0.119667 7.29832
-4.69118 0.118111 7.26041
-4.6975 0.116494 7.21848
-4.69572 0.115048 7.18848
-4.70105 0.113416 7.14554
-4.71033 0.111875 7.10863
-4.72059 0.110364 7.07372
-4.74241 0.100812 6.83299
-4.74771 0.0992233 6.79305
-4.7692 0.0972765 6.72823
-4.76955 0.0955957 6.68226
-4.76775 0.0942095 6.65626
-4.77403 0.0926515 6.61832
-4.77537 0.0909862 6.57335
-4.78758 0.0895806 6.54546
-4.79089 0.087976 6.5045
-4.80212 0.0875399 6.47459
-4.80246 0.0858739 6.42961
-4.80262 0.0845484 6.40763
-4.80592 0.0829734 6.36867
-4.81714 0.0825521 6.33976
-5.09366 0.00828345 4.28466
-5.09707 0.00647161 4.2297
-5.10456 0.00452946 4.16578
-5.11293 0.00281007 4.11686
-5.12109 0.00250504 4.09593
-5.14549 -0.00323115 3.91017
-5.14768 -0.00459964 3.8852
-5.14897 -0.00517621 3.84621
-5.16069 -0.00858902 3.75034
-5.16597 -0.00911827 3.71438
-5.16814 -0.0104572 3.69142
-5.17331 -0.010794 3.66846
-5.17649 -0.0121321 3.6455
-5.18283 -0.0128087 3.59955
-5.18928 -0.0146776 3.54062
-5.19643 -0.0149685 3.52067
-5.20059 -0.0162911 3.49872
-5.20594 -0.0169684 3.45276
-5.2111 -0.0182755 3.43182
-5.20939 -0.0188395 3.39381
-5.22722 -0.0224551 3.28398
-5.23028 -0.0225862 3.27501
-5.23146 -0.0229259 3.25202
-5.2358 -0.0246038 3.20607
-5.23797 -0.024928 3.18409
-5.24213 -0.0262358 3.16313
-5.24529 -0.0265593 3.14116
-5.25685 -0.0286466 3.06727
-5.26299 -0.0289235 3.04832
-5.27173 -0.032368 2.95042
-5.28237 -0.0346041 2.86652
-5.28561 -0.0350756 2.83455
-5.28976 -0.0353687 2.81458
-5.29292 -0.0366773 2.79362
-5.30022 -0.0372643 2.75368
-5.60727 -0.082595 0.625369
-5.60941 -0.0828599 0.607386
-5.61147 -0.0829769 0.599403
-5.60362 -0.0832788 0.579345
-5.60076 -0.0835474 0.561325
-5.61887 -0.0837563 0.546463
-5.61002 -0.084059 0.526398
-5.61815 -0.0843048 0.50946
-5.62034 -0.0846882 0.483479
-5.61649 -0.0849723 0.464451
-5.63061 -0.085199 0.448559
-5.63487 -0.0857142 0.413594
-5.639 -0.0859777 0.395626
-5.63314 -0.0862485 0.377584
-5.64021 -0.0863766 0.368638
-5.63648 -0.0869124 0.332612
-5.64861 -0.0871553 0.315705
-5.65187 -0.0876712 0.280732
-5.65062 -0.0891381 0.181731
-5.65374 -0.0893876 0.164756
-5.66387 -0.089632 0.147834
-5.65995 -0.0897829 0.137805
-5.66908 -0.090028 0.120875
-5.66821 -0.0902952 0.10287
-5.67234 -0.0905439 0.0859023
-5.66948 -0.0908273 0.0668824
-5.67961 -0.0900718 0.0499452
-5.68274 -0.0903213 0.0329701
-5.68108 -0.0909888 -0.0120388
-5.68221 -0.0912545 -0.0300288
-5.68948 -0.0917823 -0.0659711
-5.69861 -0.0920274 -0.0829011
-5.70468 -0.0921563 -0.0918547
-5.70481 -0.0924227 -0.109852
-5.70795 -0.092687 -0.127827
-5.70622 -0.0932213 -0.163837
-5.70836 -0.0934863 -0.18182
-4.67028 0.234712 7.36854
-4.68056 0.233172 7.33164
-4.68886 0.231586 7.29172
-4.7025 0.227352 7.20787
-4.71137 0.221641 7.09201
-4.75334 0.208823 6.83248
-4.78083 0.198911 6.6348
-4.79257 0.194469 6.53695
-4.81041 0.189839 6.42613
-4.80778 0.187111 6.37715
-4.80596 0.185755 6.35315
-4.82344 0.18282 6.28932
-4.84827 0.171255 6.04764
-4.85155 0.16971 6.01068
-4.85681 0.168211 5.97674
-4.86999 0.166865 5.95286
-4.87128 0.165288 5.91388
-4.87965 0.162569 5.86498
-4.9046 0.157722 5.73922
-4.90192 0.155098 5.69724
-4.91212 0.154721 5.67132
-4.91452 0.151923 5.61737
-4.91679 0.150406 5.5824
-4.95308 0.136932 5.27883
-4.97384 0.132467 5.17904
-4.97906 0.131041 5.1501
-5.00723 0.124767 4.99538
-5.03164 0.117016 4.80865
-5.04427 0.112782 4.7248
-5.09721 0.0970464 4.33538
-5.12069 0.0891765 4.14065
-5.11932 0.0859319 4.05667
-5.16468 0.0743308 3.74414
-5.27295 0.0500604 3.04622
-5.27529 0.0483958 3.00126
-5.28343 0.0481352 2.98332
-5.28559 0.0468111 2.96135
-5.27681 0.0453902 2.9333
-5.28702 0.044983 2.90538
-5.28436 0.0433 2.85938
-5.29648 0.0430719 2.84347
-5.32262 0.0378553 2.69273
-5.33349 0.0341605 2.57785
-5.36613 0.0279712 2.36116
-5.37127 0.0276936 2.3422
-5.4433 0.0138245 1.80787
-5.6464 -0.0148539 0.335621
-5.67287 -0.0177073 0.141836
-4.68531 0.278645 7.22799
-4.68965 0.275982 7.18305
-4.69793 0.274425 7.14513
-4.70721 0.272884 7.10822
-4.74243 0.256572 6.81569
-4.74575 0.254938 6.77273
-4.76623 0.251006 6.70893
-4.77055 0.249387 6.66698
-4.7798 0.247905 6.63407
-4.77537 0.243792 6.55909
-4.78362 0.241309 6.52618
-4.78989 0.239781 6.49025
-4.79914 0.238299 6.45734
-4.81068 0.234242 6.38547
-4.81299 0.232636 6.34451
-4.81117 0.23128 6.32051
-4.81677 0.227114 6.2416
-4.83486 0.219981 6.09683
-4.84523 0.217278 6.04894
-4.85475 0.214263 5.98004
-4.86 0.211764 5.94612
-4.86327 0.210248 5.91116
-4.86556 0.208687 5.87319
-4.87263 0.207544 5.86326
-4.88639 0.203059 5.76242
-4.8973 0.19729 5.64257
-4.90353 0.195836 5.61163
-4.90975 0.194411 5.5827
-4.92686 0.187262 5.43691
-4.9311 0.185792 5.40496
-4.94875 0.181517 5.31815
-4.95695 0.180138 5.29222
-4.97497 0.174152 5.15743
-4.97026 0.171571 5.11843
-4.98268 0.169766 5.06354
-4.99124 0.165677 4.98966
-4.99768 0.162808 4.93074
-5.00983 0.162521 4.91083
-5.00834 0.158528 4.84387
-5.01441 0.158399 4.83492
-5.01786 0.155513 4.77498
-5.03148 0.152309 4.69312
-5.03778 0.150722 4.65318
-5.04298 0.14934 4.62724
-5.04718 0.147944 4.60029
-5.04863 0.145071 4.54133
-5.05481 0.14472 4.51738
-5.06695 0.143448 4.49849
-5.06607 0.143211 4.48248
-5.07071 0.13897 4.39857
-5.08086 0.138682 4.37865
-5.08825 0.135917 4.32674
-5.0824 0.134617 4.30671
-5.09078 0.132883 4.25679
-5.09497 0.131516 4.23184
-5.09518 0.130101 4.20386
-5.11281 0.126885 4.12103
-5.11102 0.125455 4.09203
-5.11621 0.125103 4.06807
-5.12039 0.123751 4.04412
-5.12358 0.122383 4.01916
-5.12786 0.120838 3.98221
-5.13403 0.120502 3.95926
-5.13841 0.118765 3.90931
-5.1396 0.117381 3.88333
-5.14775 0.116091 3.86341
-5.16186 0.116879 3.84851
-5.15102 0.11456 3.82746
-5.15957 0.112501 3.75554
-5.17368 0.112289 3.74065
-5.1709 0.110857 3.71164
-5.16711 0.10944 3.68363
-5.17635 0.107973 3.65172
-5.18171 0.106281 3.60478
-5.19502 0.104684 3.5639
-5.20045 0.102829 3.50596
-5.21276 0.101231 3.46507
-5.21196 0.0998455 3.43908
-5.20916 0.0984437 3.41207
-5.21829 0.0981986 3.39514
-5.21459 0.0966185 3.35613
-5.2239 0.0950035 3.31422
-5.2382 0.0944364 3.27533
-5.23466 0.091516 3.21334
-5.24181 0.0902399 3.19441
-5.25211 0.0896551 3.15449
-5.26757 0.0877632 3.09363
-5.26467 0.0865687 3.08062
-5.26783 0.08626 3.05965
-5.25804 0.0848235 3.03059
-5.2622 0.0835157 3.00964
-5.27824 0.0784842 2.87182
-5.28936 0.0782554 2.8559
-5.28986 0.0762785 2.78992
-5.31235 0.0743325 2.72511
-5.31268 0.0726813 2.68113
-5.30886 0.0713381 2.65812
-5.3189 0.0722564 2.65218
-5.33234 0.0704074 2.5943
-5.32055 0.0689843 2.56623
-5.33482 0.0674766 2.53136
-5.34087 0.0673773 2.5244
-5.3523 0.0665268 2.46649
-5.34865 0.063858 2.4215
-5.35179 0.0635789 2.40253
-5.34804 0.0620876 2.36951
-5.36713 0.0629237 2.35764
-5.37043 0.0613339 2.31769
-5.3768 0.0596131 2.26875
-5.38293 0.059351 2.2508
-5.36913 0.057956 2.22471
-5.37527 0.057694 2.20676
-5.3814 0.0574319 2.18881
-5.39067 0.0569055 2.15288
-5.38791 0.0554298 2.12088
-5.39022 0.0538393 2.08091
-5.39871 0.0518682 2.015
-5.41382 0.0526718 2.0011
-5.40798 0.0513419 1.97907
-5.40928 0.0497654 1.9401
-5.42653 0.0492893 1.90723
-5.41463 0.0490734 1.89314
-5.41678 0.0477789 1.87318
-5.43133 0.0467233 1.80129
-5.44245 0.0464945 1.78538
-5.44466 0.0450816 1.75741
-5.45023 0.0429603 1.68147
-5.44539 0.0426458 1.66044
-5.45259 0.042266 1.63449
-5.45871 0.0420188 1.61754
-5.45886 0.0407376 1.59856
-5.46499 0.0404756 1.58061
-5.46912 0.0402268 1.56364
-5.46841 0.0396636 1.52564
-5.48145 0.0395843 1.51974
-5.46763 0.0382337 1.49665
-5.47475 0.0379872 1.4797
-5.48088 0.0377399 1.46275
-5.48601 0.0374919 1.44579
-5.48216 0.0371929 1.42576
-5.4833 0.0369124 1.40677
-5.49264 0.0352678 1.36286
-5.49178 0.0349858 1.34386
-5.50004 0.0344735 1.30892
-5.50539 0.0337963 1.26297
-5.51878 0.033036 1.21107
-5.51307 0.0314692 1.17305
-5.52639 0.0308422 1.13015
-5.52653 0.0305758 1.11215
-5.53865 0.0303476 1.09625
-5.54006 0.0295342 1.04126
-5.54412 0.0294187 1.03329
-5.54054 0.027587 0.977284
-5.55266 0.0273589 0.961376
-5.5498 0.0270903 0.943356
-5.55814 0.02643 0.898423
-5.56127 0.0261805 0.881448
-5.5614 0.0259141 0.86345
-5.56254 0.0256484 0.84546
-5.57066 0.0254025 0.828523
-5.59066 0.0234624 0.696684
-5.5878 0.0221791 0.677679
-5.59186 0.0220636 0.66971
-5.60199 0.0228191 0.652773
-5.59513 0.0215329 0.633737
-5.60226 0.0212864 0.616792
-5.59541 0.021 0.597742
-5.60353 0.020769 0.581805
-5.59361 0.0205989 0.570731
-5.60686 0.0201051 0.536833
-5.603 0.0198357 0.518806
-5.62126 0.0193455 0.484946
-5.62439 0.0190813 0.466971
-5.63799 0.0189212 0.388065
-5.62427 0.0173635 0.350979
-5.64345 0.0180071 0.326111
-5.64659 0.0177429 0.308136
-5.65012 0.0156942 0.237183
-5.65632 0.0163136 0.211217
-5.66073 0.0155172 0.157255
-5.66185 0.0152662 0.140265
-5.67312 0.0147562 0.105352
-5.66433 0.0143351 0.0772883
-5.67946 0.0140944 0.0604035
-5.68899 0.0140499 -0.0105338
-5.69212 0.0137856 -0.0285087
-5.68933 0.0123839 -0.0555128
-5.68873 0.0115986 -0.108513
-5.706 0.012078 -0.144395
-5.70207 0.0119419 -0.153424
-5.7122 0.0116827 -0.171346
-4.67118 0.34376 7.37094
-4.68148 0.34219 7.33203
-4.67674 0.339683 7.29803
-4.68404 0.337097 7.25812
-4.69432 0.335556 7.22121
-4.69866 0.332879 7.17528
-4.70597 0.330292 7.13537
-4.71129 0.327659 7.09244
-4.72057 0.325118 7.05554
-4.75758 0.310207 6.79
-4.76109 0.306218 6.72308
-4.76441 0.303599 6.68114
-4.77465 0.302118 6.64823
-4.77994 0.299559 6.61031
-4.78623 0.298001 6.57237
-4.79582 0.293853 6.49449
-4.79598 0.292528 6.47251
-4.80127 0.289969 6.43458
-4.80556 0.28741 6.39665
-4.81282 0.285912 6.36272
-4.82237 0.281823 6.28884
-4.82666 0.279264 6.25091
-4.82484 0.277907 6.22691
-4.83506 0.276485 6.19801
-4.83835 0.274925 6.16005
-4.84658 0.273472 6.12913
-4.84987 0.270912 6.09118
-4.85613 0.269413 6.05725
-4.86352 0.266649 6.00534
-4.86185 0.264011 5.96236
-4.87205 0.262619 5.93545
-4.86443 0.258873 5.88544
-4.86968 0.257374 5.8515
-4.88286 0.256043 5.82862
-4.8782 0.253373 5.78362
-4.89676 0.250291 5.70979
-4.90129 0.246244 5.63887
-4.91347 0.244897 5.61498
-4.91687 0.24213 5.56304
-4.92508 0.240721 5.53512
-4.94045 0.231038 5.35335
-4.96082 0.228328 5.30454
-4.96756 0.223882 5.20665
-4.96808 0.219875 5.1387
-5.17188 0.151839 3.71004
-5.17625 0.150117 3.6611
-5.18061 0.147409 3.61316
-5.18923 0.144201 3.53126
-5.19539 0.143895 3.51031
-5.19856 0.142572 3.48835
-5.20372 0.142264 3.46739
-5.35865 0.0978326 2.28405
-5.37093 0.0973085 2.24815
-5.37024 0.0957009 2.20716
-5.38887 0.0934708 2.12332
-5.38403 0.0921416 2.1013
-5.39814 0.0919445 2.08741
-5.39652 0.0901882 2.03642
-5.40196 0.0883335 1.97848
-5.40625 0.086774 1.94053
-5.40632 0.086626 1.93053
-5.43594 0.0804789 1.71681
-5.45805 0.0773184 1.57001
-5.47501 0.0734355 1.44218
-5.48876 0.0719795 1.34329
-5.49937 0.0697879 1.26239
-5.51638 0.0668014 1.12754
-4.69945 0.381229 7.19857
-4.74415 0.358977 6.84219
-4.80733 0.333806 6.42298
-4.86345 0.308733 6.01072
-4.86787 0.305907 5.95478
-4.87639 0.301907 5.8869
-4.92414 0.280553 5.52352
-4.93036 0.279129 5.49459
-4.93162 0.277611 5.45961
-4.94181 0.276249 5.43471
-4.96112 0.266687 5.26097
-4.9703 0.265338 5.23706
-4.96983 0.261302 5.1671
-4.982 0.259985 5.14521
-4.97345 0.256091 5.0852
-4.98957 0.25588 5.07032
-4.98809 0.251858 5.00136
-5.00123 0.251586 4.98246
-5.0016 0.247861 4.93351
-5.00308 0.244929 4.87055
-5.01746 0.2422 4.8207
-5.01992 0.238284 4.75876
-5.02524 0.236666 4.71682
-5.0406 0.233981 4.66997
-5.05175 0.233693 4.65006
-5.04304 0.231109 4.61102
-5.05972 0.226789 4.5212
-5.09019 0.216939 4.32755
-5.09956 0.215206 4.27764
-5.1241 0.204204 4.07396
-5.12253 0.201359 4.01698
-5.12373 0.199975 3.99101
-5.13805 0.198363 3.94913
-5.14452 0.19545 3.88722
-5.15207 0.19136 3.81332
-5.15724 0.191038 3.79136
-5.15744 0.189654 3.76538
-5.15763 0.188269 3.7394
-5.16687 0.186802 3.70749
-5.17204 0.18648 3.68553
-5.17441 0.183756 3.63658
-5.17669 0.18221 3.59962
-5.18938 0.177872 3.50876
-5.20666 0.176337 3.47191
-5.20495 0.174758 3.43292
-5.2083 0.17208 3.38697
-5.23688 0.164006 3.17828
-5.24428 0.161212 3.12437
-5.26981 0.153225 2.92165
-5.30476 0.1494 2.79696
-5.30708 0.146765 2.75401
-5.30052 0.143902 2.69599
-5.31181 0.143347 2.65808
-5.33329 0.141415 2.59426
-5.33178 0.138452 2.52928
-5.3321 0.136815 2.4863
-5.33724 0.136553 2.46834
-5.34131 0.136422 2.45938
-5.34445 0.135143 2.44042
-5.3476 0.134849 2.42044
-5.34577 0.133522 2.39844
-5.34493 0.133211 2.37744
-5.35206 0.13195 2.35951
-5.35421 0.13167 2.34053
-5.3513 0.13149 2.32851
-5.36671 0.129687 2.27364
-5.36587 0.128375 2.25265
-5.38112 0.127883 2.21877
-5.36925 0.126638 2.2027
-5.37139 0.126358 2.18371
-5.37753 0.126096 2.16576
-5.37768 0.1248 2.14578
-5.38182 0.124521 2.12681
-5.38396 0.124242 2.10783
-5.39507 0.124028 2.09291
-5.39316 0.123863 2.0819
-5.39645 0.122288 2.04294
-5.3966 0.120992 2.02296
-5.40174 0.12073 2.005
-5.41285 0.120516 1.99009
-5.40503 0.119169 1.96704
-5.40917 0.118891 1.94808
-5.41223 0.118775 1.9401
-5.41936 0.118528 1.92316
-5.41667 0.116919 1.88215
-5.4208 0.116656 1.86419
-5.42593 0.116408 1.84723
-5.42708 0.115113 1.82725
-5.42316 0.114947 1.81622
-5.43528 0.114734 1.80131
-5.43741 0.114469 1.78333
-5.42959 0.113122 1.76029
-5.4417 0.112909 1.74538
-5.43886 0.112596 1.72436
-5.44499 0.112349 1.70741
-5.44206 0.111199 1.6974
-5.4442 0.110919 1.67842
-5.45432 0.110689 1.6625
-5.44963 0.109094 1.62248
-5.45789 0.108581 1.58755
-5.46395 0.108467 1.57959
-5.46609 0.108202 1.56161
-5.47421 0.107957 1.54467
-5.47934 0.107709 1.52771
-5.4745 0.106394 1.50669
-5.47764 0.10613 1.48872
-5.48376 0.105883 1.47177
-5.48383 0.105749 1.46277
-5.49196 0.105504 1.44583
-5.49224 0.104956 1.40883
-5.5015 0.104444 1.37391
-5.49773 0.102997 1.3439
-5.49686 0.10273 1.32589
-5.50399 0.102484 1.30895
-5.51112 0.102237 1.292
-5.51226 0.101972 1.27401
-5.51639 0.101708 1.25604
-5.51753 0.100442 1.23807
-5.51061 0.100274 1.22702
-5.52799 0.0995319 1.17615
-5.52842 0.0977031 1.12017
-5.53048 0.0975713 1.11119
-5.53461 0.0973226 1.09422
-5.53076 0.0970384 1.0752
-5.53589 0.0967756 1.05724
-5.54615 0.0962796 1.02332
-5.55128 0.0960316 1.00636
-5.55141 0.0957652 0.988358
-5.54649 0.0945988 0.977337
-5.54563 0.0943316 0.959332
-5.55974 0.0941198 0.944439
-4.67726 0.443517 7.21848
-4.68358 0.440885 7.17557
-4.69405 0.436975 7.11369
-4.7037 0.430709 7.02785
-4.76917 0.399963 6.56973
-4.78521 0.390947 6.43297
-4.79247 0.389448 6.39904
-4.80204 0.38433 6.32318
-4.82328 0.373918 6.15947
-4.82955 0.371405 6.12455
-4.83678 0.369951 6.09362
-4.86224 0.357113 5.90098
-4.86749 0.355628 5.86803
-4.8719 0.351832 5.81411
-4.88111 0.350424 5.7862
-4.88438 0.347894 5.75026
-4.88566 0.345347 5.7133
-4.89288 0.343923 5.68437
-4.89203 0.342626 5.66438
-4.90152 0.338671 5.5995
-4.90973 0.337262 5.57158
-4.91695 0.334838 5.54267
-4.92219 0.333383 5.51172
-4.93039 0.33199 5.4848
-4.93364 0.329503 5.45186
-4.92981 0.328175 5.42985
-4.93108 0.325643 5.39389
-4.93928 0.324264 5.36797
-4.94847 0.322886 5.34205
-4.94874 0.321368 5.30707
-4.95792 0.320005 5.28216
-4.96117 0.317533 5.25022
-4.95436 0.316158 5.22518
-4.97246 0.315964 5.21132
-4.9747 0.313492 5.17937
-4.97497 0.310974 5.1444
-4.98143 0.308076 5.08349
-4.98776 0.305429 5.03957
-4.99496 0.304049 5.01364
-4.9972 0.301577 4.98169
-5.00463 0.298739 4.92478
-5.0158 0.297422 4.90288
-5.01418 0.294665 4.8519
-5.02037 0.2933 4.82696
-5.02284 0.289384 4.76503
-5.02704 0.287987 4.73808
-5.03225 0.286591 4.71114
-5.02752 0.284055 4.67513
-5.0326 0.282911 4.66519
-5.0368 0.281514 4.63824
-5.04223 0.278674 4.58131
-5.04841 0.277323 4.55737
-5.0588 0.274561 4.50549
-5.06234 0.270513 4.43456
-5.0715 0.269208 4.41365
-5.08905 0.26614 4.34082
-5.0886 0.26106 4.26788
-5.10415 0.258005 4.19603
-5.10138 0.255544 4.16504
-5.10149 0.255337 4.15104
-5.10468 0.253954 4.12508
-5.12977 0.246841 3.98136
-5.13008 0.244234 3.94039
-5.13625 0.242913 3.91846
-5.15444 0.234587 3.76069
-5.16955 0.235376 3.7458
-5.16279 0.232912 3.71478
-5.16398 0.231543 3.6898
-5.17013 0.230237 3.66886
-5.1746 0.227322 3.60693
-5.19605 0.225464 3.54811
-5.19127 0.223017 3.51811
-5.19671 0.220162 3.46019
-5.20821 0.217193 3.39431
-5.21898 0.212691 3.29244
-5.22513 0.212399 3.27249
-5.22531 0.211044 3.24851
-5.23146 0.209752 3.22857
-5.24438 0.203971 3.10774
-5.25378 0.202193 3.05483
-5.26983 0.196146 2.91602
-5.2831 0.194608 2.87913
-5.33543 0.177117 2.43873
-5.35093 0.175151 2.37286
-5.35324 0.173546 2.3319
-5.36336 0.173317 2.31598
-5.36168 0.170694 2.274
-5.36175 0.170546 2.264
-5.36291 0.170235 2.24301
-5.3672 0.168676 2.20506
-5.38345 0.168184 2.17118
-5.37664 0.166824 2.14715
-5.39495 0.166215 2.10529
-5.39242 0.163296 2.04331
-5.39678 0.161588 1.99536
-5.41518 0.159817 1.94252
-5.41832 0.159553 1.92454
-5.41947 0.159257 1.90455
-5.41563 0.157944 1.88354
-5.41271 0.157779 1.87252
-5.42881 0.157598 1.85964
-5.42497 0.156269 1.83763
-5.42212 0.155971 1.81761
-5.43224 0.155742 1.80168
-5.43339 0.155461 1.78269
-5.43553 0.154181 1.76373
-5.44772 0.15382 1.73882
-5.4349 0.152456 1.71474
-5.44103 0.152208 1.69779
-5.44716 0.151961 1.68084
-5.4503 0.151682 1.66186
-5.44844 0.150399 1.64286
-5.4535 0.150285 1.6349
-5.45365 0.150003 1.61591
-5.4669 0.149509 1.58201
-5.46206 0.148195 1.56099
-5.46719 0.147947 1.54403
-5.47332 0.147685 1.52608
-5.47254 0.14727 1.49807
-5.46869 0.145956 1.47706
-5.47582 0.145724 1.46111
-5.48294 0.145478 1.44417
-5.48309 0.145197 1.42517
-5.48929 0.144801 1.39822
-5.49043 0.143536 1.38025
-5.48558 0.143236 1.36021
-5.49897 0.142476 1.30832
-5.51009 0.142247 1.2924
-5.50431 0.140799 1.26237
-5.50844 0.14055 1.24541
-5.51471 0.140021 1.20946
-5.51186 0.138738 1.19045
-5.51599 0.138474 1.17248
-5.51713 0.138209 1.15449
-5.5172 0.138076 1.1455
-5.52532 0.13783 1.12856
-5.52745 0.13758 1.11158
-5.53059 0.137315 1.0936
-5.53272 0.13705 1.07562
-5.54085 0.136804 1.05868
-5.52801 0.135484 1.0376
-5.53706 0.135387 1.03067
-5.54519 0.135141 1.01373
-5.54333 0.134873 0.995719
-5.54147 0.134591 0.976707
-5.55772 0.134114 0.943832
-5.55486 0.133831 0.924812
-5.55094 0.13268 0.914798
-5.55107 0.132413 0.8968
-5.55521 0.13215 0.878833
-5.56546 0.131654 0.844913
-5.55761 0.131352 0.824855
-5.5708 0.130991 0.799957
-5.56994 0.130724 0.781952
-5.5772 0.130211 0.747009
-5.57434 0.128943 0.729004
-5.57747 0.128678 0.711029
-5.58859 0.129449 0.695099
-5.58374 0.128165 0.676079
-5.58281 0.128031 0.667073
-5.58793 0.127783 0.650113
-5.59107 0.127518 0.632138
-5.5872 0.127249 0.61411
-5.59234 0.126986 0.59615
-5.59148 0.126719 0.578145
-5.60866 0.127376 0.554261
-5.61306 0.12658 0.500299
-5.6112 0.125312 0.482301
-5.61946 0.125799 0.447351
-5.61353 0.124662 0.438322
-5.63065 0.125437 0.422438
-5.62792 0.124902 0.38642
-5.62006 0.123615 0.367377
-5.62919 0.12337 0.350447
-5.63532 0.124123 0.33348
-5.63639 0.12399 0.324489
-5.62853 0.122703 0.305446
-5.63579 0.12219 0.270503
-5.64592 0.122946 0.253566
-5.65719 0.122436 0.218654
-5.64226 0.121277 0.208557
-5.66452 0.12279 0.174698
-5.65779 0.121252 0.138665
-5.66892 0.122008 0.121735
-5.66405 0.120738 0.103715
-5.66925 0.121342 0.0767414
-5.66753 0.119808 0.0407461
-5.67665 0.120562 0.0238014
-5.68299 0.119901 -0.0211473
-5.68212 0.119648 -0.0381525
-5.69339 0.120123 -0.0740796
-5.69153 0.118855 -0.0920773
-5.70279 0.119345 -0.127005
-5.69393 0.118072 -0.145055
-5.69799 0.118942 -0.154038
-4.68091 0.549071 7.25495
-4.71113 0.53671 7.09434
-4.76361 0.50194 6.63519
-4.77518 0.495823 6.55936
-4.78739 0.494418 6.53147
-4.79682 0.490596 6.47559
-4.79913 0.486991 6.43465
-4.80244 0.484386 6.39371
-4.80771 0.481857 6.35778
-4.81694 0.479405 6.32688
-4.82222 0.476876 6.29095
-4.82766 0.472007 6.23206
-4.83194 0.469462 6.19512
-4.84248 0.464419 6.12427
-4.83884 0.460721 6.07729
-4.85103 0.459359 6.0524
-4.8604 0.455641 6.00352
-4.86566 0.453127 5.96859
-4.86299 0.449488 5.92562
-4.87517 0.449127 5.90071
-4.87746 0.445581 5.86378
-4.88839 0.436754 5.73997
-4.89265 0.434253 5.70604
-4.90185 0.43286 5.67912
-4.90907 0.431436 5.65019
-4.90936 0.427874 5.61224
-4.91659 0.426435 5.58231
-4.91672 0.425169 5.56433
-4.92097 0.422698 5.5324
-4.93441 0.418835 5.47355
-4.93765 0.416364 5.4416
-4.94031 0.410078 5.3547
-4.95149 0.408745 5.3318
-4.95275 0.406228 5.29685
-4.95797 0.404803 5.2679
-4.96716 0.403439 5.24299
-4.9704 0.400968 5.21105
-4.97303 0.394742 5.12815
-4.97329 0.392238 5.09418
-5.00108 0.386704 4.98946
-5.00244 0.382995 4.94152
-5.01187 0.379173 4.88564
-5.03724 0.367497 4.70397
-5.08886 0.346398 4.35763
-5.11213 0.336943 4.19092
-5.22116 0.292194 3.39329
-5.23809 0.285401 3.27151
-5.25392 0.280784 3.16168
-5.25617 0.278297 3.12873
-5.26032 0.277989 3.10776
-5.26665 0.275357 3.06484
-5.27405 0.272578 3.01193
-5.2984 0.264945 2.8332
-5.30471 0.262343 2.79228
-5.30388 0.261002 2.76929
-5.29832 0.258139 2.71129
-5.32073 0.256356 2.65747
-5.31325 0.252329 2.58847
-5.32345 0.251937 2.56155
-5.32378 0.249301 2.51858
-5.33406 0.24776 2.48168
-5.33629 0.247303 2.4507
-5.35087 0.244173 2.37384
-5.34919 0.24155 2.33186
-5.35839 0.241157 2.30493
-5.36568 0.2396 2.26701
-5.36699 0.237994 2.22603
-5.36922 0.236552 2.19607
-5.3775 0.23501 2.15915
-5.38976 0.2345 2.12424
-5.40425 0.232549 2.05937
-5.39857 0.229923 2.01736
-5.41382 0.22943 1.98348
-5.41505 0.227987 1.95351
-5.42133 0.227444 1.91656
-5.41265 0.224801 1.87352
-5.42577 0.224588 1.85862
-5.42989 0.22434 1.84166
-5.42598 0.224159 1.82963
-5.43525 0.222648 1.79472
-5.44253 0.222105 1.75777
-5.4379 0.219362 1.70777
-5.44119 0.217801 1.66982
-5.46042 0.218356 1.63895
-5.45359 0.217026 1.61691
-5.46172 0.21678 1.59998
-5.46385 0.216515 1.58199
-5.45894 0.215348 1.57097
-5.46307 0.215085 1.553
-5.4692 0.214838 1.53605
-5.46735 0.21354 1.51605
-5.47248 0.213292 1.49909
-5.47762 0.213029 1.48113
-5.47576 0.212747 1.46212
-5.47483 0.211598 1.45213
-5.48795 0.212385 1.43722
-5.47811 0.211053 1.41516
-5.49522 0.211858 1.40127
-5.49635 0.210592 1.3833
-5.48452 0.209258 1.36123
-5.49763 0.209045 1.34633
-5.49771 0.208897 1.33633
-5.49286 0.207597 1.31631
-5.50397 0.208383 1.30138
-5.50512 0.208103 1.28239
-5.50027 0.206803 1.26237
-5.51537 0.207607 1.24847
-5.50261 0.205124 1.2164
-5.50973 0.204892 1.20046
-5.50988 0.204611 1.18146
-5.51501 0.204363 1.1645
-5.52713 0.204135 1.14859
-5.52925 0.203885 1.13161
-5.5244 0.203585 1.11158
-5.53459 0.203222 1.08665
-5.53587 0.201675 1.04968
-5.53801 0.20141 1.0317
-5.53216 0.20011 1.01167
-5.53829 0.199863 0.994719
-5.54041 0.199613 0.977736
-5.54049 0.199464 0.967738
-5.54462 0.199216 0.95077
-5.54375 0.198949 0.932765
-5.55601 0.198454 0.89886
-5.55315 0.198171 0.87984
-5.55928 0.197923 0.862888
-5.56634 0.19781 0.854942
-5.56248 0.197526 0.835914
-5.56761 0.197278 0.818954
-5.56176 0.195992 0.799926
-5.57288 0.196763 0.783996
-5.57002 0.19548 0.764991
-5.57721 0.1951 0.739048
-5.57635 0.194833 0.721043
-5.58348 0.194587 0.704098
-5.57462 0.193299 0.685047
-5.57776 0.193035 0.667072
-5.58688 0.193789 0.650128
-5.59301 0.193557 0.634175
-5.58509 0.192388 0.623131
-5.58922 0.19214 0.606163
-5.59834 0.192894 0.589219
-5.59548 0.191626 0.571213
-5.60161 0.192379 0.554246
-5.60274 0.192113 0.536256
-5.60687 0.191864 0.519289
-5.60701 0.191598 0.501291
-5.61507 0.191485 0.493352
-5.60522 0.190182 0.473295
-5.61547 0.190686 0.43936
-5.6236 0.19044 0.422422
-5.61974 0.190171 0.404395
-5.62281 0.19004 0.395419
-5.62693 0.189791 0.378451
-5.63107 0.189527 0.360484
-5.62521 0.188257 0.342456
-5.62734 0.187992 0.324473
-5.63547 0.188746 0.307521
-5.6346 0.188478 0.289516
-5.6398 0.188097 0.263557
-5.64293 0.187833 0.245582
-5.65306 0.188589 0.228645
-5.6462 0.187317 0.21061
-5.65233 0.187055 0.192657
-5.65147 0.186788 0.174652
-5.6506 0.186521 0.156647
-5.64967 0.186387 0.147641
-5.6628 0.187144 0.130726
-5.66194 0.186877 0.112721
-5.66506 0.186628 0.0957461
-5.6722 0.186366 0.0778012
-5.67133 0.186099 0.0597961
-5.67047 0.185832 0.0417911
-5.67553 0.185717 0.0338298
-5.67267 0.185449 0.0158097
-5.6748 0.185184 -0.00217274
-5.67994 0.185921 -0.0201474
-5.6812 0.185403 -0.0551351
-5.68234 0.185138 -0.0731251
-5.6884 0.185009 -0.0820787
-5.69354 0.184746 -0.100039
-5.69367 0.18448 -0.118036
-5.6998 0.185232 -0.135003
-5.70494 0.184969 -0.152963
-5.69307 0.183694 -0.171036
-5.70121 0.184434 -0.188988
-5.70534 0.18417 -0.206956
-5.70941 0.18404 -0.215925
-4.66309 0.608592 7.35795
-4.66843 0.60493 7.31304
-4.6797 0.602405 7.27716
-4.67891 0.600005 7.25019
-4.68621 0.596418 7.21029
-4.69154 0.592771 7.16638
-4.69588 0.589108 7.12146
-4.70121 0.585476 7.07854
-4.71246 0.582995 7.04566
-4.76552 0.551039 6.64148
-4.76784 0.54742 6.59954
-4.77709 0.544938 6.56665
-4.77942 0.541303 6.52371
-4.78767 0.538821 6.49081
-4.79312 0.533937 6.43091
-4.80039 0.531424 6.396
-4.80368 0.528849 6.35706
-4.80301 0.525197 6.3131
-4.8162 0.523837 6.28821
-4.81158 0.519093 6.23824
-4.83285 0.516576 6.20244
-4.82623 0.512831 6.15243
-4.82951 0.509286 6.11551
-4.84766 0.509018 6.09664
-4.84697 0.505396 6.05469
-4.85421 0.502942 6.02377
-4.84744 0.500493 5.99375
-4.85566 0.49807 5.96485
-4.85794 0.495524 5.9279
-4.87409 0.49424 5.90804
-4.86844 0.49054 5.86104
-4.87666 0.488117 5.83214
-4.88686 0.486739 5.80623
-4.88404 0.485382 5.78222
-4.88334 0.481789 5.74227
-4.89155 0.479396 5.71536
-4.8968 0.477911 5.68242
-4.905 0.475517 5.65551
-4.90826 0.473017 5.62157
-4.9135 0.470547 5.58964
-4.90472 0.468111 5.56061
-4.9159 0.466764 5.53671
-4.91221 0.463154 5.49573
-4.92636 0.462869 5.47583
-4.9398 0.45802 5.418
-4.9361 0.45544 5.379
-4.94417 0.455298 5.36907
-4.94444 0.45178 5.33412
-4.94966 0.450355 5.30517
-4.95388 0.447914 5.27524
-4.96109 0.446504 5.24731
-4.95838 0.442955 5.21033
-4.97252 0.442684 5.19144
-4.96968 0.440371 5.17045
-4.96597 0.437806 5.13246
-4.97515 0.436457 5.10854
-4.98037 0.434032 5.07961
-4.98459 0.432605 5.05066
-4.99277 0.431256 5.02674
-4.99501 0.428784 4.99479
-4.99426 0.426295 4.96182
-4.9914 0.424012 4.94283
-5.00951 0.423818 4.92896
-5.0038 0.421236 4.88995
-5.00924 0.416382 4.83206
-5.01445 0.414986 4.80511
-5.01358 0.413734 4.78812
-5.02671 0.413477 4.77022
-5.03192 0.411066 4.7423
-5.0262 0.408529 4.70628
-5.03934 0.407257 4.6874
-5.03881 0.403339 4.62545
-5.04698 0.402005 4.60252
-5.04313 0.399721 4.58353
-5.05924 0.40051 4.56863
-5.05053 0.396927 4.52961
-5.05992 0.393179 4.47873
-5.0693 0.390431 4.42784
-5.06346 0.38813 4.40783
-5.07261 0.387826 4.3869
-5.06986 0.38535 4.35491
-5.081 0.384077 4.33601
-5.09214 0.383819 4.31809
-5.08739 0.381312 4.28409
-5.09357 0.379961 4.26015
-5.09169 0.378738 4.24516
-5.08892 0.376277 4.21417
-5.10602 0.376097 4.2013
-5.10325 0.373636 4.17031
-5.11638 0.373394 4.15341
-5.11759 0.371995 4.12643
-5.11294 0.368311 4.08045
-5.12209 0.367022 4.06053
-5.12924 0.365716 4.0396
-5.14199 0.36026 3.94077
-5.13712 0.359005 3.92375
-5.14726 0.357745 3.90584
-5.14468 0.353915 3.84987
-5.15085 0.352594 3.82793
-5.15502 0.351256 3.80498
-5.16426 0.349789 3.77307
-5.17042 0.349483 3.75211
-5.17062 0.347098 3.72615
-5.17697 0.344407 3.67923
-5.18134 0.341699 3.63129
-5.18162 0.339137 3.59333
-5.18281 0.337783 3.56935
-5.19493 0.33754 3.55245
-5.19511 0.336185 3.52847
-5.20127 0.334878 3.50753
-5.20771 0.332024 3.44961
-5.21206 0.329347 3.40368
-5.21224 0.326991 3.37971
-5.21541 0.326653 3.35674
-5.21659 0.324314 3.33378
-5.22183 0.322844 3.30183
-5.225 0.32152 3.27987
-5.23812 0.322293 3.26396
-5.2363 0.319922 3.23898
-5.23847 0.318598 3.21701
-5.23467 0.31721 3.191
-5.24082 0.315918 3.17106
-5.25086 0.316851 3.16612
-5.24307 0.314431 3.13809
-5.24723 0.313124 3.11714
-5.25138 0.312816 3.09618
-5.25074 0.30912 3.04922
-5.26285 0.309906 3.0343
-5.26494 0.308745 3.02333
-5.27009 0.308452 3.00337
-5.27523 0.307175 2.98442
-5.27341 0.305818 2.96043
-5.27359 0.304478 2.93744
-5.28189 0.302892 2.89752
-5.2911 0.301484 2.86961
-5.29227 0.300159 2.84764
-5.28845 0.298786 2.82262
-5.28961 0.297476 2.80165
-5.2999 0.295921 2.76375
-5.30413 0.294465 2.73279
-5.3053 0.293141 2.71082
-5.31244 0.292879 2.69287
-5.30762 0.29152 2.66886
-5.32288 0.291013 2.63397
-5.31915 0.288492 2.59898
-5.31731 0.287165 2.57698
-5.33341 0.286985 2.5641
-5.32461 0.285593 2.53805
-5.33704 0.282744 2.48018
-5.3431 0.283644 2.47321
-5.34824 0.282367 2.45427
-5.34556 0.279728 2.41128
-5.35768 0.2805 2.39536
-5.35585 0.279173 2.37336
