-0.104499 1.7317 4.85186
-0.136459 1.7338 4.85707
-0.168574 1.7286 4.84239
-0.19355 1.72966 4.84556
-0.225588 1.72861 4.84082
-0.242494 1.7338 4.85287
-0.258501 1.7338 4.85199
-0.289632 1.72757 4.83532
-0.3146 1.72965 4.83948
-0.330607 1.72965 4.8386
-0.346668 1.72754 4.83075
-0.378674 1.72755 4.82999
-0.394728 1.72546 4.82314
-0.403657 1.72959 4.83215
-0.419641 1.73064 4.83425
-0.433873 1.7202 4.80451
-0.451694 1.72956 4.82751
-0.467686 1.72958 4.82863
-0.483747 1.72748 4.82078
-0.498831 1.72432 4.80994
-0.507776 1.72743 4.81696
-0.522845 1.72431 4.80812
-0.539805 1.7274 4.8132
-0.55489 1.72325 4.80238
-0.569029 1.71699 4.78457
-0.586927 1.7232 4.79762
-0.602957 1.72215 4.79375
-0.609995 1.72108 4.78882
-0.627909 1.72526 4.7999
-0.64204 1.72001 4.78308
-0.660853 1.72938 4.80708
-0.675953 1.7252 4.79426
-0.692929 1.72726 4.79736
-0.705153 1.71784 4.76858
-0.715012 1.72511 4.78655
-0.728221 1.71572 4.75979
-0.747081 1.723 4.77782
-0.760242 1.7167 4.75701
-0.780071 1.72504 4.77904
-0.795101 1.72499 4.77516
-0.809208 1.7208 4.76132
-0.818176 1.72286 4.76536
-0.832284 1.71866 4.75153
-0.848322 1.7176 4.74666
-0.863367 1.71652 4.74079
-0.880359 1.71755 4.7419
-0.89635 1.71858 4.74301
-0.913348 1.72059 4.74311
-0.919402 1.71849 4.73618
-0.934479 1.71535 4.72634
-0.95433 1.72365 4.74537
-0.964585 1.71217 4.71261
-0.981545 1.71526 4.7177
-1.00239 1.72457 4.73772
-1.0107 1.70998 4.69799
-1.02161 1.71515 4.709
-1.03955 1.71928 4.71707
-1.05073 1.71094 4.69328
-1.06676 1.7109 4.6904
-1.08661 1.7202 4.70941
-1.09781 1.71082 4.68363
-1.11286 1.70973 4.67676
-1.12377 1.7149 4.68777
-1.13493 1.70861 4.66794
-1.15387 1.71273 4.67503
-1.16986 1.71477 4.67712
-1.18299 1.70953 4.66029
-1.19996 1.71258 4.66337
-1.21695 1.71463 4.66547
-1.224 1.71253 4.65856
-1.23904 1.71145 4.65268
-1.25699 1.71557 4.65976
-1.26817 1.70824 4.63695
-1.2832 1.70819 4.63306
-1.30214 1.7133 4.64013
-1.31718 1.71223 4.63426
-1.32032 1.70596 4.61637
-1.3451 1.71839 4.64438
-1.35528 1.71106 4.62156
-1.36448 1.70268 4.59575
-1.38634 1.71097 4.6138
-1.40236 1.71193 4.6109
-1.41838 1.7129 4.60801
-1.42638 1.71291 4.60807
-1.44046 1.71077 4.5982
-1.45647 1.71276 4.59729
-1.46957 1.70857 4.58345
-1.48753 1.71267 4.58953
-1.50259 1.71156 4.58166
-1.51861 1.71253 4.57876
-1.52759 1.71456 4.5808
-1.53971 1.70935 4.56597
-1.55963 1.7155 4.57503
-1.57076 1.71127 4.55917
-1.59068 1.71643 4.56925
-1.60379 1.71324 4.55539
-1.62078 1.71525 4.55549
-1.62585 1.71313 4.54756
-1.63991 1.71201 4.53868
-1.65691 1.71402 4.53878
-1.67295 1.71396 4.5339
-1.69913 1.70862 4.51017
-1.71513 1.71064 4.51026
-1.71925 1.70542 4.49537
-1.73623 1.70846 4.49745
-1.75616 1.71359 4.50553
-1.7964 1.70816 4.47491
-1.81538 1.71122 4.47801
-1.88258 1.71087 4.45151
-1.97788 1.71033 4.41123
-2.04313 1.70789 4.37876
4.66045 1.73203 2.16859
4.66963 1.73936 2.19142
4.64381 1.73574 2.21567
4.62982 1.73178 2.21783
4.62695 1.73403 2.23482
4.62508 1.7363 2.25281
4.62121 1.73856 2.2698
4.6073 1.73673 2.28094
4.60443 1.73898 2.29793
4.59453 1.7382 2.31202
4.5936 1.73933 2.32101
4.60078 1.74567 2.34386
4.59188 1.74588 2.35793
4.57194 1.74201 2.36614
4.56405 1.74223 2.3802
4.55817 1.74347 2.39622
4.55932 1.74776 2.41615
4.55739 1.7489 2.42515
4.54246 1.74606 2.43531
4.5396 1.74932 2.45328
4.53875 1.75261 2.47225
4.51779 1.74771 2.47848
4.51693 1.75099 2.49744
4.50001 1.74815 2.50761
4.50008 1.7503 2.51758
4.4942 1.75154 2.53361
4.47541 1.75096 2.56076
4.4536 1.75036 2.58694
4.44973 1.75261 2.60393
4.44177 1.75169 2.60901
4.43588 1.75292 2.62404
4.41694 1.74905 2.63224
4.40906 1.75028 2.64728
4.38307 1.74233 2.6496
4.38624 1.74865 2.67148
4.37835 1.74888 2.68654
4.38144 1.75305 2.69846
4.36753 1.75123 2.70959
4.34672 1.75063 2.73576
4.33094 1.75207 2.76486
4.30403 1.74726 2.77714
4.3062 1.75259 2.79904
4.30133 1.75484 2.81605
4.2864 1.753 2.82619
4.27549 1.75319 2.83827
4.20125 1.75474 2.93982
3.87501 1.75638 3.30731
3.21517 1.75301 3.8624
3.20831 1.75729 3.88139
3.16428 1.74627 3.87789
3.15438 1.74848 3.89193
3.14237 1.74546 3.89007
3.13147 1.74666 3.90313
3.11855 1.74783 3.91421
3.08743 1.73663 3.89961
3.08562 1.74401 3.92452
3.0727 1.74416 3.93462
3.05067 1.73914 3.93186
3.05989 1.74954 3.95964
3.02797 1.74573 3.97094
3.00797 1.74174 3.97115
2.99303 1.74187 3.97926
2.98314 1.74409 3.9933
2.97123 1.74527 4.00537
2.96425 1.74432 4.00844
2.9483 1.74342 4.01458
2.93437 1.74357 4.02368
2.91943 1.7427 4.03181
2.91864 1.75111 4.05969
2.89155 1.74295 4.04802
2.88572 1.74828 4.06998
2.87772 1.7473 4.07106
2.86581 1.74849 4.08313
2.84784 1.74555 4.08631
2.83694 1.74776 4.10036
2.81896 1.74581 4.10253
2.80806 1.74801 4.11558
2.79312 1.74714 4.12371
2.79829 1.75547 4.14655
2.77322 1.74836 4.13784
2.7603 1.74851 4.14794
2.74231 1.74656 4.1501
2.73142 1.74877 4.16415
2.71647 1.74789 4.17128
2.69658 1.74911 4.18541
2.68873 1.75341 4.20541
2.67175 1.75147 4.20857
2.65883 1.75262 4.21865
2.64389 1.75275 4.22676
2.62894 1.75187 4.23389
2.61907 1.75611 4.2499
2.60906 1.75411 4.24901
2.5523 1.75462 4.28143
2.51735 1.75074 4.28775
2.40079 1.75069 4.34764
2.34507 1.75427 4.38401
2.32214 1.75343 4.3942
2.27729 1.75275 4.41355
2.26336 1.75389 4.42264
2.22548 1.75315 4.43894
2.19457 1.75335 4.45117
2.17861 1.75244 4.4563
0.131649 1.73783 4.87
0.0213168 1.7203 4.69506
0.0134488 1.72656 4.71203
-0.00254263 1.72759 4.71314
-0.0176897 1.72032 4.69436
-0.0337438 1.71722 4.68752
-0.0497584 1.71721 4.68564
-0.065704 1.71932 4.69273
-0.0736178 1.72449 4.70372
-0.0887108 1.71932 4.69191
-0.104757 1.71725 4.68606
-0.119818 1.71514 4.6782
-0.135763 1.71725 4.68529
-0.150794 1.71621 4.68142
-0.16677 1.71726 4.68452
-0.174715 1.72037 4.69154
-0.190808 1.71621 4.67972
-0.205799 1.71723 4.68082
-0.220892 1.71306 4.66899
-0.237821 1.71621 4.67807
-0.252875 1.71412 4.67122
-0.26882 1.71723 4.67829
-0.291935 1.71203 4.66354
-0.338887 1.71515 4.66985
-0.354878 1.71618 4.67096
-0.39297 1.71303 4.65929
-0.423976 1.71303 4.65852
-0.440022 1.71196 4.65266
-0.455075 1.70987 4.6458
-0.525095 1.71087 4.64331
-0.771421 1.7074 4.60121
-0.984763 1.70487 4.55685
-1.02284 1.70375 4.54715
-1.44469 1.70136 4.43535
-1.49191 1.69596 4.40678
-1.50794 1.69593 4.40391
-1.52197 1.69587 4.39901
-1.53702 1.69579 4.39312
-1.59011 1.69764 4.3805
-1.60319 1.6955 4.37062
-1.62213 1.70061 4.37769
-1.63324 1.69641 4.36384
-1.6522 1.7005 4.36892
-1.66526 1.69939 4.36103
-1.66838 1.69417 4.34613
-1.68635 1.69823 4.34921
-1.69942 1.69611 4.34034
-1.71347 1.69501 4.33346
-1.72556 1.69286 4.32258
-1.76151 1.69997 4.32875
-1.77358 1.69784 4.31887
-1.78258 1.69984 4.3189
-1.79369 1.69564 4.30505
-1.81265 1.69972 4.30913
-1.82179 1.69446 4.29128
-1.83388 1.6923 4.2804
-1.85187 1.69533 4.28149
-1.8659 1.69527 4.27659
-1.87097 1.69314 4.26766
-1.88796 1.69616 4.26875
-1.90103 1.69404 4.25987
-1.91705 1.69601 4.25697
-1.92914 1.69385 4.24609
-1.94908 1.69897 4.25316
-1.96722 1.69572 4.23535
-1.97832 1.69253 4.22247
-1.99236 1.69246 4.21658
-2.01526 1.70065 4.22863
-2.02439 1.69642 4.21276
-2.03846 1.6953 4.20388
-2.04954 1.69314 4.193
-2.05559 1.69104 4.18607
-2.07455 1.69613 4.19114
-2.0886 1.69605 4.18525
-2.09774 1.69078 4.16639
-2.11276 1.69274 4.16348
-2.12486 1.69057 4.1516
-2.13989 1.69051 4.14671
-2.15085 1.69459 4.15173
-2.16589 1.69553 4.14683
-2.17698 1.69236 4.13496
-2.19005 1.69224 4.12606
-2.20311 1.69113 4.11817
-2.227 1.69934 4.13123
-2.23318 1.693 4.10837
-2.24908 1.70021 4.12139
-2.25819 1.69699 4.1065
-2.2693 1.69379 4.09263
-2.28531 1.69577 4.09072
-2.30726 1.70189 4.0978
-2.30357 1.6873 4.05798
-2.32648 1.69548 4.06903
-2.32661 1.68923 4.05212
-2.33573 1.686 4.03624
-2.35767 1.69213 4.04431
-2.37369 1.6941 4.0414
-2.38478 1.69193 4.02952
-2.39094 1.68662 4.00864
-2.41091 1.69069 4.01273
-2.41202 1.68649 3.9988
-2.42902 1.68949 3.99788
-2.43617 1.68421 3.97901
-2.4512 1.68615 3.9741
-2.47117 1.69022 3.97819
-2.48622 1.69113 3.97129
-2.50027 1.69205 3.96538
-2.49643 1.68374 3.94447
-2.51344 1.68672 3.94255
-2.52652 1.68558 3.93267
-2.54056 1.6865 3.92676
-2.54572 1.68019 3.90589
-2.56372 1.68421 3.90596
-2.57876 1.68514 3.90106
-2.58875 1.68717 3.90211
-2.59885 1.68498 3.88921
-2.6129 1.68589 3.88231
-2.62102 1.68266 3.86641
-2.63409 1.68253 3.85751
-2.6511 1.68452 3.85561
-2.66416 1.68441 3.84771
-2.66823 1.68228 3.83877
-2.69315 1.69144 3.84882
-2.70029 1.68618 3.83095
-2.70642 1.68192 3.81306
-2.72839 1.68799 3.81714
-2.72564 1.67652 3.78528
-2.74463 1.68155 3.78635
-2.75165 1.68151 3.7834
-2.77362 1.68758 3.78748
-2.77679 1.68125 3.76459
-2.79084 1.68115 3.7577
-2.80489 1.68307 3.75178
-2.82488 1.68709 3.75187
-2.82212 1.67664 3.722
-2.83409 1.68069 3.72503
-2.85013 1.68263 3.72012
-2.86417 1.68355 3.71421
-2.87031 1.67929 3.69632
-2.88239 1.67815 3.68642
-2.9093 1.68732 3.69649
-2.91148 1.68098 3.6736
-2.9096 1.67576 3.65866
-2.93454 1.68388 3.66573
-2.9486 1.68377 3.65784
-2.96363 1.68571 3.65292
-2.97076 1.68248 3.63702
-2.98679 1.68441 3.63211
-2.99292 1.68117 3.6152
-2.99599 1.67904 3.60626
-3.01302 1.68099 3.60235
-3.02707 1.68289 3.59543
-3.04311 1.68483 3.59052
-3.0532 1.68266 3.57863
-3.06725 1.68457 3.57171
-3.07735 1.68238 3.55881
-3.08933 1.68642 3.56084
-3.09942 1.68425 3.54895
-3.11249 1.68513 3.54003
-3.13267 1.68279 3.51622
-3.19611 1.68097 3.45871
-3.23827 1.68468 3.43697
4.16136 1.73607 2.69036
4.16546 1.74026 2.70327
4.14164 1.73861 2.72648
4.12066 1.73269 2.73073
4.12585 1.74004 2.75458
4.10689 1.73614 2.76078
4.10504 1.74042 2.77974
4.09002 1.73541 2.77792
4.10124 1.74483 2.8067
4.08329 1.74194 2.81388
4.07641 1.74317 2.82892
4.05745 1.73927 2.83512
4.04956 1.74049 2.84916
4.02657 1.73453 2.85142
4.02866 1.73771 2.86336
4.00684 1.73808 2.88753
4.01002 1.74442 2.91041
4.00313 1.74565 2.92545
3.96706 1.73354 2.9169
3.97225 1.74091 2.94175
3.95924 1.7369 2.94091
3.94431 1.73505 2.95005
3.9344 1.73523 2.96212
3.94061 1.74362 2.98896
3.91661 1.73664 2.98924
3.92986 1.74912 3.02196
3.90083 1.7401 3.01931
3.90897 1.74634 3.03616
3.88799 1.7424 3.03938
3.86902 1.73749 3.04459
3.8561 1.73665 3.0547
3.87539 1.7522 3.09233
3.84133 1.7411 3.08475
3.83645 1.74336 3.10176
3.83553 1.74551 3.11174
3.82462 1.74569 3.12382
3.80162 1.73971 3.12408
3.79877 1.74401 3.14404
3.77678 1.73904 3.14528
3.784 1.74846 3.17409
3.76402 1.74352 3.17731
3.75101 1.73952 3.17647
3.74413 1.74276 3.19248
3.72515 1.73782 3.19569
3.72634 1.74517 3.21958
3.6993 1.73613 3.21592
3.71056 1.74861 3.24865
3.69159 1.74469 3.25285
3.67454 1.73861 3.24707
3.67774 1.74599 3.27294
3.66078 1.74409 3.2791
3.65189 1.74531 3.29315
3.6309 1.73934 3.29439
3.62704 1.74462 3.31335
3.60807 1.7397 3.31756
3.60816 1.74387 3.3295
3.59321 1.74199 3.33665
3.58331 1.74219 3.34972
3.58551 1.75057 3.37558
3.56048 1.74253 3.37189
3.55462 1.7468 3.38987
3.54471 1.74798 3.40193
3.54278 1.75013 3.41192
3.53995 1.75445 3.43288
3.00608 1.75497 3.85095
2.9692 1.75225 3.86827
2.95729 1.75342 3.87934
2.94638 1.7546 3.89141
2.92435 1.74857 3.88866
2.90737 1.74663 3.89182
2.90152 1.75092 3.9108
2.8795 1.74589 3.90804
2.86544 1.7408 3.90122
2.8697 1.75229 3.93503
2.8416 1.74212 3.92239
2.83981 1.75052 3.94928
2.80967 1.7393 3.93267
2.8018 1.74255 3.94968
2.78382 1.7406 3.95185
2.77685 1.74066 3.9559
2.771 1.74596 3.97587
2.74897 1.73992 3.97212
2.74008 1.74315 3.98715
2.71805 1.7371 3.9834
2.70511 1.73723 3.9915
2.69624 1.74147 4.0075
2.67735 1.74171 4.02264
2.65125 1.73355 4.01096
2.64035 1.73474 4.02303
2.63755 1.74414 4.04991
2.61348 1.73602 4.04121
2.59155 1.73517 4.05039
2.56063 1.73336 4.06165
2.5487 1.7335 4.07074
2.54389 1.74087 4.09567
2.52386 1.73583 4.0919
2.51398 1.74007 4.10791
2.50803 1.74117 4.11394
2.48496 1.73405 4.10522
2.47811 1.73934 4.12419
2.46011 1.73636 4.12537
2.45125 1.74064 4.14338
2.43832 1.74178 4.15246
2.42133 1.73881 4.15363
2.4174 1.74196 4.16362
2.39331 1.7328 4.15193
2.39967 1.75049 4.19863
2.37558 1.74233 4.18693
2.36976 1.74969 4.21087
2.34668 1.74154 4.20016
2.34188 1.74994 4.22708
2.32678 1.74276 4.2143
2.31386 1.74492 4.22436
2.29787 1.74296 4.22651
2.27103 1.74528 4.24668
2.26114 1.74851 4.26171
2.24517 1.74758 4.26585
2.23006 1.74038 4.25207
2.22832 1.75189 4.28591
2.21031 1.74788 4.28511
2.19943 1.75211 4.30013
2.17836 1.746 4.29138
2.16951 1.75128 4.31037
2.14758 1.75145 4.32053
1.12694 1.74478 4.63836
1.08 1.74494 4.64672
1.02508 1.74412 4.65714
0.923208 1.74345 4.67492
0.891239 1.74353 4.67916
0.836293 1.74268 4.68659
0.820285 1.74167 4.68573
0.788308 1.74074 4.68898
0.772339 1.74181 4.69309
0.756323 1.73979 4.69124
0.748308 1.73877 4.68931
0.701385 1.73995 4.69965
0.685346 1.73689 4.69482
0.653362 1.73694 4.69706
0.644323 1.73488 4.69215
0.629354 1.73495 4.69627
0.615486 1.74121 4.71328
0.598409 1.73707 4.70347
0.566393 1.73507 4.70174
0.551463 1.73721 4.71082
0.542417 1.73513 4.70492
0.525324 1.72996 4.69312
0.51144 1.7352 4.70815
0.494378 1.73109 4.70034
0.479471 1.73528 4.71239
0.463409 1.73217 4.70456
0.448541 1.73743 4.7216
0.430348 1.72808 4.69687
0.424565 1.7385 4.72476
0.407449 1.73229 4.70998
0.375394 1.72821 4.70328
0.361574 1.73756 4.72625
0.344465 1.73136 4.71247
0.328388 1.72723 4.70265
0.32152 1.73348 4.71961
0.305497 1.73245 4.71675
0.28942 1.72831 4.70693
0.273529 1.73353 4.72097
0.258637 1.73775 4.73502
0.241405 1.72632 4.70532
0.218499 1.73151 4.71742
0.202568 1.73366 4.7265
0.186382 1.72431 4.70276
0.155445 1.72746 4.71095
0.139554 1.73267 4.72499
0.123508 1.7306 4.71914
0.115555 1.73269 4.72517
0.100517 1.73063 4.72032
0.084517 1.73064 4.72044
0.0685018 1.72962 4.71857
0.0524866 1.7286 4.71671
0.0365184 1.73067 4.7208
0.0222406 1.72018 4.55204
0.007327 1.72536 4.56308
-0.00855646 1.73059 4.57812
-0.0237342 1.72226 4.55536
-0.0387495 1.72124 4.55348
-0.0466018 1.72853 4.57244
-0.0616786 1.72539 4.5626
-0.0767095 1.72334 4.55874
-0.0926852 1.7254 4.56183
-0.107654 1.72647 4.56593
-0.123645 1.7275 4.56703
-0.138676 1.72545 4.56317
-0.145808 1.7192 4.54632
-0.160753 1.72232 4.55339
-0.175806 1.72022 4.54653
-0.190884 1.71609 4.5367
-0.206798 1.72026 4.54776
-0.22189 1.7161 4.53594
-0.22975 1.72337 4.55389
-0.243912 1.71607 4.5331
-0.258935 1.71503 4.53023
-0.273989 1.71294 4.52337
-0.289965 1.714 4.52648
-0.304957 1.71502 4.52758
-0.320894 1.71815 4.53565
-0.327026 1.71191 4.51879
-0.342978 1.71501 4.52486
-0.358001 1.71397 4.52199
-0.373024 1.71294 4.51912
-0.388976 1.71604 4.52519
-0.402115 1.70978 4.50738
-0.418083 1.71185 4.51147
-0.433075 1.71288 4.51257
-0.440144 1.70975 4.50367
-0.455135 1.71078 4.50477
-0.471135 1.71079 4.50489
-0.485204 1.70767 4.49604
-0.51707 1.71594 4.51316
-0.530256 1.7076 4.48938
-0.554177 1.71276 4.49948
-0.568292 1.70755 4.48467
-0.584191 1.71275 4.49771
-0.598307 1.70754 4.48289
-0.613306 1.70855 4.48299
-0.636281 1.71061 4.48613
-0.650397 1.7054 4.47131
-0.666325 1.71055 4.48036
-0.695402 1.70742 4.47062
-0.725469 1.70631 4.46186
-0.732492 1.70527 4.45893
-0.747507 1.70525 4.45705
-0.777544 1.7052 4.45227
-0.80851 1.70928 4.45645
-0.843679 1.70298 4.4348
-0.858685 1.70398 4.4339
-0.873707 1.70394 4.43101
-0.888722 1.70392 4.42913
-0.918743 1.7049 4.42634
-0.941757 1.70589 4.4245
-0.954857 1.70171 4.41165
-0.986785 1.70786 4.4208
-1.03501 1.70045 4.39127
-1.05197 1.70455 4.39734
-1.08105 1.70241 4.38659
-1.10914 1.70026 4.37483
-1.1302 1.69915 4.36701
-1.17815 1.70628 4.37326
-1.20335 1.69891 4.34756
-1.21329 1.70202 4.35459
-1.23944 1.69776 4.33585
-1.29852 1.69964 4.32526
-1.30652 1.70064 4.32531
-1.31961 1.69748 4.31345
-1.34045 1.70679 4.33347
-1.34865 1.69841 4.30766
-1.36466 1.6994 4.30676
-1.38065 1.70143 4.30785
-1.39879 1.69718 4.29005
-1.41283 1.6961 4.28417
-1.43174 1.70329 4.29621
-1.44385 1.69909 4.28236
-1.45887 1.70006 4.27946
-1.47096 1.69689 4.26759
-1.48598 1.69786 4.26469
-1.49806 1.69472 4.25483
-1.50802 1.6978 4.25986
-1.52304 1.69876 4.25696
-1.53805 1.69975 4.25505
-1.55895 1.70795 4.26809
-1.56615 1.69857 4.24228
-1.58019 1.69851 4.23739
-1.59324 1.69742 4.2305
-1.60222 1.69947 4.23354
-1.6192 1.70251 4.23562
-1.6313 1.69932 4.22276
-1.6512 1.70753 4.23579
-1.66036 1.70023 4.21496
-1.68028 1.70739 4.22501
-1.6904 1.70216 4.20916
-1.70232 1.70732 4.21918
-1.71342 1.70413 4.2063
-1.72649 1.70301 4.19742
-1.7425 1.70399 4.19552
-1.7585 1.707 4.1956
-1.76862 1.70177 4.17975
-1.7856 1.70583 4.18282
-1.7887 1.70164 4.1699
-1.80471 1.70364 4.16899
-1.81777 1.70253 4.16111
-1.8328 1.70348 4.15721
-1.84488 1.70133 4.14633
-1.86383 1.70643 4.1524
-1.87295 1.7012 4.13654
-1.89598 1.70315 4.13268
-1.90512 1.6979 4.11483
-1.92309 1.70297 4.11889
-1.93321 1.69774 4.10304
-1.95511 1.70595 4.11609
-1.96621 1.70275 4.10222
-1.98137 1.69745 4.0814
-1.99443 1.69734 4.0735
-2.0124 1.70141 4.07758
-2.02546 1.7003 4.06969
-2.03754 1.69916 4.0598
-2.0575 1.70425 4.06488
-2.06254 1.70217 4.05894
-2.07561 1.70204 4.05004
-2.10172 1.70084 4.03525
-2.11872 1.70385 4.03534
-2.15285 1.70362 4.0186
-2.176 1.70035 3.99882
-2.22922 1.69894 3.96923
-2.24635 1.6957 3.95241
-2.26434 1.69973 3.95349
-2.27543 1.69857 3.94258
-2.29957 1.69531 3.92381
-2.32261 1.69825 3.91894
-2.33862 1.70023 3.91703
-2.34478 1.69493 3.89615
-2.3699 1.69371 3.88036
-2.39208 1.68937 3.85659
-2.4161 1.69334 3.85371
-2.4262 1.69116 3.84082
-2.44221 1.69314 3.83891
-2.4612 1.69717 3.83999
-2.46438 1.68983 3.81712
-2.48337 1.69386 3.8182
-2.49236 1.69688 3.81923
-2.50048 1.69265 3.80335
-2.50861 1.68842 3.78747
-2.52858 1.69348 3.79055
-2.54065 1.69335 3.78164
-2.55271 1.69324 3.77373
-2.56577 1.69313 3.76583
-2.56884 1.691 3.75688
-2.58585 1.69299 3.75498
-2.5999 1.69389 3.74807
-2.61395 1.69481 3.74216
-2.62008 1.69055 3.72427
-2.63611 1.6925 3.72036
-2.6462 1.69035 3.70947
-2.65422 1.69131 3.70651
-2.67637 1.69003 3.6867
-2.7015 1.6898 3.66989
-2.74869 1.69145 3.64421
-2.79795 1.69096 3.60959
-2.80804 1.68879 3.59769
-2.81507 1.68975 3.59473
-2.83011 1.69068 3.58883
-2.83821 1.68849 3.57592
-2.93071 1.68857 3.50961
4.31547 1.72931 2.17323
4.29378 1.72994 2.21439
4.28086 1.72811 2.22552
4.26714 1.73167 2.26257
4.25221 1.72881 2.27173
4.25436 1.73309 2.29065
4.23943 1.73125 2.30079
4.2405 1.73338 2.30975
4.24165 1.73768 2.32969
4.21868 1.73175 2.33395
4.22183 1.73705 2.35385
4.21293 1.73725 2.36691
4.19498 1.73236 2.37412
4.17904 1.72949 2.38229
4.1812 1.7348 2.40319
4.17122 1.73184 2.40531
4.16835 1.73509 2.42229
4.13661 1.73263 2.45757
4.12168 1.72978 2.46672
4.11478 1.73099 2.48076
4.11787 1.73415 2.49169
4.10595 1.73332 2.5028
4.09604 1.73251 2.51488
4.09719 1.7378 2.5348
4.0903 1.73901 2.54884
4.06732 1.73208 2.55211
4.05339 1.73024 2.56225
4.06452 1.73748 2.57906
4.04758 1.73459 2.58623
4.04068 1.73581 2.60026
4.02976 1.73498 2.61136
4.01785 1.73315 2.62248
4.01297 1.73639 2.63847
4.01211 1.74067 2.65742
3.99307 1.73361 2.65266
3.98216 1.73278 2.66376
3.99236 1.74217 2.69055
3.97542 1.73929 2.69772
3.96148 1.73743 2.70685
3.95761 1.73969 2.72385
3.93965 1.73578 2.72904
3.93269 1.73486 2.73411
3.9429 1.74526 2.76188
3.90381 1.73113 2.75139
3.89909 1.73866 2.78731
3.88314 1.73578 2.79448
3.8682 1.73291 2.80263
3.88136 1.74221 2.8234
3.85736 1.73523 2.82368
3.84443 1.73439 2.8338
3.8466 1.73971 2.8557
3.82058 1.7327 2.854
3.82175 1.73802 2.87592
3.81083 1.73719 2.88701
3.79883 1.7342 2.88715
3.79395 1.73744 2.90314
3.78707 1.73867 2.91818
3.7842 1.74292 2.93514
3.77531 1.74314 2.9492
3.76237 1.74228 2.95831
3.73736 1.73528 2.95761
3.73644 1.73743 2.96758
3.73358 1.7417 2.98554
3.71158 1.73573 2.9868
3.7057 1.73797 3.00281
3.70183 1.74223 3.01978
3.67681 1.73422 3.01809
3.67295 1.73749 3.03607
3.68008 1.74473 3.05291
3.65406 1.73672 3.05123
3.64516 1.73791 3.06328
3.63625 1.73811 3.07634
3.62232 1.73725 3.08546
3.61341 1.73843 3.09751
3.61257 1.74373 3.11744
3.59553 1.73768 3.11366
3.58562 1.73785 3.12473
3.57873 1.74008 3.13976
3.56781 1.74025 3.15084
3.55086 1.73735 3.15701
3.54397 1.73958 3.17203
3.53709 1.74181 3.18705
3.53717 1.74497 3.198
3.52625 1.74514 3.20909
3.50828 1.74221 3.21326
3.50039 1.74343 3.22731
3.4935 1.74565 3.24233
3.47251 1.74068 3.24356
3.46159 1.74085 3.25464
3.45865 1.74297 3.26263
3.45077 1.7452 3.27766
3.44287 1.7464 3.29071
3.43397 1.74861 3.30474
3.42406 1.7488 3.31682
3.41013 1.74793 3.32494
3.39719 1.74707 3.33405
3.39628 1.75023 3.34501
3.38132 1.74833 3.35115
3.37444 1.75157 3.36716
3.35848 1.74866 3.37232
3.34656 1.74883 3.38341
1.21664 1.74417 4.46567
1.17071 1.74334 4.47503
0.790171 1.7395 4.53797
0.775201 1.73957 4.54208
0.752217 1.73962 4.54425
0.737248 1.73969 4.54836
0.660294 1.73884 4.55496
0.590302 1.7359 4.55653
0.574263 1.73284 4.55169
0.560357 1.73803 4.56372
0.552325 1.73497 4.55983
0.53738 1.73809 4.56689
0.519233 1.72982 4.54815
0.506372 1.7361 4.56616
0.489256 1.72989 4.55138
0.474326 1.73303 4.56044
0.459303 1.731 4.55759
0.450225 1.72686 4.54771
0.435295 1.73 4.55678
0.421389 1.73419 4.56883
0.405342 1.73111 4.56299
0.390366 1.73217 4.56609
0.374311 1.72907 4.55926
0.358249 1.72497 4.55144
0.351296 1.72806 4.55744
0.336304 1.72809 4.55856
0.320297 1.72708 4.55769
0.305351 1.7292 4.56477
0.290359 1.72922 4.56589
0.274305 1.72613 4.55905
0.259297 1.72513 4.55818
0.25236 1.72825 4.56619
0.236329 1.7272 4.56232
0.221291 1.72514 4.55747
0.206345 1.72726 4.56455
0.19033 1.72624 4.56268
0.175408 1.7304 4.57274
0.168393 1.72937 4.5708
0.1523 1.72421 4.559
0.13737 1.72835 4.56805
0.121316 1.72526 4.56122
0.106317 1.72527 4.56133
0.0912782 1.72321 4.55647
0.075325 1.72531 4.56256
0.0683096 1.72428 4.56063
0.0523257 1.72532 4.56274
0.0374272 1.73053 4.57577
0.0313707 1.72546 4.43588
0.0162934 1.72132 4.42605
0.00932492 1.72339 4.43007
-0.00562006 1.7265 4.43714
-0.020604 1.72754 4.43924
-0.0356895 1.72239 4.42843
-0.0506188 1.72653 4.43748
-0.0647351 1.72032 4.42267
-0.0796644 1.72447 4.43173
-0.094711 1.72139 4.42588
-0.102671 1.72447 4.4309
-0.116718 1.72139 4.42505
-0.131764 1.71931 4.41919
-0.146725 1.7214 4.42428
-0.161732 1.72139 4.42339
-0.176677 1.72451 4.43046
-0.190792 1.7193 4.41564
-0.19873 1.72242 4.42365
-0.213745 1.7214 4.42178
-0.228767 1.72137 4.41889
-0.242798 1.71932 4.41503
-0.257883 1.71617 4.40419
-0.271976 1.711 4.39237
-0.287804 1.72034 4.41435
-0.294842 1.71927 4.40942
-0.308935 1.7141 4.3976
-0.323896 1.71619 4.40268
-0.338918 1.71615 4.3998
-0.353003 1.712 4.38896
-0.36708 1.70786 4.37913
-0.382916 1.71718 4.40011
-0.388126 1.70679 4.3733
-0.404032 1.71198 4.38535
-0.42 1.71405 4.38944
-0.432155 1.70676 4.36964
-0.449022 1.71402 4.38666
-0.464974 1.71712 4.39273
-0.477144 1.70881 4.37094
-0.50105 1.715 4.38303
-0.516948 1.72121 4.39606
-0.529157 1.71082 4.36931
-0.544156 1.71083 4.36942
-0.558186 1.71078 4.36552
-0.573216 1.70973 4.36165
-0.581162 1.71284 4.36867
-0.594247 1.70869 4.35783
-0.623322 1.70656 4.34808
-0.636383 1.70445 4.3402
-0.652336 1.70755 4.34628
-0.666382 1.70547 4.34042
-0.704364 1.70853 4.34266
-0.731471 1.70434 4.32892
-0.746508 1.70428 4.32403
-0.760508 1.70429 4.32414
-0.775545 1.70423 4.31925
-0.784467 1.70838 4.32926
-0.796599 1.70214 4.31244
-0.81352 1.7073 4.32249
-0.843517 1.71032 4.32268
-0.854648 1.70408 4.30585
-0.87667 1.70405 4.30302
-0.919744 1.70393 4.29334
-0.934767 1.7039 4.29045
-0.950734 1.70697 4.29453
-0.953874 1.69971 4.27666
-0.984864 1.70274 4.27785
-0.997932 1.70062 4.26897
-1.01294 1.70162 4.26807
-1.02598 1.70055 4.26319
-1.04294 1.70362 4.26727
-1.04897 1.70257 4.26333
-1.06496 1.70461 4.26542
-1.07996 1.70662 4.2655
-1.09496 1.70661 4.26462
-1.10802 1.70551 4.25673
-1.11819 1.6982 4.23591
-1.13611 1.70335 4.24497
-1.14818 1.70122 4.23609
-1.15521 1.70017 4.23216
-1.1712 1.70221 4.23425
-1.1823 1.69803 4.2214
-1.19829 1.70105 4.22247
-1.21134 1.69896 4.2156
-1.24136 1.70094 4.2128
-1.25129 1.70608 4.2218
-1.26339 1.70189 4.20895
-1.27353 1.69564 4.19111
-1.2934 1.7049 4.20813
-1.30355 1.69761 4.18831
-1.31563 1.69547 4.17843
-1.33062 1.69748 4.17852
-1.34252 1.70368 4.19151
-1.35558 1.70259 4.18463
-1.36963 1.7015 4.17775
-1.38463 1.70251 4.17785
-1.39866 1.70244 4.17295
-1.41269 1.70341 4.17004
-1.42477 1.70026 4.15918
-1.43375 1.70231 4.16222
-1.44877 1.70327 4.15932
-1.4579 1.69803 4.14246
-1.47781 1.70521 4.15351
-1.48989 1.70207 4.14364
-1.50978 1.71027 4.15667
-1.51991 1.70504 4.14082
-1.52105 1.69878 4.12292
-1.53998 1.70493 4.13198
-1.555 1.70489 4.12909
-1.56511 1.70068 4.11423
-1.58698 1.70994 4.13126
-1.59612 1.70467 4.1124
-1.61114 1.70565 4.1105
-1.61718 1.70457 4.10456
-1.62828 1.7014 4.09269
-1.64624 1.70548 4.09776
-1.66222 1.70852 4.09984
-1.67135 1.70328 4.08298
-1.68636 1.70426 4.08108
-1.70742 1.70416 4.07324
-1.72047 1.70408 4.06734
-1.73746 1.70711 4.06842
-1.75051 1.70701 4.06152
-1.76356 1.70592 4.05464
-1.77761 1.70584 4.04874
-1.79375 1.70057 4.02994
-1.8117 1.70669 4.03698
-1.82574 1.70661 4.03109
-1.83586 1.70239 4.01623
-1.85999 1.69914 3.99845
-1.86911 1.69493 3.98358
-1.88793 1.70628 4.00656
-1.89214 1.69789 3.97971
-1.92119 1.6998 3.9729
-1.9362 1.70079 3.971
-1.95221 1.70277 3.96909
-1.96624 1.70372 3.96518
-1.95653 1.68916 3.92832
-1.98533 1.70257 3.95434
-2.02548 1.7023 3.93465
-2.04666 1.69696 3.91088
-2.07067 1.70095 3.909
-2.10686 1.69861 3.88431
-2.12484 1.70165 3.8864
-2.15501 1.69935 3.86466
-2.1651 1.69718 3.85276
-2.19023 1.69594 3.83597
-2.21349 1.68746 3.80226
-2.2364 1.69563 3.81332
-2.25141 1.69762 3.8114
-2.25954 1.69337 3.79452
-2.27851 1.69844 3.79859
-2.28662 1.69523 3.7837
-2.29968 1.69512 3.7758
-2.29683 1.68684 3.75689
-2.32984 1.69283 3.75505
-2.34882 1.69789 3.75812
-2.37295 1.69664 3.74032
-2.385 1.69654 3.73341
-2.38512 1.69132 3.71849
-2.40409 1.69638 3.72156
-2.41715 1.69629 3.71465
-2.42329 1.69102 3.69678
-2.46541 1.6938 3.68005
-2.47242 1.69478 3.67809
-2.48548 1.69467 3.67019
-2.49754 1.69456 3.66228
-2.50763 1.6934 3.65137
-2.52266 1.69434 3.64647
-2.52682 1.68805 3.62659
-2.53888 1.68794 3.61868
-2.56291 1.69188 3.6138
-2.60819 1.68937 3.57718
-2.62431 1.68714 3.56133
-2.66248 1.68783 3.5386
-2.70263 1.69056 3.51886
4.03839 1.74724 2.42709
4.02546 1.7454 2.43721
4.00348 1.73846 2.44048
3.98251 1.73254 2.44473
3.9736 1.73272 2.4568
3.9787 1.73791 2.46968
3.96778 1.73708 2.48078
3.9458 1.73014 2.48405
3.96304 1.74359 2.51472
3.94608 1.73969 2.52091
3.92109 1.73172 2.52221
3.91922 1.73598 2.53917
3.91829 1.73711 2.54816
3.91039 1.73831 2.5612
3.90148 1.73849 2.57327
3.88955 1.73665 2.58339
3.88166 1.73786 2.59743
3.86369 1.73395 2.60263
3.85177 1.73211 2.61274
3.85184 1.73524 2.6217
3.854 1.74055 2.64261
3.83705 1.73767 2.64978
3.83116 1.73888 2.66381
3.81621 1.73599 2.67096
3.80227 1.73414 2.6801
3.80243 1.73943 2.70002
3.78036 1.73031 2.69132
3.78856 1.73969 2.71712
3.78066 1.74089 2.73017
3.75564 1.7329 2.72947
3.76989 1.74536 2.76119
3.74186 1.73632 2.75753
3.73396 1.73752 2.77057
3.72699 1.7366 2.77564
3.7201 1.73781 2.78968
3.70112 1.73287 2.79289
3.70429 1.74019 2.81476
3.68935 1.73832 2.8229
3.68548 1.74057 2.8399
3.67255 1.73972 2.84901
3.66658 1.73878 2.85307
3.65465 1.73894 2.86316
3.63668 1.73401 2.86737
3.63886 1.74135 2.89025
3.62692 1.73949 2.89937
3.62205 1.74273 2.91536
3.592 1.73267 2.90973
3.59409 1.73684 2.92166
3.59223 1.74112 2.94061
3.58736 1.74436 2.9566
3.56535 1.73738 2.95687
3.55342 1.73752 2.96596
3.54754 1.73975 2.98097
3.5346 1.73789 2.9901
3.53166 1.74001 2.99809
3.52275 1.7412 3.01014
3.50982 1.73934 3.01927
3.50091 1.74052 3.03132
3.49704 1.74378 3.0483
3.47806 1.73984 3.05151
3.48125 1.74719 3.07538
3.47025 1.7442 3.0755
3.44522 1.73617 3.07281
3.44135 1.74043 3.08978
3.43447 1.74265 3.1048
3.4316 1.74792 3.12275
3.40859 1.74092 3.12202
3.39768 1.74109 3.1331
3.39271 1.74117 3.13814
3.39188 1.74748 3.15906
3.3749 1.74355 3.16324
3.37003 1.74781 3.18022
3.34399 1.73875 3.17555
3.35122 1.74918 3.20434
3.33425 1.74626 3.20952
3.33535 1.75044 3.22145
3.3125 1.74975 3.24163
3.26681 1.75039 3.28297
1.09577 1.74054 4.35062
1.01281 1.73568 4.35632
1.00093 1.74092 4.37233
0.985939 1.73995 4.37346
0.915891 1.73291 4.36809
0.889023 1.73718 4.38523
0.87507 1.73928 4.39131
0.777138 1.73648 4.40109
0.771192 1.73859 4.4081
0.741208 1.73764 4.41034
0.724114 1.73148 4.39856
0.673254 1.73678 4.41687
0.644316 1.73792 4.42507
0.583254 1.73185 4.41762
0.547347 1.73505 4.42985
0.532363 1.73509 4.43196
0.502386 1.73516 4.43518
0.480417 1.73623 4.43933
0.465425 1.73626 4.44045
0.434371 1.73218 4.43374
0.419371 1.73219 4.43385
0.405434 1.73532 4.44191
0.39738 1.73222 4.43502
0.38245 1.73536 4.44409
0.367442 1.73436 4.44321
0.352364 1.72922 4.4334
0.337434 1.73237 4.44247
0.32245 1.73341 4.44457
0.307373 1.72927 4.43474
0.29242 1.73137 4.44082
0.285427 1.73139 4.44187
0.269241 1.72105 4.41815
0.255412 1.72938 4.44013
0.240374 1.72732 4.43527
0.225452 1.73148 4.44533
0.210413 1.72942 4.44047
0.195476 1.73255 4.44854
0.188476 1.73255 4.44859
0.173422 1.72946 4.44175
0.158407 1.72844 4.43988
0.143445 1.72952 4.44497
0.12833 1.72431 4.43016
0.11333 1.72432 4.43027
0.106493 1.73264 4.45121
0.0913226 1.72333 4.42945
0.0763538 1.7244 4.43355
0.0614401 1.72957 4.44459
0.0463941 1.72749 4.43873
-0.793589 1.70618 4.18034
-0.808557 1.70925 4.18441
-0.821618 1.70714 4.17654
-0.838539 1.7123 4.18659
-0.849671 1.70606 4.16976
-0.862747 1.70292 4.15991
-0.877715 1.70599 4.16398
-0.889823 1.70179 4.15013
-0.899729 1.70698 4.16213
-0.912782 1.70588 4.15524
-0.927773 1.70691 4.15634
-0.938881 1.70271 4.14248
-0.95581 1.70785 4.15153
-0.968856 1.70578 4.14566
-0.983838 1.70882 4.14773
-0.988932 1.70364 4.13584
-1.00489 1.70773 4.1409
-1.01795 1.70562 4.13303
-1.03294 1.70766 4.13512
-1.0479 1.71073 4.13918
-1.05711 1.70034 4.1124
-1.07015 1.69927 4.10752
-1.082 1.70856 4.12647
-1.09507 1.70644 4.1176
-1.11005 1.70848 4.11968
-1.12407 1.70946 4.11777
-1.13714 1.70734 4.1089
-1.15407 1.71147 4.11697
-1.16517 1.70828 4.1041
-1.1712 1.70723 4.10016
-1.18427 1.7051 4.09129
-1.20119 1.71126 4.10133
-1.2123 1.70606 4.08748
-1.22731 1.70705 4.08558
-1.24229 1.7101 4.08865
-1.25632 1.71005 4.08476
-1.26139 1.70692 4.07584
-1.27736 1.70998 4.07892
-1.29237 1.71097 4.07801
-1.30345 1.70782 4.06714
-1.31844 1.71084 4.06821
-1.32858 1.70459 4.05038
-1.34064 1.70248 4.0425
-1.35254 1.70968 4.05548
-1.36267 1.70445 4.03963
-1.37865 1.70749 4.04171
-1.42169 1.71043 4.03599
-1.43474 1.70935 4.0301
-1.43784 1.70416 4.0172
-1.48089 1.70709 4.01048
-1.49295 1.70597 4.00159
-1.51091 1.71007 4.00766
-1.529 1.7079 3.99583
-1.61023 1.7075 3.96544
-1.62831 1.70635 3.9546
-1.64233 1.70632 3.9517
-2.1181 1.69717 3.71939
-2.18136 1.69671 3.68587
-2.27475 1.696 3.63357
-2.29383 1.69686 3.6237
-2.34206 1.69544 3.59308
-2.39731 1.69498 3.5595
4.13336 1.72229 1.89367
4.12558 1.72572 1.92268
4.13368 1.73091 1.93554
4.1087 1.72297 1.93885
4.10681 1.72519 1.95383
4.09991 1.72539 1.96688
4.08423 1.72902 2.00896
4.07324 1.72506 2.0111
4.06032 1.72322 2.02122
4.06949 1.73054 2.04305
4.05053 1.72564 2.04926
4.04865 1.72788 2.06525
4.04677 1.73112 2.08122
4.02681 1.72521 2.08645
4.02788 1.72834 2.0954
4.03103 1.73363 2.1153
4.00805 1.72569 2.11859
4.00316 1.7279 2.1326
4.01133 1.73522 2.15443
3.99136 1.72931 2.15967
3.98547 1.73052 2.1737
3.98554 1.73266 2.18267
3.9736 1.7308 2.19179
3.96269 1.72997 2.20288
3.96583 1.73525 2.22178
3.95391 1.73341 2.2319
3.95404 1.73767 2.24984
3.93006 1.73072 2.25212
3.9261 1.73081 2.25815
3.91718 1.72998 2.26924
3.91331 1.73222 2.28523
3.9054 1.7324 2.29729
3.88643 1.72749 2.30251
3.89662 1.73685 2.3273
3.87866 1.73194 2.33251
3.87773 1.73407 2.34148
3.87384 1.7363 2.35648
3.86393 1.73547 2.36757
3.84697 1.73157 2.37375
3.8461 1.73582 2.3907
3.83116 1.73295 2.39886
3.81923 1.73111 2.40898
3.83036 1.73934 2.42477
3.81441 1.73545 2.43195
3.80751 1.73665 2.44499
3.80061 1.73685 2.45804
3.7927 1.73805 2.47108
3.7858 1.73924 2.48412
3.77387 1.73739 2.49324
3.76188 1.73441 2.49437
3.74693 1.73153 2.50153
3.75511 1.73987 2.52535
3.73413 1.73393 2.52859
3.73125 1.73717 2.54457
3.72637 1.7394 2.55957
3.71644 1.73855 2.56966
3.70445 1.73558 2.5708
3.69553 1.73575 2.58186
3.68058 1.73286 2.58902
3.68677 1.74121 2.61285
3.67081 1.73731 2.61903
3.66593 1.73954 2.63404
3.654 1.73868 2.64314
3.64904 1.73877 2.64918
3.64113 1.73996 2.66122
3.6292 1.7381 2.67034
3.62532 1.74134 2.68632
3.60333 1.73437 2.68759
3.59945 1.73761 2.70358
3.59456 1.74083 2.71857
3.58357 1.73786 2.71969
3.5817 1.74111 2.73666
3.56474 1.7382 2.74183
3.55683 1.73838 2.75389
3.54993 1.74059 2.76791
3.54102 1.74178 2.77996
3.52708 1.73889 2.78711
3.52413 1.74 2.79412
3.50616 1.73607 2.79831
3.49624 1.73624 2.80939
3.49035 1.73845 2.8234
3.4905 1.74375 2.84333
3.47353 1.73982 2.84751
3.4606 1.73896 2.85662
3.46167 1.74211 2.86657
3.44873 1.74024 2.8747
3.44285 1.74346 2.88969
3.43394 1.74365 2.90176
3.42402 1.74382 2.91283
3.40806 1.7409 2.918
3.40116 1.7431 2.93102
3.38528 1.74335 2.94714
3.37939 1.74557 2.96215
3.36947 1.74573 2.97223
3.3525 1.7418 2.97641
3.34964 1.74708 2.99536
3.33376 1.74732 3.01048
3.32082 1.74545 3.0186
3.30182 1.74048 3.01982
3.29594 1.74372 3.03582
3.29106 1.74694 3.05081
3.27208 1.743 3.05401
3.27022 1.74727 3.07196
3.14903 1.74794 3.17988
-1.13284 1.71394 4.01476
-1.13809 1.70147 3.98298
-1.1521 1.70245 3.98107
-1.16806 1.70654 3.98613
-1.18011 1.70444 3.97925
-1.18714 1.70439 3.9753
-1.20017 1.70434 3.9714
-1.21224 1.70121 3.96254
-1.22917 1.70736 3.97158
-1.24027 1.70317 3.95872
-1.25721 1.7083 3.96677
-1.26732 1.70411 3.95291
-1.27725 1.70823 3.96092
-1.28835 1.70405 3.94807
-1.3004 1.70397 3.94216
-1.31539 1.70599 3.94324
-1.32942 1.70594 3.93935
-1.34049 1.70382 3.93046
-1.35843 1.70893 3.93752
-1.36151 1.70479 3.92761
-1.37748 1.70886 3.93167
-1.4026 1.70564 3.9159
-1.41563 1.70558 3.911
-1.44171 1.70445 3.90121
-1.45066 1.70854 3.90722
-1.51586 1.70619 3.88074
-1.52792 1.7061 3.87383
-1.54895 1.70705 3.86998
-1.56198 1.70699 3.86507
-1.61217 1.70465 3.84048
-1.61918 1.70564 3.83952
-1.65535 1.70233 3.81684
-1.6834 1.70325 3.81004
-1.6984 1.70526 3.81012
-1.70442 1.70522 3.80717
-1.71649 1.70409 3.79827
-1.72854 1.703 3.79138
-1.75068 1.69975 3.77359
-1.77872 1.70168 3.76777
-1.78377 1.70059 3.76183
-1.82485 1.70346 3.75109
-1.86102 1.70116 3.72939
-1.89312 1.70098 3.71564
4.56555 1.71676 0.323278
4.54563 1.70894 0.334545
4.56176 1.71718 0.351304
4.57601 1.72464 0.38309
4.56021 1.72106 0.410266
4.53845 1.71456 0.443531
4.52666 1.71197 0.470662
4.52777 1.71319 0.485638
4.52187 1.71239 0.498696
4.50996 1.70859 0.511843
4.51714 1.71392 0.534714
4.50634 1.71133 0.561837
4.51447 1.71658 0.5787
4.4907 1.71005 0.60998
4.52989 1.72838 0.633417
3.82687 1.73641 2.22681
3.81594 1.73556 2.23691
3.80596 1.7326 2.23903
3.79302 1.73074 2.24816
3.7851 1.73091 2.25921
3.78021 1.73212 2.27324
3.78136 1.7374 2.29215
3.76641 1.73452 2.29931
3.74844 1.72859 2.30353
3.74851 1.73172 2.31249
3.74764 1.73499 2.33045
3.73169 1.73209 2.33661
3.73282 1.73636 2.35454
3.71988 1.73449 2.36267
3.70494 1.73162 2.37082
3.70004 1.73281 2.38384
3.70615 1.73901 2.39771
3.68919 1.7341 2.40291
3.68732 1.73835 2.41986
3.66834 1.73343 2.42408
3.67049 1.73871 2.44299
3.64749 1.73072 2.44328
3.66172 1.74316 2.47299
3.65172 1.74018 2.47411
3.64482 1.74136 2.48615
3.6339 1.74053 2.49724
3.61994 1.73763 2.50339
3.61204 1.73883 2.51644
3.59608 1.73492 2.52162
3.60025 1.74224 2.54348
3.59831 1.74436 2.55146
3.58638 1.7425 2.56058
3.57645 1.74166 2.57067
3.55848 1.73773 2.57487
3.55071 1.74318 2.60485
3.54281 1.74438 2.61789
3.53684 1.74344 2.62195
3.51499 1.74275 2.64213
3.49514 1.74206 2.66229
3.47637 1.74453 2.6934
3.45941 1.74062 2.69859
3.43367 1.74316 2.73375
3.40987 1.74356 2.75992
3.40298 1.74477 2.77396
3.38801 1.74186 2.77912
3.37421 1.74525 2.80517
3.36026 1.74337 2.81231
3.35034 1.74352 2.82238
3.33042 1.7407 2.83358
3.25903 1.74395 2.91508
-1.15487 1.69794 3.87914
-1.22507 1.69559 3.8527
-1.34545 1.68994 3.80369
-1.37346 1.69295 3.80285
-1.3785 1.69086 3.79692
-1.40554 1.69281 3.7921
-1.41661 1.69067 3.78221
-1.43161 1.69268 3.78229
-1.44756 1.69778 3.78834
-1.45472 1.69049 3.7685
-1.46564 1.69564 3.7785
-1.47868 1.69558 3.7736
-1.48878 1.69139 3.76074
-1.51287 1.69023 3.74894
-1.53178 1.69741 3.75997
-1.53698 1.68803 3.73415
-1.54496 1.69008 3.73718
-1.56191 1.69518 3.74323
-1.57199 1.69303 3.73234
-1.58209 1.68884 3.71947
-1.601 1.69703 3.7315
-1.61109 1.69386 3.71962
-1.63112 1.6948 3.71475
-1.64024 1.68959 3.6999
-1.65424 1.6926 3.69996
-1.67023 1.69562 3.70104
-1.67638 1.68935 3.68217
-1.69039 1.69033 3.68026
-1.70735 1.69541 3.68532
-1.71043 1.69125 3.6744
-1.72248 1.69117 3.66849
-1.73846 1.69421 3.67057
-1.74756 1.69103 3.65768
-1.75863 1.6889 3.64879
-1.77166 1.68985 3.64488
-1.79058 1.69701 3.65492
-1.79365 1.69387 3.64498
-1.80767 1.69585 3.64306
-1.81678 1.69165 3.62919
-1.8239 1.68642 3.61332
-1.84775 1.69872 3.63232
-1.85783 1.69556 3.62144
-1.86988 1.69547 3.61453
-1.88587 1.69951 3.61659
-1.90296 1.69734 3.60475
-1.91698 1.69931 3.60183
-1.92804 1.6982 3.59392
-1.93714 1.69501 3.58104
-1.9482 1.6939 3.57314
-1.95422 1.69386 3.57018
-1.96628 1.69275 3.56229
-1.9793 1.69472 3.55936
-1.99037 1.69259 3.55047
-1.99946 1.69043 3.53957
-2.01743 1.69449 3.54265
-2.02651 1.69234 3.53174
-2.03845 1.69846 3.53975
-2.04657 1.69425 3.52487
-2.05861 1.69417 3.51896
-2.07164 1.69512 3.51504
-2.0758 1.68781 3.49418
-2.09378 1.69287 3.49724
-2.10385 1.69073 3.48735
-2.11184 1.69376 3.48936
-2.12389 1.69367 3.48245
-2.13396 1.69153 3.47256
-2.15807 1.69134 3.45874
-2.17011 1.69126 3.45283
-2.18018 1.69013 3.44392
-2.1872 1.69111 3.44196
-2.1953 1.68792 3.42907
-2.21128 1.69194 3.43013
-2.22235 1.69082 3.42123
-2.23341 1.68971 3.41333
-2.2435 1.68855 3.40242
-2.25653 1.6895 3.3985
-2.26354 1.69048 3.39654
-2.27262 1.68934 3.38662
-2.28566 1.68926 3.38072
-2.29178 1.68503 3.36483
-2.30284 1.68492 3.35691
-2.3218 1.691 3.36197
-2.33188 1.68886 3.35207
-2.34392 1.68978 3.34615
-2.35094 1.69076 3.34419
-2.36002 1.6886 3.33329
-2.37603 1.6916 3.33236
-2.38313 1.6884 3.31846
-2.39715 1.69136 3.31552
-2.40723 1.68922 3.30563
-2.41928 1.69013 3.2987
-2.42234 1.68801 3.29076
-2.45551 1.68769 3.26801
-2.46954 1.68966 3.26509
-2.47664 1.68646 3.25118
-2.49077 1.68322 3.23434
-2.50084 1.68309 3.22541
-2.51585 1.68607 3.22348
-2.53797 1.68585 3.20765
-2.55298 1.68883 3.20572
-2.56405 1.68872 3.1978
-2.56414 1.68454 3.18586
-2.58015 1.68753 3.18394
-2.58725 1.68534 3.17102
-2.59436 1.68214 3.15712
-2.61647 1.68193 3.14229
-2.63752 1.68584 3.13539
-2.64858 1.68573 3.12747
-2.66971 1.6855 3.11063
-2.69083 1.68526 3.09379
4.49255 1.69996 -0.206997
3.89918 1.7191 1.87148
3.89629 1.72131 1.88547
3.86961 1.72095 1.92768
3.83406 1.72187 1.98794
3.83023 1.72519 2.00993
3.82131 1.72436 2.02101
3.80435 1.72046 2.02719
3.75593 1.72164 2.10455
3.73722 1.72422 2.14266
3.73528 1.72532 2.14966
3.69659 1.72197 2.192
3.68378 1.72435 2.21707
3.68183 1.72444 2.22308
3.67693 1.72665 2.23709
3.66098 1.72275 2.24327
3.65106 1.72192 2.25436
3.64314 1.72209 2.26542
3.63926 1.72532 2.2804
3.63636 1.72753 2.29439
3.62437 1.72355 2.29554
3.62349 1.72779 2.31149
3.60853 1.72389 2.31766
3.60264 1.7261 2.33167
3.59472 1.72627 2.34273
3.57978 1.72238 2.3499
3.57789 1.72661 2.36485
3.58098 1.72977 2.37579
3.56502 1.72687 2.38195
3.56214 1.7301 2.39793
3.55422 1.73027 2.40898
3.5443 1.72943 2.41907
3.54141 1.73265 2.43405
3.52847 1.73078 2.44218
3.52955 1.73393 2.45212
3.52163 1.7341 2.46318
3.51373 1.73528 2.47522
3.51085 1.73852 2.4912
3.50193 1.73869 2.50227
3.47791 1.72968 2.50058
3.47906 1.73596 2.51948
3.47108 1.73401 2.52257
3.46719 1.73622 2.53657
3.44821 1.73128 2.53979
3.4403 1.73246 2.55183
3.43138 1.73263 2.5629
3.43253 1.73791 2.58181
3.42461 1.73908 2.59286
3.41059 1.73304 2.59005
3.40067 1.73321 2.60112
3.40484 1.74054 2.62299
3.3929 1.73966 2.63109
3.37593 1.73573 2.63528
3.36802 1.73692 2.64732
3.35507 1.73403 2.65446
3.3491 1.7341 2.65851
3.34119 1.73428 2.67057
3.3353 1.73749 2.68457
3.32234 1.73459 2.69071
3.32249 1.74087 2.70961
3.30854 1.73898 2.71675
3.29257 1.73505 2.72093
3.29768 1.74026 2.73481
3.28775 1.74041 2.74489
3.28085 1.74261 2.75791
3.26589 1.7397 2.76307
3.26302 1.74295 2.78004
3.24605 1.74002 2.78421
3.23712 1.74018 2.79428
3.22612 1.73618 2.79442
3.2162 1.73634 2.8045
3.21735 1.74363 2.82438
3.19735 1.73665 2.82464
3.18037 1.73371 2.82781
3.18254 1.74103 2.84969
3.17261 1.74118 2.85976
3.16765 1.74126 2.8648
3.14478 1.73953 2.882
3.12997 1.74291 2.90706
3.11601 1.741 2.9122
3.08918 1.74036 2.93541
3.08227 1.74254 2.94743
3.06932 1.74065 2.95456
3.0594 1.74081 2.96463
3.03753 1.74009 2.98281
3.02955 1.73913 2.98489
3.02668 1.74338 3.00185
3.0097 1.73944 3.00503
2.99288 1.74279 3.02811
2.96596 1.73897 3.03937
2.96 1.73905 3.04442
2.95612 1.74329 3.06039
2.9462 1.74446 3.07145
2.89943 1.74094 3.10186
2.89447 1.74203 3.10788
2.88656 1.74421 3.11991
2.7424 1.74396 3.23201
-1.32403 1.69579 3.72643
-1.3351 1.69366 3.71754
-1.3491 1.69466 3.71663
-1.35611 1.69565 3.71567
-1.37303 1.70181 3.72571
-1.38117 1.69555 3.70786
-1.39614 1.69962 3.71191
-1.4082 1.69751 3.70403
-1.41535 1.69022 3.68419
-1.4313 1.69532 3.69024
-1.44727 1.69939 3.6943
-1.44643 1.69109 3.67441
-1.46435 1.69724 3.68346
-1.47541 1.69613 3.67556
-1.48844 1.69709 3.67264
-1.49951 1.69395 3.66277
-1.51155 1.69389 3.65786
-1.52457 1.69485 3.65494
-1.53158 1.69584 3.65398
-1.54362 1.69476 3.64809
-1.55764 1.69674 3.64616
-1.57262 1.69978 3.64823
-1.58466 1.69972 3.64332
-1.59473 1.69658 3.63344
-1.6058 1.69545 3.62454
-1.61478 1.6975 3.62758
-1.62092 1.69123 3.60872
-1.6369 1.69528 3.61178
-1.65386 1.70037 3.61683
-1.66 1.69311 3.59898
-1.67795 1.69921 3.60503
-1.68506 1.69399 3.59016
-1.69601 1.6991 3.59716
-1.70609 1.69595 3.58629
-1.71911 1.69691 3.58337
-1.72722 1.69271 3.56949
-1.74516 1.69984 3.57752
-1.75426 1.69566 3.56465
-1.77023 1.69971 3.56771
-1.77528 1.69863 3.56176
-1.78831 1.69958 3.55785
-1.80035 1.6995 3.55194
-1.81044 1.69634 3.54106
-1.90272 1.69883 3.50271
-1.93284 1.69863 3.48794
-1.93798 1.69237 3.47007
-1.96503 1.69428 3.46324
-1.97904 1.69726 3.4613
-1.99918 1.694 3.4425
-2.00816 1.69705 3.44552
-2.0202 1.69697 3.43962
-2.02634 1.69071 3.42175
-2.03541 1.68958 3.41284
-2.05339 1.69364 3.41591
-2.06444 1.69354 3.409
-2.2986 1.68742 3.25583
-2.30965 1.68732 3.24891
-2.31676 1.68412 3.23501
-2.33277 1.68712 3.23409
-2.34382 1.68702 3.22717
-2.34795 1.68177 3.21028
-2.36495 1.68578 3.21035
-2.37096 1.68676 3.20838
-2.38005 1.6846 3.19748
-2.39209 1.68552 3.19155
-2.40611 1.68749 3.18863
-2.40727 1.68018 3.16774
-2.42822 1.68728 3.1738
-2.43038 1.68099 3.1539
-2.44234 1.68607 3.15892
-2.45339 1.68598 3.152
-2.46049 1.68279 3.1391
-2.46956 1.68165 3.12919
-2.48359 1.6836 3.12526
-2.49168 1.68244 3.11434
-2.50579 1.68023 3.09948
-2.51586 1.6791 3.09057
-2.53482 1.68618 3.09461
-2.54391 1.68402 3.0837
3.65474 1.72133 2.07931
3.56867 1.72221 2.20297
3.51909 1.72008 2.25938
3.51219 1.72128 2.27242
3.50226 1.72042 2.2815
3.50641 1.72771 2.30137
3.47951 1.72194 2.31566
3.45771 1.72134 2.34183
3.45584 1.72559 2.35879
3.439 1.72591 2.37991
3.43108 1.72608 2.39097
3.42224 1.72938 2.41099
3.40828 1.72548 2.41716
3.40539 1.72971 2.43212
3.38439 1.72172 2.43239
3.38654 1.72902 2.45227
3.36353 1.72102 2.45156
3.36561 1.72417 2.4615
3.36173 1.72739 2.47649
3.34475 1.72245 2.47969
3.34288 1.7267 2.49664
3.3279 1.72277 2.50081
3.31596 1.7219 2.50892
3.30913 1.72623 2.53091
3.29215 1.72129 2.53411
3.29732 1.72961 2.55595
3.28236 1.72669 2.56111
3.26538 1.72175 2.56431
3.26049 1.72396 2.57831
3.26366 1.73228 2.60017
3.24559 1.72418 2.59243
3.23466 1.72332 2.60152
3.22977 1.72553 2.61553
3.21379 1.7216 2.61971
3.20588 1.72277 2.63075
3.21206 1.73212 2.65457
3.19005 1.72511 2.65284
3.18408 1.72417 2.6569
3.19127 1.73354 2.68171
3.15328 1.72259 2.68416
3.14839 1.72581 2.69815
3.12248 1.72202 2.7114
3.12155 1.72415 2.72038
3.10371 1.72547 2.7415
3.10385 1.73074 2.75942
3.08485 1.72577 2.76064
3.07291 1.72388 2.76775
3.07104 1.72913 2.78469
3.06204 1.72716 2.78579
3.05212 1.72731 2.79586
3.05428 1.73462 2.81674
3.03427 1.72762 2.816
3.04048 1.73901 2.84279
3.01542 1.72893 2.83612
3.01558 1.73623 2.85602
2.99851 1.72812 2.84826
2.99665 1.73339 2.8662
2.97966 1.72843 2.8684
2.97679 1.73368 2.88535
2.96989 1.73587 2.89737
2.95795 1.73499 2.90548
2.94196 1.73104 2.90765
2.94911 1.73931 2.92648
2.92807 1.73227 2.92274
2.91613 1.73139 2.93085
2.9062 1.73154 2.93992
2.89627 1.73168 2.949
2.88231 1.72976 2.95413
2.88146 1.73606 2.97405
2.86842 1.72999 2.96923
2.86051 1.73218 2.98126
2.85564 1.73642 2.99724
2.84066 1.73347 3.00039
2.82165 1.72747 2.99963
2.82888 1.73991 3.02939
2.8038 1.72978 3.01973
2.80389 1.73396 3.03167
2.79094 1.73206 3.0378
2.781 1.73218 3.04587
2.76804 1.73128 3.05198
2.74919 1.73259 3.07211
2.75037 1.74093 3.09498
2.73531 1.73484 3.08818
2.72942 1.73805 3.10218
2.70838 1.73099 3.09744
2.70755 1.73832 3.11934
2.69358 1.73638 3.12348
2.6887 1.74062 3.13945
2.67676 1.73974 3.14656
2.6637 1.73364 3.13974
2.64671 1.72967 3.14093
2.64486 1.73697 3.16084
2.62281 1.7289 3.15512
2.61288 1.72904 3.1642
2.60296 1.73019 3.17426
2.25485 1.74115 3.42675
2.23684 1.73613 3.42496
2.22195 1.73836 3.44004
2.20696 1.73539 3.4412
2.19703 1.73754 3.45125
2.16401 1.72952 3.44861
2.15307 1.73065 3.45668
2.1472 1.73491 3.47366
2.12906 1.72465 3.45595
1.78756 1.73783 3.65635
1.76746 1.72966 3.64363
1.75754 1.73181 3.65367
1.74051 1.72778 3.65086
1.74167 1.73608 3.67073
1.72665 1.73306 3.66889
1.71879 1.73833 3.68687
1.69868 1.73014 3.67314
1.68979 1.73435 3.68715
1.67172 1.72723 3.67839
1.66181 1.73042 3.69042
1.65891 1.73459 3.70238
1.6449 1.73261 3.70251
1.635 1.7368 3.71553
1.61591 1.72864 3.70379
1.60396 1.72975 3.71086
1.5961 1.73501 3.72785
1.57701 1.72786 3.7171
1.57307 1.73098 3.72508
1.56215 1.73314 3.73513
1.54508 1.72703 3.72735
1.5311 1.72607 3.72947
1.52528 1.73542 3.75238
1.50721 1.7283 3.74362
1.49423 1.72735 3.74673
1.49438 1.73565 3.76661
1.47631 1.72951 3.75684
1.46131 1.72752 3.75698
1.44935 1.72762 3.76307
1.43332 1.72357 3.75925
1.41828 1.71951 3.75442
1.41452 1.73197 3.78527
1.40139 1.72373 3.76849
1.38945 1.72486 3.77656
1.37544 1.72285 3.7757
1.36863 1.73223 3.80061
1.35259 1.72815 3.79479
1.33653 1.72306 3.78799
1.32562 1.72623 3.79903
1.31758 1.72316 3.79413
1.30668 1.72736 3.80715
1.29165 1.72433 3.80431
1.27972 1.72546 3.81238
1.26775 1.72654 3.81746
1.25275 1.72454 3.8166
1.24696 1.73494 3.8435
4.01785 1.72851 1.16135
4.0189 1.73062 1.16831
3.97789 1.71365 1.16887
3.81363 1.71514 1.53313
3.79685 1.71458 1.56227
3.7693 1.71649 1.62246
3.77136 1.71861 1.63041
3.76144 1.71677 1.64052
3.75051 1.71491 1.64963
3.75565 1.72117 1.6675
3.74773 1.72034 1.67857
3.7388 1.71849 1.68867
3.73389 1.71967 1.70069
3.73094 1.71976 1.70671
3.718 1.71689 1.71485
3.71611 1.71912 1.72984
3.71924 1.72436 1.74674
3.71634 1.72656 1.75973
3.70842 1.72573 1.7708
3.69247 1.72083 1.777
3.69153 1.72295 1.78497
3.69365 1.72718 1.8009
3.6787 1.7233 1.80807
3.67882 1.72652 1.82302
3.6719 1.72669 1.83407
3.65896 1.72382 1.84221
3.65902 1.72493 1.8502
3.65813 1.72816 1.86516
3.65423 1.73035 1.87816
3.65234 1.73356 1.89213
3.6394 1.72969 1.90028
3.63952 1.73392 1.91622
3.63462 1.73512 1.92924
3.62871 1.7363 1.94127
3.62375 1.73538 1.94632
3.61884 1.73656 1.95834
3.61092 1.73673 1.9694
3.59296 1.73082 1.97462
3.58403 1.72997 1.98471
3.57623 1.73436 2.0107
3.56323 1.72937 2.01087
3.55342 1.73175 2.03592
3.55153 1.73597 2.05087
3.53569 1.7353 2.072
3.52174 1.73141 2.07917
3.52583 1.73657 2.09006
3.50798 1.73488 2.11022
3.48511 1.73115 2.12745
3.47617 1.73029 2.13653
3.47436 1.73664 2.16046
3.46845 1.73783 2.17249
3.45651 1.73495 2.18062
3.4496 1.73614 2.19266
3.44671 1.73834 2.20665
3.41879 1.73254 2.21895
3.38906 1.7321 2.25518
3.37625 1.73446 2.27925
3.37336 1.73769 2.29422
3.36148 1.73793 2.31031
3.32879 1.73856 2.35155
3.31391 1.7378 2.36668
3.30296 1.73592 2.37479
3.14137 1.73879 2.56199
2.7171 1.73147 2.92735
4.12137 1.71372 0.301666
4.12548 1.71592 0.315604
4.11256 1.71109 0.326775
4.1046 1.70817 0.331879
4.09368 1.70435 0.343019
4.09078 1.70454 0.35604
4.09799 1.70995 0.383909
4.07906 1.70311 0.394155
4.09018 1.70833 0.408996
4.1033 1.71655 0.424777
4.0754 1.70478 0.439164
4.06749 1.70296 0.451252
4.05883 1.70364 0.496313
4.08497 1.71688 0.513923
4.08318 1.71928 0.540904
4.06825 1.71344 0.551105
4.07436 1.71766 0.565998
4.06445 1.71483 0.577116
4.05047 1.70889 0.58031
4.05458 1.71211 0.595234
4.06771 1.72033 0.611015
4.03474 1.70645 0.61747
4.03885 1.70965 0.631393
4.02693 1.70582 0.642541
4.02603 1.70702 0.655532
3.83249 1.71391 1.24797
3.85166 1.72522 1.26966
