-1.19394 1.71066 5.46114
-1.22615 1.70428 5.43447
-1.25221 1.70318 5.42668
-1.5909 1.70005 5.33627
-1.61793 1.70201 5.33244
-1.65302 1.70086 5.32072
-1.67104 1.70182 5.31685
-1.68907 1.70178 5.31398
-1.71319 1.69957 5.29819
-1.73221 1.69953 5.29534
-1.76924 1.7025 5.29157
-1.8014 1.69922 5.27086
-1.81139 1.70024 5.27192
-1.82843 1.70016 5.26605
-1.8455 1.69904 5.25719
-1.86841 1.70523 5.26928
-1.88157 1.69993 5.24845
-1.89958 1.70092 5.24657
-1.91666 1.69978 5.23671
-1.93175 1.69761 5.22486
-1.94272 1.69967 5.22791
-1.96074 1.70063 5.22503
-1.97387 1.69739 5.20818
-1.99778 1.70359 5.22027
-2.01485 1.70247 5.21141
-2.03385 1.70447 5.21052
-2.04994 1.7023 5.19868
-2.06091 1.70437 5.20273
-2.0819 1.70741 5.20484
-2.08816 1.6979 5.17003
-2.11795 1.70932 5.19708
-2.12619 1.70087 5.16627
-2.1501 1.70705 5.17736
-2.15931 1.69965 5.15053
-2.17716 1.70796 5.17055
-2.18539 1.69952 5.14073
-2.20538 1.70254 5.14084
-2.22145 1.70142 5.13197
-2.23948 1.70237 5.12809
-2.25457 1.70021 5.11624
-2.26066 1.69805 5.10531
-2.27967 1.70003 5.10343
-2.29868 1.70201 5.10154
-2.31477 1.69986 5.09069
-2.33378 1.70185 5.08881
-2.34689 1.69965 5.07494
-2.36691 1.70162 5.07206
-2.37001 1.69742 5.05814
-2.39199 1.70148 5.06125
-2.40413 1.69722 5.0434
-2.41921 1.69607 5.03253
-2.44315 1.7012 5.04063
-2.45922 1.70107 5.03075
-2.47824 1.70203 5.02788
-2.49726 1.70402 5.026
-2.50432 1.70291 5.01807
-2.51841 1.70072 5.0052
-2.53251 1.69854 4.99234
-2.55252 1.70154 4.99145
-2.56959 1.70142 4.98257
-2.58761 1.70237 4.9787
-2.60073 1.70016 4.96383
-2.61172 1.70118 4.96489
-2.63371 1.70521 4.966
-2.64779 1.70406 4.95512
-2.66288 1.7029 4.94325
-2.68191 1.70385 4.93938
-2.69503 1.70164 4.92451
-2.70518 1.69735 4.90465
-2.72898 1.70775 4.93067
-2.73224 1.69925 4.89682
-2.75717 1.70539 4.90492
-2.76733 1.70008 4.88407
-2.79228 1.70619 4.89017
-2.79651 1.69775 4.86032
-2.82358 1.69964 4.8515
-2.84261 1.70159 4.84761
-2.85768 1.70045 4.83774
-2.87376 1.70032 4.82786
-2.87701 1.69185 4.79601
-2.90688 1.7011 4.8121
-2.90308 1.69272 4.78619
-2.93 1.69988 4.79629
-2.93817 1.69456 4.77442
-2.95819 1.69753 4.77153
-2.96833 1.69326 4.75267
-2.99625 1.70043 4.76277
-2.99554 1.68987 4.72492
-3.01543 1.6971 4.73996
-3.02655 1.69487 4.72408
-3.05052 1.69993 4.72718
-3.05475 1.69151 4.69834
-3.08166 1.69968 4.70842
-3.0849 1.69122 4.67757
-3.11381 1.6994 4.68866
-3.10702 1.69 4.66175
-3.13495 1.69715 4.67085
-3.14905 1.69597 4.65798
-3.17202 1.70103 4.66107
-3.18118 1.69673 4.6402
-3.20021 1.69868 4.63632
-3.21925 1.70061 4.63043
-3.22939 1.69735 4.61255
-3.23149 1.69416 4.59962
-3.24954 1.69507 4.59274
-3.25968 1.69181 4.57486
-3.28068 1.69581 4.57396
-3.29973 1.69773 4.56807
-3.31086 1.69449 4.5512
-3.33186 1.69849 4.5503
-3.33496 1.6953 4.53737
-3.34608 1.69309 4.52248
-3.36413 1.69398 4.51461
-3.38316 1.69693 4.5107
-3.39528 1.69471 4.49483
-3.41828 1.69872 4.49494
-3.41641 1.69347 4.478
-3.45153 1.69626 4.46222
-3.47552 1.70029 4.46334
-3.48762 1.69909 4.44945
-3.5168 1.69876 4.42567
-3.52483 1.6987 4.42173
-3.53794 1.69751 4.40785
-3.5681 1.69822 4.38706
-3.58417 1.69808 4.37718
-3.59332 1.69481 4.3583
5.98703 1.65814 -0.0149378
5.98066 1.65939 0.0691032
5.98717 1.66337 0.136004
5.96929 1.65864 0.153212
5.97544 1.66093 0.173134
5.96558 1.6592 0.191236
5.97988 1.66477 0.230052
5.96007 1.66017 0.256273
5.96636 1.66374 0.295178
5.94713 1.66327 0.397344
5.91746 1.6639 0.573582
5.90437 1.6677 0.694641
5.88127 1.66849 0.81482
5.87742 1.66878 0.833848
5.87563 1.67019 0.861844
5.89982 1.67954 0.886527
5.86991 1.67174 0.898869
5.86404 1.67101 0.916927
5.8662 1.67331 0.936879
5.87536 1.67761 0.957749
5.87852 1.68092 0.978679
5.87658 1.68106 0.987693
5.8647 1.6783 1.00383
5.87186 1.68261 1.02471
5.87201 1.6839 1.04469
5.86414 1.68316 1.06177
5.83323 1.67436 1.07413
5.81341 1.67073 1.09834
5.09291 1.70775 2.89247
5.03665 1.71124 2.99085
4.96348 1.71291 3.10039
4.91741 1.69982 3.09293
4.92865 1.70827 3.12373
1.78113 1.71282 5.32568
1.76419 1.71295 5.3338
1.74623 1.71304 5.33894
1.72825 1.71309 5.34207
1.72236 1.71631 5.35607
1.70438 1.71636 5.35921
1.68335 1.71332 5.35541
1.67153 1.71968 5.37941
1.65667 1.72396 5.39746
1.63356 1.71676 5.38274
1.61355 1.71476 5.38192
1.60764 1.71794 5.39392
1.59276 1.72218 5.40997
1.57377 1.72121 5.41113
1.55579 1.72027 5.41428
1.53992 1.72452 5.43033
1.52194 1.72358 5.43348
1.5109 1.72151 5.4286
1.49396 1.72264 5.43671
1.47394 1.72061 5.43389
1.45599 1.72071 5.44002
1.44214 1.72602 5.46005
1.4242 1.72715 5.46817
1.40829 1.72933 5.47926
1.36237 1.72952 5.49061
1.3254 1.72861 5.4949
1.30641 1.72764 5.49606
1.27152 1.72988 5.51129
0.279339 1.72716 5.62382
0.24227 1.72406 5.61514
0.20531 1.72516 5.62041
0.196433 1.7294 5.63641
0.177365 1.72728 5.62759
0.15838 1.72732 5.62973
0.140396 1.72837 5.63185
0.121327 1.72525 5.62304
0.0842587 1.72214 5.61436
0.074375 1.72737 5.62936
0.0562438 1.72113 5.61259
0.027837 1.72038 5.42579
0.0188529 1.72142 5.42784
0.000837755 1.7204 5.42599
-0.0171768 1.72039 5.42413
-0.0351687 1.72041 5.42526
-0.0522687 1.71623 5.41245
-0.0701828 1.72041 5.42352
-0.0882287 1.71834 5.41769
-0.0972749 1.71625 5.41179
-0.115236 1.71834 5.41689
-0.133297 1.71523 5.40907
-0.15218 1.72047 5.42414
-0.168435 1.70999 5.39141
-0.187249 1.71836 5.41544
-0.205387 1.71211 5.39766
-0.213395 1.7121 5.39672
-0.232309 1.71628 5.4078
-0.250269 1.71836 5.41291
-0.267392 1.71314 5.39711
-0.28633 1.71627 5.40521
-0.302514 1.70893 5.38144
-0.321421 1.71312 5.39352
-0.330436 1.7121 5.3916
-0.347505 1.70998 5.38276
-0.366442 1.71311 5.39086
-0.402387 1.71624 5.39809
-0.418571 1.7089 5.37431
-0.437509 1.71203 5.38241
-0.446454 1.71414 5.38945
-0.463616 1.70784 5.36867
-0.481584 1.70991 5.37277
-0.498684 1.70573 5.35996
-0.518528 1.71304 5.38001
-0.533721 1.70568 5.35523
-0.560696 1.70775 5.3584
-0.577773 1.70461 5.34857
-0.614755 1.70667 5.35082
-0.631816 1.70456 5.34298
-0.648862 1.70349 5.33712
-0.66776 1.70869 5.35019
-0.674884 1.70346 5.33432
-0.692914 1.70241 5.33047
-0.728935 1.7034 5.32773
-0.745934 1.70341 5.32785
-0.764925 1.70544 5.32897
-0.844982 1.70638 5.32156
-0.862051 1.70426 5.31271
-0.897079 1.70522 5.30896
-0.92314 1.70312 5.30119
-0.958184 1.70306 5.29545
-0.977167 1.7051 5.29757
-0.993244 1.70297 5.28772
-1.0103 1.70188 5.28086
-1.01831 1.70185 5.27892
-1.05626 1.70597 5.28515
-1.07233 1.70385 5.2763
-1.09034 1.70484 5.27542
-1.12445 1.70165 5.26072
-1.1415 1.70157 5.25485
-1.14952 1.70053 5.25193
-1.18553 1.70253 5.25017
-1.23762 1.70239 5.23856
-1.25467 1.70131 5.2327
-1.2637 1.70126 5.22877
-1.29679 1.69911 5.21705
-1.3489 1.69892 5.20245
-1.35788 1.69996 5.2045
-1.39488 1.70299 5.20473
-1.40901 1.69874 5.1879
-1.44407 1.69865 5.18016
-1.46913 1.69855 5.17235
-1.48715 1.69852 5.16949
-1.52317 1.7015 5.16672
-1.54021 1.70144 5.16184
-1.55433 1.69721 5.14601
-1.57527 1.70135 5.15411
-1.58842 1.69706 5.13427
-1.63542 1.70109 5.13456
-1.64855 1.69684 5.11672
-1.66655 1.69785 5.11684
-1.68653 1.70089 5.11895
-1.7016 1.69977 5.11008
-1.71258 1.70083 5.11314
-1.72766 1.69967 5.10227
-1.74471 1.6996 5.0964
-1.76174 1.69955 5.09253
-1.77879 1.69946 5.08566
-1.79778 1.70149 5.08677
-1.81385 1.70037 5.07791
-1.82187 1.70033 5.07497
-1.84283 1.70442 5.08007
-1.85791 1.70226 5.06921
-1.86907 1.69696 5.04837
-1.89591 1.70629 5.06944
-1.90805 1.70203 5.05159
-1.91607 1.702 5.04865
-1.93704 1.70507 5.05276
-1.95604 1.70707 5.05188
-1.97113 1.70492 5.04102
-1.98913 1.70692 5.04013
-2.00911 1.70996 5.04223
-2.01833 1.70255 5.01441
-2.0293 1.70462 5.01846
-2.05026 1.70869 5.02256
-2.06534 1.70756 5.01269
-2.07845 1.70434 4.99783
-2.09942 1.70742 5.00195
-2.10863 1.70103 4.97511
-2.12665 1.70199 4.97223
-2.14958 1.70714 4.98133
-2.15172 1.70186 4.96242
-2.17072 1.70388 4.96253
-2.18776 1.70482 4.95764
-2.2058 1.70575 4.95277
-2.22284 1.70568 4.94689
-2.23791 1.70556 4.93801
-2.24612 1.69715 4.91019
-2.25611 1.69919 4.91224
-2.28396 1.70849 4.93131
-2.29315 1.70212 4.90647
-2.3092 1.70203 4.89959
-2.32919 1.70506 4.9007
-2.33444 1.69659 4.86886
-2.35738 1.70171 4.87596
-2.36739 1.7027 4.87502
-2.38344 1.70261 4.86814
-2.3995 1.7025 4.86026
-2.42048 1.70556 4.86337
-2.43064 1.70125 4.84151
-2.45063 1.70427 4.84262
-2.46473 1.70209 4.82975
-2.46586 1.69684 4.81284
-2.48979 1.70299 4.82193
-2.50389 1.70081 4.80906
-2.51503 1.69654 4.79021
-2.53601 1.7006 4.79331
-2.5629 1.70882 4.80739
-2.55813 1.69938 4.77749
-2.58206 1.70553 4.78658
-2.59616 1.70334 4.77372
-2.60434 1.698 4.74985
-2.63222 1.70624 4.76495
-2.64334 1.70301 4.74907
-2.65547 1.69977 4.73221
-2.66744 1.70283 4.73626
-2.68055 1.70064 4.72239
-2.69858 1.70257 4.71749
-2.71266 1.70144 4.70761
-2.73267 1.70342 4.70574
-2.73887 1.69704 4.67987
-2.75788 1.70003 4.67797
-2.77282 1.70415 4.68602
-2.77804 1.69674 4.65817
-2.79803 1.69976 4.65828
-2.81015 1.69753 4.6424
-2.82029 1.69327 4.62453
-2.84425 1.69936 4.62963
-2.85143 1.69301 4.60577
-2.86946 1.69497 4.60188
-2.87847 1.69596 4.60093
-2.89355 1.69581 4.59004
-2.9096 1.69571 4.58317
-2.92468 1.69558 4.57328
-2.94765 1.70065 4.57738
-2.95681 1.69635 4.55651
-2.97187 1.69623 4.54762
-2.98583 1.70031 4.55267
-2.99399 1.69501 4.5318
-3.00413 1.69175 4.51393
-3.03105 1.69991 4.52401
-3.04316 1.69772 4.51013
-3.05329 1.69446 4.49225
-3.07121 1.70063 4.5033
-3.07738 1.69531 4.48142
-3.09641 1.69725 4.47654
-3.11544 1.69921 4.47265
-3.12556 1.69698 4.45676
-3.1436 1.69892 4.45186
-3.1488 1.69153 4.42601
-3.1677 1.69873 4.43805
-3.18475 1.69963 4.43116
-3.19092 1.69531 4.40927
-3.21588 1.7014 4.41437
-3.22404 1.6961 4.3935
-3.24009 1.69801 4.38659
-3.25221 1.6958 4.37172
-3.29434 1.69856 4.35399
-3.32052 1.69722 4.3302
-3.37576 1.69879 4.29859
-3.43309 1.69718 4.25504
5.79353 1.65236 -0.34544
5.79667 1.65363 -0.32748
5.78974 1.65178 -0.317399
5.79488 1.65404 -0.299469
5.79301 1.65331 -0.281442
5.79115 1.65258 -0.263414
5.79443 1.65512 -0.226471
5.78856 1.6534 -0.208399
5.80363 1.65852 -0.199587
5.81478 1.66179 -0.180717
5.7939 1.65606 -0.163473
5.80205 1.65933 -0.14458
5.81519 1.6636 -0.125739
5.79232 1.65687 -0.108465
5.80246 1.66015 -0.0895874
5.80653 1.66128 -0.0806335
5.80567 1.66154 -0.0626285
5.7948 1.65882 -0.0445038
5.81495 1.66609 -0.0257605
5.81008 1.66536 -0.00771061
5.80522 1.66463 0.0103393
5.80836 1.6659 0.0292993
5.81343 1.66803 0.0382309
5.81056 1.6673 0.0562658
5.8057 1.66657 0.0743157
5.80984 1.66885 0.0932534
5.79197 1.66312 0.110475
5.81512 1.67139 0.130181
5.82327 1.67467 0.149074
5.8184 1.67394 0.167124
5.81747 1.67407 0.17613
5.8006 1.66934 0.19333
5.81175 1.67363 0.213185
5.80088 1.67089 0.23031
5.81302 1.67616 0.249143
5.80116 1.67343 0.267275
5.80622 1.67456 0.276221
5.78935 1.67083 0.293406
5.78549 1.6701 0.311449
5.79263 1.67337 0.330349
5.77776 1.66964 0.347519
5.79091 1.67492 0.367344
5.78304 1.67318 0.384431
5.7801 1.67232 0.393468
5.77724 1.67258 0.411488
5.78453 1.67714 0.449371
5.77666 1.6754 0.466458
5.76478 1.67266 0.48359
5.77694 1.67796 0.504423
4.73528 1.71167 3.07513
4.72338 1.71089 3.08923
4.70947 1.71008 3.10135
4.67746 1.70209 3.10071
4.66749 1.70015 3.10481
4.66264 1.70244 3.12382
4.6256 1.69241 3.12024
4.57809 1.6934 3.1856
1.78198 1.72555 5.17246
1.75912 1.72883 5.19059
1.72318 1.72796 5.19787
1.67027 1.7272 5.21128
1.52258 1.7279 5.25239
1.51361 1.72796 5.25646
0.470866 1.72713 5.42735
0.353922 1.72732 5.43523
0.33593 1.72735 5.43636
0.316892 1.72529 5.43154
0.280893 1.72532 5.43181
0.262901 1.72535 5.43294
0.253947 1.72644 5.43899
0.23594 1.72644 5.43813
0.217941 1.72645 5.43827
0.199918 1.72542 5.43542
0.181895 1.72339 5.43258
0.163895 1.7234 5.43272
0.136912 1.72445 5.43491
0.117812 1.72027 5.42211
0.0818354 1.72034 5.42538
0.0638359 1.72036 5.42552
0.0469061 1.7235 5.4346
0.0282216 1.71221 5.21188
0.0111606 1.71011 5.20403
-0.00583891 1.71012 5.20416
-0.0238384 1.71013 5.2043
-0.0408536 1.70912 5.20244
-0.0577678 1.71329 5.21351
-0.0668604 1.70912 5.20164
-0.0838907 1.70807 5.19778
-0.100844 1.71018 5.20388
-0.118835 1.7112 5.205
-0.135835 1.71122 5.20512
-0.152989 1.70393 5.18536
-0.169888 1.70914 5.19841
-0.195987 1.70496 5.18567
-0.212994 1.70496 5.1848
-0.230924 1.70811 5.19389
-0.248001 1.70497 5.18406
-0.264992 1.706 5.18517
-0.282945 1.7081 5.19128
-0.290945 1.70811 5.19134
-0.307084 1.70185 5.17355
-0.325067 1.7039 5.17565
-0.36005 1.70495 5.1779
-0.37612 1.70183 5.16907
-0.402103 1.70388 5.17124
-0.436171 1.70177 5.16252
-0.470192 1.70175 5.15978
-0.505191 1.70278 5.16003
-1.06588 1.69879 5.0703
-1.16708 1.69748 5.04508
-1.58094 1.69406 4.93223
-1.62302 1.69495 4.92253
-1.63907 1.69385 4.91567
-1.7463 1.69547 4.88545
-1.76137 1.69334 4.87559
-1.77939 1.69532 4.8737
-1.79542 1.69526 4.86882
-1.82751 1.6951 4.85706
-1.83457 1.69299 4.84914
-1.8506 1.69294 4.84526
-1.86665 1.69287 4.83939
-1.88762 1.69694 4.84348
-1.90268 1.69583 4.83561
-1.91774 1.69471 4.82674
-1.9387 1.69981 4.83282
-1.94476 1.6977 4.8249
-1.96079 1.69764 4.82002
-1.97881 1.69961 4.81713
-1.98995 1.69435 4.79929
-2.0191 1.69207 4.77954
-2.04006 1.69618 4.78564
-2.05922 1.69187 4.76384
-2.07625 1.69282 4.75995
-2.09131 1.69171 4.75208
-2.10539 1.69057 4.7422
-2.12341 1.69154 4.73933
-2.13635 1.69667 4.74735
-2.14945 1.69349 4.73449
-2.16746 1.69547 4.7326
-2.17662 1.69017 4.71174
-2.19464 1.69113 4.70886
-2.21069 1.69206 4.70297
-2.23181 1.68984 4.68716
-2.2508 1.69285 4.68726
-2.26291 1.68965 4.6734
-2.28094 1.69061 4.66952
-2.30288 1.69572 4.67661
-2.31598 1.69354 4.66374
-2.32711 1.69031 4.64787
-2.33907 1.6934 4.65291
-2.35905 1.69742 4.654
-2.37116 1.69423 4.64014
-2.38918 1.69619 4.63724
-2.39932 1.69194 4.61938
-2.41636 1.69286 4.6135
-2.43732 1.69695 4.61859
-2.44254 1.68954 4.59074
-2.45549 1.69264 4.59679
-2.47547 1.69668 4.59888
-2.48857 1.6945 4.58601
-2.50758 1.6975 4.58511
-2.51871 1.69425 4.56824
-2.53277 1.69313 4.55936
-2.54587 1.69095 4.54649
-2.55586 1.69297 4.54754
-2.56601 1.6887 4.52867
-2.585 1.69172 4.52977
-2.60007 1.6916 4.52089
-2.61317 1.69042 4.508
-2.63414 1.69448 4.5111
-2.63427 1.68923 4.49417
-2.65328 1.69121 4.49229
-2.67328 1.69522 4.49238
-2.68341 1.69098 4.47552
-2.69255 1.68772 4.45763
-2.70762 1.6876 4.44875
-2.72367 1.68751 4.44187
-2.73366 1.68953 4.44291
-2.74774 1.68938 4.43202
-2.75491 1.68406 4.41015
-2.77886 1.68916 4.41625
-2.79786 1.69218 4.41635
-2.80108 1.68475 4.38748
-2.82602 1.69087 4.39458
-2.83701 1.69391 4.39662
-2.8501 1.69174 4.38475
-2.86714 1.69366 4.37885
-2.87923 1.69149 4.36697
-2.8864 1.68617 4.3451
-2.89948 1.68602 4.3342
-2.91751 1.68797 4.3303
-2.92665 1.68372 4.31243
-2.94456 1.69091 4.32446
-2.95764 1.68975 4.31358
-2.9648 1.68545 4.29269
-2.98678 1.68949 4.2948
-3.0058 1.69246 4.2919
-3.01494 1.6882 4.27403
-3.02901 1.68808 4.26513
-3.04098 1.69213 4.26817
-3.05209 1.68992 4.25328
-3.07112 1.69189 4.25039
-3.08617 1.69278 4.24249
-3.09433 1.68849 4.22261
-3.11632 1.69352 4.22371
-3.13434 1.69549 4.22081
-3.13248 1.69022 4.20287
-3.15249 1.69321 4.20098
-3.17152 1.69616 4.19708
-3.1757 1.68981 4.1732
-3.19471 1.69279 4.1713
-3.21572 1.69679 4.1704
-3.21286 1.69051 4.15147
-3.23089 1.69346 4.14756
-3.26103 1.69422 4.12977
-3.28104 1.6972 4.12788
-3.3082 1.69691 4.10708
-3.34241 1.69652 4.07934
-4.37851 1.6733 3.00835
5.5721 1.65853 0.129202
5.57024 1.6588 0.147215
5.54848 1.65926 0.312395
5.55061 1.66052 0.330362
5.53907 1.66042 0.390459
5.5412 1.66168 0.408427
5.54434 1.66395 0.426372
5.53847 1.6632 0.44343
5.53553 1.66234 0.452466
5.53666 1.66459 0.469426
5.52879 1.66285 0.486514
5.52993 1.66411 0.504489
5.54408 1.6704 0.524292
5.5322 1.66664 0.540439
5.53534 1.66891 0.558385
5.55043 1.67507 0.570181
5.53654 1.67131 0.585344
5.52967 1.67056 0.602409
5.54182 1.67585 0.622242
5.53394 1.67409 0.63833
5.52707 1.67335 0.655395
5.52921 1.67561 0.673348
5.51832 1.67286 0.689473
5.51939 1.67399 0.698449
5.54357 1.68331 0.721132
5.51966 1.67652 0.734414
5.52122 1.6826 0.807323
4.49596 1.70621 3.034
4.47802 1.70334 3.04218
4.46812 1.70356 3.05626
4.45011 1.69854 3.05447
4.42914 1.69363 3.0597
4.42127 1.69489 3.07674
2.00943 1.7064 4.83398
1.99449 1.70753 4.84208
1.97855 1.70766 4.8502
1.96567 1.71089 4.86525
1.95075 1.71305 4.87533
1.93683 1.71522 4.88641
1.92682 1.71321 4.88551
1.90984 1.71227 4.88865
1.898 1.71757 4.90867
1.88921 1.72598 4.93561
1.86915 1.72089 4.92884
1.85628 1.72515 4.94587
1.57991 1.72558 5.03096
1.56191 1.72359 5.03113
1.53981 1.7174 5.01738
1.52387 1.71855 5.02649
1.50792 1.71965 5.03259
1.48991 1.71765 5.03176
1.48607 1.72396 5.0527
1.4691 1.72403 5.05682
1.45211 1.72306 5.05797
0.863041 1.72528 5.18339
0.802095 1.72443 5.19086
0.785133 1.72551 5.19597
0.750149 1.72457 5.19825
0.733156 1.7236 5.19939
0.708218 1.72573 5.20755
0.612273 1.72491 5.21529
0.594242 1.72286 5.21145
0.577289 1.72396 5.21757
0.558212 1.72083 5.20775
0.541228 1.72087 5.20988
0.524251 1.72093 5.21301
0.507313 1.72306 5.22111
0.497228 1.7189 5.21024
0.481344 1.72414 5.22529
0.464367 1.72419 5.22841
0.446375 1.72422 5.22955
0.428213 1.71692 5.20879
0.411337 1.72217 5.22484
0.393244 1.71701 5.21305
0.38416 1.71385 5.20217
0.367245 1.71703 5.21325
0.349238 1.71603 5.2124
0.332199 1.71396 5.20756
0.314176 1.71293 5.20471
0.297239 1.71606 5.21279
0.280293 1.71718 5.2199
0.271193 1.71299 5.20703
0.25424 1.71509 5.21313
0.236201 1.71303 5.2083
0.219295 1.71722 5.22036
0.202256 1.71516 5.21552
0.184249 1.71416 5.21467
0.167265 1.7152 5.21678
0.158242 1.71416 5.21387
0.141211 1.71212 5.21002
0.12439 1.72047 5.23303
0.106228 1.71317 5.21227
0.0892048 1.71214 5.20942
0.0723521 1.71843 5.22845
0.0542522 1.71425 5.21565
0.0462368 1.71323 5.21372
0.0330142 1.70684 5.0519
0.0159839 1.7058 5.04804
-0.00101558 1.70581 5.04817
-0.00903103 1.70478 5.04624
-0.0260845 1.70269 5.0394
-0.0430765 1.70272 5.04053
-0.0600446 1.70479 5.04463
-0.0770209 1.70585 5.04774
-0.0931215 1.70067 5.03494
-0.110012 1.70589 5.04899
-0.119027 1.70586 5.04706
-0.135143 1.70065 5.03225
-0.16908 1.7038 5.04046
-0.20211 1.70276 5.03673
-0.219171 1.70066 5.02888
-0.228131 1.70274 5.03392
-0.244131 1.70275 5.03404
-0.261115 1.70379 5.03616
-1.54299 1.69298 4.79294
-1.6312 1.69263 4.7656
-1.67735 1.69137 4.74597
-1.69338 1.6913 4.74109
-1.72643 1.69324 4.73531
-1.76457 1.69098 4.71663
-1.81269 1.69078 4.70099
-1.8819 1.69042 4.67351
-1.90089 1.69245 4.67463
-1.91497 1.69131 4.66475
-1.92299 1.69127 4.66181
-2.01528 1.68976 4.62352
-2.02428 1.69177 4.62356
-2.05243 1.68849 4.60382
-2.10054 1.6903 4.58915
-2.11659 1.69023 4.58327
-2.13867 1.69008 4.57244
-2.15177 1.6879 4.55957
-2.17076 1.69093 4.56067
-2.18383 1.68879 4.5508
-2.19987 1.68972 4.5459
-2.22999 1.68851 4.53014
-2.24096 1.69156 4.53318
-2.25405 1.69041 4.5223
-2.27305 1.69242 4.52241
-2.28415 1.69022 4.50852
-2.31526 1.69002 4.49376
-2.31934 1.68688 4.48384
-2.33735 1.68988 4.48293
-2.35339 1.6898 4.47705
-2.36352 1.68656 4.46017
-2.38645 1.69271 4.46925
-2.39953 1.69155 4.45837
-2.41164 1.68835 4.4445
-2.41768 1.68727 4.43856
-2.44483 1.68599 4.41879
-2.4658 1.69007 4.42288
-2.48086 1.68996 4.415
-2.48903 1.68464 4.39313
-2.51393 1.69284 4.4052
-2.51604 1.68863 4.39128
-2.53307 1.68958 4.38739
-2.55009 1.69155 4.38449
-2.55726 1.68623 4.36262
-2.57134 1.68509 4.35274
-2.60414 1.69849 4.37779
-2.61624 1.6963 4.36492
-2.61945 1.68789 4.33706
-2.62748 1.68784 4.33312
-2.63957 1.68667 4.32123
-2.65365 1.68553 4.31135
-2.66574 1.68436 4.29946
-2.68178 1.6853 4.29456
-2.69191 1.68206 4.27769
-2.72176 1.69334 4.29575
-2.72287 1.68914 4.28181
-2.72806 1.68177 4.25696
-2.75694 1.69201 4.27203
-2.7631 1.68671 4.25115
-2.76927 1.68139 4.22927
-2.79816 1.69061 4.24335
-2.81025 1.68845 4.23148
-2.80939 1.68318 4.21355
-2.83432 1.69033 4.22263
-2.84443 1.68811 4.20774
-2.85356 1.68387 4.19086
-2.8785 1.69201 4.19893
-2.89059 1.68984 4.18705
-2.89071 1.6856 4.17112
-2.90972 1.6886 4.17021
-2.92973 1.69158 4.16832
-2.93588 1.68729 4.14843
-2.95588 1.69131 4.14852
-2.96798 1.68912 4.13564
-2.98402 1.69105 4.12973
-2.98611 1.68687 4.11781
-3.00217 1.68878 4.1109
-3.01723 1.68867 4.10301
-3.03426 1.69061 4.09811
-3.04535 1.68944 4.08621
-3.05943 1.6893 4.07632
-3.07943 1.6933 4.07541
-3.07361 1.68496 4.05249
-3.08966 1.68586 4.04559
-3.11559 1.69402 4.05467
-3.1267 1.6918 4.03978
-3.1378 1.69062 4.02688
-3.1489 1.68943 4.01398
-3.16495 1.69034 4.00709
-3.17892 1.69441 4.01113
-3.19002 1.69223 3.99825
-3.20804 1.69518 3.99434
-3.22013 1.69403 3.98345
-3.23222 1.69386 3.97154
-3.24827 1.69476 3.96465
-3.27147 1.6924 3.93885
5.43594 1.65241 -0.289739
5.44143 1.65832 -0.0928409
5.42955 1.65458 -0.0756937
5.44068 1.65883 -0.058838
5.43375 1.65696 -0.049757
5.42987 1.6562 -0.0337143
5.43801 1.65946 -0.0158214
5.44113 1.66071 0.00113889
5.44026 1.66097 0.0181441
5.43139 1.65922 0.0352391
5.44753 1.66548 0.0530273
5.43759 1.6616 0.0611607
5.43972 1.66387 0.0791136
5.44285 1.66512 0.0960738
5.42797 1.66037 0.112259
5.4321 1.66262 0.129196
5.43324 1.66388 0.147172
5.4343 1.665 0.155148
5.43643 1.66626 0.173116
4.80943 1.70213 2.2986
4.27326 1.70695 3.07468
4.25128 1.70201 3.07792
4.2434 1.70325 3.09396
4.22336 1.6962 3.08921
2.10892 1.70436 4.63324
2.08515 1.71082 4.66332
2.06921 1.71094 4.67044
2.05324 1.71001 4.67458
2.04034 1.71323 4.68863
2.02337 1.71228 4.69177
2.01437 1.7113 4.69285
2.00249 1.71454 4.7079
1.98755 1.71566 4.71599
1.97261 1.71679 4.72409
1.96278 1.72213 4.74609
1.94172 1.71702 4.73832
1.92577 1.71814 4.74543
1.92186 1.72132 4.75741
1.90387 1.71935 4.75858
1.87401 1.72263 4.77676
1.68253 1.72378 4.84619
0.878903 1.72403 5.03227
0.853926 1.72309 5.03547
0.835896 1.72205 5.03162
0.819934 1.72213 5.03674
0.801934 1.72215 5.03687
0.785981 1.72325 5.04298
0.769004 1.7233 5.04611
0.759965 1.72124 5.04121
0.742942 1.71921 5.03836
0.727019 1.72237 5.04844
0.708973 1.71929 5.04262
0.657965 1.71631 5.04205
0.633027 1.71845 5.0502
0.600089 1.72059 5.05842
0.565028 1.7165 5.05075
0.523074 1.71662 5.05706
0.455075 1.71467 5.0576
0.412037 1.71263 5.05296
0.379061 1.71269 5.0562
0.362077 1.71374 5.05832
0.346162 1.71691 5.06939
0.328093 1.71379 5.06057
0.319039 1.71069 5.05368
0.303178 1.71697 5.07171
0.286055 1.71075 5.05593
0.269078 1.7118 5.05905
0.252094 1.71185 5.06117
0.23504 1.70975 5.05433
0.218033 1.70875 5.05347
0.210064 1.70982 5.05752
0.193111 1.71192 5.06362
0.176104 1.71192 5.06274
0.159034 1.7078 5.05393
0.142066 1.70987 5.05803
0.124996 1.70575 5.04922
0.108028 1.70782 5.05332
0.100012 1.70679 5.05139
0.0829663 1.70472 5.04555
0.0660289 1.70785 5.05363
0.0489441 1.7037 5.04282
0.0321257 1.71808 4.93272
0.0240644 1.71597 4.92481
0.00704923 1.71495 4.92295
-0.00903565 1.7108 4.91214
-0.0258952 1.71808 4.93016
-0.0419262 1.71603 4.92631
-0.0579797 1.71394 4.91946
-0.0750181 1.71188 4.91462
-0.0909712 1.71398 4.92071
-0.0990017 1.71292 4.91678
-0.116009 1.71292 4.91591
-0.132039 1.71187 4.91205
-0.149 1.71396 4.91714
-0.165046 1.71188 4.91129
-0.181038 1.71191 4.91242
-0.197099 1.7098 4.90457
-0.206091 1.70982 4.90563
-0.221183 1.70566 4.89381
-0.238159 1.70771 4.8969
-0.254151 1.70774 4.89803
-0.270181 1.70669 4.89416
-0.288087 1.71188 4.90622
-0.29518 1.70771 4.89433
-0.312156 1.70877 4.89745
-0.327287 1.70353 4.88064
-0.344248 1.70561 4.88573
-0.359371 1.69939 4.86994
-0.377223 1.70768 4.88895
-0.392323 1.7035 4.87613
-0.400323 1.70351 4.87619
-0.415408 1.69936 4.86536
-0.433314 1.70455 4.87742
-0.449312 1.70556 4.87752
-0.466266 1.70766 4.88362
-0.482303 1.7066 4.87876
-0.498364 1.70449 4.87091
-0.513434 1.70137 4.86207
-0.522394 1.70345 4.86711
-0.538424 1.7034 4.86323
-0.553493 1.70028 4.85438
-0.571446 1.70338 4.86048
-0.586492 1.7013 4.85462
-0.602521 1.70126 4.85074
-0.619482 1.70334 4.85584
-0.627513 1.70229 4.85191
-0.643527 1.70227 4.85003
-0.659549 1.70224 4.84715
-0.674634 1.69909 4.83631
-0.691625 1.70011 4.83743
-0.706709 1.69696 4.82658
-0.724615 1.70215 4.83864
-0.731677 1.69904 4.83074
-0.749629 1.70314 4.83682
-0.763745 1.69793 4.822
-0.780705 1.70101 4.82708
-0.794797 1.69685 4.81525
-0.812741 1.70096 4.82232
-0.819795 1.69887 4.81541
-0.836763 1.70094 4.8195
-0.852793 1.70089 4.81563
-0.868847 1.6988 4.80878
-0.901829 1.70185 4.81098
-0.914983 1.69556 4.79117
-0.925874 1.70078 4.80518
-0.938996 1.69655 4.78934
-0.955995 1.69756 4.78945
-0.972033 1.6965 4.78458
-0.98804 1.6975 4.78369
-1.00405 1.69848 4.7818
-1.02201 1.70158 4.78789
-1.0361 1.69842 4.77604
-1.04508 1.69945 4.77809
-1.06205 1.70252 4.78217
-1.07713 1.69937 4.77133
-1.09026 1.69413 4.75451
-1.1082 1.69826 4.76258
-1.12133 1.69402 4.74574
-1.14025 1.6992 4.75681
-1.14728 1.69813 4.75188
-1.16525 1.7002 4.75598
-1.18611 1.70848 4.77402
-1.19634 1.69904 4.74423
-1.21138 1.69798 4.73936
-1.23128 1.70417 4.75142
-1.24537 1.70202 4.74056
-1.25145 1.69786 4.72966
-1.27039 1.70299 4.73773
-1.28252 1.69775 4.7209
-1.29857 1.69767 4.71502
-1.31846 1.70388 4.72808
-1.33254 1.70174 4.71821
-1.34469 1.69547 4.6994
-1.35754 1.70375 4.71737
-1.36774 1.69538 4.69257
-1.38278 1.69531 4.68668
-1.40173 1.69942 4.69377
-1.41386 1.69417 4.67593
-1.43087 1.69516 4.67505
-1.44277 1.70136 4.68805
-1.45295 1.69403 4.66523
-1.4719 1.69813 4.67131
-1.48596 1.69703 4.66343
-1.50394 1.69907 4.66554
-1.519 1.69796 4.65767
-1.53795 1.70308 4.66473
-1.54108 1.69683 4.64785
-1.55808 1.69883 4.64695
-1.57704 1.70293 4.65303
-1.59014 1.69873 4.63919
-1.60225 1.69553 4.62532
-1.62219 1.70065 4.6324
-1.63628 1.6985 4.62154
-1.64232 1.69641 4.61561
-1.65542 1.69425 4.60374
-1.67536 1.69836 4.61083
-1.68747 1.69517 4.59697
-1.7074 1.7003 4.60504
-1.72245 1.70021 4.59816
-1.73456 1.69601 4.58431
-1.75745 1.70423 4.59836
-1.75764 1.69586 4.57348
-1.7766 1.69995 4.57857
-1.79655 1.70407 4.58566
-1.81159 1.70399 4.57977
-1.82468 1.70184 4.5689
-1.84267 1.70486 4.56999
-1.85282 1.69957 4.55014
-1.85691 1.69542 4.53923
-1.8749 1.69844 4.54032
-1.88505 1.69315 4.52048
-1.89911 1.69205 4.5126
-1.92104 1.6982 4.52167
-1.93314 1.69501 4.50881
-1.94017 1.69496 4.50486
-1.95816 1.69697 4.50497
-1.97321 1.69689 4.49908
-1.98236 1.6916 4.47923
-1.99742 1.69151 4.47234
-2.01737 1.69661 4.47842
-2.0275 1.69136 4.46057
-2.03945 1.69547 4.4676
-2.05547 1.69643 4.4647
-2.06954 1.69631 4.45581
-2.09147 1.70246 4.46489
-2.09865 1.69511 4.44105
-2.11763 1.69815 4.44314
-2.12679 1.69286 4.42329
-2.13579 1.69387 4.42334
-2.15574 1.69896 4.42842
-2.17276 1.70094 4.42652
-2.18093 1.69462 4.40467
-2.20089 1.69971 4.40974
-2.21889 1.70171 4.40885
-2.22902 1.69746 4.39199
-2.24604 1.69945 4.39008
-2.25503 1.70145 4.39012
-2.2691 1.70033 4.38124
-2.28219 1.69918 4.37036
-2.30018 1.70119 4.37046
-2.31129 1.69899 4.35658
-2.32339 1.69681 4.3437
-2.33844 1.69671 4.33681
-2.3615 1.69761 4.32897
-2.38345 1.70272 4.33506
-2.39751 1.70261 4.32717
-2.40566 1.69833 4.30829
-2.44168 1.7023 4.3045
-2.44476 1.70016 4.29456
-2.45587 1.69694 4.27969
-2.48596 1.69779 4.2679
-2.49905 1.69662 4.25601
-2.51804 1.69965 4.25711
-2.54111 1.70153 4.24826
-2.54827 1.69522 4.2274
-2.5843 1.70119 4.22358
-2.59638 1.69904 4.21271
-2.61044 1.69893 4.20481
-2.61451 1.6968 4.19587
-2.63055 1.69874 4.19096
-2.64461 1.69861 4.18207
-2.65473 1.6954 4.16719
-2.68384 1.6962 4.1524
-2.70395 1.69499 4.13757
-2.72394 1.69902 4.13866
-2.75009 1.69774 4.11887
-2.7602 1.69554 4.10498
-2.8114 1.69618 4.07835
-2.82744 1.69812 4.07344
-2.84051 1.69698 4.06355
5.27163 1.64991 -0.33047
5.27275 1.65014 -0.31448
5.27682 1.65227 -0.305541
5.28007 1.65376 -0.272583
5.28419 1.65501 -0.25563
5.27231 1.65125 -0.239482
5.28744 1.65749 -0.222686
5.2775 1.65362 -0.214553
5.29063 1.65886 -0.197727
5.29276 1.66011 -0.180759
5.30189 1.66336 -0.163874
5.30802 1.6666 -0.146966
5.28713 1.65884 -0.131692
5.30527 1.66609 -0.113933
5.30133 1.66522 -0.105889
5.29345 1.66246 -0.0897869
5.30058 1.6657 -0.0728863
5.30471 1.66795 -0.0559483
5.30383 1.66821 -0.0389432
5.28995 1.66345 -0.022766
5.28907 1.66369 -0.00676068
5.29621 1.66695 0.0111398
5.26725 1.65706 0.0175052
5.26437 1.6563 0.0335403
5.28551 1.66455 0.0512614
5.27663 1.6618 0.0673713
5.26275 1.65804 0.0835337
5.2949 1.6703 0.102113
5.27101 1.66254 0.11741
5.25706 1.65765 0.124588
5.28821 1.66893 0.144189
5.27532 1.66516 0.159344
5.27044 1.6644 0.175394
5.28358 1.66966 0.19322
5.2727 1.6669 0.209345
5.27577 1.66803 0.218306
5.2799 1.67028 0.235244
5.28003 1.67153 0.252227
5.26514 1.66677 0.267412
5.27828 1.67302 0.285223
5.2704 1.67126 0.30131
5.27452 1.67351 0.318248
5.2657 1.67188 0.342342
5.26683 1.67313 0.359318
5.2741 1.67764 0.394201
5.26454 1.6775 0.452283
4.08023 1.70902 3.0711
4.06831 1.70919 3.08219
4.05036 1.70531 3.08938
4.03744 1.70446 3.09949
4.0205 1.70159 3.10767
4.0116 1.70281 3.12172
3.99365 1.69991 3.1279
3.98366 1.69795 3.13
3.96168 1.69301 3.13324
3.76921 1.69414 3.3367
2.81786 1.69889 4.0909
2.80392 1.69902 4.09901
2.78999 1.69917 4.10811
2.74121 1.69965 4.13847
2.72931 1.70083 4.15055
2.7174 1.70302 4.16261
2.70548 1.70419 4.17368
2.68851 1.70226 4.17784
2.22246 1.71041 4.43826
2.21362 1.71572 4.45926
2.19664 1.71377 4.46141
2.18765 1.71379 4.46248
2.17982 1.71913 4.48546
2.16079 1.71609 4.48165
2.14585 1.71622 4.48976
2.13598 1.72048 4.50678
2.118 1.71852 4.50894
2.10304 1.71862 4.51505
2.08012 1.71878 4.52522
2.0662 1.71994 4.53531
1.95256 1.72173 4.58415
1.93659 1.72081 4.58828
1.92164 1.7209 4.5944
1.90567 1.72099 4.59952
0.664907 1.72122 4.9009
0.386087 1.72076 4.92601
0.353057 1.71873 4.92229
0.246128 1.71994 4.93208
0.238136 1.71996 4.93314
0.221137 1.71997 4.93327
0.205114 1.71894 4.9304
0.188145 1.72001 4.93452
0.155123 1.71899 4.93178
0.139084 1.71693 4.92693
0.131131 1.71902 4.93296
0.0981012 1.71799 4.92922
0.0810628 1.71593 4.92438
0.0651329 1.71907 4.93346
0.0480173 1.71386 4.91866
-0.063775 1.71737 4.81344
-0.0957816 1.71738 4.81268
-0.111843 1.71427 4.80484
-0.135773 1.71742 4.81398
-0.15178 1.71742 4.8131
-0.167857 1.71429 4.80327
-0.199824 1.71637 4.80748
-0.21587 1.71429 4.80163
-0.231924 1.7122 4.79478
-0.247869 1.71531 4.80185
-0.255032 1.70701 4.78103
-0.287015 1.70806 4.78325
-0.303906 1.71428 4.79729
-0.320006 1.7101 4.78447
-0.351051 1.70803 4.77873
-0.375104 1.70595 4.77195
-0.40711 1.70696 4.77117
-0.423978 1.71422 4.78819
-0.438202 1.7038 4.75945
-0.455999 1.7142 4.78543
-0.464015 1.71318 4.78351
-0.48006 1.7121 4.77765
-0.495114 1.71001 4.77079
-0.511144 1.70896 4.76693
-0.527112 1.71103 4.77102
-0.542181 1.70791 4.76217
-0.551173 1.70893 4.76323
-0.567187 1.70891 4.76135
-0.582257 1.70579 4.75251
-0.598232 1.70784 4.7556
-0.615169 1.71197 4.76366
-0.630277 1.70778 4.74984
-0.645291 1.70776 4.74795
-0.6524 1.70256 4.73408
-0.669329 1.7067 4.74315
-0.685359 1.70566 4.73928
-0.70042 1.70355 4.73143
-0.719264 1.71186 4.75145
-0.730511 1.70139 4.71968
-0.749371 1.70867 4.73772
-0.764401 1.70762 4.73385
-0.770516 1.70341 4.71896
-0.787477 1.70549 4.72405
-0.803491 1.70548 4.72217
-0.81856 1.70335 4.71332
-0.835504 1.70747 4.72038
-0.850565 1.70536 4.71253
-0.865619 1.70327 4.70567
-0.875556 1.70739 4.71369
-0.886749 1.69903 4.68889
-0.9066 1.70733 4.70792
-0.921638 1.70627 4.70305
-0.938614 1.70832 4.70615
-0.954636 1.70829 4.70327
-0.967774 1.70303 4.68544
-0.974805 1.70198 4.68151
-0.990827 1.70195 4.67863
-1.00973 1.70714 4.6907
-1.02382 1.70498 4.67983
-1.04271 1.71119 4.69289
-1.05584 1.70596 4.67706
-1.07088 1.7049 4.67219
-1.07791 1.70485 4.66824
-1.09393 1.70481 4.66536
-1.10897 1.70374 4.65949
-1.12693 1.70684 4.66558
-1.14004 1.70263 4.65074
-1.15508 1.70256 4.64585
-1.1689 1.71191 4.66882
-1.17909 1.70355 4.64402
-1.19511 1.70453 4.64213
-1.21015 1.70345 4.63626
-1.2252 1.70238 4.63038
-1.23831 1.69816 4.61554
-1.25626 1.70228 4.62262
-1.26715 1.70848 4.63561
-1.28028 1.70324 4.61878
-1.30017 1.71046 4.63283
-1.31035 1.70313 4.61001
-1.32733 1.70517 4.61211
-1.34531 1.70823 4.6152
-1.35453 1.69882 4.5874
-1.36932 1.71021 4.61335
-1.37854 1.70081 4.58556
-1.41154 1.70382 4.58476
-1.44552 1.70788 4.58796
-1.45959 1.70575 4.57809
-1.47756 1.70982 4.58217
-1.48068 1.70358 4.56628
-1.49867 1.70663 4.56837
-1.5098 1.70138 4.55153
-1.55884 1.70533 4.54584
-1.57095 1.70113 4.53199
-1.58188 1.70526 4.54002
-1.59595 1.70414 4.53114
-1.6061 1.69886 4.51229
-1.62799 1.70608 4.52635
-1.66412 1.70384 4.50865
-1.68014 1.70483 4.50676
-1.69714 1.70684 4.50686
-1.71023 1.70466 4.49398
-1.72723 1.70667 4.49408
-1.75828 1.70759 4.4873
-1.77744 1.70331 4.46751
-1.81045 1.7063 4.46571
-1.83662 1.70199 4.44397
-1.86162 1.706 4.4431
-1.90576 1.70475 4.42445
-1.93584 1.70561 4.41366
-1.96593 1.70545 4.40189
-2.00109 1.70316 4.38118
-2.03117 1.70404 4.37139
-2.0673 1.7028 4.35368
5.18155 1.66081 -0.340954
5.17067 1.65705 -0.324814
5.1708 1.6573 -0.307817
5.18192 1.66153 -0.291961
5.18804 1.66377 -0.276038
5.20117 1.66901 -0.259212
5.18923 1.66513 -0.251064
5.17935 1.66238 -0.234946
5.20048 1.6696 -0.21921
5.18159 1.66285 -0.202966
5.18184 1.66434 -0.169985
5.19897 1.67058 -0.153204
5.19503 1.6697 -0.14516
5.19127 1.66918 -0.11312
5.19565 1.67191 -0.0631864
5.1857 1.66902 -0.0560677
5.18795 1.67051 -0.0231021
5.1862 1.671 0.00990841
5.16631 1.66424 0.0251605
5.16443 1.66448 0.0411733
5.1815 1.6706 0.0499553
5.18288 1.67334 0.0999113
5.184 1.67457 0.115887
5.1621 1.6678 0.130154
5.13433 1.65928 0.161494
3.81106 1.70783 3.18216
3.79318 1.70708 3.19831
3.76313 1.69801 3.19267
3.7764 1.71052 3.22739
3.74332 1.69941 3.2188
3.73544 1.70164 3.23383
3.7215 1.69978 3.24296
3.71253 1.69883 3.24605
3.70866 1.7021 3.26403
3.69977 1.70432 3.27806
3.67677 1.69833 3.27833
3.69004 1.71084 3.31305
3.66604 1.70486 3.31332
3.6652 1.71018 3.33525
3.65723 1.70923 3.33832
3.63138 1.70755 3.35854
3.59058 1.70498 3.38589
3.58269 1.70721 3.40092
3.57572 1.70627 3.40499
3.55676 1.70336 3.41017
3.55088 1.7066 3.42617
3.53393 1.7037 3.43234
3.52503 1.7049 3.4454
3.50605 1.70197 3.44958
3.50522 1.7073 3.47151
3.48818 1.70224 3.46672
3.47021 1.69931 3.47089
3.45829 1.69948 3.48198
3.44234 1.69758 3.48813
3.43848 1.70187 3.5071
3.4306 1.7041 3.52213
3.41264 1.70118 3.52731
3.41374 1.70437 3.54025
3.40283 1.70556 3.55232
3.38284 1.7016 3.55453
3.38605 1.71 3.58139
3.36102 1.70298 3.57868
3.35617 1.70726 3.59765
3.33012 1.70019 3.59195
3.33022 1.70338 3.60491
3.31527 1.7025 3.61203
3.31647 1.70988 3.63792
3.28739 1.70075 3.62827
3.27648 1.70194 3.64034
3.28274 1.71242 3.67314
3.25163 1.70225 3.66052
3.26386 1.71267 3.68928
3.24386 1.70869 3.68949
3.22487 1.70473 3.69169
3.22305 1.71109 3.71562
3.20407 1.70813 3.7178
3.18811 1.70623 3.72395
3.18427 1.71153 3.74391
3.17933 1.71265 3.75193
3.16336 1.71074 3.75708
3.12155 1.70914 3.78242
3.10762 1.70828 3.79154
3.09974 1.71151 3.80655
3.08266 1.70539 3.79777
3.07379 1.70863 3.81379
3.06086 1.70879 3.82389
3.04692 1.70792 3.83201
3.03399 1.70806 3.8411
3.01904 1.70716 3.84723
3.01218 1.71145 3.86622
3.00117 1.70844 3.86535
2.99026 1.70963 3.87741
2.97228 1.70667 3.87959
2.96035 1.70783 3.88967
2.94946 1.71004 3.90372
2.94058 1.71227 3.91875
2.92259 1.70931 3.92093
2.9136 1.70834 3.92202
2.90168 1.70851 3.93311
2.89381 1.71276 3.9501
2.87077 1.70671 3.94537
2.85886 1.70789 3.95744
2.85098 1.71114 3.97345
2.83604 1.71127 3.98157
2.83007 1.71133 3.98561
2.81108 1.70736 3.98681
2.79917 1.70954 3.99887
2.79433 1.71486 4.01983
2.77838 1.71396 4.02597
2.76139 1.711 4.02814
2.74948 1.71219 4.04021
2.74656 1.71534 4.05019
2.72453 1.71029 4.04643
2.70552 1.70629 4.04563
2.7007 1.71264 4.06858
2.67181 1.71188 4.08381
2.62809 1.71546 4.12109
2.61212 1.71453 4.12522
0.0972204 1.71726 4.81223
0.0651824 1.7152 4.8075
0.0412295 1.71731 4.81365
0.020871 1.69768 4.63507
0.00598817 1.70391 4.65009
-0.0100189 1.70391 4.64921
-0.0250887 1.69978 4.64038
-0.0410494 1.70187 4.64547
-0.0491345 1.69771 4.63459
-0.0641498 1.69669 4.63272
-0.0791801 1.69565 4.62885
-0.0950943 1.69982 4.63991
-0.127062 1.7019 4.64412
-0.142092 1.70085 4.64025
-0.149185 1.69668 4.62836
-0.165146 1.69877 4.63345
-0.18113 1.69881 4.63557
-0.212144 1.6988 4.6338
-0.242228 1.69566 4.62308
-0.250228 1.69567 4.62314
-0.26618 1.69877 4.62921
-0.296234 1.69669 4.62247
-0.344161 1.70185 4.63175
-0.397276 1.69667 4.61723
-0.450374 1.69452 4.60466
-0.481395 1.69449 4.60189
-0.513363 1.69658 4.6061
-0.64448 1.69644 4.59109
-0.681594 1.69324 4.57642
-0.91085 1.69389 4.54313
-0.978 1.69164 4.52367
-1.03812 1.69045 4.50813
-1.12125 1.69124 4.49075
-1.15932 1.69114 4.48203
-1.27348 1.69289 4.46086
-1.33264 1.69163 4.44033
-1.38475 1.69144 4.42572
-1.41383 1.6903 4.41495
-1.42689 1.68919 4.40707
-1.47803 1.68796 4.38947
-1.5081 1.68784 4.3797
-1.52313 1.68779 4.37581
-1.53014 1.68878 4.37485
-1.56216 1.69176 4.37204
-1.57916 1.69377 4.37214
-1.60725 1.6916 4.35938
-1.61838 1.68737 4.34353
-1.6293 1.69252 4.35354
-1.64727 1.69558 4.35663
-1.66133 1.69549 4.34973
-1.6695 1.68815 4.3269
-1.69041 1.69535 4.33895
-1.69957 1.68904 4.31811
-1.71655 1.69108 4.32021
-1.72864 1.68893 4.30933
-1.73763 1.69095 4.31037
-1.74973 1.68777 4.29751
-1.76278 1.68667 4.29062
-1.77782 1.6866 4.28473
-1.79284 1.68858 4.28282
-1.81279 1.69268 4.28891
-1.82782 1.69363 4.28501
-1.84987 1.69454 4.27816
-1.85804 1.68823 4.25631
-1.87405 1.68921 4.25442
-1.89497 1.69537 4.26448
-1.90607 1.69219 4.25161
-1.9162 1.68794 4.23475
-1.92519 1.68998 4.23679
-1.93825 1.68885 4.2279
-1.95328 1.68982 4.225
-1.97226 1.69386 4.22708
-1.98728 1.69483 4.22418
-1.99543 1.68954 4.20432
-2.00835 1.69471 4.21534
-2.01455 1.68733 4.18949
-2.03154 1.68936 4.19059
-2.04855 1.69134 4.18869
-2.06357 1.69331 4.18577
-2.07074 1.68699 4.16392
-2.08971 1.69106 4.168
-2.09871 1.69207 4.16805
-2.11177 1.69096 4.16017
-2.1268 1.69291 4.15625
-2.14578 1.69595 4.15835
-2.15391 1.69171 4.14147
-2.17288 1.69577 4.14455
-2.18399 1.69257 4.13068
-2.19705 1.69246 4.12278
-2.21097 1.69762 4.13281
-2.22502 1.69854 4.1269
-2.22922 1.69014 4.10006
-2.24524 1.69212 4.09815
-2.25634 1.68892 4.08428
-2.2625 1.68263 4.06441
-2.29442 1.6918 4.07452
-2.30945 1.69274 4.06962
-2.32942 1.69781 4.07369
-2.33657 1.69254 4.05482
-2.3447 1.68829 4.03794
-2.3627 1.69129 4.03703
-2.37084 1.68703 4.01916
-2.37589 1.68493 4.01223
-2.39586 1.69 4.0163
-2.39807 1.68161 3.98944
-2.41705 1.68565 3.99152
-2.43208 1.6866 3.98762
-2.45008 1.69061 3.9877
-2.45821 1.68635 3.96982
-2.47806 1.69565 3.98883
-2.48225 1.6883 3.96497
-2.49136 1.6861 3.95107
-2.50838 1.68806 3.94817
-2.53329 1.69624 3.95924
-2.53055 1.68474 3.92538
-2.54252 1.68781 3.92943
-2.55755 1.68974 3.92451
-2.57061 1.68964 3.91661
-2.58763 1.69262 3.91469
-2.59773 1.68942 3.90081
-2.60883 1.68725 3.88893
-2.62584 1.69023 3.88701
-2.62989 1.68913 3.88006
-2.64098 1.68696 3.86817
-2.64614 1.68165 3.84729
-2.66711 1.68673 3.85137
-2.68017 1.68662 3.84347
-2.6972 1.68857 3.83957
-2.7063 1.68639 3.82667
-2.70641 1.68218 3.81273
-2.72144 1.68412 3.80781
-2.7444 1.69021 3.8129
-2.75549 1.68804 3.80101
-2.76261 1.68481 3.78511
-2.77766 1.68573 3.77921
-2.78379 1.68147 3.76132
-2.81081 1.68644 3.75844
-2.81991 1.68426 3.74554
-2.84386 1.69136 3.75162
-2.85198 1.68814 3.73673
-2.86307 1.68698 3.72483
-2.88306 1.692 3.7259
-2.89117 1.68879 3.71101
-2.89325 1.68564 3.70107
-2.91225 1.68964 3.70015
-2.92333 1.6895 3.69024
-2.9275 1.68318 3.66836
-2.94946 1.68927 3.67344
-2.96361 1.68597 3.65259
-2.97767 1.68687 3.64568
-2.99667 1.69087 3.64476
-3.01073 1.69176 3.63686
-3.02181 1.69061 3.62595
-3.02497 1.6853 3.60505
-3.06308 1.69012 3.59127
-3.07615 1.68998 3.58137
5.02394 1.65368 -0.288654
5.01358 1.65096 -0.202524
5.00401 1.65377 -0.0134671
5.02026 1.66124 0.0193043
5.00278 1.65729 0.0895042
5.00014 1.65799 0.13652
5.00656 1.66381 0.192393
4.9849 1.6575 0.237656
4.98903 1.65975 0.254594
4.98008 1.65786 0.261691
5.00423 1.66712 0.280374
4.97431 1.65732 0.292746
4.98945 1.66357 0.310542
4.98956 1.6648 0.325525
4.99469 1.66804 0.342441
4.98581 1.66527 0.357551
4.98787 1.66639 0.36552
4.98198 1.66562 0.380578
4.99512 1.67087 0.398403
4.98122 1.66709 0.412566
4.98835 1.67134 0.429452
4.98447 1.67058 0.445495
4.97858 1.6698 0.460552
4.9737 1.66903 0.475603
4.96174 1.66513 0.481752
4.98189 1.67339 0.50048
4.95096 1.66358 0.51186
4.94809 1.66382 0.52788
4.94019 1.66203 0.541968
4.9363 1.66126 0.557011
4.94963 1.66988 0.599789
4.93673 1.6661 0.613944
4.92884 1.66431 0.628032
4.91825 1.66512 0.682107
4.09291 1.70249 2.63104
4.08494 1.70056 2.63513
4.07403 1.70074 2.64721
4.01567 1.70303 2.73163
4.00978 1.70426 2.74666
4.00189 1.70547 2.7607
3.64079 1.70343 3.1485
3.62283 1.69952 3.1537
3.62904 1.70891 3.18052
3.58991 1.69371 3.16503
3.58899 1.69687 3.176
3.58009 1.69806 3.18805
3.57522 1.70133 3.20604
3.47068 1.69131 3.26798
3.43701 1.69497 3.31119
3.41416 1.69529 3.33236
3.39721 1.6924 3.33853
3.39234 1.69565 3.35552
3.3784 1.69478 3.36364
3.38151 1.7 3.37854
3.30677 1.69156 3.41323
3.25512 1.69329 3.4606
3.24925 1.69655 3.4776
3.23229 1.69363 3.48277
3.21339 1.69384 3.49591
3.19056 1.69418 3.51808
3.17175 1.69757 3.54318
3.15781 1.69671 3.5523
3.14285 1.69479 3.55744
3.13387 1.69383 3.55952
3.12194 1.69399 3.56961
3.11102 1.69516 3.58068
3.11122 1.70254 3.60657
3.08819 1.6965 3.60283
3.0793 1.69871 3.61687
3.07041 1.70094 3.6319
3.06546 1.70203 3.63793
3.06364 1.70838 3.66085
3.04363 1.70338 3.66007
3.02665 1.70043 3.66325
3.01575 1.70263 3.6763
2.99978 1.7007 3.68045
2.97683 1.69784 3.68866
2.97401 1.70418 3.71159
2.95603 1.70123 3.71377
2.94006 1.69931 3.71892
2.92511 1.69741 3.72506
2.90813 1.69547 3.72822
2.8972 1.69562 3.7383
2.89227 1.69775 3.74631
2.87528 1.69479 3.74848
2.87954 1.70629 3.78228
2.85244 1.69612 3.76964
2.84052 1.69729 3.78071
2.8286 1.69844 3.79079
2.81971 1.70067 3.80582
2.80183 1.70191 3.82094
2.78484 1.69895 3.82311
2.76585 1.69598 3.8243
2.76809 1.70543 3.85515
2.74909 1.70245 3.85533
2.72705 1.69639 3.85059
2.72816 1.70161 3.86551
2.70815 1.69761 3.86472
2.69623 1.69777 3.8748
2.70354 1.71236 3.91454
2.67643 1.70217 3.90089
2.6635 1.70333 3.91097
2.65158 1.70448 3.92105
2.64259 1.7025 3.92215
2.63167 1.70467 3.9332
2.61671 1.70276 3.93834
2.60378 1.70392 3.94842
2.59795 1.71023 3.96937
2.57893 1.70522 3.96759
2.56397 1.7043 3.97272
2.56307 1.70851 3.98666
2.54608 1.70554 3.98784
2.54026 1.71288 4.01077
2.51719 1.70577 4.00205
2.51135 1.71108 4.02302
2.49131 1.70604 4.01925
2.47839 1.70719 4.02933
2.47749 1.71139 4.04227
2.47065 1.71669 4.06225
2.45164 1.71369 4.06144
2.43972 1.71486 4.07251
2.42475 1.71393 4.07664
2.40573 1.70891 4.07486
2.39788 1.7142 4.09384
2.3838 1.70906 4.08402
2.36783 1.70713 4.08817
2.36302 1.71449 4.1121
2.33891 1.70632 4.0994
2.3199 1.7023 4.0976
2.32016 1.7138 4.13144
2.30013 1.70977 4.12865
2.29417 1.70985 4.13369
2.28327 1.71304 4.14573
2.27136 1.71522 4.15779
2.24623 1.70501 4.14212
2.24144 1.71341 4.16904
2.21732 1.7042 4.15436
2.20337 1.70432 4.16146
2.19058 1.71173 4.18845
2.17766 1.71388 4.19852
2.14672 1.71103 4.20679
2.1287 1.70801 4.20497
2.12187 1.71434 4.22693
2.11389 1.71438 4.22899
2.09791 1.71243 4.23214
2.08703 1.71666 4.24717
2.04417 1.71697 4.26649
2.02512 1.7119 4.2607
2.02019 1.71404 4.26971
1.99435 1.71737 4.29086
1.9753 1.71229 4.28508
1.96441 1.71651 4.2991
1.92853 1.71675 4.31437
0.755901 1.71821 4.63422
0.716947 1.71833 4.64052
0.616001 1.71651 4.64831
0.569048 1.71663 4.65466
0.543994 1.71355 4.64789
0.51194 1.71047 4.64118
0.498072 1.71573 4.65821
0.482064 1.71472 4.65734
0.450018 1.71166 4.65163
0.44308 1.71478 4.65964
0.425956 1.70756 4.64387
0.412111 1.71486 4.66387
0.396065 1.71279 4.65802
0.381104 1.71387 4.66312
0.365081 1.71284 4.66025
0.349074 1.71184 4.65939
0.339934 1.70458 4.64156
0.324973 1.70566 4.64666
0.308989 1.7067 4.64876
0.294043 1.70882 4.65585
0.279122 1.71298 4.6659
0.261927 1.70262 4.64118
0.247013 1.70679 4.65223
0.240076 1.70992 4.66024
0.224037 1.70785 4.65539
0.208029 1.70685 4.65452
0.193022 1.70585 4.65365
0.178201 1.7152 4.67663
0.161038 1.7069 4.65588
0.146 1.70484 4.65102
0.138077 1.70799 4.66103
0.122031 1.70591 4.65518
0.107024 1.70591 4.6543
0.091009 1.70489 4.65243
0.0760401 1.70596 4.65653
0.0601109 1.71011 4.66559
0.0520408 1.70598 4.65671
0.0369873 1.70389 4.64985
0.0289967 1.70794 4.51784
0.0140122 1.70798 4.51995
-0.00110343 1.70277 4.50514
-0.00900219 1.70796 4.51812
-0.0241649 1.69967 4.49736
-0.0390791 1.70384 4.50841
-0.0541484 1.70072 4.49957
-0.069008 1.70799 4.51757
-0.084155 1.70072 4.49879
-0.0990693 1.7049 4.50985
-0.107131 1.70178 4.50195
-0.121991 1.70906 4.51996
-0.137138 1.70179 4.50118
-0.152067 1.70594 4.51023
-0.167246 1.69661 4.48748
-0.182167 1.70077 4.49753
-0.197268 1.69558 4.48472
-0.205174 1.70077 4.4967
-0.219251 1.69763 4.48686
-0.235212 1.69972 4.49195
-0.249273 1.69661 4.4841
-0.265241 1.69868 4.48819
-0.279288 1.6966 4.48232
-0.295209 1.70076 4.49238
-0.301357 1.69348 4.47353
-0.317247 1.6997 4.48756
-0.332332 1.69555 4.47674
-0.347339 1.69555 4.47585
-0.361393 1.69345 4.46899
-0.378252 1.70073 4.48701
-0.392368 1.69552 4.47219
-0.400344 1.69757 4.47522
-0.414436 1.6934 4.46339
-0.430335 1.69861 4.47643
-0.444443 1.69341 4.46261
-0.459426 1.69545 4.46469
-0.474441 1.69543 4.46281
-0.489448 1.69543 4.46192
-0.496471 1.69439 4.45899
-0.512439 1.69646 4.46308
-0.527454 1.69644 4.46119
-0.541523 1.69332 4.45234
-0.556506 1.69536 4.45443
-0.570575 1.69223 4.44558
-0.586582 1.69323 4.44468
-0.595442 1.7005 4.46264
-0.608596 1.69322 4.44285
-0.624541 1.69633 4.44992
-0.638602 1.69423 4.44206
-0.654562 1.69731 4.44713
-0.683623 1.69521 4.43938
-0.706614 1.69724 4.44053
-0.719737 1.69202 4.4247
-0.734736 1.69303 4.4248
-0.766687 1.69714 4.43098
-0.787771 1.69399 4.42018
-0.801809 1.69293 4.4153
-0.818754 1.69704 4.42237
-0.846837 1.6949 4.41161
-0.860914 1.69177 4.40176
-0.87878 1.70003 4.41878
-0.882935 1.69274 4.39892
-0.897957 1.6927 4.39603
-0.912019 1.6896 4.38818
-0.92701 1.69162 4.38926
-0.958015 1.69363 4.38847
-0.972068 1.69254 4.38159
-0.978107 1.69047 4.37666
-0.996036 1.69561 4.38572
-1.0091 1.6935 4.37785
-1.02699 1.69971 4.3909
-1.03915 1.69342 4.37108
-1.05608 1.69857 4.38013
-1.06529 1.68917 4.35334
-1.08128 1.6902 4.35444
-1.09024 1.69328 4.35946
-1.11929 1.6932 4.35268
-1.13334 1.6921 4.3458
-1.1503 1.69519 4.35089
-1.16143 1.68996 4.33505
-1.17643 1.69196 4.33413
-1.18444 1.69195 4.33319
-1.19847 1.6919 4.3293
-1.21348 1.69188 4.32741
-1.22949 1.69388 4.3265
-1.24254 1.69178 4.31963
-1.25855 1.69378 4.31872
-1.26556 1.69376 4.31677
-1.28056 1.69477 4.31687
-1.29657 1.69576 4.31598
-1.30964 1.69364 4.3071
-1.32561 1.6967 4.31018
-1.33967 1.69559 4.3023
-1.35275 1.69345 4.29243
-1.36269 1.69656 4.29946
-1.37479 1.69339 4.2876
-1.38589 1.69021 4.27472
-1.40189 1.6912 4.27383
-1.42081 1.69737 4.28388
-1.42803 1.68796 4.25607
-1.44696 1.6931 4.26514
-1.46197 1.69408 4.26324
-1.47094 1.69715 4.26726
-1.48204 1.69297 4.25441
-1.49512 1.69083 4.24453
-1.51599 1.70008 4.26056
-1.52517 1.69275 4.23773
-1.54603 1.70101 4.25477
-1.55617 1.69575 4.23692
-1.56124 1.69262 4.228
-1.58115 1.69982 4.24005
-1.59224 1.69663 4.22718
-1.60629 1.69655 4.22128
-1.61937 1.69441 4.21141
-1.63535 1.69746 4.21349
-1.64646 1.69326 4.19963
-1.66033 1.7015 4.21562
-1.66948 1.69523 4.19678
-1.68547 1.69724 4.19687
-1.6966 1.69301 4.18101
-1.71456 1.6971 4.18609
-1.72076 1.68872 4.16025
-1.73952 1.70218 4.1902
-1.7477 1.69484 4.16737
-1.76175 1.69476 4.16147
-1.77578 1.6947 4.15658
-1.79177 1.69773 4.15766
-1.80386 1.69557 4.14678
-1.81987 1.69655 4.14488
-1.8318 1.70169 4.1539
-1.83701 1.6933 4.12706
-1.85694 1.69843 4.13513
-1.86901 1.69731 4.12624
-1.88011 1.69412 4.11337
-1.91114 1.69809 4.10954
-1.92813 1.70111 4.11063
-1.93417 1.70004 4.10569
-1.94527 1.69686 4.09282
-1.95833 1.69575 4.08493
-1.97334 1.69773 4.08301
-1.9864 1.69662 4.07513
-2.01646 1.69853 4.06732
-2.02151 1.69743 4.06038
-2.04959 1.69728 4.04959
-2.06365 1.69719 4.0427
-2.07965 1.70019 4.04177
-2.1038 1.69691 4.022
-2.11182 1.69688 4.02006
-2.15098 1.69659 3.99836
-2.18006 1.69746 3.98856
-2.19311 1.69737 3.98166
-2.20211 1.69936 3.9807
-2.21615 1.69929 3.9758
-2.22231 1.694 3.95593
-2.24645 1.69074 3.93715
-2.26543 1.69578 3.93922
-2.27245 1.69574 3.93628
-2.2865 1.69566 3.93038
-2.2956 1.69346 3.91648
-2.32173 1.69225 3.90069
-2.33577 1.69317 3.89479
-2.35278 1.69516 3.89388
-2.35289 1.68994 3.87896
-2.36298 1.68777 3.86707
-2.38392 1.69489 3.87412
-2.39305 1.69066 3.85825
-2.40512 1.68954 3.84935
-2.4342 1.6924 3.83853
-2.44516 1.69546 3.84257
-2.45625 1.69431 3.83167
-2.46634 1.69214 3.81977
-2.47644 1.68895 3.8069
-2.50354 1.68976 3.79309
-2.5235 1.69585 3.79815
-2.53656 1.69574 3.79025
-2.53767 1.69154 3.77631
-2.5517 1.69247 3.77141
-2.56476 1.69236 3.7635
