5.86366 1.64364 1.85317
5.87384 1.64899 1.87701
5.84993 1.64419 1.88927
5.84909 1.6465 1.91024
5.84516 1.64664 1.91927
5.84331 1.64893 1.93925
5.8204 1.64413 1.9515
5.81554 1.64441 1.97053
5.8137 1.64672 1.99152
5.80483 1.64598 2.0086
5.78994 1.64422 2.02374
5.79203 1.64639 2.03569
5.78817 1.64768 2.0547
5.7763 1.64694 2.07181
5.76358 1.64749 2.1089
5.7527 1.64674 2.12499
5.76089 1.6521 2.14986
5.75295 1.65123 2.15793
5.72234 1.65 2.20919
5.71647 1.65128 2.22721
5.71363 1.65259 2.24822
5.70777 1.65386 2.26625
5.71387 1.65706 2.28016
5.68795 1.65223 2.29042
5.68208 1.6525 2.30847
5.67021 1.65176 2.32557
5.65532 1.64998 2.33971
5.65147 1.65128 2.35972
5.65063 1.65459 2.38068
5.63063 1.64962 2.38191
5.62076 1.64888 2.39899
5.62194 1.65222 2.42194
5.59298 1.64634 2.42925
5.59114 1.64865 2.45023
1.12389 1.71824 5.88233
1.10493 1.71833 5.88747
1.08809 1.72365 5.90852
1.0702 1.72687 5.92261
1.02231 1.72911 5.93694
1.00233 1.72917 5.94009
0.982306 1.72714 5.93727
0.963345 1.72823 5.9424
0.941276 1.72511 5.93361
0.92336 1.72729 5.94471
0.910206 1.721 5.9249
0.890199 1.72 5.92407
0.871276 1.72216 5.93418
0.850207 1.71904 5.92538
0.833345 1.72332 5.94345
0.811261 1.71918 5.93268
0.792284 1.71923 5.93582
0.782307 1.72029 5.93888
0.762277 1.71824 5.93506
0.743384 1.72146 5.94916
0.722285 1.71729 5.93637
0.704401 1.72152 5.95145
0.6833 1.71634 5.93868
0.663285 1.71533 5.93685
0.65544 1.72163 5.95682
0.633293 1.71537 5.93807
0.613309 1.71541 5.94022
0.596541 1.72387 5.97023
0.575441 1.71969 5.95745
0.555441 1.7187 5.95761
0.536464 1.71976 5.96074
0.526472 1.71978 5.96182
0.506395 1.71565 5.95203
0.486403 1.71568 5.95318
0.467566 1.722 5.97423
0.447473 1.71784 5.96244
0.427512 1.71893 5.96758
0.407474 1.71687 5.96276
0.397482 1.71689 5.96383
0.378575 1.72108 5.97591
0.359598 1.72114 5.97906
0.339537 1.71804 5.97125
0.319545 1.71807 5.9724
0.29953 1.71805 5.97055
0.279553 1.71811 5.9737
0.270647 1.7223 5.98571
0.249477 1.71499 5.96397
0.23057 1.71818 5.97607
0.210516 1.71609 5.96925
0.191633 1.72132 5.98432
0.171479 1.71504 5.96456
0.151556 1.7172 5.97468
0.141511 1.71612 5.96877
0.121557 1.71723 5.97491
0.102489 1.71511 5.96608
0.0824737 1.71409 5.96425
0.0625051 1.71517 5.96838
0.0404226 1.71605 5.82451
0.00139239 1.71402 5.82084
-0.0176454 1.71296 5.816
-0.0655819 1.71611 5.82431
-0.104581 1.71614 5.82461
-2.15344 1.71589 5.45199
-2.17149 1.7158 5.44513
-2.19149 1.71781 5.44525
-2.20758 1.71664 5.43339
-2.60181 1.7155 5.27235
-2.62083 1.71747 5.26947
-2.68715 1.71388 5.22701
-2.70619 1.71482 5.22214
-2.75132 1.71659 5.20445
-2.7674 1.71545 5.19459
-2.78446 1.71533 5.18572
-2.81138 1.7215 5.19583
-2.81763 1.71403 5.16398
-2.82664 1.71401 5.16205
-2.8447 1.7149 5.15417
-2.86473 1.71686 5.1503
-2.89689 1.71557 5.12955
-2.9189 1.71757 5.12869
-2.93695 1.71847 5.12081
-2.94204 1.71631 5.10988
-2.95812 1.71516 5.09902
-2.99522 1.71699 5.08627
-3.01031 1.71582 5.0744
-3.03232 1.71881 5.07252
-3.04938 1.7197 5.06463
-3.05052 1.71444 5.04672
-3.06956 1.71536 5.04085
-3.08465 1.7152 5.02896
-3.10666 1.7172 5.0281
-3.12669 1.71914 5.02322
-3.14672 1.72109 5.01934
-3.15491 1.71574 4.99548
-3.16591 1.71774 4.99453
-3.19089 1.7228 4.99764
-3.20992 1.72374 4.99277
-3.22601 1.72357 4.9809
-3.24801 1.72659 4.98102
-3.26312 1.72539 4.96715
-3.27623 1.72318 4.95227
-3.28922 1.7262 4.95333
-3.31122 1.72922 4.95345
-3.32039 1.7249 4.93158
-3.33549 1.7237 4.91771
-3.36441 1.73087 4.92782
-3.37556 1.72758 4.90795
-3.39658 1.73056 4.90507
-3.4128 1.72514 4.87626
-3.43976 1.73123 4.88138
-3.45683 1.73111 4.87251
-3.46995 1.72988 4.85662
-3.48801 1.73078 4.84874
-3.51412 1.73057 4.83394
-3.52328 1.72727 4.81306
-3.55545 1.72697 4.7913
-3.57252 1.72783 4.78141
-3.59354 1.7298 4.77854
5.52672 1.64889 2.26068
5.50497 1.64839 2.29386
5.49709 1.64865 2.31092
5.48922 1.64891 2.32798
5.48236 1.64918 2.34603
5.48754 1.65453 2.36991
5.45751 1.64549 2.36627
5.46168 1.64983 2.38918
5.46184 1.65314 2.41013
5.44394 1.65035 2.42331
5.42 1.6455 2.43256
5.40511 1.64372 2.4467
1.20655 1.71356 5.70475
1.2007 1.71884 5.72372
1.18277 1.71999 5.73284
1.16587 1.72319 5.74592
1.14689 1.72325 5.74906
1.08101 1.72454 5.76554
1.06207 1.72565 5.77267
1.04202 1.72358 5.76685
1.022 1.72155 5.76403
1.00408 1.72372 5.77513
0.984077 1.72272 5.7743
0.963008 1.71961 5.7655
0.951923 1.71545 5.75465
0.932953 1.71553 5.75879
0.915038 1.7187 5.76988
0.892922 1.7125 5.75513
0.876046 1.71674 5.7712
0.856008 1.71469 5.76638
0.836 1.71369 5.76555
0.829116 1.71791 5.78054
0.808047 1.71479 5.77174
0.788016 1.71275 5.76792
0.770124 1.71597 5.78201
0.750085 1.71391 5.77719
0.731054 1.71187 5.77337
0.713186 1.71713 5.79042
0.702109 1.71299 5.78057
0.684186 1.71615 5.79066
0.664125 1.71305 5.78285
0.646233 1.71627 5.79694
0.626226 1.71627 5.79609
0.607187 1.71321 5.79128
0.58611 1.71008 5.78149
0.579295 1.71743 5.80543
0.559234 1.71433 5.79763
0.540258 1.71539 5.80076
0.519157 1.71021 5.78799
0.501281 1.71546 5.80405
0.482312 1.71554 5.80819
0.463274 1.71348 5.80336
0.415375 1.7167 5.81668
0.395306 1.71358 5.80787
0.377376 1.71673 5.81696
0.358415 1.71782 5.82209
0.338322 1.71366 5.8103
0.328354 1.71472 5.81436
0.309377 1.71578 5.81749
0.290393 1.71582 5.81963
0.270301 1.71166 5.80784
0.251317 1.7127 5.80997
0.232356 1.71379 5.8151
0.213356 1.71381 5.81524
0.203348 1.7128 5.81433
0.184496 1.71909 5.83338
0.16538 1.71388 5.8186
0.145312 1.71177 5.80979
0.126327 1.71181 5.81193
0.107351 1.71287 5.81506
0.0883899 1.71396 5.82018
0.0783212 1.71183 5.81129
0.0593524 1.7129 5.81542
0.0368305 1.72091 5.61244
0.0179471 1.72615 5.62751
-0.000168463 1.72094 5.61272
-0.0191215 1.72304 5.61883
-0.0370978 1.7241 5.62195
-0.0461822 1.72094 5.61106
-0.0652049 1.71991 5.60822
-0.0839653 1.72938 5.63923
-0.102204 1.71994 5.6085
-0.121118 1.72412 5.61958
-0.139303 1.71577 5.59584
-0.15907 1.72623 5.62584
-0.167248 1.7189 5.60301
-0.186139 1.72412 5.61707
-0.204285 1.71785 5.5983
-0.223161 1.7231 5.61437
-0.241284 1.71788 5.59858
-0.261113 1.72522 5.62062
-0.278344 1.71579 5.59089
-0.288259 1.71996 5.6019
-0.306327 1.71784 5.59307
-0.327079 1.72832 5.62507
-0.343357 1.7168 5.58936
-0.363217 1.72308 5.60742
-0.381255 1.72202 5.60257
-0.399355 1.71784 5.58977
-0.408346 1.71887 5.59082
-0.426369 1.71783 5.58797
-0.444438 1.71571 5.57914
-0.463406 1.71779 5.58325
-0.481428 1.71676 5.5804
-0.49952 1.71359 5.56858
-0.520341 1.72195 5.59162
-0.527496 1.71566 5.57176
-0.547371 1.72091 5.58784
-0.564548 1.71458 5.56506
-0.58537 1.72194 5.58811
-0.600593 1.71352 5.55934
-0.621476 1.71875 5.57443
-0.63856 1.7156 5.5636
-0.648544 1.71764 5.56565
-0.666574 1.7166 5.5618
-0.683666 1.71343 5.54997
-0.701734 1.71131 5.54114
-0.720695 1.7134 5.54625
-0.740593 1.7186 5.55932
-0.757685 1.71544 5.5475
-0.766739 1.71334 5.5406
-0.78666 1.7175 5.55069
-0.80279 1.71327 5.53387
-0.820812 1.71323 5.531
-0.858826 1.71423 5.52927
-0.88777 1.71736 5.53645
-0.903924 1.71207 5.51664
-0.925752 1.72041 5.53869
-0.939952 1.71304 5.5129
-0.959928 1.7141 5.51604
-0.977012 1.71195 5.5052
-0.998848 1.72027 5.52624
-1.02399 1.71503 5.5085
-1.06104 1.71495 5.50178
-1.07715 1.71174 5.48695
-1.0971 1.71484 5.49306
-1.12509 1.71689 5.49524
-1.14314 1.7158 5.48839
-1.1602 1.7147 5.48053
-1.17822 1.71466 5.47767
-1.19821 1.71669 5.47879
-1.21333 1.71248 5.46396
-1.23523 1.71769 5.47705
-1.24136 1.71344 5.46016
-1.25939 1.7134 5.4563
-1.30029 1.7196 5.46851
-1.31348 1.71326 5.4447
-1.33248 1.71426 5.44383
-1.35536 1.72051 5.45991
-1.35857 1.7121 5.43206
-1.38629 1.72565 5.46807
-1.39657 1.71513 5.4323
-1.41849 1.72029 5.44239
-1.43069 1.71292 5.41659
-1.45163 1.71705 5.42468
-1.46677 1.71279 5.40686
-1.48159 1.72013 5.42887
-1.49283 1.71168 5.39807
-1.51671 1.71893 5.41415
-1.53376 1.71784 5.40729
-1.5518 1.71778 5.40243
-1.56885 1.71669 5.39557
-1.58496 1.71349 5.38174
-1.60176 1.72288 5.40673
-1.61395 1.71653 5.38291
-1.63101 1.71541 5.37405
-1.64807 1.71532 5.36718
-1.66514 1.7132 5.35834
-1.68706 1.71836 5.36843
-1.70314 1.71621 5.35758
-1.71022 1.71407 5.34767
-1.73411 1.72129 5.36174
-1.75116 1.7202 5.35489
-1.76919 1.72115 5.35101
-1.7843 1.71794 5.33617
-1.8033 1.71896 5.33629
-1.81842 1.71575 5.32145
-1.83524 1.72508 5.34344
-1.84937 1.72086 5.32761
-1.87133 1.72493 5.33172
-1.88838 1.72486 5.32585
-1.90448 1.72168 5.31301
-1.92055 1.72054 5.30315
-1.93858 1.72149 5.29927
-1.9525 1.72567 5.31031
-1.96368 1.72032 5.28648
-1.98369 1.72132 5.28561
-2.00269 1.72332 5.28472
-2.01878 1.72115 5.27288
-2.03583 1.72107 5.267
-2.06072 1.72828 5.28009
-2.07192 1.72192 5.25526
-2.08288 1.72399 5.25932
-2.10287 1.72702 5.26042
-2.11897 1.72485 5.24857
-2.13503 1.72373 5.23971
-2.15309 1.72364 5.23285
-2.17111 1.72461 5.22997
-2.18014 1.72456 5.22603
-2.19719 1.72447 5.21916
-2.21426 1.72435 5.21029
-2.23032 1.72324 5.20243
-2.2464 1.72209 5.19157
-2.26641 1.72407 5.18969
-2.28347 1.72398 5.18282
-2.2915 1.72393 5.17888
-2.30562 1.7207 5.16303
-2.33054 1.72687 5.17313
-2.34858 1.72679 5.16726
-2.36072 1.72353 5.1494
-2.37777 1.72344 5.14253
-2.40467 1.73065 5.15563
-2.4009 1.72121 5.12573
-2.42189 1.72424 5.12685
-2.436 1.72203 5.11198
-2.45699 1.72506 5.1131
-2.477 1.72706 5.11222
-2.49603 1.72801 5.10835
-2.51603 1.73101 5.10745
-2.52015 1.72679 5.09255
-2.55327 1.72658 5.0768
-2.57525 1.73062 5.0789
-2.59231 1.73052 5.07103
-2.62053 1.72511 5.04232
-2.63151 1.72816 5.04536
-2.64956 1.72807 5.03849
-2.68367 1.72887 5.02374
-2.70172 1.72978 5.01686
-2.71582 1.7276 5.00399
-2.75502 1.72624 4.97831
-2.78914 1.72603 4.96256
-2.80817 1.72697 4.95769
-2.82522 1.72788 4.95081
-2.83538 1.72358 4.92994
-2.86837 1.72862 4.93112
-2.89657 1.72525 4.90538
-2.92577 1.72289 4.87963
-2.95579 1.72585 4.87581
-2.98892 1.72662 4.85905
-3.02008 1.72533 4.8383
-3.06422 1.72708 4.8196
-3.20182 1.72699 4.73963
5.8213 1.60054 -0.316175
5.8274 1.6057 -0.170277
5.81937 1.6056 -0.0421976
5.81858 1.60602 -0.014194
5.81834 1.60951 0.08677
5.82849 1.61379 0.105633
5.80761 1.60805 0.122877
5.82776 1.61433 0.142635
5.80688 1.60859 0.15888
5.81904 1.61387 0.178713
5.82117 1.61514 0.196681
5.82025 1.61529 0.206687
5.8364 1.62057 0.22649
5.82453 1.61783 0.243622
5.79864 1.61007 0.258934
5.79091 1.60961 0.295004
5.78539 1.61157 0.359025
5.69554 1.61977 0.909657
5.69181 1.62133 0.946667
5.66469 1.62306 1.06286
1.61977 1.70082 5.33477
1.60978 1.69984 5.33586
1.54613 1.70956 5.38121
1.52713 1.70758 5.38238
1.51018 1.70869 5.38849
1.50222 1.70978 5.39453
1.48325 1.70984 5.39768
1.47248 1.71829 5.42764
1.44936 1.71107 5.41192
1.43759 1.72054 5.44287
1.41759 1.71854 5.44205
1.39652 1.71442 5.43327
1.38753 1.71446 5.43534
1.37162 1.71664 5.44742
1.35057 1.71256 5.44064
0.780579 1.72491 5.57577
0.641734 1.72631 5.5968
0.622688 1.72423 5.59097
0.586773 1.72642 5.60221
0.539782 1.72547 5.60358
0.52182 1.72656 5.6087
0.483844 1.72663 5.61199
0.465852 1.72666 5.61312
0.437853 1.72668 5.61333
0.418861 1.72671 5.61448
0.399814 1.72363 5.60866
0.381869 1.72575 5.61577
0.3628 1.72263 5.60696
0.344901 1.72683 5.62003
0.324785 1.72163 5.60526
0.296785 1.72065 5.60548
0.278925 1.72693 5.62353
0.260871 1.72384 5.61671
0.241857 1.72382 5.61485
0.22291 1.72494 5.62198
0.204873 1.72388 5.61713
0.194873 1.72389 5.61721
0.157804 1.72078 5.60853
0.139897 1.72397 5.62062
0.120828 1.72085 5.61181
0.101814 1.72083 5.60995
0.0738451 1.72191 5.61415
0.0559925 1.72821 5.63319
0.0274081 1.72012 5.4235
0.0183926 1.7191 5.42158
0.000408835 1.72014 5.4237
-0.0167375 1.71387 5.40492
-0.0346987 1.71496 5.41004
-0.0526982 1.71497 5.41017
-0.0706895 1.716 5.41129
-0.0887662 1.71286 5.40148
-0.0976731 1.71705 5.41348
-0.115665 1.71708 5.41462
-0.133665 1.71709 5.41475
-0.151788 1.71187 5.39897
-0.169663 1.71812 5.41501
-0.186825 1.71082 5.39424
-0.205654 1.71816 5.41628
-0.214746 1.71499 5.40439
-0.232637 1.72021 5.41845
-0.250776 1.71395 5.40068
-0.267791 1.71394 5.39881
-0.286697 1.71813 5.41089
-0.303781 1.71498 5.40006
-0.321819 1.71392 5.39522
-0.330788 1.71498 5.39927
-0.348826 1.71392 5.39442
-0.36681 1.71496 5.39654
-0.383879 1.71184 5.38771
-0.402839 1.71393 5.39283
-0.420838 1.71494 5.39295
-0.437908 1.71182 5.38412
-0.447853 1.71493 5.39115
-0.464906 1.71284 5.38431
-0.482951 1.71177 5.37846
-0.500905 1.71387 5.38456
-0.518873 1.71594 5.38867
-0.535065 1.70858 5.3639
-0.554002 1.71171 5.37199
-0.562979 1.71277 5.37505
-0.580978 1.71378 5.37517
-0.598069 1.71061 5.36334
-0.616976 1.7148 5.37542
-0.634098 1.71058 5.35961
-0.651144 1.7085 5.35377
-0.670058 1.71368 5.36484
-0.697095 1.71263 5.36006
-0.714156 1.71052 5.35222
-0.750162 1.71153 5.35147
-0.768177 1.71152 5.34961
-0.78523 1.71042 5.34275
-0.794237 1.71042 5.34182
-0.812213 1.71247 5.34492
-0.846326 1.70928 5.33023
-0.863372 1.7082 5.32437
-0.900331 1.7113 5.3296
-0.926422 1.70914 5.31783
-0.946344 1.7133 5.32792
-0.979473 1.71008 5.31122
-1.01739 1.71525 5.32143
-1.04348 1.71311 5.31065
-1.05858 1.70991 5.29681
-1.09557 1.71297 5.29905
-1.11356 1.71398 5.29917
-1.12968 1.70977 5.28435
-1.13868 1.71078 5.2844
-1.15765 1.71285 5.28851
-1.19366 1.71485 5.28676
-1.22777 1.71266 5.27304
-1.24286 1.70948 5.2602
-1.25575 1.71571 5.27521
-1.27086 1.7115 5.26038
-1.28984 1.71356 5.2635
-1.30688 1.71349 5.25762
-1.3249 1.71345 5.25476
-1.34097 1.71233 5.2459
-1.36288 1.71753 5.25799
-1.36799 1.71331 5.24309
-1.38407 1.71117 5.23324
-1.40499 1.71633 5.24332
-1.42204 1.71526 5.23746
-1.4381 1.71414 5.2286
-1.45806 1.71723 5.2337
-1.4693 1.70878 5.20291
-1.48218 1.71502 5.21892
-1.5002 1.71499 5.21605
-1.51628 1.71285 5.2062
-1.53623 1.71696 5.21229
-1.55523 1.71796 5.21142
-1.57033 1.71577 5.19857
-1.58836 1.71574 5.1957
-1.59443 1.7136 5.18578
-1.61341 1.71564 5.18789
-1.62754 1.71242 5.17204
-1.64654 1.71341 5.17117
-1.66749 1.71753 5.17827
-1.68354 1.71744 5.17139
-1.70058 1.71737 5.16552
-1.72057 1.71941 5.16764
-1.72664 1.71727 5.15772
-1.74466 1.71825 5.15584
-1.76269 1.7192 5.15196
-1.77777 1.71705 5.1411
-1.79677 1.71906 5.14122
-1.81674 1.72212 5.14432
-1.82282 1.71898 5.13441
-1.83988 1.71887 5.12654
-1.86181 1.72302 5.13565
-1.87298 1.71771 5.11381
-1.89297 1.71973 5.11493
-1.91294 1.72279 5.11803
-1.92706 1.71958 5.10318
-1.94195 1.7258 5.11721
-1.96094 1.72883 5.11831
-1.97407 1.72459 5.10146
-1.99404 1.72764 5.10457
-2.00523 1.7213 5.08075
-2.02717 1.72642 5.08784
-2.04519 1.7274 5.08596
-2.04931 1.72317 5.07005
-2.06438 1.72203 5.06018
-2.08438 1.72404 5.0603
-2.10142 1.72498 5.05541
-2.11455 1.72074 5.03857
-2.13651 1.72483 5.04368
-2.14571 1.71845 5.01784
-2.16257 1.72573 5.03586
-2.17863 1.72461 5.027
-2.1888 1.72031 5.00613
-2.21075 1.7244 5.01124
-2.22583 1.72326 5.00137
-2.23699 1.71796 4.98053
-2.25993 1.72309 4.98862
-2.26894 1.72407 4.98668
-2.28403 1.7219 4.97482
-2.30205 1.72388 4.97293
-2.324 1.72797 4.97803
-2.33614 1.72372 4.96019
-2.35319 1.72464 4.9543
-2.36532 1.72038 4.93645
-2.37532 1.72239 4.9365
-2.39631 1.72543 4.93861
-2.41237 1.72531 4.92973
-2.42744 1.72419 4.92086
-2.44844 1.72721 4.92097
-2.4776 1.7249 4.89923
-2.50662 1.72788 4.8964
-2.51974 1.72467 4.88154
-2.53875 1.72765 4.87964
-2.56693 1.72432 4.8559
-2.58695 1.7263 4.85402
-2.60611 1.72199 4.83223
-2.63626 1.72071 4.81247
-2.65824 1.72477 4.81558
-2.67333 1.72361 4.80371
-2.69037 1.72455 4.79882
-2.69643 1.72342 4.78988
-2.7125 1.7233 4.781
-2.73575 1.71684 4.74927
-2.79675 1.72585 4.74759
-2.81987 1.72565 4.73277
-2.831 1.7224 4.7159
-2.84805 1.72231 4.70903
-2.87524 1.71996 4.68426
-2.89822 1.72401 4.68638
-2.96853 1.72344 4.64491
-2.98656 1.72539 4.64102
5.6551 1.60825 -0.343041
5.66917 1.61237 -0.334207
5.6803 1.61661 -0.317351
5.65743 1.6099 -0.299077
5.67257 1.61515 -0.281266
5.66271 1.61243 -0.263149
5.65184 1.6087 -0.245009
5.65097 1.60896 -0.228004
5.67405 1.61609 -0.218282
5.65317 1.61035 -0.201038
5.66431 1.61361 -0.183167
5.67845 1.61887 -0.165349
5.66158 1.61415 -0.14715
5.67572 1.6184 -0.129317
5.66184 1.61466 -0.112155
5.66391 1.6158 -0.103186
5.66105 1.61506 -0.0851509
5.68319 1.62333 -0.0664375
5.67232 1.61959 -0.0492978
5.68146 1.62385 -0.0314272
5.66959 1.62012 -0.0132802
5.66973 1.62039 0.00471729
5.66292 1.61978 0.0307812
5.67306 1.62304 0.048659
5.66619 1.62131 0.0667388
5.67233 1.62457 0.0846468
5.67547 1.62584 0.102607
5.66366 1.62323 0.128738
5.67181 1.62651 0.147631
5.66693 1.62576 0.164681
5.65806 1.62302 0.181791
5.63518 1.61727 0.19805
5.64532 1.62055 0.216928
5.64946 1.62281 0.234866
5.64653 1.62295 0.243887
5.63665 1.62021 0.261005
5.62778 1.61846 0.2781
5.61991 1.61672 0.295187
5.63105 1.621 0.314042
5.62318 1.61925 0.33113
5.63633 1.62454 0.350955
5.60937 1.61663 0.356276
5.59749 1.61389 0.373409
5.63167 1.62519 0.394987
5.61578 1.62144 0.411164
5.62493 1.62572 0.430035
5.61506 1.62298 0.447152
5.60925 1.62337 0.473193
4.97489 1.65455 2.41778
4.93989 1.6446 2.41919
4.93997 1.64674 2.42916
1.77089 1.69602 5.08467
1.75496 1.69717 5.09378
1.74311 1.70247 5.11379
1.73618 1.7046 5.12181
1.7182 1.70365 5.12496
1.70227 1.7058 5.13405
1.68327 1.70381 5.13422
1.66836 1.706 5.14631
1.65138 1.70606 5.14943
1.63545 1.7072 5.15854
1.62851 1.70933 5.16656
1.61158 1.71047 5.17567
1.59564 1.7116 5.18377
1.58177 1.71585 5.19982
1.54684 1.71602 5.21008
1.52887 1.71508 5.21323
1.5029 1.71417 5.21844
1.48597 1.7163 5.22654
0.496359 1.7237 5.41491
0.468275 1.71956 5.40418
0.450314 1.72065 5.4093
0.433368 1.72276 5.4164
0.414322 1.71969 5.41059
0.397399 1.72285 5.42067
0.378291 1.71766 5.40689
0.370369 1.72181 5.41689
0.351331 1.71975 5.41206
0.334416 1.72293 5.42314
0.315331 1.71878 5.41235
0.297293 1.71672 5.40751
0.280417 1.72196 5.42356
0.26134 1.71783 5.41377
0.253488 1.72512 5.43272
0.235464 1.72309 5.42989
0.216233 1.71366 5.40017
0.199427 1.72204 5.42517
0.181419 1.72104 5.42432
0.163404 1.72002 5.42247
0.144351 1.71793 5.41565
0.136412 1.72006 5.42368
0.117359 1.71797 5.41685
0.0993903 1.71904 5.42097
0.0814216 1.72011 5.42509
0.0633449 1.71698 5.41527
0.0453762 1.71805 5.41939
0.0277074 1.70779 5.19865
0.0107467 1.70987 5.20374
-0.00632242 1.70675 5.19492
-0.0233527 1.70571 5.19106
-0.0413139 1.70679 5.19618
-0.0663904 1.70367 5.18641
-0.10135 1.70576 5.19165
-0.11835 1.70578 5.19177
-0.136357 1.70578 5.19091
-0.153387 1.70473 5.18705
-0.170348 1.70681 5.19215
-0.179363 1.70579 5.19023
-0.213392 1.70576 5.18649
-0.230438 1.70368 5.18065
-0.265422 1.70474 5.1829
-0.282375 1.70684 5.18899
-0.308412 1.70578 5.18421
-0.32545 1.70472 5.17935
-0.4205 1.70469 5.17306
-0.454506 1.7057 5.17231
-0.566586 1.70561 5.16215
-0.80682 1.70532 5.13196
-0.900907 1.70621 5.12065
-1.32552 1.70729 5.04083
-1.4177 1.707 5.01752
-1.45467 1.71207 5.02073
-1.4678 1.70683 5.0039
-1.48385 1.70674 4.99702
-1.50186 1.70773 4.99614
-1.51182 1.70981 5.00119
-1.52886 1.70975 4.99632
-1.54295 1.70759 4.98445
-1.56195 1.7096 4.98457
-1.57897 1.70957 4.98169
-1.59698 1.71157 4.9808
-1.62105 1.71043 4.971
-1.63709 1.71037 4.96612
-1.65705 1.71446 4.97121
-1.67115 1.71126 4.95736
-1.69012 1.71434 4.96146
-1.70717 1.71426 4.95559
-1.7232 1.7142 4.95071
-1.73223 1.71416 4.94778
-1.74926 1.71411 4.9439
-1.76138 1.71089 4.92804
-1.78234 1.71397 4.93315
-1.80133 1.717 4.93425
-1.81345 1.71277 4.9184
-1.8344 1.71788 4.92449
-1.84242 1.71784 4.92155
-1.85553 1.71364 4.90771
-1.87159 1.71354 4.89983
-1.89547 1.72077 4.9149
-1.90664 1.71546 4.89306
-1.91974 1.71227 4.88021
-1.94364 1.71948 4.89328
-1.94284 1.7111 4.8674
-1.96183 1.71313 4.86851
-1.97788 1.71304 4.86163
-1.99491 1.71399 4.85774
-2.01096 1.7139 4.85087
-2.02898 1.71488 4.84899
-2.04404 1.71476 4.8401
-2.05109 1.71267 4.83418
-2.06812 1.71463 4.83028
-2.08416 1.71455 4.8244
-2.10219 1.71552 4.82153
-2.12217 1.71856 4.82363
-2.12742 1.70908 4.79081
-2.14642 1.71109 4.79092
-2.16426 1.72042 4.81192
-2.17246 1.71304 4.78609
-2.1885 1.71396 4.78019
-2.20455 1.71387 4.77331
-2.21766 1.71067 4.75946
-2.23862 1.71576 4.76454
-2.2586 1.7188 4.76665
-2.26467 1.71667 4.75772
-2.27974 1.71555 4.74885
-2.29677 1.71751 4.74495
-2.30594 1.71117 4.72211
-2.32887 1.71732 4.73119
-2.34886 1.72035 4.7323
-2.35998 1.71712 4.71643
-2.36605 1.71499 4.70751
-2.38899 1.72011 4.7146
-2.4011 1.71791 4.70073
-2.42208 1.72197 4.70382
-2.43813 1.72187 4.69594
-2.45123 1.71968 4.68307
-2.46236 1.71646 4.6672
-2.47235 1.71748 4.66826
-2.48742 1.71734 4.65838
-2.50445 1.71829 4.65449
-2.51558 1.71505 4.63762
-2.5346 1.71702 4.63474
-2.55164 1.71796 4.62985
-2.56474 1.71578 4.61698
-2.58177 1.71671 4.61209
-2.59077 1.71872 4.61213
-2.60486 1.71655 4.60027
-2.615 1.71329 4.58239
-2.63303 1.71525 4.5785
-2.65597 1.72037 4.58559
-2.66414 1.71505 4.56373
-2.67316 1.71602 4.56178
-2.69118 1.71798 4.55789
-2.70427 1.71581 4.54602
-2.72131 1.71775 4.54112
-2.73146 1.71347 4.52226
-2.75638 1.72064 4.53234
-2.76454 1.71532 4.51048
-2.76862 1.71318 4.50054
-2.79257 1.71928 4.50663
-2.80369 1.71607 4.49176
-2.81382 1.71282 4.47488
-2.83382 1.71582 4.47398
-2.85284 1.71879 4.47108
-2.86099 1.7135 4.45122
-2.87593 1.71863 4.45926
-2.88902 1.71746 4.44737
-2.89817 1.71319 4.4285
-2.91719 1.71616 4.4256
-2.93818 1.71919 4.42671
-2.94731 1.71593 4.40883
-2.97028 1.721 4.41293
-2.9914 1.72078 4.39709
-3.00845 1.72169 4.3902
-3.02253 1.72054 4.37932
-3.03166 1.71729 4.36244
-3.05266 1.72131 4.36254
-3.07379 1.72007 4.34571
-3.11602 1.71964 4.31503
-3.16419 1.72134 4.29237
-3.19741 1.71993 4.26363
5.44434 1.60388 -0.309384
5.44373 1.60463 -0.258383
5.4378 1.60277 -0.24931
5.43792 1.60302 -0.232312
5.44705 1.60627 -0.215426
5.44518 1.60652 -0.198414
5.45432 1.60978 -0.180528
5.45545 1.61103 -0.163553
5.45157 1.60929 -0.146496
5.45864 1.61241 -0.137594
5.44876 1.60966 -0.121477
5.4559 1.61192 -0.103561
5.45903 1.61317 -0.086601
5.45016 1.61143 -0.0695061
5.45128 1.61268 -0.0525307
5.46942 1.61893 -0.0347575
5.45248 1.61306 -0.0265418
5.46062 1.61632 -0.00864892
5.46175 1.61757 0.00832639
5.46087 1.61782 0.0253316
5.46 1.61808 0.0423368
5.44913 1.61534 0.0594616
5.43625 1.61158 0.0756164
5.35759 1.61817 0.652191
5.32953 1.61804 0.777422
5.34669 1.62534 0.798187
4.56074 1.64849 2.66602
1.80229 1.69486 4.87242
1.78328 1.69285 4.8706
1.76833 1.69296 4.87771
1.75545 1.69721 4.89374
1.73747 1.69625 4.89589
1.7205 1.69532 4.90004
1.70965 1.70061 4.91904
1.69862 1.69856 4.91515
1.68368 1.6997 4.92425
1.67081 1.70395 4.94029
1.64871 1.69779 4.92854
1.63481 1.70099 4.9416
1.62092 1.70421 4.95566
1.60394 1.70326 4.9588
1.59495 1.70229 4.95989
1.58207 1.70652 4.97492
1.56408 1.70556 4.97707
1.55019 1.70878 4.99113
1.53528 1.71197 5.0032
1.51729 1.70999 5.00436
1.22593 1.71545 5.09049
1.17605 1.71671 5.10585
1.16602 1.71466 5.10195
1.14902 1.71367 5.1021
1.09915 1.71696 5.11943
1.08115 1.71497 5.11959
1.05517 1.71503 5.12279
1.03818 1.71406 5.12393
1.00527 1.71626 5.13615
0.986209 1.71216 5.12835
0.970317 1.71638 5.14241
0.952279 1.71432 5.13758
0.943263 1.71229 5.13567
0.927341 1.71545 5.14575
0.908263 1.71032 5.13597
0.89234 1.71348 5.14604
0.876449 1.7177 5.1601
0.855279 1.70939 5.13838
0.840371 1.71257 5.15045
0.831387 1.71261 5.15251
0.813371 1.71059 5.15068
0.797449 1.71375 5.16075
0.780472 1.71381 5.16388
0.762441 1.71176 5.16005
0.745448 1.71079 5.16119
0.728518 1.71394 5.17027
0.719456 1.71083 5.16238
0.702503 1.71193 5.1685
0.684472 1.70988 5.16466
0.668588 1.71511 5.17971
0.650549 1.71205 5.17489
0.633581 1.71312 5.179
0.616581 1.71214 5.17914
0.606511 1.70901 5.17026
0.591658 1.7153 5.18928
0.572535 1.70908 5.17352
0.555628 1.71227 5.1856
0.537566 1.70917 5.17778
0.519504 1.70606 5.16996
0.50469 1.71343 5.19397
0.495636 1.71133 5.18707
0.47652 1.70512 5.1723
0.460629 1.71034 5.18634
0.442582 1.70726 5.18053
0.425621 1.70835 5.18564
0.408614 1.70835 5.18477
0.391669 1.71046 5.19186
0.382661 1.70946 5.19095
0.365653 1.70845 5.19009
0.348731 1.71161 5.20017
0.330623 1.70642 5.18638
0.313716 1.71061 5.19845
0.296709 1.71061 5.19758
0.278632 1.70647 5.18777
0.269647 1.70651 5.18984
0.252694 1.70861 5.19594
0.235586 1.70342 5.18214
0.217649 1.70655 5.19023
0.201803 1.71285 5.21026
0.183719 1.7087 5.19946
0.166673 1.70663 5.19362
0.157603 1.7035 5.18473
0.140581 1.70247 5.18187
0.122612 1.70354 5.18599
0.105682 1.70669 5.19507
0.0886128 1.70357 5.18625
0.0716904 1.70673 5.19633
0.0536909 1.70674 5.19647
0.0457376 1.70883 5.2025
-0.135503 1.70252 5.03893
-0.152417 1.7067 5.05
-0.839917 1.70618 4.98618
-1.51307 1.70537 4.83624
-1.52401 1.70848 4.84328
-1.56921 1.70413 4.81768
-1.61828 1.70602 4.80802
-1.62534 1.70391 4.8001
-1.64136 1.70487 4.79721
-1.65742 1.70378 4.79034
-1.70944 1.70876 4.78666
-1.72548 1.7087 4.78178
-1.73446 1.71073 4.78382
-1.74757 1.70654 4.76998
-1.76361 1.70646 4.7641
-1.78356 1.71158 4.77118
-1.79667 1.70836 4.75632
-1.81369 1.70935 4.75443
-1.83072 1.7103 4.75055
-1.83874 1.71026 4.74761
-1.85086 1.70603 4.73176
-1.86395 1.70387 4.71989
-1.88293 1.70692 4.72299
-1.90289 1.71101 4.72808
-1.91209 1.70363 4.70225
-1.9291 1.70462 4.70037
-1.93614 1.70355 4.69543
-1.95314 1.70555 4.69453
-1.96625 1.70335 4.68066
-2.01928 1.70831 4.67599
-2.02942 1.70305 4.65814
-2.0394 1.70509 4.66018
-2.05644 1.70603 4.6553
-2.07052 1.70489 4.64542
-2.08754 1.70586 4.64253
-2.11568 1.7036 4.62378
-2.12976 1.70246 4.6139
-2.14073 1.70451 4.61695
-2.15579 1.70442 4.61006
-2.16986 1.70328 4.60019
-2.21798 1.70508 4.58452
-2.23599 1.70706 4.58263
-2.24908 1.70489 4.57076
-2.25907 1.70693 4.5728
-2.2761 1.70788 4.56891
-2.29411 1.70987 4.56702
-2.31114 1.71082 4.56313
-2.32226 1.70759 4.54726
-2.33829 1.70854 4.54337
-2.3483 1.71054 4.54241
-2.35744 1.70526 4.52356
-2.37643 1.70829 4.52466
-2.39346 1.71024 4.52076
-2.40557 1.70703 4.50589
-2.42456 1.71006 4.50699
-2.43569 1.70683 4.49112
-2.45552 1.71716 4.51212
-2.4765 1.72121 4.51522
-2.48959 1.71905 4.50335
-2.48692 1.70541 4.46052
-2.50886 1.71153 4.4676
-2.52589 1.71248 4.46371
-2.53208 1.70612 4.43885
-2.54307 1.70815 4.4409
-2.55517 1.70597 4.42803
-2.56726 1.70379 4.41515
-2.58823 1.70886 4.41923
-2.59936 1.70562 4.40236
-2.61144 1.70346 4.39148
-2.63243 1.70749 4.39258
-2.64144 1.70848 4.39163
-2.6486 1.70318 4.37076
-2.67847 1.71445 4.38782
-2.68267 1.70607 4.36197
-2.69378 1.70386 4.34709
-2.71969 1.71204 4.35817
-2.73672 1.71399 4.35426
-2.72797 1.70251 4.32236
-2.7519 1.70865 4.33045
-2.76203 1.7054 4.31358
-2.77709 1.7053 4.30569
-2.79907 1.71036 4.30878
-2.81709 1.71332 4.30587
-2.82325 1.70702 4.28501
-2.83523 1.71006 4.28706
-2.85029 1.71095 4.27915
-2.86337 1.70979 4.26827
-2.88239 1.71278 4.26637
-2.90041 1.71475 4.26347
-2.90855 1.71047 4.2446
-2.92361 1.71136 4.23669
-2.9346 1.71339 4.23775
-2.9467 1.7122 4.22485
-2.95978 1.71105 4.21397
-2.98373 1.71716 4.22006
-2.99385 1.71494 4.20517
-3.01288 1.7169 4.20128
-3.02497 1.71573 4.18939
-3.032 1.71566 4.18444
-3.04806 1.71657 4.17755
-3.0641 1.71849 4.17164
-3.07422 1.71526 4.15576
-3.0873 1.71512 4.14586
-3.11841 1.71692 4.13107
5.33019 1.61563 -0.330701
5.29731 1.60491 -0.313292
5.33538 1.618 -0.305771
5.32951 1.61626 -0.288699
5.30362 1.60751 -0.272372
5.31675 1.61175 -0.255532
5.312 1.61125 -0.222484
5.3302 1.61762 -0.196712
5.32358 1.61636 -0.146636
5.33871 1.6226 -0.12984
5.34102 1.62422 -0.0878758
5.34015 1.62448 -0.0708707
5.3284 1.62197 -0.0377405
5.30151 1.61322 -0.0224062
5.29863 1.61247 -0.00537114
5.29375 1.61171 0.0106791
5.29382 1.61184 0.0196778
5.28694 1.61009 0.0357579
5.29307 1.61233 0.0526808
5.2922 1.61258 0.069686
5.28532 1.61083 0.0857661
5.28044 1.61007 0.101816
5.27356 1.60831 0.117896
5.28163 1.61144 0.126791
5.28476 1.61369 0.143736
5.29189 1.61695 0.161636
5.29101 1.61718 0.177642
5.30115 1.62144 0.195505
4.6424 1.6618 2.35317
4.62045 1.65692 2.36041
4.61557 1.65816 2.37643
4.60868 1.65939 2.39146
4.59168 1.6544 2.39166
4.55782 1.64771 2.41102
2.143 1.68613 4.56694
2.11718 1.69049 4.59008
2.10819 1.69052 4.59214
2.09427 1.69168 4.60223
2.08135 1.69385 4.6133
2.06337 1.6919 4.61546
2.05249 1.69614 4.63149
2.03449 1.69315 4.63167
2.01548 1.69115 4.63084
2.0136 1.69538 4.64579
1.99562 1.69443 4.64894
1.98372 1.69763 4.66199
1.96675 1.69671 4.66613
1.94977 1.69576 4.66927
1.93482 1.69586 4.67538
1.92192 1.69806 4.68845
1.91292 1.69809 4.68952
1.89288 1.69403 4.68473
1.88304 1.69933 4.70473
1.8681 1.69946 4.71284
1.85316 1.70059 4.72093
1.83211 1.6965 4.71415
1.81614 1.69557 4.71829
1.80815 1.69561 4.72035
1.79527 1.69884 4.7354
1.77523 1.69478 4.73061
1.75925 1.69484 4.73373
1.74635 1.69704 4.74679
1.72937 1.69709 4.74992
1.71443 1.69721 4.75703
1.70646 1.69829 4.76208
1.69049 1.69734 4.76521
1.67249 1.69536 4.76538
1.66061 1.6996 4.78141
1.64773 1.70385 4.79744
1.63179 1.70496 4.80455
1.32058 1.71173 4.91081
1.29563 1.71184 4.91699
1.23078 1.71418 4.93745
1.21479 1.71321 4.93859
1.1888 1.71226 4.9408
1.17287 1.71339 4.9489
1.1538 1.70928 4.9411
1.13886 1.7114 4.94819
1.12189 1.71147 4.95231
1.10488 1.70946 4.95147
1.08791 1.70954 4.9556
1.0789 1.70953 4.95467
1.04594 1.70863 4.95993
0.997041 1.70985 4.97328
0.980064 1.70991 4.97641
0.968948 1.7037 4.96158
0.95301 1.70583 4.96967
0.937064 1.70794 4.97676
0.921071 1.70697 4.9779
0.905118 1.70807 4.984
0.888126 1.7081 4.98513
0.863172 1.7082 4.99132
0.847203 1.70927 4.99542
0.829164 1.70621 4.9906
0.813257 1.7104 5.00266
0.79728 1.71046 5.00578
0.780264 1.70844 5.00394
0.763272 1.70847 5.00507
0.755303 1.70953 5.00911
0.737264 1.70647 5.00429
0.724489 1.71591 5.03325
0.704295 1.70656 5.00854
0.672458 1.71289 5.02969
0.656489 1.71396 5.03379
0.648544 1.71607 5.04082
0.631528 1.71405 5.03898
0.61135 1.70573 5.01625
0.595428 1.70889 5.02633
0.580544 1.71312 5.04138
0.563583 1.71421 5.04649
0.542258 1.6996 5.00486
0.537514 1.71109 5.03773
0.52156 1.71219 5.04384
0.501336 1.70178 5.01514
0.487592 1.71328 5.04808
0.471708 1.71751 5.06314
0.453545 1.70921 5.04239
0.434406 1.70296 5.02463
0.428646 1.71342 5.05552
0.411639 1.71342 5.05465
0.394631 1.71242 5.05379
0.378655 1.71347 5.0569
0.344663 1.71251 5.05817
0.327679 1.71356 5.06028
0.318625 1.71046 5.05339
0.301517 1.70526 5.0396
0.284525 1.70529 5.04073
0.267486 1.70323 5.03588
0.250448 1.70117 5.03104
0.233479 1.70224 5.03516
0.216503 1.7033 5.03827
0.208448 1.7002 5.03137
0.191434 1.70018 5.0295
0.174449 1.70022 5.03163
0.124466 1.70029 5.03401
0.0315029 1.70845 4.90557
0.0236041 1.71364 4.91855
0.00643395 1.70533 4.8968
-0.00946519 1.70954 4.90986
-0.0255112 1.70746 4.90401
-0.0425107 1.70747 4.90414
-0.0585717 1.70536 4.89629
-0.0745481 1.70642 4.89939
-0.0825635 1.7054 4.89747
-0.0995781 1.70538 4.8956
-0.115508 1.70852 4.90467
-0.132453 1.71164 4.91176
-0.148468 1.71062 4.90989
-0.164545 1.70749 4.90006
-0.181521 1.70854 4.90317
-0.18866 1.70228 4.88531
-0.206505 1.70959 4.90534
-0.22162 1.70438 4.89053
-0.238612 1.70541 4.89165
-0.254604 1.70543 4.89277
-0.270611 1.70543 4.89189
-0.286649 1.70437 4.88702
-0.29564 1.70539 4.88807
-0.311647 1.70539 4.8872
-0.328593 1.7075 4.89429
-0.344592 1.70851 4.8944
-0.359715 1.70329 4.87859
-0.376668 1.70539 4.88468
-0.401698 1.70535 4.88087
-0.416775 1.70121 4.87105
-0.433712 1.70534 4.87911
-0.449773 1.70323 4.87126
-0.465749 1.70429 4.87437
-0.482764 1.70427 4.8725
-0.498763 1.70529 4.8726
-0.50584 1.70114 4.86272
-0.539761 1.70631 4.8729
-0.555806 1.70524 4.86703
-0.572774 1.70731 4.87113
-0.587867 1.70314 4.85931
-0.604803 1.70727 4.86737
-0.621803 1.70729 4.8675
-0.630771 1.70935 4.87154
-0.644918 1.70308 4.85274
-0.660917 1.70409 4.85284
-0.675994 1.70096 4.843
-0.693938 1.70507 4.85007
-0.708984 1.70299 4.84422
-0.71796 1.70505 4.84726
-0.73492 1.70713 4.85235
-0.750981 1.70502 4.8445
-0.767011 1.70498 4.84063
-0.781103 1.70081 4.82879
-0.81507 1.70489 4.83299
-0.823085 1.70487 4.83105
-0.840076 1.7059 4.83216
-0.85799 1.71107 4.84322
-0.874043 1.70898 4.83637
-0.887166 1.70475 4.82053
-0.906087 1.70891 4.83061
-0.921133 1.70784 4.82474
-0.930132 1.70884 4.82479
-0.944216 1.70569 4.81395
-0.962176 1.70878 4.81904
-0.977245 1.70666 4.81018
-0.994228 1.7087 4.81228
-1.01025 1.70867 4.8094
-1.02242 1.70135 4.7876
-1.03334 1.7055 4.79762
-1.05127 1.71065 4.80668
-1.06732 1.70856 4.79983
-1.08335 1.70853 4.79695
-1.09646 1.70431 4.78211
-1.11346 1.70633 4.78221
-1.1285 1.70526 4.77734
-1.13653 1.70421 4.77341
-1.15256 1.70416 4.76953
-1.16858 1.70413 4.76665
-1.18652 1.70825 4.77373
-1.20548 1.71233 4.77881
-1.21471 1.70191 4.75003
-1.23073 1.70288 4.74714
-1.24068 1.70597 4.75317
-1.25864 1.70906 4.75826
-1.26982 1.70173 4.73545
-1.29363 1.7121 4.75948
-1.30479 1.7058 4.73865
-1.31985 1.70469 4.73078
-1.33684 1.70672 4.73188
-1.34387 1.70566 4.72795
-1.36089 1.70665 4.72606
-1.37984 1.71075 4.73214
-1.39392 1.70861 4.72228
-1.41286 1.71273 4.72936
-1.42987 1.71373 4.72847
-1.44394 1.71159 4.71861
-1.44709 1.70531 4.69972
-1.46798 1.71253 4.71378
-1.48107 1.70936 4.70192
-1.49809 1.71033 4.69903
-1.51705 1.71443 4.70512
-1.52917 1.71021 4.68927
-1.54519 1.71117 4.68637
-1.55907 1.71741 4.70139
-1.57119 1.71318 4.68554
-1.58429 1.71101 4.67367
-1.60717 1.71825 4.68874
-1.62027 1.71506 4.67588
-1.63532 1.71497 4.66899
-1.65525 1.72012 4.67807
-1.65935 1.71593 4.66516
-1.6744 1.71484 4.65829
-1.69436 1.71893 4.66338
-1.7055 1.71467 4.64553
-1.72152 1.71464 4.64265
-1.7917 1.71533 4.61916
-1.80774 1.71525 4.61328
-1.82377 1.71621 4.60939
-1.83293 1.7099 4.58855
-1.85192 1.71295 4.59065
-1.86989 1.716 4.59374
-1.87694 1.71492 4.58781
-1.89297 1.71586 4.58291
-1.909 1.71581 4.57903
-1.92798 1.71987 4.58212
-1.93322 1.70941 4.55131
-1.94924 1.71138 4.5484
-1.96119 1.71448 4.55444
-1.97427 1.71334 4.54456
-1.99324 1.7164 4.54765
-2.00635 1.7132 4.5338
-2.02433 1.71724 4.53587
-2.03447 1.71198 4.51803
-2.05051 1.71292 4.51313
-2.06344 1.71706 4.52217
-2.07455 1.71385 4.5073
-2.09255 1.71686 4.50739
-2.10662 1.71472 4.49753
-2.1197 1.71359 4.48764
-2.13083 1.70934 4.47078
-2.15178 1.71445 4.47687
-2.16275 1.71751 4.48091
-2.17976 1.7195 4.479
-2.18892 1.71419 4.45815
-2.20789 1.71826 4.46223
-2.2269 1.72026 4.46135
-2.23603 1.71602 4.44447
-2.25502 1.71903 4.44457
-2.26403 1.72002 4.44363
-2.27809 1.71892 4.43575
-2.38754 1.71711 4.37659
-2.48685 1.71956 4.3353
-2.49895 1.71737 4.32242
-2.54509 1.71912 4.30374
-2.56618 1.71896 4.2919
-2.58124 1.71886 4.28401
5.17813 1.61661 -0.338571
5.17625 1.61685 -0.322558
5.17437 1.61609 -0.30653
5.16349 1.61233 -0.29039
5.18962 1.62156 -0.273721
5.17974 1.61881 -0.257604
5.18887 1.62205 -0.240719
5.19105 1.62341 -0.216752
5.18273 1.62275 -0.126667
5.17997 1.62222 -0.0946338
5.16608 1.61847 -0.0784715
5.17221 1.6207 -0.0625484
5.16233 1.61795 -0.046431
5.17446 1.62319 -0.0295976
5.17452 1.62331 -0.0215987
5.15663 1.61754 -0.0063765
5.16476 1.62079 0.0105165
5.15087 1.61602 0.0256938
5.152 1.61727 0.0426692
5.15812 1.62052 0.0595772
5.14324 1.61575 0.0747621
5.1523 1.61888 0.0836487
5.13241 1.6131 0.0978861
5.14054 1.61635 0.114779
5.12965 1.61358 0.129904
5.13979 1.61784 0.147767
5.1309 1.61506 0.162877
5.12702 1.6143 0.17892
5.13809 1.61843 0.187777
5.11531 1.61289 0.218035
5.11944 1.61514 0.234973
5.11055 1.61237 0.250083
5.10879 1.61384 0.282078
5.11311 1.61746 0.323998
5.09433 1.61292 0.354211
5.09946 1.61517 0.371141
5.09264 1.61451 0.394206
5.08676 1.61375 0.410263
5.084 1.61423 0.442282
5.08713 1.61648 0.459227
5.07924 1.61471 0.474315
5.08844 1.62009 0.500169
4.31944 1.64808 2.49382
2.26253 1.69415 4.3709
2.24555 1.69219 4.37305
2.23162 1.69234 4.38216
2.22277 1.69864 4.40213
2.20477 1.69565 4.40231
2.19286 1.69784 4.41437
2.18997 1.70205 4.42833
2.17095 1.69903 4.42652
2.16008 1.70228 4.44256
2.13016 1.70146 4.4538
2.11013 1.69742 4.45001
2.09331 1.70379 4.47404
1.85208 1.70646 4.57684
1.83508 1.70447 4.57699
1.82115 1.70561 4.58608
1.79617 1.70367 4.5893
1.78022 1.70378 4.59542
1.75134 1.70603 4.61161
1.73639 1.70715 4.6187
0.671369 1.71574 4.88464
0.630408 1.71585 4.88994
0.579346 1.71077 4.8824
0.564447 1.71497 4.89545
0.507494 1.7151 4.90188
0.490471 1.71407 4.89903
0.474456 1.71305 4.89716
0.457425 1.711 4.89332
0.433541 1.71524 4.90844
0.417549 1.71527 4.90956
0.400503 1.71319 4.90372
0.368573 1.71535 4.91293
0.351573 1.71536 4.91305
0.343589 1.7154 4.91511
0.326582 1.71539 4.91424
0.310543 1.71333 4.90939
0.29352 1.7113 4.90655
0.277513 1.7113 4.90567
0.260474 1.70924 4.90083
0.24442 1.70614 4.894
0.236575 1.71344 4.91395
0.219475 1.70827 4.90115
0.203537 1.7114 4.90923
0.187561 1.71145 4.91235
0.170607 1.71355 4.91845
0.154593 1.71353 4.91657
0.138593 1.71355 4.91669
0.129523 1.70942 4.90781
0.113586 1.71255 4.91589
0.0965167 1.70943 4.90706
0.0805172 1.70944 4.90718
0.0645327 1.70948 4.9093
0.0475489 1.71052 4.91142
0.0246065 1.70669 4.78663
0.008607 1.7067 4.78675
-0.00729152 1.7119 4.79979
-0.0242057 1.71608 4.81086
-0.0314075 1.7057 4.78507
-0.0482358 1.71504 4.80706
-0.0634531 1.70364 4.77934
-0.0963122 1.71093 4.79748
-0.111358 1.70885 4.79162
-0.127404 1.70677 4.78577
-0.136233 1.7151 4.80772
-0.152295 1.712 4.79988
-0.168271 1.71405 4.80297
-0.18348 1.70366 4.77624
-0.216331 1.71197 4.79537
-0.231439 1.70677 4.78156
-0.240369 1.70991 4.79058
-0.255399 1.70886 4.78671
-0.271437 1.7078 4.78184
-0.287491 1.70571 4.77499
-0.303451 1.7078 4.78008
-0.319505 1.7057 4.77323
-0.33638 1.71195 4.78927
-0.351465 1.7078 4.77844
-0.35948 1.70778 4.7765
-0.374565 1.70363 4.76568
-0.391486 1.70779 4.77575
-0.40754 1.70569 4.7689
-0.422624 1.70254 4.75806
-0.439546 1.7067 4.76812
-0.446569 1.70566 4.76519
-0.463545 1.70772 4.76829
-0.478614 1.7046 4.75945
-0.495497 1.71083 4.77448
-0.511566 1.70771 4.76565
-0.525727 1.70141 4.74485
-0.541665 1.70454 4.75292
-0.550656 1.70556 4.75397
-0.565687 1.70451 4.7501
-0.581717 1.70347 4.74624
-0.598654 1.7076 4.75431
-0.61373 1.70446 4.74446
-0.630691 1.70754 4.74955
-0.643845 1.70026 4.72975
-0.655612 1.71171 4.75968
-0.668774 1.70541 4.73886
-0.685727 1.70751 4.74496
-0.701756 1.70746 4.74108
-0.717778 1.70743 4.7382
-0.732809 1.70638 4.73433
-0.748815 1.70738 4.73344
-0.756823 1.70737 4.7325
-0.773798 1.70943 4.7356
-0.788859 1.70732 4.72774
-0.80389 1.70627 4.72387
-0.819927 1.70521 4.719
-0.837833 1.7114 4.73105
-0.85291 1.70826 4.72121
-0.859963 1.70616 4.71429
-0.877884 1.71132 4.72435
-0.891008 1.7061 4.70852
-0.906999 1.70712 4.70963
-0.923975 1.70918 4.71273
-0.939997 1.70915 4.70985
-0.95505 1.70806 4.70298
-0.976203 1.70278 4.68321
-0.996039 1.7111 4.70424
-1.01303 1.71313 4.70534
-1.02423 1.70475 4.67954
-1.03734 1.70055 4.6657
-1.05815 1.71092 4.68971
-1.06618 1.70987 4.68579
-1.07832 1.70461 4.66795
-1.10205 1.71915 4.70292
-1.11132 1.70664 4.66817
-1.12925 1.71077 4.67625
-1.14624 1.71381 4.67833
-1.16128 1.71273 4.67246
-1.16641 1.7065 4.65659
-1.18725 1.71581 4.67661
-1.19843 1.70848 4.6538
-1.2125 1.70635 4.64493
-1.23144 1.71047 4.65202
-1.24357 1.70623 4.63517
-1.26055 1.70829 4.63827
-1.27147 1.71343 4.64727
-1.28359 1.70821 4.63244
-1.30057 1.71026 4.63454
-1.31951 1.71539 4.64261
-1.33067 1.70908 4.62178
-1.35057 1.71529 4.63484
-1.36756 1.71732 4.63594
-1.37169 1.71207 4.61905
-1.38478 1.7089 4.60719
-1.4047 1.71506 4.61725
-1.4178 1.71088 4.60441
-1.42993 1.70665 4.58856
-1.45275 1.71701 4.61158
-1.46098 1.70757 4.58178
-1.47581 1.71689 4.60276
-1.49183 1.71686 4.59988
-1.50394 1.71366 4.58601
-1.51607 1.70842 4.56918
-1.536 1.71457 4.57824
-1.55397 1.71764 4.58233
-1.5612 1.7072 4.55254
-1.58406 1.71648 4.57057
-1.58523 1.70916 4.54869
-1.60807 1.71847 4.56872
-1.63523 1.71418 4.54799
-1.65517 1.7193 4.55507
-1.66826 1.71714 4.54419
-1.67137 1.71193 4.52929
-1.70636 1.71698 4.53148
-1.72335 1.71899 4.53158
-1.73743 1.71785 4.5217
-1.76653 1.71567 4.50795
-1.80465 1.71547 4.49324
-1.83669 1.71741 4.48745
-1.86676 1.71828 4.47766
-1.87282 1.71718 4.47072
-1.88885 1.71714 4.46685
-1.90389 1.71706 4.46096
-1.91501 1.71384 4.44609
-1.93202 1.71483 4.4442
-1.94412 1.71264 4.43132
-1.96406 1.71776 4.4384
-1.98418 1.71454 4.4226
-2.03226 1.71841 4.4119
-2.11352 1.71797 4.37851
5.05922 1.6228 -0.060728
5.06534 1.62603 -0.0448197
5.06458 1.62651 -0.0128166
5.0577 1.62475 0.00326343
5.04687 1.6221 0.0263874
5.03422 1.6188 0.073538
5.04035 1.62203 0.0894463
5.05548 1.62827 0.106242
5.0526 1.62751 0.122277
5.01663 1.61461 0.12774
5.02075 1.61785 0.143663
4.47333 1.65685 2.07948
4.22949 1.66524 2.50025
4.21255 1.66137 2.50843
4.21772 1.66769 2.5303
4.16961 1.65053 2.51792
4.16969 1.65368 2.52787
4.15476 1.65083 2.53703
4.14083 1.64897 2.54616
4.13997 1.65225 2.56512
4.12503 1.64938 2.57328
4.1063 1.65193 2.60939
4.06768 1.6527 2.65967
4.04685 1.65105 2.68286
4.02611 1.65357 2.71698
4.0162 1.65375 2.72906
4.01132 1.656 2.74506
3.99538 1.65313 2.75323
3.92897 1.65333 2.83173
3.63755 1.66059 3.17487
3.13802 1.66874 3.63658
2.30438 1.69186 4.21759
2.28766 1.7004 4.2536
2.26369 1.69849 4.25881
2.23683 1.70078 4.27698
0.696411 1.71284 4.75747
0.633504 1.71407 4.76993
0.321732 1.71572 4.80126
0.28867 1.71163 4.79357
0.264647 1.7106 4.79076
0.232718 1.71376 4.79996
0.200672 1.71069 4.79424
0.176649 1.70967 4.79144
0.144611 1.70762 4.78671
0.12879 1.71597 4.80971
0.112674 1.70976 4.79492
0.0967908 1.71599 4.80995
0.0806514 1.70874 4.79218
0.0566364 1.70773 4.79037
0.0407071 1.71187 4.79943
0.0204415 1.69641 4.63279
0.00545761 1.69745 4.63489
-0.010503 1.69954 4.63998
-0.0415486 1.69747 4.63424
-0.0645247 1.69853 4.6374
-0.0954692 1.70166 4.64459
-0.165598 1.69646 4.62819
-0.196551 1.69857 4.63439
-0.22755 1.69959 4.63461
-0.52976 1.69838 4.6079
-0.543814 1.69629 4.60104
-0.698921 1.69818 4.58718
-0.867143 1.69686 4.55846
-0.966275 1.69767 4.54119
-1.1275 1.69934 4.51238
-1.14056 1.69721 4.50351
-1.21064 1.70012 4.49399
-1.22761 1.70217 4.49709
-1.34593 1.69864 4.45603
-1.35997 1.69756 4.45015
-1.41911 1.69734 4.43259
-1.46304 1.70549 4.44081
-1.47514 1.7013 4.42796
-1.48821 1.69916 4.41809
-1.53136 1.69791 4.39943
-1.54423 1.70516 4.41542
-1.56123 1.70717 4.41552
-1.57136 1.70193 4.39867
-1.59228 1.70809 4.40874
-1.60338 1.70491 4.39587
-1.61549 1.70071 4.38202
-1.63052 1.70166 4.37812
-1.64245 1.70579 4.38615
-1.6516 1.70051 4.36729
-1.67056 1.7046 4.37237
-1.68265 1.70143 4.36051
-1.69867 1.70241 4.35862
-1.70976 1.70023 4.34573
-1.72971 1.70435 4.35282
-1.73086 1.69807 4.33392
-1.75177 1.70424 4.34499
-1.76484 1.70311 4.3351
-1.77987 1.70407 4.3322
-1.79 1.69983 4.31534
-1.81288 1.70807 4.33039
-1.82006 1.69972 4.30656
-1.84099 1.70687 4.31562
-1.84408 1.70271 4.3047
-1.85715 1.70157 4.29481
-1.8771 1.70667 4.30089
-1.8941 1.70868 4.30099
-1.90225 1.70239 4.28114
-1.91926 1.70439 4.28024
-1.92137 1.70018 4.26631
-1.93542 1.69909 4.25943
-1.96126 1.71042 4.28046
-1.97335 1.70825 4.26859
-1.98151 1.70195 4.24774
-2.00047 1.70703 4.25281
-2.01649 1.708 4.24991
-2.02353 1.70793 4.24497
-2.03463 1.70475 4.23209
-2.05555 1.7109 4.24116
-2.0647 1.70562 4.22231
-2.07678 1.70448 4.21241
-2.09477 1.70751 4.2135
-2.10586 1.70534 4.20162
-2.12272 1.7136 4.21863
-2.13187 1.70833 4.19977
-2.14591 1.70927 4.19486
-2.15898 1.70713 4.18499
-2.175 1.70911 4.18308
-2.18709 1.70694 4.1712
-2.20508 1.71097 4.17228
-2.21111 1.7099 4.16734
-2.2301 1.71293 4.16844
-2.24612 1.71591 4.16651
-2.25821 1.71274 4.15465
-2.26536 1.70745 4.13478
-2.28434 1.71149 4.13686
-2.30233 1.71552 4.13794
-2.3064 1.7124 4.13001
-2.32046 1.7123 4.12212
-2.3286 1.70802 4.10324
-2.34363 1.70897 4.09934
-2.36164 1.71197 4.09843
-2.3747 1.71085 4.08955
-2.37593 1.70142 4.06069
-2.39676 1.71174 4.0817
-2.40786 1.70956 4.06881
-2.41599 1.70532 4.05193
-2.43892 1.71246 4.061
-2.44508 1.70716 4.04012
-2.45914 1.70705 4.03223
-2.47122 1.70591 4.02234
-2.48417 1.71001 4.02838
-2.4923 1.70576 4.0115
-2.52039 1.70659 3.99869
-2.54137 1.71165 4.00178
-2.55048 1.70845 3.98789
-2.56849 1.71143 3.98598
-2.56662 1.70618 3.96905
-2.58562 1.70919 3.96914
-2.59868 1.70909 3.96124
-2.61075 1.70795 3.95135
-2.61889 1.70369 3.93347
-2.64084 1.70979 3.93955
-2.65588 1.71173 3.93463
-2.65896 1.70857 3.9237
-2.674 1.7095 3.9188
-2.68805 1.71041 3.91189
-2.70212 1.71029 3.903
-2.71617 1.71119 3.89609
-2.72528 1.70798 3.8812
-2.74833 1.71089 3.87433
-2.75744 1.70769 3.86045
-2.77248 1.70861 3.85454
-2.78555 1.70849 3.84564
-2.79368 1.70524 3.82875
-2.82771 1.71119 3.82392
-2.83376 1.71011 3.81798
-2.84584 1.70896 3.80709
-2.86286 1.71192 3.80417
-2.87196 1.70974 3.79127
-2.91513 1.71244 3.76955
-2.92721 1.71129 3.75866
-2.93225 1.7102 3.75271
4.92714 1.61781 -0.335697
4.92225 1.61603 -0.320632
4.93338 1.62026 -0.304776
4.9046 1.60973 -0.274399
4.90077 1.60907 -0.251357
4.88989 1.60532 -0.235218
4.902 1.61053 -0.220384
4.90524 1.61199 -0.189426
4.89341 1.60834 -0.166279
4.89664 1.60979 -0.135321
4.88504 1.60759 -0.0821935
4.88928 1.61004 -0.0512575
4.88351 1.60851 -0.020187
4.88191 1.61029 0.0328059
2.33494 1.68102 4.0275
2.30501 1.67918 4.03675
2.29817 1.68449 4.05773
2.28638 1.6919 4.08471
2.26125 1.68268 4.06903
2.25238 1.68694 4.08604
2.23742 1.68602 4.09117
2.22144 1.68407 4.09332
2.21257 1.68832 4.11032
2.20066 1.69051 4.12238
2.19978 1.69573 4.13731
2.17668 1.68757 4.12561
2.17087 1.69493 4.14955
2.13483 1.6879 4.14592
2.13004 1.6973 4.17282
2.1171 1.69743 4.18092
2.00349 1.69827 4.23277
1.97661 1.70052 4.24894
1.94668 1.69868 4.25819
1.89481 1.69797 4.2756
1.14271 1.7062 4.53018
1.11178 1.70736 4.53939
1.06478 1.70341 4.54081
0.996938 1.70575 4.56129
0.958992 1.70588 4.56857
0.928038 1.706 4.5748
0.899139 1.70921 4.58798
0.865061 1.70409 4.57831
0.860185 1.70933 4.59427
0.825007 1.69901 4.57168
0.814262 1.71051 4.6046
0.798223 1.70745 4.59976
0.78327 1.70955 4.60585
0.767254 1.70753 4.604
0.727238 1.70453 4.60234
0.712285 1.70663 4.60842
0.697347 1.70876 4.61651
0.682378 1.70983 4.6206
0.665308 1.70471 4.61181
0.658332 1.70576 4.61484
0.64337 1.70684 4.61994
0.627355 1.70582 4.61808
0.610285 1.7017 4.60927
0.597487 1.71109 4.63523
0.580386 1.70492 4.62245
0.566526 1.71219 4.64044
0.555277 1.69873 4.60872
0.539262 1.69771 4.60686
0.52534 1.70087 4.61692
0.511487 1.70716 4.63593
0.49548 1.70715 4.63505
0.479394 1.702 4.62425
0.464472 1.70516 4.63432
0.455394 1.70102 4.62444
0.44155 1.70833 4.64444
0.425503 1.70525 4.63861
0.409481 1.70422 4.63574
0.392349 1.69698 4.61898
0.378442 1.70117 4.63102
0.362435 1.70116 4.63014
0.355528 1.70535 4.64214
0.339451 1.70121 4.63232
0.323411 1.69815 4.62748
0.308474 1.70128 4.63555
0.292467 1.70127 4.63467
0.27749 1.70133 4.63778
0.261421 1.69821 4.62895
0.25453 1.70342 4.64292
0.238475 1.70033 4.63609
0.222406 1.69621 4.62727
0.207546 1.70348 4.64528
0.191375 1.69417 4.62353
0.175438 1.6973 4.63161
0.160438 1.69731 4.63172
0.152454 1.69835 4.63377
0.137431 1.69631 4.63091
0.106416 1.69631 4.62914
0.0904633 1.69841 4.63523
0.0754399 1.69637 4.63238
0.059495 1.69949 4.63945
0.0514795 1.69846 4.63753
0.0364567 1.69743 4.63466
0.0284819 1.70251 4.50462
0.0134666 1.70149 4.50275
-0.00150222 1.70256 4.50685
-0.00861811 1.69735 4.49198
-0.024548 1.70049 4.50105
-0.039695 1.69322 4.48227
-0.0545471 1.70051 4.50128
-0.0695931 1.69843 4.49542
-0.0846235 1.69739 4.49155
-0.0995609 1.70052 4.49962
-0.106646 1.69636 4.48873
-0.121676 1.69531 4.48486
-0.136653 1.69637 4.48796
-0.152551 1.70157 4.501
-0.18262 1.69846 4.49227
-0.197658 1.69739 4.4874
-0.204658 1.6974 4.48745
-0.219719 1.69429 4.47961
-0.235579 1.70157 4.49762
-0.264679 1.6974 4.4849
-0.295678 1.69742 4.48514
-0.302731 1.69532 4.47822
-0.317676 1.69844 4.48529
-0.347768 1.69528 4.47356
-0.362744 1.69634 4.47666
-0.377743 1.69735 4.47676
-0.400727 1.69839 4.47891
-0.444833 1.69522 4.46529
-0.491722 1.70246 4.47954
-0.497854 1.69521 4.46269
-0.512822 1.69728 4.46677
-0.527852 1.69724 4.46289
-0.556936 1.69409 4.45215
-0.572888 1.69719 4.45823
-0.588833 1.70031 4.4653
-0.609971 1.69506 4.44754
-0.624971 1.69507 4.44765
-0.641846 1.70232 4.46367
-0.654976 1.69708 4.44684
-0.670945 1.69915 4.45093
-0.693912 1.70222 4.45506
-0.706074 1.69492 4.43426
-0.721089 1.6949 4.43237
-0.738025 1.69903 4.44044
-0.752102 1.6959 4.43059
-0.784953 1.7052 4.4497
-0.818214 1.69472 4.4161
-0.834175 1.69681 4.42119
-0.864203 1.69777 4.41741
-0.887201 1.69979 4.41755
-0.900286 1.69663 4.40669
-0.917222 1.70076 4.41476
-0.929338 1.69555 4.39993
-0.946283 1.69967 4.40699
-0.960359 1.69653 4.39715
-0.975366 1.69752 4.39624
-0.983349 1.69956 4.39827
-0.996449 1.69538 4.38543
-1.01047 1.69534 4.38254
-1.02741 1.69947 4.39061
-1.04051 1.69629 4.37775
-1.0565 1.69732 4.37886
-1.07053 1.69727 4.37496
-1.07757 1.6962 4.37003
-1.09355 1.69824 4.37212
-1.10758 1.69819 4.36823
-1.1226 1.69816 4.36534
-1.13859 1.70018 4.36643
-1.1536 1.70118 4.36553
-1.16668 1.69803 4.35467
-1.1737 1.698 4.35273
