-5.4589 1.84031 11.7537
-5.50096 1.84221 11.745
-5.53515 1.84086 11.7203
-5.58606 1.84506 11.7316
-5.62222 1.84477 11.7109
-5.66233 1.84458 11.6962
-5.68926 1.84773 11.7053
-5.73034 1.8486 11.6946
-5.76848 1.84836 11.6769
-5.81055 1.85024 11.6672
-5.86246 1.85546 11.6795
-5.90848 1.85745 11.6768
-1.03896 1.82215 12.1297
-1.08166 1.82974 12.1679
-1.12068 1.82974 12.1662
-1.19696 1.82425 12.1299
-1.23783 1.82853 12.1471
-1.25408 1.82305 12.1143
-2.77003 1.84117 11.9915
-2.86816 1.84199 11.9752
-2.90333 1.83968 11.9525
-2.94627 1.84183 11.9608
-2.98435 1.84169 11.9501
-3.02341 1.8416 11.9424
-3.03761 1.83823 11.9165
-3.07957 1.84033 11.9218
-3.11666 1.84016 11.9091
-3.15671 1.84009 11.9024
-3.19187 1.8388 11.8817
-3.23385 1.84088 11.8849
-3.26804 1.83752 11.8592
-3.28806 1.8385 11.8574
-3.32322 1.8362 11.8357
-3.36617 1.83934 11.843
-3.40425 1.8392 11.8322
-3.43941 1.83692 11.8115
-3.47747 1.83781 11.8028
-3.5185 1.83878 11.7991
-3.53363 1.83654 11.7822
-3.5727 1.83644 11.7735
-3.6137 1.83845 11.7728
-3.64886 1.83717 11.7521
-3.68695 1.83702 11.7404
-3.72795 1.83805 11.7407
-3.76507 1.83784 11.725
-3.78508 1.83782 11.7231
-3.81828 1.83546 11.6974
-3.86125 1.83854 11.7007
-3.89443 1.83621 11.677
-3.93545 1.83719 11.6743
-3.96865 1.83483 11.6485
-4.00673 1.8357 11.6378
-4.02676 1.83565 11.634
-4.06093 1.83334 11.6112
-4.099 1.83423 11.6025
-4.12926 1.83075 11.5688
-4.16931 1.83167 11.5621
-4.21325 1.83481 11.5694
-4.24059 1.82918 11.5256
-4.26156 1.83124 11.5288
-4.3026 1.83219 11.5241
-4.33873 1.83097 11.5074
-4.36896 1.82853 11.4766
-4.40998 1.83052 11.4739
-4.44121 1.8271 11.4442
-4.46614 1.83025 11.4533
-4.5003 1.82795 11.4316
-4.61357 1.8295 11.3964
-4.68875 1.82919 11.373
-4.70584 1.82903 11.3611
-4.74588 1.82997 11.3554
-4.78299 1.82977 11.3407
-4.82205 1.83168 11.333
-4.85916 1.83149 11.3182
-4.89823 1.83238 11.3095
-4.93827 1.83332 11.3038
-4.97244 1.83202 11.2821
-4.99542 1.83407 11.2842
-5.03646 1.83601 11.2785
-5.07061 1.83475 11.2598
-5.11067 1.83565 11.2511
-5.15073 1.83756 11.2433
-5.1839 1.83624 11.2206
-5.22199 1.83609 11.2089
-5.24202 1.83705 11.205
-5.28601 1.8401 11.2063
-5.3251 1.84095 11.1946
-5.36614 1.84289 11.1889
-5.40425 1.84271 11.1752
-5.44528 1.84566 11.1704
-5.48142 1.84441 11.1517
-5.50538 1.84751 11.1579
-5.54546 1.84838 11.1471
-5.58651 1.85031 11.1404
-5.62264 1.85007 11.1227
-1.34649 1.8195 11.263
-1.38255 1.8194 11.2542
-1.39869 1.81614 11.2364
-1.43471 1.81614 11.2347
-1.47076 1.81606 11.2279
-1.50492 1.81377 11.2072
-1.53904 1.81155 11.1905
-1.57796 1.81374 11.2018
-1.61209 1.81151 11.1851
-1.63011 1.81148 11.1822
-1.66615 1.81143 11.1775
-1.70127 1.81022 11.1617
-1.73826 1.81126 11.163
-1.77045 1.8079 11.1373
-1.80844 1.80896 11.1396
-1.84544 1.80999 11.1398
-1.85768 1.80452 11.108
-1.89659 1.80771 11.1193
-1.93071 1.8055 11.1035
-1.96771 1.80653 11.1038
-2.00375 1.80748 11.0991
-2.04075 1.80849 11.0983
-2.07586 1.80631 11.0846
-2.09289 1.80626 11.0807
-2.12895 1.80617 11.073
-2.16498 1.80714 11.0693
-2.1991 1.80493 11.0536
-2.23417 1.80482 11.0448
-2.27021 1.80476 11.0391
-5.27901 1.81538 10.1455
-5.38132 1.81683 10.1042
-5.4184 1.81771 10.0945
-5.45744 1.81965 10.0888
-5.49648 1.82161 10.084
-5.50958 1.82041 10.0701
-5.54467 1.82126 10.0584
-5.58274 1.82315 10.0496
-5.61882 1.82401 10.0389
-5.65391 1.82485 10.0262
-5.69296 1.82679 10.0204
-5.72313 1.82547 9.99766
-5.7461 1.82854 10.0018
-5.78515 1.83045 9.99406
-5.82025 1.83128 9.98131
-5.85239 1.83103 9.96255
-5.88453 1.83078 9.94479
-0.437187 1.78372 10.5055
-0.694048 1.78916 10.5244
-0.728055 1.78917 10.5236
-1.14557 1.80739 10.5885
-1.17962 1.8073 10.5808
-1.19572 1.80513 10.5689
-1.23165 1.80728 10.5772
-1.26382 1.80397 10.5555
-1.29879 1.80506 10.5597
-1.33376 1.80713 10.5629
-1.36592 1.80386 10.5432
-1.40092 1.80487 10.5425
-1.41603 1.80267 10.5286
-1.45003 1.80268 10.5279
-1.48315 1.80047 10.5122
-1.51908 1.80363 10.5214
-1.55218 1.80146 10.5087
-1.58525 1.80135 10.4999
-1.61736 1.79915 10.4852
-1.63537 1.79915 10.4843
-1.66938 1.80014 10.4826
-1.70339 1.80115 10.4818
-1.73648 1.8 10.4701
-1.77055 1.79889 10.4613
-1.80361 1.7988 10.4536
-1.83668 1.79767 10.4439
-1.85466 1.79873 10.447
-1.8887 1.79867 10.4412
-1.92079 1.79751 10.4295
-1.95581 1.79849 10.4267
-1.98887 1.7974 10.419
-2.02195 1.79726 10.4083
-2.05598 1.79723 10.4045
-2.07203 1.79715 10.3986
-2.10705 1.79713 10.3959
-2.14012 1.79702 10.3871
-2.17124 1.79481 10.3714
-2.2043 1.7947 10.3627
-2.23737 1.79459 10.3539
-4.85627 1.80472 9.57838
-4.88739 1.80451 9.56262
-4.9254 1.80752 9.56186
-4.95159 1.80517 9.53709
-4.98861 1.80715 9.53434
-5.02366 1.80906 9.52657
-5.04563 1.81115 9.53171
-5.07576 1.8109 9.51393
-5.11082 1.81281 9.50617
-5.1449 1.81367 9.49541
-5.18094 1.81561 9.48965
-5.216 1.81652 9.4819
-5.25204 1.81845 9.47614
-5.26514 1.81727 9.46326
-5.29922 1.81815 9.4535
-5.33429 1.82002 9.44374
-5.36738 1.82087 9.43197
-5.39948 1.82069 9.41821
-5.43555 1.82258 9.40946
-5.48567 1.82436 9.39281
-0.233178 1.77574 9.97504
-0.265124 1.77687 9.98226
-0.281123 1.77688 9.98238
-0.314954 1.78123 10.0046
-0.346068 1.77903 9.98984
-0.379013 1.78016 9.99707
-0.411874 1.78445 10.0153
-0.44569 1.78883 10.0395
-0.479459 1.7953 10.0696
-0.872529 1.79842 10.0615
-0.904551 1.7984 10.0588
-0.920596 1.79732 10.0529
-0.953618 1.7973 10.0502
-0.984685 1.79619 10.0414
-1.01583 1.79393 10.0227
-1.04884 1.79393 10.0209
-1.08091 1.79282 10.0122
-1.112 1.79166 10.0004
-1.12894 1.79279 10.0085
-1.16102 1.79165 9.99779
-1.19307 1.79159 9.99203
-1.22419 1.78837 9.97631
-1.25811 1.79154 9.98652
-1.28826 1.78827 9.9668
-1.32127 1.78928 9.96603
-1.33728 1.78926 9.96415
-1.36836 1.78814 9.9544
-1.40042 1.78703 9.94566
-1.43153 1.78484 9.93192
-1.46263 1.78367 9.91917
-1.49654 1.78686 9.93038
-1.52762 1.78572 9.91963
-1.5427 1.78358 9.90978
-1.57474 1.78353 9.90502
-1.60677 1.7845 9.90124
-1.63883 1.78339 9.8925
-1.67179 1.78548 9.89772
-4.66721 1.79585 9.05502
-4.69435 1.79461 9.03724
-4.72544 1.79545 9.02546
-4.76146 1.79743 9.0227
-4.77552 1.79731 9.0138
-4.80365 1.79708 8.99702
-4.84065 1.80011 8.99725
-4.87568 1.80206 8.99249
-4.91169 1.80507 8.99171
-4.93786 1.80275 8.96894
-4.96994 1.80361 8.95817
-4.98893 1.80564 8.95928
-5.02002 1.80648 8.9475
-5.04816 1.80523 8.92973
-5.08122 1.80714 8.92195
-5.11527 1.80906 8.91518
-5.14439 1.80883 8.8984
-5.17845 1.81074 8.89062
-5.19646 1.81173 8.88974
-5.22855 1.81258 8.87797
-5.25667 1.81236 8.86219
-5.28382 1.81109 8.84241
-5.31788 1.81298 8.83363
-5.38303 1.81573 8.81408
0.0706627 1.76733 9.55481
0.0556782 1.76737 9.55693
0.0247939 1.77062 9.57211
-0.00638096 1.7663 9.54941
-0.0372501 1.76957 9.56659
-0.0991034 1.7729 9.58601
-0.131003 1.77611 9.59921
-0.177307 1.76856 9.55966
-0.208184 1.77181 9.57585
-0.239244 1.77072 9.5681
-0.271044 1.77613 9.59426
-0.301913 1.7794 9.61145
-0.33553 1.78916 9.66156
-0.946683 1.79327 9.64311
-0.962675 1.79429 9.64421
-0.992742 1.79318 9.63545
-1.02379 1.79212 9.6297
-1.05392 1.78989 9.61296
-1.0859 1.79094 9.61518
-1.11504 1.78768 9.59645
-1.14704 1.7887 9.59668
-1.16204 1.78871 9.59679
-1.19313 1.78756 9.58504
-1.22696 1.79191 9.60723
-1.25421 1.78646 9.57551
-1.2843 1.7853 9.56376
-1.32007 1.79175 9.59293
-1.34637 1.7842 9.55424
-1.36236 1.78522 9.55534
-1.39623 1.7895 9.57254
-1.4263 1.78837 9.56278
-1.45737 1.78726 9.55403
-1.48458 1.78287 9.5263
-1.51368 1.7807 9.51355
-1.54474 1.78062 9.50678
-1.56072 1.78166 9.50889
-1.59176 1.78159 9.50312
-1.62375 1.78263 9.50434
-1.65093 1.77931 9.4816
-1.68294 1.7793 9.47984
-1.71206 1.7781 9.46507
-1.74308 1.77808 9.46231
-1.75907 1.77911 9.46341
-1.88223 1.77887 9.44234
-4.41986 1.78949 8.7032
-4.46399 1.78926 8.68553
-4.52316 1.78996 8.66296
-4.58825 1.79383 8.65139
-4.61045 1.79145 8.62459
-4.6494 1.79556 8.63083
-4.65359 1.7912 8.60592
-4.69846 1.79848 8.62315
-4.71475 1.79293 8.58535
-4.75961 1.80023 8.60358
-4.78772 1.80003 8.5888
-4.80597 1.79555 8.556
-4.84986 1.80279 8.57022
-4.86787 1.80379 8.56934
-4.88019 1.79716 8.52653
-4.92901 1.80554 8.54978
-4.94826 1.80208 8.51797
-4.9882 1.80721 8.52519
-5.00645 1.80273 8.49239
-5.06342 1.80882 8.49573
-5.11669 1.80732 8.46015
0.472438 1.76262 9.52385
0.132584 1.76514 9.54438
0.0586782 1.77146 9.15779
0.0293194 1.76179 9.11115
-0.0307247 1.76074 9.10561
-0.0597314 1.76075 9.10483
-0.0894475 1.76832 9.14195
-0.105179 1.77584 9.17696
-0.673083 1.78341 9.19113
-0.807162 1.78334 9.18114
-0.836245 1.7812 9.17039
-0.865344 1.77903 9.15764
-0.880351 1.77902 9.15675
-0.910342 1.78006 9.15796
-0.940379 1.78001 9.15319
-0.969446 1.7789 9.14442
-0.998476 1.77886 9.14064
-1.02757 1.77669 9.12789
-1.05756 1.77772 9.1291
-1.07258 1.7777 9.12721
-1.10164 1.77661 9.11945
-1.12974 1.77444 9.10669
-1.15972 1.77549 9.1089
-1.18974 1.77548 9.10713
-1.21883 1.77432 9.09536
-1.24787 1.77426 9.08958
-1.26001 1.77 9.07173
-1.29096 1.77211 9.07793
-1.31811 1.76883 9.05818
-1.34909 1.7709 9.06139
-1.38099 1.77411 9.07458
-1.40717 1.76978 9.05084
-1.43814 1.77185 9.05404
-1.45221 1.77074 9.04616
-1.51126 1.77066 9.03861
-4.12673 1.78065 8.32107
-4.15383 1.78048 8.30827
-4.1829 1.78135 8.29848
-4.21196 1.78225 8.29068
-4.24103 1.78313 8.28089
-4.26099 1.78522 8.28601
-4.28808 1.78606 8.2742
-4.31814 1.78696 8.26641
-4.34525 1.78677 8.25261
-4.37137 1.78556 8.23683
-4.39944 1.78643 8.22702
-4.43442 1.79048 8.22923
-4.44552 1.7883 8.21634
-4.47065 1.78806 8.19953
-4.5076 1.79218 8.20575
-4.52977 1.78986 8.18295
-4.56182 1.79179 8.17716
-4.59975 1.79694 8.18537
-4.61503 1.7914 8.14856
-4.63401 1.79346 8.15168
-4.66407 1.79536 8.14387
-4.69018 1.79516 8.12907
-4.71729 1.79495 8.11428
-4.75031 1.79793 8.11148
-4.7705 1.79458 8.08668
-4.79343 1.79873 8.09579
-4.82152 1.79957 8.08399
-4.84765 1.79934 8.06719
-4.87771 1.80023 8.0584
0.412079 1.75606 9.07834
0.383149 1.75822 9.08753
0.354249 1.76043 9.10072
0.324212 1.75938 9.09596
0.29535 1.76267 9.11413
0.280427 1.76482 9.12421
0.251435 1.76486 9.12543
0.221452 1.76591 9.12764
0.192521 1.76707 9.13684
0.162507 1.76706 9.13507
0.132492 1.76605 9.13331
0.103677 1.77143 9.15745
0.0887997 1.77467 9.17351
0.0614259 1.75811 8.59389
0.0335415 1.76135 8.60905
0.00569548 1.76566 8.6292
-0.00829659 1.76569 8.6303
-0.0363259 1.76565 8.62652
-0.0642793 1.76676 8.63271
-0.0924009 1.76354 8.61697
-0.120423 1.76252 8.61419
-0.148323 1.76573 8.62736
-0.176368 1.76466 8.62158
-0.190505 1.76041 8.60375
-0.218451 1.76253 8.61093
-0.246488 1.76148 8.60616
-0.274541 1.76039 8.59938
-0.301609 1.75828 8.59062
-0.3296 1.75932 8.59181
-0.357584 1.75937 8.59402
-0.37163 1.75829 8.58815
-0.399659 1.75825 8.58436
-0.427651 1.75828 8.58557
-0.45568 1.75825 8.58178
-0.482763 1.7561 8.57101
-0.510747 1.75715 8.57321
-4.30398 1.77146 7.62544
-4.33204 1.77235 7.61664
-4.35319 1.77107 7.59682
-4.38914 1.77518 7.60303
-4.40635 1.77179 7.5762
-4.45042 1.77468 7.56649
-4.47454 1.77446 7.55067
-4.49568 1.77219 7.53186
-4.53362 1.77834 7.54006
-4.54885 1.7739 7.51024
-4.58087 1.77688 7.50743
-4.59588 1.77786 7.50553
-4.62394 1.77977 7.49771
-4.64609 1.77849 7.4779
-4.67612 1.78045 7.47409
-4.70221 1.78129 7.46228
-4.72732 1.78109 7.44746
-4.75143 1.78088 7.43265
-4.76744 1.78188 7.43175
-4.79451 1.78375 7.42193
-4.82259 1.78462 7.41213
-4.85361 1.78758 7.40832
-4.87773 1.78737 7.3925
-4.90778 1.78928 7.38569
-4.92181 1.78923 7.3818
-4.94396 1.78897 7.36297
-4.9651 1.7877 7.34414
-4.99516 1.78961 7.33634
-5.04734 1.79027 7.31172
0.326097 1.74929 8.55002
0.11721 1.75165 8.56556
0.0893027 1.75485 8.57772
-0.416991 1.77065 8.27326
-0.512049 1.77061 8.26598
-0.539063 1.7706 8.26418
-0.565077 1.77058 8.26238
-0.592138 1.76849 8.25461
-0.674081 1.77165 8.26218
-0.686172 1.76948 8.2503
-0.714117 1.7716 8.25748
-0.74017 1.77052 8.25069
-0.767184 1.77051 8.2489
-0.794206 1.77049 8.2461
-0.821221 1.77048 8.2443
-0.847288 1.76936 8.23552
-0.861272 1.7704 8.23761
-0.887333 1.7683 8.22983
-0.91437 1.76825 8.22504
-0.939453 1.7661 8.21426
-0.967421 1.76818 8.21844
-0.993504 1.76604 8.20766
-1.02051 1.76704 8.20685
-1.03261 1.76386 8.19399
-1.06056 1.76597 8.20017
-1.08659 1.76593 8.19637
-1.11171 1.76372 8.18158
-1.13969 1.76477 8.18378
-1.16667 1.76582 8.18597
-1.19276 1.76467 8.17418
-1.20675 1.7657 8.17627
-1.23376 1.76569 8.17447
-1.25982 1.7646 8.16669
-1.28587 1.76453 8.16088
-1.31193 1.76343 8.15309
-1.33893 1.76443 8.15228
-1.36402 1.76227 8.1405
-1.37899 1.76334 8.1446
-1.40501 1.76432 8.14178
-1.43203 1.76429 8.13898
-1.4581 1.76319 8.13119
-1.48512 1.76417 8.12838
-1.51309 1.76523 8.13158
-1.53531 1.75983 8.10382
-1.54927 1.76192 8.1089
-1.57436 1.75974 8.09612
-1.60234 1.76181 8.0993
-1.63032 1.76386 8.10148
-1.65831 1.76491 8.10367
-1.68146 1.76163 8.08389
-1.70847 1.76262 8.08208
-1.72248 1.76261 8.08119
-1.74661 1.76038 8.0644
-1.77361 1.7614 8.06459
-1.8016 1.76242 8.06479
-1.8286 1.76444 8.06496
-1.85565 1.76437 8.05916
-1.87878 1.76112 8.04138
-1.88986 1.75898 8.0315
-1.91981 1.76211 8.03868
-1.94487 1.76199 8.02987
-1.97287 1.76301 8.03006
-1.99795 1.76188 8.02027
-2.024 1.7618 8.01346
-2.04907 1.76067 8.00367
-2.06113 1.76057 7.99676
-2.09011 1.76262 7.99895
-2.11518 1.76149 7.98915
-2.16632 1.76026 7.97155
-2.21842 1.7601 7.95794
-3.38007 1.76665 7.60955
-3.42729 1.76426 7.58094
-3.4553 1.76625 7.57912
-3.53546 1.769 7.55868
-3.53865 1.76463 7.53377
-3.57062 1.7677 7.53696
-3.59176 1.76545 7.51915
-3.61978 1.76742 7.51633
-3.63896 1.76408 7.49252
-3.67191 1.76919 7.4987
-3.68913 1.76479 7.47089
-3.71813 1.7668 7.47008
-3.73314 1.76879 7.46916
-3.75525 1.76759 7.45434
-3.7823 1.7685 7.44753
-3.80739 1.76834 7.43572
-3.82951 1.76712 7.4199
-3.8536 1.76696 7.40809
-3.88361 1.76995 7.40627
-3.89467 1.76884 7.39837
-3.91778 1.76865 7.38454
-3.9537 1.77383 7.39474
-3.97286 1.77153 7.37391
-4.0009 1.77346 7.36809
-4.025 1.77329 7.35528
-4.05205 1.7742 7.34847
-4.06805 1.77621 7.34856
-4.09215 1.77604 7.33574
-4.11919 1.77797 7.32991
-4.14625 1.77887 7.3221
-4.16541 1.77656 7.30028
-4.18754 1.77532 7.28346
-4.20649 1.77844 7.29056
-4.22862 1.77721 7.27374
-4.2616 1.78126 7.27593
-4.27978 1.77892 7.2521
-4.30978 1.78192 7.25128
-4.33587 1.78178 7.24048
-4.35995 1.78262 7.22864
-4.37299 1.78255 7.22374
-4.39512 1.78132 7.20693
-4.42415 1.78428 7.2031
-4.47136 1.78389 7.17446
0.915771 1.74036 8.10664
0.889802 1.74044 8.11084
0.877902 1.74364 8.12388
0.849819 1.7405 8.11314
0.823834 1.74055 8.11534
0.796858 1.74061 8.11854
0.770873 1.74066 8.12073
0.746058 1.74503 8.14486
0.720104 1.74614 8.15104
0.706097 1.74614 8.15015
0.680128 1.74621 8.15434
0.654198 1.74837 8.16351
0.627244 1.74947 8.16969
0.60126 1.74952 8.17189
0.574245 1.74851 8.17011
0.548284 1.74961 8.17529
0.534338 1.75072 8.18238
0.508408 1.75287 8.19154
0.482462 1.75399 8.19872
0.456685 1.76044 8.22782
0.429601 1.7573 8.21707
0.401463 1.75305 8.19935
0.375487 1.75412 8.20253
0.361357 1.74988 8.18569
0.334411 1.751 8.19288
0.30719 1.74459 8.16418
0.282719 1.75963 8.23315
-0.132412 1.76271 7.95119
-0.184395 1.76378 7.95357
-0.248484 1.76165 7.94208
-0.274507 1.76062 7.93929
-0.300437 1.76277 7.94845
-0.32649 1.76169 7.94167
-0.351573 1.75954 7.93089
-0.377549 1.76061 7.93407
-0.391511 1.76169 7.93916
-0.417479 1.76277 7.94334
-0.442593 1.75957 7.92857
-0.468592 1.76058 7.92875
-0.494614 1.75956 7.92596
-0.520613 1.76058 7.92614
-0.546596 1.76163 7.92832
-0.55865 1.75953 7.92144
-0.583741 1.75737 7.90966
-0.609755 1.75736 7.90786
-0.635754 1.75838 7.90804
-0.660815 1.75628 7.90026
-0.687798 1.75733 7.90245
-0.71282 1.7573 7.89964
-0.726797 1.75836 7.90273
-0.751864 1.75724 7.89393
-0.776894 1.7562 7.89013
-0.801962 1.75509 7.88134
-0.82893 1.75617 7.88553
-0.853967 1.75611 7.88071
-0.879036 1.754 7.87193
-0.893004 1.75606 7.87601
-0.916202 1.7507 7.85026
-0.945017 1.75707 7.87438
-0.970055 1.75602 7.86959
-0.995107 1.75493 7.86279
-1.02114 1.75489 7.85899
-1.04714 1.7559 7.85817
-1.0592 1.75379 7.85029
-1.08426 1.7537 7.84348
-1.11024 1.75475 7.84566
-1.13435 1.75154 7.83089
-1.16129 1.75468 7.83904
-1.18732 1.75464 7.83524
-1.21332 1.75566 7.83542
-1.22441 1.75349 7.82354
-1.25044 1.75345 7.81973
-1.2774 1.75554 7.8249
-1.32846 1.75546 7.81729
-1.35256 1.75327 7.8035
-1.37762 1.75219 7.79671
-1.38968 1.75108 7.78881
-1.41664 1.75317 7.79398
-1.46769 1.75311 7.78737
-3.76705 1.7601 7.08349
-3.78107 1.76107 7.08058
-3.80514 1.76094 7.07076
-3.83118 1.76288 7.06593
-3.85328 1.76169 7.05211
-3.87835 1.76258 7.04329
-3.89947 1.76135 7.02746
-3.92651 1.76328 7.02164
-3.93953 1.76426 7.01972
-3.95966 1.76301 7.00189
-3.99263 1.7671 7.00608
-4.01473 1.7669 6.99224
-4.03683 1.76673 6.97941
-4.06585 1.7687 6.9766
-4.08204 1.76535 6.95177
-4.09901 1.76842 6.95585
-4.12803 1.77039 6.95304
-4.14519 1.7681 6.9322
-4.17322 1.77004 6.92738
-4.20324 1.77303 6.92556
-4.21941 1.7707 6.90272
-4.24844 1.77267 6.89891
-4.25652 1.77151 6.88798
-4.28357 1.77344 6.88216
-4.3037 1.77219 6.86433
-4.33469 1.77623 6.8655
-4.35483 1.77496 6.84667
-4.38483 1.77798 6.84685
-4.40991 1.77884 6.83602
-4.42097 1.77874 6.82911
-4.44011 1.77747 6.81027
-4.46914 1.77943 6.80646
-4.49125 1.77923 6.79162
-4.51533 1.78008 6.78079
0.843706 1.74334 7.83211
0.818706 1.74236 7.83231
0.793776 1.74451 7.84147
0.780768 1.74351 7.84058
0.75483 1.74564 7.84874
0.728754 1.74251 7.83898
0.70277 1.74256 7.84118
0.676716 1.74048 7.83441
0.652878 1.74481 7.85553
0.626894 1.74486 7.85772
0.613917 1.74591 7.8608
0.589017 1.74812 7.87396
0.563002 1.74711 7.87217
0.537988 1.7471 7.87036
0.511996 1.74713 7.87155
0.486034 1.74722 7.87675
0.461066 1.7483 7.88092
0.448097 1.74937 7.885
0.422059 1.74731 7.88023
0.39719 1.75158 7.89736
0.371229 1.75268 7.90254
0.347445 1.75911 7.93063
-0.118785 1.75803 7.63611
-0.143831 1.75596 7.63033
-0.167884 1.75488 7.62353
-0.193783 1.75809 7.63668
-0.230759 1.75916 7.63994
-0.255735 1.76022 7.64311
-0.280757 1.7602 7.6403
-0.305779 1.75917 7.63751
-0.330794 1.75916 7.63569
-0.355846 1.75807 7.6289
-0.367923 1.75594 7.61902
-0.392907 1.75598 7.62121
-0.416975 1.75487 7.6124
-0.441981 1.75487 7.61159
-0.466965 1.75592 7.61376
-0.491995 1.75488 7.60997
-0.516033 1.75382 7.60516
-0.528993 1.7559 7.61023
-0.554039 1.75483 7.60443
-0.578084 1.75376 7.59863
-0.602205 1.75054 7.58286
-0.628128 1.75271 7.59302
-0.652157 1.75267 7.5892
-0.677179 1.75264 7.58639
-0.690156 1.7537 7.58948
-0.715186 1.75266 7.58568
-0.740146 1.75475 7.59084
-0.765161 1.75474 7.58903
-0.789244 1.75259 7.57824
-0.814235 1.75362 7.57941
-0.839249 1.75361 7.5776
-0.849364 1.7504 7.56272
-0.876286 1.75357 7.57288
-0.901292 1.75457 7.57205
-0.923445 1.75029 7.55228
-0.950352 1.75349 7.56444
-0.973465 1.75128 7.54964
-0.999396 1.75343 7.5588
-1.00954 1.74916 7.53994
-1.03742 1.75442 7.55608
-1.06053 1.75121 7.5413
-1.08361 1.75008 7.53149
-1.11147 1.75537 7.54962
-1.13457 1.75218 7.53584
-1.15958 1.75318 7.53501
-1.17069 1.74998 7.52114
-1.19472 1.74994 7.51732
-1.21976 1.74987 7.51151
-1.24474 1.75092 7.51368
-1.26879 1.75084 7.50787
-1.29477 1.75189 7.51005
-1.32075 1.75396 7.51321
-1.32892 1.74862 7.49035
-1.35393 1.74962 7.48952
-1.38184 1.75281 7.50069
-1.40301 1.7485 7.47891
-1.428 1.75053 7.48007
-1.45301 1.75053 7.47925
-1.4761 1.74937 7.46744
-1.48909 1.7504 7.46853
-1.5141 1.7504 7.46771
-1.53815 1.75031 7.4609
-1.56414 1.75135 7.46208
-1.59012 1.75341 7.46524
-1.61032 1.74803 7.43847
-1.63726 1.75116 7.44663
-1.64929 1.75111 7.44272
-1.6714 1.74891 7.42792
-1.72047 1.74881 7.41929
-1.85758 1.75269 7.40526
-3.66938 1.75444 6.7728
-3.6974 1.75643 6.77098
-3.72146 1.75733 6.76314
-3.7396 1.75506 6.74431
-3.76564 1.75701 6.73948
-3.77767 1.75796 6.73555
-3.80173 1.75884 6.72672
-3.82579 1.75874 6.7189
-3.85183 1.76067 6.71307
-3.86899 1.75837 6.69223
-3.89503 1.76032 6.6874
-3.91711 1.76017 6.67656
-3.93902 1.76536 6.68865
-3.95321 1.76199 6.66281
-3.98024 1.76395 6.65898
-4.00727 1.76591 6.65516
-4.03133 1.76681 6.64732
-4.04849 1.76451 6.62648
-4.07453 1.76644 6.62065
-4.08756 1.76739 6.61673
-4.09582 1.76089 6.58289
-4.1347 1.76914 6.59806
-4.15482 1.76793 6.58323
-4.18284 1.77091 6.58039
-4.20296 1.76967 6.56356
-4.23196 1.77369 6.56372
-4.23709 1.77045 6.54681
-4.26312 1.77239 6.54197
-4.33041 1.77288 6.50447
-4.35448 1.77476 6.49562
0.842125 1.73128 7.49025
0.822532 1.74408 7.54322
0.797517 1.74307 7.54142
0.775763 1.75055 7.57348
0.714834 1.75173 7.58292
0.687703 1.7465 7.5662
0.662704 1.74652 7.56639
0.638789 1.7487 7.57754
0.615912 1.75195 7.59366
0.602874 1.75089 7.58878
0.478961 1.75214 7.60069
0.450493 1.73626 7.54013
0.438609 1.74049 7.55516
0.415824 1.74692 7.58324
0.392055 1.75438 7.61332
-0.35785 1.75514 7.36292
-0.417847 1.75618 7.36336
-0.442831 1.75723 7.36553
-0.514897 1.75615 7.35709
-0.53795 1.75506 7.35028
-0.562903 1.75717 7.35643
-0.574033 1.75292 7.33958
-0.622 1.75502 7.34391
-0.646946 1.75714 7.35107
-0.670991 1.75607 7.34526
-0.69499 1.75709 7.34543
-0.717143 1.75181 7.32567
-0.731004 1.75708 7.3437
-0.754141 1.75283 7.32593
-0.778132 1.75387 7.3271
-0.802131 1.75488 7.32726
-0.827107 1.75594 7.33044
-0.851082 1.75801 7.33359
-0.874166 1.75586 7.32279
-0.887142 1.75691 7.32588
-0.910241 1.75374 7.31309
-0.936117 1.75899 7.32921
-0.956393 1.75048 7.29349
-0.980384 1.75151 7.29465
-1.00532 1.75465 7.3028
-1.02939 1.75253 7.29401
-1.04045 1.75142 7.28611
-1.06634 1.75565 7.30024
-1.08654 1.75028 7.27447
-1.11345 1.75346 7.28563
-1.13649 1.7534 7.2808
-1.16054 1.75233 7.275
-1.18263 1.75015 7.26219
-1.19463 1.75118 7.26327
-1.21961 1.75222 7.26544
-1.24172 1.75002 7.25064
-1.26861 1.75426 7.26578
-1.28976 1.74998 7.246
-1.3128 1.74991 7.24017
-1.33588 1.74878 7.23036
-1.34883 1.75089 7.23743
-1.37574 1.75507 7.24857
-1.4007 1.75716 7.25373
-1.42187 1.75285 7.23195
-1.44394 1.75072 7.22215
-1.47087 1.75487 7.23129
-1.49102 1.75059 7.2115
-1.50113 1.74739 7.19762
-1.52898 1.75371 7.21774
-1.54819 1.74831 7.18996
-1.57511 1.75148 7.20012
-1.59913 1.75245 7.19729
-1.61929 1.74815 7.1765
-1.64236 1.74704 7.16769
-1.65726 1.75124 7.18074
-1.67645 1.74588 7.15596
-1.70143 1.74793 7.15812
-1.72546 1.7489 7.15529
-1.74753 1.74777 7.14547
-1.77058 1.74669 7.13866
-1.78552 1.74981 7.14672
-1.83259 1.7497 7.13708
-1.85371 1.74749 7.12227
-1.87868 1.74956 7.12543
-1.92482 1.74832 7.10779
-1.95793 1.74713 7.09305
-1.98391 1.74919 7.09622
-2.00404 1.74595 7.07942
-2.05209 1.74787 7.07175
-2.09721 1.74668 7.05711
-2.10824 1.74661 7.05219
-2.17837 1.74741 7.0357
-2.24949 1.74823 7.02023
-3.31344 1.74912 6.63117
-3.40666 1.75176 6.60283
-3.41869 1.75271 6.59891
-3.43977 1.75256 6.58807
-3.46382 1.75348 6.58124
-3.48983 1.75548 6.5804
-3.51092 1.7553 6.56756
-3.53202 1.75513 6.55472
-3.5531 1.75498 6.54388
-3.56808 1.75703 6.54696
-3.59016 1.75689 6.53613
-3.61027 1.75569 6.5223
-3.63727 1.7587 6.52146
-3.6564 1.75746 6.50462
-3.68439 1.7605 6.50578
-3.70548 1.76033 6.49394
-3.71159 1.75812 6.47902
-3.73564 1.75905 6.47319
-3.76363 1.76206 6.47335
-3.78276 1.76084 6.45751
-3.80779 1.76279 6.45267
-3.83382 1.76575 6.44882
-3.85589 1.76561 6.43899
-3.86595 1.7655 6.43107
-3.89197 1.76749 6.42923
-3.9032 1.76204 6.39839
-3.93121 1.76605 6.39754
-3.98029 1.7689 6.38587
-4.00238 1.76976 6.37502
-4.05758 1.77038 6.34743
0.98689 1.72479 7.19321
0.93009 1.73022 7.21957
0.905044 1.72715 7.2138
0.883168 1.7314 7.2299
0.862336 1.73574 7.252
0.838352 1.73579 7.25418
0.82636 1.73581 7.25527
0.805622 1.74433 7.2893
0.780545 1.7412 7.27954
0.754361 1.73486 7.25583
0.730377 1.73491 7.25801
0.708554 1.74027 7.28109
0.553664 1.74059 7.29626
0.529572 1.73743 7.28448
0.519903 1.74807 7.32741
0.0294735 1.73963 7.00718
0.0064892 1.73967 7.00935
-0.016556 1.7386 7.00354
-0.0394863 1.74075 7.01269
-0.0625164 1.73971 7.00887
-0.085446 1.74286 7.018
-0.0965229 1.73972 7.00813
-0.119492 1.7408 7.01229
-0.142437 1.74292 7.01943
-0.165544 1.73973 7.00565
-0.18852 1.74079 7.00881
-0.211557 1.73973 7.004
-0.234595 1.73867 6.99918
-0.246518 1.74083 7.00924
-0.268617 1.73765 6.99646
-0.292478 1.74294 7.01456
-0.316331 1.74823 7.03366
-0.337607 1.73872 6.99796
-0.361498 1.74294 7.01208
-0.38539 1.74717 7.0262
-0.396443 1.74507 7.01931
-0.419404 1.74716 7.02445
-0.441595 1.74081 6.99971
-0.465502 1.744 7.01185
-0.488517 1.74399 7.01002
-0.512392 1.74924 7.02612
-0.535392 1.74926 7.0263
-0.546461 1.74714 7.01741
-0.571336 1.75239 7.03352
-0.594366 1.75135 7.02971
-0.616412 1.75028 7.02389
-0.636649 1.74283 6.99315
-0.662471 1.74919 7.01625
-0.684531 1.74809 7.00844
-0.694646 1.74387 6.99357
-0.716768 1.74065 6.97778
-0.740698 1.7438 6.98692
-0.763667 1.74488 6.99108
-0.785765 1.7427 6.97827
-0.806887 1.73948 6.96248
-0.831801 1.74266 6.97362
-0.840932 1.73842 6.95675
-0.863984 1.73733 6.94994
-0.887898 1.74151 6.96106
-0.909052 1.73623 6.94129
-0.933004 1.73934 6.94743
-0.954111 1.73615 6.93363
-0.97714 1.7361 6.92981
-0.988116 1.73716 6.93287
-1.01115 1.73711 6.92905
-1.28443 1.73773 6.89209
-1.33045 1.73972 6.88941
-3.64035 1.74466 6.11363
-3.76564 1.75116 6.07447
-3.79792 1.74763 6.03776
-3.81587 1.75075 6.04485
-3.833 1.74951 6.028
-3.85803 1.75147 6.02416
-3.87613 1.75128 6.0103
-3.88931 1.74693 5.98646
-3.91434 1.74989 5.9826
-3.94529 1.755 5.98876
-3.94644 1.75071 5.96883
-3.9695 1.75262 5.96197
-4.01429 1.76404 5.98814
-4.0077 1.75125 5.93528
-4.03965 1.75736 5.94143
-4.06073 1.75821 5.93057
-4.07687 1.75596 5.91273
-4.10486 1.75998 5.91288
-4.11096 1.75779 5.89995
-4.13302 1.75969 5.89209
-4.15707 1.7616 5.88524
-4.19132 1.75914 5.85253
-4.22229 1.7632 5.85571
-4.26066 1.75852 5.80806
1.03841 1.71988 6.86385
1.01643 1.71994 6.86702
0.97151 1.72112 6.87734
0.95061 1.72333 6.89047
0.927625 1.72338 6.89264
0.915595 1.72233 6.88875
0.896825 1.72878 6.9188
0.872756 1.72567 6.91002
0.851949 1.73205 6.93509
0.811288 1.74273 6.97924
0.432594 1.74559 7.02106
0.340557 1.74358 7.01678
0.329665 1.74679 7.03082
0.30552 1.74253 7.01206
0.28362 1.74474 7.02519
0.260636 1.74579 7.02735
0.237645 1.74582 7.02852
0.21353 1.74161 7.01377
0.190638 1.74484 7.02789
0.179477 1.73953 7.00705
0.156477 1.73955 7.00723
0.133478 1.73957 7.0074
0.110556 1.74273 7.01753
0.0875176 1.74067 7.01273
0.0645873 1.74282 7.02187
0.0524879 1.73964 7.00901
0.0401722 1.7301 6.7022
0.0181421 1.72906 6.69838
-0.00371104 1.73436 6.71747
-0.014872 1.72906 6.69663
-0.0368714 1.72907 6.69679
-0.0587095 1.7344 6.71788
-0.0807703 1.7323 6.71008
-0.102923 1.72702 6.69032
-0.125761 1.73334 6.7114
-0.146899 1.72809 6.69364
-0.158783 1.73232 6.70867
-0.180805 1.7323 6.70583
-0.201928 1.72807 6.69005
-0.245911 1.72914 6.69237
-0.289909 1.72917 6.6927
-0.345869 1.73128 6.69809
-0.410974 1.72912 6.68461
-0.444003 1.72809 6.68087
-0.465987 1.72913 6.68302
-0.488009 1.7291 6.68019
-3.44507 1.74016 5.8852
-3.4561 1.74111 5.88126
-3.49625 1.74082 5.86057
-3.51632 1.74171 5.8517
-3.53343 1.7405 5.83685
-3.55646 1.74245 5.83299
-3.59563 1.74214 5.81029
-3.60665 1.74312 5.80836
-3.62771 1.744 5.7995
-3.64384 1.74178 5.78365
-3.67181 1.74684 5.78679
-3.68695 1.74459 5.76894
-3.70998 1.74653 5.76408
-3.73302 1.74846 5.75822
-3.73517 1.74418 5.7393
-3.75821 1.74612 5.73445
-3.78717 1.7512 5.73859
-3.80231 1.74894 5.72073
-3.82436 1.74986 5.71389
-3.84543 1.75074 5.70503
-3.85463 1.74634 5.67816
-3.86664 1.74734 5.67724
-3.89166 1.75031 5.67438
-3.91272 1.75119 5.66552
-3.93281 1.75205 5.65466
-3.9519 1.75187 5.64181
-3.97098 1.75173 5.63195
-3.98893 1.75583 5.63803
-4.00605 1.75461 5.62217
-4.02809 1.75654 5.61631
-4.05311 1.75951 5.61345
-4.06827 1.75723 5.5936
1.21402 1.71406 6.54557
1.17005 1.71417 6.5509
1.15119 1.71743 6.568
1.09518 1.71546 6.56745
1.0742 1.71552 6.57061
1.05434 1.7198 6.5887
1.03129 1.71673 6.58291
1.00932 1.71679 6.58608
0.987325 1.71682 6.58725
0.971617 1.72639 6.62523
0.961717 1.72959 6.63826
0.942871 1.7339 6.65834
0.920886 1.73394 6.6605
0.658197 1.73773 6.70243
0.636198 1.73774 6.7026
0.614198 1.73676 6.70278
0.592191 1.73676 6.70194
0.570191 1.73578 6.70212
0.548291 1.73899 6.71524
0.537238 1.73689 6.70836
0.514223 1.73588 6.70654
0.492208 1.73486 6.70472
0.470185 1.73384 6.70191
0.447108 1.7307 6.69212
0.426294 1.73707 6.71619
0.414148 1.7318 6.69736
0.392118 1.73076 6.69354
0.370126 1.73079 6.6947
0.348165 1.73188 6.69985
0.326142 1.73085 6.69703
0.304158 1.7309 6.6992
0.282166 1.73093 6.70036
0.271128 1.72986 6.69546
0.249174 1.73097 6.70161
0.227137 1.72991 6.69679
0.205129 1.72891 6.69597
0.183176 1.73102 6.70211
0.161146 1.72997 6.69829
0.139139 1.72897 6.69747
0.128124 1.72895 6.69555
0.106232 1.73217 6.70967
0.0841867 1.7311 6.70385
0.0621258 1.729 6.69605
0.0403646 1.73953 6.46103
0.0193187 1.73746 6.45521
0.00841129 1.74065 6.46725
-0.01258 1.74168 6.46839
-0.0337105 1.73644 6.45163
-0.0556559 1.73856 6.45876
-0.0767168 1.73646 6.45095
-0.0977934 1.73332 6.44116
-0.119615 1.74068 6.46421
-0.129607 1.7407 6.46529
-0.150699 1.73754 6.45349
-0.171729 1.7365 6.44967
-0.192736 1.7365 6.44882
-0.213774 1.73544 6.444
-0.235734 1.73753 6.44913
-0.256765 1.73548 6.44532
-0.266803 1.73442 6.44041
-0.28881 1.73442 6.43958
-0.309755 1.73754 6.44669
-0.331693 1.73967 6.45483
-0.351846 1.73439 6.43505
-0.372883 1.73333 6.43023
-0.394775 1.73756 6.44433
-0.404883 1.73336 6.43047
-0.425836 1.73546 6.43659
-0.446865 1.73542 6.43275
-0.467918 1.73333 6.42594
-0.48984 1.73749 6.43605
-0.510901 1.73539 6.42824
-0.531939 1.73433 6.42341
-0.542915 1.73538 6.42648
-0.56296 1.73431 6.42064
-0.584929 1.73538 6.42479
-0.605974 1.73431 6.41897
-0.627019 1.73324 6.41314
-0.64708 1.73213 6.40531
-0.667141 1.73003 6.39749
-0.678132 1.73105 6.39856
-0.699177 1.72998 6.39273
-0.7183 1.72576 6.37693
-0.742152 1.73205 6.39602
-0.76319 1.73099 6.3912
-0.784181 1.73203 6.39234
-0.803334 1.72774 6.37254
-0.815264 1.72988 6.3816
-0.83624 1.73194 6.38473
-0.857262 1.73192 6.38189
-0.879238 1.73298 6.38504
-0.898376 1.72872 6.36724
-0.919374 1.72974 6.36739
-0.939435 1.72863 6.35955
-0.951404 1.7297 6.36363
-0.972402 1.73072 6.36377
-0.992486 1.72857 6.35295
-1.01349 1.72957 6.3521
-1.0345 1.72957 6.35126
-1.0756 1.72841 6.33858
-1.0866 1.72842 6.33866
-1.15156 1.73252 6.34309
-1.17068 1.72931 6.32828
-1.19167 1.73033 6.32843
-1.21369 1.73132 6.32658
-1.22563 1.73344 6.33464
-1.24567 1.73337 6.32879
-1.26573 1.73226 6.32095
-1.28582 1.7301 6.30914
-1.3298 1.73318 6.31242
-1.35892 1.72996 6.29669
-1.4 1.72983 6.286
-1.48311 1.73067 6.27161
-1.49509 1.73172 6.27468
-1.80367 1.73179 6.199
-1.84669 1.73376 6.19529
-2.03109 1.73411 6.14367
-2.18442 1.73556 6.0998
-2.20349 1.73444 6.09095
-2.24456 1.73532 6.08125
-2.26169 1.73308 6.06441
-2.28467 1.73513 6.06655
-2.2947 1.73507 6.06263
-2.31869 1.73812 6.06476
-2.34266 1.74118 6.0679
-2.35977 1.73899 6.05406
-2.38081 1.73891 6.04822
-2.39791 1.73773 6.03536
-2.42485 1.74187 6.04351
-2.43683 1.74391 6.04557
-2.451 1.7396 6.02373
-2.47595 1.7437 6.02986
-2.49405 1.74152 6.01703
-2.52196 1.74771 6.02815
-2.54004 1.74656 6.0173
-2.5601 1.74645 6.00945
-2.56816 1.74534 6.00153
-2.5902 1.74628 5.99668
-2.60337 1.74197 5.97484
-2.63031 1.74709 5.98197
-2.65037 1.74698 5.97412
-2.66944 1.74687 5.96526
-2.68655 1.74466 5.95042
-2.70347 1.74883 5.96149
-2.72156 1.74767 5.94964
-2.73963 1.74753 5.93978
-2.76561 1.75059 5.94293
-2.78173 1.74837 5.92708
-2.80473 1.75037 5.92623
-2.81673 1.75238 5.92629
-2.83186 1.74914 5.90945
-2.85685 1.75317 5.91057
-2.87592 1.75305 5.90172
-2.89598 1.75295 5.89387
-2.90619 1.74654 5.86604
-2.92725 1.74744 5.85818
-2.93628 1.74739 5.85425
-2.9593 1.74936 5.8514
-2.97345 1.74607 5.83155
-2.9935 1.74598 5.8247
-3.0116 1.7448 5.81185
-3.0356 1.74782 5.81199
-3.04285 1.74034 5.77915
-3.07276 1.74754 5.79127
-3.07393 1.74221 5.76935
-3.09497 1.74314 5.7635
-3.11405 1.74301 5.75364
-3.13706 1.74499 5.75178
-3.15218 1.74277 5.73593
-3.17027 1.7426 5.72407
-3.19625 1.74565 5.72622
-3.19741 1.74134 5.70529
-3.21845 1.74228 5.70043
-3.24246 1.74527 5.69857
-3.26154 1.74513 5.68871
-3.27863 1.74397 5.67686
-3.30067 1.7459 5.67099
-3.31382 1.74261 5.65114
-3.32484 1.74359 5.64921
-3.35083 1.74662 5.65036
-3.36989 1.7475 5.64149
-3.39194 1.74943 5.63562
-3.40706 1.7472 5.61977
-3.4291 1.74913 5.6139
-3.43419 1.74596 5.60199
-3.44932 1.74372 5.58513
-3.4832 1.75296 5.60025
-3.49536 1.74966 5.57939
-3.51839 1.75162 5.57554
-3.53944 1.75253 5.56868
-3.55357 1.75029 5.55182
-3.56757 1.7523 5.55189
-3.58664 1.75318 5.54302
-3.60473 1.75301 5.53116
1.4335 1.70897 6.21095
1.41563 1.71323 6.22802
1.39464 1.71226 6.22919
1.37264 1.71128 6.22937
1.34582 1.71564 6.25252
1.32589 1.7178 6.26264
1.30592 1.71788 6.26678
1.28495 1.71795 6.27094
1.26398 1.71802 6.2751
1.24615 1.72335 6.29616
1.22516 1.72239 6.29833
1.2162 1.72347 6.30338
1.19525 1.72458 6.30953
1.1753 1.7257 6.31666
1.15432 1.72474 6.31883
1.13546 1.72904 6.33791
1.11445 1.72804 6.33709
1.09136 1.72388 6.32532
1.08246 1.72707 6.33834
1.06253 1.72922 6.34746
0.454201 1.73694 6.43794
0.294173 1.733 6.43521
0.263336 1.73933 6.45635
0.220236 1.73517 6.44373
0.178353 1.73942 6.45899
0.146354 1.73944 6.45923
0.1254 1.74055 6.46537
0.104208 1.73319 6.44064
0.061364 1.73952 6.46087
0.0383746 1.72164 6.19827
0.0174442 1.72379 6.2074
-0.00249374 1.72592 6.21552
-0.0235854 1.72276 6.20372
-0.0435384 1.72487 6.20984
-0.0535845 1.72278 6.20395
-0.0745758 1.72381 6.20509
-0.0945445 1.72489 6.20922
-0.114636 1.72172 6.19742
-0.135597 1.72281 6.20256
-0.156543 1.72493 6.20969
-0.176604 1.72283 6.20187
-0.186564 1.72491 6.20692
-0.207587 1.72388 6.20409
-0.227679 1.72072 6.19229
-0.247608 1.72387 6.20139
-0.268662 1.72178 6.19458
-0.289522 1.72806 6.21265
-0.30966 1.72281 6.19487
-0.319637 1.72386 6.19793
-0.340528 1.72808 6.21203
-0.360681 1.7228 6.19226
-0.401641 1.7249 6.19754
-0.45267 1.72488 6.19392
-0.512783 1.7217 6.17942
-0.68589 1.72261 6.16571
-2.25132 1.73087 5.84833
-2.28038 1.73176 5.83954
-2.30043 1.73169 5.83369
-2.31851 1.73054 5.82284
-2.33854 1.73149 5.81898
-2.35957 1.73245 5.81512
-2.38548 1.73863 5.82623
-2.39257 1.73547 5.81533
-2.41065 1.73432 5.80448
-2.43755 1.74153 5.81757
-2.45464 1.73935 5.80473
-2.46881 1.73504 5.7829
-2.4908 1.73807 5.78402
-2.50988 1.73694 5.77418
-2.51891 1.73688 5.77025
-2.54387 1.74098 5.77538
-2.56293 1.74086 5.76652
-2.58101 1.73972 5.75667
-2.59809 1.73857 5.74582
-2.62207 1.74162 5.74795
-2.64213 1.74253 5.74109
-2.65331 1.73718 5.71725
-2.6771 1.7476 5.74428
-2.68535 1.73912 5.71146
-2.70343 1.73898 5.7016
-2.72346 1.73992 5.69674
-2.74155 1.73877 5.68589
-2.75865 1.73758 5.67203
-2.77377 1.73535 5.65618
-2.78379 1.73533 5.65425
-2.80286 1.73521 5.6454
-2.81601 1.73192 5.62554
-2.83704 1.73286 5.62069
-2.87221 1.73156 5.59897
-2.91838 1.73126 5.57632
-2.97557 1.73193 5.55173
-3.02175 1.73161 5.52808
-3.06184 1.73346 5.51636
-3.1141 1.73098 5.48178
-3.14318 1.73284 5.47097
-3.1984 1.73245 5.44239
-3.21549 1.73228 5.43052
-3.24456 1.73316 5.42072
-3.26757 1.73614 5.41885
-3.29978 1.73375 5.39113
-3.32772 1.73989 5.39925
-3.33494 1.73347 5.37039
-3.36783 1.7417 5.38452
-3.36601 1.73535 5.3616
-3.38705 1.73628 5.35574
-3.4061 1.73819 5.34886
-3.42912 1.74016 5.346
-3.43931 1.73582 5.32214
-3.47219 1.74506 5.33725
-3.48335 1.74074 5.3154
-3.48944 1.73859 5.30447
-3.5164 1.74468 5.30959
-3.53349 1.74351 5.29773
-3.54564 1.74023 5.27787
-3.57754 1.74843 5.28999
-3.5907 1.74514 5.27013
-3.6058 1.74394 5.25626
-3.6188 1.74595 5.25633
-3.64082 1.74892 5.25345
-3.65595 1.74668 5.2366
-3.68292 1.75175 5.23973
-3.69902 1.75157 5.22685
-3.71315 1.74933 5.20999
-4.70244 1.73464 4.37954
6.01268 1.62042 1.84016
6.00382 1.61969 1.85824
5.99495 1.61996 1.8763
5.97205 1.61517 1.88955
5.93843 1.61195 1.94086
1.24816 1.70645 6.03336
1.2382 1.70755 6.03942
1.22029 1.70973 6.05052
1.20242 1.71399 6.0676
1.18555 1.71725 6.08468
1.1656 1.71836 6.09081
1.14981 1.72578 6.11882
0.85719 1.72872 6.16999
0.836214 1.72878 6.17315
0.815144 1.72466 6.16437
0.795191 1.72677 6.17049
0.775283 1.72896 6.18261
0.753191 1.7248 6.17083
0.744222 1.72586 6.17489
0.723207 1.72485 6.17306
0.7033 1.72804 6.18516
0.682253 1.72497 6.17937
0.662284 1.72604 6.1835
0.641284 1.72506 6.18367
0.62237 1.72823 6.19477
0.611293 1.72509 6.1849
0.591332 1.72618 6.19003
0.571432 1.72939 6.20314
0.550417 1.72837 6.20131
0.529355 1.72527 6.19352
0.509371 1.72531 6.19567
0.48948 1.72954 6.20976
0.478426 1.72744 6.20287
0.458411 1.72643 6.20103
0.437388 1.7254 6.19821
0.417473 1.72857 6.20931
0.396451 1.72754 6.20649
0.376404 1.72447 6.20068
0.356498 1.72866 6.21277
0.345475 1.72763 6.20987
0.325529 1.72874 6.217
0.30446 1.72563 6.20821
0.284484 1.72669 6.21134
0.263445 1.72463 6.20653
0.243462 1.72567 6.20867
0.2225 1.72676 6.21381
0.212378 1.72253 6.19795
0.191447 1.72468 6.20707
0.17154 1.72787 6.21918
0.150433 1.72368 6.2054
0.130511 1.72684 6.2155
0.109411 1.72267 6.20272
0.0894271 1.72371 6.20485
0.0794117 1.72269 6.20295
0.058551 1.72797 6.22103
0.0236252 1.71522 5.96644
0.00365656 1.71629 5.97058
-0.0653647 1.7153 5.96811
-0.10434 1.71637 5.97139
-0.144362 1.71636 5.96869
-0.252389 1.71638 5.96551
-2.49283 1.72709 5.51516
-2.60005 1.73072 5.48591
-3.31376 1.73088 5.12924
-3.44037 1.72976 5.0482
-3.46846 1.7306 5.0364
-3.48554 1.73045 5.02553
-3.49866 1.72922 5.00964
-3.52068 1.7312 5.00678
-3.53876 1.73206 4.9969
-3.55782 1.73296 4.98903
-3.5708 1.73599 4.99108
-3.58393 1.73375 4.97421
-3.61782 1.74298 4.98833
-3.62303 1.73657 4.96046
-3.64308 1.73848 4.95358
-3.66412 1.74043 4.94871
-3.67526 1.73715 4.92984
-3.68726 1.73916 4.9299
-3.70731 1.74107 4.92303
-3.72143 1.73986 4.90815
-3.74543 1.74386 4.90727
-3.75855 1.74163 4.8914
-3.77663 1.74248 4.88052
-3.79668 1.74441 4.87464
-3.8077 1.74537 4.87171
-3.82181 1.74416 4.85683
-3.84186 1.74609 4.85095
-3.87107 1.74468 4.82219
-3.91328 1.7453 4.7945
5.84417 1.62951 1.77228
5.83029 1.62776 1.78842
5.83145 1.63007 1.80938
5.81356 1.62729 1.82355
5.8087 1.62758 1.84259
5.77977 1.62175 1.85289
5.77684 1.62188 1.86192
5.76597 1.62014 1.87903
5.74706 1.61735 1.89221
5.7402 1.61762 1.91026
5.73835 1.61892 1.93026
1.37631 1.70373 5.7874
1.36634 1.7048 5.79146
1.34635 1.70383 5.79262
1.32839 1.70393 5.79876
1.27049 1.70516 5.81218
1.25257 1.70733 5.82228
1.2488 1.71577 5.85219
1.23296 1.72109 5.87323
1.21298 1.72014 5.8754
1.19402 1.72123 5.88053
1.10822 1.72469 5.90812
1.08823 1.72472 5.90927
1.02716 1.71863 5.90082
1.00614 1.7166 5.89801
0.997201 1.71872 5.90605
0.977163 1.71667 5.90123
0.957186 1.71672 5.90438
0.940325 1.721 5.92245
0.919302 1.71997 5.91962
0.899248 1.71688 5.91281
0.878225 1.71486 5.91
0.869248 1.71591 5.91305
0.850333 1.71808 5.92417
0.829279 1.715 5.91737
0.81031 1.71607 5.9215
0.790326 1.71611 5.92365
0.770318 1.71511 5.92281
0.752395 1.71727 5.93292
0.741357 1.71521 5.92803
0.72345 1.7184 5.94012
0.703465 1.71844 5.94227
0.682365 1.71427 5.92949
0.66345 1.71644 5.9406
0.643435 1.71543 5.93877
0.624497 1.71756 5.94688
0.615605 1.72177 5.96089
0.595528 1.71764 5.9511
0.576606 1.7208 5.96119
0.554452 1.71452 5.94145
0.535552 1.71773 5.95455
0.515521 1.71568 5.95073
0.496522 1.7157 5.95087
0.486553 1.71676 5.95493
0.466569 1.71681 5.95708
0.447577 1.71684 5.95822
0.427569 1.71584 5.95739
0.407577 1.71586 5.95854
0.388601 1.71692 5.96167
0.368609 1.71695 5.96282
0.358586 1.71592 5.95991
0.338656 1.71806 5.96903
0.318617 1.716 5.96421
0.299679 1.71814 5.97232
0.279556 1.71291 5.95655
0.260681 1.71816 5.97261
0.239581 1.71399 5.95983
0.230597 1.71502 5.96189
0.210636 1.71611 5.96702
0.191728 1.7193 5.97912
0.171667 1.7172 5.9713
0.15166 1.7162 5.97046
0.13166 1.71621 5.97062
0.111653 1.71621 5.96977
0.102638 1.71519 5.96785
0.0826386 1.71521 5.968
0.0394564 1.71191 5.81135
-0.017488 1.71406 5.81875
-0.0564718 1.71411 5.82104
-0.0755171 1.71304 5.8152
-0.210489 1.71518 5.81919
-0.248512 1.71417 5.81649
-2.47395 1.72788 5.36699
-2.48906 1.72467 5.35215
-2.51202 1.72876 5.35726
-2.52105 1.72871 5.35333
-2.545 1.73382 5.35944
-2.5703 1.72526 5.32075
-2.59327 1.72932 5.32386
-2.61428 1.73232 5.32298
-2.65154 1.72683 5.28833
-2.66862 1.72669 5.27846
-2.70276 1.72544 5.25973
-2.72573 1.72951 5.26385
-2.73789 1.72521 5.243
-2.74987 1.72725 5.24506
-2.76496 1.72608 5.23319
-2.78401 1.72699 5.22632
-2.8001 1.72584 5.21546
-2.83424 1.72558 5.19671
-2.85327 1.72654 5.19284
-2.92862 1.7249 5.14643
-2.94569 1.72478 5.13756
-2.9777 1.72877 5.13574
-3.04994 1.73035 5.10426
-3.06208 1.72709 5.08639
-3.0821 1.72906 5.08351
-3.09311 1.73004 5.08158
-3.10327 1.72574 5.06072
-3.12823 1.73183 5.06582
-3.14432 1.73066 5.05396
-3.16041 1.7295 5.04209
-3.17847 1.73039 5.03421
-3.19948 1.73338 5.03233
-3.20852 1.73331 5.0274
-3.22756 1.73525 5.02251
-3.25352 1.74033 5.02663
-3.26665 1.73708 5.00978
-3.2768 1.7338 4.9899
-3.30079 1.73783 4.99102
-3.31194 1.73455 4.97215
-3.32294 1.73656 4.9722
-3.34692 1.74059 4.97332
-3.36499 1.74047 4.96446
-3.3791 1.73928 4.95058
-3.39518 1.73913 4.9397
-3.42115 1.7442 4.94383
-3.42834 1.73882 4.91796
-3.44331 1.74289 4.92201
-3.45939 1.74274 4.91113
-3.47745 1.74365 4.90425
-3.5267 1.74318 4.87063
-3.55479 1.74503 4.85881
5.99491 1.58541 -0.119461
5.99834 1.58725 -0.0625062
5.98948 1.58552 -0.0444113
5.99355 1.58666 -0.0344576
5.9927 1.58695 -0.0154527
5.98983 1.58722 0.00256736
5.99598 1.58951 0.0224899
5.98712 1.58778 0.0405847
5.98226 1.58706 0.0596345
5.97633 1.5852 0.068708
5.97847 1.58648 0.0876755
5.97761 1.58675 0.105681
5.99176 1.59203 0.125498
5.9849 1.59032 0.144578
5.97204 1.5866 0.162733
5.98919 1.59288 0.182513
5.97725 1.59001 0.190647
5.9794 1.5913 0.210614
5.97353 1.59057 0.228672
5.96867 1.58984 0.246722
5.97182 1.59114 0.266681
5.97597 1.59342 0.285619
5.97211 1.5927 0.304661
5.96918 1.59284 0.313683
5.97933 1.59612 0.33356
5.96946 1.5944 0.351663
5.97261 1.59668 0.370608
5.97675 1.59795 0.38956
5.96288 1.59523 0.407708
5.97204 1.59852 0.427593
5.98412 1.60267 0.438442
5.97626 1.60195 0.456514
5.9774 1.60323 0.475489
5.98455 1.60652 0.495389
5.96868 1.60278 0.512567
5.97183 1.60408 0.532527
5.96497 1.60335 0.550592
5.94902 1.59946 0.55777
5.95918 1.60377 0.578633
5.96032 1.60505 0.597608
5.95346 1.60432 0.615673
5.95661 1.60561 0.635633
5.96076 1.6089 0.655555
5.9639 1.61018 0.674515
5.94896 1.60631 0.682686
5.96413 1.61263 0.704482
5.94825 1.60888 0.720659
5.9524 1.61117 0.740597
5.95655 1.61446 0.760519
5.9537 1.61475 0.779539
5.93903 1.61342 0.824676
1.40506 1.70027 5.62221
1.37608 1.69932 5.62444
1.34125 1.70367 5.64664
1.32535 1.70687 5.65972
1.31051 1.71219 5.68075
1.29671 1.71959 5.70675
1.15869 1.71066 5.70592
1.13871 1.7107 5.70807
1.11869 1.70869 5.70625
1.10285 1.714 5.7263
1.0849 1.71511 5.73342
1.06278 1.70989 5.71766
1.04695 1.71523 5.7397
1.03485 1.71105 5.72685
1.01796 1.71427 5.74094
0.996879 1.71013 5.73115
0.976887 1.71016 5.7323
0.961026 1.71444 5.75036
0.940995 1.7124 5.74654
0.922026 1.71247 5.75069
0.912026 1.71248 5.75076
0.890925 1.7073 5.738
0.876149 1.71574 5.76699
0.856142 1.71474 5.76615
0.835049 1.71058 5.75437
0.81818 1.71484 5.77144
0.797081 1.71066 5.75866
0.787065 1.70864 5.75676
0.770243 1.71599 5.77978
0.751273 1.71607 5.78392
0.732266 1.71507 5.78308
0.712251 1.71405 5.78125
0.692205 1.71198 5.77543
0.674313 1.7152 5.78952
0.665351 1.71628 5.79457
0.645321 1.71523 5.79074
0.625244 1.7111 5.78095
0.60736 1.71534 5.79602
0.588375 1.71538 5.79816
0.56833 1.7133 5.79234
0.55043 1.71651 5.80543
0.539307 1.71128 5.78959
0.521438 1.71655 5.80665
0.501416 1.71552 5.80382
0.483516 1.71872 5.81691
0.46347 1.71665 5.81109
0.444447 1.71562 5.80825
0.425501 1.71673 5.81537
0.415417 1.71358 5.80449
0.396579 1.7199 5.82554
0.377525 1.71681 5.81873
0.357487 1.71575 5.8139
0.338526 1.71684 5.81903
0.319534 1.71687 5.82017
0.29945 1.71272 5.80938
0.289427 1.71169 5.80647
0.271551 1.71693 5.82253
0.251528 1.71591 5.8197
0.232505 1.71387 5.81687
0.213537 1.71595 5.82098
0.194529 1.71495 5.82014
0.164445 1.71181 5.80941
0.145477 1.71288 5.81354
0.126539 1.71501 5.82165
0.10747 1.71189 5.81284
0.0885008 1.71297 5.81697
0.0684556 1.71189 5.81113
0.0494869 1.71296 5.81526
0.0369646 1.72097 5.61221
0.0180656 1.72517 5.62529
1.2114e-05 1.72308 5.61846
-0.0189873 1.7231 5.6186
-0.0369636 1.72415 5.62172
-0.0559474 1.7252 5.62385
-0.0748314 1.72943 5.63893
-0.0840702 1.71998 5.60813
-0.102923 1.72627 5.62719
-0.121092 1.71896 5.60543
-0.139945 1.72526 5.62448
-0.15716 1.71686 5.59673
-0.176928 1.72731 5.62673
-0.195051 1.72209 5.61094
-0.205004 1.72419 5.61698
-0.223104 1.72001 5.60418
-0.242872 1.72946 5.63419
-0.260126 1.71899 5.60148
-0.279094 1.72106 5.60559
-0.297155 1.71896 5.59775
-0.315209 1.71687 5.59092
-0.324185 1.71792 5.59397
-0.343176 1.71895 5.5951
-0.363099 1.72211 5.60521
-0.380198 1.71893 5.59238
-0.399159 1.72102 5.59749
-0.418127 1.72209 5.60162
-0.436226 1.71891 5.5888
-0.445203 1.71996 5.59185
-0.464226 1.71893 5.58901
-0.482255 1.71888 5.58515
-0.501239 1.71993 5.58728
-0.52023 1.72096 5.5884
-0.538276 1.71888 5.58257
-0.555352 1.71675 5.57273
-0.564368 1.71572 5.57081
-0.583397 1.71568 5.56695
-0.602342 1.71879 5.57405
-0.619457 1.71459 5.55924
-0.641255 1.72399 5.58527
-0.656502 1.71352 5.55354
-0.675463 1.71561 5.55865
-0.702515 1.71453 5.55187
-0.721522 1.71553 5.551
-0.740505 1.71657 5.55312
-0.757581 1.71443 5.54328
-0.794618 1.71439 5.53856
-0.803602 1.71542 5.54061
-0.822593 1.71645 5.54174
-0.860607 1.71745 5.54001
-0.916611 1.72048 5.53939
-1.0467 1.72338 5.52733
-1.07891 1.716 5.50067
-1.12076 1.72431 5.51987
-1.15492 1.72003 5.49919
-1.18196 1.71996 5.49339
-1.21802 1.71988 5.48666
-1.25312 1.7177 5.47296
-1.28213 1.7197 5.47215
-1.3211 1.72378 5.47538
-1.35425 1.71951 5.45569
-1.37131 1.7184 5.44783
-1.3942 1.72462 5.46192
-1.42319 1.72666 5.4631
-1.45635 1.72337 5.4424
-1.47343 1.72124 5.43256
-1.49438 1.72534 5.43866
-1.50657 1.71798 5.41385
-1.5224 1.72632 5.43585
-1.53753 1.72209 5.42003
-1.57651 1.72613 5.42126
-1.59067 1.72085 5.40144
-1.61258 1.72603 5.41253
-1.62672 1.72177 5.3947
-1.63963 1.72594 5.40574
-1.65378 1.72167 5.3869
-1.68059 1.73205 5.41096
-1.69376 1.72573 5.38915
-1.7118 1.72567 5.38428
-1.73178 1.72871 5.38639
-1.74981 1.72867 5.38252
-1.75883 1.72863 5.37959
-1.77688 1.72855 5.37373
-1.79296 1.7264 5.36288
-1.81197 1.72839 5.36099
-1.83295 1.73145 5.36411
-1.85 1.73035 5.35725
-1.86902 1.73132 5.35438
-1.88096 1.73545 5.36241
-1.90096 1.73745 5.36153
-1.90824 1.72592 5.32575
-1.93999 1.73943 5.35879
-1.95215 1.73412 5.33696
-1.97019 1.73506 5.33208
-1.98236 1.72874 5.31027
-1.99822 1.73702 5.32826
-2.01039 1.7307 5.30645
-2.03626 1.73896 5.32252
-2.04452 1.72947 5.28972
-2.06844 1.73462 5.29883
-2.08059 1.73035 5.27998
-2.10746 1.73862 5.29706
-2.10666 1.73022 5.27017
-2.13158 1.7364 5.28127
-2.14668 1.73421 5.26742
-2.1598 1.731 5.25256
-2.18079 1.73301 5.25269
-2.19492 1.72978 5.23684
-2.21393 1.73177 5.23495
-2.22589 1.73485 5.24
-2.24198 1.73269 5.22815
-2.25708 1.7305 5.2153
-2.28099 1.73668 5.22639
-2.29511 1.73346 5.21054
-2.30923 1.73125 5.19568
-2.33612 1.73847 5.20977
-2.33728 1.73216 5.18887
-2.35532 1.73309 5.18299
-2.37631 1.73612 5.18411
-2.39238 1.73499 5.17524
-2.42946 1.73687 5.16549
-2.45358 1.73565 5.14969
-2.47751 1.74079 5.1578
-2.48866 1.7365 5.13794
-2.50869 1.73847 5.13506
-2.52771 1.73943 5.13119
-2.54181 1.73724 5.11833
-2.56692 1.73606 5.10453
-2.5889 1.7401 5.10664
-2.60301 1.7379 5.09278
-2.65123 1.73549 5.06317
-2.66928 1.7364 5.05629
-2.6865 1.731 5.0285
-2.71932 1.74135 5.05059
-2.72652 1.73499 5.02574
-2.7426 1.73484 5.01486
-2.7777 1.73565 5.00111
-2.79165 1.73975 5.00716
-2.81888 1.73433 4.97744
-2.83397 1.73418 4.96655
-2.86808 1.73396 4.95081
-2.89304 1.74007 4.95691
-2.89615 1.73585 4.94199
-2.92012 1.74093 4.9461
-2.92732 1.73455 4.92024
-2.95847 1.73328 4.9005
-2.98046 1.73729 4.9006
-3.00261 1.73503 4.8818
-3.02559 1.73907 4.88391
-3.04463 1.74101 4.87903
-3.06887 1.73556 4.84729
-3.09398 1.73535 4.83248
-3.11598 1.73937 4.83258
-3.13403 1.74028 4.8257
-3.14911 1.74012 4.81482
-3.16322 1.73793 4.80096
-3.19734 1.7397 4.78418
5.81437 1.59847 -0.325323
5.80484 1.59641 -0.262212
5.79812 1.59496 -0.225134
5.80625 1.59722 -0.207227
5.80739 1.59849 -0.189252
5.81654 1.60176 -0.170366
5.79759 1.5959 -0.162136
5.80974 1.60017 -0.143288
5.80587 1.59944 -0.125245
5.79401 1.59671 -0.107113
5.81015 1.60198 -0.0883101
5.79228 1.59725 -0.071103
5.79142 1.59753 -0.0520981
5.79649 1.59866 -0.0431517
5.79463 1.59893 -0.0251392
5.79176 1.5982 -0.0071043
5.7919 1.59948 0.0118783
5.79304 1.59974 0.0298683
5.78618 1.59901 0.0479333
5.80432 1.60428 0.0667212
5.78038 1.59742 0.0750043
