-0.129187 1.69855 4.49323
-0.14431 1.69333 4.47742
-0.159194 1.69856 4.49246
-0.174317 1.69334 4.47664
-0.189247 1.69648 4.48571
-0.204254 1.69648 4.48483
-0.212223 1.69754 4.48887
-0.227245 1.69751 4.48598
-0.241338 1.69334 4.47415
-0.25726 1.6975 4.48421
-0.271383 1.69127 4.46841
-0.288188 1.70165 4.49338
-0.294375 1.6923 4.46956
-0.309327 1.6954 4.47563
-0.324396 1.69228 4.46679
-0.339357 1.69437 4.47187
-0.370317 1.69746 4.47706
-0.384425 1.69227 4.46324
-0.391416 1.69329 4.46428
-0.422353 1.69743 4.47245
-0.451429 1.6943 4.46272
-0.481451 1.69428 4.45994
-0.49745 1.69529 4.46005
-0.504473 1.69425 4.45712
-0.520386 1.69942 4.46816
-0.534456 1.6963 4.45931
-0.54947 1.69628 4.45742
-0.565438 1.69835 4.46152
-0.580469 1.6973 4.45764
-0.595483 1.69729 4.45576
-0.602514 1.69623 4.45182
-0.618458 1.70035 4.45889
-0.646589 1.69512 4.44217
-0.676579 1.69715 4.44337
-0.684602 1.69611 4.44044
-0.698632 1.69507 4.43656
-0.714623 1.69709 4.43765
-0.728669 1.69501 4.43179
-0.745598 1.70016 4.44084
-0.761527 1.7043 4.4499
-0.774666 1.69805 4.43209
-0.783572 1.70323 4.44408
-0.813625 1.70215 4.43733
-0.826732 1.69795 4.42348
-0.841739 1.69895 4.42258
-0.856745 1.69994 4.42168
-0.872706 1.70203 4.42677
-0.878806 1.69784 4.41388
-0.893797 1.69987 4.41496
-0.92478 1.70192 4.41716
-0.9558 1.7039 4.41437
-0.966963 1.69659 4.39356
-0.978791 1.70593 4.41551
-0.990914 1.7007 4.39968
-1.00498 1.69858 4.39081
-1.02095 1.70165 4.39489
-1.03499 1.70058 4.39001
-1.05099 1.7016 4.39012
-1.06308 1.69843 4.37825
-1.07301 1.70257 4.38727
-1.10209 1.70143 4.3765
-1.11807 1.70347 4.37859
-1.13406 1.70551 4.38068
-1.14616 1.70132 4.36783
-1.16216 1.70334 4.36792
-1.16919 1.70228 4.36399
-1.18321 1.70225 4.3611
-1.19825 1.70117 4.35523
-1.21228 1.70112 4.35133
-1.22731 1.70107 4.34745
-1.24427 1.70516 4.35251
-1.25832 1.70408 4.34663
-1.26825 1.70922 4.35563
-1.2784 1.70193 4.33582
-1.29538 1.70499 4.3389
-1.30845 1.70285 4.32903
-1.32443 1.70591 4.3321
-1.33847 1.70483 4.32622
-1.35349 1.70581 4.32432
-1.36735 1.71407 4.34131
-1.37651 1.70678 4.32148
-1.39934 1.71812 4.34349
-1.40655 1.70871 4.31568
-1.42547 1.71387 4.32575
-1.43269 1.70447 4.29794
-1.44966 1.70752 4.30102
-1.45767 1.70851 4.30006
-1.47269 1.70848 4.29718
-1.48772 1.70945 4.29428
-1.50079 1.70731 4.2844
-1.51384 1.70621 4.27752
-1.52985 1.70821 4.27661
-1.54193 1.70507 4.26675
-1.547 1.70293 4.25681
-1.56497 1.706 4.2609
-1.58097 1.70801 4.261
-1.59306 1.70484 4.24913
-1.60904 1.70788 4.25121
-1.62015 1.70468 4.23734
-1.63812 1.70776 4.24143
-1.64611 1.70978 4.24246
-1.66015 1.7097 4.23656
-1.67225 1.70653 4.2247
-1.68826 1.70751 4.22281
-1.70426 1.70952 4.2229
-1.71929 1.71047 4.219
-1.73331 1.71144 4.21609
-1.73642 1.70622 4.20118
-1.75341 1.70925 4.20227
-1.76746 1.70917 4.19637
-1.78249 1.70912 4.19249
-1.7926 1.70592 4.17861
-1.81056 1.71001 4.18368
-1.81562 1.70789 4.17575
-1.83162 1.70989 4.17484
-1.84567 1.70981 4.16895
-1.85874 1.70869 4.16006
-1.87474 1.71068 4.15916
-1.88977 1.71164 4.15525
-1.90186 1.70847 4.14339
-1.91575 1.71568 4.15739
-1.92784 1.71353 4.14651
-1.94286 1.7155 4.14359
-1.952 1.71024 4.12574
-1.97587 1.71949 4.14178
-1.98499 1.71526 4.12591
-2.00003 1.7152 4.12103
-2.00605 1.71516 4.11807
-2.02207 1.71712 4.11516
-2.03022 1.71185 4.0963
-2.04721 1.71488 4.09738
-2.05535 1.7096 4.07852
-2.07039 1.71054 4.07362
-2.08934 1.71464 4.0797
-2.09441 1.71251 4.07077
-2.10943 1.71448 4.06785
-2.12839 1.71956 4.07292
-2.13162 1.71014 4.04408
-2.1555 1.71836 4.05814
-2.16463 1.71413 4.04227
-2.17573 1.71195 4.02939
-2.18176 1.71189 4.02543
-2.19875 1.71391 4.02553
-2.20887 1.71069 4.01065
-2.22882 1.71679 4.01671
-2.24189 1.71567 4.00783
-2.25002 1.71142 3.99095
-2.26406 1.71135 3.98505
-2.28093 1.72061 4.00205
-2.28414 1.71121 3.97521
-2.30608 1.71833 3.98227
-2.31223 1.71204 3.9624
-2.33023 1.71605 3.96248
-2.33836 1.71081 3.94562
-2.36423 1.72106 3.96166
-2.35252 1.70651 3.92478
-2.37643 1.7157 3.93683
-2.38949 1.71458 3.92794
-2.40749 1.71759 3.92803
-2.41758 1.71542 3.91614
-2.4415 1.72359 3.9262
-2.44173 1.71314 3.89635
-2.4527 1.71721 3.90038
-2.46675 1.71713 3.89448
-2.49089 1.71587 3.87568
-2.50494 1.71677 3.86877
-2.51307 1.71153 3.85191
-2.53797 1.72172 3.86395
-2.53809 1.7165 3.84902
-2.55115 1.71639 3.84112
-2.56323 1.71525 3.83123
-2.58221 1.7193 3.83331
-2.59033 1.71607 3.81742
-2.60636 1.71802 3.81351
-2.61941 1.71892 3.80659
-2.62446 1.71682 3.79966
-2.64148 1.71981 3.79775
-2.65057 1.71762 3.78485
-2.66463 1.71853 3.77794
-2.69174 1.71832 3.76314
-2.7127 1.7244 3.76721
-2.71084 1.71815 3.75029
-2.73082 1.72319 3.75236
-2.73597 1.7179 3.73248
-2.75496 1.72293 3.73355
-2.7611 1.71766 3.71567
-2.78108 1.72271 3.71774
-2.78217 1.71953 3.7058
-2.80215 1.72458 3.70787
-2.81226 1.72238 3.69398
-2.8354 1.72111 3.67517
-2.8544 1.72512 3.67525
-2.86451 1.72292 3.66136
-2.90775 1.72248 3.62969
-2.93585 1.7243 3.61587
2.60157 1.66147 3.65609
2.60572 1.66976 3.67594
2.5857 1.66473 3.67316
2.57377 1.66489 3.68325
2.5481 1.67454 3.72631
2.53717 1.67568 3.73538
2.52514 1.67163 3.73153
2.51421 1.67279 3.74159
2.50431 1.67498 3.75364
2.48934 1.67306 3.75878
2.47741 1.6742 3.76785
2.44746 1.67133 3.77512
2.44353 1.67346 3.78412
2.41461 1.67163 3.79437
2.40774 1.67589 3.81136
2.35102 1.67748 3.84877
2.31219 1.67783 3.87106
2.26841 1.68029 3.90036
0.735465 1.69929 4.4437
0.705465 1.69831 4.44394
0.691527 1.70044 4.45201
0.654597 1.7016 4.46128
0.623566 1.69956 4.45754
0.608613 1.70066 4.46364
0.57862 1.6997 4.46488
0.539566 1.69562 4.45823
0.511721 1.70194 4.47835
0.496706 1.70092 4.47648
0.481699 1.69992 4.47561
0.458707 1.69995 4.47678
0.443769 1.70208 4.48486
0.428723 1.7 4.479
0.414808 1.70317 4.49006
0.398754 1.70008 4.48323
0.367715 1.69703 4.47851
0.360738 1.69808 4.48154
0.345755 1.69912 4.48364
0.331855 1.70332 4.49669
0.315755 1.69814 4.48388
0.300864 1.70336 4.49792
0.284771 1.69819 4.48612
0.278879 1.7034 4.50008
0.262724 1.69512 4.48033
0.247841 1.70135 4.49535
0.231679 1.69305 4.47459
0.217795 1.69829 4.48962
0.201702 1.69312 4.47782
0.18785 1.70041 4.49681
0.179835 1.70039 4.49487
0.164742 1.69522 4.48306
0.149812 1.69836 4.49213
0.13482 1.69839 4.49324
0.119906 1.70256 4.5043
0.10479 1.69735 4.48948
0.0898372 1.69945 4.49557
0.0817364 1.69427 4.4827
0.0668536 1.7005 4.49773
0.0517837 1.69638 4.4889
0.0368544 1.70052 4.49795
0.0237279 1.69133 4.34917
0.00982934 1.69653 4.3622
-0.00513133 1.69861 4.36728
-0.0202162 1.69446 4.35645
-0.0351305 1.69863 4.3675
-0.0492311 1.69345 4.35468
-0.0570909 1.70072 4.37264
-0.0712926 1.69035 4.3469
-0.0861679 1.6966 4.36292
-0.100168 1.69661 4.36302
-0.115229 1.6945 4.35517
-0.12926 1.69245 4.3513
-0.14422 1.69454 4.35638
-0.158328 1.68934 4.34257
-0.166242 1.69451 4.35355
-0.181172 1.69765 4.36262
-0.196195 1.69662 4.35975
-0.210272 1.69348 4.3499
-0.224287 1.69246 4.34802
-0.239325 1.6914 4.34314
-0.254216 1.69662 4.35718
-0.262216 1.69662 4.35724
-0.276253 1.69556 4.35236
-0.290323 1.69244 4.34351
-0.305283 1.69452 4.3486
-0.320291 1.69452 4.34771
-0.334298 1.69451 4.34682
-0.341336 1.69344 4.34188
-0.356312 1.6945 4.34498
-0.37135 1.69343 4.34011
-0.387233 1.69967 4.35514
-0.40124 1.69966 4.35424
-0.417177 1.70379 4.3623
-0.429402 1.69237 4.33356
-0.437363 1.69445 4.33859
-0.451408 1.69337 4.33271
-0.467298 1.69959 4.34674
-0.48136 1.69648 4.33889
-0.494437 1.69335 4.32904
-0.510413 1.6954 4.33213
-0.524435 1.69437 4.32925
-0.532388 1.69746 4.33526
-0.546411 1.69643 4.33238
-0.560495 1.69328 4.32153
-0.575471 1.69533 4.32462
-0.591385 1.70051 4.33566
-0.6045 1.69529 4.32084
-0.619515 1.69527 4.31895
-0.630304 1.70668 4.34586
-0.642436 1.70044 4.32905
-0.657435 1.70145 4.32914
-0.671481 1.69937 4.32328
-0.686472 1.7014 4.32436
-0.700525 1.6993 4.3175
-0.714571 1.69723 4.31163
-0.72254 1.69929 4.31566
-0.738484 1.7034 4.32273
-0.750615 1.69716 4.30591
-0.765591 1.69922 4.30899
-0.778699 1.69502 4.29515
-0.794659 1.69811 4.30022
-0.81158 1.70327 4.31028
-0.813774 1.6939 4.28543
-0.83264 1.70216 4.30245
-0.846655 1.70214 4.30056
-0.860708 1.70005 4.29369
-0.874739 1.699 4.28981
-0.890691 1.7031 4.29587
-0.911736 1.70203 4.29005
-0.923859 1.6968 4.27421
-0.938857 1.69881 4.2743
-0.955778 1.70397 4.28435
-0.968871 1.6998 4.27251
-0.986753 1.70704 4.28754
-0.997907 1.70075 4.26771
-1.00588 1.70281 4.27174
-1.01798 1.69862 4.25789
-1.033 1.6986 4.25601
-1.04606 1.69649 4.24813
-1.06493 1.70474 4.26416
-1.08187 1.70987 4.27221
-1.09398 1.70466 4.25738
-1.09807 1.7015 4.24645
-1.11211 1.70043 4.24157
-1.13004 1.70558 4.25063
-1.14114 1.70138 4.23678
-1.15519 1.7003 4.2309
-1.17506 1.70855 4.24693
-1.18811 1.70747 4.24104
-1.19609 1.70951 4.24307
-1.21014 1.70843 4.23719
-1.21833 1.69907 4.21239
-1.23432 1.70109 4.21348
-1.25223 1.70727 4.22452
-1.26921 1.71032 4.22761
-1.28227 1.70922 4.21972
-1.29222 1.71233 4.22675
-1.30331 1.70914 4.21388
-1.31832 1.71014 4.21298
-1.33432 1.71115 4.21308
-1.34445 1.70591 4.19624
-1.36044 1.70893 4.19731
-1.37543 1.71096 4.19839
-1.38539 1.71404 4.20342
-1.39845 1.71294 4.19654
-1.40858 1.70669 4.1787
-1.42262 1.70662 4.17381
-1.43664 1.70759 4.1709
-1.45556 1.71375 4.18095
-1.45966 1.70856 4.16806
-1.47369 1.70953 4.16515
-1.49065 1.7136 4.16922
-1.50176 1.7094 4.15536
-1.51384 1.70624 4.1445
-1.5308 1.71033 4.14957
-1.54583 1.7113 4.14667
-1.55186 1.71024 4.14273
-1.56785 1.71325 4.1428
-1.58092 1.71113 4.13393
-1.59007 1.70486 4.11509
-1.60311 1.70478 4.10919
-1.62302 1.71197 4.12123
-1.63411 1.7088 4.10936
-1.64897 1.71807 4.12734
-1.65321 1.70662 4.09654
-1.67411 1.71483 4.10958
-1.68324 1.70958 4.09272
-1.70414 1.71677 4.10477
-1.70936 1.70736 4.07695
-1.7332 1.71768 4.09698
-1.73238 1.70934 4.07409
-1.75035 1.71341 4.07817
-1.76338 1.71334 4.07327
-1.7784 1.71532 4.07135
-1.78851 1.71111 4.05648
-1.80453 1.71209 4.05459
-1.81953 1.71509 4.05366
-1.82065 1.70885 4.03776
-1.84453 1.71811 4.0538
-1.85463 1.71492 4.04092
-1.8667 1.7138 4.03203
-1.88692 1.70638 4.00329
-1.90981 1.71461 4.01734
-1.91976 1.7187 4.02336
-1.92594 1.71137 4.00051
-1.94293 1.71438 4.00059
-1.96189 1.71948 4.00666
-1.97001 1.71425 3.9908
-1.98701 1.71726 3.99088
-1.99809 1.71511 3.97999
-2.01003 1.72023 3.98801
-2.01227 1.70878 3.95719
-2.03024 1.71384 3.96025
-2.04625 1.71583 3.95934
-2.05831 1.71471 3.95045
-2.07234 1.71566 3.94654
-2.08442 1.71352 3.93666
-2.09143 1.71449 3.9347
-2.10449 1.71339 3.92681
-2.11557 1.71225 3.91691
-2.12864 1.71112 3.90803
-2.14661 1.71518 3.9111
-2.15671 1.71299 3.89821
-2.1668 1.70982 3.88633
-2.17974 1.71495 3.89435
-2.19082 1.71381 3.88445
-2.20388 1.71269 3.87557
-2.21595 1.71256 3.86666
-2.23096 1.71454 3.86474
-2.24106 1.71136 3.85186
-2.25313 1.71024 3.84297
-2.26508 1.71433 3.849
-2.27419 1.71213 3.8351
-2.28922 1.71308 3.8312
-2.30622 1.71608 3.83028
-2.31632 1.71391 3.81839
-2.33232 1.71691 3.81746
-2.3434 1.71477 3.80758
-2.35339 1.71679 3.80862
-2.3546 1.70839 3.78175
-2.3716 1.71139 3.78084
-2.38565 1.71131 3.77494
-2.4056 1.7174 3.78
-2.41866 1.71729 3.7721
-2.42568 1.71826 3.77014
-2.43479 1.71506 3.75625
-2.45081 1.71703 3.75334
-2.46187 1.71591 3.74444
-2.47395 1.71577 3.73454
-2.48898 1.71672 3.73063
-2.50104 1.71661 3.72273
-2.50806 1.71757 3.71976
-2.5221 1.71849 3.71386
-2.53418 1.71735 3.70396
-2.54822 1.71829 3.69905
-2.56523 1.72127 3.69714
-2.57729 1.72116 3.68923
-2.58442 1.71691 3.67234
-2.5944 1.71995 3.67437
-2.60844 1.72089 3.66946
-2.61656 1.71766 3.65357
-2.62961 1.71756 3.64667
-2.66977 1.71928 3.62594
-2.67086 1.7161 3.614
-2.71398 1.7199 3.59826
-2.74306 1.72276 3.58744
-2.76116 1.72256 3.57358
-2.86769 1.72359 3.50335
3.79817 1.63324 2.2723
3.8154 1.64567 2.30199
3.80138 1.64065 2.30017
3.76733 1.62859 2.29461
3.75151 1.62995 2.31871
3.73368 1.62929 2.34086
3.71894 1.63281 2.37492
3.69809 1.63112 2.3951
3.68917 1.63129 2.40617
3.6704 1.63276 2.43729
2.59374 1.67283 3.54497
2.5032 1.6748 3.60663
2.3808 1.67706 3.68653
1.12682 1.69379 4.2238
0.927163 1.6946 4.2703
0.755456 1.69829 4.30954
0.682556 1.69953 4.32308
0.675548 1.69852 4.32214
0.601533 1.69455 4.32076
0.57851 1.69252 4.31796
0.564556 1.69362 4.32405
0.551665 1.69884 4.33807
0.536634 1.69679 4.33422
0.520533 1.69061 4.32143
0.508735 1.701 4.34737
0.499642 1.69583 4.33551
0.485681 1.69691 4.3406
0.471751 1.70006 4.34966
0.456697 1.69696 4.34282
0.44058 1.69076 4.32803
0.41279 1.70017 4.3551
0.403635 1.69189 4.33529
0.390744 1.6971 4.34931
0.375736 1.6961 4.34844
0.361791 1.69921 4.3555
0.346838 1.70131 4.36158
0.331737 1.69513 4.34879
0.316753 1.69617 4.35089
0.309815 1.69929 4.35889
0.294753 1.69519 4.35107
0.280831 1.69934 4.36111
0.265839 1.69937 4.36222
0.251854 1.69941 4.36433
0.237948 1.7046 4.37636
0.22184 1.6984 4.36257
0.214886 1.7005 4.36859
0.199887 1.70051 4.3687
0.185864 1.69947 4.36583
0.17084 1.69744 4.36297
0.155872 1.69951 4.36705
0.141942 1.70265 4.37611
0.126748 1.69229 4.35138
0.119865 1.69852 4.36634
0.104795 1.6944 4.35751
0.089679 1.68819 4.34271
0.0758582 1.69754 4.36568
0.0458747 1.69859 4.36789
0.0388128 1.69548 4.35999
-0.774744 1.69596 4.15609
-0.792611 1.70422 4.1731
-0.805687 1.70108 4.16324
-0.822562 1.70933 4.17925
-0.835623 1.70622 4.17139
-0.842638 1.7062 4.16945
-0.85666 1.70617 4.16655
-0.871651 1.70819 4.16764
-0.883752 1.70301 4.1548
-0.895836 1.69985 4.14394
-0.907952 1.69464 4.1291
-0.924833 1.70287 4.14411
-0.935717 1.7091 4.1591
-0.947808 1.70594 4.14724
-0.959908 1.70175 4.13439
-0.978759 1.71105 4.1534
-0.987922 1.70274 4.13259
-1.00485 1.70889 4.14163
-1.01986 1.70888 4.14074
-1.02589 1.70883 4.13678
-1.03896 1.70571 4.12793
-1.05298 1.70567 4.12503
-1.06603 1.70458 4.11815
-1.08198 1.70868 4.12421
-1.09698 1.70969 4.12431
-1.11098 1.7117 4.12438
-1.11996 1.71375 4.12742
-1.13301 1.71166 4.12055
-1.16006 1.71157 4.11375
-1.17604 1.71463 4.11683
-1.18909 1.71353 4.10994
-1.19416 1.7104 4.10102
-1.23526 1.70923 4.08735
-1.25122 1.71331 4.09241
-1.26331 1.71016 4.08155
-1.27927 1.71424 4.08661
-1.28728 1.71423 4.08567
-1.29836 1.71108 4.07479
-1.31435 1.71411 4.07587
-1.3274 1.71303 4.06998
-1.35543 1.71397 4.06518
-1.37044 1.71597 4.06426
-1.38953 1.71381 4.05244
-1.40452 1.71583 4.05352
-1.41856 1.71475 4.04764
-1.43257 1.71675 4.04672
-1.46471 1.71349 4.02801
-1.47776 1.71241 4.02212
-1.50385 1.71125 4.01033
-1.51593 1.70911 4.00045
-1.54888 1.71622 4.0066
-1.55394 1.71311 3.99868
-1.58197 1.71607 3.99485
-1.596 1.71601 3.98995
-1.62209 1.71485 3.97816
-1.63123 1.70959 3.96031
-1.65228 1.70952 3.95447
-1.66531 1.70945 3.94957
-1.68423 1.71661 3.9596
-1.69632 1.71446 3.94873
-1.70642 1.71026 3.93486
-1.72633 1.71745 3.94691
-1.73039 1.71534 3.93897
-1.7405 1.71214 3.92509
-1.76462 1.70892 3.90932
-1.78553 1.71709 3.92035
-1.79956 1.71704 3.91646
-1.80966 1.71486 3.90357
-1.81569 1.71381 3.89963
-1.83366 1.71788 3.9037
-1.84178 1.71365 3.88783
-1.86073 1.71875 3.89389
-1.88584 1.71756 3.8801
-1.89593 1.71439 3.86822
-1.90491 1.71643 3.87026
-1.91796 1.71635 3.86436
-1.93002 1.71624 3.85645
-1.95611 1.71606 3.84365
-1.96522 1.71186 3.82977
-1.98516 1.71798 3.83683
-1.98234 1.70965 3.81493
-1.99833 1.71268 3.81601
-2.01728 1.71777 3.82108
-2.03231 1.71873 3.81818
-2.04437 1.71862 3.81027
-2.05052 1.71233 3.7904
-2.06454 1.7133 3.78749
-2.07157 1.71324 3.78355
-2.08461 1.71418 3.77863
-2.10159 1.71822 3.7807
-2.11169 1.71504 3.76782
-2.12572 1.71599 3.76391
-2.14074 1.71795 3.761
-2.13791 1.70963 3.73909
-2.15292 1.71161 3.73718
-2.16794 1.71359 3.73526
-2.18393 1.7166 3.73534
-2.19205 1.71238 3.72046
-2.20806 1.71437 3.71855
-2.21717 1.71217 3.70465
-2.22221 1.7111 3.6997
-2.24018 1.71515 3.70278
-2.25027 1.71298 3.69089
-2.26036 1.71183 3.67998
-2.28031 1.71693 3.68605
-2.28842 1.71371 3.67116
-2.29951 1.71156 3.66027
-2.31144 1.71669 3.66829
-2.32253 1.71553 3.65739
-2.33754 1.71751 3.65547
-2.34962 1.71637 3.64558
-2.36977 1.71308 3.62478
-2.38283 1.71298 3.61787
-2.39479 1.71806 3.62289
-2.40684 1.71797 3.61598
-2.41692 1.71581 3.60509
-2.44401 1.71766 3.59326
-2.46911 1.71847 3.57944
-2.47514 1.71841 3.57548
-2.54138 1.72099 3.54394
-2.5475 1.71775 3.52803
-2.60178 1.71725 3.49144
3.93466 1.63324 1.80521
3.91417 1.64026 1.87327
3.91223 1.64136 1.88027
3.8954 1.63972 1.90342
3.87568 1.64128 1.94055
3.86978 1.64248 1.95358
3.85879 1.63851 1.95572
3.8549 1.64072 1.96972
3.83593 1.63481 1.97495
3.83505 1.63805 1.99091
3.81106 1.63008 1.99221
3.81018 1.63332 2.00817
3.80428 1.63452 2.0212
3.79228 1.63054 2.02235
3.79744 1.63683 2.04222
3.79656 1.64007 2.05818
3.7796 1.63617 2.06437
3.77269 1.63634 2.07542
3.77483 1.6406 2.09334
3.74983 1.63264 2.09465
3.74688 1.63374 2.10166
3.75204 1.64003 2.12153
3.73809 1.63715 2.12868
3.73219 1.63735 2.14172
3.73533 1.64362 2.16061
3.71837 1.63871 2.16581
3.70643 1.63685 2.17493
3.71756 1.64408 2.19074
3.69859 1.63915 2.19495
3.6776 1.6322 2.19722
3.68276 1.63951 2.21807
3.66781 1.63562 2.22524
3.66593 1.63884 2.24021
3.668 1.64199 2.25015
3.65507 1.64013 2.25928
3.64515 1.63929 2.26937
3.64024 1.64149 2.28237
3.62429 1.63759 2.28855
3.6214 1.63981 2.30354
3.62154 1.64508 2.32147
3.60752 1.64006 2.31964
3.59861 1.64023 2.33071
3.59472 1.64245 2.34571
3.58379 1.64059 2.35482
3.57587 1.64076 2.36588
3.575 1.64501 2.38282
3.56205 1.64313 2.38995
3.55408 1.64119 2.39404
3.54918 1.64339 2.40705
3.53926 1.64254 2.41714
3.53436 1.64475 2.43114
3.52343 1.6439 2.44024
3.51451 1.64406 2.4513
3.49855 1.64015 2.45648
3.50466 1.64535 2.47036
3.49373 1.64551 2.48044
3.47978 1.64261 2.48659
-1.13785 1.713 4.00855
-1.14798 1.70777 3.9927
-1.20697 1.71381 3.99305
-1.22505 1.71166 3.98222
-1.32725 1.71334 3.95596
-1.3403 1.71226 3.95008
-1.35432 1.71322 3.94717
-1.36737 1.71215 3.94128
-1.37843 1.71002 3.93239
-1.38544 1.71001 3.93145
-1.39849 1.70993 3.92555
-1.41249 1.71093 3.92464
-1.43661 1.70771 3.90886
-1.45162 1.7097 3.90795
-1.46564 1.70967 3.90505
-1.47069 1.70858 3.89911
-1.48666 1.71265 3.90317
-1.50068 1.71262 3.90027
-1.51274 1.71151 3.89238
-1.52579 1.71042 3.88549
-1.53685 1.70931 3.87759
-1.5499 1.70821 3.8707
-1.55887 1.71128 3.87473
-1.57191 1.71121 3.86983
-1.58201 1.70703 3.85696
-1.59798 1.71108 3.86002
-1.61397 1.71413 3.8621
-1.62309 1.7089 3.84624
-1.63906 1.71297 3.8503
-1.64412 1.71085 3.84237
-1.65716 1.71079 3.83747
-1.66824 1.70863 3.82658
-1.68322 1.71167 3.82865
-1.69529 1.70955 3.81977
-1.71227 1.7136 3.82284
-1.72136 1.71043 3.81096
-1.72838 1.71039 3.80801
-1.74338 1.7124 3.80809
-1.75937 1.71543 3.80917
-1.76749 1.7112 3.79329
-1.78152 1.71115 3.78939
-1.79751 1.71518 3.79046
-1.80452 1.71517 3.78951
-1.81068 1.70786 3.76866
-1.83061 1.71501 3.77771
-1.84364 1.71596 3.77379
-1.85372 1.7138 3.7629
-1.86973 1.7158 3.76199
-1.88178 1.71471 3.75509
-1.88091 1.70845 3.73818
-1.92594 1.71441 3.73343
-1.94193 1.71744 3.7345
-1.95718 1.70798 3.70275
-1.98314 1.71507 3.70784
-1.99324 1.71188 3.69497
-2.00923 1.7149 3.69504
-2.02423 1.71791 3.69511
-2.0284 1.70958 3.67326
-2.04737 1.71566 3.67732
-2.05141 1.71357 3.67138
-2.06249 1.71243 3.66147
-2.07947 1.71647 3.66354
-2.08955 1.71433 3.65365
-2.09768 1.70909 3.63679
-2.11366 1.71313 3.63885
-2.12474 1.71199 3.62895
-2.13077 1.71193 3.62499
-2.14676 1.71494 3.62507
-2.1689 1.71269 3.60727
-2.19794 1.71563 3.60144
-2.20407 1.71138 3.58455
-2.21603 1.71548 3.59058
-2.22808 1.71538 3.58367
-2.24211 1.71733 3.57974
-2.26919 1.71819 3.56893
-2.28026 1.71806 3.56002
-2.30841 1.71577 3.53926
-2.32146 1.71669 3.53334
-2.34755 1.71753 3.52153
-2.37768 1.71729 3.50376
3.62003 1.64012 2.12152
3.60608 1.63723 2.12867
3.60018 1.63841 2.1407
3.60326 1.64157 2.15163
3.59937 1.64378 2.16563
3.59246 1.64496 2.17767
3.58454 1.64513 2.18872
3.57562 1.64429 2.19881
3.57475 1.64854 2.21575
3.5608 1.64565 2.2229
3.55884 1.64674 2.2289
3.55093 1.64693 2.24096
3.53712 1.64829 2.26505
3.53121 1.64948 2.27707
3.51437 1.64981 2.2992
3.51042 1.6499 2.30523
3.4648 1.64869 2.3566
3.45695 1.65098 2.37562
3.44803 1.65115 2.38669
3.42918 1.65046 2.40685
3.41422 1.64655 2.41202
3.40832 1.64874 2.42503
3.39839 1.6479 2.43512
3.39846 1.65003 2.44409
3.39256 1.65223 2.4571
-1.15989 1.69599 3.87195
-1.17195 1.69489 3.86505
-1.18595 1.6959 3.86514
-1.20095 1.6979 3.86423
-1.21884 1.70612 3.87824
-1.22894 1.70193 3.86538
-1.2379 1.70502 3.8704
-1.25093 1.70497 3.8665
-1.262 1.70284 3.85761
-1.27699 1.70487 3.8587
-1.28613 1.69861 3.84086
-1.29721 1.69545 3.82998
-1.3112 1.69748 3.83106
-1.31723 1.69642 3.82712
-1.32928 1.69534 3.82123
-1.34329 1.69632 3.81932
-1.35828 1.69835 3.8204
-1.36936 1.69621 3.81051
-1.39215 1.71062 3.83748
-1.39347 1.69402 3.79673
-1.39948 1.69399 3.79477
-1.4135 1.69496 3.79186
-1.42653 1.69492 3.78896
-1.44055 1.69589 3.78605
-1.47052 1.70196 3.78919
-1.4806 1.69882 3.77931
-1.48566 1.6967 3.77138
-1.49869 1.69665 3.76748
-1.51074 1.69556 3.76058
-1.52671 1.69963 3.76464
-1.55277 1.70053 3.75682
-1.55684 1.69738 3.7469
-1.56888 1.69732 3.74199
-1.58387 1.69934 3.74307
-1.59692 1.69926 3.73717
-1.62591 1.70428 3.73732
-1.63501 1.7001 3.72445
-1.64105 1.69903 3.71951
-1.6531 1.69793 3.71261
-1.67103 1.70408 3.72166
-1.67917 1.69882 3.70379
-1.69613 1.70391 3.70885
-1.71013 1.70592 3.70892
-1.71924 1.70172 3.69505
-1.72624 1.70271 3.69409
-1.74125 1.7047 3.69317
-1.75036 1.7005 3.6793
-1.76534 1.70354 3.68137
-1.77544 1.70036 3.66849
-1.78453 1.69719 3.65661
-1.80543 1.70639 3.66963
-1.8085 1.70325 3.6597
-1.82056 1.70214 3.6518
-1.83555 1.70516 3.65287
-1.84761 1.70407 3.64598
-1.85868 1.70294 3.63708
-1.87367 1.70595 3.63714
-1.89064 1.71002 3.64121
-1.89175 1.70482 3.6273
-1.90478 1.70575 3.62238
-1.91978 1.70878 3.62345
-1.92691 1.70252 3.60559
-1.94388 1.70759 3.60965
-1.951 1.70236 3.59377
-1.96208 1.70122 3.58387
-1.97204 1.7053 3.58889
-1.98606 1.70626 3.58598
-1.99516 1.70308 3.57309
-2.01213 1.70815 3.57715
-2.02222 1.70598 3.56525
-2.04214 1.71314 3.5753
-2.04434 1.70376 3.54945
-2.05135 1.70475 3.54849
-2.06832 1.70881 3.55156
-2.07643 1.70559 3.53666
-2.09145 1.70757 3.53475
-2.10152 1.70543 3.52485
-2.11555 1.7074 3.52193
-2.12452 1.71045 3.52495
-2.13361 1.70828 3.51305
-2.14961 1.71129 3.51313
-2.1587 1.70812 3.50124
-2.16976 1.70801 3.49333
-2.17984 1.70587 3.48343
-2.19683 1.70989 3.4845
-2.20592 1.70772 3.4726
-2.20997 1.70562 3.46566
-2.22596 1.70965 3.46672
-2.23702 1.70854 3.45882
-2.24908 1.70843 3.45091
-2.26606 1.71348 3.45396
-2.27219 1.70824 3.43709
-2.29215 1.71432 3.44215
-2.29619 1.71324 3.43619
-2.31021 1.7152 3.43327
-2.3193 1.71303 3.42137
-2.32741 1.70983 3.40747
-2.34538 1.7149 3.41154
-2.35941 1.71684 3.40661
-2.36751 1.71367 3.39472
-2.37452 1.71464 3.39276
-2.38263 1.71144 3.37886
-2.39269 1.71032 3.36995
-2.41364 1.71742 3.37601
-2.45088 1.71499 3.34532
-2.45799 1.71179 3.33142
-2.47597 1.71681 3.33248
-2.49612 1.71455 3.31366
-2.51923 1.71434 3.29884
-2.52428 1.71326 3.29289
-2.56438 1.71806 3.27812
-2.57049 1.71486 3.26421
-2.58552 1.71681 3.26029
-2.5956 1.71567 3.25039
3.83599 1.63502 1.5839
3.83209 1.63622 1.59691
3.81537 1.63778 1.63402
3.81542 1.63888 1.641
3.8036 1.63924 1.66509
3.60815 1.64438 2.00353
3.60016 1.64241 2.00562
3.59426 1.64361 2.01865
3.58835 1.64479 2.03068
3.57842 1.64293 2.03978
3.56171 1.64651 2.07786
3.50929 1.64768 2.15525
3.49232 1.64277 2.16045
3.49044 1.64699 2.1754
3.48051 1.64615 2.18549
3.47762 1.64836 2.19948
3.47171 1.64954 2.21151
3.46178 1.64868 2.2206
3.45783 1.64877 2.22663
3.44991 1.64894 2.23769
3.36375 1.65065 2.34933
3.32509 1.65036 2.39563
3.31215 1.64847 2.40276
3.30329 1.65076 2.42179
-1.30772 1.70944 3.76085
-1.31586 1.70218 3.74301
-1.31797 1.69697 3.7291
-1.35509 1.69476 3.71341
-1.3691 1.69676 3.71249
-1.38114 1.69669 3.70758
-1.39514 1.69769 3.70667
-1.41028 1.69243 3.68886
-1.42526 1.69547 3.69093
-1.44837 1.69328 3.67713
-1.4653 1.69943 3.68617
-1.47441 1.69421 3.67132
-1.47946 1.69313 3.66537
-1.49346 1.69412 3.66446
-1.50452 1.69403 3.65754
-1.5205 1.69707 3.65962
-1.53058 1.69393 3.64974
-1.54261 1.69386 3.64483
-1.56266 1.69479 3.63897
-1.5737 1.69371 3.63307
-1.58574 1.69364 3.62816
-1.6027 1.69873 3.63321
-1.61082 1.6935 3.61735
-1.62483 1.69549 3.61642
-1.64079 1.70058 3.62147
-1.64583 1.69849 3.61554
-1.66378 1.70459 3.62158
-1.6709 1.69938 3.60671
-1.68295 1.69828 3.59982
-1.69401 1.69719 3.59291
-1.70901 1.70018 3.59198
-1.71404 1.69913 3.58804
-1.74502 1.70518 3.59018
-1.74919 1.69686 3.56833
-1.76714 1.70296 3.57438
-1.78017 1.70392 3.57146
-1.78828 1.69971 3.55658
-1.79626 1.70174 3.55861
-1.81225 1.70578 3.56067
-1.82035 1.70158 3.5468
-1.83338 1.70253 3.54288
-1.84839 1.70453 3.54196
-1.8555 1.69931 3.52709
-1.87248 1.70437 3.53014
-1.87947 1.70639 3.53117
-1.88463 1.69908 3.51031
-1.89274 1.69488 3.49643
-1.9107 1.69997 3.50149
-1.92569 1.70299 3.50256
-1.93576 1.70185 3.49265
-1.94979 1.70282 3.48974
-1.95581 1.70278 3.48679
-1.95996 1.6965 3.46791
-1.97694 1.70054 3.46998
-1.98504 1.69735 3.45709
-1.99904 1.69935 3.45616
-2.01603 1.70338 3.45723
-2.02413 1.70019 3.44434
-2.0262 1.69706 3.4354
-2.04811 1.70624 3.44643
-2.05424 1.701 3.43055
-2.08326 1.70597 3.42669
-2.09826 1.70898 3.42676
-2.11523 1.71403 3.42982
-2.32408 1.7165 3.31734
-2.32329 1.70711 3.29147
-2.33237 1.70496 3.28057
-2.33641 1.70388 3.27561
-2.35557 1.70059 3.2548
-2.37255 1.70563 3.25686
-2.37866 1.70141 3.24196
-2.38972 1.7013 3.23405
-2.40275 1.70325 3.23011
-2.40185 1.69806 3.21718
-2.41489 1.69899 3.21227
-2.43881 1.70916 3.2223
-2.43998 1.70084 3.20043
-2.45796 1.70688 3.20247
-2.46803 1.70575 3.19356
-2.48007 1.70667 3.18764
-2.4851 1.70662 3.18368
-2.49715 1.70652 3.17677
-2.50722 1.70639 3.16785
-2.51532 1.70321 3.15495
-2.54337 1.70812 3.14809
-2.54247 1.70293 3.13516
-2.55748 1.70591 3.13323
-2.56854 1.7058 3.12531
-2.58455 1.7098 3.12437
-2.60154 1.71483 3.12543
-2.79673 1.71261 2.96791
3.41601 1.6472 2.11895
3.36358 1.64935 2.19433
3.3131 1.65141 2.26369
3.2745 1.65222 2.31697
3.26457 1.65237 2.32605
3.26162 1.65246 2.33207
2.93138 1.6601 2.69949
-1.31372 1.71049 3.62886
-1.32674 1.71045 3.62596
-1.33081 1.70732 3.61703
-1.34186 1.70523 3.61015
-1.35781 1.71033 3.61619
-1.36789 1.70818 3.6063
-1.37993 1.7071 3.6004
-1.39492 1.71015 3.60247
-1.40499 1.70802 3.59358
-1.41198 1.71004 3.5946
-1.425 1.71 3.5917
-1.43802 1.71097 3.58878
-1.44908 1.70986 3.58088
-1.4621 1.70982 3.57798
-1.49122 1.70862 3.56321
-1.50424 1.70959 3.5603
-1.53027 1.71153 3.55546
-1.58345 1.71022 3.53188
-1.59451 1.70911 3.52398
-1.63358 1.712 3.51523
-1.64968 1.70882 3.5024
-1.68677 1.71065 3.48965
-1.75002 1.70821 3.45715
-2.09422 1.71408 3.29864
-2.10735 1.71084 3.28178
-2.17358 1.71342 3.25124
-2.18463 1.71333 3.24432
5.35218 1.24536 8.02113
5.51567 1.24034 7.55391
5.3528 1.25976 7.30481
5.79838 1.23697 5.9196
5.60422 1.24871 6.16393
5.61952 1.25627 6.2027
5.58351 1.25229 6.20203
5.56465 1.25258 6.22117
5.50135 1.25899 6.31357
5.45205 1.24845 6.27509
5.42714 1.24764 6.28729
5.41938 1.25112 6.3193
5.36013 1.25962 6.41764
4.6435 1.27768 6.99985
4.63579 1.28225 7.03785
4.61695 1.28357 7.05897
4.58698 1.28165 7.06323
4.56004 1.28079 7.07144
4.54708 1.28088 7.07654
4.52216 1.28006 7.08774
4.50838 1.2835 7.1168
4.50576 1.29124 7.16671
4.46463 1.28502 7.15011
4.44682 1.28739 7.17421
4.41581 1.28441 7.17449
4.43529 1.29531 7.23619
4.382 1.28579 7.19873
4.36418 1.28816 7.22283
4.35548 1.29374 7.26182
4.32854 1.29288 7.27004
4.28741 1.28666 7.25343
4.26857 1.289 7.27554
4.25154 1.28695 7.2717
4.23068 1.28823 7.28984
4.18998 1.29085 7.33012
4.17014 1.29216 7.35025
4.11343 1.29478 7.38964
4.08548 1.29289 7.39588
4.07477 1.29848 7.43489
4.04783 1.2976 7.4421
4.02799 1.29994 7.46422
4.00003 1.29803 7.46946
4.00253 1.30899 7.53429
3.97941 1.30479 7.51952
3.96263 1.30822 7.5476
3.94483 1.31063 7.5747
3.91483 1.30865 7.57496
3.87265 1.30233 7.55137
3.84875 1.30255 7.56555
3.81876 1.30059 7.5668
3.82713 1.30931 7.61562
3.81036 1.31275 7.6447
3.76003 1.30316 7.60321
3.73919 1.30449 7.62435
3.72038 1.30686 7.64846
3.69852 1.30915 7.66759
3.67361 1.30934 7.67878
3.65251 1.30617 7.66699
3.66116 1.31943 7.75174
3.63524 1.31959 7.76193
3.61339 1.3219 7.78206
3.58949 1.32211 7.79524
3.57476 1.32666 7.83129
6.03176 1.2328 5.03978
6.01491 1.23309 5.05891
6.00698 1.23324 5.06897
6.01529 1.23884 5.10983
5.99038 1.23804 5.12203
5.9695 1.23728 5.1372
5.9476 1.2365 5.15138
5.97405 1.24735 5.21003
5.9582 1.24766 5.23014
5.95935 1.24994 5.24911
5.93342 1.24811 5.25933
5.90649 1.24626 5.26856
5.88158 1.24446 5.28078
5.87077 1.24684 5.30583
5.88513 1.25454 5.35361
5.83115 1.24861 5.35611
5.79314 1.24362 5.35547
5.81255 1.2534 5.40918
5.80879 1.25688 5.44116
5.76474 1.25081 5.43458
5.73477 1.24791 5.43985
5.70972 1.24482 5.43309
5.69488 1.24514 5.4542
5.70624 1.25283 5.501
5.67427 1.24991 5.50529
5.6554 1.25019 5.52343
5.6456 1.25258 5.54947
5.60354 1.24651 5.54288
5.57876 1.24796 5.57205
5.56493 1.24929 5.59413
5.39699 1.26843 5.86615
6.02614 1.24066 4.55764
6.00524 1.23888 4.57183
5.97843 1.23927 4.59703
5.95855 1.23851 4.61219
5.95879 1.24198 4.64414
5.97916 1.25069 4.69287
5.95021 1.24782 4.70013
5.93537 1.24913 4.72023
5.90529 1.243 4.71054
5.92667 1.25272 4.76024
5.87759 1.24461 4.75073
5.88488 1.25117 4.78858
5.87406 1.25253 4.81265
5.84335 1.25312 4.85088
5.82938 1.25219 4.855
5.80747 1.25138 4.86718
5.79665 1.25274 4.89124
5.80395 1.25932 4.93009
5.78507 1.25857 4.94625
5.75914 1.25673 4.95647
5.74127 1.25698 4.97261
5.74442 1.25928 4.99255
5.61566 1.2658 5.15745
4.95265 1.28304 5.82128
4.90914 1.28903 5.88653
4.87814 1.28506 5.88682
4.86719 1.28515 5.8929
4.84356 1.28991 5.94302
4.81055 1.2869 5.94131
4.78258 1.28398 5.94556
4.58232 1.29952 6.17587
5.77814 1.2628 4.55618
5.76127 1.26206 4.57333
5.67121 1.26698 4.69895
5.11374 1.28024 5.30103
5.03528 1.28136 5.37362
5.03254 1.28686 5.40756
4.89311 1.28208 5.4837
4.81538 1.27867 5.52034
4.80657 1.28106 5.54637
4.59665 1.30125 5.82069
4.55856 1.29512 5.81007
4.44166 1.30635 5.9558
2.19195 1.37702 7.32489
5.9525 1.25659 3.80686
5.90345 1.24854 3.80135
4.89842 1.29179 5.12646
4.88255 1.29305 5.14357
4.86769 1.29333 5.16168
4.84677 1.2925 5.17285
4.83795 1.29587 5.19687
4.81603 1.29403 5.20706
4.80507 1.29411 5.21214
4.77433 1.29564 5.24636
4.73222 1.28846 5.23278
4.47709 1.2983 5.48159
4.48042 1.30494 5.52447
4.45242 1.30197 5.52573
4.43151 1.30215 5.53688
4.4126 1.30134 5.54904
4.3758 1.30177 5.57631
2.17174 1.38668 7.03086
2.14468 1.38358 7.02311
2.11968 1.38258 7.02231
2.09159 1.37844 7.01159
2.07651 1.3763 7.00173
2.0577 1.37967 7.02582
2.03679 1.38086 7.03797
2.01693 1.38416 7.05707
1.99811 1.38751 7.08016
5.73203 1.26188 3.4794
5.74832 1.26941 3.51617
5.73244 1.26866 3.5323
5.71253 1.26686 3.54448
5.67905 1.2699 3.6137
5.66718 1.27018 3.63178
5.60163 1.2671 3.69133
5.60987 1.27257 3.72319
5.57478 1.26541 3.71156
5.58705 1.27294 3.74736
5.55952 1.27586 3.80854
5.53457 1.273 3.81677
5.51667 1.2722 3.82992
5.48861 1.26611 3.82222
5.46308 1.27104 3.88434
5.30304 1.28299 4.14441
4.68447 1.30506 4.86584
4.63189 1.30693 4.92222
4.52926 1.30173 4.97207
4.51324 1.29971 4.97022
4.5024 1.30101 4.99029
4.4855 1.30123 5.00442
4.31061 1.30454 5.15271
4.29358 1.30149 5.14888
4.24188 1.30211 5.18826
2.05007 1.39448 6.67461
1.94031 1.39503 6.70744
1.90908 1.38661 6.67779
5.47411 1.28217 3.48804
5.46424 1.28244 3.50611
5.42522 1.27544 3.50451
5.42743 1.27984 3.53143
5.41959 1.28116 3.55248
5.41063 1.28025 3.55856
5.35741 1.28581 3.66189
5.34051 1.28502 3.67503
5.31456 1.28114 3.68228
5.23388 1.27382 3.72501
5.22996 1.27499 3.73602
5.2362 1.28044 3.7669
5.15161 1.29426 3.95336
5.11881 1.29268 3.98063
5.01146 1.28903 4.0675
4.98942 1.28498 4.06273
4.97553 1.28521 4.07783
4.98682 1.29276 4.11564
4.96309 1.2943 4.1508
4.96431 1.29873 4.17973
4.93845 1.29803 4.19894
4.92457 1.29827 4.21504
4.89256 1.29328 4.21436
4.87565 1.29247 4.2265
1.99493 1.39731 6.39095
1.97911 1.40066 6.41402
5.28936 1.28881 3.38832
5.21451 1.27817 3.41005
5.20062 1.27841 3.42515
5.24003 1.29316 3.47764
5.218 1.28813 3.47488
5.16307 1.28031 3.48441
5.19143 1.29198 3.53103
5.16868 1.29249 3.5642
5.13668 1.28752 3.56551
5.13175 1.28766 3.57455
5.14 1.29413 3.6064
5.11403 1.29022 3.61165
5.12831 1.29774 3.64744
5.10738 1.29591 3.65762
5.09249 1.29513 3.67175
5.05043 1.28705 3.66518
5.04751 1.2882 3.67519
4.95511 1.28446 3.75595
4.97152 1.29624 3.80966
4.9546 1.29442 3.82082
4.9216 1.28943 3.82014
4.91979 1.2928 3.84511
4.92301 1.29723 3.87402
4.85023 1.29072 3.90467
4.82589 1.30003 3.99173
4.80484 1.29596 3.98595
4.80908 1.30141 4.01684
4.65652 1.30833 4.20791
4.64062 1.30855 4.22203
4.61867 1.30566 4.22824
4.57757 1.29751 4.21667
4.5647 1.29876 4.23275
4.17821 1.32389 4.69835
4.13553 1.32556 4.74166
3.98661 1.33277 4.88469
3.96161 1.32881 4.88594
3.94974 1.33107 4.903
2.07658 1.38863 6.07842
5.12634 1.29491 3.25344
5.08832 1.28789 3.25083
5.06738 1.28504 3.26003
5.05952 1.28632 3.27807
5.06071 1.29068 3.303
5.03283 1.28694 3.31927
5.02313 1.29154 3.35928
5.02333 1.29593 3.38522
4.99837 1.29202 3.39047
4.97542 1.28814 3.3977
4.9917 1.29767 3.43444
4.78102 1.30837 3.74291
4.75807 1.30548 3.74913
4.75122 1.30678 3.76916
4.70954 1.30743 3.81147
4.69665 1.30766 3.82657
4.66654 1.29948 3.81291
4.64761 1.29863 3.82207
4.64982 1.30304 3.84999
4.60995 1.29932 3.86735
4.61317 1.30475 3.89625
4.62355 1.31448 3.94603
4.54522 1.31684 4.0346
4.49092 1.3013 3.99623
4.41066 1.30581 4.09479
4.41009 1.31564 4.15065
4.38208 1.31066 4.15094
4.36818 1.31086 4.16404
4.37646 1.31839 4.19987
4.35551 1.31651 4.20706
4.36369 1.32286 4.23091
4.29018 1.32286 4.29547
4.27842 1.32634 4.32751
4.21074 1.32403 4.37106
4.18194 1.32443 4.39728
4.15279 1.31617 4.37861
4.16615 1.32684 4.42436
4.13433 1.32722 4.4486
4.07181 1.33022 4.51304
4.02763 1.31889 4.48953
4.04301 1.33062 4.53925
4.01624 1.33309 4.56942
3.98304 1.32273 4.54382
3.98126 1.32816 4.57276
3.95829 1.32523 4.57697
3.94944 1.32853 4.59699
3.94867 1.33398 4.62692
3.86293 1.32856 4.66265
3.81898 1.3237 4.67006
3.81646 1.33563 4.73291
3.80573 1.34116 4.76791
3.78376 1.33923 4.77211
3.77391 1.34152 4.79115
3.74487 1.33647 4.78644
3.72895 1.33664 4.79756
3.71215 1.34005 4.82464
3.68815 1.33707 4.82487
3.66821 1.33619 4.83203
3.65533 1.33744 4.84811
3.65256 1.3429 4.87906
4.92419 1.30373 3.23283
4.89118 1.29774 3.23217
4.87024 1.29487 3.24037
4.8663 1.29501 3.2494
4.77183 1.30907 3.45193
4.75995 1.3093 3.46702
4.71778 1.29801 3.4455
4.70287 1.29719 3.45762
4.68897 1.29741 3.47173
4.67909 1.29766 3.4878
4.68833 1.30511 3.51863
4.63383 1.30613 3.58503
4.61792 1.30531 3.59716
4.60905 1.30657 3.61421
4.58609 1.30366 3.61943
4.58124 1.30598 3.64044
4.59544 1.31234 3.66524
4.58757 1.31461 3.68327
4.56663 1.31173 3.69047
4.48886 1.30326 3.72318
4.47506 1.30565 3.74926
4.47526 1.31004 3.77519
4.48753 1.31856 3.81098
4.45852 1.31357 3.81027
4.39597 1.31349 3.86975
4.37703 1.31162 3.87792
4.3722 1.31495 3.89991
4.33331 1.3102 3.91528
4.33442 1.31342 3.93023
4.32051 1.31361 3.94233
4.25604 1.31568 4.01179
4.24607 1.31475 4.01588
4.24224 1.31809 4.03887
4.14504 1.32171 4.14456
4.12307 1.3198 4.14975
4.12228 1.3242 4.1767
4.08529 1.31926 4.17905
4.08248 1.32262 4.20302
4.03819 1.33404 4.2972
3.9484 1.32552 4.32601
3.93651 1.32675 4.34108
3.9206 1.32693 4.3522
3.90961 1.32497 4.35431
3.8947 1.32515 4.36643
3.8853 1.33931 4.4443
3.74506 1.33991 4.54636
3.73823 1.34324 4.56836
3.71626 1.34032 4.57257
3.69225 1.33732 4.5718
3.68846 1.34172 4.59877
3.6584 1.33664 4.59207
3.63641 1.33369 4.59428
2.34334 1.38911 5.51432
4.75734 1.31516 3.1199
4.72935 1.31021 3.12219
4.6913 1.30115 3.11661
4.68645 1.30344 3.13561
4.69157 1.30767 3.15151
4.66559 1.30273 3.15478
4.24174 1.31816 3.70582
4.23186 1.3194 3.72188
4.18811 1.31794 3.75624
4.15233 1.31738 3.78452
4.16159 1.32489 3.81934
4.15575 1.32819 3.83934
4.11362 1.31798 3.82381
4.06796 1.31868 3.86915
4.08631 1.33033 3.91384
4.04942 1.32658 3.92918
3.9967 1.32517 3.9666
3.99489 1.32954 3.99155
3.96182 1.32243 3.98291
3.95821 1.33219 4.0338
3.89338 1.32659 4.05837
3.8825 1.32782 4.07344
3.5709 1.34473 4.39158
3.55396 1.34386 4.39972
3.13223 1.35061 4.70284
3.0669 1.36196 4.79117
3.0239 1.35699 4.79157
3.02027 1.36772 4.84045
3.00131 1.3668 4.8456
2.9712 1.3596 4.83094
4.57762 1.32186 3.02414
4.55097 1.32456 3.07031
4.54108 1.32479 3.08538
4.50001 1.31468 3.07684
4.34931 1.31436 3.25101
4.35141 1.31655 3.26396
4.26115 1.31705 3.36165
4.25428 1.31831 3.37868
4.2345 1.31975 3.40781
4.22863 1.32202 3.42583
4.21061 1.31799 3.42302
4.0589 1.32263 3.59512
4.04398 1.32179 3.60525
4.03611 1.32305 3.62229
3.99738 1.32361 3.65858
3.98548 1.32381 3.67166
3.51693 1.3389 4.13103
3.38887 1.34683 4.2559
3.28855 1.35122 4.3456
3.2898 1.35871 4.37849
3.27285 1.35782 4.38563
3.24782 1.35378 4.38188
3.24187 1.35388 4.38792
3.18799 1.35015 4.40438
3.13347 1.35713 4.4677
3.12462 1.36043 4.48772
3.04201 1.36126 4.54034
2.54941 1.3763 4.85987
4.36036 1.33148 2.98963
4.31727 1.32035 2.97912
4.32246 1.32572 3.00401
4.31157 1.32593 3.01809
4.28851 1.31983 3.01035
4.26855 1.31693 3.01654
4.25278 1.31839 3.04665
4.26302 1.32684 3.07745
4.23098 1.3188 3.07381
4.23617 1.32517 3.09868
4.23023 1.32528 3.10572
4.2314 1.32962 3.12865
4.21279 1.33439 3.17973
4.19283 1.33148 3.18492
4.19401 1.33583 3.20885
4.19108 1.33796 3.21784
4.16507 1.33198 3.21813
4.15317 1.33217 3.23022
4.13119 1.32825 3.23444
4.09429 1.32347 3.24779
4.08548 1.32584 3.27283
4.08282 1.3345 3.31672
4.07695 1.33677 3.33474
4.03225 1.33539 3.3751
4.02941 1.3387 3.39608
4.00157 1.33803 3.4173
3.97757 1.33305 3.41755
3.96062 1.33117 3.42471
3.94066 1.32826 3.4299
3.93874 1.33041 3.43989
3.95404 1.34097 3.47862
3.926 1.33493 3.47492
3.91245 1.34382 3.5339
3.87938 1.33571 3.52527
3.88048 1.3389 3.53821
3.85245 1.33286 3.53451
3.83954 1.33305 3.54661
3.83569 1.33635 3.56659
3.81873 1.33445 3.57275
3.81288 1.33673 3.59176
3.81307 1.3421 3.61669
3.79118 1.34134 3.63186
3.7591 1.33322 3.62222
3.71479 1.34358 3.71242
3.70591 1.34583 3.72845
3.68493 1.34289 3.73166
3.64801 1.33806 3.74201
3.64407 1.33918 3.75002
3.62227 1.3416 3.77715
3.61742 1.3449 3.79714
3.61057 1.34818 3.81615
3.60188 1.3548 3.85712
3.59493 1.35489 3.86317
3.50997 1.34204 3.87
3.47616 1.34144 3.89527
3.45235 1.34282 3.92043
3.43279 1.3527 3.97844
3.40876 1.34767 3.9757
3.4018 1.34775 3.98075
3.41414 1.36039 4.02448
3.3416 1.36235 4.086
3.32263 1.36042 4.09017
3.3168 1.36475 4.11216
3.29681 1.36078 4.11337
3.20631 1.36284 4.18103
3.19239 1.363 4.19113
3.13634 1.35295 4.1857
3.12343 1.35414 4.19778
3.1095 1.35428 4.20689
2.46494 1.37945 4.66443
4.24255 1.33397 2.88247
4.23567 1.33519 2.8975
4.22468 1.33323 2.89962
4.20976 1.33139 2.90976
4.19181 1.32851 2.91694
4.1819 1.32871 2.93001
4.19414 1.33816 2.96078
4.18727 1.3394 2.97682
4.16227 1.33343 2.97809
4.15832 1.33454 2.98511
4.13837 1.33164 2.9913
4.12545 1.32981 3.00243
4.11455 1.33001 3.01551
4.045 1.32695 3.07609
3.90456 1.33911 3.28299
3.83501 1.33705 3.34356
3.6554 1.3409 3.52888
3.64248 1.34106 3.53898
3.61966 1.34143 3.56315
3.61784 1.34577 3.5861
3.60995 1.348 3.60113
3.60107 1.35024 3.61716
3.61327 1.3576 3.64196
3.58926 1.35261 3.64122
3.56423 1.34758 3.63848
3.53618 1.34151 3.63278
3.90453 1.33511 3.01302
3.8916 1.33427 3.02313
3.8968 1.34065 3.049
3.88085 1.33876 3.05615
3.88202 1.34409 3.07806
3.87111 1.34427 3.09014
3.85307 1.33921 3.08535
3.83813 1.33734 3.0935
3.82118 1.33546 3.10065
3.74287 1.33786 3.19222
3.73498 1.33907 3.20626
3.72911 1.34133 3.22328
3.71315 1.33943 3.22942
3.71123 1.34158 3.23941
3.70737 1.34386 3.25841
3.7136 1.35229 3.28724
3.69261 1.34833 3.28946
3.68674 1.35059 3.30647
3.68691 1.35491 3.32841
3.59414 1.34346 3.36128
3.58827 1.34571 3.37829
3.57846 1.35009 3.40331
3.56856 1.35029 3.41638
3.56471 1.35457 3.43535
3.54574 1.35165 3.43953
3.53281 1.3508 3.44965
3.53905 1.35926 3.48048
3.49394 1.34708 3.467
3.86545 1.33402 2.87031
3.88171 1.34451 2.90403
3.89185 1.35077 2.92187
3.82545 1.35199 3.00136
3.81152 1.35113 3.01048
3.765 1.35411 3.0748
3.75703 1.35318 3.07887
3.73117 1.35148 3.09809
3.7122 1.34855 3.10228
3.70935 1.35183 3.12125
3.69944 1.35202 3.13333
3.68852 1.35219 3.14441
3.69264 1.35641 3.15932
3.6787 1.35555 3.16844
3.53398 1.36316 3.33844
3.52207 1.36333 3.34953
3.50308 1.35937 3.35173
3.47907 1.35438 3.35098
3.47017 1.35558 3.36403
3.48034 1.36289 3.38585
3.47044 1.36409 3.39891
3.44054 1.36132 3.41318
3.42459 1.35944 3.42033
3.41569 1.36064 3.43338
3.40479 1.36182 3.44545
3.38268 1.35365 3.43273
3.38085 1.35897 3.45467
3.36186 1.35502 3.45687
3.34591 1.35412 3.46301
3.25524 1.37383 3.37238
3.24332 1.37399 3.38247
3.22634 1.37206 3.38663
3.2145 1.37438 3.40769
3.19148 1.36935 3.40494
3.16744 1.3633 3.40021
3.14945 1.36034 3.40239
3.05714 1.36576 3.49401
2.93767 1.37589 3.43075
2.90664 1.36886 3.42709
2.91491 1.37937 3.46188
2.88984 1.37327 3.45416
2.87488 1.37136 3.4593
2.87233 1.38621 3.51711
2.85029 1.38117 3.51335
2.81127 1.37316 3.51076
-3.95696 0.886962 3.28691
-3.92767 0.869565 3.19394
-4.08302 1.02765 3.66483
-4.05371 1.0093 3.57487
-3.99172 0.979317 3.44383
-3.99785 0.978055 3.42589
-3.96057 0.957653 3.3329
-3.89298 0.918883 3.14894
-3.86267 0.900515 3.05797
-3.8539 0.89508 3.02898
-3.84412 0.889629 2.99899
-3.82167 0.875563 2.92801
-3.82183 0.872252 2.90706
-3.80906 0.865799 2.87706
-3.79332 0.858285 2.84304
-3.79745 0.856037 2.82611
-3.78858 0.852779 2.80909
-3.77283 0.845279 2.77607
-3.78093 0.845093 2.76314
-3.76617 0.837624 2.73213
-3.76234 0.833281 2.70916
-3.73495 0.818093 2.63017
-3.73899 0.818007 2.6242
-3.71941 0.807194 2.57021
-4.07279 1.13096 3.68523
-4.05908 1.12139 3.64726
-4.04638 1.11382 3.60927
-4.04557 1.10944 3.58433
-3.98483 1.07096 3.41942
-3.98203 1.06657 3.39346
-3.97228 1.06009 3.36148
-3.96261 1.05044 3.31754
-3.95385 1.04397 3.28657
-3.93913 1.03543 3.25058
-3.93433 1.03103 3.2236
-3.91762 1.02147 3.18661
-3.91282 1.01708 3.16064
-3.90106 1.0096 3.12866
-3.89817 1.00639 3.11468
-3.87946 0.997813 3.07666
-3.8677 0.990346 3.04568
-3.86488 0.985989 3.02172
-3.84716 0.977444 2.98571
-3.84732 0.974133 2.96475
-3.82371 0.962362 2.91374
-3.82089 0.95802 2.89078
-3.80713 0.950537 2.85879
-3.8043 0.946209 2.83683
-3.7975 0.94182 2.81084
-3.79069 0.936445 2.78586
-3.7829 0.93104 2.75888
-3.77204 0.925766 2.74087
-3.75927 0.919314 2.71087
-3.98592 1.11673 3.40375
-3.97716 1.11027 3.37277
-3.95673 1.09415 3.29785
-3.94201 1.0856 3.26186
-3.93224 1.07815 3.23189
-3.92049 1.07066 3.19891
-3.91859 1.06846 3.18593
-3.8969 1.05786 3.14591
-3.88912 1.05142 3.11695
-3.88332 1.04603 3.09098
-3.87355 1.03958 3.061
-3.85583 1.03004 3.025
-3.85399 1.02671 3.00303
-3.83238 1.01396 2.95305
-3.82359 1.00753 2.92508
-3.82275 1.00422 2.90411
-3.80899 0.996755 2.87312
-3.80815 0.993444 2.85216
-3.72116 0.935507 2.59032
-3.71633 0.931178 2.56835
-3.95835 1.14582 3.3431
-3.95257 1.14039 3.31413
-3.94679 1.13397 3.28618
-3.94009 1.12639 3.24724
-3.92437 1.11683 3.21026
-3.90981 1.10398 3.15333
-3.90203 1.09754 3.12436
-3.89325 1.09111 3.09539
-3.86668 1.07728 3.04038
-3.85989 1.07086 3.01242
-3.85707 1.06652 2.98946
-3.84034 1.05699 2.95447
-3.83751 1.05264 2.93151
-3.82674 1.04619 2.90152
-3.80015 1.03239 2.84852
-3.78738 1.02494 2.81853
-3.78356 1.01959 2.79558
-3.77875 1.01522 2.7706
-3.77194 1.00985 2.74563
-3.76314 1.00346 2.71965
-3.74937 0.996002 2.68965
-3.74646 0.993822 2.67766
-3.73469 0.986385 2.64868
-3.72589 0.980994 2.62269
-3.72603 0.977713 2.60374
-3.72418 0.974416 2.58377
-3.69571 0.95739 2.5158
-3.67611 0.945607 2.46382
-3.67127 0.941278 2.44184
-3.65961 0.931619 2.39789
-4.0318 1.25278 3.5391
-4.02702 1.24635 3.51015
-4.01719 1.24103 3.48916
-4.00644 1.23254 3.4562
-3.95072 1.19204 3.29035
-3.89966 1.16019 3.16742
-3.88592 1.15167 3.13344
-3.87135 1.13784 3.07753
-3.63697 0.966858 2.34719
-3.64108 0.965639 2.33224
-3.61933 0.956151 2.30021
-3.60056 0.946694 2.27021
-3.57514 0.929551 2.19426
-3.5693 0.925237 2.17327
-3.5754 0.924049 2.16034
-3.57652 0.921828 2.14538
-3.55183 0.911204 2.10434
-3.55693 0.910015 2.09139
-3.54909 0.904699 2.07041
-3.54224 0.900398 2.05042
-3.51848 0.890923 2.01938
-3.51206 0.877809 1.94451
-3.5052 0.873523 1.92552
-4.06597 1.33732 3.64112
-4.0483 1.32469 3.59917
-4.02674 1.30983 3.54222
-4.02097 1.30338 3.51226
-4.02313 1.29906 3.49034
-3.9846 1.28015 3.43032
-3.9818 1.27476 3.40438
-3.97106 1.26625 3.37042
-3.96817 1.26304 3.35644
-3.97132 1.25975 3.33651
-3.92401 1.2334 3.24753
-3.88702 1.20142 3.11571
-3.85093 1.17265 2.99785
-3.8481 1.16731 2.9749
-3.82831 1.15889 2.94787
-3.82052 1.15249 2.92091
-3.81968 1.14818 2.89996
-3.79501 1.13554 2.85796
-3.79118 1.13019 2.835
-3.78339 1.12379 2.80804
-3.77154 1.1185 2.78902
-3.76886 1.10988 2.74712
-3.73934 1.09294 2.68514
-3.73949 1.08964 2.66519
-3.72571 1.08221 2.63619
-3.53116 0.943504 2.0577
-3.52432 0.938188 2.03672
-3.52146 0.93492 2.01875
-3.51754 0.931755 2.00776
-3.5097 0.927453 1.98777
-3.50783 0.924186 1.9698
-3.50496 0.920932 1.95282
-3.50209 0.917679 1.93585
-3.50221 0.915457 1.92088
-3.49437 0.910141 1.8999
-3.48646 0.906958 1.88788
-3.48658 0.904736 1.87291
-3.47874 0.89942 1.85193
-3.92028 1.2838 3.20675
-3.86075 1.23391 3.01502
-3.84998 1.22648 2.98604
-3.83822 1.21801 2.95507
-3.82943 1.21059 2.92711
-3.8107 1.20006 2.89212
-3.8049 1.19367 2.86617
-3.80405 1.19038 2.84621
-3.78922 1.18304 2.8242
-3.79236 1.17978 2.80627
-3.78059 1.17234 2.77729
-3.77676 1.167 2.75434
-3.762 1.15853 2.72335
-3.75618 1.15318 2.70038
-3.75335 1.14885 2.67842
-3.73255 1.13946 2.6524
-3.7307 1.13516 2.63245
-3.72488 1.12981 2.60948
-3.71309 1.12139 2.58151
-3.70528 1.11602 2.55653
-3.69051 1.10758 2.52754
-3.69363 1.10534 2.51159
-3.67878 1.09805 2.49258
-3.67097 1.09268 2.4676
-3.67309 1.08944 2.45166
-3.65434 1.07995 2.41966
-3.65745 1.07773 2.40471
-3.65858 1.07548 2.38775
-3.64081 1.06603 2.35775
-3.63691 1.06285 2.34577
-3.62411 1.05645 2.31976
-3.62325 1.05219 2.30182
-3.62039 1.0489 2.28284
-3.61256 1.04257 2.26087
-3.60175 1.0362 2.23588
-3.60188 1.03394 2.21892
-3.59498 1.02975 2.20592
-3.58317 1.02338 2.18193
-3.57646 1.01482 2.144
-3.56277 1.0052 2.10303
-3.56184 1.00307 2.09405
-3.555 0.998752 2.07306
-3.54617 0.992435 2.05209
-3.51486 0.971067 1.96116
-3.49332 0.956179 1.90221
-4.05794 1.44725 3.63543
-4.04144 1.43026 3.56955
-4.01988 1.41442 3.51361
-4.01329 1.40161 3.45974
-3.97493 1.37636 3.37682
-3.97114 1.36996 3.34988
-3.94451 1.35523 3.30189
-3.94757 1.35311 3.29394
-3.94179 1.34669 3.26599
-3.89893 1.30746 3.11723
-3.86922 1.29389 3.0802
-3.85465 1.28005 3.02429
-3.83693 1.26951 2.98831
-3.82914 1.26209 2.96035
-3.8303 1.25779 2.94042
-3.81356 1.24828 2.90643
-3.80668 1.24304 2.89046
-3.7979 1.23562 2.8625
-3.4402 0.961407 1.78471
-3.43533 0.957138 1.76674
-3.43147 0.953884 1.74975
-3.42759 0.949644 1.73378
-3.4167 0.945415 1.71876
-3.42576 0.946303 1.71082
-3.41692 0.941001 1.69083
-3.424 0.940843 1.67988
-3.41614 0.936571 1.66188
-3.40928 0.931285 1.64291
-3.38765 0.918575 1.59592
-3.38476 0.916351 1.58093
-4.0548 1.50543 3.64755
-4.05201 1.49903 3.62062
-4.05418 1.49471 3.59869
-3.99327 1.45156 3.45685
-3.98352 1.44208 3.42492
-3.98586 1.43343 3.38106
-3.9153 1.37862 3.19431
-3.33074 0.920386 1.45045
-3.32382 0.917218 1.43944
-3.31705 0.910784 1.41048
-3.32124 0.908418 1.38555
-3.30738 0.902127 1.36653
-3.30151 0.898886 1.35053
-3.30255 0.897798 1.34456
-3.29069 0.891523 1.32656
-3.30075 0.893412 1.3186
-3.29397 0.887978 1.28963
-4.04114 1.53272 3.60003
-4.04728 1.53046 3.58211
-4.03059 1.51784 3.54117
-4.0139 1.50524 3.50122
-4.01995 1.50515 3.49527
-3.99928 1.4905 3.45232
-3.99351 1.48306 3.42238
-3.98376 1.47458 3.39043
-3.94557 1.443 3.2856
-3.921 1.42515 3.22967
-3.91438 1.41341 3.17979
-3.89569 1.40082 3.14083
-3.87715 1.38392 3.08093
-3.37275 0.978291 1.57693
-3.36987 0.975052 1.56095
-3.37605 0.973701 1.53701
-3.36022 0.965365 1.51501
-3.35634 0.962126 1.49903
-3.35843 0.960949 1.48706
-3.34763 0.953557 1.46109
-3.3103 0.931259 1.37512
-3.30955 0.92577 1.34219
-3.28893 0.913031 1.29322
-4.08139 1.63109 3.68989
-4.05317 1.60057 3.58912
-3.94276 1.50054 3.25472
-3.86553 1.4321 3.02612
-3.84184 1.41748 2.98515
-3.82611 1.40597 2.9512
-3.82328 1.40062 2.92825
-3.80556 1.38909 2.89329
-3.79187 1.37748 2.85235
-3.76947 1.35531 2.7745
-3.7401 1.33109 2.69362
-3.69417 1.291 2.55485
-3.6816 1.27717 2.49896
-3.65218 1.25404 2.42407
-3.58767 1.20014 2.23135
-3.57691 1.19166 2.19939
-3.58798 1.19253 2.19046
-3.57418 1.18314 2.16449
-3.5753 1.1809 2.14853
-3.56449 1.17354 2.12456
-3.55765 1.16822 2.10358
