-3.57713 1.79752 13.8048
-3.59919 1.79642 13.797
-4.97789 1.7831 13.3125
-5.0009 1.78408 13.3107
-5.0489 1.7861 13.31
-5.09595 1.78703 13.3034
-5.14102 1.78793 13.2947
-5.1861 1.7888 13.284
-5.2302 1.78964 13.2713
-5.27429 1.78948 13.2587
-5.30125 1.79159 13.2648
-5.34337 1.79137 13.2482
-5.3914 1.79335 13.2445
-5.43747 1.79425 13.2358
-5.48256 1.7951 13.2242
-5.52665 1.79494 13.2115
-5.56879 1.7947 13.1938
-5.59477 1.79675 13.196
-5.63493 1.79546 13.1743
-0.200156 1.81421 13.6541
-0.244904 1.81873 13.6874
-0.266895 1.81976 13.6886
-0.310008 1.81757 13.6739
-0.354938 1.81874 13.6832
-0.398952 1.81874 13.6816
-0.442912 1.81985 13.6869
-0.486865 1.82097 13.6932
-0.529275 1.8132 13.6396
-0.551978 1.81879 13.6787
-0.59948 1.82979 13.7439
-0.687546 1.82872 13.7356
-0.726269 1.81434 13.6411
-0.772046 1.81981 13.6704
-2.75214 1.81403 13.4003
-2.7722 1.81392 13.3925
-2.81336 1.81164 13.3718
-2.85835 1.81269 13.3731
-2.8966 1.80923 13.3405
-2.94159 1.81126 13.3408
-2.98175 1.80898 13.3201
-3.02386 1.8078 13.3065
-3.04392 1.8077 13.2986
-3.08505 1.80646 13.2809
-3.1252 1.8052 13.2612
-3.16826 1.80511 13.2536
-3.20744 1.80278 13.2299
-3.2505 1.8027 13.2222
-3.29648 1.80477 13.2255
-3.3214 1.80694 13.2357
-3.36738 1.809 13.238
-3.40169 1.80442 13.1973
-3.44379 1.80426 13.1847
-3.48104 1.8008 13.152
-3.52507 1.80076 13.1473
-3.56134 1.79726 13.1126
-3.58431 1.79934 13.1168
-3.62446 1.79706 13.0961
-3.66362 1.79578 13.0754
-3.70571 1.79563 13.0637
-3.74585 1.79439 13.0461
-3.78598 1.79316 13.0284
-3.8271 1.79295 13.0127
-3.84912 1.79293 13.0108
-3.88536 1.79049 12.9792
-3.92645 1.79034 12.9675
-3.96757 1.78912 12.9508
-4.00869 1.78893 12.9361
-4.04977 1.78878 12.9244
-4.09186 1.78863 12.9127
-4.11388 1.78962 12.9109
-4.155 1.78841 12.8952
-4.19611 1.78822 12.8805
-4.23233 1.78582 12.8518
-4.27539 1.78673 12.8441
-4.31259 1.78436 12.8174
-4.34586 1.78085 12.7817
-4.36985 1.78189 12.7839
-4.41389 1.78284 12.7782
-4.45304 1.78157 12.7585
-4.49609 1.7825 12.7518
-4.53721 1.78229 12.7362
-4.57536 1.78102 12.7165
-4.62039 1.783 12.7128
-4.64437 1.78404 12.7149
-4.69135 1.78711 12.7172
-4.73344 1.78696 12.7056
-4.77847 1.78893 12.7019
-4.82057 1.78877 12.6892
-4.86266 1.78962 12.6775
-4.88762 1.79072 12.6827
-4.92872 1.79154 12.669
-4.96984 1.79133 12.6533
-5.01487 1.79229 12.6486
-0.0970088 1.8076 13.0094
-0.138985 1.80768 13.0127
-0.181052 1.80657 13.004
-0.222936 1.80983 13.0193
-0.264867 1.81099 13.0286
-0.306827 1.81209 13.0339
-0.327834 1.81209 13.033
-0.370619 1.81654 13.0613
-0.452135 1.80659 12.9941
-0.497318 1.82321 13.1012
-0.536949 1.81101 13.0186
-0.57807 1.8088 13.003
-0.601642 1.81765 13.059
-1.77254 1.81468 12.9449
-1.81262 1.81455 12.9342
-1.85468 1.81346 12.9265
-1.89573 1.81338 12.9198
-1.91581 1.81224 12.909
-1.95592 1.81106 12.8953
-1.99795 1.81103 12.8916
-2.03615 1.80866 12.8649
-2.07818 1.80863 12.8613
-2.12018 1.80964 12.8606
-2.15934 1.80736 12.8399
-2.17843 1.8062 12.828
-2.22238 1.80833 12.8353
-2.25863 1.80387 12.8027
-2.30162 1.80492 12.804
-2.34459 1.80701 12.8083
-2.38568 1.80586 12.7966
-2.42577 1.80571 12.7849
-2.44486 1.80355 12.7731
-2.48593 1.80343 12.7634
-2.52409 1.80115 12.7427
-2.56805 1.80325 12.748
-2.60523 1.80093 12.7243
-2.64822 1.80197 12.7256
-2.6864 1.79964 12.7019
-2.70838 1.8007 12.7051
-2.7475 1.7995 12.6894
-2.78855 1.79942 12.6827
-2.83155 1.80145 12.683
-2.87067 1.80023 12.6663
-2.91367 1.80128 12.6676
-2.95474 1.80116 12.6579
-2.97188 1.7989 12.6401
-3.01004 1.79661 12.6184
-3.05011 1.7965 12.6097
-3.08633 1.79409 12.58
-3.12932 1.79515 12.5823
-3.1665 1.79282 12.5586
-3.20754 1.79376 12.5529
-3.2247 1.79146 12.5321
-3.26187 1.78916 12.5104
-3.30196 1.78901 12.4987
-3.3401 1.78776 12.48
-3.3763 1.7844 12.4543
-3.41929 1.78645 12.4556
-3.45935 1.78634 12.4469
-3.47648 1.7851 12.4301
-3.51655 1.78499 12.4204
-3.55471 1.7827 12.3997
-3.5909 1.78136 12.375
-3.63487 1.78345 12.3793
-3.66617 1.77888 12.3396
-3.70528 1.7777 12.3259
-3.72338 1.77651 12.312
-3.76247 1.77636 12.3003
-3.80159 1.77615 12.2846
-3.87881 1.77476 12.2552
-3.91985 1.77572 12.2505
-4.01713 1.77423 12.2133
-4.06599 1.77953 12.2316
-4.09924 1.77608 12.1999
-4.13442 1.77373 12.1752
-4.17158 1.77245 12.1545
-4.19551 1.7746 12.1636
-4.23267 1.77332 12.1429
-4.27079 1.77311 12.1272
-4.31185 1.77402 12.1195
-4.35585 1.77604 12.1188
-4.39299 1.7748 12.1011
-4.43602 1.77575 12.0964
-4.45508 1.77566 12.0895
-4.50005 1.77874 12.0928
-4.5372 1.77747 12.0731
-4.58023 1.77944 12.0694
-4.61933 1.77928 12.0567
-4.66136 1.78024 12.052
-4.69949 1.78001 12.0353
-4.72739 1.78322 12.0485
-4.77042 1.78518 12.0438
-4.80952 1.78502 12.0311
-4.84666 1.78476 12.0123
-4.88282 1.78348 11.9916
-0.0720376 1.80263 12.6072
-0.113127 1.80148 12.5955
-0.153936 1.80488 12.6208
-0.194882 1.80601 12.6281
-0.234949 1.80491 12.6194
-0.315885 1.80709 12.628
-0.337603 1.81265 12.6651
-0.377815 1.80827 12.6374
-0.416271 1.79941 12.5778
-0.458926 1.8071 12.623
-1.69654 1.80973 12.5463
-1.9159 1.80716 12.499
-1.95501 1.80599 12.4853
-1.99698 1.80706 12.4886
-2.0361 1.80585 12.4729
-2.07614 1.80581 12.4682
-2.11333 1.80245 12.4426
-2.13333 1.80346 12.4427
-2.17342 1.80233 12.432
-2.21248 1.80223 12.4233
-2.2516 1.80103 12.4086
-2.29068 1.79988 12.3969
-2.33168 1.80193 12.3982
-2.36981 1.79969 12.3805
-2.38983 1.79967 12.3787
-2.42989 1.79957 12.37
-2.46898 1.79942 12.3583
-2.50615 1.79712 12.3366
-2.54715 1.79814 12.3359
-2.58333 1.79482 12.3132
-2.62533 1.79684 12.3125
-2.64632 1.79687 12.3136
-2.68538 1.79678 12.3059
-2.72351 1.79556 12.2892
-2.76452 1.79657 12.2885
-2.80166 1.79532 12.2698
-2.84269 1.79627 12.2651
-2.88662 1.79845 12.2754
-2.90471 1.79729 12.2636
-2.94184 1.79605 12.2459
-2.97705 1.79266 12.2182
-3.01516 1.79248 12.2045
-3.05425 1.79133 12.1928
-3.09235 1.79117 12.1801
-3.12948 1.78993 12.1624
-3.14563 1.78664 12.1425
-3.18665 1.78763 12.1398
-3.22474 1.78748 12.1281
-3.26286 1.78728 12.1134
-3.29707 1.78388 12.0847
-3.3381 1.78486 12.082
-3.37327 1.78255 12.0593
-3.39234 1.78243 12.0504
-3.43823 1.78567 12.0647
-3.4734 1.78436 12.042
-3.51345 1.78428 12.0353
-3.54571 1.7808 12.0016
-3.58283 1.77959 11.9859
-3.60284 1.78058 11.984
-3.63609 1.77613 11.9523
-3.67223 1.77487 11.9336
-3.71325 1.77686 11.9309
-3.7455 1.77339 11.8982
-3.78359 1.77324 11.8865
-3.81973 1.77099 11.8678
-3.84268 1.77311 11.8749
-3.8798 1.77288 11.8582
-3.91594 1.77164 11.8405
-3.95209 1.77037 11.8208
-3.99703 1.77352 11.8291
-4.03511 1.77339 11.8184
-4.07322 1.7732 11.8037
-4.08834 1.77197 11.7878
-4.12938 1.77291 11.7821
-4.16453 1.77164 11.7624
-4.20165 1.77043 11.7467
-4.24562 1.77352 11.7509
-4.27981 1.77118 11.7262
-4.31691 1.771 11.7125
-4.34577 1.7753 11.7317
-4.38192 1.77403 11.712
-4.42099 1.77491 11.7022
-4.46888 1.77915 11.7165
-4.50208 1.77779 11.6908
-4.53823 1.77652 11.6711
-4.58416 1.77969 11.6804
-4.60028 1.77846 11.6645
-4.6413 1.78043 11.6608
0.0764993 1.79576 12.0141
0.0376987 1.80017 12.0403
-0.0012694 1.80126 12.0446
-0.040154 1.80351 12.0599
-0.0791071 1.80462 12.0661
-0.118129 1.80461 12.0634
-0.137907 1.80905 12.0925
-0.176791 1.8123 12.1078
-0.254888 1.81016 12.0954
-0.292398 1.7992 12.0288
-2.14181 1.79766 11.8478
-2.33116 1.79612 11.8032
-2.38726 1.79495 11.7896
-2.42533 1.79483 11.7799
-2.5395 1.79459 11.7588
-2.59659 1.79445 11.7472
-2.63174 1.79317 11.7265
-2.74591 1.79292 11.7054
-2.83912 1.79158 11.6781
-2.91232 1.79023 11.6516
-2.95132 1.79124 11.6509
-2.98744 1.79003 11.6352
-3.04064 1.78769 11.6096
-3.07483 1.78534 11.5849
-3.15189 1.78726 11.5765
-3.18898 1.78711 11.5648
-3.22413 1.78484 11.5451
-3.25925 1.78363 11.5293
-3.27924 1.78466 11.5305
-3.31537 1.78344 11.5138
-3.35245 1.78332 11.504
-3.38369 1.77986 11.4723
-3.41882 1.77864 11.4556
-3.46467 1.78395 11.4749
-3.49006 1.77622 11.4242
-3.51298 1.77938 11.4343
-3.55104 1.77929 11.4266
-3.5881 1.78018 11.4179
-3.61932 1.77678 11.3891
-3.65251 1.77443 11.3644
-3.69445 1.77757 11.3717
-3.72471 1.77308 11.338
-3.74374 1.77404 11.3341
-3.78472 1.77611 11.3374
-3.81691 1.77375 11.3117
-3.85595 1.77471 11.3069
-3.89302 1.77459 11.2972
-3.92619 1.77328 11.2755
-3.96816 1.77637 11.2798
-3.9823 1.7731 11.2609
-4.01938 1.77397 11.2502
-4.05841 1.77494 11.2464
-4.09255 1.77368 11.2277
-4.12965 1.77351 11.215
-4.16965 1.77654 11.2153
-4.1989 1.77206 11.1815
-4.22283 1.77523 11.1917
-4.26482 1.77727 11.193
-4.30091 1.7771 11.1802
0.0769466 1.78587 11.1441
0.0409783 1.78696 11.1484
0.00496431 1.78695 11.1466
-0.0310503 1.78595 11.1449
-0.0669043 1.78926 11.1642
-0.102758 1.79256 11.1834
-0.12165 1.79578 11.1975
-0.53766 1.79804 11.1976
-0.573644 1.7981 11.1998
-0.590803 1.7948 11.179
-0.626787 1.79586 11.1813
-0.662892 1.79368 11.1676
-0.698914 1.79366 11.1649
-0.734898 1.79371 11.1671
-0.769965 1.79261 11.1584
-0.806055 1.79145 11.1467
-0.823146 1.78929 11.1348
-0.860061 1.79248 11.1461
-0.894205 1.78922 11.1274
-0.929303 1.78706 11.1147
-0.96537 1.78695 11.1059
-1.00042 1.78587 11.0992
-1.01752 1.78369 11.0864
-1.05164 1.78148 11.0707
-1.08582 1.77816 11.048
-1.12557 1.78467 11.0802
-1.15966 1.78251 11.0685
-1.19477 1.78133 11.0548
-1.23078 1.78133 11.053
-1.2469 1.7791 11.0372
-1.2829 1.78013 11.0374
-1.31707 1.77683 11.0157
-1.35401 1.77896 11.023
-1.38812 1.77678 11.0093
-1.42317 1.7767 11.0025
-1.45919 1.77668 10.9998
-1.47624 1.7756 10.994
-1.51036 1.77438 10.9772
-1.54634 1.77545 10.9805
-1.58141 1.77434 10.9718
-1.6155 1.77317 10.959
-1.65155 1.77311 10.9533
-1.6866 1.77303 10.9466
-1.70268 1.77088 10.9357
-1.77375 1.7718 10.9272
-1.80688 1.76956 10.9095
-1.84097 1.76842 10.8988
-1.87603 1.76833 10.8911
-4.0832 1.74866 10.2139
-4.09729 1.74749 10.202
-4.13038 1.74734 10.1903
-4.17231 1.7515 10.1995
-4.20247 1.74921 10.1788
-4.23753 1.7501 10.17
-4.27552 1.75315 10.1713
-4.30961 1.75299 10.1595
-4.32862 1.75398 10.1576
-4.3627 1.75385 10.1479
-4.39777 1.75475 10.1392
-4.43479 1.75673 10.1364
-4.46692 1.75649 10.1186
-4.49411 1.75413 10.0939
-4.53606 1.75725 10.1002
-4.5531 1.75818 10.0943
-4.58817 1.75807 10.0855
-4.62127 1.7589 10.0728
-4.65831 1.75984 10.067
-4.68944 1.75961 10.0503
0.0553959 1.78793 10.5392
-0.472618 1.79025 10.5391
-0.540708 1.78812 10.5277
-0.574706 1.78915 10.5279
-0.607766 1.78805 10.5202
-0.62485 1.7859 10.5093
-0.658833 1.78696 10.5116
-0.693771 1.7881 10.5198
-0.726014 1.78265 10.4881
-0.76002 1.78366 10.4874
-0.793103 1.78152 10.4766
-0.826163 1.78043 10.4689
-0.843208 1.78035 10.463
-0.876245 1.7793 10.4583
-0.910305 1.77821 10.4506
-0.944319 1.7792 10.4488
-0.977356 1.77815 10.4441
-1.01138 1.77814 10.4413
-1.04444 1.77804 10.4336
-1.06147 1.77698 10.4287
-1.09455 1.77586 10.419
-1.12666 1.77366 10.4043
-1.16065 1.77471 10.4065
-1.19469 1.77465 10.4008
-1.22777 1.77352 10.391
-1.26081 1.77246 10.3853
-1.27781 1.77347 10.3854
-1.3118 1.77451 10.3866
-1.34397 1.77121 10.3649
-1.377 1.77117 10.3612
-1.40911 1.76897 10.3465
-1.4441 1.77001 10.3477
-1.47522 1.7678 10.332
-1.49224 1.76777 10.3291
-1.52435 1.76558 10.3154
-1.55838 1.76655 10.3116
-1.59045 1.76544 10.3029
-1.62444 1.76648 10.3041
-1.65655 1.76428 10.2894
-1.69055 1.76531 10.2896
-1.70662 1.76417 10.2798
-1.73967 1.7641 10.274
-1.77176 1.76295 10.2623
-1.80483 1.76184 10.2535
-1.83593 1.76066 10.2398
-1.86802 1.7595 10.228
-1.90011 1.75835 10.2163
-1.98321 1.7582 10.2029
-3.61605 1.74277 9.70038
-3.67921 1.7425 9.67986
-3.70834 1.74126 9.66209
-3.73945 1.74107 9.64833
-3.75743 1.74211 9.65045
-3.78951 1.74299 9.64067
-3.82061 1.7418 9.62692
-3.85661 1.74483 9.62715
-3.8877 1.74467 9.61539
-3.92468 1.74673 9.61763
-3.95676 1.74759 9.60686
-3.96887 1.74539 9.59298
-4.00486 1.74843 9.59421
-4.04382 1.75154 9.59946
-4.07 1.7492 9.57569
-4.10404 1.75014 9.56993
-4.13612 1.751 9.55916
-4.17115 1.75196 9.55541
-4.1862 1.75187 9.54852
-4.22223 1.75385 9.54576
-4.25724 1.75585 9.54399
-4.27852 1.75131 9.50722
0.24181 1.77367 10.462
0.22481 1.77368 10.4621
0.15679 1.77368 10.4596
0.123004 1.77812 10.4878
0.0890817 1.7803 10.498
-0.233579 1.7833 10.0123
-0.265632 1.78122 10.0056
-0.298593 1.78332 10.0108
-0.330622 1.78229 10.0071
-0.362644 1.78226 10.0043
-0.37872 1.78013 9.99448
-0.41078 1.77903 9.98673
-0.442772 1.77907 9.98798
-0.475816 1.77901 9.98222
-0.506953 1.77576 9.9645
-0.538959 1.77577 9.96375
-0.571958 1.7758 9.96399
-0.587057 1.77361 9.95114
-0.618178 1.7714 9.9354
-0.651131 1.77251 9.94164
-0.682275 1.76925 9.92292
-0.714244 1.77034 9.92714
-0.74628 1.77029 9.92238
-0.778386 1.7681 9.90865
-0.793439 1.76701 9.90178
-0.826369 1.76917 9.911
-0.858422 1.76809 9.90426
-0.889489 1.76698 9.89551
-0.922495 1.76799 9.89474
-0.952624 1.76476 9.87801
-0.985554 1.76691 9.88723
-1.00065 1.76475 9.87537
-1.03265 1.76575 9.8746
-1.06471 1.76466 9.86686
-1.09578 1.76355 9.85811
-1.12591 1.7613 9.84036
-1.15891 1.76133 9.84061
-1.19188 1.76341 9.84483
-1.20696 1.76128 9.83497
-1.23709 1.75905 9.81823
-1.27002 1.7612 9.82745
-1.30015 1.75896 9.80971
-1.33121 1.75786 9.80196
-1.3642 1.7589 9.80319
-1.39434 1.75666 9.78545
-1.41126 1.75882 9.79554
-1.44234 1.75768 9.78479
-1.47244 1.75551 9.77205
-1.50637 1.75866 9.78126
-1.53554 1.75536 9.75953
-1.64569 1.75413 9.73937
-1.67772 1.75511 9.7366
-3.3294 1.73798 9.25423
-3.56711 1.73576 9.16204
-3.65635 1.73634 9.1297
-3.68643 1.73621 9.11993
-3.71946 1.73716 9.11516
-3.75149 1.73913 9.11137
-3.7636 1.73693 9.09749
-3.79367 1.7378 9.08771
-3.82769 1.73878 9.08495
-3.85776 1.73967 9.07616
-3.88686 1.73948 9.06238
-3.9248 1.74363 9.07061
-3.95293 1.7424 9.05383
-3.96697 1.74232 9.04794
-3.99804 1.74321 9.03916
-4.03107 1.74417 9.03539
-4.06115 1.74503 9.02461
-4.09221 1.74492 9.01584
-4.12919 1.74799 9.01907
-4.14227 1.74784 9.00817
-4.17334 1.74773 8.99941
0.444981 1.772 9.95239
0.428981 1.77201 9.95251
0.39699 1.77205 9.95375
0.364998 1.77208 9.95499
0.331961 1.77103 9.95025
0.299954 1.77104 9.94949
0.268261 1.77866 9.98962
0.253505 1.78414 10.0217
-0.394709 1.77726 9.59759
-0.425784 1.77614 9.58784
-0.441768 1.77618 9.58996
-0.472829 1.77508 9.5822
-0.502912 1.77294 9.57146
-0.534842 1.7751 9.58067
-0.564986 1.77184 9.56194
-0.596 1.77183 9.56018
-0.626976 1.7729 9.5634
-0.641113 1.76964 9.54555
-0.672158 1.76858 9.5398
-0.703149 1.76961 9.54101
-0.736002 1.77392 9.5602
-0.764261 1.76744 9.52651
-0.798038 1.77389 9.55567
-0.82542 1.76417 9.50601
-0.84319 1.77063 9.53605
-0.874196 1.77063 9.53529
-0.904248 1.77055 9.52851
-0.934331 1.76841 9.51777
-0.966322 1.76945 9.519
-0.99639 1.76834 9.51024
-1.02643 1.76727 9.50448
-1.04246 1.76724 9.5016
-1.07252 1.76614 9.49384
-1.10355 1.76609 9.48908
-1.1336 1.76602 9.4833
-1.16367 1.7639 9.47356
-1.19373 1.7638 9.46579
-1.22475 1.76379 9.46402
-1.23981 1.76269 9.45615
-1.26984 1.76265 9.45237
-1.30088 1.76258 9.44661
-1.32997 1.76043 9.43486
-1.36003 1.75933 9.4271
-1.39104 1.76034 9.42632
-1.40608 1.75926 9.42045
-1.43712 1.75921 9.41568
-1.46619 1.7591 9.4069
-1.49342 1.75367 9.37718
-1.52633 1.75686 9.38838
-1.55734 1.75787 9.3876
-1.58643 1.7557 9.37485
-1.60049 1.7546 9.36797
-1.63054 1.75452 9.3612
-1.66059 1.75444 9.35443
-1.69068 1.75328 9.34267
-1.72072 1.75323 9.3379
-1.75078 1.75213 9.33014
-1.77988 1.75096 9.31737
-1.79488 1.75096 9.31649
-1.823 1.74874 9.30073
-1.85403 1.74971 9.29695
-1.88409 1.74861 9.28919
-1.94224 1.74736 9.26964
-1.97423 1.74839 9.27087
-1.98637 1.74514 9.25301
-2.01639 1.74611 9.25022
-2.04646 1.746 9.24144
-2.07553 1.74488 9.23168
-2.13562 1.74474 9.22013
-2.20882 1.7434 9.1937
-3.13097 1.7358 8.91272
-3.42692 1.73114 8.788
-3.47592 1.73417 8.78833
-3.52621 1.73063 8.74975
-3.56216 1.73476 8.75696
-3.59221 1.73467 8.74919
-3.61639 1.73234 8.7264
-3.65036 1.73541 8.72961
-3.65753 1.73209 8.70771
-3.69642 1.73733 8.72193
-3.72746 1.73827 8.71715
-3.75948 1.74024 8.71336
-3.78757 1.74008 8.70157
-3.81861 1.74103 8.69679
-3.83983 1.73762 8.668
-3.8647 1.74289 8.68511
-3.88394 1.73843 8.65332
-3.92382 1.74368 8.66854
-3.95684 1.74567 8.66676
-3.97215 1.74008 8.62595
-4.05124 1.74394 8.61349
0.704733 1.76444 9.52048
0.67481 1.76661 9.53068
0.643781 1.76557 9.52693
0.582988 1.77002 9.55432
0.442877 1.7659 9.54044
0.411977 1.76811 9.55364
0.382192 1.77355 9.58179
0.367215 1.7746 9.58488
0.336399 1.77898 9.60905
0.306545 1.78228 9.62823
-0.223066 1.77055 9.15133
-0.253119 1.76946 9.14457
-0.282156 1.76841 9.13981
-0.312194 1.76736 9.13505
-0.341216 1.76734 9.13227
-0.371291 1.76621 9.12251
-0.400328 1.76516 9.11774
-0.415305 1.76621 9.12084
-0.444358 1.76413 9.11409
-0.473433 1.763 9.10432
-0.503455 1.76298 9.10155
-0.532469 1.76297 9.09977
-0.56159 1.75976 9.08403
-0.59065 1.75866 9.07627
-0.605658 1.75866 9.07538
-0.634733 1.75653 9.06563
-0.664656 1.7587 9.07582
-0.693723 1.75759 9.06706
-0.721829 1.7554 9.0533
-0.751828 1.75542 9.05352
-0.781774 1.75755 9.06072
-0.794903 1.75431 9.04386
-0.825863 1.7564 9.04907
-0.853931 1.75529 9.04029
-0.882045 1.75209 9.02555
-0.911089 1.75202 9.01977
-0.940158 1.74991 9.01102
-0.96824 1.74877 9.00025
-0.984194 1.74987 9.00635
-1.01321 1.75086 9.00455
-1.04132 1.74866 8.9898
-1.0713 1.74972 8.99301
-1.09942 1.74651 8.97726
-1.28766 1.74516 8.9457
-1.31667 1.74616 8.9449
-3.06533 1.72915 8.46626
-3.11851 1.72883 8.44266
-3.18573 1.72745 8.41419
-3.21379 1.72736 8.4064
-3.24284 1.72827 8.3996
-3.26697 1.72702 8.3818
-3.297 1.728 8.37901
-3.32605 1.72892 8.37222
-3.33812 1.72779 8.36332
-3.36815 1.72874 8.35853
-3.3962 1.72966 8.35173
-3.42525 1.73059 8.34594
-3.45135 1.7294 8.33215
-3.48041 1.7303 8.32435
-3.50748 1.73019 8.31556
-3.52249 1.73117 8.31365
-3.55449 1.7342 8.31385
-3.58453 1.73514 8.30906
-3.61062 1.73497 8.29626
-3.63378 1.73268 8.27547
-3.66284 1.73358 8.26767
-3.68177 1.73673 8.27677
-3.70886 1.73657 8.26497
-3.74086 1.73858 8.26418
-3.76894 1.73845 8.2544
-3.79307 1.7372 8.23659
-3.82606 1.74025 8.2388
-3.85315 1.74009 8.227
-3.86325 1.73891 8.21409
0.872416 1.7628 9.07918
0.841302 1.7586 9.06448
0.813471 1.76295 9.08663
0.784594 1.76621 9.1028
0.754572 1.76518 9.10004
0.725679 1.76741 9.11422
0.697841 1.77174 9.13537
0.681672 1.76643 9.11357
0.652834 1.77076 9.13473
0.622788 1.76869 9.12898
0.592774 1.76869 9.12721
0.564935 1.77202 9.14837
0.536112 1.77738 9.17151
-3.4709 1.71749 7.72939
-3.49698 1.71734 7.71859
-3.52008 1.71615 7.70478
-3.54295 1.72142 7.72187
-3.56214 1.71807 7.69706
-3.59213 1.7211 7.69824
-3.61624 1.7199 7.68344
-3.64526 1.72187 7.68063
-3.66739 1.72064 7.66381
-3.70134 1.72475 7.67001
-3.71044 1.72257 7.65711
-3.73455 1.72238 7.64329
-3.76061 1.72228 7.63549
-3.78668 1.72315 7.62567
-3.81079 1.72196 7.61187
-3.83883 1.72389 7.60605
-3.86293 1.7237 7.59223
-3.87893 1.72473 7.59334
-3.90303 1.72454 7.57952
-3.92417 1.72227 7.56071
-3.9532 1.72423 7.5569
-3.97632 1.72301 7.54109
-4.0024 1.72388 7.53127
-4.0265 1.72369 7.51745
-4.0425 1.7247 7.51756
-4.06364 1.72345 7.49973
-4.09069 1.72437 7.49292
-4.11974 1.72629 7.48611
-4.14186 1.72507 7.47029
-4.17286 1.72807 7.46948
-4.19894 1.72894 7.45967
0.675436 1.75411 8.55172
0.648528 1.75631 8.56389
0.621705 1.76067 8.58703
0.60995 1.76715 8.61903
0.583035 1.76933 8.6302
0.554005 1.76829 8.62644
0.524868 1.76405 8.60872
0.497998 1.76732 8.62587
0.468938 1.76522 8.61812
0.4409 1.76417 8.61335
0.426931 1.76524 8.61744
0.397809 1.76102 8.60172
0.369848 1.76212 8.60691
0.341811 1.76106 8.60214
0.313666 1.7568 8.58341
0.285736 1.75896 8.59259
0.257721 1.75795 8.59082
0.242484 1.7515 8.56002
0.214507 1.75157 8.56323
0.187508 1.75159 8.56344
0.159471 1.75053 8.55866
0.131426 1.74946 8.55289
0.103411 1.74845 8.55112
0.0753583 1.74737 8.54434
0.0550263 1.75978 8.23327
0.0280271 1.7598 8.23347
0.000966357 1.7577 8.22571
-0.0260479 1.75769 8.22391
-0.053017 1.75777 8.22811
-0.0790081 1.7588 8.22929
-0.0930843 1.75667 8.21943
-0.120014 1.75882 8.2286
-0.14609 1.75669 8.21883
-0.173144 1.75461 8.21206
-0.199189 1.75354 8.20627
-0.226195 1.75354 8.20548
-0.253217 1.75352 8.20268
-0.266293 1.75138 8.19281
-0.292331 1.75032 8.18802
-0.319338 1.75033 8.18722
-0.346275 1.75247 8.19539
-0.372344 1.75035 8.18662
-0.398442 1.74818 8.17385
-0.426365 1.75035 8.18403
-0.438456 1.74818 8.17215
-0.465501 1.74711 8.16637
-0.492439 1.74925 8.17454
-0.519453 1.74924 8.17274
-0.545491 1.74818 8.16796
-0.570612 1.74496 8.15219
-0.583696 1.74281 8.14132
-0.60971 1.7428 8.13951
-0.636725 1.74279 8.13772
-0.663662 1.74493 8.14589
-0.688845 1.74059 8.12214
-0.715806 1.74168 8.12733
-0.742774 1.74376 8.1315
-0.75585 1.74162 8.12163
-0.780926 1.73949 8.11185
-0.807932 1.7405 8.11104
-0.833962 1.73946 8.10725
-0.860015 1.73837 8.10046
-0.887021 1.73938 8.09965
-0.912089 1.73726 8.09087
-0.977208 1.73608 8.07537
-1.00325 1.73502 8.07059
-1.0293 1.73494 8.06378
-1.05725 1.73704 8.06996
-1.08325 1.73706 8.07016
-1.09532 1.73594 8.06126
-1.12138 1.73484 8.05348
-1.17441 1.7348 8.04887
-1.1995 1.73364 8.03708
-1.29061 1.7335 8.02377
-1.34367 1.73341 8.01517
-1.51194 1.731 7.98046
-2.56721 1.72127 7.68452
-2.59617 1.72435 7.68869
-2.62123 1.72425 7.68088
-2.64435 1.72203 7.66509
-2.67037 1.723 7.66227
-2.69838 1.72501 7.66145
-2.72149 1.72382 7.64764
-2.73745 1.72589 7.65173
-2.76741 1.729 7.65791
-2.79148 1.72887 7.64809
-2.81459 1.72666 7.6333
-2.84065 1.72758 7.62648
-2.86864 1.7296 7.62666
-2.89371 1.72948 7.61785
-2.89596 1.72301 7.58596
-2.92298 1.72397 7.58214
-2.94903 1.7249 7.57633
-2.97213 1.72372 7.56352
-3.0021 1.72679 7.5667
-3.0252 1.72561 7.55389
-3.0434 1.72124 7.52808
-3.05642 1.72221 7.52517
-3.08835 1.72635 7.53335
-3.10654 1.72301 7.50953
-3.13454 1.72501 7.50871
-3.16061 1.7249 7.49991
-3.18861 1.7269 7.49909
-3.20779 1.72358 7.47628
-3.22866 1.72884 7.49336
-3.24488 1.72441 7.46355
-3.27585 1.72749 7.46773
-3.29993 1.72735 7.45692
-3.32205 1.72613 7.4411
-3.35007 1.72812 7.43928
-3.38202 1.73223 7.44546
-3.38521 1.72686 7.42056
-3.41224 1.72882 7.41674
-3.44027 1.72978 7.41293
-3.46042 1.7275 7.39311
-3.48647 1.72842 7.3863
-3.51646 1.73145 7.38748
-3.53563 1.72814 7.36567
-3.55061 1.73018 7.36775
-3.59977 1.73089 7.34611
1.27802 1.74799 8.09621
1.23909 1.74916 8.10549
1.18616 1.74933 8.11489
1.13214 1.74732 8.11232
1.1192 1.74845 8.1204
1.09218 1.74743 8.11762
1.06837 1.75281 8.14272
1.04138 1.75185 8.14394
1.0154 1.75191 8.14714
0.9895 1.75412 8.1603
0.965684 1.75949 8.18441
0.950623 1.75739 8.17655
0.922539 1.75424 8.1658
0.867402 1.74902 8.1483
0.788534 1.75133 8.16586
0.778825 1.7599 8.20381
0.0951168 1.76193 8.24494
0.0810865 1.76088 8.24106
0.049438 1.74771 7.89044
0.0234695 1.74878 7.89462
0.0103933 1.74664 7.88475
-0.0156825 1.74452 7.87498
-0.0406975 1.7435 7.87318
-0.0668342 1.74026 7.85542
-0.0918492 1.73925 7.85363
-0.117733 1.74349 7.86876
-0.130825 1.74032 7.8569
-0.155847 1.74029 7.85409
-0.181877 1.73925 7.8503
-0.207899 1.73823 7.84752
-0.232921 1.7382 7.8447
-0.283996 1.73609 7.83512
-0.321987 1.73713 7.83639
-0.348025 1.73608 7.8316
-0.373947 1.73824 7.84176
-0.425029 1.73712 7.83116
-0.679211 1.73493 7.80811
-2.63479 1.71724 7.34204
-2.8975 1.71601 7.24802
-2.91765 1.71372 7.22821
-2.96576 1.71454 7.21356
-2.98984 1.71441 7.20374
-3.00089 1.71333 7.19784
-3.02789 1.71533 7.19701
-3.04509 1.71196 7.17119
-3.07308 1.71399 7.17237
-3.0991 1.71597 7.16953
-3.12023 1.71373 7.15272
-3.1433 1.7136 7.1429
-3.15729 1.71463 7.14399
-3.20542 1.71541 7.12734
-3.23146 1.71735 7.1225
-3.24961 1.71406 7.10169
-3.27564 1.71603 7.09885
-3.30561 1.7191 7.10203
-3.31568 1.71797 7.09312
-3.33974 1.71887 7.08529
-3.36577 1.72083 7.08146
-3.38493 1.71753 7.06065
-3.41095 1.71949 7.05681
-3.43601 1.72039 7.04899
-3.46008 1.72028 7.04017
-3.47406 1.72232 7.04225
-3.49912 1.72321 7.03442
-3.5222 1.72307 7.02359
-3.54529 1.72292 7.01277
-3.57231 1.7249 7.00994
-3.5944 1.72372 6.99713
-3.60349 1.72257 6.98621
-3.62658 1.7224 6.97438
-3.65557 1.72544 6.97556
-3.67273 1.72213 6.95373
0.910082 1.74643 7.83997
0.891581 1.7614 7.9049
0.865597 1.76145 7.90709
0.851551 1.76037 7.90121
0.490795 1.76109 7.93492
0.463696 1.75792 7.92217
0.437651 1.75685 7.91639
0.412782 1.76012 7.93353
0.385698 1.75798 7.92276
0.359691 1.75698 7.92197
0.346591 1.7538 7.90912
0.320569 1.75277 7.90633
0.2946 1.75385 7.91051
0.268594 1.75386 7.9097
0.242525 1.75074 7.90094
0.216533 1.75078 7.90214
0.191504 1.75073 7.89833
0.178534 1.7508 7.90242
0.152497 1.74975 7.89764
0.126543 1.75086 7.90382
0.100483 1.74976 7.89603
0.075468 1.74875 7.89423
0.0560565 1.74202 7.57443
0.0439802 1.73988 7.56455
0.0190268 1.74099 7.57073
-0.00601832 1.73992 7.56493
-0.0309636 1.74204 7.57209
-0.054963 1.74206 7.57227
-0.080116 1.73678 7.55253
-0.104076 1.73887 7.55768
-0.117061 1.73891 7.55978
-0.142068 1.73891 7.55897
-0.166159 1.73675 7.54718
-0.191105 1.73788 7.55435
-0.216096 1.73891 7.55553
-0.265125 1.73789 7.55191
-0.277186 1.73678 7.54402
-0.30127 1.73363 7.53324
-0.326261 1.73466 7.53442
-0.350345 1.73152 7.52364
-0.375305 1.73361 7.5288
-0.39935 1.73254 7.523
-0.423388 1.73148 7.51819
-0.436349 1.73257 7.52328
-0.462256 1.73676 7.53541
-0.485371 1.73256 7.52064
-0.510385 1.73255 7.51883
-0.535369 1.73359 7.52101
-0.559429 1.73249 7.5132
-0.583481 1.73141 7.5064
-0.595519 1.73034 7.5015
-0.668586 1.72926 7.49307
-0.718545 1.73137 7.49841
-0.743544 1.73239 7.49859
-0.754628 1.73024 7.4877
-0.803664 1.7302 7.48307
-0.827702 1.72914 7.47827
-0.984932 1.7268 7.44848
-2.65327 1.71336 7.01219
-2.67535 1.71222 7.00137
-2.70136 1.71422 7.00054
-2.72441 1.71513 6.9937
-2.73253 1.71192 6.9788
-2.77963 1.71274 6.96515
-2.80367 1.71369 6.96031
-2.8287 1.71465 6.95649
-2.85274 1.71558 6.95065
-2.8699 1.71228 6.92983
-2.88194 1.71221 6.92492
-2.91088 1.71634 6.93208
-2.92903 1.71305 6.91226
-2.9521 1.71294 6.90343
-2.97124 1.71067 6.88461
-2.99725 1.71267 6.88377
-3.00729 1.71259 6.87785
-3.02546 1.70928 6.85603
-3.05638 1.71445 6.86619
-3.07354 1.71115 6.84537
-3.1025 1.71425 6.85054
-3.12458 1.71411 6.84071
-3.1447 1.71289 6.82487
-3.16262 1.71704 6.83395
-3.18274 1.71483 6.81913
-3.2058 1.71573 6.81129
-3.22886 1.71561 6.80246
-3.24995 1.71545 6.79062
-3.27303 1.71532 6.7808
-3.29904 1.71731 6.77896
-3.31303 1.71935 6.78104
-3.33512 1.71817 6.76822
-3.3572 1.71804 6.75839
-3.38026 1.71892 6.74955
-3.40038 1.71772 6.73472
-3.42641 1.71968 6.73088
-3.44946 1.72059 6.72404
-3.46247 1.72157 6.72213
-3.48259 1.71935 6.70631
-3.50467 1.72021 6.69646
-3.52577 1.71902 6.68263
-3.54589 1.71781 6.6678
-3.57289 1.72082 6.66696
-3.59399 1.71964 6.65414
-3.60699 1.72064 6.65322
1.43514 1.7413 7.44804
1.41116 1.74035 7.45023
1.38721 1.74145 7.4564
1.36221 1.74049 7.4576
1.33726 1.74059 7.46379
1.31642 1.74492 7.48488
1.30132 1.74174 7.47204
1.28051 1.74712 7.49712
1.25764 1.75039 7.51425
1.23055 1.74623 7.50251
1.20764 1.74843 7.51465
1.18262 1.7474 7.51186
1.16083 1.75282 7.53894
1.14991 1.75499 7.55
1.09567 1.74555 7.51854
1.06964 1.74451 7.51475
1.04466 1.74458 7.51794
1.01964 1.74255 7.51516
0.995692 1.74367 7.52232
0.984823 1.74793 7.53934
0.964084 1.75545 7.57339
0.939077 1.75445 7.5726
0.754325 1.75806 7.60594
0.66735 1.75717 7.60961
0.61632 1.75514 7.60602
0.591275 1.75407 7.60022
0.542344 1.75524 7.60958
0.504337 1.75426 7.60888
0.479269 1.75214 7.6001
0.454323 1.75326 7.60727
0.429308 1.75225 7.60547
0.404194 1.74905 7.59071
0.379171 1.74802 7.58791
0.36731 1.7523 7.60594
0.341157 1.74702 7.58621
0.316104 1.74494 7.57943
0.292227 1.74919 7.59555
0.267205 1.74816 7.59275
0.242213 1.7482 7.59394
0.217229 1.74824 7.59613
0.20516 1.74612 7.58725
0.180176 1.74617 7.58944
0.155154 1.74614 7.58663
0.130032 1.74192 7.57088
0.106125 1.74512 7.58301
0.0810947 1.74408 7.57921
0.0402305 1.74543 7.33147
0.0161389 1.74227 7.31969
-0.00787546 1.74226 7.31787
-0.0199523 1.73912 7.30801
-0.0438054 1.74442 7.32712
-0.0679585 1.73914 7.30737
-0.0919578 1.73916 7.30755
-0.115988 1.73812 7.30375
-0.138995 1.73812 7.30292
-0.163056 1.73602 7.29513
-0.175001 1.73813 7.30219
-0.199023 1.73811 7.29937
-0.223084 1.736 7.29159
-0.24706 1.73707 7.29475
-0.270098 1.73601 7.28994
-0.294135 1.73495 7.28514
-0.318142 1.73496 7.28432
-0.330073 1.7371 7.29338
-0.35411 1.73604 7.28857
-0.378147 1.73598 7.28375
-0.401208 1.73388 7.27596
-0.425199 1.73491 7.27712
-0.448275 1.73278 7.26733
-0.473167 1.73601 7.28147
-0.483382 1.7296 7.25364
-0.509227 1.73492 7.27376
-0.532257 1.73487 7.26993
-0.555356 1.7317 7.25715
-0.580285 1.73485 7.26629
-0.602431 1.72959 7.24753
-0.626415 1.73063 7.2497
-0.638422 1.73063 7.24879
-0.661498 1.7285 7.23899
-0.68455 1.72841 7.23217
-0.708534 1.72846 7.23435
-0.73254 1.72946 7.23351
-0.756539 1.72948 7.23369
-0.7815 1.73157 7.23885
-0.792569 1.72944 7.22996
-0.81656 1.73047 7.23113
-0.838666 1.72828 7.21733
-0.862688 1.72826 7.21451
-0.88481 1.72404 7.19874
-0.909701 1.72826 7.21286
-0.920755 1.72717 7.20596
-0.944784 1.72712 7.20214
-0.96879 1.72813 7.20131
-0.991812 1.7281 7.19848
-1.0149 1.72595 7.18769
-1.03795 1.72487 7.18087
-1.06289 1.728 7.18902
-1.07395 1.72589 7.18113
-1.09888 1.72903 7.18927
-1.12006 1.7237 7.16651
-1.14308 1.72368 7.16368
-1.16901 1.72783 7.17282
-1.19012 1.72462 7.15802
-1.21508 1.72673 7.16418
-1.2252 1.7235 7.1483
-1.24726 1.7224 7.14048
-1.29625 1.72445 7.14182
-1.31639 1.72118 7.12302
-1.34042 1.72114 7.1192
-1.3644 1.7222 7.12236
-1.42154 1.72096 7.10381
-1.54974 1.72065 7.07778
-1.6179 1.71839 7.05732
-2.523 1.71088 6.78221
-2.53403 1.71083 6.7783
-2.58404 1.71483 6.77661
-2.60022 1.7105 6.7538
-2.62719 1.71357 6.75696
-2.65121 1.71554 6.75411
-2.67622 1.71654 6.75328
-2.68528 1.71643 6.74535
-2.70833 1.71635 6.73852
-2.72941 1.7162 6.72768
-2.75345 1.71614 6.72286
-2.7765 1.71705 6.71602
-2.79857 1.71694 6.70719
-2.82062 1.71685 6.70036
-2.83363 1.71784 6.69944
-2.8498 1.71452 6.67661
-2.87285 1.71544 6.67077
-2.89883 1.71749 6.67293
-2.9209 1.71736 6.6631
-2.93904 1.71511 6.64527
-2.9621 1.715 6.63744
-2.97313 1.71495 6.63352
-2.99422 1.71479 6.62168
-3.01825 1.71575 6.61785
-3.03932 1.71562 6.60801
-3.06237 1.71654 6.60217
-3.0815 1.71431 6.58534
-3.10258 1.71416 6.5745
-3.11951 1.7183 6.58357
-3.14256 1.71922 6.57673
-3.16463 1.71909 6.5669
-3.18964 1.72109 6.56606
-3.20974 1.7199 6.55222
-3.22984 1.71872 6.53939
-3.25389 1.71965 6.53356
-3.26394 1.71955 6.52663
-3.286 1.71945 6.5188
1.53901 1.74003 7.16423
1.47803 1.73711 7.16674
1.45609 1.73824 7.17489
1.43213 1.73935 7.18105
1.40919 1.73947 7.18822
1.38622 1.73954 7.1924
1.36329 1.74071 7.20255
1.35337 1.74286 7.2126
1.32731 1.74076 7.20482
1.30226 1.73769 7.19906
1.2846 1.74834 7.24204
1.26165 1.74846 7.24921
1.23868 1.74854 7.25338
1.21576 1.7507 7.26352
1.19853 1.74229 7.23477
1.17141 1.73807 7.21904
1.1026 1.74148 7.24351
1.08386 1.74899 7.27754
1.05991 1.75011 7.28471
1.05001 1.75331 7.29774
0.642339 1.75423 7.3428
0.581256 1.75011 7.33232
0.557271 1.75016 7.3345
0.534357 1.75334 7.34563
0.50925 1.74915 7.33188
0.485258 1.74918 7.33306
0.461312 1.7503 7.34022
0.448259 1.74921 7.33334
0.424267 1.74924 7.33452
0.401352 1.75142 7.34566
0.376152 1.74406 7.31996
0.353323 1.7504 7.34204
0.328169 1.74412 7.32232
0.304278 1.74834 7.33644
0.292285 1.74837 7.33753
0.268247 1.74631 7.33274
0.244163 1.74317 7.32196
0.220287 1.74742 7.33808
0.196257 1.74638 7.33428
0.172265 1.74641 7.33546
0.14812 1.74215 7.3167
0.136235 1.74538 7.33175
0.112182 1.74329 7.32496
0.0881827 1.74331 7.32514
0.0641532 1.74327 7.32132
-0.0845075 1.72915 6.9696
-0.130467 1.73126 6.97491
-0.175512 1.7302 6.96927
-0.210518 1.73021 6.96853
-0.232672 1.72493 6.94877
-0.278609 1.72708 6.95709
-0.323653 1.72603 6.95144
-0.358621 1.72811 6.95568
-0.403627 1.72813 6.95502
-0.447802 1.72382 6.93241
-0.482785 1.72488 6.93466
-0.527837 1.72381 6.92801
-0.550836 1.72382 6.92818
-0.573851 1.72381 6.92636
-0.61888 1.72378 6.9227
-0.628963 1.72163 6.9118
-0.675892 1.7248 6.92111
-0.799094 1.72149 6.89509
-2.98903 1.70228 6.24978
-3.00615 1.70006 6.23394
-3.09042 1.70058 6.19856
-3.12544 1.70355 6.19478
-3.14061 1.70023 6.17294
-3.16659 1.70328 6.17509
-3.17879 1.69891 6.14924
-3.21365 1.7072 6.16739
-3.2219 1.69972 6.13455
-3.25971 1.7101 6.15869
-3.2668 1.70793 6.14677
-3.28098 1.7046 6.12393
-3.30894 1.70869 6.12908
-3.32311 1.70537 6.10723
-3.34417 1.70526 6.09839
-3.36722 1.70718 6.09253
-3.38728 1.70707 6.08369
-3.39141 1.70382 6.06676
-3.41544 1.70578 6.06291
-3.45264 1.7034 6.03623
-3.47469 1.70533 6.03036
-3.51055 1.71362 6.04851
-3.52175 1.70923 6.02166
-3.53771 1.71232 6.02673
-3.55779 1.71217 6.01589
-3.57394 1.7099 5.99704
-3.59993 1.71293 5.99819
-3.63023 1.70736 5.95849
-3.68735 1.71117 5.94287
1.54762 1.73732 6.84616
1.52362 1.73635 6.84736
1.50478 1.74066 6.86744
1.47869 1.73652 6.8567
1.37474 1.73368 6.86352
1.35489 1.73799 6.88361
1.33295 1.73912 6.89176
1.30994 1.73711 6.88996
1.28802 1.73928 6.9001
1.14439 1.74609 6.94909
1.12244 1.74721 6.95624
1.08955 1.74946 6.97145
0.963686 1.7498 6.9894
0.836726 1.74797 6.99538
0.789735 1.74702 6.99675
0.766689 1.74494 6.99095
0.742681 1.74395 6.99015
0.721874 1.75033 7.01522
0.696636 1.74189 6.98453
0.685767 1.74515 7.00156
0.663836 1.7473 7.0107
0.63866 1.74098 6.98798
0.61563 1.73994 6.98417
0.59376 1.7432 7.00128
0.568538 1.73579 6.97258
0.545523 1.73478 6.97077
0.535761 1.74225 7.00174
0.51167 1.73909 6.98996
0.488563 1.7349 6.9762
0.465578 1.73494 6.97837
0.441494 1.7318 6.9676
0.419656 1.73712 6.98868
0.396557 1.73395 6.9759
0.373511 1.73188 6.97011
0.361496 1.73085 6.96821
0.339658 1.73618 6.9893
0.315451 1.7288 6.96259
0.293551 1.73201 6.97571
0.270529 1.73098 6.9729
0.247514 1.73097 6.97107
0.235476 1.7289 6.96619
0.212446 1.72786 6.96238
0.189408 1.7268 6.95757
0.167532 1.73106 6.97367
0.144471 1.72895 6.96588
0.121418 1.72687 6.95908
0.0874336 1.72692 6.96134
0.0644499 1.72797 6.96349
-2.91916 1.69804 5.96628
-3.00552 1.69539 5.91896
-3.03444 1.70156 5.92909
-3.04466 1.69514 5.90026
-3.06061 1.69925 5.90732
-3.08363 1.70122 5.90446
-3.14282 1.70188 5.87889
-3.15206 1.69543 5.84805
-3.17409 1.69637 5.8432
-3.19595 1.70367 5.86226
-3.20222 1.69614 5.82642
-3.22524 1.69811 5.82356
-3.25022 1.70116 5.8257
-3.26438 1.69786 5.80486
-3.28938 1.70088 5.805
-3.30846 1.70073 5.79415
-3.31552 1.69962 5.78621
-3.33757 1.70154 5.78035
-3.35862 1.70245 5.77349
-3.37474 1.70023 5.75765
-3.39086 1.699 5.74178
-3.42178 1.70517 5.75193
-3.43593 1.70189 5.73208
-3.44399 1.70179 5.72514
-3.47294 1.7069 5.73128
-3.48314 1.70152 5.70544
-3.50419 1.70242 5.69758
-3.52624 1.70435 5.69172
-3.5463 1.70524 5.68386
-3.56045 1.70196 5.66401
-3.57541 1.70504 5.66908
-3.5945 1.70488 5.65722
-3.61654 1.70681 5.65136
1.56652 1.73819 6.56797
1.54969 1.74351 6.58902
1.52462 1.73941 6.58127
1.50059 1.73735 6.57648
1.48172 1.74063 6.59458
1.4587 1.73861 6.59178
1.3577 1.73368 6.59261
1.3326 1.72951 6.57986
1.31583 1.73696 6.60988
1.29802 1.74234 6.63494
1.27975 1.73183 6.59923
1.21276 1.7299 6.60176
1.16405 1.73749 6.63902
1.1264 1.74819 6.68515
1.03642 1.7463 6.68886
1.02543 1.74633 6.68994
0.980425 1.74434 6.68931
0.959463 1.74443 6.69447
0.937495 1.74551 6.69862
0.913418 1.74138 6.68886
0.893541 1.74563 6.70495
0.880434 1.74143 6.69111
0.857365 1.73832 6.68233
0.836503 1.7426 6.70042
0.813442 1.7395 6.69264
0.790404 1.73744 6.68785
0.769481 1.7396 6.69797
0.746442 1.73755 6.69318
0.722312 1.73231 6.67643
0.713435 1.73655 6.69244
0.689321 1.73235 6.67768
0.667305 1.73134 6.67586
0.646375 1.73349 6.68499
0.624406 1.73356 6.68915
0.60136 1.73149 6.68336
0.590291 1.72936 6.67447
0.568338 1.73047 6.68062
0.546323 1.72946 6.6788
0.525438 1.73269 6.69391
0.5013 1.72744 6.67617
0.479293 1.72745 6.67534
0.446279 1.72644 6.6736
0.424233 1.72437 6.6678
0.402287 1.72549 6.67494
0.381395 1.72971 6.68904
0.358272 1.72449 6.67329
0.337373 1.7277 6.6864
0.304366 1.72771 6.68565
0.281266 1.72353 6.67288
0.260359 1.72672 6.685
0.21533 1.7257 6.68135
0.0405108 1.73322 6.43952
0.019465 1.73115 6.43371
-0.00156518 1.73011 6.42988
-0.0224949 1.73326 6.439
-0.0436255 1.72802 6.42223
-0.0656167 1.72905 6.42338
-0.0755706 1.73015 6.42944
-0.0966007 1.7291 6.42562
-0.117677 1.72697 6.4158
-0.138669 1.727 6.41696
-0.16066 1.72803 6.41811
-0.181659 1.72805 6.41827
-0.202651 1.72808 6.41943
-0.212673 1.72804 6.4165
-0.23375 1.72491 6.40671
-0.25568 1.72806 6.41583
-0.275764 1.72491 6.40502
-0.296802 1.72385 6.4002
-0.318747 1.72597 6.40733
-0.338815 1.72385 6.39851
-0.348853 1.72278 6.3936
-0.369961 1.71859 6.37982
-0.390898 1.72173 6.38794
-0.412882 1.72277 6.39009
-0.432904 1.72174 6.38725
-0.453957 1.72065 6.38043
-0.47591 1.72276 6.38656
-0.485964 1.72066 6.37967
-0.506947 1.72171 6.38181
-0.527985 1.72065 6.37698
-0.548969 1.72169 6.37913
-0.569076 1.7185 6.36532
-0.591013 1.72163 6.37344
-0.601974 1.72272 6.37851
-0.621143 1.7174 6.35673
-0.643041 1.72161 6.36983
-0.66311 1.71949 6.36102
-0.683232 1.71627 6.34521
-0.704246 1.71626 6.34337
-0.725207 1.71835 6.3485
-0.735291 1.71519 6.33762
-0.757221 1.71834 6.34674
-0.777281 1.71724 6.33891
-0.799242 1.71933 6.34404
-0.820279 1.71827 6.33922
-0.840316 1.71821 6.33437
-0.862293 1.71927 6.33752
-0.871392 1.71608 6.32463
-0.893322 1.71923 6.33375
-0.913405 1.71708 6.32293
-0.932496 1.71492 6.31111
-0.953519 1.71489 6.30827
-0.99457 1.71482 6.30157
-1.00652 1.71692 6.30763
-1.02564 1.71371 6.29282
-1.04663 1.71474 6.29397
-1.06668 1.71365 6.28713
-1.08963 1.71575 6.29328
-1.10874 1.71356 6.27945
-1.12975 1.71356 6.27861
-1.15982 1.71244 6.26885
-1.17891 1.71029 6.25802
-1.22188 1.71336 6.2613
-1.27397 1.71322 6.2497
-1.29207 1.71004 6.23688
-1.31406 1.71107 6.23803
-1.52651 1.70734 6.17968
-1.72794 1.70563 6.12321
-1.92938 1.7049 6.06573
-1.9675 1.70369 6.05003
-2.05673 1.7023 6.01972
-2.07579 1.70219 6.01187
-2.11882 1.70415 6.00716
-2.188 1.70385 5.98368
-2.22418 1.70153 5.96099
-2.26427 1.70138 5.94929
-2.28235 1.70023 5.93844
-2.29629 1.70335 5.9455
-2.31243 1.70009 5.92767
-2.33344 1.70208 5.9258
-2.35252 1.70094 5.91596
-2.37159 1.70082 5.9071
-2.39065 1.70072 5.89925
-2.41778 1.69849 5.88248
-2.43979 1.70047 5.88062
-2.45786 1.69934 5.87077
-2.49599 1.69912 5.85406
-2.52291 1.70428 5.86418
-2.53904 1.70104 5.84735
-2.54416 1.69782 5.83244
-2.56616 1.69983 5.83157
-2.58522 1.69972 5.82372
-2.60822 1.70274 5.82384
-2.62926 1.70368 5.81899
-2.64733 1.70254 5.80914
-2.66641 1.70241 5.79928
-2.6784 1.70343 5.80036
-2.69845 1.70434 5.7935
-2.71947 1.70531 5.79064
-2.73952 1.70623 5.78378
-2.75662 1.70505 5.77092
-2.77373 1.70285 5.75708
-2.79574 1.70484 5.75522
-2.80182 1.70268 5.74429
-2.82287 1.70361 5.73844
-2.8439 1.70455 5.73358
-2.86691 1.70755 5.73271
-2.88301 1.70635 5.71885
-2.90406 1.70728 5.71299
-2.92409 1.70822 5.70813
-2.92821 1.704 5.69322
-2.95516 1.70911 5.69935
-2.97029 1.70687 5.68249
-2.99133 1.70779 5.67664
-3.01335 1.70978 5.67477
-3.03341 1.71068 5.66691
-3.0505 1.70951 5.65505
-3.0615 1.7105 5.65412
-3.09965 1.71024 5.63441
-3.11674 1.71009 5.62354
1.63298 1.72715 6.23059
1.61096 1.72512 6.22778
1.57625 1.73371 6.26592
1.55837 1.73696 6.28201
1.54222 1.72967 6.26224
1.48551 1.73728 6.30056
1.46245 1.73417 6.29278
1.44564 1.73956 6.31783
1.42464 1.73857 6.318
1.41675 1.74178 6.33201
0.806465 1.74261 6.42961
0.731497 1.74172 6.43419
0.709443 1.73963 6.42739
0.667498 1.74077 6.43469
0.62556 1.74192 6.44299
0.571538 1.73991 6.44042
0.550576 1.741 6.44557
0.528484 1.73684 6.43379
0.507469 1.73582 6.43197
0.486585 1.74006 6.44706
0.475516 1.73694 6.43819
0.454493 1.73591 6.43536
0.433517 1.73697 6.43851
0.41144 1.73284 6.42873
0.390556 1.73707 6.44383
0.369533 1.73604 6.441
0.348526 1.73504 6.44018
0.337472 1.73295 6.43329
0.316566 1.73714 6.44539
0.295558 1.73614 6.44456
0.273551 1.73514 6.44374
0.252513 1.73408 6.43891
0.231483 1.73304 6.43509
0.210537 1.73416 6.44223
0.19946 1.73202 6.43234
0.178499 1.73311 6.43748
0.157546 1.73421 6.44363
0.13547 1.73208 6.43382
0.114416 1.72999 6.42701
0.0934014 1.72898 6.42519
0.0724635 1.73111 6.43331
0.0614638 1.73112 6.4334
0.0285751 1.71744 6.18381
0.00766791 1.72064 6.19592
-0.022485 1.71536 6.17623
-0.0434536 1.71644 6.18037
-0.0844449 1.71648 6.18168
-0.124497 1.71541 6.17499
-0.13542 1.71756 6.18504
-0.216533 1.7144 6.1707
-2.73056 1.69224 5.51488
-2.74862 1.69212 5.50602
-2.79674 1.69291 5.49036
-2.81678 1.69384 5.4845
-2.83584 1.69475 5.47763
-2.85785 1.69674 5.47577
-2.87592 1.6966 5.4659
-2.88594 1.69658 5.46398
-2.90204 1.6954 5.45112
-2.92207 1.69735 5.44724
-2.93818 1.69514 5.43239
-2.95526 1.69499 5.42152
-2.97924 1.69905 5.42464
-2.98926 1.69902 5.42171
-2.99748 1.69259 5.39287
-3.02145 1.69666 5.39599
-3.0484 1.70178 5.40312
-3.05267 1.69326 5.36827
-3.07665 1.69731 5.37039
-3.09374 1.69715 5.35852
-3.10869 1.70025 5.36459
-3.1238 1.69905 5.35072
-3.1537 1.70625 5.36284
-3.15699 1.6967 5.326
-3.18294 1.7018 5.33112
-3.20495 1.7048 5.33024
-3.22303 1.70465 5.31938
-3.24816 1.70341 5.30258
-3.26327 1.7012 5.28773
-3.3165 1.7018 5.25812
1.50157 1.72447 6.04459
1.46371 1.72675 6.06184
1.44685 1.73205 6.0809
1.42794 1.73424 6.09301
1.3433 1.74198 6.13954
1.30609 1.73261 6.11295
1.2903 1.74002 6.13997
1.27033 1.74009 6.14412
1.25034 1.73914 6.14628
1.17634 1.73518 6.1459
1.11854 1.7406 6.17226
1.09756 1.74066 6.17541
1.07759 1.74074 6.17956
1.06658 1.73973 6.17866
1.04449 1.73557 6.16689
1.02457 1.73775 6.17801
1.00563 1.73886 6.18513
0.982521 1.73367 6.17138
0.961544 1.73373 6.17454
0.941559 1.73378 6.17669
0.93056 1.73379 6.17677
0.910583 1.73384 6.17992
0.890629 1.73495 6.18606
0.86959 1.73189 6.18126
0.849652 1.73402 6.18938
0.82756 1.72986 6.17761
0.805514 1.72779 6.1718
0.796568 1.7289 6.17886
0.776614 1.73 6.18499
0.754561 1.72791 6.17819
0.733538 1.72588 6.17537
0.714607 1.72803 6.18449
0.693569 1.72597 6.17967
0.673631 1.72811 6.18779
0.661546 1.72395 6.17695
0.642624 1.72711 6.18704
0.621632 1.72714 6.1882
0.600601 1.7251 6.18439
0.580663 1.72723 6.19251
0.561717 1.72835 6.19964
0.540718 1.72837 6.19979
0.530726 1.72839 6.20087
0.510765 1.72948 6.206
0.490896 1.73374 6.22309
0.469888 1.73274 6.22227
0.448842 1.73067 6.21645
0.428881 1.73176 6.22159
0.407843 1.7307 6.21676
0.396674 1.72338 6.19495
0.375698 1.72444 6.19809
0.355775 1.7276 6.2082
0.334698 1.72347 6.19842
0.314722 1.72453 6.20155
0.294753 1.7256 6.20569
0.2737 1.72352 6.19888
0.263708 1.72354 6.19995
0.242639 1.72042 6.19116
0.222701 1.72255 6.19928
0.201617 1.71941 6.18848
0.181664 1.72151 6.1946
0.16171 1.72261 6.20073
0.140626 1.71947 6.18994
0.130657 1.72053 6.194
0.109619 1.71847 6.18919
0.0896656 1.72058 6.19531
0.0685582 1.71639 6.18153
0.0486667 1.72061 6.19561
-0.124155 1.71215 5.95501
-2.86692 1.68669 5.20195
-2.94112 1.68933 5.17446
-2.95622 1.68814 5.16159
-2.96722 1.68915 5.16166
-2.98233 1.68796 5.14779
-3.00333 1.69096 5.1469
-3.02238 1.69188 5.14103
-3.04241 1.69282 5.13617
-3.05455 1.69056 5.11829
-3.07755 1.69358 5.11842
-3.08855 1.69457 5.11749
-3.09674 1.68921 5.09262
-3.11678 1.69115 5.08775
-3.13286 1.69101 5.07787
-3.14598 1.68777 5.06101
-3.16898 1.69179 5.06113
-3.18408 1.69061 5.04825
-3.19409 1.69158 5.04632
-3.21413 1.69252 5.04145
-3.22924 1.69133 5.02758
-3.2463 1.69222 5.0197
-3.2693 1.69522 5.01883
-3.28341 1.69401 5.00395
-3.2954 1.69604 5.00501
-3.31249 1.69589 4.99414
-3.33448 1.6989 4.99426
-3.35157 1.69875 4.98339
-3.3867 1.69951 4.96564
1.53277 1.71991 5.80539
1.51588 1.72313 5.81947
1.49798 1.72534 5.83258
1.4852 1.73378 5.86155
1.46627 1.73492 5.87068
1.44526 1.73291 5.86887
1.3574 1.73324 5.88753
1.33738 1.73122 5.88571
1.31636 1.7292 5.88289
1.29262 1.73772 5.91695
1.2716 1.7357 5.91514
1.25056 1.73363 5.90933
1.23057 1.73267 5.91149
1.20747 1.7275 5.89874
1.19057 1.7307 5.91182
1.17644 1.72446 5.89502
1.15851 1.72661 5.90412
1.13956 1.72671 5.91027
1.11958 1.72677 5.91342
1.09956 1.72575 5.91158
1.0796 1.72584 5.91673
1.05959 1.72484 5.9159
1.04961 1.72488 5.91797
1.0317 1.72807 5.93006
1.00959 1.72288 5.9163
0.990633 1.72397 5.92143
0.971718 1.72614 5.93254
0.950664 1.72305 5.92575
0.929617 1.71998 5.91995
0.899571 1.71691 5.91422
0.880649 1.72008 5.92432
0.863818 1.72541 5.94637
0.84168 1.71916 5.92863
0.820634 1.71709 5.92281
0.802718 1.71927 5.93392
0.791695 1.71823 5.93102
0.772711 1.71827 5.93316
0.752742 1.71935 5.93729
0.733766 1.71941 5.94044
0.71375 1.71739 5.93862
0.673797 1.71851 5.9449
0.387886 1.71588 5.9581
0.367863 1.71485 5.95526
0.328918 1.71598 5.96254
-2.41237 1.69345 5.27243
-2.49573 1.6898 5.22511
-2.53888 1.68954 5.20543
-2.573 1.68932 5.18969
-2.60615 1.68805 5.16996
-2.61616 1.68803 5.16803
-2.66736 1.68768 5.14242
-2.68343 1.68755 5.13254
-2.70247 1.68849 5.12767
-2.72051 1.68942 5.12279
-2.73644 1.69357 5.13185
-2.76565 1.69018 5.10412
-2.77975 1.68798 5.09025
-2.80075 1.69099 5.09037
-2.82078 1.69295 5.08649
-2.8339 1.69072 5.07062
-2.84292 1.69068 5.06769
-2.85801 1.68952 5.05582
-2.88198 1.69459 5.05992
-2.90398 1.69661 5.06006
-2.9171 1.69438 5.04419
-2.9391 1.6984 5.04429
-2.9422 1.69419 5.03038
-2.96025 1.69512 5.0245
-2.98226 1.6981 5.02262
-3.00031 1.69903 5.01674
-3.01047 1.69472 4.99588
-3.03739 1.70188 5.00498
-3.05249 1.6997 4.99212
-3.06251 1.70167 4.99017
-3.07662 1.69946 4.9753
-3.11371 1.7013 4.96255
-4.35275 1.66636 3.90226
1.57852 1.71842 5.63904
1.56675 1.72687 5.66901
1.55191 1.73118 5.68906
1.535 1.73437 5.70115
1.51707 1.73552 5.71026
1.45017 1.73477 5.72478
1.43326 1.73695 5.73588
1.39428 1.73602 5.73919
1.37327 1.73402 5.73837
1.35429 1.73306 5.74053
1.34325 1.731 5.73564
1.32431 1.73213 5.74377
1.30223 1.72798 5.733
1.28015 1.72385 5.72322
1.26531 1.72917 5.74426
1.24426 1.72509 5.73748
1.22013 1.71885 5.72075
1.21426 1.72411 5.73772
1.19321 1.72103 5.73192
1.17424 1.72111 5.73606
1.15837 1.72536 5.75212
1.13733 1.72331 5.74831
1.11939 1.72443 5.75543
1.09939 1.72344 5.7556
1.08728 1.71825 5.74176
1.06728 1.71726 5.74193
1.04933 1.71838 5.74905
1.02934 1.71841 5.7502
1.00931 1.71536 5.74639
0.991373 1.71749 5.7545
0.973442 1.71964 5.7636
0.963465 1.71969 5.76668
0.945519 1.72081 5.7738
0.92445 1.71769 5.765
0.906519 1.71984 5.77411
0.885465 1.71675 5.76731
0.867527 1.71888 5.77541
0.847488 1.71582 5.77061
0.837504 1.71586 5.77268
0.817474 1.71481 5.76885
0.723621 1.71716 5.78852
0.713605 1.71614 5.78661
0.694675 1.71829 5.79573
0.67459 1.71414 5.78494
0.655621 1.71521 5.78907
0.569684 1.71539 5.79771
0.511692 1.71345 5.79918
0.492716 1.71451 5.80231
0.463716 1.71353 5.80254
0.38571 1.71257 5.80214
0.367764 1.71369 5.80926
0.357772 1.71371 5.81034
0.33878 1.71374 5.81148
0.299773 1.71375 5.81077
0.0282266 1.71888 5.60571
0.0100495 1.71156 5.58295
-0.0088263 1.71681 5.59902
-0.0279029 1.71367 5.58921
-0.0368023 1.71787 5.60222
-0.0550716 1.70737 5.56751
-0.0738477 1.71581 5.59653
-0.110931 1.71367 5.58584
-0.129046 1.70847 5.57105
-0.147845 1.71686 5.59707
-0.157014 1.71055 5.57523
-0.174975 1.71163 5.58035
-0.193067 1.70847 5.56853
-0.212082 1.70745 5.56669
-0.231035 1.71056 5.57278
-0.249034 1.71057 5.57292
-0.294141 1.70639 5.55932
-0.331162 1.70638 5.5566
-0.350169 1.70638 5.55574
-0.369107 1.70951 5.56384
-0.388936 1.71685 5.58588
-0.396191 1.70636 5.55309
-0.414174 1.70741 5.55521
-0.434112 1.71054 5.56331
-0.453033 1.7147 5.5734
-0.470203 1.70739 5.55163
-0.489171 1.70946 5.55574
-0.515247 1.70733 5.54597
-0.533293 1.70526 5.54014
-0.552292 1.70627 5.54026
-0.573113 1.71463 5.5633
-0.588375 1.70413 5.52957
-0.607304 1.70728 5.53866
-0.634388 1.70514 5.5279
-0.671386 1.70617 5.52816
-0.689447 1.70406 5.52033
-0.707462 1.70404 5.51846
-0.725499 1.70398 5.5136
-0.743498 1.704 5.51373
-0.789534 1.70496 5.50907
-1.24123 1.69989 5.41853
-1.31237 1.69968 5.40107
-1.39156 1.69735 5.3757
-1.47172 1.6971 5.3553
-1.50778 1.69699 5.34657
-1.52385 1.69587 5.33771
-1.5699 1.6968 5.33104
-1.58989 1.69883 5.33216
-1.60792 1.69978 5.32828
-1.64688 1.70488 5.3335
-1.6581 1.69648 5.30571
-1.66711 1.69646 5.30378
-1.68905 1.70157 5.31087
-1.71098 1.70572 5.31997
-1.7212 1.6983 5.29115
-1.74217 1.70138 5.29527
-1.75532 1.69611 5.27644
-1.7753 1.69915 5.27855
-1.78528 1.70119 5.28059
-1.80137 1.69903 5.26974
-1.82135 1.70108 5.27186
-1.83744 1.69891 5.26002
-1.8623 1.7072 5.27808
-1.8774 1.70502 5.26523
-1.89251 1.70182 5.25139
-1.90348 1.70387 5.25444
-1.92347 1.7069 5.25555
-1.93465 1.70057 5.23272
-1.95365 1.70258 5.23283
-1.97561 1.70666 5.23694
-1.9956 1.70869 5.23806
-2.00777 1.70338 5.21723
-2.02069 1.70753 5.22626
-2.0407 1.70953 5.22539
-2.05382 1.70631 5.21053
-2.06794 1.70307 5.19368
-2.08989 1.70719 5.20079
-2.10498 1.70603 5.18892
-2.12598 1.70804 5.18904
-2.20319 1.70867 5.16061
-2.23828 1.70852 5.14888
-2.24437 1.70636 5.13795
-2.25947 1.70418 5.1251
