-0.364367 1.74012 7.55458
-0.388512 1.73585 7.53583
-0.413465 1.73696 7.542
-0.450479 1.73696 7.54028
-0.474478 1.73798 7.54044
-0.499447 1.73905 7.54462
-0.523576 1.73582 7.52784
-0.54859 1.73581 7.52603
-0.572589 1.73583 7.52621
-0.584673 1.73367 7.51533
-0.608742 1.73156 7.50655
-0.634625 1.7358 7.52168
-0.657747 1.73258 7.5059
-0.682761 1.73257 7.50409
-0.706753 1.7336 7.50525
-0.731783 1.73256 7.50146
-0.742851 1.73143 7.49256
-0.766896 1.73036 7.48675
-0.791918 1.73033 7.48394
-0.815001 1.72819 7.47314
-0.840946 1.73031 7.48031
-0.865007 1.72921 7.47251
-0.888075 1.72709 7.46371
-0.902936 1.73237 7.48175
-0.925119 1.72703 7.45799
-0.949118 1.72805 7.45815
-0.974125 1.72805 7.45734
-0.997223 1.72588 7.44455
-1.02318 1.72798 7.45071
-1.04723 1.7269 7.44391
-1.05733 1.72471 7.43102
-1.08233 1.72573 7.43119
-1.10638 1.72465 7.42439
-1.13039 1.72463 7.42257
-1.15444 1.72456 7.41675
-1.17847 1.72452 7.41293
-1.18957 1.72134 7.40006
-1.21455 1.72238 7.40223
-1.23951 1.72548 7.40737
-1.26166 1.72121 7.3886
-1.28378 1.71799 7.37281
-1.31071 1.72114 7.38197
-1.33187 1.71685 7.36119
-1.34386 1.71787 7.36227
-1.36693 1.71674 7.35245
-1.39098 1.71567 7.34665
-1.41405 1.71555 7.33783
-1.44001 1.71764 7.34299
-1.46405 1.71657 7.33719
-1.48903 1.71862 7.33934
-1.49913 1.71544 7.32647
-1.52125 1.71323 7.31166
-1.54624 1.71526 7.31282
-1.57124 1.71628 7.313
-1.59333 1.71412 7.30119
-1.61641 1.71297 7.29038
-1.64238 1.71505 7.29455
-1.65149 1.71185 7.28066
-1.67357 1.71071 7.26984
-1.70051 1.71384 7.278
-1.72455 1.71377 7.27218
-1.74569 1.71051 7.25339
-1.77358 1.71575 7.26852
-1.79376 1.71041 7.24475
-1.80673 1.71248 7.24882
-1.83173 1.71449 7.24898
-1.8519 1.71017 7.22619
-1.8769 1.71119 7.22636
-1.89996 1.71009 7.21855
-1.92204 1.70995 7.20872
-1.96198 1.71409 7.21596
-1.98117 1.70873 7.19118
-2.00616 1.71076 7.19234
-2.03604 1.71602 7.20849
-2.0552 1.71272 7.18768
-2.07633 1.70947 7.16988
-2.09517 1.7158 7.19093
-2.11238 1.7104 7.16314
-2.1364 1.71137 7.16031
-2.16436 1.71448 7.16647
-2.18645 1.71332 7.15465
-2.2095 1.71323 7.14783
-2.24037 1.7185 7.16498
-2.24751 1.71523 7.14608
-2.2696 1.71408 7.13526
-2.30145 1.72038 7.15441
-2.31766 1.71498 7.12661
-2.34464 1.71803 7.12877
-2.37162 1.72009 7.13194
-2.39075 1.71784 7.11412
-2.40278 1.71779 7.11021
-2.42974 1.72088 7.11537
-2.44793 1.71654 7.09157
-2.47392 1.71858 7.09273
-2.50188 1.72167 7.0979
-2.523 1.71945 7.08209
-2.54703 1.72041 7.07825
-2.58015 1.71919 7.06252
-2.60518 1.72014 7.05769
-2.62923 1.72107 7.05186
-2.64642 1.71671 7.02705
-2.67535 1.72085 7.03521
-2.70945 1.72068 7.02247
-2.72663 1.71635 6.99966
-2.77375 1.71615 6.98401
-2.80171 1.72023 6.98816
-2.83582 1.72005 6.97442
-2.85495 1.7168 6.95661
-2.90207 1.71761 6.94195
-2.94721 1.71734 6.92229
-2.97027 1.71724 6.91447
2.08677 1.73881 7.2981
2.06179 1.73787 7.3013
2.02483 1.73697 7.3066
1.97899 1.7393 7.32691
1.95502 1.73838 7.33111
1.93003 1.73743 7.33331
1.90815 1.74068 7.34943
1.89618 1.74073 7.35252
1.8681 1.7366 7.34279
1.84518 1.73777 7.35294
1.82431 1.74104 7.37006
1.79932 1.74007 7.37126
1.77745 1.74234 7.38839
1.7665 1.74345 7.39546
1.74049 1.74245 7.39467
1.71446 1.74041 7.3909
1.68945 1.73842 7.39011
1.66655 1.74062 7.40325
1.64467 1.74286 7.41839
1.62072 1.74398 7.42555
1.60978 1.74511 7.43362
1.58274 1.74306 7.42885
1.56294 1.74845 7.45493
1.53794 1.74746 7.45413
1.51194 1.74649 7.45534
1.49005 1.74871 7.46947
1.46611 1.74985 7.47764
1.45309 1.74882 7.47475
1.43021 1.75105 7.48989
1.40314 1.74794 7.48114
1.38024 1.75016 7.49528
1.24538 1.74953 7.51431
0.142847 1.74419 7.58071
-0.0562272 1.73925 7.30624
-0.164201 1.74037 7.31004
-0.187277 1.73824 7.30024
-0.235229 1.74037 7.30657
-0.319288 1.73931 7.29922
-0.366363 1.73719 7.28961
-0.390331 1.73827 7.29377
-0.438391 1.73719 7.28615
-0.462374 1.73823 7.28831
-0.52051 1.73501 7.2708
-0.54451 1.73503 7.27098
-0.568508 1.73605 7.27114
-0.591623 1.73184 7.25638
-0.615583 1.73393 7.26153
-0.627575 1.73496 7.2626
-0.650705 1.73072 7.24584
-0.675573 1.73599 7.26295
-0.698695 1.73177 7.24718
-0.722671 1.73383 7.25033
-0.745747 1.7317 7.24054
-0.757708 1.73278 7.24561
-0.780776 1.73167 7.2368
-0.804806 1.73063 7.233
-0.82695 1.72736 7.21421
-0.851881 1.72951 7.22337
-0.874918 1.72945 7.21854
-0.898924 1.72946 7.21772
-0.909023 1.72727 7.20483
-0.933969 1.72939 7.21199
-0.95799 1.72937 7.20917
-0.981058 1.72825 7.20036
-1.00409 1.72821 7.19653
-1.02808 1.72824 7.19771
-1.05019 1.72603 7.18291
-1.06218 1.72707 7.18498
-1.08334 1.72178 7.16422
-1.10827 1.72491 7.17236
-1.13136 1.72277 7.16156
-1.15437 1.72376 7.15972
-1.17743 1.72265 7.15191
-1.2024 1.72473 7.15607
-1.21345 1.72365 7.15017
-1.23651 1.72255 7.14236
-1.26146 1.72466 7.14852
-1.28066 1.71929 7.12274
-1.30659 1.72242 7.13089
-1.32678 1.71708 7.10711
-1.35075 1.71916 7.11126
-1.36182 1.71702 7.10138
-1.3887 1.72227 7.1175
-1.40789 1.71692 7.09273
-1.43285 1.72001 7.09787
-1.45879 1.72315 7.10602
-1.47892 1.7199 7.08822
-1.50199 1.71878 7.0794
-1.51397 1.71982 7.08148
-1.53319 1.71342 7.05372
-1.55619 1.71442 7.05287
-1.5831 1.71862 7.06502
-1.60325 1.71535 7.04621
-1.62146 1.70895 7.01844
-1.63734 1.71318 7.0335
-1.65846 1.71098 7.01869
-1.70645 1.71401 7.01901
-1.72659 1.71076 7.0012
-1.75255 1.71285 7.00637
-1.77655 1.71487 7.00652
-1.78564 1.7127 6.99462
-1.80675 1.70949 6.97982
-1.83268 1.71364 6.98896
-1.85184 1.70935 6.96816
-1.87683 1.71138 6.96932
-1.90085 1.71237 6.96749
-1.92292 1.71124 6.95767
-1.93393 1.71223 6.95674
-1.95989 1.71432 6.9619
-1.981 1.71213 6.94809
-2.00694 1.71625 6.95523
-2.03001 1.71514 6.94642
-2.05011 1.71294 6.9326
-2.07025 1.71069 6.91478
-2.09004 1.71811 6.94183
-2.10723 1.71376 6.91802
-2.13318 1.71686 6.92317
-2.1543 1.71465 6.90836
-2.18026 1.71774 6.91351
-2.19843 1.71343 6.89171
-2.22927 1.72075 6.91183
-2.23445 1.7154 6.88795
-2.25944 1.71743 6.8891
-2.28639 1.72055 6.89626
-2.3114 1.72254 6.89442
-2.32954 1.71929 6.8766
-2.35552 1.72134 6.87877
-2.36364 1.71812 6.86388
-2.38764 1.72012 6.86303
-2.41168 1.72107 6.85819
-2.43374 1.72096 6.85036
2.10973 1.73778 7.02691
2.09776 1.73785 7.031
2.07172 1.73579 7.02622
2.05185 1.73804 7.04234
2.02582 1.736 7.03857
2.00699 1.74036 7.06165
1.98301 1.73942 7.06484
1.96316 1.74271 7.08395
1.94394 1.7343 7.05521
1.9001 1.73764 7.07649
1.87408 1.73563 7.07472
1.8532 1.73787 7.08985
1.83333 1.74113 7.10695
1.80833 1.73915 7.10717
1.79737 1.74023 7.11224
1.77957 1.74563 7.13829
1.75355 1.74362 7.13652
1.73164 1.7458 7.14765
1.70867 1.74589 7.15283
1.68471 1.74598 7.15801
1.66176 1.74609 7.16418
1.6508 1.74718 7.17024
1.62684 1.74728 7.17542
1.59975 1.74212 7.1637
1.57681 1.74325 7.17186
1.55385 1.74334 7.17703
1.52987 1.74341 7.18021
1.50589 1.74245 7.18241
1.49079 1.73927 7.16957
1.46784 1.73939 7.17674
1.44595 1.74162 7.19087
1.42091 1.73956 7.18609
1.399 1.74174 7.19723
1.37087 1.73652 7.18151
1.35573 1.73127 7.1637
1.28584 1.73253 7.17821
1.26811 1.74006 7.21324
0.0293977 1.73552 6.99061
0.00711345 1.72499 6.95393
-0.0165394 1.73767 6.99892
-0.0388237 1.72714 6.96224
-0.0615614 1.73666 6.99628
-0.0727688 1.72927 6.96947
-0.0966526 1.73351 6.98459
-0.11879 1.72926 6.96681
-0.141674 1.7335 6.98193
-0.163874 1.72613 6.9562
-0.186919 1.72506 6.95039
-0.199687 1.73351 6.98036
-0.221733 1.73144 6.97456
-0.243894 1.72615 6.9538
-0.267793 1.73035 6.96692
-0.290754 1.73145 6.97208
-0.312014 1.72296 6.93836
-0.335829 1.72933 6.96245
-0.346028 1.72295 6.93661
-0.369843 1.72933 6.9607
-0.39105 1.72294 6.93395
-0.414957 1.72614 6.94609
-0.436202 1.71868 6.91435
-0.460962 1.72716 6.94542
-0.483915 1.72926 6.95156
-0.493161 1.72079 6.91975
-0.517037 1.72505 6.93587
-0.538244 1.71866 6.90912
-0.561243 1.71968 6.90928
-0.584211 1.72076 6.91344
-0.608095 1.725 6.92856
-0.631079 1.72604 6.93072
-0.639355 1.71752 6.8949
-0.666069 1.72708 6.93196
-0.684383 1.71749 6.89124
-0.710182 1.72489 6.91733
-0.732228 1.72382 6.91151
-0.751496 1.71532 6.87677
-0.778233 1.72484 6.91084
-0.785525 1.71528 6.87303
-0.810393 1.72055 6.89014
-0.853537 1.7163 6.87153
-0.877475 1.71944 6.87966
-0.897658 1.7141 6.85589
-0.909627 1.71517 6.85996
-1.02175 1.715 6.84381
-1.04667 1.71918 6.85494
-1.05483 1.71286 6.83309
-1.07782 1.7149 6.83523
-1.14395 1.7127 6.81876
-1.16793 1.71475 6.82091
-1.19091 1.71579 6.82307
-1.20099 1.71365 6.81318
-1.24507 1.71252 6.80252
-1.33418 1.71336 6.78818
-1.55267 1.70755 6.7239
-1.62979 1.70737 6.70849
-1.74 1.70703 6.68132
-1.79509 1.70789 6.66972
-1.81618 1.70573 6.65791
-1.9014 1.70436 6.62956
-1.9996 1.70402 6.60231
-2.02067 1.7039 6.59347
-2.05472 1.70384 6.58772
-2.09976 1.70578 6.58203
-2.12278 1.70675 6.57919
-2.14092 1.7035 6.56137
-2.17691 1.70654 6.5626
-2.22293 1.70953 6.5599
-2.26702 1.71037 6.54722
-2.28319 1.70606 6.5254
-2.31209 1.71127 6.53854
-2.31236 1.70275 6.50367
-2.33145 1.70157 6.49083
-2.35937 1.70576 6.50198
-2.38728 1.71094 6.51311
-2.39855 1.70343 6.4783
-2.42942 1.7107 6.49543
-2.44264 1.70428 6.46662
-2.45758 1.7074 6.47369
-2.47962 1.70834 6.46884
-2.50265 1.7093 6.465
-2.51685 1.70392 6.43918
-2.54575 1.70912 6.45132
-2.55897 1.70372 6.4235
-2.58788 1.7089 6.43464
-2.59498 1.70671 6.42173
-2.61309 1.70451 6.40689
-2.63906 1.70758 6.41104
-2.66603 1.71166 6.41519
-2.68022 1.7063 6.39037
-2.70815 1.71146 6.39951
-2.73019 1.71238 6.39366
-2.73239 1.706 6.36776
-2.75933 1.71012 6.37491
-2.77745 1.7079 6.35908
-2.79361 1.70461 6.33924
-2.82057 1.70869 6.34339
-2.84949 1.71386 6.35353
-2.85266 1.70854 6.33163
-2.88059 1.71369 6.34076
-2.89773 1.71144 6.32292
-2.92076 1.7124 6.31908
-2.9379 1.71013 6.30024
-2.96191 1.71211 6.29839
-2.97708 1.7078 6.27657
-2.99302 1.71193 6.28463
1.79976 1.73112 6.7673
1.71403 1.73569 6.80189
1.69001 1.73368 6.8001
1.67118 1.73802 6.82218
1.66332 1.74229 6.84018
1.64136 1.74238 6.84534
1.61633 1.74035 6.84256
1.5985 1.74469 6.86463
1.57552 1.74475 6.86781
1.5505 1.74273 6.86502
1.52855 1.74285 6.87219
1.52173 1.74919 6.89515
1.49771 1.74716 6.89236
1.46538 1.73455 6.84978
1.4215 1.73682 6.86608
1.40789 1.74857 6.91602
1.38491 1.74863 6.91919
1.37185 1.74552 6.91133
1.34989 1.74663 6.91748
0.858373 1.7449 6.98322
0.754436 1.7451 6.992
0.707321 1.73991 6.97743
0.661399 1.74209 6.98775
0.650437 1.74217 6.99283
0.604438 1.74221 6.99318
0.581462 1.74227 6.99635
0.534401 1.73918 6.98875
0.51244 1.74027 6.9939
0.500386 1.73818 6.98702
0.477402 1.73823 6.98919
0.454364 1.73717 6.98438
0.431449 1.73935 6.99552
0.408381 1.73723 6.98673
0.385465 1.73941 6.99787
0.362358 1.73522 6.9841
0.350389 1.73629 6.98818
0.328428 1.73738 6.99333
0.305452 1.73844 6.99649
0.259399 1.73637 6.98986
0.236438 1.73746 6.99502
0.2245 1.73959 7.00308
0.201447 1.7375 6.99628
0.178386 1.7354 6.98849
0.155225 1.72911 6.96775
0.132303 1.73227 6.97788
0.110533 1.73973 7.00794
0.0871884 1.72808 6.96328
0.0752809 1.73127 6.97532
0.0521586 1.72705 6.95956
0.0399352 1.72069 6.6647
0.0289198 1.71967 6.6628
0.00698196 1.7218 6.67094
-0.0150789 1.7197 6.66313
-0.0370783 1.71972 6.6633
-0.0811153 1.71867 6.65864
-0.102161 1.7176 6.65282
-0.113114 1.7187 6.65888
-0.13606 1.72082 6.66603
-0.157121 1.71871 6.65822
-0.179081 1.7208 6.66335
-0.201088 1.72081 6.66252
-0.223172 1.71766 6.65173
-0.245171 1.71767 6.65189
-0.299208 1.71764 6.6473
-0.321184 1.7187 6.65045
-0.397304 1.71552 6.63507
-0.419273 1.71659 6.63922
-0.463263 1.71764 6.64054
-0.626364 1.71755 6.62776
-0.658447 1.71541 6.61704
-0.766565 1.71425 6.60187
-0.819686 1.71206 6.5863
-0.864622 1.71521 6.59459
-0.907697 1.71409 6.58493
-2.3026 1.69833 6.20562
-2.33246 1.70562 6.22374
-2.34861 1.70235 6.20491
-2.36476 1.69807 6.18509
-2.38677 1.70005 6.18322
-2.39582 1.69896 6.17631
-2.41883 1.70096 6.17545
-2.44084 1.70194 6.1736
-2.46092 1.70181 6.16375
-2.48293 1.7028 6.1619
-2.50398 1.70371 6.15505
-2.52208 1.70153 6.14222
-2.52721 1.69828 6.1253
-2.55317 1.70137 6.13045
-2.56537 1.696 6.10462
-2.58839 1.69797 6.10176
-2.61434 1.70208 6.1079
-2.63636 1.70305 6.10505
-2.6584 1.70399 6.1002
-2.66745 1.70391 6.09427
-2.68554 1.70275 6.08242
-2.70953 1.70476 6.08257
-2.73157 1.7057 6.07772
-2.74771 1.70345 6.05988
-2.76777 1.70335 6.05203
-2.79274 1.70641 6.05517
-2.79983 1.70424 6.04325
-2.82383 1.70725 6.04339
-2.84388 1.70716 6.03654
-2.861 1.70494 6.0207
-2.88696 1.70903 6.02584
-2.90506 1.70785 6.01299
-2.91924 1.70352 5.99016
-2.93714 1.70873 6.00322
-2.95623 1.70856 5.99136
-2.97432 1.70739 5.97851
-2.99339 1.70727 5.96966
-3.03255 1.70598 5.94897
-3.05063 1.70583 5.93811
-3.06855 1.70999 5.94818
-3.08074 1.70563 5.92333
-3.09784 1.70445 5.91048
-3.14388 1.7084 5.90477
-3.16592 1.70934 5.89992
-3.19308 1.70805 5.87914
-3.21511 1.70899 5.87429
1.80556 1.72878 6.47426
1.74271 1.73012 6.49471
1.69773 1.7282 6.49808
1.6768 1.72935 6.50722
1.62495 1.73067 6.52659
1.60398 1.73074 6.53075
1.58718 1.73714 6.55679
1.5652 1.7362 6.55997
1.46112 1.72811 6.54987
1.44018 1.72925 6.55801
1.42444 1.73776 6.59201
1.40659 1.74207 6.61208
1.06699 1.74109 6.66666
1.00108 1.7423 6.67814
0.990079 1.74131 6.67824
0.945064 1.73931 6.67661
0.924141 1.74147 6.68674
0.878019 1.73627 6.67116
0.857104 1.73845 6.68229
0.845096 1.73744 6.68139
0.823073 1.73641 6.67857
0.80112 1.73752 6.68472
0.779135 1.73756 6.68689
0.75502 1.73236 6.67214
0.735159 1.73664 6.69023
0.713144 1.73563 6.68841
0.702182 1.73671 6.69348
0.681244 1.73884 6.70161
0.657168 1.73571 6.69183
0.635137 1.73367 6.68803
0.612053 1.73052 6.67725
0.59223 1.73588 6.70032
0.578023 1.72849 6.67353
0.558185 1.73381 6.69461
0.535154 1.73277 6.6908
0.514208 1.73389 6.69794
0.491132 1.73076 6.68816
0.468071 1.72866 6.68036
0.447094 1.72872 6.68352
0.436087 1.72871 6.6826
0.41411 1.72877 6.68577
0.390957 1.72349 6.66602
0.368996 1.72458 6.67117
0.346958 1.72252 6.66636
0.324951 1.72253 6.66553
0.303013 1.72466 6.67366
0.29209 1.72682 6.68371
0.270037 1.72473 6.67691
0.247999 1.72367 6.67209
0.227092 1.72686 6.6842
0.204008 1.72372 6.67342
0.182047 1.72481 6.67857
0.171 1.72273 6.67269
0.149017 1.72377 6.67484
0.126917 1.7196 6.66206
0.104933 1.72064 6.66421
0.0840105 1.7228 6.67434
0.0619496 1.7207 6.66654
0.029296 1.73445 6.44555
0.00828912 1.73445 6.44471
-0.012795 1.73131 6.43391
-0.0338402 1.73023 6.42808
-0.0546934 1.73553 6.44717
-0.0657703 1.73239 6.43729
-0.0867615 1.73342 6.43844
-0.107838 1.73029 6.42864
-0.12893 1.72712 6.41685
-0.149875 1.72924 6.42397
-0.17089 1.72923 6.42213
-0.191897 1.72923 6.42129
-0.202896 1.72924 6.42137
-0.223903 1.72924 6.42053
-0.244987 1.72609 6.40973
-0.265048 1.72399 6.40192
-0.28697 1.72715 6.41203
-0.307977 1.72715 6.41119
-0.329046 1.72503 6.40238
-0.339992 1.72714 6.40943
-0.360998 1.72714 6.40859
-0.382005 1.72714 6.40775
-0.40302 1.72713 6.40591
-0.424058 1.72607 6.40108
-0.444142 1.72292 6.39028
-0.466063 1.72709 6.40038
-0.476133 1.72396 6.3915
-0.496201 1.72184 6.38269
-0.519054 1.72814 6.40177
-0.539153 1.72496 6.38896
-0.560214 1.72286 6.38115
-0.581221 1.72286 6.38031
-0.602212 1.72389 6.38145
-0.612234 1.72385 6.37853
-0.633303 1.72174 6.36972
-0.653348 1.72066 6.36388
-0.676247 1.72487 6.377
-0.696308 1.72277 6.36918
-0.71736 1.72168 6.36235
-0.738344 1.72272 6.36449
-0.748382 1.72166 6.35959
-0.768435 1.72057 6.35275
-0.788526 1.71841 6.34093
-0.81141 1.72264 6.35605
-0.830563 1.71836 6.33625
-0.852492 1.72151 6.34537
-0.871607 1.7183 6.33056
-0.883545 1.72043 6.33862
-0.90459 1.71936 6.33279
-0.925573 1.7214 6.33492
-0.943741 1.71609 6.31313
-0.966679 1.71922 6.32126
-0.987701 1.71919 6.31842
-1.00774 1.71814 6.31358
-1.01775 1.71811 6.31166
-1.03782 1.71699 6.30283
-1.05886 1.71594 6.298
-1.08081 1.71904 6.30412
-1.09989 1.71689 6.29329
-1.11899 1.71371 6.28048
-1.13905 1.71261 6.27265
-1.15005 1.71362 6.27272
-1.1701 1.71254 6.26688
-1.1892 1.70937 6.25407
-1.21311 1.71454 6.26518
-1.2293 1.7082 6.24139
-1.25127 1.71026 6.24453
-1.26324 1.71133 6.2486
-1.28038 1.70808 6.23078
-1.30139 1.70806 6.22893
-1.3224 1.70905 6.22708
-1.34247 1.70793 6.21824
-1.36443 1.71003 6.22438
-1.38451 1.70889 6.21355
-1.39452 1.70886 6.21162
-1.41261 1.7067 6.19979
-1.43557 1.70879 6.20493
-1.45465 1.70766 6.19509
-1.47276 1.70445 6.18027
-1.49477 1.70545 6.17942
-1.51479 1.70642 6.17656
-1.52484 1.70534 6.17065
-1.54583 1.70637 6.17179
-1.5659 1.70525 6.16296
-1.58593 1.70519 6.15811
-1.60696 1.70616 6.15525
-1.62601 1.70507 6.14841
-1.64607 1.70497 6.14056
-1.65707 1.70497 6.14065
-1.67517 1.70279 6.12781
-1.69715 1.70484 6.12995
-1.71623 1.70369 6.11911
-1.73628 1.70362 6.11326
-1.75731 1.70357 6.10942
-1.77734 1.70351 6.10457
-1.78443 1.70136 6.09365
-1.80934 1.70654 6.10477
-1.83329 1.70966 6.1119
-1.84748 1.70428 6.08608
-1.86948 1.7053 6.08624
-1.89052 1.70624 6.08138
-1.89955 1.70519 6.07746
-1.91863 1.70405 6.06762
-1.93966 1.70499 6.06277
-1.95676 1.70281 6.04993
-1.97875 1.70485 6.05106
-1.99784 1.70268 6.03924
-2.01983 1.70471 6.04037
-2.03182 1.70675 6.04243
-2.05185 1.70669 6.03758
-2.07777 1.71186 6.0477
-2.09193 1.70756 6.02687
-2.11297 1.7075 6.02203
-2.13498 1.70948 6.02016
-2.15403 1.70941 6.01431
-2.16504 1.71039 6.01238
-2.18215 1.70719 5.99855
-2.2022 1.7071 5.9917
-2.22518 1.71015 5.99383
-2.24524 1.71006 5.98698
-2.26625 1.71205 5.98511
-2.29023 1.71511 5.98825
-2.29536 1.71085 5.97035
-2.31639 1.7118 5.96649
-2.33839 1.71382 5.96663
-2.35157 1.70847 5.9428
-2.37261 1.70941 5.93794
-2.39167 1.70931 5.93009
-2.41663 1.7124 5.93523
-2.4237 1.71127 5.9263
-2.45791 1.70688 5.89862
-2.48582 1.71307 5.90974
-2.50587 1.71299 5.90389
-2.54302 1.71172 5.88419
-2.55599 1.71378 5.88725
-2.57505 1.71367 5.8794
-2.61417 1.71346 5.86369
-2.64937 1.7111 5.83799
1.92944 1.73751 6.19115
1.90435 1.73237 6.18042
1.89951 1.73768 6.20138
1.88059 1.73885 6.2115
1.85345 1.73258 6.1928
1.83866 1.73901 6.22082
1.81871 1.73911 6.22697
1.80289 1.74448 6.25101
1.77679 1.73931 6.23828
1.76577 1.73727 6.2354
1.74584 1.73842 6.24453
1.72488 1.73852 6.25069
1.70803 1.74283 6.27075
1.68706 1.74289 6.27391
1.66918 1.74614 6.29
1.61003 1.7369 6.27158
1.59009 1.73802 6.27871
1.56705 1.73496 6.27393
1.54814 1.73715 6.28604
1.52926 1.7404 6.30214
1.51617 1.73624 6.2903
1.49728 1.73946 6.3044
1.47526 1.73743 6.30159
1.45948 1.74387 6.33062
0.731205 1.74079 6.43016
0.635206 1.73886 6.43092
0.44324 1.73606 6.43641
0.401287 1.73718 6.44271
0.380295 1.73721 6.44386
0.337312 1.73727 6.44619
0.326273 1.73521 6.4413
0.305289 1.73625 6.44344
0.284251 1.73419 6.43863
0.263275 1.73525 6.44177
0.242298 1.73531 6.44493
0.199307 1.73536 6.44625
0.188215 1.73219 6.43438
0.167308 1.73538 6.4465
0.14627 1.73432 6.44167
0.125286 1.73437 6.44383
0.104248 1.73331 6.439
0.082233 1.7323 6.43718
0.0612186 1.73228 6.43534
0.0512032 1.73126 6.43343
0.0382674 1.71548 6.17773
0.0172837 1.71652 6.17987
0.00728401 1.71653 6.17994
-0.0126696 1.71763 6.18608
-0.0337305 1.71553 6.17827
-0.0537142 1.71657 6.1804
-0.0737519 1.71552 6.17557
-0.0947514 1.71553 6.17573
-0.114758 1.71553 6.17488
-0.124758 1.71554 6.17495
-0.144773 1.71452 6.17312
-0.16578 1.71452 6.17228
-0.185741 1.71661 6.1774
-0.226763 1.7156 6.17472
-0.246862 1.71242 6.16192
-0.256847 1.71246 6.16399
-0.29786 1.71246 6.1623
-0.520051 1.71023 6.138
-0.671176 1.70909 6.12216
-0.842375 1.70782 6.09646
-2.3596 1.69451 5.67503
-2.44779 1.69619 5.64967
-2.48295 1.6949 5.62895
-2.49002 1.69278 5.62003
-2.53107 1.6957 5.6133
-2.54717 1.69351 5.59945
-2.56819 1.69548 5.59658
-2.58528 1.69431 5.58472
-2.60631 1.69528 5.58187
-2.61828 1.69734 5.58493
-2.63537 1.69617 5.57307
-2.65442 1.6971 5.5672
-2.66954 1.69487 5.55134
-2.68761 1.69374 5.5415
-2.70568 1.69362 5.53263
-2.73162 1.69874 5.53975
-2.73771 1.69658 5.52883
-2.76069 1.69963 5.53096
-2.77974 1.70054 5.52409
-2.79781 1.70042 5.51522
-2.80999 1.69508 5.49239
-2.83494 1.70018 5.4975
-2.84004 1.697 5.48559
-2.86106 1.69896 5.48172
-2.88405 1.702 5.48384
-2.90409 1.70293 5.47798
-2.92019 1.70175 5.46512
-2.94122 1.7037 5.46125
-2.9583 1.70255 5.45039
-2.96636 1.70144 5.44247
-2.98442 1.70234 5.43459
-3.00644 1.70431 5.43173
-3.02352 1.70316 5.42087
-3.04061 1.70301 5.41
-3.05967 1.7029 5.40214
-3.0848 1.70165 5.38435
-3.1078 1.70567 5.38446
-3.14099 1.70333 5.35974
-3.19717 1.705 5.33514
1.873 1.73871 5.99953
1.85305 1.73883 6.00668
1.83923 1.74519 6.0307
1.81414 1.73904 6.01898
1.8021 1.73697 6.0141
1.7842 1.73918 6.0272
1.7622 1.73819 6.02738
1.73399 1.72781 6.00074
1.71198 1.7258 5.99894
1.69613 1.73111 6.01898
1.67412 1.72809 6.01719
1.66618 1.73022 6.02522
1.64623 1.73134 6.03236
1.62627 1.73142 6.03751
1.61351 1.73889 6.0685
1.59355 1.73898 6.07365
1.26215 1.74239 6.1551
1.22018 1.74148 6.15943
1.16819 1.73953 6.16085
1.14925 1.74067 6.16898
1.10726 1.73871 6.17033
1.06524 1.7367 6.16767
1.04423 1.7357 6.16685
1.03534 1.73893 6.18187
1.0143 1.73685 6.17605
0.994352 1.73797 6.18319
0.973368 1.73802 6.18535
0.951306 1.73492 6.17756
0.932368 1.73605 6.18569
0.92243 1.73817 6.19373
0.899314 1.73297 6.17898
0.880391 1.73513 6.18909
0.860415 1.73519 6.19224
0.83833 1.73104 6.18147
0.817361 1.73212 6.18561
0.798446 1.73429 6.19672
0.786315 1.72905 6.17989
0.766369 1.73017 6.18702
0.746439 1.73232 6.19614
0.724339 1.72814 6.18337
0.704401 1.73027 6.19149
0.685478 1.73243 6.2016
0.662362 1.72723 6.18685
0.65344 1.73038 6.19687
0.631355 1.72624 6.1861
0.611379 1.7273 6.18923
0.591379 1.72631 6.1894
0.571479 1.72952 6.2025
0.550418 1.72742 6.19469
0.53048 1.72855 6.20283
0.519426 1.72645 6.19594
0.499527 1.72966 6.20904
0.477373 1.72338 6.1893
0.458543 1.72972 6.21135
0.436366 1.7224 6.18863
0.416374 1.72242 6.18978
0.396382 1.72245 6.19093
0.385406 1.72351 6.19399
0.365414 1.72354 6.19514
0.345491 1.7257 6.20526
0.324399 1.72254 6.19347
0.304538 1.72782 6.21154
0.283361 1.72049 6.18881
0.273416 1.7226 6.19585
0.252316 1.71843 6.18307
0.232301 1.71741 6.18124
0.211355 1.71953 6.18836
0.191402 1.72163 6.19448
0.171379 1.7196 6.19166
0.150426 1.72171 6.19779
0.140349 1.71857 6.18791
0.119357 1.7186 6.18907
0.0993429 1.71858 6.18722
0.0793435 1.7186 6.18737
0.0583284 1.71758 6.18554
-0.0944088 1.71227 5.95574
-2.80892 1.68829 5.23645
-2.84403 1.68908 5.2207
-2.86702 1.69211 5.22183
-2.90018 1.69083 5.20109
-2.9133 1.6886 5.18522
-2.92432 1.68958 5.18329
-2.94139 1.68946 5.17442
-2.96634 1.69456 5.18053
-2.97947 1.69131 5.16268
-2.99063 1.68802 5.14281
-3.01559 1.6921 5.14694
-3.02674 1.68881 5.12707
-3.03971 1.69188 5.13112
-3.05777 1.69177 5.12326
-3.07485 1.69164 5.11338
-3.08896 1.69042 5.09851
-3.11393 1.6945 5.10264
-3.12706 1.69226 5.08576
-3.15104 1.6963 5.08789
-3.15414 1.69311 5.07495
-3.1722 1.69299 5.06609
-3.19322 1.69597 5.06321
-3.21031 1.69582 5.05233
-3.22638 1.69568 5.04246
-3.2405 1.69347 5.02759
-3.26237 1.70072 5.04365
-3.27351 1.69845 5.02477
-3.29453 1.70042 5.0219
-3.30272 1.69507 4.99803
-3.32769 1.70013 5.00115
-3.34083 1.69787 4.98328
-3.36791 1.69873 4.97247
-3.40404 1.69949 4.95473
-3.4221 1.70038 4.94685
1.69933 1.72457 5.78002
1.67934 1.72361 5.78219
1.6614 1.72473 5.78931
1.65451 1.72895 5.8043
1.64277 1.73745 5.83727
1.54595 1.73788 5.86199
1.53596 1.7379 5.86307
1.51288 1.73277 5.85332
1.49393 1.73387 5.85944
1.47497 1.73396 5.86458
1.45188 1.72881 5.85383
1.43084 1.72575 5.84904
1.41499 1.73105 5.86808
1.40607 1.7332 5.87812
1.31338 1.73987 5.91972
1.24343 1.73801 5.92628
1.22242 1.73602 5.92547
1.20347 1.73713 5.93259
1.18344 1.73509 5.92877
1.17453 1.73826 5.9398
1.15246 1.73414 5.93102
1.13348 1.7342 5.93416
1.1135 1.73426 5.93731
1.09349 1.73224 5.93549
1.07249 1.73126 5.93567
1.05142 1.72814 5.92687
1.04142 1.72715 5.92696
1.02249 1.72929 5.93607
1.00041 1.72516 5.9263
0.982472 1.72729 5.9344
0.961442 1.72525 5.93059
0.944588 1.73054 5.94964
0.924596 1.72957 5.95081
0.911434 1.72227 5.93001
0.893588 1.72758 5.95007
0.871434 1.7213 5.93033
0.851465 1.72138 5.93448
0.832511 1.72248 5.94061
0.812473 1.72042 5.93579
0.792504 1.72149 5.93992
0.782504 1.7205 5.94001
0.762504 1.72051 5.94016
0.74352 1.72056 5.9423
0.724597 1.72272 5.95242
0.703512 1.71857 5.94163
0.683544 1.71965 5.94577
0.674582 1.72073 5.95082
0.654582 1.71974 5.95099
0.634567 1.71873 5.94915
0.59456 1.71774 5.94847
0.575637 1.7199 5.95858
0.555591 1.71783 5.95276
0.545607 1.71787 5.95484
0.525592 1.71685 5.953
0.507769 1.7232 5.97605
0.486615 1.71692 5.9563
0.466585 1.71588 5.95246
0.447624 1.71697 5.95759
0.427632 1.717 5.95874
0.41764 1.71702 5.95981
0.398679 1.71811 5.96494
0.378656 1.71708 5.96211
0.358648 1.71608 5.96127
0.289689 1.7172 5.96678
0.249643 1.71514 5.96111
0.171692 1.71629 5.96768
0.0626557 1.71429 5.96353
-2.6896 1.69186 5.14448
-2.70568 1.69072 5.13462
-2.72078 1.68853 5.12076
-2.73783 1.68943 5.11388
-2.75786 1.69139 5.11
-2.77295 1.68922 5.09814
-2.79199 1.69116 5.09326
-2.80101 1.69112 5.09033
-2.81808 1.691 5.08146
-2.83811 1.69296 5.07758
-2.85419 1.69181 5.06671
-2.87322 1.69376 5.06283
-2.88831 1.6926 5.05096
-2.90227 1.69568 5.05602
-2.92031 1.6966 5.05014
-2.93541 1.69544 5.03827
-2.95544 1.69738 5.03339
-2.96955 1.69518 5.01953
-2.99055 1.69818 5.01864
-3.00467 1.69597 5.00378
-3.01369 1.69693 5.00083
-3.04161 1.7041 5.01094
-3.05867 1.70398 5.00206
-3.07475 1.70384 4.99219
1.68826 1.72647 5.63806
1.68647 1.73487 5.66495
1.66853 1.736 5.67307
1.65163 1.73821 5.68617
1.58033 1.72168 5.64794
1.51444 1.72095 5.66345
1.50784 1.73571 5.71429
1.42508 1.74023 5.74585
1.34819 1.73951 5.76144
1.31817 1.73649 5.75871
1.25921 1.73562 5.76517
1.24233 1.73885 5.78025
1.2223 1.73681 5.77643
1.21128 1.73579 5.77453
1.19334 1.73692 5.78265
1.17543 1.73909 5.79376
1.15438 1.73602 5.78796
1.13227 1.72982 5.77321
1.11434 1.73196 5.78232
1.09436 1.73202 5.78547
1.08536 1.73203 5.78554
1.06434 1.73 5.78273
1.04535 1.72904 5.78488
1.02534 1.72804 5.78405
1.00638 1.72913 5.78918
0.986328 1.72604 5.78237
0.977382 1.72815 5.78941
0.95632 1.72405 5.78163
0.937359 1.72514 5.78675
0.917335 1.72311 5.78394
0.898358 1.72316 5.78708
0.87939 1.72424 5.79121
0.860428 1.72433 5.79635
0.851436 1.72435 5.79742
0.831444 1.72438 5.79857
0.810343 1.7192 5.7858
0.791359 1.71924 5.78794
0.754498 1.72354 5.80616
0.733383 1.71833 5.79139
0.724452 1.72047 5.80043
0.705453 1.72048 5.80057
0.685422 1.71844 5.79675
0.665407 1.71742 5.79492
0.648584 1.72378 5.81796
0.628515 1.72066 5.80915
0.608515 1.71967 5.80932
0.598492 1.71864 5.80641
0.580531 1.71972 5.81153
0.561624 1.72291 5.82362
0.540485 1.71666 5.80587
0.522601 1.7209 5.82095
0.502524 1.71776 5.81114
0.482509 1.71675 5.80931
0.474587 1.7199 5.81932
0.454548 1.71784 5.8145
0.435579 1.71792 5.81865
0.415541 1.71686 5.81381
0.396564 1.71692 5.81695
0.377572 1.71694 5.8181
0.357535 1.71588 5.81326
0.347496 1.71382 5.80837
0.328551 1.71594 5.81548
0.309512 1.71388 5.81065
0.290559 1.71598 5.81677
0.271552 1.71498 5.81593
0.0370426 1.72216 5.61556
0.0190432 1.72217 5.61569
4.37006e-05 1.72218 5.61584
-0.018048 1.71902 5.60402
-0.0369703 1.72218 5.61412
-0.0469468 1.72323 5.61718
-0.0650392 1.71907 5.60537
-0.0839765 1.7222 5.61347
-0.101984 1.7222 5.6126
-0.121014 1.72115 5.60876
-0.13909 1.71802 5.59894
-0.158067 1.71908 5.60207
-0.167082 1.71805 5.60015
-0.185089 1.71805 5.59929
-0.204104 1.71804 5.59743
-0.223072 1.71911 5.60156
-0.241103 1.71806 5.59771
-0.26004 1.72119 5.60581
-0.278163 1.71597 5.59002
-0.287124 1.71805 5.59506
-0.306131 1.71805 5.5942
-0.324207 1.71492 5.58438
-0.343176 1.71699 5.5885
-0.362105 1.72014 5.59759
-0.379251 1.71487 5.5788
-0.39822 1.71594 5.58292
-0.407281 1.71383 5.57502
-0.425303 1.7138 5.57216
-0.44521 1.71799 5.58425
-0.463271 1.71588 5.57642
-0.480371 1.7117 5.5636
-0.499339 1.71378 5.56772
-0.518292 1.71588 5.57383
-0.52643 1.71062 5.55597
-0.544429 1.71163 5.55609
-0.563397 1.71371 5.5602
-0.581451 1.71161 5.55337
-0.599481 1.71057 5.54952
-0.618487 1.71157 5.54864
-0.628448 1.71365 5.55369
-0.645525 1.71051 5.54386
-0.664539 1.7105 5.54201
-0.681615 1.70836 5.53217
-0.700615 1.70838 5.53231
-0.71959 1.71043 5.53542
-0.736667 1.7083 5.52558
-0.745689 1.70726 5.52266
-0.764649 1.71035 5.52776
-0.781741 1.70718 5.51593
-0.799756 1.70717 5.51407
-0.817794 1.70611 5.50922
-0.83487 1.70397 5.49938
-0.854846 1.70503 5.50252
-0.864798 1.70813 5.50855
-0.882836 1.70706 5.5037
-0.901828 1.70809 5.50482
-0.918895 1.70697 5.49597
-0.939786 1.71219 5.51005
-0.954971 1.70485 5.48627
-0.973947 1.70691 5.48938
-0.982977 1.70686 5.48545
-0.999068 1.70369 5.47362
-1.01901 1.70682 5.48172
-1.03607 1.7047 5.47288
-1.05413 1.70361 5.46603
-1.07313 1.70463 5.46616
-1.10015 1.70559 5.46235
-1.11818 1.70555 5.45949
-1.13621 1.70551 5.45562
-1.15329 1.70336 5.44478
-1.17229 1.70437 5.44491
-1.1903 1.70436 5.44304
-1.20835 1.70428 5.43718
-1.21638 1.70323 5.43326
-1.25438 1.70625 5.4335
-1.26854 1.69995 5.41269
-1.29141 1.70721 5.42876
-1.30361 1.69983 5.40296
-1.32747 1.70711 5.42103
-1.33165 1.69978 5.39817
-1.35354 1.706 5.41225
-1.36672 1.69967 5.38944
-1.39056 1.70798 5.40949
-1.40377 1.70059 5.3827
-1.4208 1.70055 5.37883
-1.44273 1.70468 5.38693
-1.44688 1.6994 5.36804
-1.46587 1.70043 5.36917
-1.48391 1.70037 5.3643
-1.50097 1.69926 5.35645
-1.5219 1.7034 5.36455
-1.55798 1.70328 5.35482
-1.58405 1.70315 5.34502
-1.61524 1.6978 5.32033
-1.67834 1.69965 5.30777
-1.71342 1.69952 5.29704
-1.72853 1.69632 5.2832
-1.78969 1.69504 5.26167
-1.80869 1.69705 5.26179
-1.84182 1.69482 5.24507
-1.87592 1.69464 5.23132
-1.88493 1.69463 5.23039
-1.9069 1.69871 5.2345
-1.92491 1.69969 5.23262
-1.93806 1.69542 5.21378
-1.95707 1.69641 5.21191
-1.97315 1.69527 5.20204
-2.00214 1.6983 5.20322
-2.0143 1.694 5.18237
-2.03233 1.69394 5.17751
-2.06016 1.70429 5.19956
-2.06741 1.6948 5.16676
-2.09035 1.69994 5.17485
-2.10643 1.69779 5.164
-2.12133 1.70399 5.17703
-2.13152 1.69763 5.15219
-2.14758 1.69652 5.14433
-2.17053 1.70164 5.15143
-2.18169 1.69634 5.13059
-2.20267 1.69938 5.1327
-2.20775 1.69723 5.12177
-2.22481 1.69713 5.1149
-2.24481 1.69915 5.11502
-2.255 1.69279 5.09019
-2.27007 1.69165 5.08032
-2.30088 1.70303 5.10438
-2.30811 1.69459 5.07456
-2.31713 1.69556 5.07261
-2.33614 1.69655 5.07074
-2.35615 1.69955 5.06985
-2.39024 1.69938 5.0571
-2.39845 1.69299 5.03026
-2.42142 1.69706 5.03437
-2.42945 1.69701 5.03043
-2.44453 1.69586 5.01956
-2.47141 1.7041 5.03464
-2.47764 1.69566 5.00481
-2.5016 1.70075 5.00992
-2.51274 1.69649 4.99206
-2.5416 1.70578 5.01014
-2.54374 1.70051 4.99224
-2.56866 1.70667 5.00133
-2.58079 1.70342 4.98447
-2.59785 1.70332 4.9766
-2.62703 1.70098 4.95285
-2.65 1.70506 4.95696
-2.65114 1.69979 4.93905
-2.68723 1.70164 4.92729
-2.73642 1.70129 4.90166
-2.75742 1.70431 4.90178
-2.7897 1.69878 4.8651
-2.82776 1.70169 4.85734
-2.84876 1.70469 4.85645
-2.86595 1.70034 4.83164
1.95075 1.72236 5.30409
1.93586 1.72558 5.31816
1.92098 1.72881 5.33323
1.912 1.72887 5.33629
1.88994 1.72378 5.32954
1.8812 1.73327 5.36247
1.85503 1.72397 5.3408
1.83709 1.7251 5.34892
1.82527 1.73146 5.37291
1.81037 1.73365 5.385
1.79628 1.7295 5.37416
1.78344 1.7338 5.3942
1.01572 1.73385 5.56801
0.95186 1.73616 5.58645
0.895868 1.73422 5.58791
0.866868 1.73324 5.58814
0.848914 1.73434 5.59426
0.811922 1.73338 5.59555
0.792946 1.73344 5.59869
0.364205 1.73224 5.63495
0.326159 1.72918 5.62928
0.298153 1.72919 5.62849
0.261122 1.72715 5.6248
0.224208 1.73034 5.63603
0.205185 1.72931 5.63319
0.187232 1.73142 5.63929
0.177186 1.72933 5.6334
0.158209 1.72939 5.63654
0.140148 1.72729 5.62871
0.121009 1.72104 5.61094
0.0841423 1.72731 5.62813
0.0651272 1.7263 5.62629
0.0561274 1.7263 5.62635
0.0287055 1.72553 5.43755
0.0187058 1.72553 5.43762
0.000558879 1.71827 5.41886
-0.0173396 1.72347 5.43192
-0.0344552 1.71826 5.41713
-0.0533235 1.72353 5.43419
-0.0714002 1.72039 5.42437
-0.0884461 1.71832 5.41853
-0.0983912 1.72143 5.42556
-0.115499 1.71723 5.41175
-0.133429 1.72038 5.42084
-0.151637 1.71099 5.39411
-0.169497 1.71727 5.41216
-0.188411 1.72145 5.42324
-0.205473 1.71834 5.41541
-0.214596 1.71411 5.39954
-0.231642 1.71203 5.3937
-0.250502 1.71831 5.41175
-0.267718 1.70891 5.38402
-0.285678 1.711 5.38912
-0.304554 1.71725 5.40518
-0.312677 1.71202 5.38931
-0.330684 1.71202 5.38845
-0.348621 1.71515 5.39654
-0.365729 1.71096 5.38273
-0.384682 1.71306 5.38884
-0.402673 1.71409 5.38996
-0.418789 1.70888 5.37516
-0.429649 1.71515 5.39315
-0.446772 1.71093 5.37734
-0.464717 1.71404 5.38443
-0.481855 1.70779 5.36665
-0.500707 1.71508 5.38568
-0.516923 1.70568 5.35794
-0.535791 1.71195 5.37499
-0.544829 1.71088 5.37007
-0.561874 1.7098 5.36422
-0.578943 1.70768 5.35538
-0.599749 1.71607 5.38041
-0.614941 1.70871 5.35563
-0.632972 1.70766 5.35178
-0.651901 1.71181 5.36087
-0.658101 1.70343 5.33503
-0.676054 1.70553 5.34114
-0.695968 1.71071 5.35221
-0.71206 1.70754 5.34038
-0.729152 1.70338 5.32857
-0.74905 1.70858 5.34164
-0.764204 1.7033 5.32183
-0.791187 1.70535 5.32401
-0.846176 1.7084 5.32538
-0.861322 1.70213 5.30658
-0.87929 1.7052 5.31067
-0.889258 1.70727 5.31472
-0.923341 1.70513 5.304
-0.941363 1.7051 5.30114
-0.958432 1.70298 5.2923
-0.976439 1.70298 5.29143
-0.993476 1.70292 5.28656
-1.00249 1.70289 5.28463
-1.02144 1.706 5.29073
-1.03751 1.70388 5.28188
-1.05553 1.70384 5.27901
-1.07258 1.70277 5.27316
-1.08962 1.70271 5.26829
-1.10568 1.70058 5.25944
-1.13561 1.70574 5.26859
-1.14974 1.70151 5.25275
-1.1668 1.69941 5.24491
-1.18866 1.70667 5.26197
-1.20282 1.70137 5.24115
-1.22084 1.70136 5.23929
-1.22885 1.70133 5.23735
-1.24685 1.70235 5.23747
-1.26488 1.7023 5.23361
-1.2829 1.70327 5.23073
-1.29897 1.70115 5.22188
-1.31795 1.70421 5.22498
-1.32599 1.70212 5.21907
-1.36006 1.70201 5.21033
-1.37709 1.70197 5.20645
-1.39804 1.70607 5.21255
-1.41409 1.70599 5.20667
-1.43115 1.70389 5.19883
-1.44111 1.70697 5.20386
-1.4601 1.709 5.20498
-1.47908 1.71104 5.20709
-1.49517 1.70887 5.19524
-1.5093 1.70465 5.17941
-1.53023 1.70878 5.1875
-1.54142 1.70142 5.16269
-1.5475 1.69928 5.15277
-1.56845 1.70338 5.15887
-1.58354 1.70021 5.14703
-1.60253 1.70326 5.14913
-1.61762 1.70009 5.13728
-1.6366 1.70313 5.13938
-1.64974 1.69788 5.12156
-1.65876 1.69784 5.11863
-1.68068 1.70402 5.1297
-1.69576 1.70187 5.11884
-1.71476 1.70388 5.11896
-1.72986 1.7007 5.10612
-1.74591 1.70061 5.09924
-1.76587 1.7047 5.10433
-1.76805 1.69634 5.08047
-1.78606 1.69834 5.07957
-1.80604 1.70038 5.08169
-1.82309 1.70031 5.07582
-1.85815 1.70221 5.06806
-1.86031 1.69591 5.04716
-1.8793 1.69793 5.04828
-1.89927 1.70099 5.05138
-1.9124 1.69675 5.03454
-1.92748 1.69561 5.02467
-1.9504 1.70178 5.03475
-1.96254 1.69651 5.01592
-1.97058 1.69644 5.01098
-1.99153 1.70056 5.01808
-2.00858 1.70047 5.01121
-2.02365 1.69933 5.00134
-2.04266 1.70133 5.00045
-2.05577 1.69812 4.98559
-2.07576 1.70116 4.9877
-2.08477 1.70114 4.98577
-2.09494 1.69582 4.96392
-2.11787 1.70097 4.97302
-2.13 1.69772 4.95615
-2.15097 1.70078 4.95927
-2.16114 1.69547 4.93742
-2.18408 1.7006 4.94552
-2.19112 1.70053 4.94057
-2.20424 1.69731 4.92472
-2.22717 1.70245 4.93381
-2.24029 1.69923 4.91796
-2.25143 1.69495 4.8991
-2.27634 1.70215 4.91119
-2.28846 1.69792 4.89534
-2.29257 1.69472 4.88141
-2.31746 1.70193 4.8945
-2.32861 1.69766 4.87564
-2.34565 1.69758 4.86977
-2.36762 1.70265 4.87386
-2.37482 1.69527 4.84802
-2.39481 1.6983 4.84913
-2.41465 1.70761 4.86914
-2.42381 1.70231 4.84829
-2.44382 1.70431 4.84741
-2.45988 1.7042 4.83953
-2.4661 1.69679 4.81168
-2.492 1.70399 4.82377
-2.50003 1.70394 4.81983
-2.50132 1.69237 4.78201
-2.53511 1.7058 4.80907
-2.55117 1.70569 4.80119
-2.56229 1.70246 4.78532
-2.5764 1.70027 4.77145
-2.59837 1.70434 4.77556
-2.61456 1.69997 4.74974
-2.65161 1.70289 4.74298
-2.66866 1.70381 4.73709
-2.69585 1.70045 4.71134
1.95026 1.72243 5.10607
1.93332 1.72256 5.1142
1.91431 1.72055 5.11237
1.90738 1.72268 5.12139
1.88939 1.72073 5.12356
1.87551 1.72396 5.13862
1.86266 1.72926 5.15864
1.84571 1.72937 5.16476
1.82671 1.72738 5.16494
1.82181 1.73158 5.17791
1.15614 1.73464 5.35691
1.13715 1.73467 5.35805
1.04829 1.73501 5.37772
1.02131 1.73506 5.37992
0.967368 1.73422 5.38834
0.948345 1.73219 5.38551
0.921345 1.73121 5.38573
0.904415 1.73335 5.39483
0.885376 1.73029 5.39002
0.832507 1.73358 5.40737
0.813438 1.73046 5.39856
0.805523 1.73363 5.40957
0.787523 1.73265 5.40972
0.769554 1.73372 5.41384
0.714523 1.7297 5.41031
0.697593 1.73184 5.41941
0.687593 1.73185 5.41949
0.668485 1.72666 5.40571
0.652647 1.73298 5.42673
0.633578 1.72886 5.41794
0.615609 1.72993 5.42206
0.56954 1.72584 5.41346
0.552695 1.73214 5.4335
0.533633 1.72904 5.42569
0.516664 1.72911 5.42982
0.478541 1.7229 5.41419
0.471734 1.73128 5.43912
0.452688 1.7292 5.4333
0.435743 1.73132 5.44039
0.416635 1.72612 5.42661
0.398712 1.72928 5.4367
0.380751 1.73037 5.44182
0.361597 1.72309 5.42207
0.335729 1.72836 5.43919
0.299761 1.72945 5.44345
0.280691 1.72633 5.43464
0.262738 1.72843 5.44074
0.217708 1.7264 5.43711
0.199686 1.72537 5.43426
0.181647 1.72331 5.42943
0.163601 1.72123 5.42359
0.145772 1.72857 5.44562
0.136625 1.7223 5.42678
0.118726 1.7265 5.43985
0.100773 1.72861 5.44596
0.0827498 1.72657 5.44312
0.0647503 1.72659 5.44326
0.0466504 1.72241 5.43046
0.0279434 1.71108 5.20473
0.0109282 1.71006 5.20288
-0.00607135 1.71007 5.203
-0.0231173 1.708 5.19716
-0.0410396 1.71116 5.20725
-0.0490858 1.70907 5.20134
-0.0669692 1.71431 5.2164
-0.0841463 1.70698 5.19364
-0.101123 1.70804 5.19675
-0.118153 1.70699 5.19289
-0.136113 1.70908 5.198
-0.153105 1.70911 5.19913
-0.161989 1.71433 5.21412
-0.179166 1.70701 5.19135
-0.196173 1.707 5.19048
-0.21318 1.707 5.18961
-0.308246 1.70594 5.18134
-0.360244 1.70697 5.18172
-1.40877 1.69569 4.98375
-1.46885 1.69757 4.97318
-1.48391 1.69646 4.96531
-1.53498 1.69737 4.95668
-1.57413 1.6951 4.937
-1.60818 1.69602 4.93024
-1.6252 1.69699 4.92736
-1.64027 1.69587 4.91849
-1.65828 1.69685 4.91661
-1.66727 1.69787 4.91766
-1.68234 1.69675 4.90879
-1.6984 1.69566 4.90193
-1.71934 1.70077 4.90901
-1.73245 1.69658 4.89517
-1.75241 1.70066 4.90026
-1.76943 1.70162 4.89637
-1.77647 1.70055 4.89144
-1.79546 1.70359 4.89354
-1.81249 1.70355 4.88967
-1.82561 1.7003 4.87281
-1.84752 1.7065 4.88489
-1.86358 1.70539 4.87702
-1.87865 1.70427 4.86815
-1.88667 1.70423 4.86521
-1.90468 1.70623 4.86432
-1.91288 1.69783 4.8375
-1.93287 1.70188 4.83959
-1.94695 1.69973 4.82873
-1.95907 1.69551 4.81388
-1.97414 1.69438 4.80401
-1.98903 1.70159 4.81802
-2.00115 1.69738 4.80317
-2.02014 1.70041 4.80427
-2.03913 1.70242 4.80438
-2.05421 1.70129 4.79451
-2.06534 1.69704 4.77765
-2.08024 1.70324 4.79068
-2.08549 1.69376 4.75785
-2.10645 1.69785 4.76295
-2.12543 1.70089 4.76505
-2.1346 1.69457 4.74321
-2.15164 1.69551 4.73832
-2.17457 1.70165 4.7464
-2.17276 1.69329 4.72251
-2.19765 1.70152 4.73658
-2.20781 1.69621 4.71573
-2.22386 1.69612 4.70885
-2.23597 1.69292 4.69499
-2.25693 1.69801 4.70007
-2.26511 1.69066 4.67624
-2.27807 1.69476 4.68228
-2.2941 1.6957 4.67738
-2.30131 1.6883 4.65054
-2.32227 1.69239 4.65564
-2.3393 1.69335 4.65175
-2.35535 1.69325 4.64488
-2.3645 1.68897 4.62501
-2.38237 1.69723 4.64202
-2.39252 1.69194 4.62217
-2.40561 1.69079 4.61129
-2.42263 1.69174 4.6074
-2.43573 1.68956 4.59453
-2.4508 1.68944 4.58564
-2.47078 1.69248 4.58775
-2.4919 1.69127 4.57292
-2.51189 1.69429 4.57303
-2.52105 1.69 4.55316
-2.543 1.6951 4.55925
-2.55314 1.69084 4.54139
-2.55722 1.68868 4.53045
-2.57722 1.6917 4.53055
-2.59425 1.69264 4.52567
-2.61129 1.69357 4.52078
-2.6224 1.69136 4.5059
-2.64438 1.69542 4.509
-2.6545 1.69219 4.49312
-2.66943 1.69734 4.50216
-2.67858 1.69305 4.48229
-2.69363 1.69295 4.47541
-2.70673 1.69179 4.46352
-2.72377 1.69271 4.45763
-2.74377 1.69672 4.45772
-2.74983 1.69461 4.4498
-2.75996 1.69136 4.43292
-2.78192 1.69645 4.43801
-2.79994 1.69841 4.43412
-2.80909 1.69413 4.41525
-2.83107 1.69918 4.41734
-2.8481 1.70113 4.41344
-2.85329 1.69377 4.38858
-2.86921 1.69993 4.39861
-2.8954 1.69657 4.37386
-2.91342 1.69954 4.37095
1.94068 1.71833 4.89617
1.91084 1.72265 4.91634
1.8859 1.7228 4.92552
1.86893 1.72187 4.92967
1.86116 1.7303 4.9586
1.67865 1.73238 5.02396
1.66474 1.73557 5.03602
1.64267 1.73046 5.02726
1.62876 1.73264 5.03933
1.59791 1.73595 5.05852
1.58094 1.73603 5.06364
1.55294 1.73405 5.06389
1.53495 1.73308 5.06504
1.519 1.73318 5.07116
1.49893 1.72908 5.06337
1.47993 1.72708 5.06254
1.47811 1.73543 5.08643
1.45807 1.73136 5.08064
1.44111 1.73146 5.08677
1.42516 1.73256 5.09287
1.40513 1.72952 5.08907
1.38814 1.72856 5.09121
1.3722 1.73069 5.0993
1.36319 1.72867 5.0974
1.34315 1.72561 5.09259
1.32719 1.72671 5.0987
1.30816 1.72365 5.09389
1.29122 1.72478 5.102
1.27734 1.72902 5.11804
1.2552 1.72177 5.10032
1.24722 1.72181 5.10238
1.23335 1.72607 5.11942
1.21433 1.72406 5.11759
1.19839 1.72617 5.12468
1.18143 1.72627 5.13081
1.16032 1.72007 5.11606
1.14437 1.72118 5.12316
1.13742 1.72329 5.13018
1.11735 1.71917 5.1214
1.10142 1.72132 5.13049
1.08445 1.72137 5.13361
1.06748 1.72146 5.13874
1.04948 1.72046 5.13789
1.03456 1.72263 5.14897
1.02556 1.72264 5.14904
1.00862 1.72477 5.15714
0.991654 1.72484 5.16126
0.974661 1.72387 5.16241
0.953522 1.71662 5.14467
0.938646 1.72186 5.16071
0.927522 1.71564 5.14488
0.913692 1.72197 5.16689
0.893599 1.71681 5.15512
0.877677 1.71997 5.1652
0.861739 1.7221 5.17329
0.844816 1.72426 5.18338
0.826746 1.72014 5.17458
0.81673 1.71912 5.17267
0.800808 1.72228 5.18274
0.782753 1.71819 5.17594
0.765769 1.71823 5.17807
0.747769 1.71824 5.1782
0.7308 1.71831 5.18233
0.713823 1.71837 5.18546
0.705901 1.72252 5.19546
0.687847 1.71843 5.18865
0.669816 1.71639 5.18482
0.651785 1.71534 5.18097
0.635893 1.71856 5.19504
0.617847 1.71648 5.18921
0.610971 1.72172 5.20518
0.590824 1.71446 5.18644
0.573856 1.71553 5.19055
0.556848 1.71453 5.1897
0.538817 1.71248 5.18586
0.522979 1.7188 5.20689
0.504933 1.71673 5.20106
0.496918 1.71571 5.19913
0.478934 1.71575 5.20127
0.463004 1.71889 5.21034
0.443818 1.71055 5.18661
0.42695 1.71582 5.20366
0.409958 1.71584 5.20479
0.391881 1.71171 5.19498
0.383912 1.71277 5.19903
0.366982 1.71592 5.20811
0.348897 1.71177 5.1973
0.331936 1.71286 5.20242
0.296936 1.71188 5.2027
0.279944 1.71191 5.20382
0.271007 1.71503 5.21184
0.253938 1.71191 5.20302
0.235984 1.71401 5.20912
0.218977 1.71301 5.20827
0.201923 1.71092 5.20142
0.1839 1.70889 5.19859
0.166932 1.71096 5.20269
0.140978 1.71207 5.20887
0.12401 1.71414 5.21297
0.105941 1.71102 5.20415
0.0890577 1.71625 5.2192
0.0719729 1.7121 5.20839
0.0629424 1.71105 5.20447
0.0459736 1.71212 5.20858
-0.169258 1.70585 5.04627
-0.228272 1.70586 5.04472
-1.37776 1.69873 4.85246
-1.39283 1.69659 4.8426
-1.41081 1.69865 4.84571
-1.4249 1.69648 4.83384
-1.4628 1.70368 4.84602
-1.52818 1.69401 4.79765
-1.56024 1.69391 4.7899
-1.5843 1.6938 4.78108
-1.59934 1.69373 4.77619
-1.63143 1.69258 4.76445
-1.64746 1.69353 4.76055
-1.66448 1.6935 4.75768
-1.6725 1.69346 4.75474
-1.7075 1.69748 4.75495
-1.72549 1.70051 4.75604
-1.73468 1.69315 4.73121
-1.75463 1.69727 4.7383
-1.76559 1.70033 4.74234
-1.78065 1.69924 4.73547
-1.79865 1.70125 4.73558
-1.81369 1.70118 4.72969
-1.8268 1.69796 4.71483
-1.84087 1.69684 4.70596
-1.85789 1.69781 4.70307
-1.86787 1.69986 4.70611
-1.88491 1.7008 4.70123
-1.89898 1.69868 4.69236
-1.91404 1.69857 4.68448
-1.92811 1.69643 4.67461
-1.94218 1.69531 4.66574
-1.95823 1.69522 4.65886
-1.96428 1.69413 4.65292
-1.98228 1.69613 4.65202
-1.99145 1.68981 4.63018
-2.01437 1.69599 4.64127
-2.02354 1.68966 4.61843
-2.06166 1.68945 4.60271
-2.32252 1.68994 4.48966
-2.45211 1.68486 4.4117
-2.49728 1.68557 4.39002
-2.51726 1.68861 4.39213
-2.53639 1.68637 4.3753
-2.55539 1.68937 4.3744
-2.58057 1.68605 4.35164
-2.59464 1.68591 4.34174
-2.61575 1.68472 4.32792
-2.63475 1.68773 4.32802
-2.64486 1.68552 4.31313
-2.66585 1.68955 4.31422
-2.68485 1.69256 4.31432
-2.70286 1.69555 4.31241
-2.72186 1.69854 4.31151
-2.72989 1.69849 4.30757
-2.73014 1.68902 4.27571
-2.74915 1.691 4.27382
-2.76322 1.69088 4.26493
-2.78123 1.69386 4.26302
-2.79234 1.69166 4.24914
-2.80938 1.6926 4.24425
-2.81246 1.69044 4.2333
-2.82949 1.69239 4.2294
-2.84356 1.69227 4.22051
-2.8596 1.69319 4.21462
-2.87664 1.69513 4.20971
-2.88775 1.69192 4.19484
-2.90182 1.6918 4.18595
-2.90786 1.69171 4.18
-2.94292 1.69562 4.1722
-3.08659 1.6974 4.08425
2.08119 1.72129 4.69704
2.03435 1.72264 4.71838
1.99344 1.72185 4.7307
1.93472 1.72642 4.76708
1.92183 1.72965 4.78213
1.91097 1.73493 4.80014
1.90197 1.73393 4.80022
1.62362 1.7324 4.88735
1.59763 1.73044 4.88958
1.58168 1.73156 4.89668
1.56573 1.73166 4.9028
1.54874 1.73069 4.90394
1.53075 1.72972 4.9051
1.51787 1.73396 4.92113
1.49984 1.73093 4.91831
1.48777 1.72679 4.90846
1.47286 1.72898 4.92054
1.45588 1.72902 4.92267
1.43787 1.72702 4.92184
1.42086 1.72502 4.92099
1.40285 1.72302 4.92016
1.38486 1.72104 4.92132
1.37996 1.72524 4.9343
1.3599 1.72115 4.92751
1.34395 1.72225 4.93362
1.32903 1.72441 4.9437
1.30997 1.72032 4.9369
1.29299 1.72036 4.93903
1.27703 1.72045 4.94415
1.267 1.71841 4.94125
1.25102 1.71845 4.94337
1.23199 1.71541 4.93956
1.2212 1.72383 4.96752
1.18515 1.71875 4.96087
1.18029 1.72502 4.97882
1.15707 1.71363 4.95115
1.14321 1.7189 4.96918
1.12415 1.71481 4.96239
1.10715 1.71381 4.96153
1.09119 1.71491 4.96763
1.0794 1.72332 4.9946
1.07037 1.72127 4.9907
1.05341 1.72235 4.99581
1.03226 1.71409 4.97709
1.0163 1.71517 4.9822
1.00141 1.71939 4.99625
0.988548 1.72467 5.01427
0.960493 1.72058 5.00754
0.946602 1.7248 5.02158
0.927555 1.72173 5.01577
0.911578 1.72178 5.01889
0.852678 1.72302 5.03232
0.836709 1.72309 5.03644
0.815508 1.71372 5.01073
0.76874 1.7222 5.04097
0.738524 1.7108 5.01336
0.707671 1.71611 5.03251
0.655616 1.71104 5.02598
0.647663 1.71314 5.03201
0.613648 1.71113 5.0303
0.546734 1.71334 5.04177
0.521765 1.71342 5.04596
0.487734 1.71139 5.04224
0.469696 1.70933 5.03741
0.438982 1.7209 5.07447
0.427727 1.70942 5.04172
0.412835 1.71363 5.05578
0.360743 1.70849 5.04424
0.0236688 1.70761 4.90278
0.00661536 1.70552 4.89593
-0.00938418 1.70553 4.89605
-0.066375 1.70558 4.89748
-0.0993816 1.70559 4.89673
-0.131419 1.70454 4.89199
-0.473621 1.70238 4.86659
-0.489628 1.70237 4.86572
-0.506612 1.70342 4.86783
-0.522627 1.7034 4.86595
-0.539626 1.70441 4.86606
-0.570725 1.70124 4.85334
-0.594747 1.70121 4.85052
-0.610761 1.7012 4.84864
-0.642806 1.70013 4.8429
-0.65979 1.70117 4.84501
-0.676781 1.7032 4.84611
-0.748885 1.70105 4.83268
-0.764923 1.70098 4.8278
-1.04435 1.69834 4.77294
-1.11549 1.69611 4.75451
-1.23372 1.69574 4.7244
-1.26769 1.69981 4.7276
-1.29078 1.69765 4.7158
-1.30775 1.69972 4.7199
-1.32281 1.69861 4.71203
-1.3369 1.69545 4.70018
-1.35778 1.7037 4.71622
-1.36894 1.69739 4.69539
-1.38183 1.70361 4.7094
-1.39785 1.70358 4.70652
-1.4221 1.69512 4.67482
-1.44105 1.69922 4.6809
-1.45416 1.69503 4.66706
-1.47213 1.69808 4.67015
-1.48404 1.70327 4.68217
-1.50006 1.70424 4.67927
-1.5161 1.70417 4.6744
-1.53309 1.7062 4.67549
-1.54718 1.70303 4.66364
-1.55929 1.69984 4.64978
-1.57531 1.70079 4.64589
-1.5892 1.70701 4.6599
-1.60229 1.70485 4.64903
-1.62321 1.71002 4.65911
-1.62946 1.69955 4.62731
-1.64745 1.70257 4.6284
-1.66347 1.70254 4.62552
-1.68244 1.7066 4.62861
-1.6924 1.70868 4.63365
-1.70745 1.7086 4.62776
-1.7225 1.70851 4.62088
-1.73659 1.70636 4.61001
-1.75358 1.70837 4.61011
-1.76765 1.70625 4.60125
-1.78368 1.7072 4.59736
-1.80184 1.7019 4.57657
-1.81591 1.70078 4.56769
-1.84994 1.70373 4.5629
-1.86792 1.70679 4.56599
-1.873 1.70364 4.55608
-1.89099 1.70667 4.55717
-1.89917 1.69932 4.53333
-1.91913 1.70341 4.53842
-1.93124 1.70121 4.52455
-1.94531 1.69909 4.51568
-1.96625 1.70521 4.52275
-1.96837 1.69999 4.50784
-1.9844 1.70092 4.50295
-1.99749 1.69877 4.49208
-2.00958 1.6966 4.4802
-2.02561 1.69656 4.47632
-2.03771 1.69436 4.46244
-2.04279 1.69121 4.45252
-2.06373 1.69633 4.45961
-2.07092 1.68998 4.43575
-2.08595 1.68993 4.43187
-2.10494 1.69396 4.43295
-2.11801 1.69182 4.42308
-2.12815 1.68756 4.40522
-2.14811 1.69165 4.41031
-2.15318 1.68952 4.40137
-2.1692 1.69149 4.39847
-2.18131 1.68829 4.3846
-2.19634 1.68923 4.3797
-2.21533 1.69226 4.3808
-2.22841 1.69112 4.37091
-2.23445 1.69003 4.36497
-2.25049 1.69097 4.36008
-2.25964 1.6857 4.34122
-2.28255 1.69288 4.35229
-2.28873 1.68653 4.32843
-2.30969 1.69062 4.33353
-2.31982 1.68739 4.31765
-2.3367 1.6946 4.33167
-2.34485 1.69033 4.31279
-2.36186 1.69231 4.31089
-2.37791 1.69224 4.30501
-2.38999 1.69108 4.29412
-2.40898 1.69411 4.29522
-2.4191 1.69088 4.27934
-2.42515 1.6898 4.2734
-2.44414 1.69382 4.27448
-2.46314 1.69684 4.27458
-2.47326 1.69361 4.25871
-2.48436 1.69142 4.24582
-2.50434 1.69547 4.24791
-2.51644 1.69328 4.23503
-2.52544 1.69429 4.23509
