0.585539 1.77645 7.69341
0.571417 1.77223 7.67758
0.546517 1.77544 7.69072
0.520379 1.77019 7.67299
0.496495 1.77443 7.68811
0.471564 1.77558 7.69728
0.445411 1.77031 7.67756
0.432404 1.7703 7.67665
0.407367 1.76924 7.67186
0.382328 1.76719 7.66708
0.357322 1.76719 7.66626
0.332361 1.76828 7.67144
0.306307 1.7662 7.66466
0.281346 1.76729 7.66984
0.269439 1.77048 7.68188
0.244339 1.7663 7.66913
0.21931 1.76626 7.66532
0.194425 1.7695 7.68046
0.169319 1.76631 7.66669
0.143357 1.76641 7.67189
0.118343 1.7664 7.67008
0.106167 1.76106 7.64724
0.0812674 1.76428 7.66039
0.0401729 1.75819 7.38275
0.0163123 1.76347 7.40085
-0.00771776 1.76243 7.39705
-0.0327785 1.76033 7.38927
-0.0568318 1.75824 7.38248
-0.0808462 1.75823 7.38066
-0.0929074 1.75612 7.37278
-0.116838 1.75827 7.38193
-0.164935 1.75612 7.36932
-0.212942 1.75614 7.36868
-0.23701 1.75402 7.35989
-0.249941 1.75616 7.36896
-0.273955 1.75615 7.36714
-0.297862 1.75935 7.37928
-0.322007 1.75508 7.36052
-0.369975 1.75618 7.36486
-0.39402 1.75511 7.35906
-0.43008 1.75401 7.35135
-0.454087 1.75402 7.35053
-0.502108 1.75401 7.34789
-2.1834 1.75063 7.04957
-2.20353 1.74839 7.03275
-2.27367 1.74816 7.01428
-2.32661 1.7543 7.02159
-2.33277 1.75001 7.00169
-2.35874 1.75307 7.00484
-2.38181 1.75196 6.99603
-2.40095 1.74869 6.97722
-2.42791 1.75278 6.98237
-2.4539 1.75483 6.98453
-2.47207 1.7505 6.96173
-2.48506 1.75254 6.9638
-2.50811 1.75245 6.95697
-2.53215 1.75338 6.95114
-2.55618 1.75334 6.94732
-2.57727 1.75318 6.93548
-2.60425 1.75523 6.93765
-2.61334 1.75307 6.92675
-2.63246 1.75185 6.91091
-2.65846 1.75285 6.91009
-2.67955 1.75269 6.89825
-2.70751 1.7558 6.90442
-2.72664 1.75355 6.88659
-2.75266 1.75554 6.88476
-2.7676 1.75865 6.89183
-2.78968 1.7575 6.88101
-2.81372 1.75845 6.87617
-2.83775 1.75941 6.87234
-2.85787 1.75818 6.85651
-2.87994 1.75807 6.84767
-2.89099 1.75697 6.84077
-2.91011 1.75475 6.82495
-2.94202 1.76095 6.8371
-2.96703 1.76294 6.83526
-2.99009 1.76283 6.82743
-3.01217 1.76269 6.8166
-3.03326 1.76153 6.80477
-3.09239 1.76332 6.78819
-3.11348 1.76315 6.77635
-3.13752 1.76408 6.77052
-3.1937 1.76377 6.74694
-3.21577 1.76364 6.73711
2.44515 1.74863 6.97271
2.32253 1.75146 7.0236
2.3085 1.75041 7.01972
2.28657 1.75056 7.02889
2.26363 1.7517 7.03705
2.24478 1.75501 7.05714
2.22081 1.75408 7.06134
2.19378 1.75103 7.05658
2.17187 1.75222 7.06873
2.165 1.75648 7.08572
2.13897 1.75345 7.08296
2.11297 1.75246 7.08218
2.08796 1.75046 7.08139
2.06605 1.75166 7.09354
2.04929 1.75813 7.12458
2.0253 1.75717 7.12677
2.01023 1.75404 7.11693
1.99243 1.75945 7.14399
1.96433 1.75428 7.13127
1.94656 1.76072 7.16032
1.91949 1.75661 7.15158
1.89242 1.75351 7.14383
1.86847 1.75361 7.15001
1.86265 1.75897 7.17398
1.83972 1.76012 7.18313
1.81574 1.75917 7.18533
1.79282 1.76135 7.19647
1.76885 1.76041 7.19967
1.74589 1.76052 7.20584
1.72192 1.76058 7.20902
1.70994 1.76063 7.21211
1.68804 1.76184 7.22526
1.66406 1.7619 7.22844
1.63907 1.76094 7.22964
1.61718 1.76316 7.24377
1.59734 1.76748 7.26486
1.58328 1.76538 7.257
1.55517 1.76019 7.24329
1.53016 1.75919 7.24249
1.50204 1.75398 7.22678
1.48116 1.75623 7.2429
1.45615 1.75522 7.2411
1.44362 1.77014 7.30299
0.758418 1.77417 7.4111
0.732334 1.77102 7.40035
0.684351 1.77109 7.40271
0.647328 1.76907 7.40001
0.624505 1.77443 7.42311
0.599406 1.77125 7.41035
0.550399 1.77027 7.40973
0.526469 1.77243 7.41888
0.513331 1.76717 7.40105
0.489339 1.7672 7.40223
0.464308 1.76516 7.39845
0.440347 1.76625 7.40362
0.415248 1.76308 7.39085
0.392394 1.76738 7.40996
0.36725 1.76311 7.39121
0.355365 1.76634 7.40626
0.330219 1.76108 7.38752
0.307312 1.76427 7.39965
0.282205 1.76009 7.3859
0.258374 1.76543 7.408
0.234306 1.76331 7.39921
0.210383 1.76548 7.40936
0.197238 1.76121 7.39052
0.17327 1.76228 7.39469
0.149301 1.76336 7.39885
0.125317 1.76341 7.40103
0.100263 1.76132 7.39425
0.0761261 1.75707 7.37649
0.0643109 1.76344 7.40049
-2.78265 1.74068 6.48815
-2.83069 1.74364 6.48347
-2.85886 1.74132 6.46071
-2.90297 1.74213 6.44603
-2.92109 1.73991 6.4302
-2.95396 1.74718 6.44734
-2.96422 1.73969 6.41352
-2.98508 1.74697 6.43157
-3.00909 1.74896 6.42973
-3.02722 1.74672 6.41289
-3.05025 1.74768 6.40905
-3.07625 1.75069 6.4092
-3.08649 1.74423 6.37737
-3.09753 1.74416 6.37245
-3.12056 1.7451 6.36761
-3.13573 1.74179 6.34577
-3.15975 1.74376 6.34293
-3.19166 1.74996 6.35508
-3.21273 1.74983 6.34523
-3.23578 1.75074 6.33839
-3.23695 1.74542 6.31648
-3.26 1.74633 6.30964
-3.28108 1.7462 6.2998
-3.31003 1.75131 6.30594
-3.33504 1.7533 6.3041
-3.35119 1.75103 6.28525
-3.37227 1.75088 6.27441
-3.38625 1.75292 6.27649
-3.39747 1.74751 6.24865
-3.42544 1.75158 6.2518
-3.44751 1.75146 6.24297
-3.49557 1.75536 6.23427
-3.50777 1.75099 6.20842
-3.5267 1.75513 6.2175
-3.55799 1.74958 6.17882
-3.62417 1.75227 6.15527
1.84797 1.74771 6.81821
1.814 1.7468 6.82248
1.77116 1.74914 6.84377
1.74613 1.7471 6.83998
1.69228 1.74943 6.86036
1.67244 1.75374 6.88045
1.65152 1.75492 6.89159
1.62647 1.75185 6.88582
1.60453 1.75297 6.89297
1.58054 1.752 6.89417
1.57265 1.75523 6.90918
1.54971 1.75635 6.91634
1.53089 1.76072 6.94042
1.50687 1.75869 6.93763
1.48702 1.763 6.95772
1.4651 1.76517 6.96785
1.13254 1.76627 7.02835
1.08764 1.76849 7.04166
1.06255 1.76433 7.02991
1.03959 1.76443 7.03508
1.01554 1.76234 7.02829
1.00458 1.76344 7.03436
0.981614 1.76351 7.03853
0.959745 1.76778 7.05563
0.935691 1.76469 7.04886
0.909546 1.75943 7.03013
0.889715 1.76477 7.0522
0.8625 1.75638 7.02453
0.851554 1.75849 7.03158
0.828608 1.75961 7.03874
0.804501 1.75542 7.02498
0.781509 1.75445 7.02617
0.759632 1.7587 7.04227
0.733455 1.75138 7.01958
0.710456 1.7514 7.01975
0.700564 1.75461 7.03378
0.676525 1.75256 7.02899
0.65351 1.75154 7.02718
0.630511 1.75156 7.02735
0.560504 1.7496 7.02691
0.502536 1.7497 7.03134
0.457599 1.75185 7.03965
0.433584 1.75084 7.03785
0.35367 1.75306 7.04942
0.306609 1.74998 7.04181
0.272695 1.75316 7.05302
0.248611 1.75002 7.04225
0.121645 1.75017 7.04721
-2.80508 1.73591 6.16535
-2.83007 1.73895 6.16649
-2.85113 1.73886 6.15965
-2.87119 1.73874 6.1508
-2.8893 1.73755 6.13695
-2.89934 1.73748 6.13203
-2.91547 1.73422 6.11419
-2.93849 1.73621 6.11234
-2.96053 1.73714 6.10649
-2.97864 1.73593 6.09164
-3.00756 1.7411 6.10178
-3.01879 1.73568 6.07295
-3.03375 1.73876 6.07801
-3.05775 1.74076 6.07716
-3.07387 1.73854 6.06132
-3.09592 1.73945 6.05447
-3.11993 1.74245 6.0536
-3.13115 1.73603 6.02478
-3.15615 1.73905 6.02492
-3.17308 1.7442 6.03398
-3.18921 1.74096 6.01714
-3.2073 1.73978 6.0043
-3.2323 1.7438 6.00442
-3.24548 1.73946 5.98158
-3.26851 1.74041 5.97674
-3.28446 1.74452 5.9838
-3.2996 1.74225 5.96495
-3.32165 1.74316 5.9581
-3.34763 1.74723 5.96124
-3.36082 1.74287 5.9364
-3.38581 1.74589 5.93654
-3.40687 1.74678 5.92869
-3.41593 1.74568 5.92177
-3.43698 1.7466 5.91491
-3.46101 1.74855 5.91106
-3.4722 1.74419 5.88621
-3.49426 1.74509 5.87836
-3.51827 1.74808 5.8765
-3.53637 1.7469 5.86365
-3.54345 1.74574 5.85272
-3.58754 1.74858 5.84001
1.83969 1.74123 6.51532
1.82081 1.74448 6.53142
1.55918 1.7424 6.58243
1.54447 1.75196 6.6194
1.52456 1.75415 6.63152
1.50984 1.76271 6.66851
1.38903 1.76315 6.69342
1.33308 1.76229 6.70085
1.31214 1.76341 6.70799
1.2421 1.75939 6.70358
1.22115 1.76051 6.71072
1.19815 1.75953 6.71091
1.18714 1.75851 6.70901
1.16206 1.75438 6.69926
1.13903 1.75233 6.69546
1.11918 1.75663 6.71455
1.09611 1.75353 6.70677
1.07314 1.75359 6.70994
1.04906 1.75046 6.70017
1.03911 1.75157 6.70723
1.01714 1.75163 6.71039
0.994091 1.74856 6.70461
0.973153 1.75069 6.71274
0.952284 1.75496 6.72983
0.926084 1.74659 6.70415
0.906176 1.74878 6.71627
0.894184 1.74881 6.71736
0.872192 1.74884 6.71853
0.851255 1.75097 6.72665
0.82717 1.74683 6.71589
0.804132 1.74477 6.7111
0.783224 1.74696 6.72322
0.749178 1.7449 6.71751
0.727225 1.746 6.72366
0.0292778 1.74165 6.46795
0.00833239 1.74377 6.47508
-0.0127135 1.74169 6.46926
-0.0236824 1.74276 6.47333
-0.0446818 1.74278 6.47349
-0.065727 1.7417 6.46766
-0.108687 1.74281 6.47297
-0.151709 1.74279 6.4703
-0.161755 1.74071 6.4644
-0.204784 1.74068 6.46072
-0.246767 1.74174 6.46303
-0.26779 1.74072 6.4602
-0.300765 1.74178 6.46343
-0.479927 1.73959 6.44281
-0.522949 1.73958 6.44014
-2.04124 1.73509 6.1416
-2.08331 1.73597 6.1319
-2.10338 1.73487 6.12407
-2.11829 1.73904 6.13512
-2.13833 1.73998 6.13026
-2.15839 1.73887 6.12142
-2.17648 1.7377 6.10958
-2.20045 1.74078 6.11371
-2.21953 1.73963 6.10287
-2.24056 1.7406 6.10001
-2.24862 1.73847 6.0911
-2.26868 1.73837 6.08326
-2.2907 1.74035 6.08139
-2.30978 1.73921 6.07055
-2.33082 1.73915 6.06571
-2.345 1.7348 6.04188
-2.36603 1.73576 6.03802
-2.379 1.73783 6.04209
-2.40199 1.73986 6.04323
-2.42203 1.74078 6.03737
-2.44112 1.73963 6.02653
-2.46116 1.73956 6.02068
-2.48122 1.73946 6.01283
-2.50326 1.7404 6.00798
-2.51426 1.74141 6.00805
-2.53136 1.74021 5.9942
-2.55337 1.7412 5.99235
-2.57148 1.74 5.9785
-2.59252 1.74094 5.97364
-2.61355 1.7419 5.96979
-2.63067 1.73968 5.95395
-2.64953 1.74594 5.971
-2.6627 1.74163 5.94916
-2.68768 1.74569 5.95229
-2.7097 1.74666 5.94944
-2.7268 1.74546 5.93558
-2.74588 1.74433 5.92574
-2.75985 1.7474 5.9298
-2.7799 1.74731 5.92295
-2.798 1.74613 5.91011
-2.81805 1.74704 5.90324
-2.83515 1.74485 5.8894
-2.85718 1.7468 5.88554
-2.88216 1.74987 5.88868
-2.88334 1.74451 5.86477
-2.90635 1.7465 5.86291
-2.92345 1.74532 5.85005
-2.94647 1.74731 5.8482
-2.96948 1.74929 5.84634
2.4419 1.73339 6.01083
2.18262 1.73499 6.10777
2.0829 1.73659 6.14451
2.07293 1.73666 6.14858
2.02998 1.73579 6.15592
1.97219 1.73823 6.18332
1.9543 1.74045 6.19743
1.95049 1.74783 6.22235
1.92954 1.74793 6.22851
1.91061 1.74909 6.23863
1.89478 1.75343 6.26069
1.87281 1.7535 6.26486
1.8467 1.7473 6.25014
1.83188 1.75267 6.27418
1.81883 1.75059 6.26831
1.79789 1.75071 6.27546
1.78102 1.75397 6.29254
1.75594 1.74984 6.28279
1.67174 1.73752 6.25761
1.66315 1.75132 6.31147
1.23801 1.75928 6.42558
1.17409 1.75949 6.43706
1.16411 1.75952 6.43913
1.14001 1.75536 6.42737
1.12008 1.75651 6.43651
1.09912 1.7576 6.44165
1.07815 1.75766 6.44481
1.05298 1.75037 6.4241
1.0462 1.75879 6.45203
1.02311 1.75363 6.44028
1.00218 1.75577 6.44941
0.980138 1.75372 6.4446
0.959207 1.75487 6.45374
0.939284 1.75703 6.46386
0.916208 1.7539 6.45408
0.905169 1.75183 6.4492
0.885308 1.75611 6.46729
0.865362 1.75723 6.47442
0.843332 1.75619 6.4706
0.820278 1.7531 6.46382
0.798209 1.74998 6.45503
0.789378 1.75631 6.47701
0.767324 1.75323 6.47022
0.745286 1.75117 6.46541
0.725402 1.75541 6.4805
0.702333 1.75229 6.47172
0.681349 1.75233 6.47388
0.66038 1.75241 6.47804
0.649372 1.7524 6.47712
0.627296 1.74927 6.46733
0.606342 1.75037 6.47347
0.585396 1.75149 6.48061
0.563381 1.75048 6.4788
0.542335 1.74841 6.47298
0.520374 1.7495 6.47813
0.510413 1.75058 6.48319
0.488367 1.74851 6.47739
0.467391 1.74956 6.48053
0.446399 1.74959 6.48169
0.425469 1.75174 6.49082
0.403346 1.74652 6.47506
0.3814 1.74864 6.48219
0.371493 1.75183 6.49422
0.349393 1.74765 6.48145
0.328401 1.74768 6.48261
0.306301 1.74351 6.46983
0.285433 1.74877 6.48692
0.264318 1.74357 6.47215
0.243426 1.74779 6.48625
0.232403 1.74675 6.48334
0.210357 1.74468 6.47754
0.189242 1.74047 6.46276
0.168366 1.74472 6.47886
0.146251 1.74052 6.46408
0.125344 1.74371 6.4762
0.114344 1.74372 6.47628
0.0933607 1.74476 6.47842
0.0723613 1.74478 6.47858
0.0512464 1.74057 6.4638
-2.60356 1.72794 5.70288
-2.62163 1.72782 5.69402
-2.64069 1.72772 5.68616
-2.66171 1.72969 5.68329
-2.67882 1.72749 5.66945
-2.70788 1.72838 5.66065
-2.72891 1.73034 5.65678
-2.75191 1.73235 5.65693
-2.76703 1.73013 5.64107
-2.78708 1.73104 5.63421
-2.80614 1.73095 5.62735
-2.82716 1.7329 5.62348
-2.83522 1.73179 5.61556
-2.85822 1.73481 5.61569
-2.87532 1.73263 5.60285
-2.89339 1.73251 5.59398
-2.91442 1.73446 5.59011
-2.93151 1.73328 5.57726
-2.94664 1.73106 5.5614
-2.96158 1.73517 5.56845
-2.97965 1.73505 5.55959
-2.99971 1.73495 5.55174
-3.01777 1.73483 5.54288
-3.0329 1.73259 5.52602
-3.05491 1.73559 5.52514
-3.06592 1.73657 5.52321
-3.08302 1.73539 5.51036
-3.10208 1.73528 5.5025
-3.12114 1.73618 5.49463
-3.13625 1.73397 5.47977
-3.1642 1.74009 5.48689
-3.18425 1.741 5.48003
-3.18736 1.73678 5.46512
-3.21235 1.74081 5.46624
-3.22944 1.74065 5.45437
-3.24159 1.73636 5.43453
-3.26954 1.74248 5.44165
-3.28564 1.74129 5.42778
-3.29172 1.73915 5.41786
-3.31079 1.74003 5.40899
-3.34298 1.73767 5.38326
-3.37094 1.74276 5.3884
1.84975 1.7345 5.99327
1.83978 1.73455 5.99635
1.82289 1.73778 6.01143
1.79986 1.73474 6.00765
1.77888 1.73378 6.00982
1.69111 1.73629 6.04045
1.67731 1.7427 6.06746
1.65943 1.74594 6.08255
1.64154 1.74916 6.09664
1.62053 1.74716 6.09583
1.60264 1.75039 6.11092
1.59576 1.75462 6.12591
1.57581 1.75474 6.13306
1.53384 1.75383 6.13739
1.51283 1.75183 6.13658
1.49288 1.75193 6.14272
1.47292 1.75202 6.14787
1.46087 1.74994 6.142
1.44094 1.75109 6.15113
1.41993 1.75007 6.1493
1.39896 1.75016 6.15446
1.379 1.75024 6.15861
1.35903 1.75031 6.16276
1.35009 1.75143 6.17081
1.32807 1.75042 6.16899
1.30603 1.74736 6.1642
1.28713 1.75057 6.1773
1.26715 1.74961 6.17946
1.24306 1.74547 6.16871
1.22206 1.74448 6.16888
1.21416 1.74768 6.18189
1.19109 1.74355 6.17213
1.1711 1.7436 6.17428
1.15114 1.74368 6.17943
1.12809 1.74161 6.17363
1.10813 1.7417 6.17878
1.09813 1.74171 6.17885
1.07714 1.74074 6.18003
1.05824 1.74394 6.19312
1.03825 1.74297 6.19429
1.01519 1.73987 6.18651
0.995241 1.74099 6.19364
0.977349 1.74421 6.20773
0.963202 1.73794 6.18893
0.944249 1.73904 6.19506
0.923257 1.73907 6.19621
0.903311 1.74019 6.20335
0.882288 1.73816 6.20054
0.862381 1.74135 6.21264
0.841327 1.73827 6.20584
0.831396 1.74141 6.21487
0.811412 1.74145 6.21702
0.789373 1.73839 6.21223
0.769405 1.73947 6.21637
0.749451 1.74057 6.2225
0.727397 1.73748 6.21572
0.709574 1.74383 6.23876
0.676405 1.73653 6.21711
0.636498 1.73874 6.22938
0.595553 1.73987 6.23668
0.326589 1.73713 6.24274
-3.05311 1.72126 5.2333
-3.07019 1.72113 5.22343
-3.08825 1.72102 5.21557
-3.10631 1.72192 5.20769
-3.12241 1.72072 5.19383
-3.1344 1.72276 5.19589
-3.15542 1.72473 5.19302
-3.16855 1.72249 5.17615
-3.19156 1.72548 5.17427
-3.20962 1.72537 5.16641
-3.22867 1.72628 5.15954
-3.24772 1.72719 5.15267
-3.25379 1.72606 5.14373
-3.2679 1.72485 5.12885
-3.29091 1.72785 5.12798
-3.30798 1.72772 5.11811
-3.33099 1.73072 5.11724
-3.34214 1.72743 5.09737
-3.36105 1.73261 5.10844
-3.37024 1.72826 5.08457
-3.39127 1.73021 5.0807
-3.41131 1.73214 5.07482
-3.43135 1.73406 5.06894
-3.44546 1.73187 5.05508
-3.46847 1.73585 5.05319
-3.47455 1.73371 5.04327
-3.49558 1.73565 5.03839
-3.54682 1.73622 5.00677
-3.5629 1.73606 4.99589
-3.57306 1.73276 4.97501
-3.6212 1.73551 4.95633
-3.68655 1.73488 4.91083
2.07542 1.72876 5.68262
1.70148 1.73809 5.82431
1.68767 1.74445 5.84833
1.66253 1.73722 5.83162
1.64873 1.74361 5.85763
1.63083 1.7468 5.86972
1.61085 1.74586 5.87289
1.58984 1.74386 5.87208
1.58192 1.74702 5.88209
1.564 1.74819 5.89321
1.54401 1.74722 5.89437
1.52507 1.74835 5.9025
1.50302 1.74528 5.89671
1.48306 1.74535 5.90086
1.47409 1.74542 5.90493
1.45926 1.75177 5.92795
1.4362 1.74767 5.92018
1.41516 1.74461 5.91539
1.39518 1.74466 5.91754
1.37727 1.74685 5.92964
1.35314 1.74061 5.91291
1.34625 1.74484 5.9279
1.32215 1.73865 5.91418
1.30422 1.7408 5.92328
1.28215 1.73668 5.91451
1.26425 1.73988 5.9276
1.24115 1.73471 5.91484
1.22221 1.73584 5.92297
1.21325 1.73692 5.92802
1.19222 1.73488 5.92421
1.1743 1.73705 5.93532
1.15327 1.73501 5.9315
1.1333 1.73508 5.93565
1.09228 1.73207 5.93301
1.08435 1.73421 5.94204
1.04438 1.73431 5.94734
1.02336 1.73228 5.94453
1.00858 1.73971 5.97253
0.955446 1.7325 5.95604
0.876531 1.73272 5.96763
-2.80943 1.72048 5.19047
-2.82748 1.72139 5.18359
-2.84456 1.72024 5.17274
-2.86262 1.72115 5.16586
-2.88068 1.72104 5.158
-2.89364 1.72411 5.16205
-2.90578 1.72085 5.14419
-2.93566 1.7291 5.15929
-2.95471 1.73002 5.15342
-2.96783 1.72779 5.13755
-2.98589 1.72869 5.12967
-2.99394 1.72759 5.12275
-3.00312 1.72226 5.09989
-3.02709 1.72632 5.10301
-3.04318 1.72615 5.09114
-3.06222 1.72708 5.08526
-3.0793 1.72694 5.07539
-3.09438 1.72579 5.06452
-3.11132 1.73092 5.07258
-3.13035 1.73286 5.06769
-3.14644 1.73169 5.05583
-3.16747 1.73367 5.05295
-3.18552 1.73557 5.04606
-3.21572 1.7322 5.01934
-3.26284 1.73599 5.00363
-3.2809 1.73589 4.99577
2.14812 1.73116 5.51001
2.13325 1.73442 5.52707
2.11019 1.72932 5.51932
2.08918 1.72732 5.51851
2.0784 1.73474 5.54649
2.04536 1.72969 5.54181
2.02434 1.72768 5.54
1.96948 1.72798 5.55841
1.84978 1.72866 5.59931
1.82595 1.73299 5.62042
1.80801 1.73412 5.62854
1.78803 1.73318 5.63171
1.77009 1.73431 5.63983
1.75113 1.7344 5.64497
1.74524 1.73761 5.65897
1.73139 1.74292 5.679
1.71038 1.7399 5.6772
1.69347 1.74309 5.68928
1.67552 1.74321 5.69642
1.63172 1.74762 5.72268
1.6107 1.74561 5.72087
1.59175 1.74671 5.727
1.5697 1.74264 5.72123
1.54968 1.74061 5.71841
1.5297 1.73967 5.72157
1.51281 1.74289 5.73565
1.50279 1.74085 5.73276
1.4828 1.73988 5.73392
1.46693 1.74414 5.75098
1.4459 1.74212 5.74817
1.42281 1.73696 5.73642
1.4059 1.73915 5.74852
1.38695 1.74025 5.75464
1.37798 1.74031 5.75871
1.35796 1.7393 5.75688
1.33798 1.73834 5.75904
1.32004 1.73947 5.76716
1.30006 1.73952 5.76931
1.28109 1.73959 5.77345
1.26005 1.73653 5.76866
1.24902 1.73448 5.76477
1.23005 1.73456 5.76891
1.21005 1.73357 5.76908
1.19212 1.73572 5.77818
1.17313 1.73476 5.78034
1.15416 1.73482 5.78348
1.14312 1.73277 5.77959
1.12417 1.73387 5.78572
1.10309 1.72974 5.77594
1.08519 1.73293 5.78803
1.06515 1.72988 5.78422
1.04724 1.73306 5.79531
1.02725 1.73209 5.79648
0.959301 1.73124 5.804
0.940309 1.73027 5.80516
0.892387 1.73245 5.81549
0.768542 1.73384 5.83641
0.0369629 1.72723 5.62999
0.0180406 1.73039 5.64009
-3.60395e-05 1.72726 5.63027
-0.0100358 1.72727 5.63034
-0.0280196 1.72831 5.63246
-0.046965 1.73043 5.63957
-0.066026 1.72832 5.63175
-0.0839947 1.7294 5.63587
-0.103017 1.72836 5.63303
-0.121048 1.72732 5.62918
-0.131008 1.7294 5.63422
-0.168031 1.72838 5.63152
-0.205991 1.73048 5.63677
-0.271042 1.72943 5.63028
-0.290049 1.72943 5.62942
-0.308041 1.72945 5.63055
-0.345132 1.7273 5.61886
-1.88232 1.72603 5.33342
-2.08094 1.72296 5.25296
-2.10604 1.72077 5.23917
-2.20133 1.72027 5.20189
-2.27643 1.72512 5.18839
-2.29662 1.71977 5.16362
-2.33466 1.7227 5.15786
-2.38485 1.72237 5.13324
-2.40995 1.7212 5.12044
-2.42601 1.72107 5.11156
-2.44209 1.71994 5.1017
-2.46602 1.72507 5.10981
-2.47816 1.72182 5.09194
-2.49522 1.72171 5.08407
-2.5072 1.72376 5.08713
-2.51934 1.72049 5.06827
-2.54328 1.72563 5.07637
-2.55542 1.72135 5.05753
-2.58331 1.72958 5.07162
-2.58954 1.72114 5.04178
-2.61348 1.72726 5.04888
-2.61168 1.71989 5.02397
-2.63661 1.72504 5.03308
-2.66155 1.73116 5.04018
-2.6717 1.72688 5.02032
-2.68483 1.72363 5.00346
-2.71371 1.73188 5.01856
-2.72486 1.7276 4.9997
-2.72896 1.72441 4.98678
-2.75389 1.73055 4.99488
-2.7611 1.72416 4.96802
-2.77718 1.723 4.95716
-2.8031 1.73017 4.96725
-2.81326 1.72587 4.94639
-2.83426 1.72888 4.9465
-2.84427 1.72988 4.94556
-2.85443 1.72557 4.9247
-2.87445 1.72754 4.92182
-2.89545 1.73054 4.92093
-2.9135 1.73145 4.91405
-2.92563 1.72822 4.89819
-2.95368 1.73114 4.89136
-2.9668 1.72791 4.8755
-2.99274 1.73404 4.88261
-2.99697 1.72659 4.85275
-3.02291 1.73272 4.85985
-3.04801 1.73254 4.84704
-3.06112 1.73134 4.83316
-3.14644 1.73277 4.79077
2.13609 1.72217 5.2402
2.12016 1.72433 5.25028
2.10731 1.72862 5.26932
1.97978 1.73463 5.3322
1.96795 1.73996 5.35421
1.9459 1.73587 5.34744
1.94205 1.74117 5.36739
1.92101 1.73711 5.36261
1.90204 1.73719 5.36675
1.75605 1.72432 5.37004
1.74324 1.73069 5.39405
1.72835 1.73391 5.40812
1.71424 1.72771 5.39431
1.69731 1.72985 5.40341
1.13163 1.74381 5.57949
1.0767 1.744 5.5899
1.05877 1.74613 5.59801
1.02764 1.73892 5.58235
1.01283 1.74628 5.60635
0.973788 1.74224 5.6017
0.938934 1.74654 5.62091
0.907819 1.74035 5.60623
0.889896 1.74351 5.61632
0.872997 1.74671 5.6294
0.848719 1.7342 5.59376
0.834973 1.74369 5.62673
0.81385 1.73747 5.61098
0.805989 1.74375 5.62895
0.785919 1.73963 5.62016
0.769012 1.74282 5.63224
0.747897 1.73761 5.61748
0.733129 1.74706 5.64745
0.710943 1.73773 5.62375
0.694059 1.74196 5.63882
0.684013 1.73988 5.63293
0.663982 1.73783 5.62911
0.646044 1.73997 5.63721
0.627029 1.73895 5.63537
0.607967 1.73585 5.62756
0.589014 1.73695 5.63369
0.571068 1.73907 5.64079
0.56206 1.73806 5.63987
0.541984 1.73492 5.63007
0.525161 1.74128 5.65311
0.505022 1.73502 5.63535
0.486062 1.73711 5.64046
0.468077 1.73716 5.6426
0.447984 1.73199 5.63082
0.439016 1.73406 5.63486
0.420008 1.73306 5.63402
0.402094 1.73623 5.64511
0.383055 1.73417 5.64028
0.365079 1.73523 5.6434
0.345002 1.7311 5.63361
0.336033 1.73216 5.63766
0.318103 1.73531 5.64675
0.298987 1.7301 5.63197
0.279995 1.73013 5.63311
0.261058 1.73226 5.64123
0.243097 1.73435 5.64633
0.224012 1.7302 5.63554
0.213974 1.72813 5.63064
0.19602 1.73024 5.63675
0.176967 1.72815 5.62992
0.159083 1.73238 5.64499
0.14003 1.73029 5.63817
0.120991 1.72823 5.63334
0.11203 1.73031 5.63838
0.0930385 1.73034 5.63952
0.0740083 1.72929 5.63568
0.0559931 1.72828 5.63383
0.0375866 1.72852 5.44694
0.0196104 1.72958 5.45006
0.000718852 1.7338 5.46414
-0.0174739 1.72544 5.4394
-0.0353266 1.73174 5.45844
-0.0533336 1.73174 5.45758
-0.062403 1.72861 5.44869
-0.0804796 1.72548 5.43887
-0.0983091 1.73281 5.4609
-0.116501 1.72546 5.43614
-0.134516 1.72444 5.43429
-0.152377 1.73072 5.45234
-0.161484 1.72652 5.43847
-0.179414 1.72967 5.44756
-0.198329 1.73284 5.45865
-0.215467 1.72759 5.44086
-0.233544 1.72445 5.43104
-0.252388 1.73176 5.45108
-0.269511 1.72654 5.43528
-0.297464 1.72865 5.44146
-0.314533 1.72653 5.43262
-0.351532 1.72655 5.4329
-0.386568 1.72651 5.42816
-0.396514 1.72862 5.43521
-0.414567 1.72653 5.42837
-0.432566 1.72754 5.42849
-0.450573 1.72754 5.42763
-0.486611 1.72649 5.42291
-0.503671 1.72538 5.41506
-0.530685 1.72537 5.41326
-0.548715 1.72433 5.40941
-0.584729 1.72532 5.40767
-0.62975 1.72531 5.40501
-0.682825 1.7242 5.39542
-0.834986 1.72399 5.37457
-0.89709 1.72283 5.36105
-0.951095 1.72485 5.36043
-1.77268 1.72029 5.15366
-1.99329 1.71824 5.07334
-2.01033 1.71918 5.06845
-2.0313 1.72224 5.07157
-2.03639 1.71907 5.05965
-2.05441 1.72003 5.05677
-2.08556 1.71778 5.03804
-2.10458 1.71874 5.03517
-2.12065 1.71862 5.02629
-2.13669 1.71855 5.02041
-2.14572 1.71849 5.01648
-2.17783 1.71729 5.00173
-2.19783 1.72031 5.00184
-2.21095 1.71708 4.98598
-2.228 1.71701 4.98011
-2.24798 1.72005 4.98222
-2.25405 1.71792 4.9733
-2.27109 1.71886 4.96841
-2.28715 1.71774 4.95955
-2.30322 1.71762 4.95067
-2.31928 1.71751 4.94279
-2.33928 1.71952 4.94291
-2.35436 1.71837 4.93204
-2.36436 1.71938 4.9321
-2.38141 1.7203 4.92621
-2.39648 1.71917 4.91634
-2.41746 1.72322 4.91944
-2.43452 1.72312 4.91157
-2.44565 1.71886 4.89371
-2.46566 1.72186 4.89282
-2.4727 1.72079 4.88789
-2.48779 1.71962 4.87602
-2.50582 1.72058 4.87214
-2.52974 1.72673 4.88123
-2.54187 1.72349 4.86437
-2.55892 1.72441 4.85848
-2.56499 1.72228 4.84956
-2.58006 1.72114 4.83968
-2.5981 1.72208 4.83481
-2.61613 1.72402 4.82991
-2.63023 1.72185 4.81805
-2.65022 1.72487 4.81816
-2.66924 1.72684 4.81527
-2.67334 1.72365 4.80235
-2.6894 1.72354 4.79447
-2.70547 1.72342 4.78559
-2.71858 1.72122 4.77172
-2.74351 1.72836 4.7798
-2.76253 1.73034 4.77792
-2.77564 1.72813 4.76304
-2.78268 1.72806 4.7581
-2.79578 1.72588 4.74523
-2.81284 1.72577 4.73736
-2.82693 1.72461 4.72548
-2.84792 1.72863 4.72658
-2.863 1.72748 4.71571
-2.884 1.73048 4.71482
-2.90218 1.72716 4.692
-2.92416 1.7312 4.69411
-2.94023 1.73108 4.68523
-2.95135 1.72785 4.66936
-2.99349 1.7296 4.65065
-3.04168 1.73025 4.625
-3.05775 1.73013 4.61612
2.14453 1.72109 5.03312
2.10857 1.71921 5.03942
2.09673 1.72453 5.06043
2.08385 1.72776 5.07548
2.06997 1.73099 5.09054
2.05995 1.72897 5.08865
2.00706 1.72823 5.10406
1.99521 1.73252 5.12309
1.98234 1.73678 5.14012
1.96744 1.73898 5.1532
1.96049 1.74009 5.16024
1.194 1.73957 5.36305
1.0443 1.74325 5.40313
1.0232 1.73809 5.39136
1.00834 1.74337 5.4094
0.98725 1.73821 5.39763
0.972389 1.74348 5.41567
0.94335 1.74043 5.41093
0.924312 1.73837 5.40611
0.889381 1.73953 5.41535
0.871389 1.73856 5.4165
0.853412 1.73862 5.41964
0.842358 1.73652 5.41275
0.827512 1.74183 5.43279
0.808489 1.7398 5.42996
0.79049 1.73981 5.4301
0.77252 1.73988 5.43423
0.752451 1.73676 5.42543
0.737614 1.74309 5.44645
0.726505 1.73789 5.43261
0.709598 1.74108 5.44469
0.691614 1.74112 5.44683
0.672583 1.73907 5.443
0.655676 1.74226 5.45508
0.63663 1.74019 5.44925
0.62656 1.73706 5.44037
0.609684 1.74131 5.45644
0.589522 1.73402 5.4357
0.571545 1.73407 5.43883
0.554677 1.73934 5.45588
0.534515 1.73204 5.43514
0.517631 1.73628 5.45021
0.508646 1.73731 5.45226
0.490662 1.73735 5.4544
0.471554 1.73216 5.44061
0.455725 1.7395 5.46263
0.435585 1.73225 5.44489
0.417586 1.73226 5.44502
0.409694 1.73647 5.45902
0.390609 1.73232 5.44822
0.372649 1.73441 5.45333
0.354718 1.73656 5.46243
0.337765 1.73866 5.46853
0.318719 1.73658 5.4627
0.300681 1.73452 5.45787
0.290611 1.7314 5.44899
0.273751 1.73668 5.46704
0.254736 1.73666 5.46519
0.236728 1.73566 5.46434
0.218674 1.73257 5.45752
0.200698 1.73363 5.46064
0.181637 1.73152 5.45281
0.173699 1.73364 5.46084
0.155723 1.7347 5.46396
0.136591 1.72847 5.44719
0.118545 1.72639 5.44136
0.100724 1.73474 5.46437
0.0825697 1.72746 5.44462
0.0645545 1.72644 5.44277
0.0556558 1.73164 5.45576
0.0280261 1.72346 5.24006
0.0110028 1.72143 5.23722
-0.00700422 1.72143 5.23635
-0.015004 1.72144 5.23641
-0.0330185 1.72142 5.23455
-0.0679943 1.72249 5.2378
-0.102009 1.72149 5.23607
-0.119939 1.72463 5.24516
-0.163037 1.72147 5.23253
-2.52068 1.71193 4.62534
-2.5608 1.71372 4.60962
-2.5739 1.71153 4.59575
-2.58995 1.71145 4.58987
-2.60896 1.71443 4.58797
-2.62304 1.7133 4.57809
-2.64303 1.71631 4.5782
-2.6481 1.71518 4.56925
-2.66416 1.71509 4.56237
-2.67922 1.71498 4.55448
-2.6943 1.71483 4.5436
-2.7202 1.72202 4.55569
-2.73922 1.72501 4.55379
-2.74232 1.72082 4.54087
-2.75541 1.71965 4.52899
-2.77047 1.71953 4.5201
-2.78258 1.71733 4.50622
-2.79568 1.71515 4.49335
-2.81666 1.72019 4.49543
-2.83074 1.71905 4.48556
-2.8368 1.71794 4.47762
-2.85384 1.71886 4.47173
-2.87878 1.72498 4.47883
-2.88497 1.71963 4.45495
-2.903 1.72159 4.45106
-2.92202 1.72356 4.44817
-2.92312 1.71935 4.43424
-2.93918 1.72024 4.42635
-2.9582 1.72321 4.42345
-2.97227 1.72309 4.41455
-3.00241 1.72283 4.39578
-3.01352 1.72063 4.3819
-3.04552 1.72564 4.38106
-3.05564 1.72341 4.36517
-3.10184 1.72406 4.3395
-3.11889 1.72497 4.33262
-3.12593 1.7249 4.32767
-3.13506 1.72165 4.31079
2.1478 1.7147 4.80416
2.13288 1.71588 4.81525
2.11591 1.71493 4.8184
2.11405 1.72121 4.83732
2.07807 1.71727 4.83965
2.06112 1.71739 4.84678
2.04313 1.71541 4.84794
2.03125 1.71966 4.86397
2.0243 1.72077 4.87101
2.00631 1.7188 4.87217
1.99547 1.7241 4.89218
1.9785 1.72319 4.89732
1.96155 1.72329 4.90345
1.95683 1.73482 4.93932
1.93088 1.73395 4.94653
1.74141 1.73711 5.01692
1.31728 1.73812 5.13511
1.30031 1.73819 5.13924
1.27434 1.73725 5.14245
1.25738 1.73734 5.14758
1.22138 1.73536 5.14788
1.20648 1.73857 5.16094
1.17846 1.73656 5.15919
1.16251 1.73666 5.16531
1.14451 1.73669 5.16644
1.12547 1.73263 5.16164
1.10851 1.73371 5.16676
1.09361 1.73692 5.17982
1.07355 1.73281 5.17203
1.06452 1.73176 5.16812
1.05069 1.7381 5.19013
1.03165 1.73504 5.18532
1.01466 1.73506 5.18645
0.994566 1.7299 5.17467
0.977636 1.73205 5.18377
0.971767 1.7373 5.20074
0.953744 1.73527 5.1979
0.935721 1.73324 5.19507
0.917728 1.73227 5.19622
0.90179 1.7344 5.20431
0.882728 1.73029 5.19651
0.866806 1.73345 5.20659
0.857844 1.73453 5.21164
0.838759 1.73038 5.20084
0.822836 1.73254 5.21093
0.80589 1.73366 5.21804
0.78786 1.73261 5.21419
0.76879 1.72849 5.2054
0.760859 1.73063 5.21443
0.742836 1.7286 5.21159
0.725852 1.72864 5.21372
0.709983 1.73391 5.23076
0.690852 1.72767 5.214
0.673898 1.72877 5.22011
0.65696 1.7309 5.22821
0.647937 1.72986 5.22529
0.629907 1.72782 5.22146
0.611907 1.72783 5.22159
0.595992 1.73101 5.23267
0.577961 1.72896 5.22883
0.561008 1.73006 5.23494
0.541884 1.72384 5.21918
0.535039 1.73114 5.23912
0.517023 1.72912 5.23729
0.498962 1.72602 5.22947
0.482001 1.7281 5.23457
0.465055 1.72922 5.24168
0.447032 1.72819 5.23883
0.430017 1.72717 5.23697
0.421095 1.73033 5.247
0.403017 1.72619 5.23719
0.384894 1.72097 5.2214
0.368003 1.72519 5.23547
0.349972 1.72314 5.23164
0.334049 1.7263 5.24171
0.317127 1.72946 5.25179
0.307073 1.72736 5.2449
0.288981 1.7232 5.23309
0.273105 1.72845 5.24914
0.255082 1.72642 5.2463
0.236982 1.72224 5.2335
0.220137 1.72855 5.25354
0.21099 1.72227 5.2347
0.193975 1.72125 5.23284
0.176029 1.72337 5.23994
0.158999 1.72232 5.23609
0.141015 1.72337 5.23821
0.124062 1.72447 5.24432
0.107008 1.72238 5.23748
0.0980085 1.72238 5.23755
0.0800397 1.72346 5.24167
0.0630013 1.72139 5.23682
0.04601 1.72242 5.23794
-0.0441333 1.71924 5.08664
-2.25598 1.71116 4.58436
-2.273 1.71213 4.58147
-2.29102 1.71411 4.57958
-2.32113 1.71391 4.5648
-2.34619 1.71481 4.55698
-2.36419 1.71781 4.55607
-2.39038 1.71346 4.53133
-2.47665 1.71599 4.49593
-2.49467 1.71696 4.49306
-2.50677 1.71577 4.48016
-2.51085 1.71263 4.47024
-2.53379 1.71875 4.47732
-2.539 1.71135 4.45047
-2.58418 1.71103 4.42681
-2.60205 1.71828 4.44284
-2.62204 1.72231 4.44393
-2.62428 1.71285 4.41308
-2.64625 1.71791 4.41617
-2.66624 1.72194 4.41726
-2.68328 1.72288 4.41238
-2.69637 1.72171 4.40049
-2.70735 1.72375 4.40255
-2.71748 1.72052 4.38667
-2.73154 1.7204 4.37777
-2.75056 1.72338 4.37587
-2.76956 1.72638 4.37497
-2.78167 1.72418 4.36109
-2.80771 1.72611 4.35526
-2.81487 1.72181 4.33437
-2.82994 1.72168 4.32549
-2.84993 1.72571 4.32658
-2.86401 1.72456 4.3157
-2.86919 1.71822 4.29283
-2.9103 1.72203 4.27808
-2.93129 1.72505 4.2782
-2.94142 1.72282 4.2623
2.22834 1.71277 4.60955
2.21834 1.71178 4.60964
2.20339 1.71189 4.61675
2.18947 1.71305 4.62684
2.17656 1.71524 4.63891
2.16367 1.71845 4.65296
2.14466 1.71547 4.65315
2.1287 1.71554 4.65727
2.12073 1.7156 4.66133
2.10577 1.7157 4.66744
2.09797 1.72309 4.69339
2.07591 1.71699 4.68565
2.06096 1.71711 4.69276
2.05012 1.72341 4.71275
2.02803 1.71626 4.70202
2.0272 1.72359 4.72392
2.01328 1.72575 4.734
1.6005 1.73343 4.89802
1.58354 1.73352 4.90314
1.55264 1.73573 4.91635
1.53567 1.73479 4.91949
1.50866 1.73181 4.91973
1.49271 1.73291 4.92584
1.47573 1.73197 4.92898
1.44177 1.73107 4.93425
1.41681 1.73116 4.93944
1.38286 1.73029 4.94671
1.34787 1.72733 4.94802
1.31595 1.7285 4.95824
1.30592 1.72645 4.95435
1.28792 1.72546 4.9545
1.27505 1.72972 4.97153
1.26115 1.73292 4.98459
1.23029 1.73723 5.00376
1.21406 1.72579 4.97405
1.20329 1.73525 5.004
1.17801 1.72072 4.9674
1.16619 1.72808 4.99138
1.14921 1.72814 4.99451
1.13121 1.72715 4.99466
1.11421 1.72616 4.9948
1.10728 1.7283 5.00382
1.09444 1.73461 5.02383
1.07122 1.72321 4.99617
1.06255 1.73784 5.03802
1.04245 1.73267 5.02625
1.02548 1.73273 5.02938
1.01334 1.72549 5.01257
0.998429 1.72866 5.02364
0.981452 1.72872 5.02677
0.968645 1.7361 5.05176
0.952684 1.73718 5.05686
0.93049 1.72683 5.03218
0.913483 1.72583 5.03132
0.906576 1.73001 5.04331
0.888552 1.72798 5.04048
0.855607 1.72911 5.04771
0.839691 1.73128 5.0588
0.823738 1.73338 5.06489
0.805668 1.72926 5.05609
0.781785 1.7335 5.07121
0.762699 1.72835 5.06043
0.745684 1.72733 5.05857
0.729792 1.73155 5.07263
0.713869 1.73371 5.08272
0.696838 1.73167 5.07888
0.672978 1.73695 5.09698
0.654947 1.7349 5.09314
0.636893 1.73181 5.08633
0.619909 1.73186 5.08845
0.601831 1.72772 5.07865
0.579025 1.73611 5.1037
0.563071 1.73721 5.10981
0.541839 1.72578 5.08013
0.524793 1.7237 5.07429
0.508917 1.72895 5.09033
0.491871 1.72588 5.08451
0.482879 1.7259 5.08557
0.465872 1.72589 5.0847
0.448856 1.72388 5.08286
0.43191 1.72599 5.08996
0.414857 1.7239 5.08312
0.397895 1.72499 5.08823
0.380919 1.72604 5.09134
0.372911 1.72504 5.09042
0.354904 1.72403 5.08957
0.337866 1.72297 5.08471
0.32085 1.72096 5.08287
0.303866 1.722 5.08498
0.286905 1.72308 5.09009
0.269805 1.7189 5.07728
0.261882 1.72206 5.0873
0.193845 1.71903 5.08285
0.159853 1.71907 5.08411
0.116862 1.71912 5.08543
0.0408492 1.71915 5.084
0.0237215 1.71994 4.9341
0.00685314 1.7252 4.95115
-0.0101464 1.72521 4.95128
-0.0182001 1.72311 4.94437
-0.0341915 1.72414 4.94548
-0.0512764 1.71999 4.93466
-0.0671598 1.72522 4.94971
-0.0842522 1.72106 4.9379
-0.100229 1.72211 4.941
-0.117212 1.72316 4.94312
-0.125243 1.7221 4.93919
-0.142188 1.72422 4.94629
-0.158296 1.72002 4.93247
-0.174226 1.72317 4.94154
-0.191295 1.72005 4.93272
-0.207271 1.7221 4.93581
-0.215286 1.72108 4.93388
-0.231348 1.71797 4.92605
-0.248285 1.7221 4.93412
-0.264377 1.71794 4.9223
-0.282268 1.72316 4.93636
-0.314313 1.72209 4.93061
-0.323259 1.7242 4.93765
-0.339335 1.72107 4.92782
-0.355319 1.72211 4.92992
-0.372264 1.72522 4.93701
-0.389279 1.72521 4.93513
-0.404433 1.71792 4.91535
-0.420471 1.71686 4.91049
-0.429401 1.72 4.91951
-0.445416 1.71998 4.91763
-0.461469 1.71789 4.91078
-0.478468 1.7189 4.9109
-0.494506 1.71784 4.90603
-0.51049 1.71888 4.90814
-0.527474 1.71992 4.91025
-0.55155 1.71779 4.90046
-0.583595 1.71673 4.89472
-0.616624 1.71669 4.89097
-0.634537 1.72187 4.90203
-0.641591 1.71977 4.89511
-0.656691 1.71559 4.88228
-0.673675 1.71663 4.8844
-0.706696 1.71761 4.88163
-0.746756 1.71652 4.87395
-0.763762 1.71752 4.87306
-0.779777 1.7175 4.87118
-0.796784 1.7175 4.87031
-0.81279 1.71849 4.86941
-0.827882 1.71533 4.85757
-0.853826 1.71945 4.86471
-0.870817 1.72048 4.86582
-0.901901 1.71834 4.85509
-0.925007 1.71515 4.84131
-0.941999 1.71617 4.84242
-0.958036 1.71511 4.83755
-0.974043 1.71611 4.83666
-0.989096 1.71502 4.82979
-1.02309 1.71704 4.83002
-1.03112 1.717 4.82708
-1.04617 1.71491 4.82022
-1.07824 1.7148 4.81146
-1.12729 1.71573 4.80482
-1.16734 1.71666 4.7981
-1.18434 1.71765 4.79722
-1.19844 1.71447 4.78437
-1.23536 1.72066 4.79556
-1.27541 1.72157 4.78784
-1.29046 1.72049 4.78197
-1.30455 1.71833 4.77011
-1.32447 1.72349 4.78018
-1.34171 1.71404 4.74945
-1.35775 1.71398 4.74457
-1.40484 1.71382 4.73193
-1.42988 1.71377 4.72711
-1.4459 1.71473 4.72422
-1.49302 1.71353 4.70859
-1.50904 1.7145 4.7057
-1.53113 1.71335 4.69488
-1.83393 1.71099 4.59018
-1.92718 1.71155 4.55687
-1.97936 1.71023 4.53328
-2.04856 1.71089 4.50679
-2.0646 1.71082 4.50191
-2.13084 1.70938 4.46942
-2.16095 1.7092 4.45565
-2.194 1.71212 4.44886
-2.21608 1.71197 4.43802
-2.24617 1.71181 4.42625
-2.26714 1.71689 4.43033
-2.27332 1.70954 4.40649
-2.29527 1.71564 4.41256
-2.29541 1.70938 4.39465
-2.31735 1.7155 4.40173
-2.33043 1.71336 4.39186
-2.34745 1.71533 4.38896
-2.36053 1.71417 4.37807
-2.37952 1.7172 4.37917
-2.39065 1.71397 4.3633
-2.4026 1.71807 4.36933
-2.41469 1.7159 4.35745
-2.43171 1.71787 4.35455
-2.44677 1.71776 4.34666
-2.46182 1.71768 4.34078
-2.47884 1.71964 4.33688
-2.49094 1.71745 4.324
-2.496 1.71634 4.31605
-2.51599 1.71938 4.31816
-2.53005 1.71927 4.31026
-2.54511 1.71917 4.30238
-2.56509 1.72321 4.30447
-2.58014 1.72412 4.29757
-2.59224 1.72193 4.28469
-2.60223 1.72395 4.28573
-2.61431 1.7228 4.27484
-2.63233 1.72478 4.27295
-2.6464 1.72465 4.26305
-2.66047 1.72452 4.25416
-2.68156 1.72436 4.24232
2.27604 1.71817 4.43609
2.2682 1.72349 4.45707
2.25224 1.72257 4.46221
2.22712 1.71437 4.44752
2.21827 1.71967 4.46751
2.20232 1.71877 4.47364
2.19129 1.71672 4.46975
2.17938 1.71891 4.48181
2.17258 1.7263 4.50776
2.15255 1.72225 4.50397
2.14166 1.72548 4.519
2.12265 1.72247 4.51719
2.10567 1.72153 4.52033
2.10482 1.72781 4.53925
2.08987 1.72792 4.54636
2.07188 1.72595 4.54753
1.27398 1.73462 4.82945
1.24203 1.73474 4.83669
1.23302 1.73372 4.83477
1.20006 1.73283 4.84103
1.16813 1.73399 4.85026
1.11121 1.73318 4.8607
1.07929 1.73537 4.87191
1.06126 1.73232 4.86809
1.04529 1.73238 4.87121
1.02135 1.73351 4.87938
1.00434 1.73251 4.87852
0.98734 1.73152 4.87866
0.973449 1.73574 4.8927
0.94051 1.73588 4.90095
0.923456 1.73279 4.89413
0.88251 1.73292 4.90143
0.865525 1.73297 4.90356
0.849533 1.73199 4.9047
0.82561 1.73416 4.91485
0.759664 1.73431 4.92234
0.741625 1.73125 4.91752
0.725672 1.73235 4.92363
0.717664 1.73234 4.92269
0.702757 1.73553 4.93475
0.684696 1.73242 4.92693
0.669788 1.73561 4.939
0.651695 1.73045 4.92721
0.635773 1.73361 4.93729
0.619788 1.73365 4.93941
0.610812 1.7347 4.94246
0.594796 1.73268 4.94061
0.57885 1.7348 4.9477
0.560789 1.73169 4.93988
0.52889 1.73491 4.95307
0.512898 1.73493 4.9542
0.50282 1.73079 4.94433
0.486844 1.73185 4.94744
0.469844 1.73086 4.94758
0.437906 1.733 4.95579
0.404953 1.73512 4.96201
0.395945 1.73411 4.96109
0.379923 1.73308 4.95823
0.362899 1.73104 4.95538
0.346985 1.73522 4.96644
0.329931 1.73213 4.95962
0.312923 1.73112 4.95876
0.304947 1.73217 4.9618
0.287831 1.72697 4.94701
0.270808 1.72493 4.94417
0.254862 1.72705 4.95126
0.237879 1.72809 4.95337
0.221887 1.72812 4.95449
0.205964 1.73128 4.96456
0.196918 1.72919 4.95866
0.179864 1.7271 4.95182
0.163911 1.7292 4.95791
0.146904 1.7282 4.95705
0.130718 1.71986 4.9333
0.11392 1.72925 4.95929
0.0978355 1.7251 4.94847
0.0899286 1.72929 4.96047
0.072828 1.72411 4.94767
0.0557513 1.72097 4.93784
0.039829 1.72413 4.94792
0.0329408 1.72339 4.82997
0.0169569 1.72443 4.83207
0.000941699 1.72341 4.83021
-0.0159411 1.72965 4.84524
-0.0320028 1.72654 4.83741
-0.0479559 1.72864 4.8435
-0.0559249 1.7297 4.84754
-0.0719627 1.72864 4.84268
-0.088094 1.7224 4.82589
-0.104977 1.72764 4.84094
-0.12007 1.72347 4.82912
-0.136953 1.7297 4.84415
-0.153107 1.72242 4.82438
-0.161037 1.72556 4.83339
-0.17713 1.72139 4.82158
-0.193881 1.73388 4.85352
-0.209136 1.7214 4.82082
-0.22598 1.72971 4.84082
-0.241104 1.72348 4.82503
-0.257173 1.72136 4.81618
-0.265157 1.7214 4.81824
-0.282133 1.72346 4.82134
-0.29814 1.72345 4.82046
-0.313209 1.72033 4.81162
-0.329216 1.72033 4.81074
-0.346208 1.72135 4.81185
-0.362192 1.7224 4.81395
-0.369323 1.71615 4.7971
-0.386206 1.72238 4.81214
-0.40226 1.72029 4.80529
-0.418267 1.72029 4.80441
-0.434251 1.72133 4.80651
-0.449335 1.71818 4.79567
-0.458311 1.71923 4.79872
-0.472419 1.71503 4.78489
-0.491216 1.72543 4.81088
-0.506332 1.72022 4.79607
-0.522339 1.72022 4.79519
-0.538354 1.7202 4.79331
-0.554384 1.71915 4.78945
-0.56143 1.71707 4.78353
-0.577421 1.71909 4.78462
-0.593474 1.717 4.77777
-0.609458 1.71804 4.77988
-0.62548 1.71801 4.777
-0.641479 1.71902 4.7771
-0.649502 1.71798 4.77418
-0.664602 1.7138 4.76135
-0.683446 1.72211 4.78137
-0.698492 1.72103 4.7755
-0.712623 1.71479 4.7587
-0.728599 1.71685 4.76179
-0.746543 1.72096 4.76887
-0.752636 1.71679 4.75697
-0.768658 1.71676 4.75409
-0.783704 1.71468 4.74823
-0.800664 1.71777 4.75332
-0.817631 1.72084 4.7574
-0.832708 1.7177 4.74756
-0.848715 1.7187 4.74667
-0.855768 1.7166 4.73975
-0.873697 1.72075 4.74882
-0.886851 1.71446 4.72901
-0.906703 1.72276 4.74804
-0.934872 1.71645 4.72634
-0.950879 1.71645 4.72547
-0.958924 1.71536 4.71954
-0.991914 1.7184 4.72074
-1.00501 1.71424 4.7089
-1.02104 1.71417 4.70402
-1.04091 1.72144 4.72107
-1.05404 1.7162 4.70424
-1.06202 1.71823 4.70627
-1.07805 1.7182 4.70339
-1.10717 1.71398 4.68767
-1.12416 1.71601 4.68877
-1.13923 1.71389 4.67992
-1.1482 1.71595 4.68395
-1.16325 1.71486 4.67708
-1.19722 1.71893 4.68028
-1.21418 1.72202 4.68536
-1.23408 1.72822 4.69842
-1.24138 1.71565 4.65966
-1.25813 1.72815 4.6926
-1.26443 1.71558 4.65383
-1.28046 1.71553 4.64995
-1.2955 1.71445 4.64408
-1.31249 1.71648 4.64518
-1.32657 1.71434 4.63531
-1.34648 1.71952 4.64639
-1.36565 1.71421 4.62461
-1.38361 1.7173 4.6297
-1.39866 1.71722 4.62381
-1.41272 1.71511 4.61595
-1.4307 1.71815 4.61804
-1.44769 1.72018 4.61914
-1.45181 1.71496 4.60424
-1.46977 1.71905 4.60932
-1.48482 1.71796 4.60245
-1.49888 1.71685 4.59457
-1.51002 1.71159 4.57673
-1.52995 1.71672 4.5848
-1.54498 1.71669 4.58192
-1.55202 1.7156 4.57599
-1.56805 1.71656 4.57209
-1.58017 1.71234 4.55724
-1.60105 1.71957 4.5713
-1.61122 1.71326 4.55046
-1.63211 1.72047 4.56352
-1.65206 1.72459 4.57061
-1.65519 1.71934 4.5537
-1.6673 1.71614 4.53984
-1.69017 1.72439 4.55589
-1.70129 1.72016 4.54004
-1.71731 1.72115 4.53814
-1.72844 1.71589 4.5203
-1.7482 1.72936 4.55126
-1.75151 1.71577 4.51148
-1.77732 1.72816 4.53649
-1.79333 1.72914 4.5346
-1.8074 1.728 4.52472
-1.82049 1.72585 4.51385
-1.83848 1.72788 4.51495
-1.84454 1.72576 4.50703
-1.85076 1.71734 4.4782
-1.88575 1.72138 4.4794
-1.90274 1.72441 4.48048
-1.91093 1.71706 4.45665
-1.916 1.71491 4.44672
-1.94185 1.72523 4.46676
-1.951 1.71894 4.44692
-1.96801 1.72094 4.44602
-1.98403 1.7229 4.44311
-1.9922 1.71658 4.42127
-2.01216 1.72066 4.42536
-2.01723 1.71854 4.41743
-2.03325 1.71951 4.41453
-2.0483 1.71942 4.40764
-2.06236 1.71831 4.39977
-2.06561 1.70782 4.36694
-2.09442 1.72021 4.39198
-2.10552 1.71802 4.37809
-2.11256 1.71695 4.37316
-2.12858 1.71791 4.37027
-2.1456 1.7199 4.36837
-2.16556 1.72498 4.37344
-2.17569 1.72074 4.35658
-2.18876 1.7196 4.34669
-2.20283 1.71848 4.33781
-2.20788 1.71738 4.33087
-2.22786 1.72144 4.33396
-2.24191 1.72134 4.32706
-2.25402 1.71815 4.3132
-2.27693 1.72533 4.32427
-2.28607 1.72105 4.3054
-2.29323 1.71476 4.28554
-2.31826 1.7177 4.28069
-2.34118 1.72487 4.29075
-2.35034 1.71958 4.2709
-2.37845 1.71938 4.25611
-2.40348 1.72234 4.25226
-2.43358 1.72215 4.23848
-2.46071 1.72192 4.22169
2.41554 1.71712 4.23603
2.39274 1.72154 4.26314
2.38678 1.72262 4.26817
2.31912 1.72633 4.31363
2.17266 1.72748 4.38472
1.30894 1.73155 4.69121
1.2391 1.73291 4.71272
0.91256 1.73204 4.7752
0.824699 1.73337 4.79385
0.792722 1.73243 4.7971
0.75973 1.73147 4.79837
0.736784 1.73259 4.80552
0.704815 1.73268 4.80976
0.655822 1.73073 4.81116
0.630846 1.73079 4.81435
0.598839 1.7298 4.8136
0.565792 1.72673 4.8079
0.541862 1.72888 4.81705
0.526986 1.73413 4.83308
0.509886 1.72895 4.82029
0.477963 1.73112 4.8305
0.463033 1.73427 4.83957
0.452909 1.72804 4.82373
0.438003 1.73223 4.83578
0.420925 1.72809 4.82597
0.406034 1.73331 4.84001
0.39005 1.73335 4.84213
0.374081 1.73442 4.84623
0.347996 1.72928 4.83551
0.333105 1.73449 4.84954
0.315965 1.72724 4.83178
0.284098 1.73352 4.84893
0.227076 1.73151 4.84638
0.195053 1.72949 4.84366
0.179131 1.73365 4.85371
0.163116 1.73263 4.85185
0.145961 1.72535 4.83208
0.137977 1.72539 4.83415
0.122039 1.72852 4.84222
0.106102 1.73165 4.85029
0.0730018 1.72648 4.83762
0.0571032 1.73168 4.85066
0.0490721 1.72963 4.84675
-0.0182531 1.71309 4.67248
-0.0492597 1.7131 4.67171
-1.489 1.71063 4.44557
-1.53313 1.70941 4.42892
-1.57024 1.70823 4.41521
-1.60127 1.71018 4.41041
-1.61924 1.71425 4.41449
-1.63331 1.71213 4.40563
-1.66043 1.70991 4.38986
-1.6694 1.71197 4.3929
-1.70961 1.7076 4.36626
-1.72465 1.70753 4.36138
-1.74361 1.71162 4.36646
-1.76469 1.71147 4.35562
-1.77678 1.7083 4.34376
-1.79279 1.70929 4.34186
-1.82287 1.71016 4.33207
-1.83691 1.71008 4.32618
-1.84998 1.70896 4.31729
-1.85603 1.70686 4.31037
-1.87009 1.70675 4.30248
-1.89917 1.70662 4.2927
-1.91617 1.70862 4.29179
-1.92826 1.70647 4.28091
-1.93922 1.71055 4.28594
-1.99739 1.71025 4.26338
-2.04265 1.70578 4.22978
-2.0567 1.70569 4.22289
-2.13792 1.7073 4.19347
-2.33662 1.70907 4.10193
-2.34378 1.70376 4.08106
-2.38173 1.71186 4.08622
-2.37693 1.70249 4.06132
-2.39493 1.70549 4.06041
-2.40503 1.7033 4.04752
-2.42304 1.7053 4.04663
-2.45706 1.71027 4.04281
-2.46026 1.70288 4.01694
-2.48011 1.71218 4.03595
-2.48627 1.70687 4.01508
-2.49834 1.70575 4.00618
-2.52645 1.70655 3.99138
-2.56258 1.70732 3.97464
-2.5707 1.70409 3.95875
-2.5887 1.7071 3.95884
-2.60276 1.707 3.95094
-2.61583 1.70687 3.94204
-2.64469 1.71814 3.95909
-2.64579 1.71395 3.94616
-2.65095 1.70765 3.92529
-2.67786 1.71684 3.93736
-2.68203 1.71051 3.91448
-2.68819 1.70521 3.89461
-2.70618 1.70923 3.89468
-2.73506 1.71947 3.90975
-2.72826 1.71009 3.88483
-2.74824 1.71514 3.88691
-2.76725 1.71814 3.88601
-2.77338 1.71388 3.86811
-2.78348 1.71169 3.85522
-2.79952 1.71363 3.85031
-2.80863 1.71141 3.83541
-2.81863 1.71342 3.83546
-2.83071 1.71228 3.82556
-2.85486 1.711 3.80576
-2.88198 1.71178 3.78995
-2.89603 1.71268 3.78205
-2.90899 1.71676 3.78708
-2.91514 1.71248 3.76819
-2.93315 1.71548 3.76728
-2.93929 1.7112 3.74839
-2.96126 1.71626 3.75148
-2.98245 1.71391 3.72667
-2.9875 1.71282 3.72072
-3.00551 1.71581 3.71881
-3.00769 1.70947 3.69592
-3.06383 1.71623 3.67724
-3.09511 1.7127 3.64052
2.446 1.7031 4.03298
2.39923 1.70458 4.06331
2.33253 1.70722 4.10378
2.32353 1.70522 4.10388
2.31364 1.70844 4.11791
2.29665 1.70648 4.12006
2.29184 1.71384 4.14399
2.26672 1.70463 4.12932
2.23796 1.71011 4.16046
2.23113 1.71744 4.1824
2.20599 1.70721 4.16574
2.20425 1.7177 4.1986
2.17608 1.7064 4.17698
2.16314 1.70652 4.18508
2.16328 1.7138 4.20397
2.15952 1.72325 4.23386
2.12727 1.7068 4.20235
2.12246 1.71517 4.22726
2.11157 1.7184 4.2423
1.73989 1.72822 4.41698
1.63906 1.72464 4.44079
1.62306 1.72265 4.44094
1.61916 1.72684 4.45391
1.5712 1.72397 4.46032
1.54333 1.72724 4.47748
1.52631 1.72421 4.47465
1.51526 1.72013 4.4688
1.50748 1.72955 4.49672
1.48225 1.71612 4.4671
1.47241 1.72244 4.48809
1.45643 1.72249 4.49121
1.44248 1.72259 4.49731
1.43962 1.72986 4.51523
1.41645 1.71957 4.49455
1.40148 1.71862 4.49768
1.38962 1.72491 4.51668
1.37362 1.72293 4.51683
1.3607 1.72508 4.5269
1.34268 1.72305 4.52406
1.33571 1.72312 4.52811
1.31867 1.72005 4.52329
1.30268 1.7191 4.52542
1.28875 1.72124 4.53449
1.27791 1.72854 4.55447
1.25985 1.72345 4.54768
1.2418 1.71936 4.54088
1.2338 1.71937 4.54094
1.22091 1.7236 4.55597
1.20491 1.72161 4.55612
1.19097 1.72372 4.5632
1.1719 1.71861 4.55442
1.16003 1.72387 4.57143
1.15307 1.72494 4.57647
1.13395 1.71774 4.56172
1.12107 1.72298 4.57774
1.10507 1.72199 4.57787
1.08909 1.72104 4.58001
1.07411 1.72109 4.58312
1.0571 1.71907 4.58128
1.05325 1.72637 4.6012
1.03722 1.72333 4.59737
1.02018 1.72026 4.59254
1.00837 1.72964 4.61749
0.989258 1.72243 4.60274
0.960374 1.72568 4.61792
0.950288 1.72052 4.60707
0.938435 1.72681 4.62606
0.921404 1.72476 4.62222
0.901233 1.71545 4.60051
0.88731 1.71761 4.61058
0.874466 1.72492 4.63057
0.857396 1.7208 4.62176
0.852566 1.72813 4.64369
0.834427 1.72087 4.62594
0.821574 1.72716 4.64494
0.803512 1.72306 4.63714
0.787473 1.72 4.6323
0.773589 1.72523 4.64733
0.756488 1.71905 4.63455
0.747473 1.71803 4.63263
0.732519 1.71913 4.63873
0.716488 1.71708 4.63488
0.704736 1.72856 4.6668
0.686597 1.72131 4.64905
0.667426 1.712 4.62733
0.663651 1.72243 4.6562
0.646573 1.71829 4.64639
0.63055 1.71626 4.64354
0.615604 1.71837 4.65062
0.599604 1.71739 4.65076
0.584643 1.71847 4.65586
0.570791 1.72576 4.67486
0.561698 1.72059 4.663
0.544589 1.7144 4.64922
0.529705 1.71963 4.66426
0.513644 1.71652 4.65642
0.483768 1.72178 4.67257
0.466683 1.71663 4.66177
0.458628 1.71353 4.65488
0.442606 1.7125 4.65202
0.427707 1.7167 4.66507
0.411699 1.7157 4.6642
0.38066 1.71265 4.65948
0.357731 1.7158 4.66861
0.341723 1.7148 4.66774
0.325762 1.71688 4.67283
0.31077 1.71691 4.67395
0.2947 1.71279 4.66513
0.278693 1.71278 4.66425
0.262701 1.71281 4.66537
0.255763 1.71493 4.67339
0.239795 1.717 4.67748
0.226074 1.73054 4.71339
0.208749 1.71394 4.67176
0.176757 1.71397 4.673
0.153859 1.71918 4.6861
0.122766 1.71403 4.67441
0.0908135 1.71614 4.68062
0.0677596 1.71305 4.67383
0.0517449 1.71304 4.67195
0.00663121 1.71088 4.52431
-0.00934511 1.71193 4.52741
-0.0923346 1.71301 4.52902
-0.175401 1.71094 4.52068
-1.26361 1.71128 4.36385
-1.29073 1.70908 4.34908
-1.29677 1.707 4.34316
-1.32681 1.70895 4.33836
-1.3467 1.71617 4.3524
-1.35588 1.70782 4.32859
-1.37091 1.70777 4.3247
-1.38592 1.70877 4.3238
-1.39393 1.70976 4.32285
-1.40797 1.70868 4.31697
-1.43605 1.70854 4.30618
-1.45204 1.71056 4.30727
-1.46707 1.71053 4.30438
-1.48016 1.70836 4.29251
-1.48815 1.70938 4.29356
-1.50608 1.71451 4.30162
-1.52111 1.71548 4.29872
-1.53418 1.71334 4.28885
-1.5502 1.71432 4.28695
-1.56522 1.71529 4.28405
-1.58024 1.71526 4.28116
-1.58726 1.71522 4.27822
-1.60227 1.71721 4.2773
-1.61731 1.71713 4.27141
-1.63626 1.72225 4.27848
-1.64442 1.71495 4.25765
-1.65944 1.71591 4.25475
-1.67135 1.72208 4.26575
-1.6815 1.71581 4.24691
-1.69457 1.71469 4.23803
-1.71645 1.72293 4.25307
-1.72167 1.71352 4.22525
-1.73865 1.71656 4.22733
-1.75073 1.7144 4.21645
-1.75579 1.71229 4.20852
-1.76788 1.70913 4.19766
-1.78781 1.71527 4.20572
-1.79695 1.71001 4.18786
-1.81002 1.70888 4.17897
-1.82701 1.71191 4.18006
-1.8301 1.70775 4.16914
-1.84414 1.70767 4.16325
-1.86801 1.71693 4.17929
-1.87027 1.70544 4.14647
-1.88726 1.70847 4.14756
-1.90326 1.71046 4.14665
