-0.92387 1.77492 7.65267
-0.949792 1.77809 7.66282
-0.972975 1.77275 7.63907
-1.00082 1.77907 7.65919
-1.0249 1.77692 7.6484
-1.0499 1.77794 7.64858
-1.061 1.77476 7.6357
-1.08792 1.77792 7.64586
-1.11007 1.77466 7.62707
-1.13513 1.77356 7.61928
-1.16202 1.77778 7.63342
-1.18421 1.77243 7.60866
-1.22318 1.7745 7.61193
-1.27131 1.7723 7.59632
-1.32038 1.77219 7.58669
-1.35743 1.77211 7.57997
-1.38345 1.7721 7.57817
-1.43347 1.77408 7.57451
-1.51864 1.77182 7.55318
-1.83915 1.77203 7.48659
-1.91521 1.77395 7.47813
-1.9773 1.77482 7.46658
-1.99745 1.77154 7.44678
-2.0254 1.77466 7.45395
-2.0514 1.77566 7.45313
-2.07158 1.77134 7.43034
-2.09661 1.77228 7.42551
-2.1236 1.77433 7.42769
-2.13465 1.77324 7.42079
-2.16161 1.77633 7.42594
-2.19152 1.78051 7.43711
-2.21072 1.77614 7.41131
-2.23477 1.77606 7.4045
-2.26566 1.7813 7.41965
-2.27279 1.77704 7.40177
-2.29686 1.77692 7.39295
-2.32384 1.77897 7.39512
-2.34106 1.77357 7.36733
-2.36707 1.77556 7.3655
-2.39505 1.77762 7.36868
-2.41716 1.77642 7.35386
-2.42722 1.77531 7.34595
-2.4591 1.78055 7.36111
-2.48024 1.7783 7.3433
-2.50232 1.77715 7.33249
-2.53226 1.78129 7.34065
-2.55436 1.78012 7.32783
-2.57646 1.77793 7.31403
-2.59632 1.78421 7.33209
-2.61451 1.77985 7.30729
-2.63857 1.77976 7.30047
-2.66752 1.78387 7.30663
-2.69158 1.78377 7.29881
-2.71074 1.78046 7.277
-2.73453 1.78788 7.30407
-2.75172 1.78352 7.27926
-2.77482 1.78235 7.26645
-2.80966 1.78968 7.28761
-2.82686 1.78531 7.2618
-2.84994 1.78516 7.25097
-2.88184 1.79038 7.26414
-2.88897 1.78713 7.24724
-2.91401 1.78806 7.24141
-2.96214 1.78884 7.22476
2.74853 1.75339 7.16225
2.72254 1.75143 7.16348
2.70166 1.75368 7.17961
2.6818 1.75596 7.19772
2.65581 1.75501 7.19993
2.6298 1.75301 7.19916
2.61581 1.75204 7.20028
2.54702 1.75349 7.22778
2.53128 1.76 7.26181
2.51552 1.76649 7.29383
2.49261 1.76767 7.30499
2.47961 1.76668 7.3051
2.45259 1.76367 7.30335
2.43685 1.77118 7.33736
2.41188 1.77026 7.34157
2.38998 1.77147 7.35472
2.36706 1.77265 7.36587
2.34895 1.76844 7.35107
2.32399 1.76753 7.35627
2.30003 1.76762 7.36145
2.27711 1.7688 7.37261
2.25215 1.76789 7.37781
2.23232 1.77223 7.3999
2.20528 1.76918 7.39515
2.19231 1.76925 7.39924
2.14852 1.77369 7.42751
2.12459 1.77384 7.43669
2.10168 1.77504 7.44885
2.07465 1.77298 7.44408
2.0627 1.7741 7.45116
2.03978 1.77526 7.46131
2.01274 1.77222 7.45756
1.98881 1.77336 7.46573
1.96899 1.77773 7.48981
1.94299 1.77575 7.49004
1.918 1.77579 7.49223
1.80721 1.77627 7.52006
0.144967 1.78883 7.75843
0.0939757 1.78888 7.75981
0.0689608 1.78787 7.75801
0.0529051 1.78484 7.48514
0.0288907 1.78483 7.48332
0.00368369 1.77745 7.45662
-0.00812392 1.78383 7.48162
-0.0321232 1.78384 7.4818
-0.0571991 1.78171 7.47202
-0.0812292 1.78067 7.46821
-0.10619 1.78176 7.47339
-0.130197 1.78177 7.47257
-0.142342 1.77749 7.45372
-0.167227 1.78073 7.46886
-0.191341 1.77753 7.45409
-0.21524 1.78074 7.46722
-0.240324 1.7786 7.45644
-0.264238 1.78178 7.46757
-0.289245 1.78178 7.46676
-0.301291 1.7807 7.46087
-0.325328 1.77964 7.45607
-0.349343 1.77963 7.45425
-0.374258 1.78181 7.4654
-0.398387 1.77858 7.44863
-0.422401 1.77857 7.44681
-0.447309 1.78176 7.45895
-0.459431 1.77753 7.4431
-0.482545 1.77433 7.42832
-0.508368 1.78069 7.45143
-0.531498 1.77645 7.43466
-0.555527 1.77641 7.43084
-0.580526 1.77643 7.43103
-0.605463 1.77957 7.43917
-0.616579 1.77535 7.42432
-0.641516 1.77849 7.43246
-0.665577 1.77639 7.42467
-0.689637 1.77529 7.41687
-0.714536 1.7795 7.43
-0.738588 1.77841 7.42319
-0.748742 1.77312 7.40334
-0.774656 1.7763 7.41449
-0.797755 1.77413 7.4017
-0.822754 1.77415 7.40189
-0.84773 1.77621 7.40504
-0.871751 1.77618 7.40223
-0.896712 1.77827 7.40738
-0.908727 1.77825 7.40547
-0.929941 1.77185 7.37772
-0.955848 1.77505 7.38987
-0.980839 1.77608 7.39105
-1.00204 1.7707 7.36428
-1.02701 1.77279 7.36944
-1.05009 1.77065 7.35864
-1.06306 1.77171 7.36273
-1.08519 1.76848 7.34594
-1.11209 1.77269 7.35908
-1.13417 1.77054 7.34828
-1.15823 1.76944 7.34047
-1.18226 1.7694 7.33666
-1.19521 1.7715 7.34272
-1.21924 1.77146 7.3389
-1.24614 1.77567 7.35205
-1.26636 1.76926 7.32329
-1.29038 1.77024 7.32146
-1.31439 1.77023 7.31964
-1.33843 1.77017 7.31482
-1.34854 1.76696 7.29994
-1.37637 1.77331 7.32206
-1.39561 1.76686 7.29129
-1.42542 1.77424 7.31541
-1.44849 1.77312 7.3066
-1.47156 1.77199 7.29679
-1.4946 1.77193 7.29197
-1.50855 1.77405 7.29904
-1.5268 1.76657 7.26628
-1.5518 1.76759 7.26646
-1.57871 1.77177 7.2776
-1.59986 1.76851 7.2588
-1.62292 1.76739 7.24999
-1.64986 1.77053 7.25815
-1.68397 1.76935 7.24442
-1.70702 1.76826 7.23761
-1.75509 1.76915 7.22796
-1.77816 1.76803 7.21915
-1.79112 1.77011 7.22422
-1.81323 1.76792 7.21041
-1.83727 1.76785 7.2046
-1.86225 1.7699 7.20675
-1.88727 1.77089 7.20493
-1.91129 1.77086 7.20211
-1.93727 1.77291 7.20427
-1.94442 1.76963 7.18537
-1.97525 1.77698 7.2075
-1.99444 1.77162 7.18272
-2.02041 1.77369 7.18589
-2.04347 1.77358 7.17806
-2.06556 1.77244 7.16724
-2.09155 1.77447 7.16841
-2.10453 1.77551 7.17049
-2.12565 1.77329 7.15468
-2.15064 1.77532 7.15584
-2.18053 1.78057 7.17099
-2.20068 1.77728 7.15119
-2.22179 1.77508 7.13638
-2.23673 1.77821 7.14444
-2.25588 1.77492 7.12463
-2.28384 1.77802 7.1298
-2.30788 1.77796 7.12498
-2.32604 1.77465 7.10316
-2.354 1.77774 7.10833
-2.38096 1.78084 7.11349
-2.392 1.78077 7.10857
-2.4131 1.77859 7.09576
-2.43911 1.7806 7.09493
-2.45925 1.77733 7.07612
-2.48522 1.7804 7.07927
-2.50732 1.77922 7.06646
-2.53136 1.78016 7.06162
-2.54436 1.78117 7.06171
-2.56839 1.78211 7.05687
-2.59342 1.78307 7.05305
-2.61647 1.78299 7.04622
-2.63953 1.78289 7.03839
-2.66652 1.78593 7.04055
-2.6756 1.78378 7.02965
-2.70161 1.78577 7.02782
-2.72566 1.7857 7.022
3.0582 1.74065 6.72005
3.02531 1.74088 6.7343
3.00645 1.74416 6.75239
2.98248 1.74224 6.7566
2.96564 1.74658 6.77867
2.94576 1.74782 6.7938
2.9218 1.74691 6.799
2.90575 1.74383 6.79316
2.83996 1.74529 6.82164
2.82417 1.7497 6.8487
2.79817 1.74772 6.84892
2.78338 1.75315 6.87696
2.76935 1.75108 6.87209
2.74437 1.74915 6.87531
2.72857 1.75456 6.90235
2.70358 1.75259 6.90357
2.68167 1.75378 6.91572
2.65975 1.75495 6.92587
2.64675 1.75396 6.92598
2.6187 1.74989 6.92025
2.60392 1.75531 6.94829
2.57588 1.75226 6.94354
2.56621 1.7619 6.98648
2.53918 1.75888 6.98373
2.51625 1.75901 6.9919
2.50836 1.76224 7.00691
2.48234 1.75923 7.00515
2.45837 1.75831 7.00935
2.43749 1.76055 7.02447
2.42274 1.76804 7.05748
2.39467 1.76393 7.04875
2.38372 1.76403 7.05483
2.36077 1.76415 7.062
2.33579 1.76321 7.06521
2.31388 1.76439 7.07635
2.29196 1.76557 7.0875
2.2721 1.76885 7.10561
2.24711 1.76688 7.10683
2.23102 1.76373 7.09599
2.20603 1.76177 7.09721
2.18104 1.7608 7.09841
2.16015 1.76302 7.11254
2.1331 1.75995 7.10679
2.11428 1.76431 7.12987
2.10846 1.76967 7.15384
2.08141 1.76658 7.14708
2.06257 1.76992 7.16918
2.03862 1.77003 7.17536
2.01361 1.76803 7.17458
1.9917 1.77021 7.18571
1.95884 1.77251 7.20493
0.187848 1.78364 7.47714
0.0778736 1.78376 7.48097
0.0532187 1.77257 7.12927
0.0291729 1.7705 7.12348
0.00606626 1.76731 7.1097
-0.0168873 1.76841 7.11586
-0.0399174 1.76737 7.11205
-0.0639167 1.76739 7.11223
-0.086862 1.76951 7.11937
-0.0988309 1.77058 7.12345
-0.121884 1.76949 7.11664
-0.144944 1.76739 7.10884
-0.167205 1.7589 7.07513
-0.191966 1.76638 7.10621
-0.214096 1.76214 7.08944
-0.22698 1.76637 7.10447
-0.24991 1.76952 7.1136
-0.273079 1.76322 7.09186
-0.296985 1.76741 7.10398
-0.319046 1.76531 7.09618
-0.366083 1.76427 7.09155
-0.377175 1.7611 7.07968
-0.40019 1.76109 7.07785
-0.424088 1.7653 7.09097
-0.447164 1.76316 7.08118
-0.493232 1.76107 7.07255
-0.527261 1.76103 7.06881
-0.573305 1.76098 7.06316
-0.667309 1.76203 7.06285
-1.8238 1.76088 6.86955
-1.91495 1.76163 6.84922
-2.09335 1.76098 6.79757
-2.1443 1.76609 6.80288
-2.16147 1.76178 6.78107
-2.18354 1.76066 6.77225
-2.22766 1.76046 6.75658
-2.2377 1.75939 6.75167
-2.26366 1.76348 6.75681
-2.30876 1.76331 6.74315
-2.3519 1.76206 6.72449
-2.36096 1.76096 6.71758
-2.38693 1.76402 6.72073
-2.43007 1.76277 6.70207
-2.45408 1.76478 6.70122
-2.47811 1.76573 6.69738
-2.49821 1.76356 6.68457
-2.51413 1.76772 6.69463
-2.52834 1.76231 6.66681
-2.55923 1.76854 6.68095
-2.57639 1.76424 6.66014
-2.61119 1.77365 6.68627
-2.62149 1.76508 6.64747
-2.64844 1.76919 6.65361
-2.65554 1.767 6.64069
-2.68741 1.77326 6.65684
-2.7085 1.7721 6.64502
-2.72957 1.77198 6.63618
-2.74476 1.76762 6.61135
-2.77762 1.77491 6.6295
-2.79968 1.77481 6.62166
-2.80973 1.77472 6.61474
-2.83375 1.77569 6.6119
-2.85581 1.77659 6.60406
-2.87887 1.7765 6.59723
-2.89995 1.77635 6.58639
-2.92299 1.77728 6.58055
-2.92518 1.77093 6.55666
-2.95608 1.77713 6.5688
-2.9693 1.77171 6.53997
-3.0002 1.77792 6.55312
-3.01931 1.77671 6.53828
-3.03646 1.77343 6.51845
2.84926 1.73797 6.46263
2.77552 1.73953 6.49717
2.75561 1.74072 6.5093
2.7357 1.74191 6.52143
2.71172 1.73997 6.52464
2.70278 1.7411 6.5327
2.66297 1.74348 6.55696
2.64103 1.74362 6.56513
2.62317 1.74691 6.58422
2.60223 1.74704 6.59237
2.58133 1.74824 6.60451
2.56116 1.74093 6.58277
2.54737 1.74735 6.61078
2.52033 1.7433 6.60605
2.5086 1.75182 6.64101
2.48461 1.74986 6.64222
2.46062 1.7479 6.64443
2.45374 1.75214 6.66043
2.42362 1.74493 6.64476
2.40781 1.7503 6.6688
2.38689 1.75147 6.67994
2.36393 1.75058 6.68613
2.33787 1.74648 6.67838
2.32823 1.75717 6.72431
2.31418 1.75509 6.71844
2.29223 1.75521 6.72561
2.2621 1.74898 6.70892
2.23913 1.74806 6.71311
2.22437 1.75453 6.74413
2.19422 1.74725 6.72446
2.17534 1.7505 6.74056
2.16335 1.74954 6.74266
2.14345 1.75173 6.75478
2.11844 1.74974 6.754
2.10266 1.75518 6.78304
2.07764 1.75315 6.78026
2.06186 1.75959 6.80929
2.04471 1.75331 6.78951
2.02997 1.76084 6.82451
2.00495 1.75881 6.82173
1.98505 1.76102 6.83485
1.95901 1.75796 6.83009
1.94222 1.76337 6.85714
1.91512 1.7582 6.84442
1.90726 1.76247 6.86242
1.88529 1.76256 6.86758
1.86234 1.76267 6.87375
1.83629 1.75958 6.867
1.82053 1.76707 6.89901
1.71459 1.76225 6.90688
1.69679 1.76865 6.93292
1.67174 1.76558 6.92716
0.824003 1.77462 7.09743
0.777034 1.77472 7.10178
0.765019 1.7737 7.09989
0.718035 1.77376 7.10224
0.648036 1.77181 7.1028
0.623959 1.76868 7.09303
0.613075 1.77291 7.10805
0.588983 1.76875 7.09629
0.566053 1.7709 7.10543
0.543038 1.76989 7.10362
0.496108 1.77205 7.11294
0.45997 1.76681 7.09529
0.391003 1.76692 7.09981
0.368234 1.77438 7.12987
0.345211 1.77336 7.12706
0.332004 1.76597 7.10027
0.310235 1.77443 7.13031
0.286166 1.77131 7.12154
0.263236 1.77346 7.13068
0.239137 1.77029 7.1179
0.215976 1.76399 7.09717
0.193161 1.77036 7.12125
0.181146 1.77034 7.11934
0.158108 1.76829 7.11454
0.133931 1.76196 7.09182
0.111094 1.76829 7.1129
0.0879635 1.76306 7.09615
0.0641412 1.76941 7.11924
0.00755877 1.75239 6.77787
-0.271455 1.75355 6.77695
-1.93333 1.75598 6.5344
-2.05256 1.7566 6.50329
-2.09663 1.7575 6.4946
-2.1167 1.75638 6.48577
-2.13972 1.75735 6.48293
-2.1598 1.7562 6.4721
-2.17889 1.75504 6.46026
-2.19091 1.75502 6.45835
-2.21391 1.75702 6.45749
-2.23496 1.75694 6.45165
-2.25602 1.75683 6.44281
-2.27903 1.75783 6.44197
-2.30009 1.75773 6.43413
-2.32116 1.75761 6.42528
-2.33216 1.75862 6.42535
-2.35617 1.7596 6.42352
-2.37428 1.75739 6.40869
-2.39828 1.75941 6.40884
-2.42032 1.76035 6.40399
-2.44628 1.76445 6.40912
-2.45436 1.76229 6.39822
-2.47542 1.76219 6.39037
-2.49352 1.76001 6.37754
-2.51556 1.76093 6.37169
-2.53955 1.76297 6.37284
-2.56061 1.76286 6.365
-2.58363 1.76484 6.36215
-2.59761 1.76689 6.36522
-2.61572 1.7647 6.35139
-2.63874 1.76667 6.34853
-2.6598 1.76656 6.34069
-2.68185 1.76648 6.33386
-2.70388 1.76742 6.32901
-2.72299 1.76623 6.31517
-2.73105 1.76511 6.30725
-2.75702 1.76819 6.3114
-2.77908 1.76909 6.30355
-2.79915 1.76796 6.29371
-2.82513 1.77202 6.29685
-2.84226 1.76876 6.27903
-2.85032 1.76765 6.2711
-2.87041 1.7675 6.26025
-2.91547 1.7694 6.25156
-2.93753 1.7703 6.24372
-2.95564 1.76809 6.22888
-2.98063 1.77114 6.23103
-2.98871 1.76998 6.2201
-3.01271 1.772 6.22025
-3.03181 1.77082 6.20741
-3.05287 1.77172 6.19956
-3.095 1.77148 6.18188
2.60262 1.73392 6.24652
2.56176 1.73422 6.26482
2.5339 1.73652 6.284
2.51499 1.7377 6.29513
2.49405 1.73783 6.30328
2.47209 1.73793 6.30945
2.45012 1.73701 6.31363
2.43326 1.74029 6.33171
2.42024 1.73825 6.32884
2.40441 1.74259 6.3509
2.38549 1.74377 6.36202
2.36659 1.74597 6.37513
2.34464 1.74609 6.3823
2.32061 1.74205 6.37854
2.31067 1.74316 6.3856
2.29484 1.7485 6.40764
2.27185 1.74655 6.40984
2.24884 1.74455 6.40905
2.23098 1.74783 6.42713
2.20902 1.74792 6.4323
2.18706 1.74701 6.43748
2.17811 1.74812 6.44453
2.15922 1.75034 6.45864
2.13519 1.74831 6.45585
2.11325 1.74843 6.46302
2.09025 1.74646 6.46422
2.07032 1.7476 6.47236
2.05245 1.75087 6.49044
2.04558 1.75412 6.50645
2.02464 1.75525 6.51459
2.00268 1.75535 6.52076
1.9807 1.7544 6.52294
1.95874 1.75451 6.5291
1.93882 1.75567 6.53924
1.92886 1.75575 6.54431
1.90382 1.75269 6.53954
1.88905 1.76015 6.56955
1.86913 1.76133 6.58068
1.84615 1.76037 6.58287
1.82315 1.75939 6.58306
1.80119 1.75948 6.58822
1.7871 1.75531 6.57639
1.76101 1.75017 6.56566
1.74524 1.75762 6.59567
1.7212 1.75457 6.5909
1.70338 1.75992 6.61396
1.05949 1.76752 6.76272
1.03649 1.76755 6.76389
0.990425 1.76345 6.7553
0.969564 1.76773 6.77339
0.958563 1.76674 6.77349
0.936595 1.76782 6.77764
0.912533 1.76472 6.76987
0.890564 1.76479 6.77403
0.868618 1.76591 6.78118
0.846634 1.76596 6.78335
0.824657 1.76602 6.78651
0.811519 1.76076 6.76868
0.788534 1.76081 6.77086
0.766581 1.76191 6.77701
0.745689 1.76513 6.79112
0.722643 1.76306 6.78532
0.700659 1.76311 6.78749
0.688613 1.76103 6.78161
0.664505 1.75684 6.76785
0.643598 1.76003 6.77996
0.619437 1.75374 6.75923
0.597476 1.75483 6.76438
0.575537 1.75596 6.77253
0.553546 1.75599 6.7737
0.541523 1.75496 6.7708
0.520623 1.75817 6.78392
0.497501 1.75395 6.76815
0.475586 1.75612 6.77929
0.453624 1.75721 6.78444
0.430625 1.75723 6.78461
0.418479 1.75196 6.76578
0.396564 1.75414 6.77691
0.375634 1.75629 6.78604
0.353681 1.75839 6.79217
0.330658 1.75736 6.78936
0.30862 1.75531 6.78456
0.285659 1.7564 6.78971
0.275736 1.75955 6.79974
0.252621 1.75535 6.78498
0.229552 1.75223 6.7762
0.207676 1.75648 6.7923
0.163639 1.75544 6.78765
0.15157 1.75232 6.77878
0.107617 1.75444 6.78508
0.0297197 1.76075 6.53254
0.00767391 1.75867 6.52674
-0.0132791 1.76078 6.53287
-0.0344404 1.75448 6.51212
-0.0563858 1.7566 6.51925
-0.0774624 1.75347 6.50945
-0.0883466 1.7577 6.52448
-0.109507 1.7524 6.50371
-0.131337 1.75875 6.52578
-0.152429 1.75558 6.51399
-0.17349 1.75348 6.50618
-0.195412 1.75664 6.5163
-0.216588 1.75032 6.49355
-0.227449 1.75559 6.51155
-0.248572 1.75137 6.49577
-0.270387 1.75774 6.51985
-0.29157 1.7514 6.4961
-0.313493 1.75457 6.50622
-0.33453 1.75351 6.50139
-0.355522 1.75454 6.50253
-0.366583 1.75243 6.49465
-0.387536 1.75453 6.50077
-0.408635 1.75136 6.48798
-0.430542 1.75455 6.5001
-0.451626 1.7524 6.48929
-0.473594 1.75348 6.49344
-0.482701 1.75028 6.47955
-0.504685 1.75132 6.4817
-0.526623 1.75346 6.48984
-0.547714 1.75129 6.47802
-0.569605 1.75552 6.49213
-0.590681 1.75338 6.48232
-0.621764 1.75124 6.47158
-0.642818 1.74916 6.46477
-0.665686 1.75442 6.48187
-0.685793 1.75123 6.46806
-0.706815 1.7512 6.46522
-0.749844 1.75117 6.46155
-0.781888 1.75111 6.45579
-0.823932 1.75105 6.45011
-0.897044 1.74888 6.43569
-0.91905 1.74988 6.43484
-1.48975 1.75189 6.34409
-1.54087 1.75069 6.3285
-1.56384 1.75277 6.33264
-1.58097 1.74951 6.31481
-1.60298 1.75052 6.31396
-1.62305 1.7494 6.30513
-1.64603 1.75144 6.30727
-1.67515 1.74923 6.29152
-1.6981 1.75233 6.29765
-1.71719 1.75018 6.28683
-1.74213 1.75431 6.29395
-1.7612 1.75319 6.28511
-1.78321 1.75417 6.28326
-1.80327 1.75307 6.27543
-1.81429 1.75303 6.27251
-1.84018 1.75927 6.28762
-1.85927 1.75811 6.27578
-1.88031 1.75804 6.26994
-1.89646 1.75377 6.25112
-1.92239 1.75792 6.26025
-1.93046 1.75579 6.25134
-1.95538 1.76094 6.26046
-1.97154 1.75564 6.23965
-1.99845 1.76184 6.25177
-2.02046 1.76284 6.25092
-2.04442 1.76592 6.25505
-2.05668 1.75842 6.22125
-2.07061 1.76158 6.23131
-2.08871 1.75939 6.21748
-2.11269 1.76243 6.21961
-2.13175 1.76133 6.21177
-2.15182 1.76121 6.20293
-2.17384 1.7622 6.20108
-2.19684 1.7642 6.20022
-2.20296 1.76098 6.18531
-2.22301 1.76089 6.17846
-2.24503 1.76186 6.17561
-2.26803 1.76388 6.17576
-2.29006 1.76484 6.17191
-2.31011 1.76475 6.16506
-2.31818 1.76262 6.15615
-2.34118 1.76462 6.15529
-2.36025 1.7645 6.14644
-2.37933 1.76335 6.1356
-2.40528 1.76748 6.14273
-2.42535 1.76734 6.13289
-2.44541 1.76724 6.12504
-2.45641 1.76825 6.1251
-2.51759 1.76794 6.10157
-2.53765 1.76783 6.09372
2.93212 1.72481 5.7801
2.87838 1.72837 5.81546
2.85741 1.72644 5.81965
2.84846 1.72754 5.8257
2.77479 1.73024 5.87022
2.75587 1.7314 5.88035
2.73592 1.73052 5.88751
2.7111 1.73388 5.91065
2.69115 1.734 5.9178
2.67425 1.7352 5.93091
2.65533 1.73637 5.94104
2.63845 1.73862 5.95714
2.6295 1.73973 5.96419
2.60649 1.73673 5.96341
2.58859 1.73792 5.97553
2.56968 1.74011 5.98764
2.55073 1.74023 5.99478
2.52978 1.73933 6.00095
2.51902 1.74681 6.03293
2.50191 1.7416 6.01813
2.48298 1.74176 6.02827
2.46304 1.7419 6.03642
2.44615 1.74412 6.05052
2.42214 1.74212 6.04973
2.4022 1.74224 6.05688
2.38735 1.74554 6.07694
2.37943 1.74771 6.08797
2.36153 1.74992 6.10108
2.3426 1.75007 6.11022
2.32063 1.74914 6.1144
2.29557 1.74504 6.10665
2.27155 1.74303 6.10486
2.25954 1.74101 6.10298
2.23447 1.73691 6.09522
2.2309 1.75072 6.15005
2.21095 1.75084 6.1572
2.17005 1.75106 6.17051
1.96246 1.75002 6.2261
1.94252 1.75015 6.23425
0.706582 1.76402 6.51139
0.663598 1.76308 6.51373
0.62166 1.76423 6.52203
0.599661 1.76424 6.5222
0.566576 1.7601 6.5115
0.546738 1.76543 6.53258
0.523631 1.76124 6.51881
0.502716 1.76442 6.52992
0.481724 1.76445 6.53108
0.459748 1.76451 6.53425
0.447594 1.75822 6.51443
0.427718 1.76347 6.5305
0.405641 1.76034 6.52071
0.38368 1.76143 6.52586
0.362657 1.7604 6.52304
0.341758 1.76361 6.53615
0.31975 1.76261 6.53533
0.308658 1.75944 6.52346
0.287759 1.76265 6.53657
0.265705 1.76056 6.52977
0.244845 1.76584 6.54785
0.223822 1.76481 6.54502
0.201807 1.7638 6.5432
0.17953 1.75328 6.50752
0.168669 1.75856 6.52553
0.147562 1.75437 6.51175
0.126717 1.76068 6.53181
0.104748 1.76175 6.53596
0.0836868 1.75865 6.52817
0.0617188 1.76072 6.5323
0.0506802 1.75866 6.52741
0.0387294 1.74285 6.2697
0.0177149 1.74283 6.26786
-0.0022845 1.74285 6.26801
-0.11625 1.74399 6.27285
-1.76299 1.74568 6.0482
-1.79304 1.7456 6.04143
-1.94139 1.74501 5.99555
-1.96241 1.74598 5.99269
-2.02644 1.74997 5.98912
-2.03059 1.74467 5.96922
-2.05161 1.74664 5.96635
-2.0736 1.74867 5.96749
-2.09464 1.74862 5.96265
-2.11271 1.74748 5.9528
-2.13374 1.74844 5.94894
-2.16477 1.7504 5.94515
-2.17895 1.74506 5.92133
-2.20194 1.7481 5.92346
-2.22296 1.74907 5.9206
-2.24103 1.74795 5.91175
-2.26205 1.74891 5.9079
-2.28112 1.74879 5.89904
-2.29016 1.74772 5.89412
-2.31117 1.74971 5.89225
-2.33222 1.74963 5.88641
-2.35127 1.74954 5.87956
-2.37033 1.74944 5.8717
-2.3943 1.7535 5.87482
-2.40137 1.75137 5.8659
-2.42142 1.7523 5.86004
-2.44146 1.75222 5.85419
-2.4615 1.75315 5.84833
-2.48352 1.75414 5.84648
-2.49964 1.75191 5.83063
-2.5187 1.75181 5.82278
-2.52971 1.75279 5.82084
-2.54976 1.75271 5.815
-2.57078 1.75468 5.81212
-2.58887 1.75352 5.80028
-2.61088 1.75552 5.79941
-2.63093 1.75543 5.79256
-2.65096 1.75737 5.78768
-2.66198 1.75735 5.78577
-2.68596 1.76039 5.7879
-2.70305 1.75923 5.77605
-2.72016 1.75803 5.76219
-2.73823 1.7569 5.75234
-2.75828 1.75783 5.74648
-2.77125 1.75988 5.74955
-2.78835 1.7587 5.73669
-2.80741 1.75859 5.72884
-2.82747 1.75949 5.72097
-2.84554 1.75836 5.71113
-2.86855 1.76136 5.71025
-2.88663 1.76021 5.69941
-2.89764 1.7612 5.69847
-2.91278 1.75895 5.68062
-2.93479 1.76093 5.67876
2.52175 1.72437 5.7332
2.50485 1.72657 5.74629
2.49895 1.72977 5.75929
2.47492 1.72673 5.75552
2.46005 1.72899 5.7726
2.44009 1.72909 5.77875
2.40221 1.72934 5.79403
2.38021 1.72736 5.79423
2.37535 1.73163 5.8122
2.35231 1.72859 5.80842
2.33848 1.73292 5.83046
2.3226 1.73516 5.84555
2.30366 1.73629 5.85368
2.28677 1.73852 5.86878
2.26376 1.73551 5.86699
2.25377 1.73553 5.86807
2.23993 1.73987 5.89011
2.21692 1.73686 5.88833
2.19696 1.73696 5.89448
2.17905 1.73814 5.9056
2.16112 1.7393 5.91572
2.13912 1.7373 5.91491
2.12916 1.73839 5.92097
2.10919 1.73747 5.92514
2.09127 1.73863 5.93526
2.07132 1.73875 5.94241
2.05135 1.73882 5.94656
2.02934 1.73682 5.94575
2.02038 1.7369 5.95082
1.99941 1.73698 5.95498
1.97945 1.73607 5.96014
1.96052 1.73721 5.96927
1.93851 1.73521 5.96846
1.92161 1.73742 5.98156
1.90269 1.73858 5.99169
1.86658 1.7324 5.97805
1.78981 1.7349 6.00859
1.77808 1.74343 6.04356
1.20932 1.75624 6.20968
1.18939 1.75739 6.21881
1.16837 1.75637 6.21699
1.15737 1.75538 6.21708
1.13743 1.7565 6.22422
1.09647 1.7566 6.22953
1.07651 1.75669 6.23468
1.03351 1.75574 6.23601
1.00251 1.75374 6.23528
0.982575 1.75589 6.2444
0.962606 1.75597 6.24855
0.94056 1.75289 6.24276
0.918506 1.75081 6.23595
0.908545 1.75189 6.24101
0.887537 1.75089 6.24019
0.86866 1.75414 6.25628
0.846622 1.75208 6.25148
0.826653 1.75315 6.25561
0.8067 1.75426 6.26175
0.783592 1.74907 6.248
0.774639 1.75116 6.25403
0.752615 1.74913 6.25123
0.732692 1.7513 6.26135
0.710577 1.74609 6.24659
0.691678 1.7503 6.25967
0.669639 1.74724 6.25488
0.64864 1.74725 6.25504
0.639701 1.74938 6.26308
0.618686 1.74836 6.26125
0.596641 1.74629 6.25545
0.576718 1.74845 6.26557
0.556757 1.74954 6.2707
0.53468 1.74641 6.26091
0.514711 1.74649 6.26506
0.504757 1.74858 6.27111
0.483696 1.74548 6.26331
0.463812 1.74971 6.2784
0.442759 1.74763 6.27159
0.421782 1.74769 6.27475
0.400752 1.74664 6.27092
0.390783 1.74771 6.27498
0.369721 1.74461 6.26718
0.348699 1.74358 6.26436
0.328737 1.74467 6.26949
0.30783 1.74786 6.2816
0.286731 1.74468 6.26881
0.266785 1.7458 6.27594
0.25577 1.74578 6.27403
0.235778 1.74581 6.27518
0.21481 1.74688 6.27932
0.173803 1.7459 6.27864
0.15278 1.74487 6.27582
0.131781 1.74488 6.27597
0.121735 1.7438 6.27006
0.100713 1.74277 6.26724
0.0797132 1.74279 6.26739
0.0597445 1.74386 6.27153
-2.34322 1.74072 5.62159
-2.4255 1.73922 5.58423
-2.44749 1.74225 5.58535
-2.49974 1.7388 5.55279
-2.52781 1.73867 5.543
-2.5498 1.7417 5.54412
-2.5669 1.74053 5.53227
-2.5889 1.74253 5.5314
-2.60303 1.74029 5.51454
-2.6321 1.74118 5.50574
-2.65409 1.7442 5.50587
-2.67118 1.74203 5.49402
-2.68924 1.74294 5.48715
-2.70338 1.73967 5.4683
-2.72439 1.74167 5.46743
-2.73441 1.74163 5.4645
-2.75444 1.74357 5.45962
-2.7735 1.74348 5.45277
-2.79058 1.74333 5.4419
-2.81159 1.74532 5.44003
-2.8277 1.74312 5.42618
-2.84576 1.74402 5.4183
-2.86071 1.74712 5.42437
-2.87385 1.74386 5.40651
-2.89585 1.74688 5.40663
-2.91194 1.7457 5.39377
-2.92903 1.74455 5.38291
-2.95302 1.74858 5.38404
-2.97601 1.75161 5.38516
-2.97519 1.74525 5.36125
-2.99719 1.74825 5.36037
-3.01526 1.74813 5.35151
-3.03234 1.748 5.34164
-3.05238 1.74892 5.33577
-3.07143 1.74983 5.3289
-3.08244 1.75083 5.32797
-3.10544 1.75384 5.3281
-3.12549 1.75475 5.32123
-3.13763 1.75148 5.30237
-3.15965 1.75447 5.30049
-3.17377 1.75223 5.28363
-3.18987 1.75106 5.27177
-3.20285 1.7531 5.27384
-3.21795 1.7519 5.25996
-3.25606 1.75371 5.24522
2.61361 1.7201 5.44853
2.55879 1.72049 5.47294
2.51598 1.72289 5.49823
2.495 1.72094 5.50042
2.3774 1.72281 5.55428
2.36454 1.7271 5.57332
2.34254 1.7241 5.57253
2.31973 1.72949 5.59762
2.27568 1.72343 5.59204
2.2598 1.72568 5.60813
2.24187 1.72683 5.61725
2.22392 1.72694 5.62439
2.22212 1.73431 5.64929
2.19907 1.73024 5.64353
2.18523 1.73456 5.66457
2.16832 1.73574 5.67568
2.14834 1.7348 5.67885
2.12938 1.7349 5.68499
2.11658 1.74128 5.71
2.10249 1.73613 5.69918
2.08252 1.7362 5.70333
2.06971 1.74158 5.72835
2.04462 1.73642 5.71661
2.02873 1.73864 5.7307
2.01388 1.74294 5.75075
1.99082 1.73884 5.74298
1.98597 1.74414 5.76294
1.946 1.74223 5.76727
1.92501 1.74026 5.76846
1.90298 1.73722 5.76467
1.883 1.73628 5.76784
1.86612 1.73951 5.78292
1.85611 1.7385 5.78201
1.83512 1.73755 5.78418
1.82131 1.74291 5.80821
1.78852 1.74834 5.83538
1.46816 1.75081 5.92177
1.44821 1.75093 5.92892
1.40822 1.74898 5.93025
1.3993 1.75113 5.94028
1.3383 1.74819 5.94179
1.3204 1.7514 5.95488
1.29523 1.74309 5.93319
1.28936 1.74834 5.95016
1.26836 1.74636 5.95034
1.24941 1.74746 5.95647
1.22945 1.74855 5.96161
1.20946 1.7476 5.96377
1.18739 1.74348 5.955
1.16946 1.74562 5.9641
1.15948 1.74566 5.96618
1.13742 1.74156 5.9584
1.11954 1.74581 5.97448
1.09956 1.74585 5.97663
1.07956 1.74488 5.97779
1.06166 1.74809 5.99088
1.04377 1.75131 6.00497
1.02958 1.74295 5.9802
1.01066 1.74613 5.99129
0.990642 1.7441 5.98847
0.96858 1.74099 5.98069
0.951719 1.74527 5.99875
0.931727 1.7453 5.9999
0.910688 1.74224 5.99511
0.900696 1.74227 5.99618
0.879657 1.74021 5.99137
0.861765 1.74343 6.00546
0.841804 1.74452 6.01059
0.819673 1.73828 5.99385
0.800735 1.74041 6.00196
0.790758 1.74146 6.00502
0.770782 1.74152 6.00817
0.74972 1.73842 6.00038
0.731828 1.74164 6.01446
0.711874 1.74274 6.0206
0.690821 1.74066 6.01379
0.669713 1.73546 6.00002
0.660782 1.7376 6.00906
0.641868 1.74078 6.02015
0.620852 1.73977 6.01833
0.601884 1.74084 6.02246
0.581884 1.73985 6.02262
0.560822 1.73675 6.01483
0.530838 1.7368 6.01705
0.510854 1.73685 6.0192
0.491893 1.73793 6.02433
0.471916 1.73899 6.02746
0.431955 1.7391 6.03276
0.401925 1.73806 6.029
0.381933 1.73809 6.03016
0.361987 1.73921 6.03729
0.341965 1.73818 6.03446
0.293012 1.7393 6.04081
-2.04671 1.73656 5.55541
-2.30831 1.74055 5.47631
-2.35757 1.73606 5.44174
-2.36857 1.73707 5.44181
-2.38762 1.738 5.43594
-2.40861 1.74103 5.43705
-2.42274 1.73677 5.41922
-2.44472 1.74083 5.42233
-2.46574 1.7418 5.41947
-2.47691 1.73748 5.39761
-2.49085 1.7406 5.40467
-2.51283 1.74464 5.40678
-2.52696 1.74142 5.39093
-2.54796 1.74342 5.39006
-2.56603 1.7433 5.3812
-2.58409 1.74319 5.37333
-2.60116 1.74206 5.36348
-2.60626 1.73987 5.35055
-2.62923 1.74394 5.35466
-2.64532 1.74178 5.34281
-2.67026 1.7479 5.34991
-2.68143 1.74258 5.32807
-2.69752 1.74142 5.31621
-2.71444 1.74659 5.32726
-2.73051 1.74545 5.3174
-2.75056 1.74738 5.31152
-2.76861 1.74729 5.30465
-2.78863 1.74926 5.30177
-2.80177 1.74499 5.28293
-2.82771 1.75112 5.29104
-2.82886 1.74583 5.27112
-2.85087 1.74883 5.27025
-2.87483 1.75292 5.27537
-2.88796 1.75066 5.2575
-2.90602 1.75057 5.25063
-2.9231 1.75042 5.23976
-2.9341 1.75143 5.23983
-2.96924 1.75118 5.2211
-2.98631 1.75105 5.21223
-3.00338 1.75092 5.20235
-3.02046 1.75077 5.19148
-3.0405 1.75171 5.18662
2.5914 1.71673 5.28772
2.57142 1.71579 5.29089
2.56345 1.71585 5.29495
2.55059 1.71913 5.313
2.53163 1.71823 5.31916
2.51572 1.72041 5.33025
2.49879 1.72057 5.34037
2.39805 1.71914 5.37516
2.37808 1.71822 5.37932
2.3483 1.72267 5.40848
2.33525 1.71957 5.40163
2.32138 1.72285 5.41968
2.30445 1.724 5.4288
2.28448 1.72306 5.43196
2.26346 1.72004 5.43016
2.25063 1.72438 5.4522
2.22961 1.72236 5.45039
2.22474 1.7266 5.46636
2.20883 1.72779 5.47847
2.19189 1.72892 5.48658
2.17499 1.73113 5.49968
2.15703 1.73123 5.50581
2.13399 1.72716 5.50004
2.12525 1.73567 5.53399
2.11524 1.73466 5.53308
2.09832 1.73583 5.54419
2.0763 1.73281 5.5414
2.06346 1.73812 5.56242
2.04144 1.7351 5.55963
2.02553 1.73729 5.57172
2.01758 1.7384 5.57877
1.99761 1.73747 5.58293
1.97863 1.73651 5.58509
1.94637 1.72403 5.55151
1.88254 1.72442 5.57499
1.87483 1.73499 5.6129
1.86305 1.74241 5.64088
1.45894 1.74744 5.76087
1.37309 1.74778 5.78051
1.3531 1.74581 5.78169
1.3231 1.74483 5.78193
1.30621 1.74807 5.79701
1.28724 1.74812 5.80015
1.26829 1.74924 5.80728
1.24517 1.74304 5.79255
1.22827 1.74624 5.80563
1.20829 1.74529 5.80779
1.19934 1.74638 5.81384
1.1793 1.74434 5.81002
1.16142 1.74857 5.8251
1.14139 1.74553 5.82129
1.12138 1.74453 5.82046
1.10035 1.74248 5.81665
1.09245 1.74568 5.82966
1.07139 1.74258 5.82187
1.05243 1.74267 5.82701
1.03344 1.7427 5.82815
1.01449 1.74381 5.83528
0.994497 1.74284 5.83644
0.975536 1.74393 5.84157
0.96552 1.74291 5.83966
0.946559 1.743 5.8448
0.929698 1.74827 5.86285
0.907567 1.74204 5.84611
0.887559 1.74104 5.84528
0.869667 1.74526 5.85935
0.846497 1.73695 5.83765
0.837536 1.73803 5.8427
0.819629 1.74122 5.85479
0.800644 1.74126 5.85693
0.781698 1.74238 5.86406
0.760629 1.73926 5.85526
0.74166 1.73934 5.8594
0.72056 1.73516 5.84662
0.711653 1.73834 5.85864
0.691599 1.73526 5.85184
0.674784 1.74262 5.87586
0.65373 1.73953 5.86906
0.6337 1.73849 5.86523
0.615816 1.74273 5.8803
0.603631 1.73438 5.85652
0.5836 1.73333 5.85268
0.564631 1.73341 5.85682
0.545655 1.73447 5.85995
0.526716 1.7356 5.86808
0.488795 1.73877 5.87832
0.47771 1.73462 5.86746
0.458725 1.73466 5.8696
0.351789 1.73586 5.87839
0.332828 1.73695 5.88352
0.205823 1.73502 5.88351
0.147832 1.73508 5.88494
0.0372749 1.74308 5.67763
0.0182597 1.74207 5.67579
-0.000739718 1.74208 5.67593
-0.0197235 1.74312 5.67806
-0.0377387 1.74211 5.67621
-0.0567456 1.7421 5.67535
-0.0657605 1.74208 5.67342
-0.0847448 1.74213 5.67556
-0.103675 1.74527 5.68466
-0.122751 1.74214 5.67485
-0.141728 1.7432 5.67798
-0.159773 1.74212 5.67213
-0.17878 1.74212 5.67127
-0.187795 1.7411 5.66935
-0.207756 1.74319 5.67447
-0.225763 1.74318 5.67361
-0.244723 1.74527 5.67872
-0.263792 1.74215 5.66991
-0.282737 1.74527 5.67701
-0.301776 1.74321 5.67218
-0.309837 1.7411 5.66427
-0.329744 1.74529 5.67636
-0.347812 1.74317 5.66753
-0.365889 1.74003 5.65771
-0.384934 1.73896 5.65187
-0.403856 1.74212 5.66196
-0.421994 1.73687 5.64418
-0.431925 1.74001 5.65321
-0.449955 1.73896 5.64936
-0.468962 1.73896 5.6485
-0.488007 1.73789 5.64266
-0.506014 1.73788 5.64179
-0.524998 1.73893 5.64392
-0.534036 1.73786 5.639
-0.55305 1.73784 5.63715
-0.572049 1.73886 5.63728
-0.590079 1.73781 5.63343
-0.608179 1.73463 5.62061
-0.627163 1.73568 5.62274
-0.647077 1.73985 5.63383
-0.654207 1.73461 5.61696
-0.673191 1.73565 5.61908
-0.693167 1.73771 5.6222
-0.748249 1.73659 5.61163
-0.794339 1.73444 5.60001
-0.811384 1.73337 5.59415
-0.849413 1.73434 5.59043
-1.07069 1.73395 5.55509
-1.25497 1.73352 5.51848
-1.40924 1.73308 5.48265
-1.4592 1.73819 5.48795
-1.59157 1.73355 5.43901
-1.64667 1.7334 5.42642
-1.6647 1.73435 5.42254
-1.68275 1.73326 5.4157
-1.69079 1.73319 5.41076
-1.71372 1.73834 5.41986
-1.72881 1.73518 5.40801
-1.74782 1.73616 5.40614
-1.76587 1.73608 5.40028
-1.78488 1.73807 5.39839
-1.79489 1.73806 5.39747
-1.81097 1.73591 5.38662
-1.82705 1.73477 5.37676
-1.85585 1.74516 5.40182
-1.87291 1.74506 5.39395
-1.889 1.74291 5.3831
-1.90411 1.7397 5.36826
-1.92387 1.75117 5.39925
-1.93312 1.74169 5.36645
-1.94725 1.73846 5.3506
-1.97214 1.74569 5.36469
-1.98235 1.73828 5.33687
-2.00234 1.74031 5.33799
-2.02431 1.74438 5.34209
-2.02745 1.73811 5.32321
-2.05138 1.74426 5.3323
-2.0655 1.74104 5.31745
-2.08942 1.74619 5.32656
-2.09864 1.73879 5.29873
-2.12255 1.74497 5.30982
-2.13767 1.74174 5.29398
-2.14472 1.74066 5.28805
-2.16571 1.74369 5.28916
-2.18277 1.74258 5.28131
-2.20277 1.7446 5.28143
-2.21591 1.74134 5.26357
-2.23787 1.74441 5.26769
-2.24396 1.74226 5.25677
-2.2669 1.74738 5.26387
-2.27905 1.74309 5.24402
-2.30104 1.74613 5.24614
-2.32301 1.74919 5.24926
-2.33516 1.74491 5.22941
-2.35222 1.74482 5.22254
-2.35828 1.74269 5.21362
-2.37536 1.74255 5.20375
-2.40125 1.74978 5.21784
-2.41635 1.7476 5.20498
-2.43834 1.75063 5.2061
-2.45244 1.74844 5.19324
-2.47344 1.75044 5.19237
-2.48149 1.75036 5.18643
-2.49559 1.74818 5.17357
-2.51363 1.7491 5.16769
-2.5458 1.7468 5.14596
-2.56679 1.74983 5.14707
2.55873 1.72246 5.06585
2.55297 1.73093 5.09678
2.53196 1.72793 5.09598
2.50807 1.72917 5.11114
2.49012 1.72827 5.11729
2.44337 1.73279 5.15058
2.42542 1.73189 5.15673
2.38458 1.73325 5.17902
2.31582 1.73476 5.21052
1.99279 1.73787 5.33993
1.98176 1.73584 5.33704
0.779031 1.7471 5.64198
0.742062 1.74718 5.64625
0.639179 1.74848 5.66201
0.620178 1.74749 5.66217
0.59214 1.74544 5.65741
0.574233 1.74863 5.6695
0.536226 1.74764 5.6688
0.516164 1.74454 5.661
0.498188 1.7446 5.66413
0.488165 1.74356 5.66122
0.470219 1.74568 5.66833
0.451274 1.74779 5.67544
0.432274 1.74681 5.6756
0.41322 1.74472 5.66877
0.394213 1.74372 5.66793
0.38519 1.74268 5.66501
0.366244 1.7448 5.67212
0.347267 1.74485 5.67527
0.329306 1.74594 5.68039
0.310253 1.74385 5.67356
0.2913 1.74595 5.67967
0.272323 1.74601 5.68282
0.263269 1.74392 5.67591
0.2443 1.74499 5.68004
0.225278 1.74396 5.6772
0.206309 1.74503 5.68133
0.188379 1.74818 5.69042
0.169302 1.74504 5.68061
0.159334 1.74611 5.68467
0.140388 1.74823 5.69178
0.12128 1.74303 5.678
0.103273 1.74303 5.67713
0.0843043 1.74411 5.68126
0.0651737 1.73887 5.66448
0.0462589 1.74204 5.67558
0.0288524 1.74229 5.48868
0.00986113 1.74332 5.48981
0.000969328 1.74753 5.50381
-0.0170226 1.74756 5.50495
-0.0351068 1.74441 5.49413
-0.0531527 1.74233 5.4883
-0.0712137 1.74023 5.48046
-0.0900664 1.74652 5.49951
-0.108205 1.74027 5.48174
-0.11715 1.74338 5.48876
-0.13508 1.74653 5.49785
-0.153157 1.74339 5.48803
-0.172156 1.7434 5.48818
-0.190179 1.74237 5.48533
-0.208155 1.74343 5.48845
-0.21807 1.7476 5.49946
-0.235239 1.74029 5.4777
-0.253269 1.73924 5.47385
-0.272114 1.74655 5.49388
-0.29026 1.74028 5.47511
-0.308221 1.74237 5.48022
-0.327166 1.74449 5.48733
-0.335235 1.74236 5.47842
-0.354211 1.74342 5.48155
-0.372249 1.74236 5.4767
-0.390202 1.74446 5.4828
-0.407356 1.73818 5.46302
-0.426308 1.74128 5.46912
-0.444277 1.74335 5.47322
-0.454238 1.74443 5.47828
-0.472291 1.74334 5.47144
-0.488452 1.73704 5.45065
-0.507405 1.73915 5.45676
-0.526304 1.74435 5.46983
-0.543458 1.73807 5.45005
-0.560534 1.73493 5.44022
-0.571348 1.7433 5.46418
-0.589432 1.74015 5.45336
-0.606478 1.73907 5.44751
-0.625453 1.74113 5.45062
-0.643484 1.74008 5.44677
-0.660529 1.73901 5.44091
-0.67049 1.74109 5.44596
-0.687612 1.73686 5.43015
-0.705627 1.73685 5.42828
-0.724541 1.74102 5.43937
-0.739749 1.73263 5.4126
-0.758709 1.73472 5.41771
-0.777669 1.73781 5.42281
-0.785754 1.73465 5.41192
-0.803753 1.73467 5.41205
-0.822721 1.73774 5.41615
-0.838852 1.7325 5.39935
-0.857804 1.7356 5.40545
-0.875834 1.73456 5.4016
-0.893841 1.73555 5.40072
-0.90284 1.73656 5.40077
-0.920862 1.73653 5.39791
-0.9389 1.73547 5.39306
-0.954968 1.73335 5.38421
-0.974928 1.73643 5.38931
-0.990082 1.73015 5.36952
-1.00195 1.73641 5.38652
-1.01902 1.73429 5.37768
-1.03607 1.7332 5.37082
-1.07209 1.73418 5.36808
-1.09108 1.73622 5.37019
-1.10815 1.73409 5.36035
-1.11619 1.73302 5.35542
-1.13325 1.73191 5.34757
-1.15222 1.73399 5.35168
-1.1683 1.73184 5.34083
-1.18633 1.73179 5.33697
-1.20628 1.73489 5.34307
-1.22429 1.73589 5.34219
-1.23329 1.7369 5.34225
-1.24842 1.73166 5.32544
-1.2703 1.73889 5.3405
-1.28253 1.72946 5.31072
-1.30442 1.73568 5.3248
-1.32148 1.73458 5.31694
-1.33754 1.73347 5.30908
-1.34559 1.73139 5.30317
-1.36458 1.73342 5.30428
-1.38164 1.73231 5.29643
-1.40063 1.73434 5.29754
-1.41961 1.7364 5.30065
-1.43278 1.73007 5.27784
-1.44567 1.73628 5.29185
-1.46274 1.73518 5.28399
-1.47687 1.72992 5.26617
-1.49779 1.73508 5.27626
-1.5129 1.73189 5.26242
-1.53189 1.73392 5.26353
-1.55188 1.73596 5.26565
-1.55989 1.73594 5.26371
-1.57404 1.73065 5.24389
-1.59596 1.73683 5.25497
-1.61689 1.74096 5.26307
-1.63199 1.73878 5.25021
-1.65294 1.74188 5.25632
-1.66901 1.74076 5.24746
-1.67607 1.73865 5.23954
-1.69606 1.74169 5.24165
-1.71604 1.74374 5.24377
-1.73017 1.7405 5.22692
-1.74818 1.74148 5.22504
-1.76914 1.74457 5.23015
-1.78325 1.74137 5.21631
-1.79325 1.74338 5.21635
-1.81128 1.74333 5.21249
-1.82831 1.74327 5.20762
-1.84439 1.74213 5.19775
-1.86731 1.7483 5.20784
-1.87946 1.74301 5.188
-1.88752 1.74091 5.18109
-1.90553 1.7429 5.1792
-1.92259 1.74179 5.17134
-1.9416 1.74379 5.17046
-1.9557 1.74061 5.15761
-1.97373 1.74155 5.15273
-1.99275 1.74252 5.14986
-2.00275 1.74354 5.15092
-2.01782 1.7424 5.14105
-2.0388 1.74545 5.14316
-2.05682 1.74742 5.14027
-2.07094 1.7432 5.12543
-2.08799 1.74311 5.11856
-2.10797 1.74716 5.12065
-2.11307 1.74298 5.10875
-2.13405 1.74703 5.11085
-2.14914 1.74486 5.09899
-2.16618 1.7448 5.09412
-2.18521 1.74675 5.09024
-2.20421 1.74775 5.08937
-2.20831 1.74456 5.07644
-2.22536 1.74447 5.06957
-2.26143 1.74636 5.06081
-2.27947 1.7473 5.05593
-2.29455 1.74615 5.04506
-2.31161 1.74605 5.03719
-2.32062 1.74604 5.03626
-2.37176 1.74679 5.01763
-2.46506 1.74725 4.97732
2.00313 1.73261 5.1199
1.94329 1.73296 5.14135
0.319845 1.74408 5.48646
0.283893 1.74619 5.4927
0.265916 1.74625 5.49583
0.247947 1.74732 5.49995
0.238947 1.74733 5.50002
0.201886 1.74424 5.49235
0.182833 1.74215 5.48552
0.14685 1.7432 5.48778
0.119943 1.7464 5.49993
0.101889 1.74431 5.4931
0.082982 1.7475 5.5052
0.0649211 1.74539 5.49736
0.0469216 1.74541 5.4975
0.0282377 1.73512 5.27476
0.0103386 1.73933 5.28783
-0.00675374 1.73516 5.27602
-0.0238693 1.72995 5.26123
-0.0417527 1.73519 5.27629
-0.0597441 1.73621 5.27741
-0.0678756 1.72997 5.26056
-0.0857433 1.73623 5.2776
-0.103789 1.73416 5.27177
-0.12075 1.73624 5.27687
-0.137811 1.73414 5.26902
-0.155872 1.73103 5.2612
-0.172895 1.73 5.25835
-0.182779 1.73523 5.27335
-0.198948 1.72892 5.25156
-0.2168 1.73521 5.2706
-0.235738 1.73834 5.2787
-0.251877 1.73209 5.26091
-0.268891 1.73207 5.25904
-0.277883 1.73209 5.26011
-0.295875 1.73312 5.26123
-0.312898 1.73209 5.25837
-0.330881 1.73413 5.26048
-0.347942 1.73102 5.25265
-0.365864 1.73518 5.26273
-0.382917 1.73309 5.25588
-0.391956 1.73203 5.25097
-0.408978 1.73099 5.24811
-0.426962 1.73204 5.25023
-0.444 1.73098 5.24537
-0.461952 1.73408 5.25146
-0.478975 1.73305 5.24861
-0.49699 1.73303 5.24674
-0.505981 1.73405 5.2478
-0.523011 1.733 5.24394
-0.540034 1.73197 5.24108
-0.557079 1.73089 5.23523
-0.573164 1.72774 5.22439
-0.591178 1.72773 5.22253
-0.601069 1.73294 5.23653
-0.618131 1.73084 5.22869
-0.63423 1.72666 5.21587
-0.65219 1.72974 5.22096
-0.670174 1.73078 5.22308
-0.687235 1.72868 5.21524
-0.703296 1.72657 5.20739
-0.711334 1.7255 5.20246
-0.747325 1.72755 5.2037
-0.764331 1.72854 5.20282
-0.798399 1.72643 5.1941
-0.824428 1.72639 5.1903
-0.841458 1.72635 5.18643
-0.893524 1.72625 5.17782
-0.910546 1.72622 5.17495
-0.936553 1.72722 5.17413
-0.970628 1.7261 5.1644
-1.14286 1.72575 5.1337
-1.19491 1.7277 5.12806
-1.32214 1.72732 5.09702
-1.50852 1.72672 5.04843
-1.5275 1.72876 5.05054
-1.54161 1.72556 5.03669
-1.57152 1.73175 5.04783
-1.5827 1.7254 5.024
-1.60071 1.7264 5.02313
-1.61872 1.72738 5.02125
-1.63477 1.72729 5.01437
-1.65083 1.7262 5.0075
-1.67687 1.72713 5.00169
-1.69585 1.72917 5.0038
-1.71094 1.72702 4.99294
-1.72698 1.72694 4.98706
-1.74598 1.72895 4.98718
-1.76106 1.7268 4.97632
-1.78807 1.72981 4.97548
-1.80021 1.72555 4.95763
-1.83428 1.72543 4.94789
-1.85131 1.72638 4.944
-1.89242 1.72619 4.92931
-1.94451 1.72805 4.91768
-1.98462 1.72785 4.90298
-2.0138 1.72452 4.87925
-2.03377 1.72759 4.88335
-2.08292 1.72733 4.86372
-2.08997 1.72625 4.85779
-2.107 1.72719 4.8529
-2.12306 1.7271 4.84603
-2.15318 1.72487 4.82928
-2.17611 1.73102 4.83837
-2.17727 1.72471 4.81747
-2.19333 1.72462 4.81059
-2.21921 1.73286 4.82566
-2.22641 1.72548 4.79982
-2.24542 1.72746 4.79794
-2.26146 1.7284 4.79304
-2.27654 1.72625 4.78219
-2.28358 1.72618 4.77724
-2.30849 1.73336 4.78832
-2.3206 1.73016 4.77446
-2.3337 1.72796 4.76059
-2.35565 1.73307 4.76668
-2.36778 1.72884 4.75083
-2.37891 1.72558 4.73296
-2.39384 1.73074 4.743
-2.40988 1.73066 4.73712
-2.42299 1.72845 4.72225
-2.44593 1.73358 4.73035
-2.45608 1.7293 4.71048
-2.47509 1.73229 4.70958
-2.4841 1.73227 4.70765
-2.49819 1.73112 4.69677
-2.51424 1.73203 4.68988
-2.53127 1.73298 4.68599
-2.54536 1.73181 4.67411
-2.56043 1.73068 4.66424
-2.58338 1.73578 4.67034
-2.5855 1.73156 4.65542
-2.60254 1.73248 4.64953
-2.62056 1.73445 4.64664
-2.63267 1.73225 4.63276
-2.64676 1.73109 4.62088
-2.66873 1.73516 4.62499
-2.68183 1.73296 4.61112
-2.6938 1.73603 4.61516
-2.70788 1.73589 4.60527
-2.72789 1.73788 4.60339
-2.74394 1.73879 4.5965
-2.75605 1.73659 4.58262
-2.77308 1.73753 4.57773
-2.78408 1.73953 4.57779
-2.78929 1.73214 4.55093
-2.81226 1.73721 4.55503
-2.83127 1.7402 4.55313
-2.84042 1.73592 4.53426
-2.8624 1.73997 4.53636
-2.88155 1.73769 4.51654
-2.91366 1.73849 4.50177
-2.92873 1.73837 4.49288
0.721018 1.73922 5.24247
0.677041 1.73829 5.24582
0.660087 1.73939 5.25193
0.642118 1.74046 5.25605
0.624088 1.73842 5.25222
0.607119 1.73949 5.25633
0.599157 1.74057 5.26138
0.581126 1.73852 5.25754
0.564212 1.7417 5.26862
0.546197 1.74068 5.26677
0.527073 1.73446 5.25101
0.511236 1.74178 5.27202
0.484174 1.73868 5.26427
0.467213 1.73977 5.26938
0.432237 1.73984 5.27265
0.415276 1.74093 5.27776
0.397268 1.73992 5.27691
0.37916 1.73473 5.26312
0.370207 1.73683 5.26916
0.35323 1.73788 5.27227
0.3353 1.74003 5.28137
0.318262 1.73897 5.27652
0.301355 1.74216 5.2886
0.283278 1.73902 5.27878
0.265279 1.73904 5.27892
0.256271 1.73803 5.278
0.239287 1.73907 5.28011
0.221326 1.74016 5.28523
0.203287 1.7381 5.2804
0.186241 1.73602 5.27456
0.16828 1.73711 5.27968
0.159188 1.73394 5.26779
0.142227 1.73502 5.2729
0.124281 1.73714 5.28001
0.107328 1.73924 5.2861
0.0892749 1.73715 5.27927
0.072244 1.7351 5.27543
0.0542445 1.73512 5.27556
0.0452065 1.73405 5.27065
0.0329996 1.72869 5.1108
0.0160151 1.72873 5.11292
0.00700029 1.72871 5.11099
-0.00992957 1.73185 5.12007
-0.0270301 1.72667 5.10728
-0.0439593 1.73082 5.11634
-0.061021 1.72771 5.10852
-0.0779897 1.72878 5.11263
-0.0950275 1.72772 5.10777
-0.103043 1.7267 5.10585
-0.120027 1.72774 5.10796
-0.137065 1.72668 5.10311
-0.154096 1.72463 5.09926
-0.17104 1.72775 5.10635
-0.188017 1.7288 5.10946
-0.205055 1.72774 5.1046
-0.214024 1.72881 5.10865
-0.231077 1.72672 5.10181
-0.265084 1.72673 5.10107
-0.282067 1.72877 5.10317
-0.299113 1.72669 5.09733
-0.307105 1.72671 5.09839
-0.324158 1.72462 5.09154
-0.34115 1.72565 5.09266
-0.358157 1.72565 5.09178
-0.37518 1.72462 5.08893
-0.392148 1.72669 5.09303
-0.409147 1.7277 5.09314
-0.417162 1.72668 5.09121
-0.434216 1.72458 5.08437
-0.451214 1.7256 5.08449
-0.469136 1.72976 5.09456
-0.485205 1.72664 5.08573
-0.501305 1.72346 5.07289
-0.527296 1.72449 5.07407
-0.543326 1.72344 5.07021
-0.561263 1.72657 5.0783
-0.595308 1.72651 5.07256
-0.611369 1.7244 5.06471
-0.628383 1.72439 5.06284
-0.638259 1.73063 5.07882
-0.653405 1.72436 5.06002
-0.686465 1.72327 5.05229
-0.70348 1.72325 5.05042
-0.720502 1.72322 5.04754
-0.729463 1.7243 5.0526
-0.745524 1.72319 5.04473
-0.796552 1.72417 5.0411
-0.855641 1.72303 5.02956
-0.963796 1.7228 5.00938
-0.996841 1.72274 5.00363
-1.50268 1.72442 4.8934
-1.51777 1.72226 4.88254
-1.66508 1.72275 4.84164
-1.7132 1.72255 4.826
-1.78639 1.72222 4.80056
-1.80339 1.72423 4.80065
-1.81847 1.72208 4.7898
-1.83352 1.722 4.78391
-1.84956 1.72192 4.77803
-1.90866 1.72476 4.76443
-1.93977 1.72357 4.75068
-1.9558 1.72452 4.74679
-1.97791 1.72232 4.73199
-2.00901 1.72215 4.71922
-2.02702 1.72415 4.71833
-2.05715 1.7219 4.70059
-2.07204 1.72812 4.71461
-2.10019 1.72584 4.69485
-2.11232 1.72162 4.679
-2.12835 1.72255 4.67411
-2.1444 1.72246 4.66723
-2.15832 1.72763 4.67826
-2.16846 1.72336 4.6594
-2.19041 1.72848 4.66649
-2.20546 1.72839 4.6596
-2.22152 1.72828 4.65172
-2.22872 1.7209 4.62588
-2.25458 1.73017 4.64294
-2.25769 1.72597 4.62903
-2.27471 1.72693 4.62614
-2.28684 1.72371 4.61028
-2.30976 1.72987 4.62036
-2.32188 1.72664 4.6045
-2.33496 1.72549 4.59361
-2.35199 1.72644 4.58973
-2.35904 1.72636 4.58378
-2.37901 1.72942 4.58688
-2.39507 1.72931 4.57901
-2.40716 1.72814 4.56711
-2.42913 1.73222 4.57122
-2.44025 1.72899 4.55535
-2.45319 1.73312 4.56339
-2.45939 1.72572 4.53654
-2.47938 1.72977 4.53863
-2.49641 1.73072 4.53474
-2.5095 1.72854 4.52187
-2.53047 1.73361 4.52596
-2.54356 1.73244 4.51407
-2.54667 1.72824 4.50015
-2.5706 1.73439 4.50924
-2.58467 1.73425 4.49935
-2.60171 1.73519 4.49446
-2.61774 1.73612 4.48957
-2.62986 1.73391 4.47469
-2.64493 1.73379 4.46581
-2.65788 1.73689 4.47186
-2.66998 1.7357 4.45897
-2.68307 1.73354 4.44709
-2.73121 1.73629 4.42841
1.93446 1.72642 4.76646
1.91748 1.72547 4.7696
1.05939 1.73279 5.02499
1.02643 1.7329 5.03124
1.01053 1.7361 5.04431
0.959571 1.73521 5.04971
0.951595 1.73626 5.05276
0.932517 1.73113 5.04297
0.901671 1.73645 5.06313
0.884679 1.73647 5.06426
0.866687 1.7355 5.06541
0.859725 1.73658 5.07045
0.840671 1.73349 5.06363
0.824733 1.73562 5.07172
0.789687 1.73156 5.06605
0.774834 1.73785 5.08507
0.757834 1.73686 5.08521
0.748818 1.73584 5.08329
0.731849 1.73691 5.08741
0.714849 1.73592 5.08755
0.697865 1.73597 5.08968
0.679827 1.73391 5.08484
0.663873 1.73501 5.09095
0.646912 1.73609 5.09606
0.63785 1.73298 5.08817
0.620919 1.73513 5.09727
0.602865 1.73204 5.09045
0.586889 1.73309 5.09356
0.56992 1.73416 5.09767
0.552928 1.73419 5.0988
0.535944 1.73423 5.10092
0.527982 1.73531 5.10597
0.509905 1.73118 5.09616
0.492975 1.73432 5.10525
0.475952 1.73229 5.1024
0.458967 1.73233 5.10453
0.441975 1.73236 5.10566
0.433999 1.73341 5.10871
0.417007 1.73344 5.10983
0.40003 1.73449 5.11295
0.383069 1.73558 5.11806
0.365015 1.73249 5.11124
0.347938 1.72836 5.10143
0.331047 1.73357 5.11548
0.321931 1.72836 5.10062
0.303854 1.72422 5.09082
0.288009 1.73053 5.11085
0.271009 1.73054 5.11098
0.253971 1.72848 5.10613
0.237025 1.7306 5.11323
0.219956 1.72748 5.1044
0.212033 1.73063 5.11442
0.194987 1.72856 5.10858
0.178042 1.73067 5.11567
0.159957 1.72652 5.10487
0.144004 1.72862 5.11096
0.12702 1.72966 5.11307
0.110036 1.73071 5.11519
0.101052 1.73074 5.11725
0.0840213 1.7297 5.1134
0.0670293 1.72972 5.11452
0.050053 1.73078 5.11764
0.00695739 1.73365 4.9719
-0.0100735 1.7316 4.96806
-0.0270266 1.7337 4.97416
-0.0430412 1.73368 4.97228
-0.0510177 1.73473 4.97532
-0.0680016 1.73578 4.97743
-0.100962 1.73787 4.98265
-0.117954 1.7379 4.98378
-0.151014 1.73581 4.97606
-0.176014 1.73583 4.97625
-0.192106 1.73166 4.96443
-0.209004 1.73686 4.97748
-0.226011 1.73686 4.97661
-0.242073 1.73376 4.96877
-0.259065 1.73478 4.96989
-0.267087 1.73374 4.96696
-0.284079 1.73477 4.96807
-0.300086 1.73477 4.9672
-0.317077 1.7358 4.96831
-0.3331 1.73476 4.96544
-0.350123 1.73373 4.96259
-0.358153 1.73268 4.95866
-0.374152 1.73369 4.95877
-0.39209 1.73682 4.96686
-0.407182 1.73265 4.95503
-0.42415 1.73473 4.95913
-0.441165 1.73471 4.95726
-0.458156 1.73573 4.95837
-0.466148 1.73576 4.95943
-0.483163 1.73574 4.95756
-0.498247 1.73259 4.94672
-0.514301 1.73049 4.93987
-0.531285 1.73154 4.94198
-0.548283 1.73255 4.94209
-0.565252 1.73462 4.94619
-0.571391 1.72836 4.92833
-0.587436 1.72728 4.92246
-0.60535 1.73146 4.93354
-0.622349 1.73247 4.93365
-0.638395 1.73139 4.92779
-0.654425 1.73035 4.92392
-0.670424 1.73136 4.92403
-0.679416 1.73138 4.9251
-0.695461 1.7303 4.91923
-0.710538 1.72716 4.90939
-0.728452 1.73234 4.92045
-0.741645 1.72398 4.89567
-0.759605 1.72707 4.90076
-0.768558 1.72916 4.9068
-0.785533 1.73122 4.9099
-0.800625 1.72805 4.89806
-0.817647 1.72802 4.89518
-0.832724 1.72488 4.88534
-0.849715 1.72691 4.88644
-0.863807 1.72374 4.87459
-0.87183 1.7227 4.87167
-0.890751 1.72687 4.88175
-0.90582 1.72474 4.87289
-0.921826 1.72574 4.872
-0.936903 1.7236 4.86214
-0.954886 1.72465 4.86426
-0.968009 1.72042 4.84842
-0.979861 1.72771 4.86741
-0.993969 1.72351 4.85357
-1.01002 1.72242 4.84671
-1.02606 1.72136 4.84185
-1.04497 1.72653 4.85291
-1.06003 1.72544 4.84604
-1.06999 1.72751 4.85009
-1.08312 1.72327 4.83325
-1.09916 1.7222 4.82838
-1.11613 1.72428 4.83248
-1.13218 1.7242 4.8266
-1.14919 1.72418 4.82473
-1.16714 1.72828 4.83081
-1.1742 1.72617 4.82289
-1.18924 1.72511 4.81802
-1.2111 1.73339 4.83606
-1.21937 1.72188 4.80129
-1.23831 1.72599 4.80837
-1.25532 1.72699 4.80749
-1.2723 1.72903 4.80958
-1.27547 1.72171 4.78771
-1.29538 1.7279 4.79977
-1.30754 1.7216 4.77895
-1.3255 1.72469 4.78404
-1.34542 1.72985 4.79412
-1.35562 1.72247 4.7683
-1.37165 1.72242 4.76442
-1.3826 1.72554 4.77146
-1.39667 1.7234 4.7616
-1.41271 1.72334 4.75672
-1.43458 1.7316 4.77376
-1.44282 1.72115 4.74298
-1.45981 1.72316 4.74307
-1.47272 1.72835 4.7551
-1.48485 1.72311 4.73826
-1.4999 1.72301 4.73138
-1.51593 1.72297 4.7275
-1.53002 1.72081 4.71663
-1.54799 1.72287 4.71974
-1.56596 1.72694 4.72381
-1.57008 1.72171 4.70792
-1.58513 1.72163 4.70203
-1.6041 1.72469 4.70513
-1.62014 1.72463 4.70025
-1.63715 1.72563 4.69937
-1.65416 1.72661 4.69748
-1.66724 1.72445 4.68661
-1.67526 1.72443 4.68467
-1.69325 1.72746 4.68576
-1.70636 1.72426 4.67191
-1.71651 1.71897 4.65206
-1.7394 1.7262 4.66612
-1.75152 1.72197 4.65028
-1.75854 1.72193 4.64733
-1.77849 1.72605 4.65442
-1.78766 1.71971 4.63158
-1.80469 1.72068 4.62869
-1.82267 1.72372 4.63078
-1.83674 1.72159 4.62092
