-2.61761 1.80203 7.12387
-2.63871 1.79984 7.11006
-2.66374 1.8008 7.10623
-2.69367 1.80595 7.11538
-2.71379 1.80373 7.09956
-2.75282 1.8057 7.09583
2.91416 1.7799 6.9405
2.8484 1.78142 6.97297
2.82649 1.78261 6.98512
2.8005 1.78065 6.98635
2.78469 1.78603 7.01139
2.76966 1.78298 7.00755
2.74672 1.78312 7.01572
2.7238 1.78428 7.02588
2.71006 1.79079 7.05989
2.68609 1.78989 7.06508
2.6642 1.79211 7.07922
2.64023 1.79119 7.08341
2.62825 1.79022 7.08552
2.6084 1.79353 7.10562
2.57831 1.78839 7.09492
2.55537 1.78853 7.10309
2.53449 1.79077 7.11822
2.51157 1.79193 7.12838
2.50368 1.79516 7.14339
2.47561 1.79005 7.13468
2.45474 1.79331 7.15179
2.43488 1.79559 7.1699
2.41604 1.79992 7.19099
2.39209 1.80004 7.19817
2.36405 1.79597 7.19244
2.35513 1.79814 7.20347
2.3281 1.7961 7.19971
2.30211 1.79415 7.20193
2.28225 1.79743 7.22003
2.25829 1.79652 7.22523
2.23433 1.79661 7.23041
2.22441 1.79878 7.24145
2.19842 1.79682 7.24268
2.16831 1.79162 7.22798
2.15257 1.79913 7.26199
2.12859 1.79819 7.26519
2.10465 1.79833 7.27337
2.08276 1.80055 7.2875
2.06976 1.79956 7.28761
2.04989 1.80283 7.30472
2.0239 1.80186 7.30593
1.99994 1.80197 7.31211
1.97803 1.80316 7.32426
1.95719 1.80749 7.34535
1.93015 1.80442 7.3396
1.92022 1.80556 7.34866
1.89835 1.80883 7.36578
1.81925 1.80169 7.35348
1.79323 1.79968 7.3517
1.7703 1.80083 7.36086
1.7635 1.80622 7.38684
1.73749 1.80523 7.38605
1.71145 1.80216 7.38029
1.68853 1.80433 7.39143
1.66976 1.81079 7.42148
1.64272 1.80774 7.41673
0.725904 1.81567 7.57654
0.675921 1.81574 7.57892
0.624875 1.81269 7.57334
0.576976 1.81591 7.58666
0.563999 1.81597 7.58976
0.5139 1.81181 7.57719
0.490032 1.81608 7.59431
0.463955 1.81295 7.58455
0.438948 1.81295 7.58374
0.401887 1.80986 7.57607
0.378003 1.8141 7.59119
0.35195 1.81202 7.58441
0.326851 1.80884 7.57165
0.302974 1.8121 7.58778
0.277967 1.8121 7.58697
0.252853 1.8079 7.57222
0.240976 1.81214 7.58825
0.215938 1.81009 7.58346
0.190885 1.809 7.57667
0.165947 1.81014 7.58484
0.14084 1.80695 7.57107
0.116964 1.8112 7.58719
0.0918955 1.80909 7.57841
0.0787879 1.80489 7.56457
-0.0169723 1.79054 7.19946
-0.0641091 1.78631 7.18187
-0.111061 1.78843 7.18819
-0.146122 1.78634 7.18049
-0.217112 1.78741 7.18201
-2.43737 1.77751 6.75882
-2.4734 1.77946 6.75406
-2.53663 1.77705 6.72357
-2.56947 1.78538 6.7447
-2.5837 1.77895 6.7149
-2.59964 1.78208 6.72297
-2.61581 1.77775 6.70015
-2.64277 1.78184 6.7053
-2.66191 1.77859 6.68749
-2.69181 1.7848 6.70062
-2.70798 1.78048 6.67781
-2.72392 1.78461 6.68587
-2.74794 1.78558 6.68303
-2.76902 1.78543 6.67219
-2.79895 1.78959 6.68136
-2.80726 1.78099 6.64054
-2.83619 1.78614 6.64968
-2.8514 1.78075 6.62287
-2.87127 1.78702 6.63993
-2.89136 1.78584 6.6271
-2.91735 1.78889 6.62925
-2.93549 1.78562 6.61043
-2.9654 1.7908 6.62158
-2.99239 1.79384 6.62274
-3.0007 1.78525 6.58293
-3.03969 1.7893 6.58416
-3.08481 1.79009 6.56849
-3.1309 1.79195 6.55681
-3.16105 1.79066 6.53605
2.71096 1.77072 6.65012
2.67906 1.77195 6.66435
2.65916 1.77315 6.67648
2.6403 1.77644 6.69558
2.61428 1.77342 6.69282
2.5954 1.77567 6.70893
2.57038 1.77266 6.70716
2.56248 1.77585 6.72017
2.53953 1.77496 6.72636
2.52372 1.78034 6.7514
2.49258 1.7731 6.73374
2.47884 1.78059 6.76674
2.45281 1.77757 6.76398
2.43293 1.77981 6.7791
2.42603 1.78302 6.79311
2.399 1.77896 6.78837
2.3791 1.78117 6.80149
2.35819 1.78238 6.81463
2.32705 1.77512 6.79597
2.31229 1.78259 6.82697
2.28829 1.78061 6.82718
2.27835 1.78175 6.83624
2.23038 1.77984 6.84063
2.20845 1.77999 6.8498
2.19061 1.7843 6.86987
2.16354 1.7802 6.86213
2.14366 1.78244 6.87725
2.13271 1.78354 6.88332
2.11693 1.78998 6.91235
2.09089 1.78692 6.90759
2.07308 1.7913 6.93266
2.04087 1.78291 6.90502
2.01996 1.78411 6.91717
2.01414 1.79046 6.94112
1.99117 1.78954 6.94531
1.96926 1.79073 6.95746
1.95247 1.79715 6.98449
1.92747 1.79516 6.98471
1.88155 1.79535 6.99505
1.87369 1.79962 7.01305
1.84658 1.79443 6.99933
1.82259 1.79348 7.00153
1.79758 1.79147 6.99974
1.78084 1.79898 7.03376
1.75785 1.79803 7.03595
1.17782 1.80432 7.16625
1.14179 1.80228 7.16255
1.07085 1.80145 7.17109
1.02287 1.80052 7.17347
1.01191 1.8016 7.17854
0.988962 1.80272 7.18569
0.964939 1.80169 7.18289
0.939893 1.79862 7.17712
0.916939 1.79973 7.18328
0.89187 1.79661 7.17451
0.868924 1.79773 7.18167
0.833979 1.79886 7.18892
0.808849 1.79463 7.17217
0.787018 1.79897 7.19427
0.763018 1.79899 7.19445
0.737857 1.7927 7.17373
0.716103 1.80019 7.20579
0.702927 1.79485 7.18297
0.678889 1.7928 7.17818
0.654874 1.79179 7.17637
0.63089 1.79183 7.17855
0.606852 1.78978 7.17376
0.583883 1.79085 7.17792
0.571937 1.79197 7.185
0.547891 1.78989 7.17921
0.524899 1.78993 7.18038
0.503123 1.79737 7.20944
0.476785 1.78574 7.1658
0.455039 1.79424 7.19884
0.430916 1.78902 7.1831
0.42007 1.79433 7.20311
0.396079 1.79436 7.20429
0.370902 1.78804 7.18157
0.349095 1.79442 7.20664
0.325103 1.79446 7.20782
0.30212 1.7955 7.20998
0.278066 1.79342 7.20319
0.264874 1.78606 7.1784
0.242059 1.79243 7.20248
0.219052 1.79243 7.20165
0.195053 1.79245 7.20183
0.17103 1.79142 7.19903
0.1359 1.78619 7.18237
0.112055 1.79151 7.20247
-2.35758 1.77111 6.46528
-2.39065 1.77099 6.45552
-2.41072 1.77087 6.44668
-2.43278 1.77077 6.43884
-2.45677 1.7728 6.43999
-2.47881 1.77373 6.43415
-2.50183 1.77471 6.4323
-2.52093 1.77352 6.41846
-2.53489 1.7756 6.42354
-2.55399 1.77443 6.4107
-2.578 1.77643 6.40985
-2.60005 1.77634 6.40302
-2.62012 1.77621 6.39317
-2.64314 1.77718 6.39033
-2.65614 1.7792 6.39139
-2.67424 1.77701 6.37756
-2.69728 1.77795 6.37272
-2.71638 1.77676 6.35888
-2.73939 1.77876 6.35802
-2.76046 1.77864 6.34918
-2.78545 1.78066 6.34934
-2.7896 1.77638 6.33043
-2.8146 1.7794 6.33058
-2.83958 1.78245 6.33272
-2.85575 1.77813 6.3109
-2.87878 1.78009 6.30705
-2.90277 1.78211 6.3072
-2.91991 1.77985 6.28936
-2.92896 1.77876 6.28244
-2.95888 1.78493 6.29258
-2.97404 1.78063 6.27175
-2.99903 1.78366 6.2729
-3.01618 1.78139 6.25406
-3.03724 1.78129 6.24621
-3.06125 1.78328 6.24437
-3.09039 1.78203 6.2266
2.5589 1.76378 6.37733
2.53796 1.76391 6.38549
2.46621 1.76545 6.41901
2.44526 1.76557 6.42617
2.30663 1.76638 6.47521
2.28772 1.76857 6.48732
2.27573 1.76761 6.48942
2.23487 1.76891 6.50772
2.21395 1.77007 6.51786
2.193 1.77019 6.52501
2.17105 1.77031 6.53218
2.14908 1.76937 6.53536
2.14222 1.77364 6.55335
2.12023 1.77269 6.55553
2.09827 1.77278 6.56069
2.08043 1.7771 6.58177
2.05744 1.77513 6.58297
2.03753 1.77733 6.59509
2.02655 1.77738 6.59817
2.00666 1.7796 6.61229
1.98879 1.78286 6.62938
1.96889 1.78507 6.6425
1.94385 1.78201 6.63773
1.92396 1.78424 6.65185
1.90713 1.78857 6.67392
1.89102 1.78438 6.6601
1.87008 1.78451 6.66825
1.82824 1.78785 6.68952
1.81038 1.79113 6.70761
1.27623 1.79317 6.82262
1.25326 1.79324 6.82679
1.23338 1.79648 6.8419
1.20728 1.7913 6.82917
1.1973 1.79236 6.83223
1.17539 1.79453 6.84336
1.1503 1.79039 6.83261
1.12834 1.79048 6.83778
1.10744 1.79369 6.85089
1.08233 1.7885 6.83715
1.06249 1.79381 6.85723
1.05042 1.7907 6.84936
1.0243 1.78548 6.83364
1.0055 1.79188 6.85969
0.98354 1.79297 6.86484
0.956325 1.78458 6.83716
0.935425 1.78678 6.85029
0.924449 1.78784 6.85336
0.901456 1.78687 6.85454
0.877387 1.78375 6.84577
0.856526 1.78803 6.86387
0.831341 1.7807 6.84016
0.808357 1.78074 6.84233
0.786404 1.78185 6.84848
0.775381 1.78081 6.84558
0.752389 1.78084 6.84675
0.729389 1.77986 6.84694
0.706328 1.77776 6.83915
0.683344 1.77781 6.84132
0.662421 1.77997 6.85145
0.639452 1.78005 6.85562
0.606514 1.78219 6.86384
0.560423 1.77804 6.85224
0.537469 1.77915 6.8584
0.358649 1.78262 6.8827
0.040404 1.77542 6.58616
0.0193048 1.77225 6.57337
-0.00260982 1.77543 6.58449
-0.0347168 1.77124 6.57079
-0.0786692 1.77336 6.57709
-0.121675 1.77338 6.57641
-0.142729 1.77129 6.5696
-0.17572 1.77233 6.57083
-0.26174 1.77235 6.56848
-1.77454 1.76782 6.33491
-1.81564 1.76666 6.32224
-1.86064 1.77068 6.32152
-1.87264 1.7717 6.32259
-1.8927 1.7706 6.31476
-1.9108 1.7684 6.30093
-1.93089 1.76625 6.29011
-1.95679 1.77245 6.30221
-1.97491 1.76923 6.2864
-1.99789 1.77229 6.28952
-2.01184 1.77439 6.2956
-2.03483 1.77642 6.29674
-2.04904 1.77103 6.26992
-2.06618 1.76678 6.25211
-2.09307 1.773 6.26623
-2.11216 1.77184 6.25439
-2.12316 1.77285 6.25445
-2.14811 1.77595 6.2606
-2.16328 1.77162 6.23777
-2.18628 1.77364 6.23792
-2.20536 1.77249 6.22708
-2.2313 1.77663 6.23521
-2.25137 1.77551 6.22638
-2.26043 1.7744 6.21846
-2.27951 1.77325 6.20762
-2.30446 1.77736 6.21375
-2.32256 1.77518 6.20091
-2.34459 1.77613 6.19707
-2.37053 1.78126 6.20419
-2.38863 1.77908 6.19135
-2.39769 1.77798 6.18444
-2.42166 1.78104 6.18757
-2.44077 1.77985 6.17373
-2.45985 1.7787 6.16289
-2.55603 1.78141 6.13957
-2.57411 1.78026 6.12872
3.1055 1.74878 5.79236
3.09471 1.75418 5.81936
3.0756 1.74899 5.80558
3.01883 1.74948 5.836
3.00091 1.75065 5.84712
2.99928 1.76236 5.89497
2.97221 1.75725 5.88625
2.9653 1.75943 5.89827
2.94535 1.75855 5.90543
2.92848 1.7618 5.92151
2.90345 1.75777 5.91876
2.8835 1.75689 5.92593
2.8707 1.76227 5.95095
2.85075 1.76239 5.9581
2.84181 1.76351 5.96615
2.82186 1.76263 5.97331
2.79888 1.76068 5.97551
2.78404 1.765 5.99657
2.76918 1.76829 6.01563
2.75128 1.76948 6.02775
2.73237 1.77067 6.03988
2.72139 1.76973 6.04297
2.70145 1.76986 6.05112
2.68356 1.77208 6.06523
2.6575 1.76698 6.0575
2.64164 1.77027 6.07657
2.61865 1.76831 6.07777
2.60663 1.76728 6.07588
2.58976 1.76955 6.09298
2.57391 1.77284 6.11205
2.55397 1.77297 6.1202
2.53198 1.77202 6.12238
2.50084 1.76376 6.10373
2.49007 1.77123 6.13471
2.47602 1.76814 6.12786
2.45405 1.76721 6.13204
2.43003 1.76418 6.12926
2.41214 1.76642 6.14437
2.39323 1.7676 6.15549
2.37431 1.76877 6.16662
2.35922 1.76462 6.15579
2.33622 1.76164 6.15601
2.32447 1.77012 6.18798
2.30452 1.77024 6.19513
2.28461 1.77141 6.20626
2.26978 1.77575 6.22831
2.24473 1.77168 6.22256
2.2358 1.77382 6.2316
2.21482 1.77288 6.23477
2.19796 1.77616 6.25285
2.17701 1.77628 6.26001
2.15297 1.77322 6.25523
2.13816 1.7786 6.28027
2.11926 1.78079 6.29238
2.1052 1.77768 6.28453
2.08423 1.77677 6.2897
2.05919 1.77372 6.28494
2.04644 1.7812 6.31693
1.95058 1.77955 6.33668
1.92553 1.77547 6.32992
1.90765 1.7787 6.34501
1.88464 1.77672 6.34522
1.86779 1.78101 6.36428
1.10517 1.78823 6.54995
1.03029 1.78951 6.56549
1.0083 1.78954 6.56666
0.965311 1.7886 6.569
0.931288 1.78658 6.56628
0.888296 1.78563 6.56762
0.825489 1.79004 6.59303
0.801405 1.7869 6.58226
0.791443 1.78798 6.58732
0.769413 1.78594 6.58351
0.746374 1.78388 6.57872
0.724336 1.78182 6.57391
0.703452 1.78606 6.58901
0.68029 1.77877 6.56829
0.671445 1.78507 6.58827
0.64836 1.78092 6.5775
0.627446 1.7841 6.58861
0.605384 1.781 6.58082
0.583415 1.78107 6.58499
0.560323 1.77791 6.57321
0.540516 1.7843 6.59826
0.528339 1.77796 6.57545
0.507386 1.77907 6.58159
0.485363 1.77804 6.57877
0.463402 1.77913 6.58392
0.441356 1.77706 6.57812
0.420441 1.77924 6.58924
0.398387 1.77715 6.58244
0.387426 1.77823 6.58751
0.366535 1.78245 6.6016
0.344473 1.77935 6.59381
0.322451 1.77832 6.591
0.301436 1.77831 6.58915
0.279398 1.77625 6.58435
0.257391 1.77625 6.58352
0.246499 1.77947 6.59755
0.225445 1.77738 6.59074
0.203477 1.77845 6.59489
0.181408 1.77634 6.58609
0.159339 1.77322 6.5773
0.138401 1.77535 6.58542
0.127294 1.77215 6.57155
0.105387 1.77535 6.58367
0.084303 1.7722 6.57288
0.0623883 1.77538 6.584
-2.07602 1.76016 6.00725
-2.09509 1.75904 5.99841
-2.10608 1.76006 5.99948
-2.12417 1.75891 5.98863
-2.16622 1.76082 5.98092
-2.18431 1.75967 5.97007
-2.20533 1.76064 5.96721
-2.2134 1.75851 5.95831
-2.23539 1.76053 5.95844
-2.25446 1.76041 5.94959
-2.27451 1.76032 5.94274
-2.29554 1.76128 5.93888
-2.31264 1.7591 5.92604
-2.33661 1.76217 5.93018
-2.34664 1.76212 5.92625
-2.3657 1.76202 5.9184
-2.38575 1.76193 5.91155
-2.40578 1.76288 5.90768
-2.42584 1.76278 5.89984
-2.44687 1.76374 5.89598
-2.45689 1.7647 5.89304
-2.47792 1.76566 5.88918
-2.49796 1.76658 5.88332
-2.51605 1.76542 5.87147
-2.53414 1.76327 5.86064
-2.55516 1.76524 5.85777
-2.5762 1.76616 5.85191
-2.58425 1.76508 5.84599
-2.60135 1.76289 5.83215
-2.62534 1.76693 5.83427
-2.64736 1.7679 5.83142
-2.6674 1.76883 5.82555
-2.68745 1.76874 5.81871
-2.7016 1.76547 5.79986
-2.71555 1.76857 5.80592
-2.73069 1.7653 5.78708
-2.75565 1.76939 5.79221
-2.77276 1.7682 5.77835
-2.79379 1.76915 5.7745
-2.81287 1.769 5.76364
-2.83194 1.76888 5.75478
-2.84195 1.76886 5.75286
-2.85905 1.76768 5.74
-2.88108 1.76964 5.73614
-2.90112 1.77056 5.73028
-2.91821 1.7694 5.71842
2.86553 1.74603 5.66419
2.81971 1.74642 5.68853
2.77003 1.75207 5.73083
2.74804 1.7501 5.73202
2.73114 1.75132 5.74613
2.7122 1.75146 5.75427
2.70325 1.75255 5.76033
2.68634 1.75374 5.77244
2.66843 1.75493 5.78456
2.64849 1.75505 5.79171
2.62446 1.75102 5.78895
2.60858 1.75426 5.80402
2.60166 1.75642 5.81504
2.5817 1.75551 5.82021
2.56278 1.75567 5.83035
2.54181 1.75475 5.83452
2.5249 1.75695 5.84762
2.50598 1.75712 5.85776
2.48296 1.7551 5.85596
2.47706 1.7573 5.86897
2.45915 1.75848 5.88009
2.43816 1.75752 5.88227
2.41926 1.75871 5.89439
2.40132 1.75886 5.90353
2.38241 1.76003 5.91465
2.36041 1.75805 5.91485
2.35145 1.75913 5.9199
2.33353 1.76031 5.93102
2.31256 1.75938 5.93519
2.29465 1.76057 5.94731
2.27469 1.76066 5.95246
2.25476 1.76081 5.96161
2.23583 1.76196 5.97074
2.22686 1.76204 5.9758
2.20692 1.76215 5.98295
2.19003 1.76537 5.99704
2.16905 1.76443 6.00021
2.1491 1.76455 6.00736
2.12709 1.76155 6.00657
2.10918 1.76374 6.01867
2.09615 1.76169 6.0148
2.07723 1.76286 6.02493
2.06546 1.77031 6.05491
2.04755 1.7725 6.06701
2.0276 1.7726 6.07316
2.00355 1.76853 6.0674
1.98434 1.75915 6.04068
1.9327 1.76786 6.08695
1.91584 1.77216 6.10602
1.36899 1.77878 6.26006
1.36007 1.78093 6.27009
1.33907 1.77995 6.27027
1.316 1.77683 6.26149
1.29711 1.78007 6.27658
1.27819 1.78123 6.28671
1.25308 1.77602 6.27197
1.24621 1.78028 6.28897
1.22108 1.77506 6.27323
1.20216 1.77722 6.28334
1.18221 1.77834 6.29048
1.15813 1.7732 6.27973
1.13815 1.77326 6.28288
1.11717 1.7733 6.28504
1.10619 1.77335 6.28812
1.08519 1.77237 6.2883
1.06631 1.77662 6.30438
1.04321 1.77143 6.29063
1.02329 1.77361 6.30175
1.00018 1.76942 6.28798
0.991284 1.77261 6.301
0.968183 1.76744 6.28825
0.949299 1.77168 6.30333
0.927245 1.76859 6.29654
0.907284 1.76968 6.30168
0.886284 1.76869 6.30185
0.866377 1.77188 6.31395
0.853261 1.76667 6.29913
0.834369 1.76989 6.31322
0.812284 1.76575 6.30245
0.794478 1.77313 6.32748
0.770316 1.76584 6.30677
0.751455 1.77112 6.32483
0.72834 1.76591 6.31008
0.720524 1.77227 6.33405
0.696317 1.76389 6.30735
0.67744 1.76814 6.32343
0.634349 1.76399 6.31182
0.58238 1.76409 6.31621
0.561411 1.76417 6.32037
0.405476 1.7644 6.32954
0.227541 1.76465 6.33888
-2.23435 1.7517 5.69953
-2.33569 1.7491 5.65532
-2.37181 1.74888 5.6386
-2.39087 1.74877 5.63074
-2.42897 1.74861 5.61803
-2.44193 1.75169 5.62308
-2.48101 1.75356 5.61235
-2.49318 1.74824 5.59051
-2.51322 1.74917 5.58465
-2.53326 1.75011 5.57979
-2.55721 1.75521 5.58589
-2.56036 1.74993 5.56699
-2.58137 1.75192 5.56512
-2.60338 1.75392 5.56426
-2.62144 1.75381 5.55639
-2.63951 1.75268 5.54655
-2.65856 1.75359 5.53967
-2.66562 1.75248 5.53174
-2.68468 1.75239 5.52489
-2.70471 1.75433 5.52001
-2.7218 1.75216 5.50817
-2.73691 1.75097 5.4943
-2.75793 1.75194 5.49144
-2.77698 1.75285 5.48457
-2.78996 1.75489 5.48664
-2.80605 1.75372 5.47477
-2.82708 1.75568 5.4709
-2.84711 1.75663 5.46704
-2.86322 1.75544 5.45318
-2.8803 1.75429 5.44232
-2.90034 1.75521 5.43646
-2.90839 1.75513 5.43052
-2.92547 1.75398 5.41966
-2.94748 1.75698 5.41878
-2.97343 1.76209 5.4249
-2.98264 1.75569 5.39807
-3.00661 1.75975 5.40119
-3.02567 1.76065 5.39332
-3.02978 1.75745 5.37939
-3.05278 1.76045 5.37852
-3.07086 1.76031 5.36866
-3.08498 1.75809 5.35279
2.65235 1.74186 5.50883
2.55577 1.74574 5.56451
2.50991 1.74606 5.58385
2.40723 1.74675 5.62662
2.38625 1.7448 5.62881
2.37035 1.74802 5.64288
2.35651 1.75132 5.66294
2.33652 1.75037 5.66511
2.30761 1.75055 5.67632
2.28559 1.74754 5.67453
2.2697 1.74976 5.68862
2.25585 1.75406 5.70867
2.23486 1.75209 5.70985
2.21593 1.75324 5.71898
2.20105 1.75649 5.73505
2.18596 1.75134 5.72424
2.16701 1.75144 5.73038
2.15215 1.75571 5.74843
2.12912 1.75167 5.74466
2.11323 1.75491 5.75974
2.09428 1.75502 5.76688
2.08046 1.76037 5.78991
2.07457 1.76359 5.8039
2.05563 1.76472 5.81203
2.02849 1.75747 5.79434
1.9824 1.75034 5.78379
1.96345 1.75045 5.78993
1.94169 1.75692 5.82101
1.90278 1.75713 5.8333
1.891 1.76455 5.86128
1.87309 1.76675 5.87439
1.53491 1.77357 5.98285
1.464 1.7718 5.99541
1.44299 1.7708 5.99458
1.423 1.76983 5.99575
1.40407 1.77099 6.00587
1.38202 1.7679 5.99908
1.37307 1.77001 6.00612
1.351 1.7659 5.99735
1.3321 1.76809 6.00946
1.31004 1.765 6.00267
1.29216 1.76823 6.01776
1.27216 1.76725 6.01793
1.25117 1.76629 6.0201
1.24014 1.76524 6.0162
1.22014 1.76426 6.01636
1.20019 1.76436 6.02251
1.1802 1.76439 6.02366
1.15918 1.76238 6.02185
1.14231 1.76664 6.03892
1.12025 1.76254 6.03114
1.1082 1.76046 6.02526
1.08716 1.75739 6.01947
1.07139 1.76584 6.04946
1.05037 1.76481 6.04664
1.03037 1.76384 6.0478
1.0083 1.75971 6.03803
0.989381 1.76189 6.04914
0.978304 1.75875 6.03927
0.939389 1.76094 6.05053
0.918366 1.75891 6.04772
0.867374 1.75696 6.04913
0.848451 1.76012 6.05923
-2.23365 1.74713 5.52657
-2.25465 1.74915 5.5267
-2.27368 1.7501 5.52282
-2.29587 1.74575 5.49805
-2.31785 1.74881 5.50117
-2.33689 1.74973 5.4953
-2.35004 1.74545 5.47546
-2.36809 1.74536 5.4686
-2.38714 1.74528 5.46274
-2.4111 1.74937 5.46786
-2.41521 1.74615 5.45294
-2.4431 1.7534 5.46804
-2.45526 1.74908 5.4462
-2.47824 1.75214 5.44932
-2.49334 1.74996 5.43647
-2.51631 1.75402 5.43958
-2.52849 1.74869 5.41675
-2.54439 1.75388 5.42879
-2.55851 1.75167 5.41393
-2.57658 1.75053 5.40408
-2.5966 1.7525 5.4012
-2.61662 1.75447 5.39833
-2.63075 1.75123 5.38148
-2.65372 1.75531 5.38559
-2.65785 1.75106 5.36868
-2.67787 1.75303 5.3658
-2.69592 1.75294 5.35894
-2.71201 1.75177 5.34708
-2.73794 1.75792 5.35618
-2.75699 1.75783 5.34933
-2.76209 1.75564 5.3364
-2.78015 1.75554 5.32853
-2.79821 1.75543 5.32067
-2.81923 1.7574 5.3178
-2.83925 1.75937 5.31492
-2.87242 1.75807 5.29319
-2.88343 1.75907 5.29225
2.63706 1.73734 5.33799
2.58424 1.73773 5.36239
2.48861 1.73953 5.41209
2.47272 1.74274 5.42616
2.45375 1.74182 5.43032
2.43581 1.74195 5.43845
2.39605 1.74644 5.46969
2.37201 1.74238 5.46493
2.35609 1.74355 5.47604
2.33918 1.74473 5.48715
2.31125 1.74388 5.49637
2.29025 1.74291 5.49754
2.27536 1.74513 5.51162
2.25438 1.74318 5.51381
2.23847 1.74537 5.5259
2.22359 1.74861 5.54197
2.21257 1.74659 5.54008
2.19668 1.74881 5.55417
2.17977 1.74999 5.56528
2.1608 1.75006 5.56942
2.14082 1.74912 5.57259
2.11982 1.74613 5.57279
2.10495 1.7504 5.58984
2.10006 1.75361 5.60383
2.08519 1.75788 5.62188
2.06521 1.75693 5.62405
2.04523 1.75499 5.62723
2.02218 1.75091 5.62146
2.00322 1.75099 5.6256
1.98325 1.75006 5.62977
1.98041 1.75639 5.6517
1.9676 1.76275 5.67571
1.94967 1.7639 5.68482
1.92969 1.76296 5.68799
1.91074 1.76306 5.69413
1.51262 1.76605 5.8121
1.49572 1.76927 5.82618
1.47575 1.76933 5.82933
1.45471 1.76627 5.82454
1.43368 1.76424 5.82173
1.41682 1.76851 5.83879
1.40372 1.76334 5.82697
1.38269 1.7613 5.82315
1.36787 1.76665 5.84619
1.34788 1.76568 5.84735
1.32786 1.76466 5.84552
1.30891 1.76476 5.85166
1.28894 1.76484 5.85581
1.27791 1.76279 5.85193
1.25477 1.75655 5.83519
1.23792 1.76185 5.85424
1.21895 1.76192 5.85838
1.19897 1.76096 5.86055
1.17897 1.75998 5.86071
1.16999 1.76103 5.86377
1.14896 1.75799 5.85997
1.12897 1.75803 5.86212
1.11104 1.75918 5.87124
1.09001 1.75713 5.86743
1.07312 1.76135 5.88149
1.05 1.75513 5.86576
1.04103 1.7552 5.86982
1.02002 1.7542 5.869
1.00106 1.75529 5.87413
0.983129 1.75743 5.88323
0.962106 1.7554 5.88042
0.923137 1.75449 5.88473
0.913129 1.75448 5.8838
0.893137 1.75351 5.88497
0.855222 1.7557 5.89622
0.835184 1.75364 5.8914
0.815214 1.75372 5.89555
0.787276 1.75486 5.90375
0.0277062 1.74929 5.69852
-0.000230875 1.75242 5.70669
-0.0193075 1.74929 5.69688
-0.0381909 1.75453 5.71194
-0.0761515 1.75563 5.71721
-0.114142 1.75667 5.71848
-0.123289 1.7504 5.69964
-0.141312 1.74936 5.69679
-0.218178 1.75567 5.71428
-0.235377 1.7483 5.68852
-0.245323 1.75041 5.69556
-0.264376 1.74832 5.68874
-1.51959 1.75676 5.53105
-1.53887 1.74624 5.49534
-1.57496 1.74609 5.48361
-1.61104 1.74595 5.47289
-1.6281 1.74385 5.46505
-1.64101 1.74903 5.47707
-1.67419 1.7447 5.45338
-1.7132 1.7477 5.45163
-1.72927 1.74658 5.44276
-1.73635 1.74344 5.43286
-1.76219 1.75275 5.45292
-1.77927 1.7506 5.44208
-1.79437 1.74842 5.42922
-1.81926 1.75465 5.44332
-1.83048 1.74724 5.41551
-1.84851 1.74819 5.41163
-1.8634 1.75341 5.42567
-1.87361 1.74601 5.39785
-1.89556 1.75011 5.40396
-1.91361 1.75003 5.3981
-1.92969 1.74788 5.38725
-1.94774 1.74781 5.38138
-1.96579 1.74772 5.37452
-1.97383 1.74765 5.36958
-1.9909 1.74551 5.35974
-2.00992 1.7475 5.35785
-2.03286 1.75162 5.36497
-2.04501 1.74733 5.34512
-2.06796 1.75145 5.35223
-2.07306 1.74825 5.33832
-2.08914 1.74711 5.32845
-2.11209 1.75122 5.33456
-2.1272 1.74802 5.32072
-2.15113 1.75417 5.32981
-2.16523 1.75097 5.31597
-2.18034 1.74878 5.30211
-2.19525 1.75396 5.31415
-2.20936 1.75075 5.2993
-2.22742 1.75065 5.29144
-2.2484 1.75369 5.29355
-2.26842 1.75568 5.29167
-2.2845 1.75453 5.28081
-2.30155 1.75443 5.27394
-2.31253 1.75647 5.27599
-2.33158 1.7564 5.27013
-2.3398 1.74897 5.2413
-2.36373 1.75412 5.25041
-2.37784 1.75191 5.23554
-2.40179 1.75703 5.24265
-2.40983 1.75595 5.23672
-2.42691 1.75582 5.22685
-2.4981 1.75648 5.20138
-2.51417 1.75636 5.1925
-2.58948 1.75379 5.1511
3.0514 1.73187 4.85088
3.03549 1.73206 4.863
3.01045 1.72699 4.85726
3.00263 1.73235 4.88125
3.0048 1.73867 4.90314
2.97469 1.73049 4.88949
2.95876 1.73063 4.89861
2.95197 1.73804 4.92555
2.92488 1.72989 4.91487
2.91099 1.73211 4.92895
2.9123 1.74371 4.96977
2.89318 1.73651 4.95502
2.87321 1.73558 4.95919
2.86236 1.73887 4.97822
2.84034 1.73586 4.97643
2.82443 1.73603 4.98755
2.81663 1.74242 5.01352
2.80358 1.73934 5.00766
2.7897 1.74157 5.02274
2.75785 1.74291 5.04396
2.747 1.7472 5.06298
2.72397 1.74316 5.05921
2.70906 1.74434 5.07131
2.69704 1.74131 5.06844
2.68621 1.74664 5.09045
2.67334 1.7499 5.1075
2.6513 1.74586 5.10373
2.63843 1.74912 5.12078
2.61947 1.74821 5.12593
2.60253 1.74834 5.13406
2.59356 1.7484 5.13813
2.57357 1.74543 5.13932
2.54274 1.7488 5.16251
2.52479 1.7479 5.16866
2.50582 1.74697 5.17281
2.48397 1.75028 5.19293
2.47112 1.75357 5.21198
2.45215 1.75265 5.21614
2.43318 1.75172 5.2203
2.41625 1.75287 5.22941
2.39931 1.753 5.23754
2.19101 1.75651 5.33107
2.17589 1.7503 5.31627
2.14204 1.75261 5.33549
2.12613 1.7548 5.34758
2.1051 1.75075 5.3438
2.09225 1.75606 5.36382
2.07022 1.75201 5.36005
2.0551 1.7458 5.34525
2.04635 1.75528 5.37718
2.01919 1.74599 5.35652
2.00635 1.75031 5.37756
1.99043 1.75249 5.38865
1.07735 1.76185 5.64542
1.03148 1.76514 5.66272
1.01352 1.76622 5.66784
0.974523 1.76427 5.66916
0.956539 1.76431 5.6713
0.938608 1.76646 5.6804
0.9265 1.76126 5.66657
0.907508 1.76029 5.66773
0.890616 1.76451 5.68179
0.869546 1.76039 5.67301
0.850554 1.76042 5.67416
0.834732 1.76677 5.69718
0.812577 1.75949 5.67746
0.804663 1.76266 5.68847
0.785662 1.76167 5.68863
0.76774 1.76483 5.69872
0.746624 1.75863 5.68397
0.728671 1.76073 5.69007
0.709663 1.75873 5.68924
0.690663 1.75874 5.68939
0.679578 1.75459 5.67853
0.66164 1.75672 5.68664
0.642687 1.75782 5.69276
0.625834 1.76411 5.7118
0.605726 1.75892 5.69803
0.585679 1.75585 5.69222
0.57785 1.76318 5.71417
0.557688 1.75588 5.69343
0.538719 1.75596 5.69757
0.520804 1.75913 5.70866
0.500681 1.75391 5.69289
0.48175 1.75606 5.702
0.463774 1.75711 5.70512
0.453813 1.7582 5.71018
0.434759 1.75611 5.70336
0.416829 1.75825 5.71246
0.396767 1.75515 5.70466
0.377775 1.75518 5.7058
0.35983 1.75729 5.7129
0.339714 1.75209 5.69813
0.330792 1.75524 5.70815
0.311785 1.75524 5.7073
0.292839 1.75636 5.71442
0.27377 1.75424 5.7056
0.254809 1.75533 5.71072
0.235824 1.75537 5.71287
0.225709 1.75116 5.698
0.207895 1.75852 5.72203
0.188764 1.75229 5.70527
0.169734 1.75124 5.70142
0.150811 1.7544 5.71152
0.131696 1.74919 5.69674
0.11289 1.75758 5.72176
0.103704 1.74923 5.69795
0.0848056 1.75444 5.71102
0.0657823 1.75241 5.70819
0.046737 1.75133 5.70235
0.0294385 1.75578 5.52939
0.0103079 1.75054 5.51261
-0.0074676 1.75998 5.54161
-0.02556 1.75582 5.5298
-0.0436599 1.75164 5.517
-0.0536903 1.75059 5.51309
-0.0716045 1.75477 5.52417
-0.0896811 1.75163 5.51435
-0.107704 1.7506 5.5115
-0.126603 1.75481 5.52458
-0.144695 1.75164 5.51276
-0.15461 1.75481 5.52379
-0.172671 1.75271 5.51596
-0.190678 1.7527 5.51509
-0.208638 1.75479 5.5202
-0.225877 1.74435 5.48948
-0.245707 1.75169 5.51152
-0.263768 1.74958 5.50369
-0.271837 1.74645 5.49479
-0.290782 1.74957 5.50189
-0.308866 1.74642 5.49107
-0.326858 1.74645 5.49221
-0.345749 1.75167 5.50627
-0.362887 1.74642 5.48848
-0.38091 1.74538 5.48563
-0.389933 1.74435 5.48271
-0.409793 1.75163 5.50076
-0.426892 1.74745 5.48795
-0.444962 1.74433 5.47913
-0.46386 1.74953 5.49219
-0.481913 1.74744 5.48536
-0.490936 1.74741 5.48243
-0.508974 1.74634 5.47758
-0.545957 1.7474 5.47984
-0.563056 1.74422 5.46702
-0.581086 1.74317 5.46317
-0.600016 1.74732 5.47225
-0.609039 1.74628 5.46933
-0.645083 1.74622 5.4636
-0.663097 1.7462 5.46174
-0.680189 1.74304 5.44991
-0.699111 1.7462 5.46001
-0.717164 1.74511 5.45316
-0.743232 1.743 5.44439
-0.761247 1.74298 5.44252
-0.780253 1.74398 5.44165
-0.816251 1.74601 5.44189
-0.82529 1.74394 5.43699
-0.860357 1.74283 5.42827
-0.896401 1.74277 5.42254
-0.914423 1.74274 5.41968
-0.959482 1.74265 5.41202
-0.995527 1.74259 5.40629
-1.01449 1.74566 5.41039
-1.0496 1.74248 5.3967
-1.09369 1.74133 5.38505
-1.11267 1.74338 5.38716
-1.1307 1.74333 5.38329
-1.16673 1.7443 5.37955
-1.17479 1.7422 5.37264
-1.19185 1.74109 5.36479
-1.22886 1.74309 5.36303
-1.2459 1.74202 5.35718
-1.26585 1.74613 5.36427
-1.28195 1.74295 5.35144
-1.29289 1.74606 5.35847
-1.31092 1.74602 5.35461
-1.32894 1.74599 5.35174
-1.34406 1.74278 5.3369
-1.36498 1.74794 5.34699
-1.37817 1.74058 5.32219
-1.38912 1.74369 5.32923
-1.41101 1.7499 5.3423
-1.4242 1.74255 5.31851
-1.44223 1.74251 5.31464
-1.46608 1.7508 5.3337
-1.47827 1.74444 5.30889
-1.49822 1.74755 5.31499
-1.51015 1.75169 5.32402
-1.52332 1.74539 5.30321
-1.54426 1.75051 5.31029
-1.56132 1.7494 5.30244
-1.58227 1.7525 5.30855
-1.59834 1.75138 5.29969
-1.61345 1.74819 5.28585
-1.62635 1.75337 5.29787
-1.64245 1.75019 5.28503
-1.65949 1.75013 5.28016
-1.67752 1.75108 5.27628
-1.6975 1.75313 5.2784
-1.71357 1.75201 5.26954
-1.72161 1.75092 5.26362
-1.74257 1.75501 5.26872
-1.76353 1.7581 5.27383
-1.77669 1.75282 5.254
-1.79665 1.7569 5.25909
-1.81566 1.75789 5.25722
-1.83076 1.75571 5.24437
-1.84174 1.75774 5.24642
-1.85879 1.75767 5.24055
-1.87389 1.75449 5.22771
-1.89388 1.75752 5.22881
-1.92798 1.75633 5.21509
-1.94503 1.75626 5.20921
-1.95405 1.75622 5.20628
-1.96621 1.75092 5.18545
-1.98815 1.75504 5.19255
-2.00422 1.75492 5.18368
-2.02324 1.75588 5.1808
-2.03932 1.75475 5.17094
-2.11653 1.75439 5.14352
2.91821 1.72763 4.69393
2.90634 1.72987 4.70999
2.8823 1.72483 4.70624
2.87665 1.7375 4.7511
2.86578 1.74076 4.76814
2.84681 1.73883 4.77231
2.8329 1.74002 4.7844
2.79799 1.73922 4.79668
2.78408 1.74041 4.80877
2.77715 1.74153 4.8168
2.75918 1.74062 4.82195
2.74122 1.73971 4.8271
2.7134 1.74208 4.85128
2.69951 1.7443 4.86535
2.67256 1.74242 4.87258
2.64648 1.7353 4.86288
2.59291 1.74516 4.91915
2.58494 1.74523 4.92321
2.47935 1.7471 4.97798
2.46038 1.74516 4.98116
2.42953 1.74748 5.00136
2.4136 1.74863 5.01046
0.989963 1.76019 5.46208
0.872086 1.75951 5.47898
0.845133 1.76062 5.48517
0.77221 1.76082 5.49571
0.744218 1.75986 5.49694
0.726226 1.75989 5.49808
0.653342 1.76216 5.51359
0.632157 1.75382 5.48987
0.62635 1.7612 5.51481
0.589397 1.76231 5.52107
0.571381 1.7613 5.51922
0.552405 1.76135 5.52237
0.525382 1.76033 5.51958
0.488421 1.76043 5.52486
0.469383 1.75837 5.52004
0.452483 1.76258 5.5331
0.432391 1.75841 5.52131
0.413314 1.75428 5.51152
0.406523 1.76368 5.53843
0.387485 1.76162 5.53361
0.369485 1.76064 5.53376
0.351562 1.7638 5.54385
0.331408 1.75752 5.52409
0.313462 1.75863 5.53121
0.304478 1.75967 5.53326
0.286471 1.75867 5.53241
0.267386 1.75552 5.5216
0.249364 1.75449 5.51875
0.231472 1.75871 5.53282
0.212372 1.75453 5.52003
0.194395 1.75459 5.52316
0.185458 1.75771 5.53119
0.166373 1.75356 5.52039
0.148474 1.75777 5.53346
0.130405 1.75465 5.52465
0.111366 1.75259 5.51982
0.0934831 1.75782 5.53488
0.0754372 1.75575 5.52904
0.0653678 1.75262 5.52016
0.0473375 1.75158 5.51632
0.0376923 1.74335 5.29848
0.0197085 1.7444 5.3006
0.00169337 1.74338 5.29875
-0.00636852 1.74027 5.29086
-0.0242902 1.74443 5.30093
-0.0422822 1.74446 5.30207
-0.0593356 1.74237 5.29523
-0.0772266 1.74759 5.30928
-0.0952882 1.74448 5.30147
-0.103319 1.74343 5.29754
-0.121256 1.74656 5.30563
-0.13838 1.74034 5.28985
-0.156325 1.74345 5.29694
-0.173386 1.74035 5.28911
-0.191362 1.7424 5.29222
-0.209385 1.74137 5.28937
-0.218361 1.74242 5.29242
-0.235422 1.74032 5.28458
-0.252445 1.73929 5.28172
-0.270375 1.74243 5.29081
-0.305435 1.74034 5.28311
-0.323442 1.74034 5.28224
-0.349472 1.7403 5.27844
-0.367409 1.74343 5.28653
-0.419523 1.73924 5.27198
-0.445522 1.74026 5.27216
-0.463521 1.74028 5.2723
-0.480559 1.73921 5.26744
-0.515572 1.74021 5.26569
-0.532626 1.73812 5.25885
-0.576662 1.73808 5.25418
-1.36177 1.73443 5.11013
-1.50606 1.73396 5.07222
-1.51505 1.73498 5.07327
-1.54911 1.73588 5.06551
-1.57005 1.74002 5.07361
-1.58319 1.73576 5.05577
-1.61118 1.73879 5.05694
-1.64525 1.73867 5.04719
-1.6574 1.73338 5.02736
-1.67833 1.73853 5.03644
-1.69049 1.73325 5.01661
-1.70947 1.73629 5.01871
-1.71554 1.73315 5.0088
-1.73454 1.73516 5.00891
-1.75254 1.73717 5.00902
-1.76468 1.73191 4.99119
-1.78662 1.73705 4.99928
-1.80168 1.73593 4.9904
-1.81481 1.73168 4.97356
-1.8248 1.73371 4.97461
-1.84574 1.73884 4.98269
-1.85886 1.73461 4.96685
-1.87688 1.73558 4.96397
-1.89294 1.73547 4.95609
-1.90703 1.73332 4.94523
-1.92309 1.73222 4.93737
-1.937 1.73739 4.9484
-1.95109 1.73524 4.93753
-1.96911 1.7362 4.93465
-1.98909 1.74025 4.93675
-2.00121 1.73602 4.9209
-2.01728 1.7349 4.91203
-2.02627 1.73592 4.91309
-2.04332 1.73583 4.90621
-2.06034 1.7378 4.90331
-2.07641 1.73669 4.89545
-2.09147 1.73557 4.88658
-2.11146 1.7386 4.88768
-2.12849 1.73955 4.8838
-2.13161 1.73533 4.86888
-2.15062 1.73731 4.867
-2.16667 1.73722 4.86012
-2.18076 1.73505 4.84825
-2.19682 1.73496 4.84138
-2.21876 1.74008 4.84847
-2.22483 1.73795 4.83954
-2.23991 1.7368 4.82867
-2.25891 1.73882 4.82878
-2.27103 1.73559 4.81292
-2.29101 1.73863 4.81503
-2.31298 1.74371 4.81912
-2.3251 1.74048 4.80325
-2.32918 1.73733 4.79333
-2.34919 1.74033 4.79244
-2.36425 1.73921 4.78357
-2.3803 1.74013 4.77767
-2.39931 1.74112 4.7758
-2.41144 1.73787 4.75894
-2.4324 1.74296 4.76402
-2.44241 1.74396 4.76308
-2.45256 1.73967 4.74322
-2.46959 1.74062 4.73933
-2.49057 1.74467 4.74143
-2.50171 1.74041 4.72358
-2.52269 1.74445 4.72567
-2.53579 1.74227 4.7128
-2.54283 1.74119 4.70687
-2.55889 1.74108 4.69899
-2.57888 1.74411 4.7001
-2.58903 1.73983 4.68124
-2.60903 1.74385 4.68133
-2.63213 1.74266 4.66752
-2.79382 1.74041 4.57676
2.82994 1.72817 4.52456
2.80994 1.72519 4.52476
2.80602 1.72735 4.53576
2.79515 1.73161 4.55278
2.7792 1.73073 4.55991
2.76935 1.73501 4.57892
2.75441 1.73514 4.58704
2.73239 1.73012 4.58428
2.71442 1.72819 4.58844
2.70746 1.72928 4.59448
2.69355 1.73046 4.60557
2.67862 1.73161 4.61566
2.6647 1.73277 4.62575
2.64877 1.73292 4.63487
2.63281 1.73202 4.64101
2.62484 1.73208 4.64507
2.61498 1.73636 4.66308
2.59396 1.73234 4.6613
2.58513 1.73767 4.68329
2.55903 1.7295 4.6706
2.54715 1.73273 4.68565
2.53019 1.73183 4.69179
2.52222 1.7319 4.69585
2.50831 1.73407 4.70692
2.49135 1.73317 4.71306
2.47845 1.73537 4.72613
2.4615 1.73448 4.73227
2.45266 1.73981 4.75426
2.43062 1.73575 4.74949
2.42164 1.73479 4.75157
2.41078 1.73906 4.76959
2.39279 1.7371 4.77176
2.38091 1.74035 4.7878
2.36498 1.74149 4.79691
2.34801 1.74056 4.80105
2.33207 1.74068 4.80817
2.32614 1.74282 4.81718
2.30918 1.74192 4.82332
2.28034 1.74425 4.84451
2.12361 1.7369 4.8818
2.11175 1.74017 4.89985
1.03224 1.75179 5.23385
1.01633 1.75497 5.24593
0.979294 1.75093 5.24127
0.972387 1.75511 5.25326
0.936395 1.75315 5.25456
0.920472 1.75631 5.26463
0.902449 1.75428 5.2618
0.88341 1.75122 5.25699
0.87441 1.75123 5.25705
0.858526 1.75546 5.27211
0.839433 1.7503 5.26033
0.821449 1.75034 5.26247
0.806588 1.75562 5.2805
0.787534 1.75253 5.27369
0.769565 1.7536 5.27781
0.760518 1.75052 5.27192
0.743573 1.75263 5.27902
0.72558 1.75166 5.28017
0.708627 1.75376 5.28627
0.690627 1.75277 5.28642
0.672596 1.75073 5.28259
0.664666 1.75387 5.2916
0.64662 1.75079 5.28578
0.628651 1.75186 5.2899
0.610604 1.74879 5.28408
0.59262 1.74883 5.28622
0.574589 1.74679 5.28238
0.558706 1.75202 5.29743
0.548651 1.74892 5.29055
0.531706 1.75104 5.29764
0.513691 1.75002 5.29579
0.496706 1.75006 5.29792
0.478668 1.748 5.29309
0.460699 1.74908 5.29721
0.443722 1.74913 5.30034
0.433622 1.74495 5.28747
0.417808 1.75231 5.31149
0.399762 1.75024 5.30565
0.380623 1.74399 5.28789
0.363701 1.74715 5.29797
0.345709 1.74717 5.2991
0.328794 1.75035 5.31018
0.319778 1.74933 5.30827
0.301786 1.74935 5.3094
0.283733 1.74726 5.30257
0.266756 1.74732 5.3057
0.248617 1.74107 5.28792
0.23068 1.7442 5.29601
0.222742 1.74632 5.30404
0.204703 1.74426 5.29921
0.187805 1.74947 5.31226
0.16965 1.74218 5.2925
0.151596 1.73909 5.28568
0.133643 1.7412 5.29179
0.116674 1.74227 5.2959
0.107675 1.74227 5.29597
0.0896908 1.74332 5.29809
0.0727842 1.74751 5.31016
0.0546762 1.74231 5.29637
0.0334701 1.73796 5.13657
0.0165013 1.73903 5.14068
-0.000467419 1.7401 5.14479
-0.0174977 1.73906 5.14094
-0.035474 1.74011 5.14406
-0.0434888 1.74009 5.14212
-0.0606044 1.73488 5.12732
-0.0775192 1.73805 5.1384
-0.0945187 1.73807 5.13853
-0.111526 1.73806 5.13766
-0.128572 1.73599 5.13182
-0.137602 1.73494 5.1279
-0.154563 1.73702 5.133
-0.171539 1.73808 5.13611
-0.18853 1.73911 5.13722
-0.205561 1.73806 5.13337
-0.223553 1.73809 5.1345
-0.239644 1.73492 5.12267
-0.248606 1.736 5.12772
-0.265597 1.73703 5.12883
-0.282635 1.73597 5.12398
-0.316634 1.73599 5.12423
-0.333656 1.73596 5.12136
-0.351624 1.73803 5.12547
-0.359686 1.73492 5.11757
-0.41073 1.73487 5.11196
-0.461689 1.73798 5.1173
-1.32592 1.73115 4.95789
-1.44918 1.72972 4.92383
-1.50024 1.73163 4.91519
-1.52431 1.73051 4.90638
-1.54133 1.73148 4.9035
-1.57441 1.73135 4.89375
-1.58946 1.73026 4.88688
-1.61137 1.73644 4.89795
-1.61549 1.73222 4.88304
-1.62957 1.73007 4.87218
-1.64758 1.73107 4.8713
-1.66948 1.73726 4.88337
-1.68064 1.73196 4.86253
-1.69962 1.73502 4.86563
-1.70764 1.73498 4.86269
-1.72661 1.73805 4.86679
-1.74071 1.73487 4.85394
-1.76065 1.73999 4.86102
-1.77083 1.73265 4.8382
-1.78786 1.73361 4.83431
-1.80489 1.73456 4.83043
-1.81584 1.73766 4.83646
-1.82994 1.73447 4.82362
-1.84402 1.73334 4.81374
-1.8591 1.73118 4.80288
-1.87709 1.73421 4.80397
-1.8951 1.7352 4.80209
-1.90214 1.73413 4.79716
-1.91524 1.73194 4.78429
-1.93521 1.73602 4.78838
-1.94734 1.73177 4.77153
-1.9624 1.73067 4.76366
-1.98335 1.73577 4.76974
-2.00135 1.73777 4.76885
-2.00252 1.73046 4.74796
-2.0264 1.7387 4.76302
-2.03264 1.72924 4.73221
-2.05555 1.73542 4.74329
-2.07356 1.73742 4.7424
-2.08666 1.73522 4.72853
-2.10467 1.73722 4.72763
-2.11661 1.74033 4.73468
-2.12581 1.73397 4.70984
-2.1487 1.74118 4.7229
-2.16181 1.73898 4.70903
-2.17492 1.73578 4.69518
-2.19095 1.73672 4.69028
-2.20995 1.73874 4.6904
-2.216 1.73764 4.68346
-2.23305 1.73856 4.67757
-2.24908 1.7385 4.67269
-2.26317 1.73735 4.66182
-2.28315 1.74039 4.66392
-2.30426 1.73918 4.6491
-2.32425 1.74221 4.6502
-2.33931 1.74212 4.64332
-2.35536 1.74203 4.63644
-2.36943 1.74089 4.62656
-2.42167 1.73845 4.59498
-2.45573 1.74136 4.5872
-2.46883 1.73918 4.57433
2.70527 1.73193 4.43543
2.69236 1.73312 4.44751
2.61869 1.73482 4.49205
2.21223 1.73911 4.69708
1.26371 1.74963 5.03011
1.09397 1.74924 5.0644
1.02709 1.75052 5.08089
1.0191 1.75056 5.08295
1.00005 1.74747 5.07614
0.983073 1.74753 5.07927
0.967143 1.74967 5.08836
0.949088 1.74558 5.08155
0.934204 1.74981 5.0966
0.924165 1.74775 5.09171
0.907173 1.74777 5.09284
0.890196 1.74783 5.09596
0.873227 1.7479 5.10009
0.855196 1.74586 5.09626
0.839258 1.74799 5.10435
0.822289 1.74806 5.10847
0.813257 1.74601 5.10457
0.796273 1.74605 5.1067
0.779289 1.74609 5.10883
0.760196 1.74093 5.09704
0.745359 1.74825 5.11805
0.728343 1.74623 5.11621
0.71139 1.74833 5.12231
0.702366 1.74629 5.1194
0.684343 1.74426 5.11657
0.666313 1.74322 5.11272
0.650374 1.74435 5.12082
0.632328 1.74227 5.11499
0.615313 1.74125 5.11313
0.598359 1.74235 5.11925
0.590421 1.74448 5.12728
0.573391 1.74343 5.12342
0.556406 1.74347 5.12555
0.539476 1.74562 5.13464
0.522445 1.74357 5.1308
0.505484 1.74466 5.13591
0.495407 1.74152 5.12603
0.479461 1.74363 5.13312
0.461423 1.74157 5.12829
0.445539 1.74581 5.14335
0.4264 1.73955 5.12558
0.410485 1.74273 5.13666
0.393539 1.74484 5.14376
0.384501 1.74278 5.13885
0.367462 1.74072 5.13401
0.350517 1.74283 5.14111
0.333509 1.74183 5.14025
0.315409 1.73765 5.12745
0.298479 1.7398 5.13655
0.282572 1.74398 5.1486
0.273557 1.74396 5.14667
0.256495 1.73986 5.13886
0.239511 1.7409 5.14097
0.221519 1.74093 5.14211
0.204504 1.73991 5.14025
0.187466 1.73785 5.13541
0.179512 1.73994 5.14144
0.162559 1.74204 5.14754
0.14449 1.73892 5.13872
0.127491 1.73894 5.13885
0.110538 1.74104 5.14494
0.0934835 1.73795 5.13812
0.0765461 1.74108 5.1462
0.0675306 1.74005 5.14428
0.0504539 1.73692 5.13446
0.0315358 1.74811 5.01142
0.0155049 1.74606 5.00757
0.00653653 1.74813 5.0116
-0.00946301 1.74814 5.01172
-0.0264393 1.74919 5.01484
-0.0604691 1.74816 5.01111
-0.0764611 1.74819 5.01223
-0.0935146 1.7461 5.00539
-0.101561 1.74401 4.99948
-0.118584 1.74298 4.99662
-0.134552 1.74405 5.00073
-0.151489 1.74818 5.00879
-0.168489 1.74819 5.00892
-0.185527 1.74613 5.00408
-0.201542 1.74612 5.0022
-0.209588 1.74403 4.99629
-0.226541 1.74613 5.00239
-0.243517 1.74819 5.00549
-0.259609 1.74402 4.99367
-0.27657 1.74611 4.99876
-0.293608 1.74405 4.99392
-0.301584 1.7461 4.99695
-0.317661 1.74196 4.98713
-0.335598 1.74609 4.99521
-0.351667 1.74297 4.98638
-0.36769 1.74194 4.98351
-0.383744 1.73985 4.97666
-0.40168 1.74398 4.98474
-0.409665 1.74402 4.9868
-0.425765 1.73984 4.97398
-0.441764 1.74085 4.97408
-0.458771 1.74084 4.97321
-0.47484 1.73772 4.96438
-0.492738 1.74393 4.97742
-0.508791 1.74184 4.97057
-0.516814 1.7408 4.96765
-0.53286 1.73972 4.96179
-0.549867 1.73972 4.96091
-0.564959 1.73555 4.94909
-0.580997 1.73449 4.94422
-0.598012 1.73447 4.94235
-0.605996 1.73551 4.9444
-0.621096 1.73133 4.93157
-0.63811 1.73131 4.9297
-0.654125 1.73129 4.92782
-0.671101 1.73335 4.93092
-0.688115 1.73333 4.92905
-0.70413 1.73331 4.92717
-0.713129 1.73432 4.92722
-0.727245 1.72911 4.9124
-0.747119 1.73636 4.92844
-0.761235 1.73115 4.91363
-0.778211 1.7332 4.91672
-0.794272 1.7311 4.90888
-0.810309 1.73103 4.904
-0.817348 1.72897 4.89908
-0.850384 1.72892 4.89433
-0.883413 1.72988 4.89056
-0.899419 1.73088 4.88967
-0.923495 1.72875 4.87988
-0.93951 1.72873 4.878
-0.955539 1.72868 4.87412
-0.98956 1.72966 4.87136
-1.0046 1.7286 4.86649
-1.01263 1.72855 4.86255
-1.02964 1.72854 4.86168
-1.04469 1.72745 4.85481
-1.06266 1.73052 4.8589
-1.07771 1.72843 4.85204
-1.09471 1.73044 4.85214
-1.11174 1.7304 4.84827
-1.11876 1.72936 4.84534
-1.1518 1.73029 4.83957
-1.16686 1.7282 4.83271
-1.18289 1.72815 4.82884
-1.20185 1.73224 4.83392
-1.21498 1.727 4.81709
-1.22395 1.72906 4.82113
-1.24194 1.73109 4.82224
-1.2589 1.73416 4.82632
-1.27107 1.72786 4.8055
-1.29197 1.73405 4.81757
-1.30507 1.72987 4.80473
-1.31505 1.73192 4.80777
-1.33496 1.7381 4.81883
-1.34614 1.73077 4.79602
-1.36022 1.72761 4.78517
-1.38013 1.73379 4.79623
-1.39325 1.72958 4.78139
-1.41221 1.73367 4.78648
-1.42313 1.73782 4.7965
-1.43529 1.73152 4.77568
-1.44742 1.72728 4.75883
-1.46833 1.73346 4.7699
-1.48631 1.73551 4.773
-1.4994 1.73334 4.76113
-1.51328 1.73959 4.77715
-1.52249 1.7312 4.75034
-1.53754 1.73111 4.74345
-1.56236 1.74145 4.76549
-1.57157 1.73307 4.73968
-1.58955 1.73511 4.74178
-1.60753 1.73816 4.74388
-1.61165 1.73294 4.72898
-1.63061 1.73703 4.73406
-1.64468 1.73489 4.7242
-1.6617 1.73687 4.7223
-1.6748 1.73369 4.70944
-1.69572 1.73884 4.71853
-1.7059 1.7325 4.69569
-1.7188 1.7387 4.7087
-1.73385 1.73761 4.70183
-1.74402 1.73129 4.68
-1.76202 1.73331 4.6801
-1.78098 1.73739 4.68518
-1.79409 1.73418 4.67033
-1.81012 1.73413 4.66645
-1.82107 1.73823 4.67247
-1.83514 1.73611 4.66361
-1.84921 1.73498 4.65473
-1.86623 1.73595 4.65184
-1.88228 1.73588 4.64597
-1.88949 1.72748 4.61914
-1.90631 1.73782 4.64112
-1.91648 1.7315 4.61928
-1.93349 1.7335 4.61838
-1.95148 1.73553 4.61949
-1.96753 1.73543 4.61261
-1.98454 1.73743 4.61171
-1.99862 1.73528 4.60084
-2.00369 1.73315 4.59191
-2.02168 1.73618 4.593
-2.03479 1.73298 4.57915
-2.05179 1.73498 4.57825
-2.07176 1.73905 4.58234
-2.09385 1.73889 4.5705
-2.10694 1.73672 4.55863
-2.14198 1.73967 4.55385
-2.15407 1.7375 4.54197
-2.17012 1.73741 4.5351
-2.18517 1.73732 4.52821
-2.19221 1.73625 4.52328
-2.24031 1.73908 4.5096
2.1142 1.73617 4.56184
2.10621 1.73619 4.5629
0.499426 1.74958 4.99487
0.482426 1.74959 4.995
0.465403 1.74756 4.99215
0.42445 1.74867 4.99845
0.357498 1.74981 5.00493
0.341521 1.74987 5.00805
0.324514 1.74987 5.00718
0.298467 1.7468 5.00142
0.282514 1.7489 5.00751
0.248499 1.74789 5.00578
0.231415 1.74374 4.99497
0.223476 1.74587 5.003
0.207539 1.74899 5.01108
0.19047 1.74587 5.00225
0.173501 1.74695 5.00636
0.157548 1.74905 5.01245
0.140494 1.74596 5.00563
0.123587 1.75014 5.01769
0.115441 1.74387 4.99885
0.0983708 1.73975 4.99003
0.0815187 1.74704 5.00906
0.0655035 1.74602 5.00719
0.0485196 1.74707 5.0093
-0.113364 1.74744 4.8925
-0.170416 1.74537 4.88596
-0.243413 1.74743 4.88648
-0.308472 1.74536 4.879
-0.333455 1.7474 4.88116
-0.398476 1.74741 4.87865
-0.438575 1.74424 4.86599
-0.455582 1.74424 4.86512
-0.470682 1.74006 4.8523
-0.519648 1.74316 4.85662
-0.536601 1.74626 4.8627
-0.544624 1.74522 4.85978
-0.575738 1.74102 4.84507
-0.590854 1.73581 4.83026
-0.609705 1.7441 4.84928
-0.623821 1.73889 4.83447
-0.631828 1.73888 4.83353
-0.648835 1.73988 4.83264
-0.664819 1.74092 4.83474
-0.680864 1.73984 4.82888
-0.694971 1.73565 4.81505
-0.710986 1.73563 4.81317
-0.727032 1.73355 4.80732
-0.735985 1.73665 4.81334
-0.752015 1.7356 4.80948
-0.77089 1.74285 4.82551
-0.784052 1.73555 4.80472
-0.799113 1.73344 4.79686
-0.814189 1.73131 4.78701
-0.832111 1.73547 4.79708
-0.83918 1.73334 4.78816
-0.85614 1.73542 4.79326
-0.87503 1.74264 4.8073
-0.887238 1.73325 4.78053
-0.90612 1.74049 4.79556
-0.920229 1.73529 4.78174
-0.936266 1.73523 4.77687
-0.942335 1.7321 4.76796
-0.962194 1.74038 4.78599
-0.975325 1.73514 4.76916
-0.99327 1.73826 4.77625
-1.01124 1.74133 4.78034
-1.02435 1.73712 4.7655
-1.02948 1.73088 4.74963
-1.05226 1.74331 4.77762
-1.0625 1.73286 4.74685
-1.08044 1.73698 4.75392
-1.09645 1.73698 4.75304
-1.11248 1.73693 4.74916
-1.12948 1.73894 4.74926
-1.13553 1.73684 4.74234
-1.15061 1.73369 4.7315
-1.16856 1.73781 4.73857
-1.18167 1.73359 4.72373
-1.19964 1.73667 4.72782
-1.21467 1.73662 4.72394
-1.22366 1.73764 4.72499
-1.23775 1.73449 4.71414
-1.25571 1.73857 4.71921
-1.27174 1.73853 4.71534
-1.28388 1.73225 4.69652
-1.30184 1.73634 4.70159
-1.32079 1.74046 4.70868
-1.32686 1.73733 4.69977
-1.34189 1.73727 4.69488
-1.35987 1.74032 4.69797
-1.372 1.73508 4.68114
-1.38901 1.73608 4.68025
-1.40695 1.7412 4.68731
-1.42396 1.74219 4.68642
-1.43295 1.74321 4.68748
-1.44799 1.74314 4.68159
-1.46208 1.73997 4.66974
-1.47712 1.73991 4.66486
-1.49413 1.7409 4.66397
-1.5082 1.73978 4.65509
-1.53321 1.74177 4.65325
-1.54827 1.74066 4.64538
-1.60943 1.73938 4.62385
-1.69661 1.74109 4.60048
-1.71165 1.74103 4.5956
-1.84513 1.73518 4.53268
-1.8631 1.73923 4.53576
0.237588 1.74611 4.88488
0.0416082 1.74528 4.88837
0.0283901 1.73391 4.72761
0.0133516 1.73184 4.72275
-0.00269435 1.72977 4.71691
-0.018655 1.73185 4.72199
-0.0266937 1.72978 4.71709
-0.0417089 1.72877 4.71521
-0.057716 1.72876 4.71433
-0.0736999 1.7298 4.71644
-0.0895984 1.73501 4.72948
-0.105559 1.73709 4.73457
-0.112737 1.72876 4.71175
-0.128698 1.73084 4.71684
-0.144729 1.7288 4.71299
-0.160704 1.73085 4.71608
-0.175828 1.72463 4.70028
-0.192672 1.73293 4.72029
-0.207819 1.72566 4.70151
-0.214819 1.72567 4.70156
-0.230803 1.72671 4.70367
-0.246763 1.7288 4.70876
-0.262785 1.72876 4.70588
-0.278785 1.72878 4.706
-0.294769 1.72982 4.7081
-0.309861 1.72565 4.69628
-0.318721 1.73292 4.71424
-0.333759 1.73186 4.70937
-0.349821 1.72875 4.70153
-0.364851 1.7277 4.69766
-0.379959 1.72251 4.68385
-0.394966 1.7225 4.68296
-0.411919 1.72561 4.68905
-0.418996 1.72246 4.67914
-0.434933 1.72559 4.68722
-0.450932 1.7266 4.68732
-0.466955 1.72557 4.68446
-0.482923 1.72764 4.68855
-0.497984 1.72554 4.68069
-0.521014 1.72449 4.67688
-0.537982 1.72656 4.68098
-0.567097 1.72236 4.66626
-0.598141 1.7223 4.66049
-0.622132 1.72333 4.66166
-0.702143 1.72636 4.66022
-0.755272 1.72315 4.64366
-0.78727 1.72517 4.64387
-1.22599 1.72305 4.5502
-1.39038 1.71939 4.49848
-1.4685 1.72221 4.48303
-1.47455 1.72012 4.4771
-1.50266 1.71792 4.46235
-1.55969 1.72289 4.4577
-1.61787 1.72157 4.43416
-1.62997 1.71841 4.42229
-1.65382 1.7287 4.44132
-1.65203 1.7183 4.41446
-1.67098 1.72239 4.41954
-1.68406 1.72025 4.40967
-1.69616 1.71707 4.39681
-1.71512 1.72116 4.40189
-1.73113 1.72314 4.39998
-1.74224 1.71894 4.38612
-1.75221 1.72201 4.39016
-1.76333 1.71778 4.3743
-1.78327 1.72291 4.38237
-1.80125 1.72595 4.38447
-1.81236 1.72274 4.36959
-1.83736 1.72576 4.36974
-1.84358 1.71635 4.34192
-1.86451 1.7225 4.35099
-1.89654 1.72544 4.34619
-1.90077 1.715 4.31637
-1.92367 1.72321 4.32942
-1.92676 1.72004 4.31749
-1.94867 1.72722 4.32855
-1.95291 1.71678 4.29873
-1.98269 1.73121 4.32675
-1.98297 1.71766 4.28994
-2.00489 1.72483 4.3
-2.01796 1.7237 4.29112
-2.02303 1.72157 4.28219
-2.042 1.72565 4.28627
-2.06294 1.73077 4.29335
-2.06716 1.72134 4.26452
-2.08809 1.72849 4.27357
-2.09624 1.7222 4.25373
-2.11214 1.7294 4.26674
-2.11931 1.72308 4.24488
-2.13925 1.7282 4.25196
-2.14642 1.72188 4.2301
-2.16737 1.728 4.23717
-2.17847 1.7248 4.2233
-2.19547 1.72781 4.22339
-2.19267 1.71842 4.1975
-2.21459 1.72559 4.20756
-2.22668 1.72242 4.1957
-2.2607 1.72741 4.19388
-2.28486 1.72511 4.17209
-2.2919 1.72404 4.16716
-2.30398 1.72188 4.15628
-2.33603 1.72582 4.15046
-2.35009 1.72571 4.14257
-2.38116 1.72758 4.13278
-2.39928 1.72536 4.11694
-2.41332 1.72628 4.11103
-2.46055 1.72387 4.08142
-2.53379 1.72745 4.04992
-2.54883 1.72737 4.04403
-2.56695 1.72615 4.02818
-2.58003 1.72501 4.0183
-2.68049 1.72417 3.95706
0.74811 1.73886 4.68711
0.717187 1.74103 4.69731
0.662211 1.74012 4.70074
0.647288 1.74228 4.71082
0.630257 1.74023 4.70698
0.599288 1.74031 4.71121
0.583272 1.73929 4.70935
0.559288 1.73934 4.71153
0.543327 1.74043 4.71663
0.527296 1.73838 4.71278
0.49525 1.73531 4.70707
0.48142 1.74265 4.72907
0.464327 1.73748 4.71727
0.456366 1.73956 4.7223
0.440328 1.7375 4.71745
0.424344 1.73754 4.71957
0.407204 1.73029 4.70181
0.393422 1.74071 4.72976
0.376282 1.73346 4.71199
0.36936 1.73661 4.722
0.353422 1.73974 4.73008
0.338446 1.7408 4.73317
0.322422 1.73877 4.73032
0.305314 1.73357 4.71653
0.289276 1.73151 4.71168
0.2744 1.73676 4.72772
0.266416 1.73779 4.72976
0.249261 1.72951 4.71001
0.234284 1.73056 4.71311
0.218362 1.73372 4.72318
0.202254 1.72853 4.70938
0.186301 1.73063 4.71547
0.171387 1.7348 4.72652
0.163403 1.73584 4.72857
0.147364 1.73378 4.72372
0.131372 1.7338 4.72484
0.11531 1.7307 4.717
0.100404 1.73488 4.72905
0.0843734 1.73384 4.72519
0.0764044 1.7349 4.72923
0.0603352 1.73178 4.7204
0.0444053 1.73492 4.72948
0.0302756 1.73271 4.57959
0.0142604 1.7317 4.57773
-0.000754852 1.73068 4.57586
-0.0166377 1.73691 4.59089
-0.0317847 1.72964 4.57211
-0.046699 1.73381 4.58316
-0.061745 1.73174 4.5773
-0.0697755 1.73068 4.57338
-0.0857204 1.7338 4.58045
-0.100736 1.73278 4.57858
-0.115767 1.73073 4.57472
-0.130859 1.72656 4.5629
-0.146835 1.72862 4.56599
-0.161811 1.72968 4.56908
-0.16978 1.73074 4.57313
-0.184818 1.72968 4.56826
-0.199833 1.72866 4.56639
-0.21484 1.72866 4.5655
-0.230816 1.73071 4.56859
-0.24594 1.72449 4.55279
-0.253823 1.73071 4.56776
-0.26883 1.73071 4.56688
-0.284822 1.73074 4.568
