0.152026 1.79649 5.6485
0.13181 1.7871 5.62079
0.124081 1.79862 5.65568
0.105004 1.79548 5.64587
0.0860353 1.79656 5.65
0.0670277 1.79556 5.64916
0.0490979 1.7987 5.65825
-0.0257381 1.78316 5.41601
-0.0617446 1.78317 5.41528
-0.0977511 1.78318 5.41455
-0.106751 1.78319 5.41462
-0.214731 1.7853 5.4174
-0.223716 1.78633 5.41945
-0.241723 1.78633 5.41859
-0.25973 1.78633 5.41772
-0.277752 1.7853 5.41488
-0.295705 1.7884 5.42097
-0.31465 1.79052 5.42808
-0.332657 1.79052 5.42721
-0.341649 1.79154 5.42827
-0.359687 1.79048 5.42342
-0.377679 1.7905 5.42455
-0.395647 1.79258 5.42866
-0.414615 1.79465 5.43277
-0.433552 1.79778 5.44087
-0.451559 1.79778 5.44
-0.461481 1.80193 5.45002
-0.480388 1.80613 5.4621
-0.497456 1.804 5.45326
-0.51644 1.80505 5.45539
-0.532555 1.80084 5.44057
-0.5525 1.80396 5.44767
-0.570499 1.80397 5.44781
-0.579514 1.80395 5.44588
-0.598443 1.80809 5.45496
-0.634457 1.80809 5.45323
-0.652518 1.80598 5.4454
-0.688539 1.80697 5.44265
-0.6985 1.80905 5.4477
-0.734552 1.80797 5.44098
2.461 1.72821 4.71299
2.44913 1.73146 4.72903
2.44929 1.73777 4.74994
2.4374 1.741 4.76499
2.42554 1.74527 4.78301
2.40857 1.74334 4.78717
2.39466 1.74553 4.79925
2.37771 1.74563 4.80537
2.3677 1.74362 4.80448
2.35177 1.74377 4.8136
2.33888 1.74699 4.82765
2.32191 1.74607 4.83279
2.29885 1.74097 4.82504
2.28697 1.74422 4.84108
2.26696 1.7412 4.83928
2.25797 1.74024 4.84136
2.23999 1.7393 4.84451
2.22913 1.74356 4.86153
2.20607 1.73847 4.85478
2.19216 1.73966 4.86687
2.1752 1.73974 4.87199
2.16536 1.74506 4.89299
2.15332 1.742 4.88813
2.13433 1.74002 4.8893
2.12042 1.74221 4.90137
2.10447 1.74231 4.90749
2.0875 1.7414 4.91264
2.07157 1.74253 4.92074
2.05462 1.74264 4.92787
2.05173 1.74687 4.94283
2.02967 1.74177 4.93507
2.01578 1.74498 4.94913
1.99576 1.74095 4.94634
1.97776 1.73998 4.94749
1.96388 1.74321 4.96255
1.952 1.74646 4.97859
1.93893 1.74234 4.96975
1.92708 1.74764 4.98976
1.90399 1.74148 4.97803
1.89008 1.74365 4.9891
1.87926 1.75002 5.01309
1.85821 1.74593 5.00631
1.84228 1.74709 5.01641
1.83531 1.74715 5.02047
1.81427 1.74409 5.01567
1.78546 1.74847 5.03983
1.74847 1.74553 5.04215
1.73561 1.7498 5.06018
1.71068 1.75095 5.06936
1.69268 1.74897 5.06952
1.67366 1.74695 5.06769
1.60685 1.74835 5.09218
1.60093 1.75152 5.10318
1.58397 1.75161 5.10831
1.56701 1.75169 5.11343
1.55108 1.75284 5.12254
1.53412 1.75394 5.12865
1.51611 1.75194 5.12782
1.50815 1.75302 5.13286
1.4583 1.75434 5.15222
1.40537 1.75351 5.16163
1.36349 1.75577 5.17792
0.536848 1.77198 5.35993
-0.359854 1.78818 5.26843
-0.385938 1.78504 5.25767
-0.404806 1.7913 5.27472
-0.420945 1.78505 5.25694
-0.437998 1.78396 5.25008
-0.458687 1.79856 5.29002
-0.472981 1.78501 5.25233
-0.49367 1.80062 5.29226
-0.502693 1.79958 5.28934
-0.51794 1.78912 5.25761
-0.538675 1.80164 5.29158
-0.55293 1.79016 5.25885
-0.570906 1.79222 5.26196
-0.591696 1.80263 5.28897
-0.606842 1.79636 5.27017
-0.614927 1.7932 5.25928
-0.635693 1.80466 5.28927
-0.650856 1.79736 5.26849
-0.670723 1.80463 5.28553
-0.6859 1.7963 5.26277
-0.720921 1.79728 5.26002
-0.731797 1.80352 5.27601
-0.767818 1.80451 5.27326
-0.78484 1.80447 5.27039
-0.80187 1.80343 5.26653
-0.820846 1.80549 5.26965
-0.837868 1.80545 5.26678
-0.846868 1.80546 5.26684
-0.960992 1.80629 5.25069
2.44478 1.72582 4.55113
2.45712 1.74145 4.59381
2.44116 1.74055 4.59994
2.41434 1.74391 4.6231
2.38244 1.74413 4.63634
2.34459 1.74445 4.65662
2.32966 1.74559 4.66572
2.30863 1.74157 4.66293
2.29268 1.74067 4.66907
2.2757 1.73972 4.67221
2.25975 1.73984 4.67933
2.24975 1.73885 4.67942
2.22871 1.73379 4.67465
2.21682 1.737 4.6887
2.19884 1.73606 4.69185
2.18187 1.73413 4.696
2.16795 1.73629 4.70608
2.16116 1.74369 4.73302
2.14301 1.73543 4.71428
2.12909 1.73658 4.72437
2.11009 1.7346 4.72454
2.09209 1.73263 4.72571
2.08122 1.73689 4.74273
2.06221 1.73389 4.74191
2.05136 1.73817 4.76094
2.04645 1.74236 4.77291
2.03661 1.74766 4.79291
1.99655 1.74058 4.78632
1.9755 1.73551 4.78055
1.96667 1.74184 4.80253
1.94665 1.73881 4.79972
1.92579 1.74209 4.81783
1.90575 1.73804 4.81304
1.87996 1.74447 4.84114
1.86912 1.74977 4.86115
1.84704 1.74364 4.85141
1.83006 1.7437 4.85453
1.82312 1.74481 4.86157
1.80511 1.74282 4.86174
1.79428 1.74915 4.88373
1.73233 1.74429 4.89027
1.68856 1.74976 4.92052
1.66647 1.74462 4.90976
1.6266 1.7459 4.92704
1.59776 1.75021 4.9472
1.57874 1.7472 4.94539
1.56382 1.74936 4.95547
1.54789 1.7505 4.96457
1.52189 1.74954 4.96578
1.48896 1.74969 4.97503
1.40719 1.7522 5.00561
1.34725 1.75034 5.01309
0.0317873 1.77526 5.08765
0.0148342 1.77736 5.09374
-0.00221176 1.77529 5.0879
-0.0102272 1.77426 5.08598
-0.0272575 1.77322 5.08212
-0.0441873 1.77636 5.0912
-0.079101 1.78055 5.10241
-0.0960848 1.78159 5.10452
-0.112239 1.77431 5.08475
-0.121177 1.77743 5.09277
-0.138153 1.77849 5.09588
-0.155098 1.7816 5.10296
-0.172105 1.7816 5.10209
-0.189066 1.78369 5.10719
-0.206073 1.78369 5.10632
-0.224049 1.78474 5.10944
-0.232033 1.78578 5.11148
-0.249939 1.79097 5.12354
-0.266063 1.78474 5.10775
-0.28307 1.78474 5.10688
-0.301031 1.78683 5.11199
-0.317084 1.78474 5.10514
-0.334076 1.78576 5.10625
-0.343021 1.78887 5.11327
-0.360974 1.79098 5.11938
-0.377981 1.79097 5.11851
-0.394049 1.78885 5.10966
-0.41294 1.79407 5.12372
-0.42904 1.78989 5.11091
-0.446024 1.79093 5.11302
-0.454969 1.79404 5.12004
-0.473883 1.79922 5.13111
-0.49089 1.79922 5.13024
-0.506975 1.79507 5.11942
-0.523989 1.79505 5.11755
-0.541942 1.79815 5.12364
-0.55891 1.80022 5.12773
-0.567933 1.79918 5.12482
-0.584932 1.8002 5.12493
-0.619922 1.80224 5.12616
-0.636952 1.80119 5.12231
-0.67095 1.80321 5.12253
2.41856 1.72444 4.38932
2.23068 1.74374 4.53647
2.19485 1.74609 4.55871
2.16395 1.74631 4.57194
2.14291 1.74225 4.56716
2.11608 1.74559 4.58931
2.10402 1.7415 4.58246
2.09721 1.74887 4.60741
2.07413 1.74273 4.59667
2.05918 1.74284 4.60379
2.0473 1.74709 4.61981
2.03031 1.74512 4.62097
2.02234 1.74518 4.62503
2.00843 1.74735 4.63611
1.99042 1.74435 4.63529
1.97955 1.74861 4.65231
1.96461 1.74974 4.6604
1.94355 1.74465 4.65364
1.93065 1.74785 4.66669
1.92062 1.7448 4.66281
1.90568 1.74593 4.67091
1.89075 1.74708 4.68
1.8758 1.74718 4.68611
1.85984 1.74728 4.69223
1.84184 1.74427 4.69141
1.82996 1.74852 4.70744
1.81993 1.74648 4.70455
1.80193 1.74448 4.70371
1.78803 1.74668 4.71679
1.77103 1.74571 4.71793
1.75712 1.74788 4.729
1.74319 1.74903 4.73809
1.72519 1.74704 4.73826
1.70719 1.74505 4.73842
1.7033 1.75028 4.75338
1.68632 1.74932 4.75552
1.6683 1.7463 4.7537
1.65642 1.75055 4.76973
1.63535 1.74542 4.75996
1.62247 1.74966 4.776
1.60651 1.74975 4.78112
1.59851 1.74877 4.78219
1.58359 1.75093 4.79228
1.56865 1.75204 4.79937
1.5496 1.74797 4.79358
1.53364 1.74807 4.7997
1.51871 1.75021 4.80878
1.50684 1.75447 4.82581
1.49374 1.74828 4.81199
1.47984 1.75249 4.82604
1.46694 1.75569 4.83909
1.44894 1.75369 4.83826
1.43091 1.75066 4.83544
1.41599 1.75282 4.84552
1.40593 1.74972 4.83864
1.39 1.75085 4.84674
1.37609 1.75404 4.8588
1.35602 1.74892 4.85003
1.3421 1.75108 4.8601
1.32613 1.75217 4.86521
1.30916 1.75122 4.86835
1.28624 1.7534 4.87949
1.26822 1.75137 4.87666
1.25329 1.75352 4.88574
1.23526 1.75047 4.88192
1.20439 1.75374 4.89911
1.19433 1.75065 4.89223
1.1794 1.75279 4.90131
1.1624 1.7518 4.90145
1.12947 1.75196 4.9107
1.11454 1.75411 4.91978
1.09756 1.75416 4.92291
1.08855 1.75314 4.92099
1.05767 1.7564 4.93718
1.03963 1.75434 4.93234
1.02367 1.75442 4.93746
1.00772 1.75654 4.94455
0.991748 1.7566 4.94767
0.975802 1.75771 4.95478
0.967809 1.75773 4.95584
0.934871 1.75887 4.96407
0.917863 1.75687 4.96323
0.901925 1.759 4.97132
0.884933 1.75903 4.97244
0.876948 1.75906 4.9745
0.858925 1.75703 4.97167
0.843987 1.75916 4.97975
0.827018 1.75923 4.98388
0.794056 1.75933 4.98913
0.777057 1.75934 4.98925
0.769072 1.75938 4.99131
0.736134 1.76052 4.99955
0.719149 1.76056 5.00167
0.662281 1.76386 5.01906
0.611281 1.76189 5.01947
0.594289 1.76192 5.0206
0.562421 1.76719 5.03776
0.536367 1.76411 5.031
0.519406 1.7652 5.03612
0.486445 1.76629 5.04135
0.469438 1.76529 5.04049
0.435461 1.76536 5.04375
0.427508 1.76746 5.04978
0.411523 1.7675 5.0519
0.37754 1.76755 5.05415
0.360594 1.76967 5.06125
0.343586 1.76867 5.06039
0.326564 1.76763 5.05753
0.318595 1.7687 5.06158
0.302688 1.77289 5.07364
0.28568 1.77188 5.07278
0.251635 1.76982 5.06707
0.234697 1.77195 5.07517
0.218837 1.77823 5.09319
0.209721 1.77301 5.07834
0.192682 1.77095 5.0735
0.175713 1.77202 5.07761
0.158745 1.7741 5.08171
0.141753 1.77412 5.08283
0.124692 1.77102 5.07501
0.107739 1.77312 5.08111
0.0998474 1.77833 5.09509
0.0828166 1.77628 5.09125
0.0657317 1.77213 5.08044
0.0260628 1.78383 4.99055
0.0102101 1.79012 5.00958
-0.00695194 1.78282 4.98881
-0.0398192 1.7891 5.00597
-0.0568344 1.78808 5.00411
-0.0648649 1.78703 5.00019
-0.0988251 1.78913 5.00541
-0.115755 1.79227 5.0145
-0.16583 1.79016 5.0049
-0.19079 1.79225 5.01006
-0.223929 1.78601 4.9924
-0.257811 1.79226 5.00757
-0.273818 1.79225 5.00669
-0.349839 1.79226 5.00426
-0.381899 1.79017 4.99653
-0.39179 1.79638 5.01051
-0.408797 1.79638 5.00964
-0.440896 1.79221 4.99694
-0.491824 1.79738 5.00625
2.42151 1.72137 4.24933
2.41062 1.72458 4.26336
2.129 1.74248 4.44724
2.07719 1.74388 4.47162
2.06428 1.74606 4.48368
2.0483 1.74412 4.48683
2.02436 1.74424 4.49401
2.00939 1.74332 4.49914
1.97746 1.74248 4.50839
1.96556 1.74468 4.52145
1.91664 1.74288 4.53285
1.89575 1.7451 4.54698
1.87773 1.74107 4.54417
1.85293 1.74749 4.57127
1.83696 1.74756 4.57539
1.82507 1.75078 4.58943
1.812 1.74565 4.5806
1.79603 1.74572 4.58472
1.76205 1.74178 4.58704
1.75424 1.75015 4.61198
1.73315 1.74401 4.60122
1.70716 1.74104 4.60246
1.70038 1.75046 4.63038
1.68034 1.7464 4.62559
1.66641 1.74754 4.63468
1.63037 1.7425 4.63003
1.63057 1.75088 4.6559
1.61254 1.74783 4.65208
1.59863 1.75102 4.66414
1.56565 1.74809 4.66744
1.55685 1.75648 4.69338
1.52963 1.74307 4.66478
1.53085 1.7535 4.69362
1.51182 1.75046 4.68981
1.49172 1.74429 4.67805
1.48706 1.75893 4.72087
1.45772 1.74132 4.67835
1.45306 1.75596 4.72117
1.43195 1.74877 4.70744
1.42395 1.74777 4.70751
1.41416 1.75719 4.73545
1.39098 1.74687 4.71278
1.37708 1.75006 4.72483
1.36316 1.75223 4.73591
1.35232 1.75855 4.7569
1.33225 1.75443 4.74811
1.33042 1.76176 4.77002
1.30726 1.75246 4.74933
1.29129 1.75253 4.75345
1.25727 1.74851 4.75076
1.24648 1.75692 4.77772
1.22741 1.7528 4.76893
1.21555 1.75809 4.78794
1.21171 1.76539 4.80787
1.18851 1.75402 4.7822
1.17458 1.75617 4.79128
1.16379 1.76559 4.81922
1.13851 1.75107 4.78363
1.12668 1.75741 4.80562
1.11765 1.75534 4.80072
1.10481 1.76166 4.82173
1.08158 1.74925 4.79308
1.07079 1.75866 4.82003
1.05171 1.75352 4.81025
1.03884 1.75877 4.82627
1.02911 1.77129 4.86116
1.01383 1.75677 4.82549
1.001 1.76411 4.84748
0.980876 1.75688 4.83173
0.966984 1.7611 4.84578
0.947898 1.75595 4.835
0.9361 1.76435 4.86096
0.919069 1.7623 4.85712
0.913162 1.76648 4.86911
0.894084 1.76135 4.85932
0.880192 1.76556 4.87337
0.862153 1.7625 4.86855
0.830192 1.7626 4.87379
0.814231 1.76369 4.87889
0.790316 1.76687 4.89003
0.777486 1.7742 4.91202
0.756262 1.76279 4.88335
0.741339 1.76495 4.89343
0.72537 1.76602 4.89753
0.711517 1.77231 4.91655
0.692432 1.76816 4.90575
0.685463 1.76922 4.90979
0.66637 1.76306 4.89802
0.654626 1.77556 4.93093
0.636526 1.77038 4.91814
0.621673 1.77667 4.93716
0.604673 1.77568 4.9373
0.588688 1.77572 4.93942
0.579665 1.77469 4.93651
0.56475 1.77786 4.94757
0.54772 1.77581 4.94373
0.530704 1.7748 4.94187
0.514727 1.77485 4.94499
0.497697 1.7728 4.94115
0.481806 1.77802 4.9552
0.473844 1.7791 4.96024
0.440821 1.77708 4.95752
0.424907 1.78126 4.96858
0.406737 1.77295 4.94684
0.391923 1.78131 4.97083
0.374885 1.77925 4.96599
0.366978 1.78343 4.97799
0.349869 1.77724 4.9642
0.334009 1.78352 4.98223
0.316931 1.77938 4.97242
0.283925 1.77939 4.97167
0.258933 1.77942 4.97286
0.243073 1.7857 4.99089
0.225964 1.77951 4.97711
0.209066 1.78471 4.99016
0.191997 1.78159 4.98133
0.176005 1.78162 4.98245
0.159082 1.78478 4.99253
0.151013 1.78165 4.98364
0.135099 1.78582 4.9947
0.117998 1.78064 4.9819
0.101161 1.78797 5.00292
0.0851076 1.78587 4.99608
0.0680924 1.78486 4.99422
0.0510539 1.7828 4.98938
0.0431703 1.78802 5.00436
0.0209222 1.7766 4.83967
0.00470559 1.76619 4.81195
-0.0112086 1.77037 4.82301
-0.0441223 1.77456 4.83419
-0.0680984 1.77562 4.83736
-0.0841984 1.77144 4.82454
-0.100221 1.7704 4.82168
-0.117151 1.77355 4.83076
-0.133181 1.7725 4.82689
-0.165056 1.77876 4.84304
-0.173118 1.77565 4.83515
-0.189226 1.77145 4.82133
-0.205202 1.77251 4.82444
-0.221279 1.76937 4.8146
-0.237239 1.77146 4.81969
-0.254114 1.77771 4.83573
-0.277269 1.77043 4.81601
-0.29416 1.77565 4.83006
-0.311097 1.77978 4.83813
-0.32622 1.77355 4.82233
-0.344956 1.78707 4.85628
-0.35918 1.77665 4.82754
-0.39124 1.77456 4.81981
-0.399193 1.77765 4.82582
-0.415216 1.77662 4.82296
-0.432192 1.77767 4.82607
-0.448222 1.77763 4.82219
-0.464229 1.77762 4.82131
-0.483011 1.78905 4.84929
-0.48822 1.77866 4.82248
-0.50425 1.77761 4.81861
-0.522133 1.78484 4.83364
-0.537233 1.78066 4.82082
-0.552302 1.77754 4.81198
-0.568316 1.77752 4.8101
-0.587168 1.78482 4.82913
-0.594237 1.78269 4.82022
-0.611221 1.78373 4.82233
-0.628135 1.78891 4.83338
-0.643266 1.78266 4.81659
-0.663048 1.79409 4.84457
-0.677194 1.78782 4.82577
-0.692224 1.78677 4.82189
-0.703092 1.79403 4.83887
-0.715308 1.78463 4.8111
-0.731354 1.78255 4.80525
-0.748314 1.78564 4.81033
-0.76529 1.78769 4.81343
-0.78225 1.79078 4.81851
-0.801171 1.79594 4.82858
-0.816217 1.79386 4.82272
-0.822317 1.78968 4.80983
-0.839323 1.79067 4.80894
-0.855338 1.79066 4.80706
-0.890242 1.79786 4.81922
-0.903374 1.79162 4.80241
-0.921325 1.79572 4.80849
-0.928379 1.79362 4.80157
-0.944401 1.79359 4.79869
-0.962338 1.79772 4.80677
-0.975477 1.79146 4.78895
-0.991499 1.79143 4.78608
-1.00851 1.79241 4.78419
-1.03446 1.79652 4.79032
-1.05146 1.79853 4.79042
-1.09858 1.79534 4.77582
-1.1396 1.79831 4.77209
2.38149 1.7184 4.11465
2.38074 1.72987 4.14649
2.36475 1.72791 4.14864
2.33004 1.73449 4.18581
2.23244 1.73634 4.23953
2.21647 1.73541 4.24366
2.19034 1.72518 4.22701
2.17841 1.72734 4.23707
2.16651 1.72952 4.24913
2.14951 1.72755 4.25028
2.13964 1.73181 4.2673
2.12962 1.72877 4.26442
2.1116 1.72576 4.2626
2.09969 1.72793 4.27366
2.08372 1.72701 4.27879
2.08199 1.73852 4.31264
2.04973 1.72205 4.28012
2.03681 1.72421 4.29019
2.00806 1.73072 4.32331
1.99411 1.73082 4.32942
1.97507 1.72676 4.32462
1.96521 1.73205 4.34362
1.93819 1.72702 4.3409
1.92629 1.73022 4.35394
1.89636 1.72939 4.36418
1.82953 1.72877 4.38669
1.77378 1.7333 4.42005
1.10245 1.74501 4.64297
0.989774 1.75272 4.68571
0.902882 1.75299 4.70036
0.86289 1.75103 4.70169
0.847982 1.75422 4.71376
0.771168 1.75863 4.73827
0.714137 1.75461 4.73476
0.643222 1.75583 4.74628
0.628292 1.75897 4.75535
0.525494 1.76443 4.78205
0.453518 1.76353 4.7856
0.422611 1.76673 4.79779
0.373511 1.76057 4.78525
0.357535 1.76163 4.78835
0.317535 1.76066 4.78867
0.285606 1.76381 4.79786
0.253606 1.76284 4.79812
0.229638 1.76391 4.80228
0.197662 1.76498 4.80551
0.108671 1.76406 4.80719
0.0767889 1.7703 4.82234
0.0606883 1.76512 4.80954
0.0447741 1.7693 4.8206
0.0305522 1.76391 4.65876
0.0145677 1.76395 4.66088
-0.000377309 1.76707 4.66795
-0.0164314 1.76397 4.66112
-0.0243923 1.76605 4.66615
-0.0393059 1.77123 4.67719
-0.0553444 1.76916 4.67234
-0.0713828 1.7671 4.66749
-0.0862814 1.77231 4.68052
-0.102242 1.77439 4.68561
-0.118358 1.76918 4.67081
-0.133365 1.76918 4.66992
-0.141365 1.76918 4.66998
-0.15731 1.7713 4.67707
-0.1732 1.77752 4.6911
-0.189231 1.77647 4.68724
-0.204355 1.77024 4.67144
-0.219385 1.7692 4.66757
-0.227299 1.77336 4.67857
-0.244175 1.77961 4.69461
-0.25836 1.77127 4.67083
-0.274383 1.77024 4.66797
-0.29039 1.77023 4.66709
-0.306304 1.77441 4.67815
-0.321326 1.77437 4.67526
-0.329318 1.77439 4.67632
-0.345294 1.77645 4.67941
-0.36041 1.77124 4.6646
-0.376332 1.7754 4.67466
-0.393268 1.77953 4.68273
-0.408346 1.77539 4.6729
-0.423391 1.77431 4.66703
-0.433236 1.78162 4.687
-0.447359 1.77639 4.67118
-0.463327 1.77846 4.67527
-0.47928 1.78156 4.68135
-0.494365 1.77741 4.67052
-0.510333 1.77948 4.67461
-0.526347 1.77946 4.67273
-0.542331 1.7815 4.67482
-0.551237 1.78669 4.68681
-0.568182 1.7898 4.6939
-0.582297 1.78459 4.67908
-0.59832 1.78456 4.6762
-0.615234 1.78873 4.68727
-0.629326 1.78557 4.67542
-0.64534 1.78555 4.67354
-0.654262 1.7897 4.68355
-0.668393 1.78446 4.66673
-0.685338 1.78758 4.67381
-0.700352 1.78756 4.67192
-0.716383 1.78651 4.66806
-0.733304 1.79167 4.67811
-0.748381 1.78853 4.66827
-0.755442 1.78642 4.66035
-0.771433 1.78745 4.66146
-0.787409 1.7895 4.66455
-0.81943 1.79048 4.66178
-0.835422 1.79151 4.66288
-0.858466 1.79144 4.65705
-0.890487 1.79242 4.65428
-0.906478 1.79344 4.65539
-0.938491 1.79543 4.6536
-0.95449 1.79645 4.6537
-0.961513 1.79641 4.65076
-0.97659 1.79327 4.64092
-0.991619 1.79322 4.63703
-1.02461 1.79626 4.63823
-1.03963 1.79623 4.63535
2.35828 1.71503 3.95385
2.35347 1.72339 3.97777
2.3357 1.73086 4.0088
2.25898 1.72945 4.0454
2.2222 1.73391 4.07462
2.19822 1.73097 4.07784
2.18021 1.72697 4.07704
2.16929 1.73014 4.08807
2.15636 1.73028 4.09717
2.14445 1.73247 4.10923
2.12237 1.72532 4.0985
2.11146 1.72751 4.11055
2.1055 1.72858 4.11558
2.09258 1.73074 4.12565
2.07353 1.72567 4.11987
2.06364 1.7289 4.13489
2.04767 1.72795 4.13803
2.02863 1.72291 4.13425
2.01976 1.72816 4.15124
2.01075 1.72614 4.14933
1.99578 1.72521 4.15346
1.98997 1.73359 4.17839
1.96686 1.7244 4.16469
1.95189 1.72347 4.16882
1.93895 1.72459 4.1769
1.92501 1.72572 4.18499
1.91498 1.72267 4.18111
1.90713 1.72896 4.20008
1.85917 1.72408 4.20652
1.84726 1.72625 4.21758
1.8253 1.72536 4.22375
1.70467 1.72716 4.27264
1.42449 1.73394 4.38167
1.19108 1.74025 4.46034
1.10924 1.74164 4.48294
1.02741 1.74402 4.50553
0.982497 1.74422 4.51686
0.96652 1.74428 4.51999
0.877737 1.74975 4.54858
0.816798 1.74892 4.55705
0.747883 1.74913 4.56857
0.732953 1.75227 4.57763
0.701976 1.75134 4.58088
0.687007 1.75241 4.58498
0.678984 1.75037 4.58207
0.650101 1.75562 4.59721
0.633062 1.75255 4.59238
0.618061 1.75157 4.59251
0.6031 1.75265 4.59761
0.589186 1.75682 4.60865
0.57424 1.75894 4.61574
0.566225 1.75791 4.61381
0.549178 1.75484 4.60799
0.534233 1.75695 4.61507
0.519241 1.75698 4.61618
0.504272 1.75805 4.62028
0.489311 1.75913 4.62537
0.472264 1.75606 4.61955
0.465272 1.75608 4.6206
0.449295 1.75713 4.62371
0.435404 1.76235 4.63773
0.419342 1.75824 4.62992
0.404397 1.76136 4.63698
0.38949 1.76555 4.64904
0.372382 1.75935 4.63525
0.364327 1.75625 4.62836
0.349382 1.75837 4.63544
0.333405 1.75942 4.63855
0.302406 1.75845 4.63879
0.286399 1.75844 4.63792
0.2795 1.76364 4.65089
0.264593 1.76783 4.66294
0.248484 1.76163 4.64916
0.233547 1.76476 4.65722
0.217555 1.76479 4.65834
0.20147 1.76064 4.64752
0.178618 1.76794 4.66659
0.163564 1.76484 4.65975
0.147479 1.76069 4.64893
0.131557 1.76385 4.659
0.116518 1.76179 4.65415
0.10055 1.76386 4.65824
0.0855813 1.76493 4.66234
0.0776123 1.76599 4.66638
0.0616284 1.76704 4.66849
0.0466835 1.77015 4.67555
0.0235974 1.76503 4.53178
0.015784 1.77439 4.55571
0.000769338 1.77438 4.55382
-0.0143934 1.76608 4.53305
-0.0293076 1.77025 4.54411
-0.0453536 1.76817 4.53826
-0.0602835 1.77132 4.54732
-0.0753295 1.76924 4.54147
-0.0832433 1.77441 4.55245
-0.0983289 1.76926 4.54164
-0.114235 1.77444 4.55369
-0.129281 1.77237 4.54783
-0.143382 1.76719 4.53501
-0.159288 1.77237 4.54705
-0.174287 1.77239 4.54717
-0.190248 1.77447 4.55226
-0.19827 1.77443 4.54932
-0.212386 1.76822 4.53451
-0.228262 1.77447 4.55054
-0.243284 1.77444 4.54766
-0.259245 1.77652 4.55275
-0.27333 1.77237 4.54191
-0.290204 1.77962 4.55793
-0.297266 1.7765 4.55003
-0.312258 1.77653 4.55115
-0.327312 1.77444 4.54429
-0.343233 1.7796 4.55433
-0.358271 1.77753 4.54948
-0.374247 1.77959 4.55257
-0.389301 1.7765 4.54573
-0.397277 1.77855 4.54876
-0.412261 1.77959 4.55085
-0.427283 1.77955 4.54797
-0.443267 1.78059 4.55007
-0.45829 1.77956 4.5472
-0.474242 1.78266 4.55328
-0.489288 1.78158 4.5474
-0.497249 1.78366 4.55243
-0.528216 1.78674 4.55662
-0.542316 1.78256 4.54379
-0.556432 1.77635 4.52899
-0.572369 1.78048 4.53705
-0.587383 1.78046 4.53516
-0.596359 1.78251 4.5382
-0.61232 1.7846 4.54329
-0.627319 1.78561 4.54338
-0.64331 1.78764 4.54447
-0.673355 1.78657 4.53872
-0.688401 1.78449 4.53286
-0.695423 1.78445 4.52991
-0.726413 1.78649 4.53112
-0.758388 1.78956 4.53431
-0.789402 1.79055 4.53253
-0.858474 1.79145 4.52304
2.32623 1.712 3.81512
2.32749 1.72448 3.84793
2.31353 1.72358 3.85405
2.30464 1.7268 3.86807
2.22001 1.72857 3.91669
2.18219 1.73095 3.94094
2.17115 1.72689 3.93609
2.16226 1.73111 3.95109
2.13739 1.73238 3.96826
2.10745 1.73052 3.97652
2.09044 1.72751 3.97469
2.08448 1.72759 3.97974
2.07358 1.73079 3.99277
2.0586 1.72984 3.9959
2.04158 1.72582 3.99409
2.0266 1.72488 3.99721
2.01977 1.73121 4.01917
1.99869 1.72406 4.00844
1.99084 1.73036 4.02841
1.98079 1.72628 4.02254
1.96583 1.72537 4.02767
1.95288 1.72648 4.03475
1.94808 1.73485 4.05967
1.93005 1.73081 4.05586
1.91609 1.73091 4.06197
1.90402 1.72578 4.05313
1.88598 1.72072 4.04834
1.87814 1.72702 4.06831
1.86315 1.72606 4.07044
1.85327 1.73031 4.08645
1.83117 1.72213 4.07374
1.82128 1.72635 4.08775
1.81328 1.72435 4.08784
1.80239 1.72857 4.10186
1.77242 1.72565 4.10613
1.74552 1.72688 4.12032
1.73155 1.72695 4.12442
1.69463 1.72512 4.13473
1.68065 1.72418 4.13785
1.65376 1.7264 4.15202
1.64185 1.72959 4.16407
1.63383 1.72755 4.16116
1.57799 1.72792 4.18357
1.55418 1.73429 4.20766
1.51517 1.7293 4.20703
1.47639 1.73574 4.23523
1.46036 1.73271 4.2324
1.45235 1.7317 4.23147
1.43842 1.73283 4.23956
0.912573 1.74345 4.39439
0.883604 1.74253 4.39862
0.876643 1.74461 4.40364
0.816704 1.74377 4.41211
0.780781 1.74495 4.42236
0.765812 1.74602 4.42646
0.75189 1.74917 4.43652
0.722983 1.75237 4.44869
0.707952 1.75032 4.44483
0.692998 1.75142 4.45093
0.683936 1.74831 4.44304
0.671037 1.75251 4.45608
0.654967 1.74839 4.44726
0.641052 1.75156 4.45832
0.60306 1.75061 4.45962
0.589115 1.75272 4.4667
0.575201 1.75689 4.47774
0.55813 1.75177 4.46894
0.543146 1.75181 4.47106
0.530255 1.75703 4.48508
0.514193 1.75392 4.47724
0.506185 1.75291 4.47632
0.491216 1.75398 4.48042
0.47734 1.75923 4.49645
0.461263 1.7551 4.48663
0.446232 1.75305 4.48277
0.432341 1.75826 4.4968
0.416326 1.75725 4.49493
0.409326 1.75725 4.49499
0.393279 1.75417 4.48915
0.379419 1.76045 4.50717
0.36331 1.75426 4.49338
0.349404 1.75944 4.50541
0.334443 1.76053 4.5105
0.318374 1.75741 4.50167
0.311482 1.76262 4.51565
0.296413 1.7585 4.50682
0.28035 1.75439 4.499
0.265398 1.75749 4.50507
0.250437 1.75857 4.51017
0.235437 1.75858 4.51028
0.220476 1.75967 4.51538
0.205538 1.7628 4.52344
0.197508 1.76175 4.51952
0.1825 1.76074 4.51865
0.167633 1.768 4.53565
0.152641 1.76803 4.53677
0.13754 1.76285 4.52396
0.122556 1.76289 4.52607
0.114603 1.76598 4.53208
0.0996184 1.76602 4.5342
0.0846189 1.76603 4.53431
0.069635 1.76707 4.53641
0.0536511 1.76812 4.53851
0.0387212 1.77126 4.54758
2.31404 1.71065 3.65621
2.06539 1.72945 3.83483
2.01561 1.73193 3.86517
2.00266 1.73203 3.87127
1.97867 1.72906 3.8725
1.96369 1.72712 3.87564
1.95277 1.72929 3.88669
1.93982 1.72939 3.89279
1.9289 1.73256 3.90382
1.90883 1.72544 3.89508
1.89996 1.72968 3.91108
1.89399 1.73076 3.91611
1.88103 1.73084 3.92121
1.86809 1.73197 3.92929
1.84903 1.72587 3.92153
1.84218 1.73215 3.94049
1.82517 1.72915 3.93966
1.81323 1.73028 3.94773
1.80624 1.73031 3.94979
1.79431 1.73146 3.95886
1.7783 1.72845 3.95803
1.76944 1.73373 3.97602
1.75547 1.73378 3.97912
1.7415 1.73285 3.98324
1.72651 1.73089 3.98538
1.72056 1.73298 3.9914
1.70453 1.72895 3.98858
1.69363 1.73315 4.0016
1.67659 1.72809 3.9968
1.6667 1.7323 4.01082
1.65989 1.74066 4.03475
1.63877 1.73146 4.02004
1.63485 1.73562 4.03101
1.62191 1.73674 4.03809
1.60589 1.73372 4.03626
1.58988 1.73171 4.03541
1.5749 1.72976 4.03755
1.56194 1.73085 4.04363
1.54798 1.73094 4.04874
1.54916 1.74028 4.07159
1.53111 1.73519 4.0648
1.51918 1.73734 4.07486
1.50828 1.74154 4.08788
1.48817 1.73235 4.07417
1.47624 1.73549 4.08321
1.46637 1.74075 4.10021
1.44729 1.7336 4.08946
1.44236 1.73674 4.09845
1.43043 1.7389 4.10851
1.41543 1.73689 4.10766
1.40249 1.73902 4.11572
1.39364 1.74532 4.1357
1.37148 1.73503 4.11502
1.36552 1.73612 4.12104
1.35564 1.74135 4.13604
1.33758 1.73625 4.12825
1.32566 1.73942 4.1393
1.31271 1.73952 4.1454
1.29567 1.73645 4.14057
1.28375 1.73963 4.15161
1.28088 1.74586 4.16754
1.26487 1.74286 4.16671
1.24883 1.7398 4.16188
1.2359 1.74194 4.17094
1.21986 1.73788 4.16612
1.20487 1.73691 4.16725
1.19707 1.74629 4.19317
1.18186 1.73391 4.16647
1.17302 1.74222 4.18741
1.15908 1.74334 4.1945
1.14304 1.74028 4.18967
1.12699 1.7362 4.18385
1.11716 1.74353 4.20582
1.10114 1.74151 4.20397
1.0882 1.74363 4.21104
1.08225 1.74573 4.21805
1.06621 1.74166 4.21223
1.0574 1.75103 4.23716
1.04552 1.75628 4.25318
1.02844 1.75013 4.24239
1.0124 1.74707 4.23756
0.997414 1.74711 4.23967
0.994562 1.75439 4.25859
0.965624 1.75553 4.26679
0.948522 1.74835 4.25402
0.901739 1.7568 4.28225
0.888801 1.75892 4.29032
2.28805 1.70473 3.52548
2.28219 1.71 3.54345
1.97472 1.7272 3.74654
1.92987 1.72653 3.76689
1.92098 1.73074 3.78089
1.90497 1.72774 3.78006
1.88909 1.73099 3.79613
1.87614 1.73109 3.80223
1.86217 1.73016 3.80635
1.84921 1.73025 3.81244
1.8332 1.72725 3.81161
1.81719 1.72423 3.80978
1.81135 1.73155 3.83071
1.8064 1.73265 3.83774
1.79039 1.72964 3.8359
1.77947 1.73281 3.84694
1.76041 1.7267 3.83917
1.75152 1.73093 3.85418
1.73959 1.73307 3.86324
1.72459 1.73008 3.86339
1.71164 1.73018 3.86949
1.70771 1.73332 3.87847
1.6917 1.73032 3.87764
1.67874 1.7304 3.88274
1.66476 1.73045 3.88584
1.65281 1.73057 3.89293
1.63884 1.73062 3.89604
1.63288 1.73171 3.90207
1.61992 1.7318 3.90716
1.61003 1.73601 3.92118
1.59197 1.73092 3.91439
1.58412 1.73721 3.93336
1.57014 1.73626 3.93648
1.55616 1.73532 3.9396
1.54816 1.73431 3.93867
1.53416 1.73233 3.93981
1.52019 1.73139 3.94293
1.5103 1.73662 3.95792
1.49632 1.73567 3.96104
1.4844 1.73783 3.9711
1.47349 1.741 3.98214
1.46241 1.73586 3.9723
1.45354 1.74112 3.98929
1.43651 1.73807 3.98546
1.42251 1.7361 3.9866
1.41163 1.74133 4.0016
1.39866 1.74139 4.0057
1.38468 1.74045 4.00882
1.3707 1.73949 4.01094
1.36475 1.7416 4.01796
1.34871 1.73752 4.01214
1.33782 1.74175 4.02716
1.3218 1.73872 4.02432
1.3109 1.74292 4.03734
1.3 1.74712 4.05037
1.28294 1.74203 4.04357
1.2749 1.73896 4.03867
1.26094 1.74004 4.04376
1.25003 1.74321 4.0548
1.234 1.74018 4.05197
1.22105 1.74128 4.05805
1.2081 1.74239 4.06513
1.19617 1.74553 4.07417
1.18817 1.74454 4.07425
1.17314 1.74149 4.07041
1.15816 1.74053 4.07254
1.14314 1.73851 4.07068
1.12709 1.73342 4.06387
1.11725 1.74174 4.08483
1.11439 1.74901 4.10274
2.0556 1.72295 3.59797
2.03666 1.72208 3.60613
2.0237 1.72218 3.61222
2.00973 1.72123 3.61534
1.9998 1.72238 3.6244
1.98685 1.72249 3.6315
1.9759 1.7236 3.63857
1.96295 1.7237 3.64466
1.95494 1.72169 3.64375
1.94199 1.72179 3.64985
1.93004 1.7219 3.65694
1.92114 1.7261 3.66995
1.90107 1.71898 3.6612
1.8942 1.72424 3.67818
1.87919 1.72123 3.67733
1.8642 1.71926 3.67848
1.86026 1.72138 3.68648
1.84933 1.72252 3.69554
1.83433 1.72055 3.69668
1.82646 1.72579 3.71267
1.80636 1.71763 3.70094
1.79545 1.7198 3.71199
1.78845 1.71982 3.71304
1.77855 1.723 3.72507
1.76762 1.72414 3.73414
1.75261 1.72114 3.7333
1.74066 1.72225 3.74037
1.72771 1.72337 3.74745
1.71169 1.71933 3.74463
1.70674 1.72043 3.75066
1.69581 1.72358 3.76069
1.67979 1.71955 3.75787
1.66988 1.72273 3.7699
1.6559 1.72077 3.77204
1.64395 1.72189 3.77911
1.63507 1.72711 3.7941
1.62807 1.72613 3.79517
1.60899 1.71899 3.78442
1.6052 1.7294 3.8123
1.58409 1.72121 3.79857
1.57622 1.72645 3.81456
1.56223 1.72449 3.81669
1.54825 1.72455 3.8198
1.53632 1.72567 3.82787
1.53136 1.72777 3.83388
1.51941 1.72886 3.83995
1.50441 1.72588 3.84011
1.49144 1.72594 3.84421
1.47746 1.725 3.84733
1.46654 1.72815 3.85736
1.45358 1.72925 3.86345
1.4425 1.7221 3.85264
1.43568 1.73144 3.87555
1.41964 1.7274 3.87173
1.40565 1.72542 3.87287
1.39577 1.73065 3.88787
1.37973 1.72659 3.88305
1.36677 1.72769 3.88913
1.35873 1.72462 3.88423
1.34681 1.72677 3.89429
1.3359 1.72995 3.90533
1.3219 1.72896 3.90545
1.31098 1.73213 3.91649
1.29906 1.73428 3.92655
1.29206 1.73329 3.92661
1.27602 1.73023 3.92178
1.26307 1.73134 3.92886
1.25009 1.73039 3.93197
1.23406 1.72735 3.92814
2.27164 1.71097 3.33848
2.25867 1.71004 3.34259
2.2528 1.71428 3.35858
2.2289 1.71349 3.37177
2.21897 1.71565 3.38182
2.20205 1.71581 3.39194
2.16823 1.71819 3.41617
1.8057 1.72432 3.61283
1.79681 1.72854 3.62684
1.77265 1.71525 3.60622
1.74773 1.71543 3.6174
1.69903 1.72304 3.65666
1.64701 1.71405 3.65519
1.5992 1.71645 3.68051
1.49252 1.71815 3.7233
1.48654 1.71819 3.72534
1.46164 1.7194 3.73852
1.44764 1.71842 3.73964
1.43671 1.71955 3.7477
1.4309 1.72992 3.7726
1.4128 1.72174 3.75985
1.39882 1.7208 3.76297
1.39796 1.72806 3.78087
1.36793 1.72303 3.77717
1.34403 1.72524 3.79032
1.33105 1.72429 3.79343
1.31212 1.72644 3.80255
1.29709 1.72239 3.79872
1.2872 1.7276 3.81272
1.27731 1.73283 3.82772
1.25817 1.72258 3.81001
1.24931 1.72885 3.82799
1.24745 1.73712 3.84588
1.74191 1.7268 3.50726
4.53338 -0.503515 9.22404
4.56315 -0.506011 9.32686
4.58204 -0.508262 9.44577
4.59281 -0.509759 9.54772
4.60463 -0.511153 9.65667
4.66824 -0.518045 10.0043
4.68011 -0.52035 10.1193
4.69705 -0.522496 10.2452
4.71604 -0.524555 10.3771
4.73913 -0.527424 10.522
4.80711 -0.534608 10.9177
4.83025 -0.537359 11.0706
4.84934 -0.54024 11.2145
4.87049 -0.542974 11.3684
4.97522 -0.554719 11.9978
5.17898 -0.578613 13.2968
5.21568 -0.583292 13.5227
5.24733 -0.587071 13.7415
5.2892 -0.592413 13.9903
5.45032 -0.609475 14.9385
5.48011 -0.613971 15.1764
5.52014 -0.619001 15.4462
5.56123 -0.624899 15.725
5.6126 -0.630256 16.0407
5.65786 -0.636845 16.3405
5.7083 -0.642068 16.6653
5.82189 -0.654086 17.2767
5.86735 -0.660261 17.6045
5.9282 -0.667691 17.9832
5.97172 -0.673761 18.318
4.53845 -0.436466 9.22701
4.55429 -0.437819 9.33892
4.58304 -0.439359 9.43874
4.59584 -0.440798 9.54468
4.61779 -0.441933 9.67155
4.62654 -0.443459 9.77152
4.64448 -0.444635 9.89542
4.66036 -0.445899 10.0133
4.70712 -0.448467 10.2471
4.7261 -0.450541 10.378
4.74104 -0.4517 10.5029
4.75599 -0.453845 10.6288
4.85526 -0.460505 11.1962
4.87434 -0.462386 11.3401
4.89448 -0.464149 11.492
5.03472 -0.473944 12.3222
5.06619 -0.477078 12.5171
5.08851 -0.478488 12.693
5.1139 -0.480766 12.8778
5.14746 -0.48371 13.0856
5.25805 -0.491756 13.695
5.2907 -0.494521 13.9148
5.32136 -0.49727 14.1357
5.36019 -0.499685 14.3795
5.38989 -0.502359 14.6053
5.42675 -0.505713 14.8531
5.52148 -0.512435 15.3486
5.56252 -0.515437 15.6203
5.60872 -0.519131 15.9131
5.65499 -0.523692 16.2148
5.78787 -0.535222 17.1301
5.83838 -0.539326 17.4629
4.53047 -0.385465 9.09129
4.54526 -0.386906 9.19722
4.56007 -0.387318 9.30513
4.57592 -0.387656 9.41803
4.61852 -0.389547 9.62976
4.63542 -0.390782 9.74967
4.65131 -0.391046 9.86757
4.6672 -0.392295 9.98649
4.68415 -0.393441 10.1124
4.69703 -0.393718 10.2293
4.73296 -0.394907 10.3531
4.74994 -0.39598 10.484
4.7659 -0.397095 10.6119
4.78699 -0.397978 10.7558
4.81012 -0.399759 10.9066
4.82717 -0.400712 11.0456
4.85032 -0.401463 11.1984
4.88839 -0.402373 11.3412
4.9075 -0.404195 11.4891
4.92766 -0.404929 11.6429
4.95396 -0.406386 11.8158
4.97824 -0.407886 11.9856
5.0005 -0.408414 12.1535
5.02891 -0.410665 12.3404
5.06909 -0.411354 12.4981
5.09856 -0.413488 12.6929
5.13007 -0.414534 12.8937
5.15551 -0.415709 13.0856
5.18299 -0.417811 13.2824
5.21562 -0.419621 13.4992
5.24827 -0.421401 13.7181
5.3714 -0.42639 14.3993
5.40622 -0.428816 14.6421
5.438 -0.430329 14.8789
5.47492 -0.43258 15.1337
5.81157 -0.448989 17.2137
5.86008 -0.452078 17.5474
4.53569 -0.306137 9.11308
4.54745 -0.30665 9.21401
4.56429 -0.306004 9.32589
4.58115 -0.306328 9.43979
4.59699 -0.306681 9.55169
4.60979 -0.306105 9.6586
4.64264 -0.30647 9.77037
4.65343 -0.306908 9.87631
4.67137 -0.306085 10.0002
4.68627 -0.306319 10.1201
4.69709 -0.306698 10.23
4.76698 -0.307062 10.6136
4.7911 -0.306873 10.7624
4.81217 -0.306785 10.9043
4.82819 -0.306797 11.0392
4.85235 -0.30652 11.194
4.95494 -0.30656 11.8033
4.98021 -0.307076 11.9721
5.0045 -0.306561 12.143
5.03185 -0.306915 12.3228
5.13094 -0.306931 12.8661
5.15738 -0.307122 13.057
5.18689 -0.307166 13.2578
5.21746 -0.307093 13.4666
5.25112 -0.307845 13.6873
5.28071 -0.307742 13.8982
5.32056 -0.308128 14.1439
5.44376 -0.307969 14.8351
5.47454 -0.308496 15.0709
5.51149 -0.307688 15.3296
5.55764 -0.308471 15.6163
5.59467 -0.308514 15.8851
5.90692 -0.309677 17.778
5.95959 -0.309443 18.1336
4.55546 -0.252691 9.21115
4.6605 -0.248861 9.8794
4.68453 -0.248849 10.0162
4.78122 -0.245694 10.6385
4.80331 -0.244548 10.7844
4.82135 -0.243517 10.9223
4.91772 -0.240983 11.5026
4.94911 -0.240281 11.6863
4.96826 -0.240029 11.8392
4.99764 -0.238326 12.023
5.02295 -0.237768 12.1968
5.179 -0.234005 13.1327
5.20141 -0.232252 13.3196
5.46459 -0.225468 14.9367
4.53059 -0.180488 9.08826
4.54132 -0.179059 9.18517
4.55918 -0.177384 9.29902
4.57705 -0.176694 9.41389
4.62166 -0.173558 9.62754
4.63751 -0.172881 9.74143
4.65849 -0.170986 9.87026
4.67134 -0.169322 9.98315
4.69132 -0.168412 10.113
4.70215 -0.166776 10.2239
4.72113 -0.164865 10.3538
4.75606 -0.164054 10.4775
4.77609 -0.162055 10.6133
4.79817 -0.160938 10.7572
4.81823 -0.158865 10.898
4.84036 -0.15766 11.0479
4.8625 -0.15544 11.1987
4.94488 -0.150836 11.648
4.96404 -0.148584 11.8009
4.99849 -0.146751 11.9936
5.01463 -0.144527 12.1445
5.05013 -0.142591 12.3442
5.23983 -0.128626 13.4978
5.27553 -0.126305 13.7235
4.72961 -0.111958 10.2799
4.88396 -0.0956326 11.2536
5.06765 -0.0766781 12.4061
5.5066 -0.0317876 15.1855
5.54765 -0.0277897 15.4572
4.53364 -0.0645473 9.08352
4.54842 -0.0620182 9.18738
4.56628 -0.0593432 9.30122
4.57907 -0.0577977 9.40612
4.59492 -0.0551508 9.51798
4.61079 -0.0524447 9.63383
4.63955 -0.0499702 9.73459
4.65646 -0.0472056 9.85444
4.67336 -0.0444411 9.97429
4.69029 -0.0416322 10.0971
4.70724 -0.0387788 10.223
4.72722 -0.0358536 10.3538
4.77711 -0.0301882 10.6034
4.80022 -0.0270283 10.7502
4.82231 -0.0238974 10.895
4.84136 -0.0208382 11.0348
4.86146 -0.017691 11.1806
4.88259 -0.0144853 11.3305
4.9459 -0.0070005 11.6359
4.96811 -0.00363269 11.7967
4.99541 -9.08917e-05 11.9695
5.01564 0.00430786 12.1323
5.05217 0.00828718 12.335
5.07038 0.0116579 12.4958
5.10186 0.0165371 12.6915
5.20414 0.0288731 13.2587
5.23981 0.0341343 13.4803
5.26631 0.0390468 13.6781
5.30714 0.04463 13.9217
5.33473 0.0487343 14.1325
5.48566 0.0692321 15.0502
5.52156 0.0749522 15.3029
5.56875 0.0822118 15.5924
5.61904 0.0886766 15.896
5.66938 0.095245 16.2066
5.9758 0.139363 18.1179
4.53741 -0.00109016 9.04654
4.54917 0.00139678 9.14743
4.56398 0.00497023 9.25428
4.57982 0.00761708 9.36614
4.59973 0.0113941 9.48695
4.61357 0.0140276 9.59782
4.62944 0.0177336 9.71366
4.65925 0.0202962 9.82042
4.68024 0.0242354 9.95222
4.69208 0.0278702 10.0631
4.70903 0.0307236 10.1889
4.73107 0.0347508 10.3267
4.74702 0.0386048 10.4526
4.76708 0.0426631 10.5924
4.8221 0.0506059 10.8609
4.84626 0.0548537 11.0137
4.8684 0.0590882 11.1655
4.8865 0.0632368 11.3113
4.90664 0.0674431 11.4611
4.93392 0.0719552 11.6318
4.97203 0.076104 11.7785
4.9953 0.0815744 11.9463
5.02875 0.086393 12.138
5.05408 0.0919952 12.3147
5.07638 0.0965258 12.4865
5.11094 0.10258 12.6942
5.13226 0.107156 12.869
5.16279 0.113139 13.0717
5.24079 0.124961 13.468
5.27343 0.131165 13.6857
5.31427 0.137748 13.9293
5.34698 0.144085 14.156
5.37768 0.150409 14.3817
5.48676 0.170294 15.0537
5.52779 0.178262 15.3233
5.68182 0.204964 16.2549
5.9884 0.260377 18.186
4.54794 0.0738566 9.11036
4.55766 0.0772561 9.20525
4.64676 0.0962455 9.74838
4.66467 0.100009 9.8682
4.68463 0.10489 9.996
4.76837 0.122158 10.4902
4.78941 0.127186 10.628
4.81049 0.132287 10.7708
4.82749 0.136244 10.9036
4.84961 0.141434 11.0524
4.95415 0.163256 11.6523
4.97942 0.16874 11.8211
5.00266 0.175151 11.9848
5.18291 0.213218 13.0771
5.45808 0.275868 14.8203
5.72929 0.428482 16.5602
4.56253 0.19284 9.1765
5.60992 1.00028 15.6596
5.90062 1.2677 17.4537
6.05071 1.34544 18.3875
6.09735 1.37456 18.7348
5.79968 1.30199 16.7938
5.90584 1.36199 17.4732
5.94928 1.38973 17.7945
6.13545 1.48556 18.8709
5.32231 1.14051 13.8384
5.35397 1.16071 14.0559
5.38566 1.18199 14.2784
5.47003 1.22351 14.7222
5.51406 1.24945 14.9895
5.5561 1.2744 15.2578
5.59103 1.29814 15.5123
5.63618 1.32531 15.7956
5.67734 1.35249 16.0789
5.71644 1.37857 16.3562
5.93713 1.49933 17.631
4.98854 1.01884 11.7544
5.03465 1.04692 12.0317
5.05385 1.06226 12.1903
5.08123 1.07993 12.3719
5.1066 1.09859 12.5525
5.23436 1.17375 13.3105
5.27109 1.19708 13.5369
5.30375 1.21831 13.7564
5.34053 1.24175 13.9898
5.46887 1.31309 14.6929
5.51497 1.34115 14.9691
5.55601 1.3681 15.2375
5.59911 1.39517 15.5138
5.63613 1.42208 15.7791
5.67728 1.45024 16.0614
5.71949 1.47953 16.3527
5.85797 1.56507 17.2045
4.80422 0.980644 10.6532
4.82326 0.994658 10.7899
5.07082 1.15503 12.3099
5.27686 1.28152 13.4986
5.31153 1.30475 13.718
5.35135 1.33027 13.9574
5.38302 1.3535 14.1768
5.41269 1.37675 14.3973
5.45465 1.40354 14.6546
5.50481 1.43371 14.9378
5.7784 1.61007 16.5934
4.47694 0.833983 8.63758
4.63572 0.933096 9.52904
4.64753 0.944656 9.6348
4.65731 0.955188 9.73858
4.68407 0.966634 9.83722
4.69589 0.978238 9.94598
4.70979 0.990974 10.0637
4.99083 1.18219 11.777
5.01206 1.20057 11.9386
5.04248 1.22132 12.1251
5.0729 1.24208 12.3126
5.10337 1.26393 12.506
5.13488 1.28583 12.7035
5.17253 1.31003 12.9209
5.2505 1.35476 13.3107
5.32191 1.40437 13.7595
5.3597 1.43083 13.9948
5.39447 1.45725 14.2272
5.4262 1.48261 14.4546
5.05354 1.30433 12.1258
5.08498 1.32612 12.3152
5.11848 1.35001 12.5116
5.14894 1.37284 12.7041
5.18048 1.39581 12.9056
5.20284 1.41744 13.0841
5.23542 1.4415 13.2915
5.47491 1.60577 14.6695
5.82728 1.87637 16.9511
4.48277 0.957491 8.6037
4.49245 0.968801 8.69248
4.88781 1.26528 11.1024
4.90997 1.28452 11.255
4.9291 1.3027 11.4026
4.95843 1.32427 11.5771
5.01511 1.36745 11.9291
5.21993 1.51249 13.0876
5.65999 1.85817 15.8505
4.77351 1.25095 10.4004
4.79558 1.269 10.54
4.81258 1.28595 10.6716
4.94422 1.38183 11.4113
4.97965 1.40658 11.5987
5.00389 1.42799 11.7622
5.08999 1.4979 12.2996
4.47572 1.07423 8.58503
4.50193 1.09557 8.74354
4.62154 1.19441 9.48027
4.6425 1.21126 9.60588
4.68344 1.245 9.86011
4.77633 1.3145 10.3695
4.79534 1.33245 10.5021
4.81743 1.35156 10.6456
4.83344 1.36951 10.7773
4.86166 1.39087 10.9378
4.88585 1.41216 11.0933
4.90902 1.43242 11.2468
4.9471 1.45249 11.3883
5.00677 1.50066 11.7391
4.47876 1.12524 8.58525
4.70023 1.31645 9.95794
4.84441 1.43036 10.7673
4.88457 1.46953 11.0504
4.91587 1.49405 11.2219
4.47551 1.18967 8.54631
4.51444 1.2264 8.79951
4.60544 1.3031 9.32276
4.62333 1.31982 9.4394
4.64226 1.33761 9.56101
4.66118 1.35539 9.68162
4.68114 1.37324 9.80722
4.71907 1.40997 10.0604
4.75604 1.42982 10.1869
4.77706 1.44978 10.3204
4.80218 1.47096 10.468
4.82019 1.49091 10.6005
4.84026 1.51097 10.7401
4.44568 1.22005 8.30005
4.46547 1.23557 8.40369
4.47411 1.24881 8.48744
4.49901 1.26653 8.60501
4.5097 1.27987 8.69574
4.52168 1.29877 8.82439
4.65555 1.41707 9.59174
4.71744 1.47464 9.97047
4.73031 1.49132 10.0841
4.75233 1.51229 10.2177
4.7764 1.53435 10.3582
4.79642 1.55432 10.4918
4.44875 1.26513 8.30537
4.45841 1.27839 8.39111
4.48127 1.29605 8.50369
4.49399 1.31044 8.59839
4.51079 1.32699 8.70304
4.71459 1.52786 9.9847
4.7356 1.54881 10.1173
4.75764 1.56982 10.2538
4.77971 1.59188 10.3933
4.81669 1.61376 10.5217
4.39186 1.27247 7.92063
4.40552 1.28674 8.00733
4.41313 1.29891 8.0861
4.42883 1.31426 8.17777
4.44862 1.33078 8.28139
4.4684 1.34829 8.384
4.51594 1.40218 8.71589
4.59365 1.48133 9.2012
4.61152 1.5 9.3148
4.75693 1.63834 10.1528
4.78405 1.66249 10.2992
4.80611 1.68553 10.4377
4.1869 1.20006 6.73709
4.20045 1.21213 6.80981
4.27367 1.28232 7.23028
4.28017 1.29229 7.29609
4.35466 1.36901 7.75246
4.41038 1.42824 8.10721
3.99113 1.06116 5.45344
3.9884 1.06668 5.48838
3.9988 1.07545 5.54118
4.01125 1.0863 5.59894
4.01156 1.09191 5.63986
4.02198 1.10172 5.69464
4.02836 1.11045 5.74447
4.04167 1.11805 5.78526
4.05109 1.12685 5.84007
4.06153 1.1367 5.89785
4.06691 1.14544 5.94769
4.07838 1.15533 6.00846
4.08883 1.1662 6.06723
4.09727 1.17605 6.12503
4.11162 1.18371 6.16982
4.10891 1.19028 6.20874
4.12345 1.20231 6.27847
4.12481 1.21002 6.32635
4.13732 1.22198 6.39209
4.14577 1.23187 6.45189
4.15526 1.24281 6.51566
4.17164 1.25253 6.5654
4.17708 1.26137 6.62224
4.18962 1.27441 6.69296
4.19709 1.28433 6.75476
4.2076 1.29631 6.82152
4.2151 1.30726 6.88631
4.24103 1.32905 7.00781
4.25664 1.34322 7.08749
4.26821 1.35632 7.16222
4.28281 1.36947 7.23992
4.28323 1.37929 7.29578
4.29685 1.39348 7.37648
4.30642 1.40557 7.45024
4.35316 1.44692 7.67831
4.36478 1.46111 7.75902
4.37741 1.47533 7.84173
3.88117 1.00854 4.79996
3.88547 1.01512 4.83883
3.89988 1.02489 4.89159
3.89711 1.02935 4.92254
3.90141 1.03593 4.96142
3.96415 1.09919 5.31906
3.97571 1.11228 5.39279
3.9841 1.12102 5.4436
3.99148 1.12976 5.49343
3.99988 1.13952 5.54523
4.00726 1.14825 5.59505
4.02406 1.1668 5.69966
4.03131 1.17228 5.73253
4.0458 1.18421 5.79625
4.06534 1.19724 5.86592
4.06669 1.20491 5.9118
4.07309 1.21469 5.96462
4.07647 1.22342 6.01347
4.08793 1.23431 6.07423
4.10126 1.24194 6.11702
4.10363 1.25066 6.16588
4.11512 1.2626 6.22963
4.12155 1.27242 6.28544
4.13305 1.28337 6.3502
4.1476 1.29743 6.4219
4.18195 1.33002 6.59818
4.18434 1.33879 6.65004
4.19892 1.3529 6.72573
4.2064 1.36383 6.78852
4.21389 1.37477 6.85231
4.22241 1.38777 6.92006
4.24389 1.39968 6.98273
4.25849 1.41383 7.06043
4.26802 1.42686 7.13017
4.27554 1.43886 7.19795
3.86957 1.04132 4.71655
3.86982 1.04681 4.74947
3.87815 1.05444 4.7923
3.88346 1.06103 4.83217
3.90229 1.08164 4.94173
3.91771 1.09143 4.99548
3.92101 1.09901 5.03535
3.93239 1.10775 5.08514
3.94278 1.11749 5.13593
3.94912 1.12514 5.17977
3.95142 1.13271 5.21865
3.96976 1.14137 5.26339
3.96903 1.14688 5.29832
3.96326 1.15133 5.3283
3.98073 1.16424 5.38998
3.98506 1.17187 5.43284
3.99244 1.1806 5.48267
4.00083 1.19035 5.53346
4.00923 1.19911 5.58528
4.01746 1.20557 5.61613
4.03294 1.21749 5.67884
4.03426 1.22511 5.72072
4.04267 1.23489 5.77352
4.0602 1.24789 5.84221
4.06355 1.25659 5.88906
4.07889 1.26523 5.93282
4.09068 1.28374 6.03547
4.10013 1.29461 6.09425
4.10553 1.30439 6.14707
4.11397 1.31524 6.20486
4.12343 1.3261 6.26363
4.1476 1.35536 6.41704
4.15 1.36413 6.4689
4.16556 1.3782 6.54158
4.18416 1.39335 6.62023
4.20075 1.40848 6.69689
4.22057 1.42906 6.80445
4.25662 1.479 7.07148
4.27021 1.49313 7.14818
3.78528 0.994004 4.1518
3.7956 1.00162 4.19362
3.79583 1.00605 4.22256
3.80233 1.01802 4.28834
3.81972 1.02876 4.33906
3.82286 1.03204 4.35799
3.83871 1.05167 4.46859
3.84198 1.05818 4.50348
3.85029 1.06578 4.54431
3.85357 1.07231 4.58019
3.86581 1.07978 4.61199
3.9047 1.12542 4.85906
3.92584 1.15361 5.0075
3.93926 1.16439 5.06125
3.93851 1.1699 5.09518
3.94587 1.17857 5.141
4.02768 1.27391 5.63904
4.0536 1.29766 5.75851
4.05595 1.30634 5.80437
4.09557 1.34743 6.01449
4.09388 1.35504 6.0554
4.11583 1.37886 6.1789
4.17111 1.43824 6.47664
3.59158 0.848189 3.00926
3.68293 0.951553 3.57712
3.69531 0.962283 3.62688
3.70861 0.96985 3.66567
3.69872 0.971079 3.68073
3.7114 0.987386 3.76941
3.7238 0.998146 3.82116
3.72702 1.00357 3.85006
3.73126 1.00903 3.88095
3.73752 1.01553 3.91481
3.73873 1.01994 3.94274
3.75003 1.02851 3.98154
3.75629 1.03501 4.0154
3.76346 1.04033 4.03727
3.76165 1.0437 4.06223
3.76288 1.04914 4.09215
3.77721 1.05878 4.1359
3.78046 1.06425 4.1678
3.78875 1.07182 4.20663
3.78594 1.07619 4.23159
3.79917 1.08263 4.2614
3.81353 1.0933 4.30714
3.8077 1.09564 4.33016
3.81499 1.1032 4.36799
3.82632 1.11283 4.41077
3.82454 1.11726 4.43972
3.83386 1.12586 4.48053
3.85215 1.1344 4.51827
3.84532 1.13775 4.54128
3.8496 1.14429 4.57815
3.85893 1.15292 4.62096
3.86625 1.16152 4.66178
3.86548 1.16698 4.69271
3.87684 1.17667 4.73949
3.89414 1.18623 4.77822
3.89339 1.19172 4.81115
3.89667 1.19827 4.84804
3.90097 1.20583 4.8859
3.90326 1.21339 4.92377
3.90655 1.21996 4.96266
3.91894 1.23069 5.01241
3.93726 1.2403 5.05414
3.94259 1.24893 5.09698
3.94387 1.25548 5.13387
3.95122 1.26515 5.17968
3.96262 1.27591 5.23144
3.96291 1.28247 5.26935
3.96824 1.29112 5.31319
3.9876 1.3018 5.35989
3.99193 1.31043 5.40274
3.99627 1.31908 5.44658
4.01376 1.33302 5.51025
4.01002 1.33852 5.5442
4.01537 1.3482 5.59003
4.02478 1.35899 5.6438
4.0391 1.3686 5.68556
4.04346 1.37728 5.7314
4.05085 1.38804 5.7832
4.05624 1.39778 5.83302
4.07072 1.41071 5.89673
4.07915 1.42252 5.9515
4.08352 1.43224 6.00033
4.09482 1.44081 6.03912
4.10528 1.4527 6.09987
4.11069 1.46348 6.15268
4.12216 1.47639 6.21441
3.59582 0.899595 3.03648
3.60505 0.906032 3.06631
3.60522 0.909357 3.08827
3.60538 0.912668 3.10922
3.60857 0.917035 3.13413
3.6168 0.923473 3.16398
3.61898 0.927826 3.1879
3.63216 0.933156 3.21073
3.6414 0.940623 3.24255
3.64863 0.946061 3.27242
3.74826 1.06395 3.87601
3.75351 1.07043 3.90888
3.75876 1.0769 3.94075
3.76199 1.08236 3.97165
3.80936 1.14391 4.28042
3.82272 1.1546 4.32717
3.81992 1.15898 4.35313
3.82318 1.16548 4.38701
3.83452 1.17512 4.43079
3.84901 1.18806 4.4945
3.91529 1.27637 4.92275
3.92062 1.28499 4.96459
3.9392 1.30111 5.04122
3.94454 1.31076 5.08504
3.94986 1.31938 5.12688
3.94913 1.32489 5.16181
3.95548 1.33457 5.20763
3.96992 1.3474 5.26434
4.0295 1.41936 5.60087
3.52376 0.842731 2.50279
3.54545 0.880998 2.72409
3.55264 0.886363 2.74896
3.56084 0.891741 2.77482
3.56603 0.896092 2.79872
3.56215 0.898332 2.81472
3.81139 1.1929 4.27968
3.93739 1.3594 5.06037
3.93464 1.36588 5.0923
3.31612 0.668122 1.23876
3.32569 0.678225 1.31355
3.32379 0.679419 1.32655
3.32388 0.680611 1.33953
3.32198 0.68179 1.35153
3.3281 0.685022 1.36744
3.34326 0.690322 1.38825
3.33929 0.690384 1.39228
3.33337 0.690551 1.40332
3.35296 0.703675 1.47999
3.35502 0.704792 1.48796
3.4478 0.807999 2.11282
3.44597 0.811341 2.13579
3.45716 0.816687 2.15963
3.53887 0.907815 2.64373
3.53398 0.909041 2.65875
3.53815 0.913363 2.68066
3.55039 0.920813 2.71146
3.54248 0.921996 2.7235
3.54665 0.926333 2.74641
3.55184 0.930684 2.77031
3.56601 0.936999 2.79211
3.55609 0.937169 2.80319
3.57437 0.946688 2.83891
3.56762 0.951196 2.8729
3.57498 0.959886 2.91972
3.58111 0.964118 2.93562
3.5853 0.968484 2.96052
3.58647 0.972809 2.98245
3.59585 0.982541 3.03225
3.60424 0.993289 3.08303
3.62447 1.00172 3.11276
3.61254 1.00187 3.12285
3.62899 1.01474 3.18154
3.63035 1.02241 3.22742
3.63455 1.02781 3.25432
3.6469 1.03848 3.30007
3.65816 1.04596 3.33288
3.65028 1.0472 3.34892
3.65247 1.05257 3.37383
3.66676 1.06112 3.4116
3.66896 1.06651 3.43751
3.67748 1.08051 3.50525
3.68976 1.08904 3.54203
3.68995 1.0934 3.56597
3.68711 1.09673 3.58795
3.69335 1.10318 3.61881
3.70656 1.11057 3.6456
3.70373 1.1139 3.66758
3.71098 1.12138 3.70042
3.72227 1.12993 3.73821
3.71238 1.13115 3.75227
3.71762 1.13762 3.78414
3.73396 1.14826 3.82786
3.73507 1.15148 3.84281
3.7383 1.15792 3.87269
3.75768 1.16963 3.92138
3.7488 1.17087 3.93743
3.75304 1.17834 3.96929
3.76536 1.18794 4.01006
3.75952 1.19125 4.03106
3.76973 1.19765 4.05789
3.78608 1.20831 4.10362
3.77924 1.21163 4.12462
3.78046 1.21706 4.15354
3.7938 1.22771 4.19829
3.79605 1.23418 4.23018
3.79829 1.24064 4.26107
3.80849 1.24703 4.2879
3.80872 1.25348 4.31781
3.82208 1.26416 4.36456
3.82837 1.27272 4.40239
3.8286 1.27816 4.43231
3.83996 1.28883 4.47807
3.85332 1.30052 4.52481
3.86252 1.30691 4.55165
3.86176 1.31237 4.58257
3.86807 1.32096 4.62241
3.87337 1.32954 4.66224
3.88069 1.33915 4.70305
3.88195 1.34565 4.73695
3.88928 1.35528 4.77976
3.90254 1.36477 4.81352
3.90886 1.37339 4.85535
3.91216 1.38196 4.89421
3.91949 1.39161 4.93802
3.91774 1.39808 4.96994
3.91801 1.40461 5.00584
3.97443 1.47624 5.3204
3.97977 1.48589 5.36423
3.45691 0.846166 2.12419
3.45805 0.849431 2.14213
3.46219 0.853694 2.16004
3.47338 0.859056 2.18488
3.47149 0.861279 2.19986
3.47155 0.862398 2.20785
3.79861 1.27127 4.1686
3.83415 1.31622 4.3687
3.91914 1.43485 4.88637
3.30895 0.731706 1.20987
3.31913 0.736053 1.23373
3.3122 0.736192 1.24278
3.31842 0.740616 1.27167
3.33488 0.752491 1.33138
3.32598 0.751705 1.34546
3.33914 0.757006 1.36629
3.3313 0.758323 1.38733
3.3304 0.759516 1.40032
3.3416 0.765892 1.42615
3.43216 0.869671 2.02201
