-1.12762 1.73588 4.74183
-1.14268 1.73477 4.73396
-1.15772 1.73371 4.72909
-1.18053 1.74408 4.75311
-1.18978 1.73361 4.72133
-1.20772 1.73773 4.7284
-1.22375 1.73768 4.72453
-1.23275 1.73869 4.72458
-1.24877 1.73967 4.72268
-1.2648 1.73962 4.71881
-1.27693 1.73438 4.70197
-1.29586 1.73953 4.71104
-1.31481 1.74363 4.71712
-1.32984 1.74358 4.71324
-1.33591 1.74045 4.70433
-1.35388 1.74351 4.70742
-1.36796 1.74137 4.69755
-1.38398 1.74134 4.69467
-1.40197 1.74337 4.69578
-1.41702 1.74329 4.68989
-1.43304 1.74326 4.68701
-1.44105 1.74323 4.68507
-1.45707 1.7442 4.68218
-1.48913 1.7451 4.67441
-1.50418 1.74403 4.66854
-1.52119 1.74501 4.66665
-1.62243 1.74461 4.63541
-1.72874 1.74306 4.59423
3.04443 1.73936 3.93524
3.02848 1.73848 3.94237
3.02465 1.74379 3.96332
3.01364 1.74178 3.96244
2.9896 1.73573 3.95771
2.9779 1.74533 3.99766
2.25101 1.74993 4.41312
0.550547 1.75602 4.88891
0.370674 1.75739 4.90625
0.304644 1.75438 4.90279
0.246668 1.75447 4.90622
0.230715 1.75657 4.91231
0.181731 1.75663 4.91468
0.140693 1.75459 4.91002
0.123725 1.75566 4.91413
0.0917488 1.75673 4.91736
0.0666874 1.75363 4.90959
0.0506646 1.7526 4.90673
0.0203773 1.7381 4.73715
0.00540095 1.73916 4.74025
-0.0106839 1.73501 4.72943
-0.0346676 1.73605 4.73159
-0.0506439 1.73711 4.7347
-0.0666277 1.73815 4.7368
-0.0817359 1.73295 4.72299
-0.0976658 1.7361 4.73207
-0.113696 1.73505 4.7282
-0.130556 1.74233 4.74622
-0.137734 1.734 4.7234
-0.152718 1.73404 4.72551
-0.169647 1.73818 4.73458
-0.18467 1.73715 4.73171
-0.200732 1.73404 4.72387
-0.2238 1.73192 4.71508
-0.255768 1.73401 4.71929
-0.271791 1.73297 4.71642
-0.302789 1.734 4.71664
-0.358803 1.73401 4.71506
-1.37836 1.72364 4.51287
-1.46349 1.72644 4.49547
-1.46957 1.72329 4.48556
-1.48459 1.72426 4.48266
-1.50256 1.72733 4.48675
-1.53362 1.72824 4.47897
-1.56466 1.72917 4.47319
-1.56779 1.72392 4.45628
-1.58378 1.72595 4.45737
-1.59884 1.72485 4.4505
-1.61778 1.72997 4.45757
-1.62696 1.72264 4.43475
-1.6498 1.73295 4.45477
-1.66796 1.72765 4.43398
-1.67809 1.72241 4.41713
-1.69314 1.72233 4.41125
-1.7111 1.7254 4.41534
-1.73104 1.73153 4.4234
-1.75018 1.72727 4.4046
-1.76129 1.72307 4.39075
-1.77927 1.72713 4.39382
-1.79529 1.72808 4.38993
-1.81818 1.73632 4.40498
-1.81655 1.71861 4.35722
-1.84236 1.73098 4.38124
-1.8386 1.71952 4.35037
-1.85854 1.72465 4.35845
-1.86867 1.72039 4.34059
-1.88959 1.72656 4.35066
-1.89875 1.72027 4.33081
-1.91575 1.72226 4.32991
-1.93373 1.72632 4.33299
-1.93977 1.72525 4.32805
-1.95579 1.72722 4.32514
-1.97083 1.72714 4.31925
-1.98685 1.72811 4.31636
-1.99795 1.72492 4.30349
-2.01397 1.72689 4.30058
-2.01119 1.71647 4.27271
-2.05305 1.72877 4.29085
-2.06711 1.72866 4.28295
-2.07722 1.72445 4.26809
-2.09522 1.72746 4.26818
-2.09648 1.71596 4.23435
-2.12319 1.73252 4.27132
-2.12544 1.72205 4.23948
-2.14637 1.7282 4.24855
-2.16536 1.73223 4.24963
-2.18138 1.7332 4.24674
-2.18658 1.72582 4.22089
-2.20555 1.72987 4.22397
-2.20865 1.7257 4.21205
-2.2407 1.72862 4.20525
-2.24983 1.72437 4.18838
-2.2688 1.72843 4.19146
-2.27891 1.72523 4.17758
-2.2979 1.72926 4.17867
-2.30197 1.72713 4.16973
-2.32096 1.73016 4.17083
-2.3281 1.72488 4.15196
-2.34907 1.72996 4.15604
-2.3762 1.72873 4.13926
-2.3773 1.72453 4.12633
-2.40738 1.72638 4.11453
-2.44264 1.72092 4.08187
-2.49677 1.72569 4.0642
-2.5128 1.72663 4.05931
-2.52191 1.72342 4.04542
-2.54189 1.72747 4.04751
-2.56297 1.72832 4.03666
-2.57309 1.72511 4.02178
-2.59009 1.7281 4.02086
-2.61623 1.72686 4.00308
-2.69058 1.72621 3.95664
2.99748 1.74052 3.80856
2.97848 1.73655 3.80976
2.9605 1.73359 3.81194
2.94959 1.73477 3.824
2.93869 1.73697 3.83705
2.94082 1.74222 3.85396
2.90485 1.73631 3.85832
2.89394 1.7375 3.87039
2.88809 1.74279 3.89036
2.86908 1.73879 3.88956
2.85313 1.7379 3.89569
2.8502 1.74003 3.90469
2.8403 1.74224 3.91873
2.82131 1.73827 3.91993
2.80837 1.7384 3.92803
2.79444 1.73854 3.93713
2.78758 1.74282 3.95512
2.76857 1.73883 3.95533
2.76767 1.74302 3.96827
2.75172 1.74212 3.97441
2.73372 1.73914 3.97459
2.72079 1.73929 3.98468
2.7109 1.74151 3.99873
2.70101 1.74472 4.01275
2.69202 1.74374 4.01384
2.67604 1.74182 4.01799
2.6611 1.74093 4.02511
2.64918 1.7421 4.03619
2.60634 1.74144 4.05752
2.59937 1.74151 4.06157
2.57453 1.74384 4.08273
2.55653 1.74085 4.08291
2.54664 1.74308 4.09795
2.52967 1.74114 4.10111
2.51876 1.74332 4.11316
2.51483 1.74546 4.12216
2.49785 1.74352 4.12532
2.48796 1.74673 4.13935
2.45906 1.74596 4.15358
2.44513 1.7471 4.16267
2.26085 1.74864 4.25905
1.14781 1.7542 4.65541
1.12282 1.75325 4.65761
1.10682 1.75226 4.65774
1.0759 1.75343 4.66796
1.03593 1.75252 4.67227
1.02095 1.75257 4.67539
1.00497 1.75161 4.67752
0.957005 1.75072 4.6829
0.934067 1.75186 4.69105
0.902082 1.75091 4.69331
0.886089 1.74994 4.69444
0.871136 1.75104 4.70054
0.854082 1.74795 4.69372
0.84612 1.74903 4.69876
0.830097 1.74699 4.69591
0.816221 1.75224 4.71194
0.798151 1.74812 4.70314
0.784213 1.75025 4.71121
0.766143 1.74613 4.70241
0.75226 1.75136 4.71744
0.743213 1.74828 4.71155
0.726174 1.74522 4.70672
0.713306 1.75148 4.72373
0.698391 1.75465 4.73479
0.681352 1.75159 4.72997
0.663236 1.74538 4.71519
0.655244 1.7454 4.71625
0.640305 1.74753 4.72434
0.625345 1.74962 4.72942
0.609391 1.75072 4.73552
0.593329 1.74661 4.7277
0.576259 1.74249 4.71889
0.561376 1.74772 4.73393
0.552306 1.7446 4.72504
0.537329 1.74465 4.72816
0.521399 1.74779 4.73723
0.505345 1.7447 4.7304
0.488299 1.74163 4.72457
0.472307 1.74165 4.72569
0.457299 1.74065 4.72482
0.449353 1.74276 4.73185
0.434493 1.75004 4.74985
0.418447 1.74696 4.74402
0.401369 1.74282 4.73421
0.386463 1.74701 4.74626
0.370385 1.74288 4.73644
0.355525 1.74915 4.75446
0.346455 1.74503 4.74559
0.331479 1.74608 4.74869
0.314324 1.7378 4.72894
0.298371 1.7409 4.73501
0.282364 1.7399 4.73415
0.267457 1.74408 4.7462
0.258372 1.73993 4.73533
0.243395 1.74098 4.73843
0.227442 1.74308 4.74452
0.211481 1.74417 4.74962
0.195396 1.74002 4.7388
0.179358 1.73796 4.73395
0.163443 1.74213 4.74501
0.155343 1.73694 4.73215
0.139405 1.74007 4.74022
0.124436 1.74114 4.74432
0.108444 1.74117 4.74544
0.0923985 1.73909 4.73959
0.0765156 1.74533 4.75462
0.0682831 1.73389 4.72485
0.0524925 1.7433 4.75183
0.0364465 1.74122 4.74598
0.0303404 1.74105 4.59901
0.0222547 1.73589 4.58815
0.00725512 1.7359 4.58826
-0.00858882 1.74421 4.60826
-0.0237283 1.73696 4.59048
-0.0397197 1.73798 4.59158
-0.0547036 1.73902 4.59368
-0.0697502 1.73595 4.58784
-0.0777343 1.73698 4.58988
-0.0936793 1.7401 4.59696
-0.108803 1.73387 4.58116
-0.123818 1.73385 4.57928
-0.139748 1.737 4.58835
-0.154824 1.73386 4.57851
-0.169785 1.73594 4.58359
-0.177785 1.73595 4.58365
-0.192838 1.73386 4.5768
-0.207854 1.73284 4.57492
-0.223806 1.73594 4.581
-0.238837 1.73389 4.57714
-0.253875 1.73283 4.57227
-0.261859 1.73386 4.57431
-0.276897 1.7318 4.56946
-0.291951 1.72971 4.5626
-0.306958 1.7297 4.56171
-0.323848 1.73592 4.57575
-0.337972 1.7297 4.55995
-0.353848 1.73595 4.57598
-0.37604 1.72759 4.55126
-0.391978 1.73072 4.55934
-0.406054 1.72758 4.54949
-0.422053 1.7286 4.5496
-0.437076 1.72756 4.54672
-0.453029 1.73066 4.5528
-0.460052 1.72962 4.54987
-0.476004 1.73272 4.55594
-0.52204 1.73268 4.55129
-0.559162 1.72847 4.53563
-0.604199 1.72843 4.53097
-0.816441 1.7281 4.49957
-0.935681 1.72371 4.46853
-1.11594 1.72532 4.43486
-1.19105 1.72716 4.42039
-1.21019 1.7219 4.40261
-1.29331 1.72371 4.38621
-1.30832 1.72471 4.38531
-1.32529 1.72777 4.38839
-1.35144 1.7235 4.36965
-1.36551 1.72137 4.35978
-1.38052 1.72236 4.35888
-1.38949 1.72443 4.36292
-1.41759 1.72326 4.35015
-1.43262 1.72319 4.34526
-1.44665 1.72314 4.34137
-1.46365 1.72516 4.34147
-1.47261 1.72824 4.34649
-1.48373 1.72302 4.33165
-1.49973 1.72502 4.33074
-1.51769 1.72911 4.33581
-1.53075 1.728 4.32793
-1.54286 1.7238 4.31408
-1.56083 1.72787 4.31815
-1.5649 1.72473 4.30823
-1.5819 1.72675 4.30933
-1.59691 1.72773 4.30743
-1.60704 1.72249 4.29058
-1.62207 1.72344 4.28668
-1.64102 1.72754 4.29276
-1.65605 1.7285 4.28886
-1.6621 1.72741 4.28292
-1.67908 1.73045 4.285
-1.69312 1.73037 4.27911
-1.70325 1.72515 4.26326
-1.72025 1.72716 4.26336
-1.73526 1.72914 4.26144
-1.74032 1.72702 4.25351
-1.75437 1.72593 4.24663
-1.76646 1.72378 4.23575
-1.78346 1.72577 4.23485
-1.79749 1.72673 4.23094
-1.81351 1.72771 4.22905
-1.82951 1.7297 4.22814
-1.83457 1.72759 4.22021
-1.84764 1.72647 4.21132
-1.86169 1.72639 4.20543
-1.87573 1.72631 4.19953
-1.89274 1.72831 4.19863
-1.90384 1.72512 4.18576
-1.91885 1.7261 4.18386
-1.9249 1.725 4.17692
-1.93992 1.72597 4.17402
-1.95594 1.72795 4.17211
-1.9749 1.73203 4.17619
-1.98894 1.73296 4.17128
-1.99907 1.72872 4.15442
-2.0131 1.72867 4.15053
-2.02308 1.7307 4.15257
-2.03418 1.72854 4.14069
-2.04724 1.72843 4.13278
-2.06227 1.72836 4.1279
-2.09936 1.73021 4.11615
-2.1245 1.72796 4.09837
-2.25697 1.72913 4.03634
2.81494 1.73458 3.73801
2.81403 1.73876 3.74996
0.946876 1.74951 4.53297
0.901968 1.75072 4.54529
0.87796 1.74872 4.5445
0.862991 1.74979 4.5486
0.832022 1.74887 4.55285
0.785029 1.74692 4.55423
0.77913 1.75112 4.56722
0.764145 1.75116 4.56933
0.748122 1.74913 4.56648
0.717169 1.75024 4.5727
0.702184 1.75028 4.57481
0.663184 1.74731 4.57515
0.648254 1.75045 4.58421
0.632184 1.74633 4.57539
0.616184 1.74534 4.57553
0.600168 1.74432 4.57367
0.586238 1.74747 4.58273
0.563316 1.75063 4.59285
0.532324 1.74967 4.5941
0.514138 1.73933 4.57039
0.501309 1.74766 4.59236
0.492239 1.74354 4.58349
0.478339 1.74774 4.59654
0.463332 1.74773 4.59565
0.44627 1.74363 4.58784
0.43234 1.74677 4.5969
0.416348 1.7468 4.59802
0.400302 1.74372 4.59218
0.393333 1.74579 4.59621
0.377341 1.74581 4.59733
0.36238 1.7469 4.60242
0.345232 1.73863 4.58367
0.331411 1.74798 4.60664
0.315287 1.74075 4.59087
0.308404 1.74698 4.60583
0.292373 1.74493 4.60198
0.277389 1.74597 4.60408
0.260242 1.73771 4.58533
0.246389 1.745 4.60432
0.230305 1.74085 4.59351
0.214266 1.73878 4.58866
0.191305 1.73987 4.59381
0.176321 1.74091 4.59591
0.16143 1.74613 4.60995
0.14533 1.74095 4.59715
0.130306 1.73892 4.59429
0.115361 1.74203 4.60136
0.107392 1.7431 4.6054
0.0913073 1.73895 4.59458
0.0764552 1.74624 4.61359
0.060285 1.73793 4.59183
0.0453162 1.739 4.59593
0.0314005 1.7422 4.47397
0.0163545 1.74012 4.46811
0.00144025 1.74429 4.47916
-0.013676 1.73808 4.46437
-0.0216287 1.74118 4.47038
-0.0357607 1.73394 4.45359
-0.0508224 1.73083 4.44575
-0.066682 1.73811 4.46377
-0.0807827 1.73293 4.45095
-0.0957741 1.73395 4.45204
-0.111673 1.73915 4.46509
-0.118703 1.7381 4.46116
-0.133648 1.74121 4.46823
-0.148726 1.73708 4.4584
-0.163741 1.73606 4.45653
-0.178748 1.73606 4.45564
-0.192856 1.73086 4.44182
-0.20077 1.73603 4.45281
-0.215801 1.73398 4.44895
-0.22994 1.72772 4.43115
-0.245799 1.735 4.44916
-0.259853 1.73291 4.4423
-0.273946 1.72774 4.43048
-0.290766 1.73809 4.45345
-0.296937 1.72877 4.43163
-0.312843 1.73396 4.44368
-0.326943 1.72978 4.43085
-0.341904 1.73186 4.43593
-0.356012 1.72667 4.42211
-0.372825 1.73703 4.44609
-0.386933 1.73184 4.43227
-0.393065 1.72459 4.41542
-0.408963 1.73079 4.42845
-0.424915 1.73389 4.43452
-0.438008 1.72973 4.42268
-0.452093 1.72557 4.41185
-0.467123 1.72453 4.40798
-0.475068 1.72764 4.41499
-0.49009 1.7276 4.4121
-0.505035 1.73072 4.41917
-0.51912 1.72756 4.40832
-0.535049 1.73171 4.41738
-0.548173 1.72548 4.40157
-0.563203 1.72443 4.3977
-0.587108 1.73063 4.40979
-0.632137 1.7316 4.40611
-0.660228 1.72844 4.39437
-0.680351 1.72322 4.3786
-0.71131 1.72732 4.38377
-0.740394 1.72418 4.37304
-0.756323 1.72932 4.38208
-0.763361 1.72725 4.37716
-0.778384 1.72722 4.37428
-0.792398 1.7272 4.37238
-0.821466 1.72609 4.36362
-0.834558 1.72192 4.35178
-0.842527 1.72399 4.35581
-0.871564 1.72393 4.35102
-0.88657 1.72493 4.35012
-0.900639 1.72281 4.34126
-0.91949 1.7321 4.36027
-0.929683 1.72274 4.33548
-0.93669 1.72273 4.33453
-0.951713 1.72269 4.33164
-0.965735 1.72266 4.32875
-0.980749 1.72364 4.32685
-1.00884 1.72048 4.3151
-1.03282 1.72355 4.31824
-1.0449 1.72039 4.30738
-1.06187 1.72346 4.31146
-1.07685 1.7265 4.31353
-1.08993 1.72335 4.30267
-1.11099 1.72226 4.29585
-1.13907 1.72012 4.28509
-1.15894 1.72837 4.30112
-1.16908 1.72311 4.28327
-1.18508 1.72412 4.28337
-1.19913 1.72305 4.2775
-1.20516 1.72299 4.27354
-1.22212 1.72608 4.27862
-1.2352 1.72292 4.26777
-1.24824 1.72286 4.26287
-1.26133 1.71969 4.25101
-1.27827 1.72381 4.25808
-1.29329 1.72479 4.25618
-1.29835 1.72267 4.24824
-1.31241 1.72057 4.24038
-1.32839 1.72362 4.24346
-1.34438 1.72565 4.24455
-1.35938 1.72766 4.24463
-1.37538 1.72865 4.24373
-1.37752 1.72239 4.22584
-1.39645 1.72754 4.23491
-1.40951 1.72643 4.22702
-1.41963 1.72221 4.21216
-1.44149 1.73048 4.2292
-1.44965 1.72418 4.20836
-1.4598 1.7179 4.18952
-1.47367 1.72616 4.20651
-1.49552 1.73546 4.22554
-1.50466 1.7302 4.20768
-1.51968 1.73117 4.20478
-1.53078 1.72698 4.19192
-1.54972 1.7331 4.19898
-1.56081 1.72993 4.18711
-1.5649 1.72577 4.1762
-1.58188 1.72881 4.17828
-1.59689 1.72979 4.17638
-1.61191 1.73178 4.17446
-1.62105 1.7255 4.15562
-1.63902 1.72957 4.1597
-1.65011 1.7264 4.14782
-1.65908 1.72947 4.15185
-1.67313 1.72838 4.14497
-1.68619 1.72728 4.13808
-1.70318 1.73031 4.13917
-1.71524 1.72918 4.13027
-1.73322 1.73224 4.13336
-1.73434 1.72601 4.11746
-1.75035 1.729 4.11654
-1.76144 1.72583 4.10467
-1.77549 1.72575 4.09877
-1.79148 1.72777 4.09886
-1.80453 1.72769 4.09296
-1.82854 1.73067 4.0911
-1.83669 1.7244 4.07225
-1.84777 1.72225 4.06136
-1.86674 1.72632 4.06545
-1.87586 1.72209 4.04958
-1.8899 1.72302 4.04467
-1.91488 1.72707 4.0468
-1.92893 1.72698 4.0399
-1.94395 1.72796 4.038
-1.95701 1.72785 4.0301
-1.97203 1.72882 4.0272
-1.98312 1.72665 4.01531
-2.07746 1.72605 3.97103
-2.10751 1.72795 3.96322
2.30017 1.73936 3.90384
2.2932 1.73942 3.90789
2.26731 1.73965 3.92209
2.23839 1.73883 3.93332
1.01071 1.74518 4.37853
0.669144 1.74526 4.43711
0.639206 1.7474 4.44531
0.602213 1.74544 4.44662
0.519299 1.74666 4.45822
0.490338 1.74776 4.46343
0.474292 1.74468 4.45759
0.362402 1.74697 4.4724
0.35434 1.74386 4.46451
0.294379 1.74398 4.46996
0.279426 1.74608 4.47604
0.26438 1.744 4.47019
0.25638 1.744 4.47025
0.226419 1.7451 4.47546
0.211381 1.74304 4.4706
0.196474 1.74723 4.48265
0.181319 1.73894 4.46289
0.166483 1.74726 4.48388
0.159483 1.74727 4.48393
0.14446 1.74623 4.48106
0.129414 1.74416 4.4752
0.114422 1.74418 4.47631
0.0983603 1.74108 4.46848
0.0834072 1.74318 4.47456
0.0764695 1.7463 4.48257
0.0612679 1.73593 4.45683
0.0464703 1.74632 4.48279
-0.802481 1.72808 4.22843
-0.815542 1.72597 4.22055
-0.831525 1.72801 4.22264
-0.844571 1.72693 4.21676
-0.854485 1.7321 4.22776
-0.864671 1.72275 4.20397
-0.880592 1.72791 4.21401
-0.89366 1.72579 4.20514
-0.908652 1.72681 4.20624
-0.921729 1.72367 4.19638
-0.933813 1.72052 4.18552
-0.943719 1.7267 4.19751
-0.958718 1.72771 4.1976
-0.973708 1.72974 4.19869
-0.990637 1.73489 4.20774
-1.00273 1.73072 4.19589
-1.01581 1.72756 4.18503
-1.02692 1.72337 4.17118
-1.03685 1.72751 4.18019
-1.05086 1.7285 4.17928
-1.06587 1.72948 4.17738
-1.07698 1.72428 4.16354
-1.09196 1.72632 4.16562
-1.10601 1.72624 4.15973
-1.11205 1.72418 4.15481
-1.12704 1.72619 4.15489
-1.1401 1.72409 4.14802
-1.15606 1.72818 4.15308
-1.17107 1.72916 4.15118
-1.1851 1.72911 4.14728
-1.19621 1.72391 4.13344
-1.20808 1.73216 4.14941
-1.2192 1.72694 4.13457
-1.2342 1.72895 4.13465
-1.24724 1.72787 4.12877
-1.26029 1.72679 4.12288
-1.27723 1.73191 4.12993
-1.29321 1.73497 4.13301
-1.29342 1.72357 4.10617
-1.30939 1.72662 4.10925
-1.3355 1.72443 4.09548
-1.35147 1.72749 4.09855
-1.38052 1.72842 4.09276
-1.38655 1.72837 4.0888
-1.40448 1.7335 4.09686
-1.42961 1.73028 4.0811
-1.45473 1.72706 4.06533
-1.45979 1.72495 4.0574
-1.47383 1.72488 4.05251
-1.48687 1.7238 4.04662
-1.50187 1.72582 4.0467
-1.51492 1.72474 4.04082
-1.53091 1.72775 4.04089
-1.54004 1.7215 4.02405
-1.55097 1.72766 4.03404
-1.55717 1.71828 4.00823
-1.57609 1.72442 4.01728
-1.59111 1.72541 4.01538
-1.60218 1.72327 4.00549
-1.61426 1.72113 3.99561
-1.62421 1.72422 4.00164
-1.63236 1.71795 3.98279
-1.64836 1.72096 3.98287
-1.66237 1.72194 3.98096
-1.67446 1.71979 3.97008
-1.69044 1.72283 3.97216
-1.70839 1.72793 3.97822
-1.70854 1.72063 3.95832
-1.72354 1.72264 3.95841
-1.73757 1.72359 3.9545
-1.74768 1.7194 3.94064
-1.76269 1.72038 3.93873
-1.77868 1.7234 3.93981
-1.78682 1.71814 3.92195
-1.79384 1.71812 3.92
-1.81278 1.72423 3.92705
-1.81993 1.71796 3.9082
-1.83199 1.71684 3.8993
-1.84996 1.72091 3.90338
-1.86201 1.71981 3.89648
-1.87998 1.72488 3.90054
-1.88306 1.72174 3.89061
-1.8971 1.72166 3.88472
-1.90916 1.72055 3.87683
-1.92711 1.72565 3.88289
-1.93723 1.72244 3.86801
-1.95421 1.72548 3.87009
-1.96023 1.72544 3.86714
-1.96836 1.72121 3.85126
-1.98436 1.7232 3.85035
-2.00036 1.72622 3.85043
-2.00554 1.71888 3.82757
-2.02448 1.725 3.83462
-2.0336 1.72078 3.81975
-2.04258 1.72282 3.82179
-2.0576 1.72478 3.81887
-2.06967 1.72366 3.80998
-2.08173 1.72255 3.80209
-2.10585 1.72133 3.78628
-2.11582 1.72438 3.78931
-2.13995 1.72215 3.77253
-2.16802 1.72404 3.76371
-2.20925 1.72061 3.73307
-1.144 1.72232 4.02806
-1.15511 1.71812 4.0142
-1.17009 1.72117 4.01727
-1.18314 1.71908 4.0104
-1.1952 1.71797 4.0025
-1.20415 1.72107 4.00853
-1.2172 1.71999 4.00264
-1.23024 1.71891 3.99675
-1.24329 1.71783 3.99087
-1.25633 1.71776 3.98596
-1.27229 1.72083 3.99004
-1.27932 1.72079 3.98709
-1.29334 1.72076 3.9842
-1.30539 1.71967 3.9773
-1.31747 1.71753 3.96743
-1.32953 1.71542 3.95955
-1.34452 1.71744 3.96063
-1.36147 1.72254 3.96668
-1.36555 1.7184 3.95677
-1.37859 1.71833 3.95187
-1.39261 1.7193 3.94896
-1.40661 1.7203 3.94805
-1.41673 1.71608 3.93319
-1.43074 1.71706 3.93128
-1.4428 1.71495 3.9234
-1.45274 1.72008 3.9314
-1.46481 1.71795 3.92252
-1.4808 1.71998 3.92361
-1.49188 1.71784 3.91373
-1.50491 1.71777 3.90883
-1.51992 1.71977 3.90791
-1.53001 1.7166 3.89603
-1.5331 1.71244 3.88511
-1.55106 1.71653 3.89019
-1.56017 1.71231 3.87532
-1.57908 1.71949 3.88636
-1.58918 1.71632 3.87448
-1.60417 1.71833 3.87456
-1.60923 1.71621 3.86663
-1.62423 1.71822 3.86671
-1.63531 1.71608 3.85683
-1.64932 1.71707 3.85492
-1.66335 1.71802 3.85101
-1.67344 1.71485 3.83913
-1.68844 1.71686 3.83921
-1.69644 1.71886 3.83924
-1.70752 1.71572 3.82937
-1.72253 1.7177 3.82746
-1.73558 1.71762 3.82155
-1.74861 1.71857 3.81764
-1.75772 1.71336 3.80278
-1.77161 1.72158 3.81677
-1.77973 1.71635 3.8009
-1.79179 1.71525 3.79401
-1.80975 1.72032 3.79807
-1.82377 1.72129 3.79516
-1.82502 1.70983 3.76434
-1.84593 1.71801 3.77537
-1.85293 1.718 3.77443
-1.86203 1.71481 3.76154
-1.87705 1.71679 3.75962
-1.89303 1.72084 3.76168
-1.8982 1.71251 3.73984
-1.91617 1.71757 3.7429
-1.92823 1.71648 3.73601
-1.93523 1.71748 3.73605
-1.94434 1.71427 3.72116
-1.96229 1.71937 3.72722
-1.96649 1.71 3.70239
-1.99233 1.72332 3.72239
-1.99945 1.71808 3.70652
-2.00953 1.71593 3.69563
-2.02245 1.72209 3.70563
-2.03254 1.71992 3.69374
-2.04361 1.71779 3.68485
-2.08176 1.71752 3.66514
-2.09074 1.72057 3.66816
-2.11289 1.71729 3.64838
-2.13896 1.71916 3.63854
-2.15004 1.71702 3.62866
-2.16605 1.72002 3.62773
-2.18214 1.71884 3.61487
-2.22029 1.71859 3.59616
-2.25042 1.71834 3.57839
2.252 1.73111 3.61528
-1.1709 1.71358 3.90937
-1.18297 1.71145 3.90049
-1.22906 1.71231 3.88883
-1.29325 1.70998 3.86434
-1.30222 1.71204 3.86738
-1.32828 1.71194 3.85957
-1.35338 1.70976 3.84679
-1.37341 1.71072 3.84293
-1.38645 1.71065 3.83803
-1.39851 1.70954 3.83014
-1.4125 1.71157 3.83121
-1.42359 1.7084 3.81934
-1.43662 1.70835 3.81544
-1.45257 1.71245 3.8215
-1.45665 1.7093 3.81157
-1.47262 1.71236 3.81465
-1.48762 1.71537 3.81472
-1.49672 1.71118 3.80185
-1.50976 1.71112 3.79695
-1.5228 1.71106 3.79204
-1.53471 1.71723 3.80304
-1.54187 1.70994 3.7832
-1.55293 1.70883 3.7753
-1.56792 1.71084 3.77538
-1.58194 1.71182 3.77348
-1.59203 1.70865 3.7616
-1.60605 1.70961 3.75869
-1.61502 1.71268 3.76271
-1.62511 1.70951 3.75083
-1.63716 1.70841 3.74394
-1.65215 1.71145 3.74601
-1.67625 1.71026 3.7322
-1.68635 1.70708 3.71932
-1.69336 1.70807 3.71836
-1.70638 1.70803 3.71546
-1.72236 1.71209 3.71852
-1.73441 1.711 3.71163
-1.74745 1.71092 3.70573
-1.7595 1.71084 3.69982
-1.77057 1.7087 3.68993
-1.78346 1.71691 3.70391
-1.79455 1.71476 3.69302
-1.80659 1.71468 3.68711
-1.81964 1.7146 3.68121
-1.82873 1.71043 3.66934
-1.83881 1.70827 3.65845
-1.8478 1.71031 3.66049
-1.86181 1.71229 3.65856
-1.87583 1.71425 3.65564
-1.88592 1.7111 3.64476
-1.9019 1.71514 3.64682
-1.90904 1.70988 3.62895
-1.92699 1.71498 3.63501
-1.92809 1.70979 3.62209
-1.94113 1.71072 3.61718
-1.95712 1.71375 3.61825
-1.96719 1.71261 3.60834
-1.97925 1.7115 3.60045
-1.99228 1.71245 3.59653
-2.00433 1.71236 3.58962
-2.00936 1.7113 3.58568
-2.02832 1.71639 3.59075
-2.03741 1.71422 3.57884
-2.05045 1.71515 3.57393
-2.06447 1.71612 3.57102
-2.07553 1.71601 3.5631
-2.08059 1.71391 3.55617
-2.09558 1.71692 3.55624
-2.11968 1.71674 3.54342
-2.15682 1.71749 3.52469
-2.16384 1.71846 3.52273
-1.31291 1.71668 3.77538
-1.33082 1.72387 3.78741
-1.33506 1.71142 3.75662
-1.41029 1.70901 3.72622
-1.44838 1.70986 3.71449
-1.45944 1.70775 3.7066
-1.47444 1.70976 3.70669
-1.48648 1.70968 3.70078
-1.49447 1.71172 3.70281
-1.50553 1.70961 3.69492
-1.51757 1.70953 3.68901
-1.52963 1.70843 3.68212
-1.53972 1.70526 3.67024
-1.55372 1.70626 3.66933
-1.56871 1.70928 3.6704
-1.57081 1.70511 3.65848
-1.5907 1.71331 3.67151
-1.59587 1.70499 3.64966
-1.61996 1.70483 3.63785
-1.63595 1.70787 3.63992
-1.65302 1.70674 3.63007
-1.66704 1.70872 3.62814
-1.684 1.7128 3.63321
-1.69211 1.70859 3.61833
-1.70809 1.71264 3.62139
-1.71522 1.70638 3.60354
-1.72615 1.71252 3.61253
-1.73132 1.7042 3.59069
-1.7532 1.71445 3.6067
-1.76033 1.70821 3.58985
-1.77925 1.71635 3.59887
-1.78049 1.70391 3.56906
-1.80728 1.71931 3.59504
-1.79954 1.70382 3.5622
-1.81453 1.70785 3.56326
-1.82854 1.70984 3.56233
-1.8406 1.70873 3.55444
-1.84673 1.70349 3.53756
-1.86861 1.71271 3.55159
-1.87475 1.70745 3.53371
-1.88472 1.71051 3.53774
-1.9007 1.71455 3.5398
-1.90979 1.7114 3.52892
-1.91101 1.69997 3.50009
-1.941 1.70701 3.50121
-1.94801 1.707 3.50027
-1.96794 1.71513 3.5083
-1.97112 1.70679 3.48544
-1.98513 1.70879 3.48452
-2.00506 1.71592 3.49256
-2.01317 1.71172 3.47869
-2.02521 1.71265 3.47376
-2.0332 1.71466 3.47379
-2.04624 1.71459 3.46889
-2.05138 1.70933 3.451
-2.0654 1.7103 3.4481
-2.07548 1.70916 3.43819
-2.08456 1.706 3.4273
-2.34563 1.71107 3.28617
-2.36576 1.70882 3.26836
-1.31078 1.72396 3.65924
-1.32281 1.72391 3.65533
-1.33583 1.72387 3.65243
-1.33894 1.71867 3.63853
-1.35098 1.7186 3.63362
-1.36105 1.71548 3.62474
-1.37408 1.71543 3.62084
-1.38808 1.71844 3.6209
-1.40304 1.72251 3.62495
-1.40711 1.71838 3.61604
-1.42209 1.72243 3.61909
-1.43022 1.71619 3.60224
-1.44224 1.71715 3.59932
-1.45919 1.72225 3.60537
-1.46828 1.71808 3.5935
-1.48131 1.71905 3.59059
-1.48831 1.72005 3.59062
-1.49937 1.71793 3.58174
-1.51336 1.72095 3.5828
-1.52639 1.72192 3.57988
-1.53744 1.72082 3.57298
-1.54753 1.71765 3.5611
-1.56153 1.71966 3.56118
-1.56264 1.71346 3.54727
-1.57958 1.71957 3.55431
-1.60071 1.71634 3.53752
-1.61669 1.72039 3.54058
-1.62479 1.7162 3.5277
-1.63978 1.71923 3.52877
-1.64482 1.71715 3.52284
-1.6689 1.71701 3.51302
-1.68191 1.71899 3.51109
-1.70109 1.71267 3.48832
-1.73414 1.71659 3.48151
-1.74617 1.71654 3.4776
-1.7582 1.71647 3.47269
-1.76434 1.71121 3.45481
-1.42196 1.71872 3.50313
-1.43497 1.71971 3.50221
5.93714 0.873867 4.50133
5.86819 0.867006 4.50796
5.65912 0.843058 4.50288
5.58208 0.835041 4.49858
5.54709 0.831081 4.4999
5.44196 0.817922 4.48489
5.40494 0.813905 4.48223
5.37295 0.810959 4.48451
5.34197 0.808011 4.48679
5.30192 0.802952 4.48117
5.2809 0.800923 4.47835
5.24587 0.796904 4.47568
5.18592 0.791038 4.48222
5.14285 0.785936 4.47362
5.08992 0.781123 4.48409
5.02379 0.772921 4.4677
4.99782 0.770999 4.47193
4.96683 0.768037 4.47321
4.94187 0.766144 4.47942
4.89575 0.758956 4.46487
4.8718 0.758063 4.47107
4.85781 0.756088 4.4722
4.81371 0.750928 4.45961
4.79781 0.750147 4.47374
4.76277 0.747099 4.46905
4.7247 0.741994 4.46041
4.69773 0.740058 4.46365
4.67566 0.735956 4.45587
4.64466 0.732964 4.45515
4.62069 0.731056 4.46036
4.59975 0.73019 4.46853
4.45058 0.712974 4.44791
4.43266 0.713136 4.45804
4.30462 0.700171 4.4552
4.22462 0.69323 4.4559
5.99217 0.913837 4.50133
5.9582 0.910906 4.50463
5.9222 0.906948 4.50596
5.83411 0.89585 4.49578
5.76904 0.887765 4.48739
5.73204 0.883793 4.48773
5.70409 0.880902 4.49398
5.65501 0.874791 4.48444
5.62403 0.871858 4.48772
5.55806 0.864966 4.49232
5.45595 0.851834 4.47928
5.39801 0.84701 4.48879
5.16185 0.818889 4.47098
5.12381 0.814828 4.46533
5.11284 0.813911 4.47043
4.92282 0.794021 4.47015
4.84782 0.786077 4.47084
4.80472 0.779917 4.45825
4.74673 0.773989 4.46077
4.72075 0.772053 4.464
4.67776 0.768099 4.46538
4.63465 0.761924 4.4518
4.6006 0.75786 4.44611
4.53464 0.751983 4.4517
4.51471 0.751131 4.46086
4.48469 0.748123 4.45913
4.43955 0.740876 4.44058
4.42768 0.742136 4.45765
4.39362 0.738058 4.45096
5.9141 0.958682 4.48725
5.88816 0.956834 4.49647
5.83205 0.948654 4.48202
5.81015 0.946862 4.49521
5.77113 0.942861 4.49356
5.715 0.933652 4.47712
5.69209 0.932846 4.4893
5.67207 0.929831 4.4875
5.59101 0.919773 4.48026
5.55601 0.915799 4.48058
5.34888 0.890716 4.46651
4.87972 0.836797 4.45284
4.51361 0.795875 4.4432
4.43655 0.786828 4.43692
4.3485 0.777805 4.43171
4.32554 0.775896 4.43692
4.29451 0.77186 4.43321
4.28252 0.770883 4.43431
4.25249 0.767861 4.43158
4.23557 0.767021 4.44173
4.20958 0.765055 4.44295
4.17753 0.76099 4.43725
4.11051 0.75401 4.43586
4.03654 0.747124 4.44052
3.94148 0.737091 4.43438
5.9961 1.08248 4.4758
5.96615 1.07959 4.48207
5.93116 1.07564 4.48439
5.90109 1.07053 4.47569
5.8661 1.06657 4.47701
5.83715 1.0637 4.48427
5.79914 1.05971 4.48362
5.76113 1.05472 4.48298
5.69204 1.0446 4.47165
5.66006 1.04166 4.47493
5.61197 1.03454 4.4644
5.58402 1.03165 4.47065
5.55103 1.0277 4.47296
5.51301 1.0227 4.47132
5.47498 1.01767 4.46768
5.4449 1.01353 4.45697
5.41693 1.01062 4.46222
5.37488 1.00455 4.45563
5.33684 0.999505 4.45099
5.31593 0.998698 4.46316
5.27487 0.99261 4.45556
5.24086 0.988621 4.45487
5.2168 0.985535 4.4481
5.1848 0.981559 4.4484
5.14777 0.976527 4.44475
5.1198 0.973607 4.44901
5.05176 0.965583 4.44464
5.02378 0.962648 4.44789
4.11642 0.858683 4.41326
4.02238 0.848679 4.40912
3.97238 0.843731 4.41057
3.94637 0.84072 4.40881
3.90432 0.835663 4.4032
3.87932 0.832681 4.40343
3.8533 0.829671 4.40167
3.83738 0.829845 4.41279
3.80228 0.824679 4.40013
3.79835 0.825815 4.40914
3.76728 0.821705 4.40044
3.71928 0.81674 4.40087
3.69933 0.815844 4.40704
3.67532 0.812847 4.40626
3.6383 0.808845 4.4046
3.62035 0.808946 4.41074
5.96813 1.15446 4.47294
5.9251 1.14843 4.46936
5.89212 1.1445 4.47266
5.84104 1.13639 4.46317
5.79913 1.13258 4.47454
5.75407 1.12551 4.46798
5.71908 1.12155 4.46931
5.68307 1.11658 4.46965
5.62694 1.10737 4.45321
5.60604 1.10658 4.46638
5.53089 1.09435 4.44812
5.49488 1.09037 4.44745
5.46692 1.08746 4.45271
5.42185 1.08036 4.44415
5.38886 1.07641 4.44646
5.35587 1.07245 4.44776
4.22642 0.931521 4.40635
3.69123 0.871577 4.38827
3.65926 0.868675 4.39356
3.63122 0.864607 4.38783
3.61529 0.864766 4.39795
3.59431 0.862826 4.40113
3.56829 0.859801 4.39837
3.56032 0.859866 4.40243
5.37795 1.13952 4.45261
5.17984 1.11146 4.44051
5.1438 1.10643 4.43686
5.11482 1.10248 4.43914
4.96878 1.08353 4.43652
4.93979 1.08058 4.43878
4.90174 1.0745 4.43215
4.87577 1.07158 4.43639
4.81073 1.06356 4.432
4.79069 1.0595 4.42721
4.75666 1.05546 4.42353
4.7206 1.04939 4.41689
4.69361 1.04644 4.41914
4.67066 1.04454 4.42534
4.62957 1.03739 4.41375
4.60762 1.03651 4.42093
4.58858 1.03345 4.41612
4.55958 1.02948 4.4164
4.53561 1.02755 4.42061
4.50661 1.02357 4.42088
4.47759 1.01957 4.41916
4.4506 1.0166 4.42041
4.42562 1.01466 4.42363
4.39952 1.00949 4.4109
4.3705 1.00548 4.40917
4.34753 1.00356 4.41338
4.32457 1.00165 4.41858
4.29454 0.997613 4.41486
4.23952 0.990624 4.41338
4.22652 0.989648 4.41449
4.19951 0.985639 4.41276
4.17352 0.982688 4.415
4.12051 0.976712 4.41448
4.09148 0.972674 4.41076
4.07545 0.970627 4.40691
4.05449 0.968717 4.4121
4.01939 0.962565 4.40045
4.00045 0.961697 4.40861
3.96839 0.956603 4.40093
3.93834 0.952536 4.39521
3.91334 0.949555 4.39544
3.90235 0.948578 4.39654
3.87129 0.944482 4.38884
3.82633 0.940604 4.39523
3.79627 0.935508 4.38753
3.77428 0.933554 4.38973
3.76027 0.931535 4.38786
3.7393 0.92961 4.39205
3.71227 0.92657 4.3883
3.69634 0.92673 4.39842
3.67133 0.922719 4.39667
4.94179 1.1305 4.43302
4.88773 1.12243 4.42655
4.86074 1.11948 4.4288
4.82874 1.11449 4.42811
4.75866 1.1044 4.41879
4.68667 1.09548 4.42146
4.65566 1.09149 4.42075
4.6196 1.0854 4.41312
4.50951 1.07033 4.40417
4.46259 1.06551 4.41459
4.43559 1.06255 4.41584
4.36749 1.05241 4.4035
4.35158 1.05159 4.41564
4.33757 1.04959 4.41477
4.30049 1.04346 4.40414
4.27349 1.04048 4.40439
4.22049 1.03353 4.40589
4.18251 1.02959 4.40823
4.15247 1.02555 4.40452
4.11336 1.01836 4.38992
4.07245 1.01557 4.40227
4.03938 1.01047 4.39459
4.00733 1.00539 4.38791
3.99634 1.00443 4.39001
3.96932 1.0004 4.38727
3.94836 0.998494 4.39246
3.92336 0.996513 4.39267
3.89533 0.992489 4.38994
3.86529 0.988423 4.38423
3.8063 0.981496 4.38678
3.68327 0.967543 4.38491
5.20583 1.22828 4.42859
5.14485 1.21937 4.43218
5.02679 1.20235 4.42632
4.95673 1.1913 4.42001
4.89875 1.18439 4.42355
4.83674 1.17542 4.42315
4.82173 1.17342 4.42229
4.78166 1.1663 4.4127
4.74662 1.16025 4.40805
4.7156 1.15624 4.40634
4.6866 1.15228 4.40762
4.65962 1.14933 4.40987
4.64159 1.14628 4.40605
4.60754 1.14022 4.40039
4.55155 1.13329 4.40292
4.46956 1.12238 4.4057
4.42352 1.11534 4.40115
4.39653 1.11238 4.4024
4.36045 1.10626 4.39276
4.33244 1.10226 4.39203
4.31351 1.10141 4.40118
4.28045 1.09633 4.39451
4.23441 1.08928 4.38896
4.15539 1.07932 4.3887
5.55794 1.36508 4.42891
5.52193 1.35909 4.42827
5.48593 1.35312 4.42863
5.44589 1.34608 4.42403
5.40585 1.34003 4.41942
5.36581 1.33299 4.41483
5.30875 1.32293 4.40841
5.20673 1.30697 4.40741
5.1377 1.29698 4.40508
5.01864 1.27797 4.39926
4.92463 1.26402 4.39917
4.84158 1.25099 4.39399
4.71653 1.23201 4.39021
3.90727 1.38684 4.34401
3.87824 1.38181 4.3403
3.73323 1.35892 4.34173
3.70418 1.35283 4.33504
3.68421 1.35091 4.33922
3.63216 1.34186 4.33375
3.54206 1.32575 4.32266
3.51906 1.32176 4.3229
3.50716 1.32298 4.33697
3.8953 1.44682 4.34121
3.84629 1.43885 4.3417
3.77722 1.42577 4.33341
3.93524 1.57152 4.32206
3.91025 1.56656 4.32333
3.88726 1.56359 4.32454
3.81022 1.54859 4.32134
3.79015 1.54347 4.31257
3.74518 1.53656 4.31701
3.71915 1.53054 4.3143
3.69818 1.52861 4.31848
3.58813 1.50862 4.31461
3.71818 1.58852 4.31245
5.86823 1.32478 3.27401
5.95495 1.32828 2.70322
5.94007 1.32653 2.71936
5.90903 1.32049 2.71569
5.91944 1.32827 2.7685
5.89953 1.32648 2.78168
5.90674 1.33087 2.80856
5.87981 1.32704 2.81882
5.88199 1.33039 2.84276
5.84292 1.32129 2.83419
5.82904 1.32053 2.85031
5.81818 1.32081 2.86839
5.80831 1.32108 2.88646
5.82356 1.32754 2.91825
5.82374 1.3309 2.94221
5.78768 1.32281 2.9346
5.77882 1.3231 2.95366
5.76594 1.32334 2.96976
5.75526 1.32597 3.01181
5.72549 1.32445 3.04306
5.73261 1.32768 3.05896
5.69883 1.32514 3.08825
5.7024 1.33525 3.16309
5.25126 1.36403 3.94017
5.60273 1.345 2.93966
5.58282 1.34219 2.95186
5.56391 1.34038 2.96403
5.55003 1.33963 2.98014
5.5502 1.34297 3.0031
5.52353 1.34363 3.04629
5.49457 1.33874 3.05259
5.50581 1.34519 3.08341
5.49393 1.34443 3.09951
5.48305 1.34469 3.11659
5.4742 1.34598 3.13564
5.4552 1.342 3.13585
5.44432 1.34226 3.15293
5.4435 1.3456 3.17589
5.44871 1.35001 3.20379
5.41673 1.34407 3.20711
5.40687 1.34535 3.22517
5.39097 1.34455 3.23831
5.38403 1.34368 3.24637
5.37919 1.34599 3.26738
5.34418 1.33902 3.26774
5.33432 1.34029 3.2858
5.36668 1.35296 3.33238
5.36787 1.35633 3.35732
5.356 1.35659 3.37441
5.31808 1.35178 3.38577
5.31324 1.3531 3.40679
5.32047 1.35953 3.43664
5.26536 1.34737 3.42324
5.24643 1.34453 3.43342
5.23858 1.34683 3.45345
5.20971 1.34411 3.47071
5.23605 1.35474 3.51436
5.23021 1.35705 3.53537
5.14457 1.34884 3.58515
5.12868 1.34806 3.59928
5.10421 1.35511 3.66937
5.12353 1.36472 3.71109
5.08851 1.35772 3.70946
5.06858 1.35587 3.71863
5.05369 1.3561 3.73374
5.04685 1.35741 3.75478
5.04806 1.36281 3.78169
5.95488 1.31645 1.49923
5.95303 1.31775 1.51923
5.90762 1.31394 1.59764
5.90877 1.31625 1.6186
5.89468 1.30831 0.676694
5.8743 1.30754 0.758871
5.84891 1.30675 0.840085
5.82902 1.30199 0.855307
5.81915 1.30125 0.872395
5.79424 1.29646 0.885655
5.79854 1.29904 0.92459
5.8057 1.30234 0.94549
5.82281 1.30754 0.959286
5.83998 1.31386 0.982066
5.80706 1.30605 0.993432
5.78532 1.30357 1.02764
5.77881 1.30654 1.09265
5.76793 1.3048 1.10976
5.73481 1.30554 1.22602
5.754 1.31289 1.25077
5.72508 1.30608 1.26209
5.70718 1.3033 1.27626
5.71928 1.30748 1.28911
5.72745 1.3108 1.311
5.69716 1.32317 1.53708
5.71807 1.28748 -0.331806
5.70621 1.28476 -0.313674
5.70234 1.28403 -0.295631
5.72448 1.29027 -0.277888
5.67975 1.31458 0.686222
5.64319 1.30947 0.744581
5.62157 1.30724 0.795784
5.63249 1.31804 0.917559
5.59656 1.30921 0.927961
5.52903 1.31809 1.25438
5.54127 1.32355 1.28622
5.49029 1.31165 1.29078
5.47941 1.30989 1.30689
5.55319 1.30876 -0.184859
5.51531 1.29903 -0.168427
5.53844 1.30527 -0.150691
5.52257 1.30154 -0.133514
5.54591 1.30919 -0.0887968
5.51302 1.30043 -0.0734173
5.53117 1.3057 -0.0546294
5.51629 1.30295 -0.0384743
5.45411 1.32243 0.733812
5.45124 1.32268 0.750833
5.45131 1.32281 0.759831
5.43642 1.32005 0.774987
5.38473 1.30871 0.81755
5.3872 1.31462 0.879452
5.35554 1.30933 0.925775
5.35167 1.30958 0.942803
5.35475 1.31073 0.952764
5.34508 1.29772 -0.331147
5.3412 1.29698 -0.314105
5.39566 1.31282 -0.254742
5.39691 1.31331 -0.221754
5.38117 1.30983 -0.187579
5.35717 1.30683 -0.0533351
5.33129 1.30008 -0.037038
5.38445 1.31534 -0.0176617
5.37453 1.31747 0.125401
5.36365 1.31471 0.141526
5.31267 1.30081 0.146117
5.32481 1.30507 0.163965
5.29081 1.32395 0.695015
5.28607 1.32446 0.729048
5.26416 1.31965 0.741285
5.25528 1.3179 0.757381
5.27838 1.32507 0.770102
5.28552 1.32835 0.789002
4.97888 1.34201 1.76625
5.21322 1.31504 -0.18039
5.20934 1.31428 -0.164347
5.21647 1.31652 -0.147432
5.18358 1.30677 -0.132037
5.20114 1.31385 -0.0582642
5.21927 1.3201 -0.040491
5.18344 1.31046 -0.018075
5.15891 1.30541 0.0451932
5.16504 1.30766 0.0621161
5.18118 1.31291 0.0799192
5.18424 1.31403 0.0878807
5.16972 1.312 0.153029
5.16589 1.32525 0.439901
5.15701 1.3235 0.455996
5.16427 1.32699 0.489895
5.11977 1.31902 0.557357
5.13792 1.3253 0.57713
5.10618 1.31884 0.61247
5.11715 1.33073 0.740229
5.11027 1.32996 0.755294
5.1124 1.33121 0.772262
5.10351 1.33044 0.787343
5.08654 1.32552 0.792544
5.01799 1.32242 0.985133
5.01204 1.32052 0.992207
5.02232 1.32706 1.02904
5.00842 1.32427 1.04219
5.00065 1.32473 1.07324
4.80756 1.3435 1.72451
5.06472 1.30717 -0.245163
5.05584 1.30441 -0.229053
5.04897 1.30564 -0.0789991
5.04727 1.30623 -0.0389896
5.0694 1.31347 -0.0222611
5.05652 1.31071 -0.00612107
5.05764 1.31095 0.0098692
5.05094 1.31053 0.0489313
5.08709 1.32179 0.0674949
5.05072 1.31507 0.15288
5.05484 1.31631 0.168833
5.07228 1.32415 0.226593
5.04939 1.31838 0.240853
5.04851 1.31861 0.256859
5.05964 1.32286 0.273714
5.01571 1.31005 0.285236
5.05388 1.32233 0.30577
5.04809 1.32971 0.465726
5.02773 1.329 0.551902
5.02485 1.32923 0.567923
4.99305 1.32166 0.595278
4.98122 1.31999 0.617395
4.9876 1.32473 0.667284
5.00174 1.331 0.686087
5.00787 1.33325 0.70301
4.96335 1.32523 0.767473
4.94357 1.32167 0.796679
4.94864 1.3248 0.805595
4.9698 1.3321 0.826331
4.96404 1.33357 0.858357
4.93811 1.32674 0.868654
4.93223 1.32597 0.883712
4.93235 1.3272 0.899695
4.93041 1.32732 0.907709
4.9487 1.33587 0.94545
4.9398 1.33509 0.959531
4.93905 1.33758 0.992504
4.93116 1.33679 1.00658
4.90717 1.32984 1.00886
4.9058 1.33707 1.09178
4.858 1.3265 1.1193
4.90807 1.31898 -0.33217
4.88013 1.31012 -0.323827
4.90024 1.31632 -0.309069
4.87735 1.30956 -0.293794
4.92149 1.32378 -0.277335
4.90471 1.31924 -0.247137
4.86785 1.31152 -0.0947238
4.89798 1.32075 -0.0780851
4.91411 1.32599 -0.0612819
4.87837 1.32149 0.106077
4.86547 1.3177 0.120232
4.85075 1.31526 0.157384
4.8829 1.32552 0.175993
4.87742 1.32754 0.245014
4.87754 1.32778 0.261012
4.83884 1.32637 0.434348
4.82488 1.32147 0.440526
4.83325 1.32718 0.488386
4.84338 1.33142 0.505249
4.85169 1.33702 0.546109
4.83979 1.33424 0.560242
4.81287 1.3264 0.570562
4.80509 1.32685 0.600618
4.83538 1.33838 0.637224
4.80173 1.33211 0.685577
4.77835 1.33135 0.767776
4.79964 1.34088 0.80448
4.78472 1.33807 0.816635
4.76274 1.33111 0.818904
4.76086 1.33235 0.834902
4.772 1.33662 0.853758
4.77112 1.33785 0.868748
4.77825 1.34111 0.886649
4.75016 1.34491 1.00682
3.48927 1.40135 3.2798
3.46526 1.39635 3.27905
3.44224 1.39034 3.27731
3.43434 1.39253 3.29034
3.36527 1.40739 3.41266
3.34518 1.40024 3.40192
4.75433 1.32752 -0.0320967
4.74944 1.32674 -0.0170464
4.72849 1.32085 -0.0108004
4.74261 1.32507 0.00503286
4.7167 1.31829 0.0183304
4.74283 1.32652 0.0350139
4.72994 1.32273 0.049169
4.74206 1.32796 0.0650025
3.34792 1.41174 3.2327
3.31783 1.40161 3.22308
3.30893 1.40381 3.23611
3.2849 1.39777 3.23238
3.2739 1.39478 3.23251
3.26701 1.39699 3.24653
3.23912 1.39523 3.26177
4.58606 1.32017 -0.332762
4.58549 1.32103 -0.274762
4.59461 1.32424 -0.259876
4.58371 1.32046 -0.245736
4.57577 1.31857 -0.238648
4.60988 1.32976 -0.224068
4.617 1.33298 -0.209167
4.61511 1.3322 -0.19414
4.59559 1.32717 -0.129909
4.61582 1.33459 -0.100167
4.61493 1.3348 -0.0861618
4.60703 1.33302 -0.072074
4.56811 1.32022 -0.0595897
4.58218 1.32535 -0.0507703
4.58029 1.32555 -0.0367571
4.56238 1.31976 -0.0235347
4.5979 1.33374 0.0440001
4.60613 1.33818 0.0738766
4.57043 1.3278 0.114305
4.55358 1.32311 0.134504
4.59306 1.33901 0.19698
4.55312 1.32717 0.206457
4.56018 1.32929 0.214374
4.57531 1.33553 0.23117
4.55384 1.33158 0.3014
4.55773 1.34032 0.419257
4.55022 1.34329 0.484279
4.50247 1.32983 0.518843
4.518 1.33985 0.588587
4.5111 1.33905 0.601652
4.51773 1.34828 0.684477
3.25333 1.3927 3.02367
3.21467 1.39539 3.06893
4.50042 1.33392 -0.285314
4.50458 1.33623 -0.264376
4.48668 1.33045 -0.250154
4.50501 1.33708 -0.207384
4.49838 1.33581 -0.158309
4.48648 1.33302 -0.144176
4.48359 1.33223 -0.13014
4.45837 1.32679 -0.0258554
4.45875 1.32853 0.0241229
4.46485 1.33173 0.0380314
3.2712 1.40146 2.87338
3.24415 1.39338 2.86671
3.26749 1.41001 2.91029
3.22632 1.39473 2.88982
3.19965 1.39939 2.93296
3.2119 1.41087 2.9657
4.34619 1.32658 -0.315047
4.37777 1.33868 -0.239454
4.35286 1.32989 -0.226134
4.35597 1.3321 -0.212188
4.33906 1.3263 -0.198973
4.33317 1.32451 -0.1849
4.34063 1.32841 -0.124006
4.33573 1.32762 -0.109955
4.34084 1.32983 -0.0960246
4.32894 1.32603 -0.0828769
4.32519 1.32553 -0.0488366
4.31588 1.33981 0.307071
4.29595 1.33397 0.317309
4.28615 1.33237 0.34341
4.31845 1.34593 0.382972
4.32157 1.34815 0.397917
4.32468 1.35037 0.412863
4.29912 1.34525 0.47114
3.22002 1.39518 2.71684
3.20303 1.39122 2.71903
3.20031 1.39975 2.75493
3.18751 1.40415 2.78096
3.13276 1.39869 2.81546
3.08305 1.39729 2.85386
3.09933 1.41082 2.89054
4.27907 1.34033 -0.199729
4.27058 1.34331 0.00131852
4.23786 1.3339 0.0397097
4.26693 1.34401 0.0483421
4.23401 1.3332 0.0597518
4.24212 1.3364 0.0736452
3.14872 1.40263 2.67726
3.11814 1.40947 2.7324
3.081 1.39523 2.71489
3.08015 1.40051 2.73382
3.06417 1.39757 2.73698
3.05517 1.39459 2.73809
3.04827 1.39677 2.75011
3.03042 1.3981 2.77123
4.1506 1.33251 -0.260654
4.1727 1.34168 -0.247954
4.16885 1.33998 -0.227897
4.16095 1.33818 -0.214809
4.16405 1.33937 -0.201849
4.16014 1.33856 -0.188805
4.16924 1.34175 -0.175919
4.17379 1.34583 -0.103004
4.16989 1.34402 -0.089946
4.14397 1.33521 -0.0786187
4.16409 1.34341 -0.0638897
4.16213 1.3425 -0.0578606
4.12921 1.33169 -0.046451
4.1247 1.33266 0.0185777
4.13175 1.33475 0.0254944
4.14186 1.33895 0.039358
4.15397 1.34415 0.0531918
4.15707 1.34636 0.0671377
4.1313 1.33782 0.0974624
4.11387 1.33596 0.173632
4.10054 1.3363 0.263739
4.11567 1.34253 0.279536
4.10175 1.3387 0.290699
4.09884 1.33888 0.30272
4.09338 1.34195 0.374725
4.1005 1.34517 0.389626
4.08658 1.34134 0.400789
4.1047 1.34956 0.416533
4.08883 1.34483 0.433725
4.09895 1.35004 0.448574
4.10005 1.35125 0.462549
4.07411 1.34239 0.470877
4.10826 1.35666 0.490411
4.06529 1.34176 0.495956
4.08237 1.3489 0.505723
4.06545 1.34306 0.515939
4.07356 1.34727 0.530817
4.07466 1.34947 0.543778
3.10272 1.3977 2.54466
3.09681 1.39888 2.55669
3.09394 1.40212 2.57267
3.06485 1.39199 2.56304
3.05729 1.40484 2.61991
3.03728 1.39984 2.61913
4.04612 1.33962 -0.324981
4.02721 1.33282 -0.311736
4.03731 1.33601 -0.298857
4.0334 1.33519 -0.286814
4.05164 1.34265 -0.255058
4.03674 1.33685 -0.241858
4.03721 1.33879 -0.178881
4.03045 1.33727 -0.146803
4.02054 1.33345 -0.134671
4.02674 1.33683 -0.108764
4.0488 1.34592 -0.102063
4.01587 1.33411 -0.090639
4.04017 1.34466 -0.051973
4.05028 1.34886 -0.0381094
4.04037 1.34505 -0.0259766
4.05643 1.35216 -0.0182018
4.05052 1.35034 -0.00612866
4.05162 1.35053 0.00686203
4.02813 1.34555 0.0751221
4.03796 1.35518 0.184921
4.03205 1.35336 0.196994
4.00727 1.34581 0.226296
3.93608 1.33962 -0.329152
3.92218 1.33483 -0.315975
3.93522 1.33991 -0.310148
3.92731 1.33709 -0.298045
3.95661 1.34863 -0.260431
3.9272 1.33884 -0.180053
3.93153 1.34247 -0.137134
3.93463 1.34366 -0.124173
3.95473 1.35184 -0.111444
3.94282 1.34802 -0.0992958
3.91741 1.34121 -0.0199926
3.92173 1.34485 0.0229269
3.92183 1.34504 0.0359251
3.92893 1.34823 0.0488262
3.91725 1.34586 0.0909551
3.92969 1.35471 0.148738
3.90585 1.34705 0.171034
3.90294 1.34623 0.18307
3.89202 1.3424 0.194211
3.90513 1.3486 0.208022
3.89221 1.34477 0.219178
3.89726 1.34687 0.226109
3.90136 1.34906 0.239048
3.90207 1.35645 0.332946
3.90518 1.35866 0.346892
3.87222 1.34677 0.353317
3.89535 1.357 0.369994
3.86854 1.34841 0.396326
3.87599 1.35628 0.455162
3.85405 1.34841 0.463445
3.86216 1.35361 0.477309
3.86226 1.35481 0.490292
3.86435 1.357 0.503246
3.16667 1.40064 2.13808
3.81809 1.34172 -0.327294
3.83319 1.34789 -0.315498
3.81427 1.34108 -0.303253
3.84446 1.35341 -0.27966
3.84388 1.35423 -0.22466
3.80445 1.3404 -0.147147
3.81254 1.34357 -0.135253
3.83069 1.35184 -0.11651
3.80977 1.34402 -0.105235
3.82027 1.351 -0.0384083
3.79061 1.34069 0.00697409
3.81995 1.35533 0.0515424
3.78943 1.34631 0.115915
3.78651 1.34547 0.126951
3.82164 1.36068 0.142463
3.80271 1.35384 0.152708
3.79785 1.35311 0.170758
3.26986 1.39306 1.76536
3.23138 1.3971 1.8346
3.22446 1.39726 1.84466
3.73042 1.34542 -0.283683
3.73551 1.34758 -0.272751
3.75961 1.35776 -0.260082
3.75565 1.35685 -0.254038
3.71872 1.34203 -0.243539
3.72199 1.34356 -0.207581
3.70535 1.34323 -0.027426
3.70352 1.34358 -0.0044141
3.68884 1.34818 0.170653
3.68646 1.35239 0.252619
3.69766 1.35977 0.278429
3.66319 1.35085 0.349831
3.14011 1.39662 1.79829
3.65027 1.34417 -0.304063
3.64657 1.34278 -0.263009
3.67075 1.3531 -0.240341
3.66883 1.35327 -0.229327
3.6584 1.35139 -0.15421
3.65448 1.34955 -0.143152
3.67646 1.36345 -0.0145057
3.66867 1.36187 0.0135802
3.63973 1.35002 0.0229748
3.6339 1.34937 0.0460316
3.62598 1.34654 0.0571347
3.65714 1.36081 0.0766914
3.62863 1.35281 0.143034
3.5731 1.3459 -0.32551
3.56918 1.34407 -0.314452
3.5694 1.3445 -0.285456
3.57249 1.34666 -0.27451
3.58357 1.35081 -0.263653
3.60367 1.35997 -0.251939
3.57274 1.34716 -0.240515
3.57061 1.35482 0.00642229
3.56569 1.35399 0.0174732
3.56678 1.35516 0.0294492
3.55089 1.3484 0.0446712
3.56399 1.35558 0.0574679
3.55215 1.3519 0.0786145
3.57726 1.36309 0.0922616
3.57735 1.36427 0.104245
3.54844 1.35248 0.117639
3.49814 1.361 -0.322169
3.49422 1.35917 -0.31111
3.4923 1.35833 -0.300082
3.48855 1.35782 -0.267042
3.48229 1.35729 -0.167973
3.46236 1.34846 -0.157691
3.45798 1.34967 -0.0756644
3.48392 1.36847 0.0468788
3.41733 1.36443 -0.296607
3.41293 1.36362 -0.216551
3.396 1.35678 -0.206321
3.4141 1.36494 -0.194576
3.40113 1.35903 -0.18939
3.39721 1.35818 -0.179347
3.38828 1.35433 -0.169221
3.38736 1.3545 -0.158215
3.38652 1.35481 -0.13721
3.38172 1.35321 -0.110147
3.41483 1.36938 -0.097634
3.37504 1.35184 -0.0680705
3.35962 1.36891 0.27384
3.33399 1.36166 0.323147
3.33236 1.36638 0.372096
3.31549 1.36066 0.390311
3.32873 1.37011 0.421075
3.33691 1.37644 0.443923
3.32797 1.37358 0.453034
3.31315 1.36895 0.477218
3.29027 1.36121 0.493507
3.34595 1.36869 -0.214121
3.34199 1.36677 -0.209062
3.32506 1.35893 -0.198817
3.34115 1.36708 -0.188057
3.33373 1.36624 -0.109978
3.33882 1.3694 -0.0990619
3.23705 1.3688 0.463791
3.23112 1.36794 0.47285
3.24623 1.37613 0.486617
3.23825 1.3732 0.490721
3.24235 1.37637 0.502645
3.24944 1.38054 0.514531
3.24451 1.3807 0.524567
3.23586 1.38238 0.570614
3.2179 1.37549 0.576852
3.21298 1.37464 0.586903
-3.28428 0.923866 1.55066
-3.28538 0.922674 1.53768
-3.27751 0.917417 1.5207
-3.27961 0.916226 1.50773
-3.27672 0.913017 1.49375
-3.2828 0.912859 1.4828
-3.272 0.906481 1.45781
-3.26911 0.903258 1.44283
-3.26622 0.901048 1.42884
-3.27628 0.901937 1.4209
-3.27339 0.899713 1.40591
-3.26756 0.894384 1.38394
-3.2579 0.885726 1.33999
-3.256 0.882532 1.32703
-3.24912 0.879291 1.31102
-3.24723 0.876082 1.29705
-3.24727 0.875994 1.29105
-3.25732 0.876897 1.28411
-3.24357 0.869414 1.25212
-3.24964 0.86927 1.24216
-3.23583 0.862906 1.21815
-3.2439 0.863778 1.2092
-3.23113 0.855311 1.17822
-3.22633 0.850922 1.15225
-3.22448 0.84764 1.13328
-3.23753 0.850546 1.12633
-3.21778 0.841058 1.09432
-3.22584 0.841946 1.08637
-3.22602 0.838591 1.06241
-3.16444 0.771904 0.613875
-3.15981 0.766175 0.564918
-3.14388 0.750092 0.425017
-3.13808 0.745688 0.398035
-3.13617 0.744524 0.387036
-3.1354 0.742065 0.356062
-3.27789 0.936645 1.46841
-3.28606 0.935326 1.44649
-3.28517 0.933118 1.43251
-3.27635 0.926757 1.40854
-3.26061 0.918243 1.37454
-3.2648 0.914891 1.35062
-3.27092 0.914658 1.33466
-3.25508 0.907336 1.31365
-3.25219 0.904127 1.29967
-3.25528 0.902952 1.28771
-3.25138 0.900742 1.27371
-3.24749 0.897532 1.25973
-3.25755 0.898421 1.25179
-3.24384 0.889849 1.21381
-3.23497 0.884592 1.19682
-3.23207 0.882397 1.18383
-3.24612 0.885318 1.17789
-3.22927 0.878011 1.15787
-3.23638 0.877794 1.14292
-3.22851 0.873551 1.12692
-3.23258 0.873406 1.11696
-3.23766 0.873262 1.10699
-3.22978 0.86902 1.091
-3.23684 0.869906 1.08303
-3.22493 0.865735 1.072
-3.21473 0.849174 0.967159
-3.20087 0.842898 0.949145
-3.20993 0.844786 0.941184
-3.19904 0.839557 0.926177
-3.18378 0.824111 0.829278
-3.17615 0.816395 0.781328
-3.28333 0.973742 1.40689
-3.27655 0.967308 1.37793
-3.26987 0.958682 1.336
-3.26693 0.957562 1.328
-3.274 0.957434 1.31905
-3.26912 0.954193 1.30306
-3.25527 0.946903 1.28406
-3.25138 0.943693 1.27008
-3.25646 0.943549 1.26012
-3.25555 0.941356 1.24714
-3.25365 0.939162 1.23416
-3.2547 0.938074 1.22818
-3.23885 0.930767 1.20817
-3.24692 0.93164 1.19921
-3.24402 0.929445 1.18622
-3.2471 0.929285 1.17525
-3.2482 0.927108 1.16328
-3.23334 0.920831 1.14526
-3.24362 0.918276 1.10737
-3.23284 0.911854 1.07938
-3.23796 0.910621 1.06344
-3.21449 0.894584 0.994488
-3.20755 0.891461 0.986481
-3.21661 0.893349 0.978521
-3.22268 0.894205 0.968552
-3.2128 0.888976 0.953553
-3.21506 0.885475 0.919617
-3.20613 0.881335 0.91061
-3.19533 0.874943 0.88462
-3.20439 0.876831 0.876659
-3.1955 0.872603 0.861652
-3.19958 0.872458 0.851684
-3.20365 0.872313 0.841715
-3.19372 0.869173 0.832686
-3.18483 0.863959 0.818694
-3.1919 0.865831 0.809718
-3.19697 0.865701 0.800757
-3.19007 0.862489 0.786751
-3.19519 0.862271 0.771791
-3.19245 0.857766 0.737832
-3.1811 0.844485 0.651931
-3.28262 1.00613 1.3654
-3.30701 1.0912 1.57135
-3.29725 1.08272 1.5394
-3.30632 1.0836 1.53046
-3.2885 1.07425 1.50746
-3.30453 1.07818 1.50252
-3.29363 1.073 1.49051
-3.28477 1.06673 1.47254
-3.27999 1.06029 1.44359
-3.27421 1.05386 1.41464
-3.26759 1.04413 1.36573
-3.24221 1.00298 1.15411
-3.23627 0.999854 1.14612
-3.23238 0.996644 1.13213
-3.23256 0.99329 1.10818
-3.22966 0.990095 1.0952
-3.23782 0.98979 1.07427
-3.2279 0.985635 1.06425
-3.23197 0.98549 1.05428
-3.24004 0.986363 1.04533
-3.23016 0.981119 1.02933
-3.2173 0.974859 1.01232
-3.21738 0.972696 1.00135
-3.21946 0.972535 0.990372
-3.22848 0.974511 0.98841
-3.22259 0.970285 0.973426
-3.21769 0.96709 0.960435
-3.21379 0.964895 0.947436
-3.21986 0.964766 0.938482
-3.21097 0.960537 0.923476
-3.21704 0.961409 0.914508
-3.2131 0.959302 0.907508
-3.2033 0.952896 0.880525
-3.20646 0.950588 0.85958
