-1.89589 1.76319 6.28755
-1.92083 1.76733 6.29568
-1.94284 1.76931 6.29381
-1.96292 1.76718 6.284
-1.98591 1.77021 6.28512
-2.00792 1.77121 6.28428
-2.01502 1.76801 6.27037
-2.03703 1.77001 6.26951
-2.05905 1.77098 6.26666
-2.0801 1.77089 6.25982
-2.10211 1.77189 6.25897
-2.11925 1.76864 6.24115
-2.14321 1.77172 6.24528
-2.15422 1.77271 6.24435
-2.17527 1.77262 6.23751
-2.1963 1.77358 6.23365
-2.21931 1.77458 6.23281
-2.23349 1.77023 6.20898
-2.2604 1.77542 6.22011
-2.2724 1.77643 6.22018
-2.29245 1.77634 6.21333
-2.31252 1.77522 6.2045
-2.33455 1.77617 6.20065
-2.35363 1.77503 6.18981
-2.37566 1.77598 6.18596
-2.40062 1.78007 6.19109
-2.40478 1.77478 6.1712
-2.42973 1.77989 6.17731
-2.45077 1.77981 6.17147
-2.47379 1.7818 6.16961
-2.49384 1.7817 6.16176
-2.51489 1.78162 6.15592
-2.53594 1.78254 6.14907
-2.54401 1.78041 6.14016
-2.56898 1.78347 6.1433
-2.59004 1.78438 6.13645
-2.60518 1.78111 6.11761
-2.62819 1.78311 6.11675
-2.64532 1.77986 6.09892
-2.66833 1.78186 6.09807
-2.68032 1.78389 6.09913
-2.69253 1.77748 6.07131
-2.71259 1.77839 6.06445
-2.74051 1.78354 6.07358
-2.7596 1.78238 6.06174
-2.78163 1.78334 6.05789
-2.79166 1.78329 6.05397
-2.80682 1.78 6.03413
-2.82688 1.77988 6.02528
-2.85481 1.78503 6.03442
-2.86898 1.78172 6.01257
-2.89199 1.78371 6.01071
-2.91304 1.78463 6.00486
-2.92504 1.78563 6.00393
-2.94019 1.78236 5.98509
-2.96025 1.78225 5.97724
-2.98032 1.78212 5.9674
-3.00531 1.78515 5.96854
-3.02537 1.78605 5.96068
-3.03639 1.78701 5.95774
-3.05447 1.78586 5.9469
-3.07751 1.7878 5.94204
-3.09559 1.78665 5.93119
-3.11763 1.7886 5.92633
-3.14559 1.79269 5.93148
-3.16369 1.79151 5.91863
-3.17272 1.79144 5.9137
-3.19772 1.79446 5.91384
-3.21879 1.79534 5.90499
-3.23196 1.79103 5.88315
-3.25695 1.79405 5.88329
-3.2701 1.79076 5.86344
-3.29215 1.79269 5.85757
-3.3012 1.79159 5.85066
-3.31831 1.79038 5.8358
-3.34233 1.79235 5.83295
-3.36437 1.79429 5.82809
-3.38444 1.79418 5.81924
-3.39464 1.7898 5.79338
-3.41273 1.78862 5.78053
-3.42376 1.78958 5.7776
-3.44679 1.79153 5.77274
-3.46488 1.79036 5.7609
-3.48792 1.7923 5.75604
-3.50009 1.78899 5.73418
-3.52114 1.78988 5.72632
-3.53513 1.79192 5.7284
-3.55223 1.79073 5.71454
-3.56835 1.7895 5.69868
-3.59237 1.79249 5.69682
-3.61145 1.79234 5.68596
-3.6256 1.78906 5.66611
-3.6516 1.79308 5.66625
-3.6636 1.79507 5.66531
-3.68072 1.79386 5.65045
-3.69683 1.79165 5.63561
-3.72086 1.79461 5.63174
-3.73697 1.7934 5.61688
-3.76494 1.79846 5.62002
-3.77401 1.79735 5.6121
-3.78814 1.79509 5.59424
-3.81908 1.80122 5.60138
-3.82532 1.79476 5.57052
-3.83749 1.79145 5.54866
-3.86843 1.79757 5.5558
-3.89147 1.7995 5.54995
-3.89557 1.79731 5.53701
-3.93572 1.79904 5.51728
-3.95381 1.79888 5.50542
-5.42641 1.79298 4.23542
-5.50313 1.79162 4.14001
-5.51925 1.79241 4.12512
-5.56473 1.79049 4.06148
-5.57687 1.78922 4.04259
-5.58901 1.78896 4.02468
-5.60314 1.78871 4.00679
-5.61827 1.78846 3.9899
-5.63339 1.78924 3.974
-5.6335 1.78703 3.96003
-5.63569 1.78265 3.93411
-5.65081 1.78342 3.91821
-5.65799 1.78109 3.8953
-5.6741 1.78188 3.88041
-5.69739 1.78032 3.8416
3.66617 1.65102 5.09014
-0.354878 1.7502 6.28513
-0.37577 1.75442 6.29923
-0.396808 1.75337 6.2944
-0.417791 1.75441 6.29655
-0.438806 1.7544 6.2947
-0.458874 1.75228 6.28589
-0.468851 1.75333 6.28895
-0.489904 1.75224 6.28212
-0.510872 1.75331 6.28626
-0.530018 1.74805 6.26748
-0.551032 1.74803 6.26564
-0.571108 1.7459 6.25582
-0.592046 1.74903 6.26393
-0.60213 1.74588 6.25306
-0.623052 1.75004 6.26315
-0.644028 1.7511 6.26629
-0.664096 1.74898 6.25748
-0.685134 1.74792 6.25265
-0.705163 1.74788 6.2488
-0.726139 1.74994 6.25193
-0.737085 1.75205 6.25898
-0.756223 1.7468 6.2412
-0.778183 1.74989 6.24632
-0.798197 1.74987 6.24447
-0.81732 1.74565 6.22868
-0.838327 1.74565 6.22783
-0.84928 1.74775 6.23389
-0.868402 1.74452 6.21808
-0.889409 1.74453 6.21723
-0.909461 1.74344 6.2104
-0.932337 1.74969 6.22648
-0.949506 1.74338 6.2047
-0.971489 1.74542 6.20684
-1.00251 1.7454 6.20407
-1.06551 1.74845 6.2045
-1.15665 1.74723 6.1862
-1.2927 1.75221 6.17915
-1.36189 1.74989 6.15471
-1.40391 1.75088 6.15201
-3.08275 1.77143 5.64628
-3.10281 1.77132 5.63843
-3.13996 1.77105 5.61871
-3.17085 1.77928 5.63283
-3.17711 1.77078 5.599
-3.19913 1.77274 5.59513
-3.2062 1.77163 5.5872
-3.22231 1.77042 5.57234
-3.2473 1.77345 5.57348
-3.26537 1.77332 5.56362
-3.42105 1.77208 5.4738
-3.50341 1.77244 5.42741
-3.55355 1.77518 5.40774
-3.57065 1.774 5.39488
-3.60781 1.77472 5.37415
-3.64101 1.77335 5.34742
-3.66205 1.77427 5.34156
-3.67011 1.77416 5.33362
-3.68819 1.77402 5.32376
-3.71023 1.77597 5.3189
-3.73227 1.77889 5.31302
-3.74244 1.77456 5.29016
-3.76052 1.77443 5.28029
-3.77154 1.77539 5.27736
-3.79161 1.77627 5.2685
-3.81463 1.77923 5.26463
-3.83074 1.77903 5.25075
-3.84883 1.77887 5.23889
-3.8679 1.77975 5.23002
-3.88089 1.78176 5.23008
-3.89601 1.78055 5.21521
-3.92102 1.78453 5.21334
-3.93613 1.78332 5.19847
-3.95818 1.78525 5.19261
-3.9733 1.78402 5.17674
-3.99732 1.787 5.17388
-4.0024 1.78484 5.16294
-4.0284 1.78984 5.16207
-4.04353 1.78762 5.14621
-4.06754 1.79159 5.14333
-4.08366 1.79038 5.12847
-4.10769 1.79334 5.12461
-4.12379 1.79314 5.11073
-4.13382 1.79409 5.10679
-4.15488 1.79598 5.09892
-4.17198 1.7958 5.08605
-4.19106 1.79666 5.07518
-4.21112 1.79755 5.06732
-4.66894 1.7963 4.69373
-4.69817 1.79486 4.66297
-4.7294 1.79444 4.63321
-4.75443 1.79839 4.62834
-4.75059 1.79309 4.60838
-4.77265 1.79599 4.6005
-4.79372 1.79785 4.59063
-4.79792 1.79347 4.56473
-4.81402 1.79328 4.55085
-4.83113 1.79408 4.53696
-4.83533 1.7897 4.51106
-4.84339 1.78959 4.50312
-4.86346 1.79145 4.49324
-4.86667 1.78606 4.46634
-4.8927 1.79 4.46148
-4.9098 1.79082 4.44859
-4.91102 1.78539 4.41968
-4.9301 1.78724 4.40879
-4.94312 1.78921 4.40586
-4.95326 1.78693 4.38697
-4.96541 1.78566 4.36808
-4.98548 1.78753 4.3582
-4.99762 1.78627 4.34031
-5.01373 1.78706 4.32542
-5.02388 1.78477 4.30552
-5.02399 1.78156 4.29157
-5.04308 1.7834 4.27968
-5.06117 1.78524 4.26779
-5.0743 1.78398 4.24991
-5.08842 1.78375 4.23401
-5.10751 1.78559 4.22213
-5.1117 1.78122 4.19722
-5.12372 1.78319 4.19428
-5.12791 1.77882 4.16938
-5.14402 1.77961 4.15448
-5.16013 1.78041 4.14059
-5.17922 1.78225 4.12871
-5.19135 1.78099 4.11081
-5.2005 1.7787 4.09091
-5.20459 1.77754 4.07996
-5.22169 1.77835 4.06607
-5.2368 1.77914 4.05118
-5.24993 1.77889 4.03428
-5.26504 1.77868 4.01939
-5.27718 1.77842 4.00148
-5.28633 1.77614 3.98158
-5.29141 1.77599 3.97162
-5.30652 1.77578 3.95674
-5.32164 1.77655 3.94084
-5.33178 1.77528 3.92193
-5.34789 1.77607 3.90704
-5.36102 1.77583 3.89014
-5.36808 1.77571 3.88219
-5.38121 1.77547 3.86529
-5.39533 1.77525 3.8494
-0.226525 1.74688 6.06618
-0.266538 1.74688 6.06449
-0.286545 1.74688 6.06364
-0.296576 1.74583 6.05973
-0.336621 1.74477 6.05404
-0.377565 1.7479 6.06131
-0.397549 1.74895 6.06344
-0.406641 1.74477 6.05157
-0.426609 1.74685 6.05569
-0.445708 1.74367 6.04288
-0.465793 1.74052 6.03208
-0.485791 1.74154 6.03221
-0.505783 1.74157 6.03336
-0.525744 1.74365 6.03848
-0.53482 1.74151 6.02858
-0.555804 1.74256 6.03072
-0.573919 1.73835 6.01592
-0.594833 1.74253 6.02702
-0.615832 1.74254 6.02718
-0.634878 1.74147 6.02133
-0.6449 1.74143 6.01841
-0.663946 1.73936 6.01258
-0.684906 1.74244 6.0177
-0.703006 1.73827 6.00489
-0.723981 1.74032 6.00802
-0.743011 1.73928 6.00418
-0.762118 1.73609 5.99037
-0.772102 1.73712 5.99243
-0.792132 1.73708 5.98858
-0.811185 1.73599 5.98174
-0.871212 1.73697 5.97818
-0.902173 1.73907 5.98338
-3.16004 1.76497 5.34192
-3.63005 1.76832 5.07637
-3.6511 1.76925 5.07052
-3.67312 1.77221 5.06664
-3.68428 1.76892 5.04677
-3.70928 1.77292 5.0459
-3.71436 1.77078 5.03596
-3.72847 1.76957 5.02109
-3.75644 1.77565 5.02521
-3.77055 1.77443 5.01033
-3.78566 1.77322 4.99546
-3.8077 1.77616 4.99058
-3.81885 1.77288 4.97071
-3.82986 1.77387 4.96978
-3.85783 1.77993 4.9729
-3.8581 1.77142 4.93802
-3.88409 1.77645 4.93915
-3.90811 1.77942 4.93628
-3.91628 1.77509 4.91341
-3.93634 1.77698 4.90553
-3.95725 1.78316 4.9166
-3.96543 1.77883 4.89372
-3.9855 1.78071 4.88484
-4.00654 1.78264 4.87897
-4.01768 1.78036 4.86008
-4.04369 1.78437 4.85922
-4.06263 1.78948 4.86629
-4.07278 1.78619 4.84641
-4.08195 1.78288 4.82453
-4.11092 1.78896 4.82865
-4.12108 1.78565 4.80778
-4.1441 1.78961 4.80389
-4.18633 1.7902 4.7742
-4.57271 1.79177 4.45904
-4.58484 1.79052 4.44215
-4.60314 1.78495 4.40236
-4.6252 1.78784 4.39449
-4.63137 1.78452 4.37258
-4.64549 1.7833 4.3567
-4.65055 1.78317 4.34774
-4.67261 1.78506 4.33988
-4.67779 1.78171 4.31596
-4.69984 1.78462 4.30908
-4.70801 1.7813 4.28719
-4.71914 1.78006 4.27029
-4.73425 1.77985 4.25541
-4.73634 1.77769 4.24445
-4.75244 1.77849 4.23056
-4.76855 1.7783 4.21668
-4.77571 1.77598 4.19477
-4.78387 1.77269 4.17488
-4.80592 1.7766 4.16798
-4.82897 1.7795 4.16011
-4.8261 1.77526 4.14415
-4.83723 1.774 4.12625
-4.85234 1.7748 4.11235
-4.8595 1.77148 4.09045
-4.8756 1.7723 4.07756
-4.89667 1.77518 4.06867
-4.90074 1.77404 4.05872
-4.92181 1.77592 4.04985
-4.93096 1.77463 4.02993
-4.93911 1.77234 4.01003
-4.97032 1.77295 3.98225
-4.97649 1.76963 3.96034
-4.98552 1.77156 3.95538
-5.0066 1.77343 3.94551
-5.01077 1.77009 3.92259
-5.02588 1.77088 3.90769
-5.04397 1.77172 3.89581
-5.05709 1.77149 3.87991
-5.07021 1.77126 3.86401
-5.07031 1.76907 3.85104
-5.08542 1.76986 3.83614
-5.11067 1.7694 3.80433
-5.15102 1.76874 3.75764
-0.193716 1.74352 5.90797
-0.202716 1.74352 5.90803
-0.261706 1.74458 5.90946
-0.280806 1.7404 5.89667
-0.300751 1.74352 5.90377
-0.309844 1.73935 5.8919
-0.328851 1.73935 5.89104
-0.348888 1.73829 5.88621
-0.367895 1.73829 5.88535
-0.387894 1.7393 5.88549
-0.406917 1.73827 5.88265
-0.42597 1.73618 5.87582
-0.435993 1.73615 5.87289
-0.454961 1.73822 5.87701
-0.474944 1.73926 5.87914
-0.494936 1.73929 5.88029
-0.513951 1.73928 5.87844
-0.532996 1.7382 5.8726
-0.55205 1.73611 5.86577
-0.562057 1.7361 5.86484
-0.582009 1.73921 5.87095
-0.601024 1.73919 5.86909
-0.619201 1.73187 5.84633
-0.63913 1.73601 5.85542
-0.658206 1.73388 5.8456
-0.678151 1.736 5.85272
-0.687213 1.73388 5.84482
-0.70625 1.73382 5.83996
-0.724311 1.73172 5.83213
-0.744295 1.73276 5.83426
-0.783308 1.73376 5.83254
-0.851327 1.73577 5.83002
-0.871349 1.73574 5.82717
-3.14532 1.76345 5.17281
-3.16339 1.76332 5.16294
-3.18047 1.76318 5.15307
-3.19754 1.76305 5.1432
-3.21758 1.76499 5.13832
-3.22167 1.76281 5.12638
-3.2427 1.76477 5.12251
-3.26471 1.76775 5.12063
-3.2729 1.76239 5.09577
-3.29393 1.76435 5.0919
-3.31298 1.76526 5.08503
-3.33006 1.76511 5.07416
-3.35518 1.76489 5.05835
-3.3772 1.76787 5.05647
-3.38736 1.76457 5.03559
-3.42251 1.7643 5.01586
-3.44156 1.76521 5.00899
-3.45059 1.76616 5.00504
-3.47063 1.76808 4.99916
-3.48375 1.76586 4.98329
-3.50775 1.76987 4.98341
-3.52285 1.76869 4.97054
-3.53795 1.7675 4.95667
-3.55009 1.76524 4.9388
-3.56901 1.7714 4.94885
-3.58311 1.7692 4.93499
-3.6002 1.76904 4.92312
-3.6242 1.77305 4.92324
-3.63336 1.76975 4.90235
-3.65341 1.77166 4.89547
-3.66937 1.77575 4.90053
-3.67952 1.77247 4.88166
-3.69561 1.77129 4.86879
-3.7216 1.77634 4.87091
-3.71988 1.76679 4.83404
-3.74191 1.76975 4.83016
-3.76591 1.77375 4.82928
-3.77 1.77159 4.81834
-3.794 1.77559 4.81746
-3.81504 1.77852 4.81158
-3.8252 1.77523 4.7917
-3.84425 1.77714 4.78481
-3.87024 1.78116 4.78495
-3.87531 1.78003 4.776
-3.89239 1.78088 4.76512
-3.9075 1.77968 4.75125
-3.9226 1.77849 4.73738
-3.94265 1.78141 4.73149
-3.9627 1.78332 4.72461
-3.97583 1.78108 4.70774
-3.98882 1.7841 4.70879
-4.00987 1.78602 4.70192
-4.02101 1.78376 4.68403
-4.03413 1.78253 4.66815
-4.0663 1.7832 4.64438
-4.57543 1.78738 4.2301
-4.61071 1.78686 4.19336
-4.65303 1.78625 4.15069
-4.66725 1.78383 4.12182
-4.6893 1.78674 4.11495
-4.69249 1.78138 4.09005
-4.70859 1.7832 4.07714
-4.73362 1.78715 4.07327
-4.73482 1.78176 4.04635
-4.74894 1.78154 4.03146
-4.76095 1.78352 4.02952
-4.77606 1.78433 4.01562
-4.78421 1.78204 3.99571
-4.79931 1.78184 3.98183
-4.80646 1.77955 3.96191
-4.81859 1.77831 3.94502
-4.84064 1.78222 3.93813
-4.84273 1.78004 3.92618
-4.84791 1.77671 3.90326
-4.86997 1.7796 3.89538
-4.88308 1.77939 3.88048
-4.89421 1.77815 3.86358
-4.90037 1.77584 3.84266
-4.91646 1.77666 3.82977
-4.91855 1.77448 3.81781
-4.9426 1.77941 3.81192
-4.95571 1.7792 3.79702
-4.95691 1.77382 3.77111
-4.97897 1.77671 3.76323
-4.99705 1.77956 3.75232
-4.99516 1.77534 3.73737
-5.0043 1.77408 3.71945
-5.01742 1.77385 3.70355
-5.02259 1.77053 3.68164
-5.03271 1.77029 3.66472
-5.0498 1.77112 3.65283
-5.06391 1.77191 3.63792
-5.06997 1.77179 3.62997
-5.07912 1.77052 3.61105
-5.0982 1.77237 3.60017
-5.11032 1.77214 3.58426
-5.12244 1.77191 3.56835
-5.12661 1.76859 3.54643
-5.1437 1.77041 3.53353
-5.1438 1.76822 3.52056
-5.15592 1.76799 3.50466
-5.17103 1.7688 3.49076
-5.18812 1.77063 3.47886
-5.1893 1.76628 3.45493
-5.20341 1.76706 3.44002
-5.21454 1.76682 3.4231
-5.21861 1.76569 3.41415
-5.23073 1.76545 3.39724
-5.24086 1.7652 3.38032
-5.25199 1.76496 3.3634
-5.27207 1.76681 3.35253
-5.27225 1.76246 3.32859
-5.29631 1.76735 3.3207
-5.30039 1.76621 3.31074
-5.30654 1.76492 3.29081
-5.31369 1.76263 3.27089
-5.32979 1.76445 3.25798
-5.34191 1.76422 3.24208
-5.35005 1.76294 3.22315
-5.35918 1.76268 3.20522
-5.37121 1.76463 3.20129
-5.37936 1.76336 3.18236
-5.39664 1.76082 3.14553
-5.43508 1.76098 3.0868
-0.412623 1.74091 5.65562
-0.432592 1.74199 5.65975
-0.469644 1.74091 5.65305
-0.487651 1.74091 5.65218
-0.496689 1.73984 5.64727
-0.516627 1.74298 5.65537
-0.534703 1.74084 5.64554
-0.553656 1.74294 5.65165
-0.570833 1.73562 5.62888
-0.590739 1.74081 5.64096
-0.610653 1.74498 5.65205
-0.619706 1.74289 5.64515
-0.636837 1.73765 5.62835
-0.65672 1.74288 5.64343
-0.673843 1.73866 5.62762
-0.692858 1.73865 5.62576
-0.711887 1.7386 5.6219
-0.728979 1.73543 5.61008
-0.738955 1.73649 5.61314
-0.75983 1.74274 5.6292
-0.776008 1.73541 5.60643
-0.795944 1.73954 5.61452
-0.813959 1.73953 5.61266
-0.832035 1.73739 5.60282
-0.851019 1.73843 5.60495
-0.861941 1.74259 5.61497
-0.879063 1.73837 5.59916
-0.897101 1.73731 5.59431
-0.916092 1.73833 5.59544
-0.935114 1.7383 5.59258
-0.952182 1.73718 5.58373
-0.962144 1.73826 5.58879
-0.980196 1.73717 5.58194
-0.99728 1.73502 5.5711
-1.01918 1.74023 5.58419
-1.03625 1.7381 5.57435
-1.07617 1.74429 5.58556
-1.11647 1.73373 5.54601
-1.17253 1.73465 5.53842
-1.18253 1.73465 5.5385
-1.21954 1.73665 5.53674
-1.25756 1.73865 5.535
-1.29754 1.74171 5.53726
-1.3407 1.73843 5.51663
-1.35679 1.73626 5.50478
-1.42284 1.73921 5.49823
-1.44087 1.73916 5.49437
-1.45892 1.73807 5.48752
-1.47988 1.74116 5.49263
-1.544 1.74097 5.47712
-1.58299 1.74501 5.47835
-1.59713 1.73974 5.45953
-1.61712 1.74279 5.46164
-1.64419 1.74166 5.45186
-1.71927 1.74555 5.44136
-1.75242 1.74228 5.42166
-1.78146 1.74322 5.41686
-1.79752 1.7421 5.408
-1.83556 1.74406 5.40326
-1.85459 1.74501 5.39939
-1.88166 1.7449 5.39059
-1.8997 1.74482 5.38473
-1.93578 1.7447 5.375
-1.97991 1.74446 5.35733
-2.03794 1.74843 5.35271
-2.1362 1.74899 5.31844
-2.16935 1.74673 5.29972
-2.18641 1.74661 5.29085
-2.23643 1.7506 5.28816
-2.25546 1.75155 5.28429
-2.29351 1.75448 5.27754
-2.31469 1.75014 5.25376
-2.36489 1.74879 5.22815
-2.42706 1.74949 5.20561
-2.49925 1.75016 5.18014
-2.52124 1.75421 5.18224
-2.61557 1.75361 5.13796
-2.63459 1.75558 5.13507
-2.65674 1.75231 5.11628
-2.67578 1.75424 5.1104
-2.69086 1.75209 5.09954
-2.70892 1.753 5.09266
-2.72992 1.756 5.09178
-2.82624 1.75743 5.04947
-2.8364 1.75313 5.02861
-2.85641 1.75511 5.02673
-2.86347 1.754 5.0188
-2.88054 1.75388 5.00993
-2.8976 1.75377 5.00206
-2.91761 1.75676 5.00016
-2.93173 1.75454 4.9853
-2.9588 1.75542 4.97549
-2.99194 1.75516 4.95674
-3.0169 1.76025 4.96186
-3.03595 1.76217 4.95597
-3.04314 1.75581 4.93112
-3.07303 1.76502 4.94421
-3.07614 1.76082 4.93029
-3.10928 1.76158 4.91253
-3.11648 1.75518 4.88567
-3.13848 1.7582 4.88579
-3.16146 1.76224 4.88791
-3.17049 1.76319 4.88396
-3.18459 1.76201 4.87108
-3.21154 1.76812 4.87719
-3.21379 1.75863 4.84435
-3.23184 1.76054 4.83745
-3.2499 1.76145 4.83058
-3.26894 1.76337 4.82469
-3.27204 1.76018 4.81176
-3.29207 1.76214 4.80788
-3.30913 1.76302 4.79899
-3.32323 1.76084 4.78613
-3.34228 1.76276 4.78025
-3.3554 1.76053 4.76437
-3.37345 1.76244 4.75748
-3.39038 1.76759 4.76653
-3.40251 1.76535 4.74966
-3.41661 1.76315 4.73579
-3.44258 1.76923 4.7399
-3.44284 1.75972 4.70604
-3.4599 1.76162 4.69814
-3.4839 1.76564 4.69826
-3.48896 1.76451 4.68931
-3.50307 1.76231 4.67545
-3.533 1.77046 4.68456
-3.55006 1.77134 4.67567
-3.56218 1.76911 4.65979
-3.57332 1.76686 4.64191
-3.58531 1.76888 4.64297
-3.59941 1.7677 4.63009
-3.61648 1.76856 4.6202
-3.64048 1.77358 4.62031
-3.64963 1.76929 4.60044
-3.66472 1.76912 4.58855
-3.68971 1.77416 4.58967
-3.69676 1.77407 4.58372
-3.71186 1.77289 4.57085
-3.72892 1.77377 4.56196
-3.74798 1.77566 4.55408
-3.76505 1.77654 4.54519
-3.78719 1.77628 4.52636
-3.80625 1.77817 4.51848
-3.83939 1.77892 4.49971
-3.85647 1.77977 4.48883
-3.86661 1.77751 4.47093
-3.89469 1.77936 4.46012
-4.76792 1.77769 3.63561
-4.80625 1.77807 3.59188
-4.82135 1.77889 3.57898
-4.85064 1.77733 3.54022
-4.8699 1.77483 3.5054
-4.88202 1.77461 3.49049
-4.90307 1.77851 3.48259
-4.91926 1.77715 3.45773
-4.93951 1.77568 3.4249
-4.98182 1.77809 3.38318
-5.0566 1.77662 3.28075
-5.07179 1.77526 3.25588
-5.08191 1.77501 3.23896
-5.09701 1.77683 3.22604
-5.10515 1.77457 3.20813
-5.11826 1.77536 3.19322
-5.13236 1.77616 3.17931
-5.12856 1.77077 3.15336
-5.13761 1.77169 3.14741
-5.1527 1.77351 3.1345
-5.17178 1.77636 3.1236
-5.17096 1.77202 3.10065
-5.1801 1.77076 3.08274
-5.19221 1.77155 3.06782
-5.19836 1.76925 3.04789
-5.20541 1.77016 3.04093
-5.22051 1.77097 3.02803
-5.22964 1.77071 3.0101
-5.24474 1.77153 2.9972
-5.25188 1.77026 2.97827
-5.26001 1.77001 2.96133
-5.2791 1.77285 2.94943
-5.26923 1.76659 2.93245
-5.28135 1.76736 2.91653
-5.28251 1.76405 2.89558
-5.28667 1.76174 2.87465
-5.30575 1.76459 2.86375
-5.31588 1.76435 2.84682
-5.31903 1.76206 2.82688
-5.33405 1.76502 2.82395
-5.33422 1.7617 2.80199
-5.34335 1.76145 2.78506
-5.36343 1.7643 2.77417
-5.3636 1.76096 2.75122
-5.38467 1.76483 2.74132
-5.38078 1.76162 2.72734
-5.39887 1.76445 2.71543
-5.39605 1.76011 2.69247
-5.40219 1.75884 2.67353
-5.4173 1.75962 2.65863
-5.41746 1.75631 2.63768
-5.44252 1.7622 2.62878
-5.45058 1.7631 2.62183
-5.45572 1.76182 2.60288
-5.45987 1.75953 2.58294
-5.47797 1.76235 2.57004
-5.49307 1.76415 2.55612
-5.49224 1.76083 2.53416
-5.50436 1.7616 2.51824
-5.49647 1.75739 2.50424
-5.50261 1.75611 2.4853
-5.51971 1.75893 2.47239
-5.52685 1.75765 2.45346
-5.528 1.75536 2.4335
-5.53913 1.75512 2.41658
-5.53531 1.75077 2.39362
-5.54933 1.75472 2.38966
-5.55847 1.75446 2.37173
-5.56162 1.75217 2.35179
-5.56476 1.74989 2.33284
-5.57489 1.75065 2.3159
-5.58303 1.75039 2.29797
-5.60112 1.75321 2.28506
-5.59821 1.75103 2.27307
-5.60551 1.74745 2.23417
-5.61364 1.74719 2.21623
-5.63788 1.74975 2.18537
-0.843302 1.7439 5.43379
-0.851364 1.74178 5.42588
-0.888369 1.7438 5.42513
-0.907344 1.74585 5.42824
-0.923421 1.74272 5.41841
-0.942404 1.74476 5.42052
-0.96138 1.74682 5.42363
-0.96848 1.74263 5.41075
-0.988402 1.74679 5.42084
-1.00549 1.74464 5.41
-1.02351 1.74461 5.40713
-1.04154 1.74457 5.40327
-1.06051 1.74662 5.40638
-1.07951 1.74764 5.40651
-1.08756 1.74656 5.40058
-1.10364 1.7434 5.38975
-1.12359 1.74651 5.39586
-1.14064 1.74643 5.38998
-1.15965 1.74643 5.38913
-1.17284 1.74007 5.36432
-1.19281 1.74214 5.36844
-1.2047 1.74734 5.38145
-1.2208 1.74518 5.3696
-1.23882 1.74513 5.36574
-1.25878 1.74824 5.37185
-1.27487 1.74507 5.36001
-1.29578 1.75025 5.37109
-1.30091 1.745 5.35421
-1.32087 1.74809 5.35931
-1.33988 1.75009 5.35843
-1.35596 1.74795 5.34858
-1.37205 1.74477 5.33574
-1.4081 1.74571 5.33
-1.42003 1.74985 5.33903
-1.43999 1.75294 5.34414
-1.45413 1.74768 5.32632
-1.47506 1.75281 5.3344
-1.49115 1.74965 5.32257
-1.51016 1.75065 5.3217
-1.51819 1.75059 5.31776
-1.53623 1.75053 5.31289
-1.55619 1.75361 5.317
-1.57226 1.75249 5.30814
-1.59127 1.75348 5.30726
-1.60736 1.75032 5.29543
-1.62537 1.7523 5.29354
-1.63537 1.75332 5.2946
-1.64853 1.74701 5.27279
-1.6685 1.75008 5.27689
-1.68652 1.75105 5.27401
-1.70358 1.74994 5.26616
-1.72453 1.75506 5.27324
-1.74256 1.755 5.26838
-1.74767 1.7508 5.25447
-1.7657 1.75175 5.2506
-1.7847 1.75277 5.25072
-1.7998 1.75059 5.23787
-1.81881 1.75157 5.236
-1.83684 1.75252 5.23212
-1.85194 1.74934 5.21928
-1.86584 1.75554 5.23229
-1.88094 1.75236 5.21945
-1.89897 1.75332 5.21557
-1.91699 1.75429 5.21269
-1.93601 1.75525 5.20982
-1.95111 1.75307 5.19697
-1.95913 1.75303 5.19403
-1.9801 1.75711 5.19812
-1.99617 1.75497 5.18828
-2.01126 1.75382 5.1774
-2.03126 1.75584 5.17753
-2.04439 1.75159 5.16069
-2.06537 1.75464 5.1628
-2.07831 1.75877 5.17084
-2.09536 1.75867 5.16396
-2.10946 1.75648 5.1501
-2.13142 1.76058 5.15621
-2.14455 1.75633 5.13837
-2.16454 1.75935 5.13947
-2.17454 1.76036 5.13953
-2.18865 1.75716 5.12568
-2.20375 1.75598 5.11281
-2.22669 1.7611 5.11991
-2.23784 1.75583 5.10107
-2.26078 1.76095 5.10817
-2.27686 1.7598 5.09731
-2.28588 1.76078 5.09536
-2.29802 1.75652 5.07751
-2.32194 1.76167 5.08662
-2.33408 1.75841 5.06875
-2.35213 1.75834 5.06289
-2.37508 1.76344 5.06899
-2.38622 1.75917 5.05013
-2.39721 1.76119 5.05119
-2.42739 1.75786 5.02746
-2.44642 1.75983 5.02457
-2.46739 1.76289 5.02769
-2.47953 1.75963 5.00982
-2.4956 1.75849 4.99996
-2.50659 1.76051 5.00101
-2.51675 1.75523 4.98116
-2.53774 1.75926 4.98226
-2.55577 1.7602 4.97739
-2.57185 1.75906 4.96752
-2.58694 1.75789 4.95565
-2.59988 1.76201 4.96269
-2.61104 1.7567 4.94185
-2.63696 1.76388 4.95294
-2.64909 1.76064 4.93608
-2.66122 1.7574 4.91921
-2.67728 1.75728 4.91033
-2.6963 1.75925 4.90745
-2.7004 1.75606 4.89452
-2.71844 1.757 4.88965
-2.74436 1.76416 4.89974
-2.75452 1.75886 4.87889
-2.77256 1.7608 4.87399
-2.79455 1.76383 4.87512
-2.79666 1.76061 4.86018
-2.81667 1.76259 4.8583
-2.83472 1.76352 4.85242
-2.84586 1.76024 4.83355
-2.86389 1.7612 4.82967
-2.88391 1.76418 4.82778
-2.8911 1.7578 4.80192
-2.90703 1.76296 4.81197
-2.92605 1.76492 4.80808
-2.93226 1.75752 4.78123
-2.95622 1.76361 4.78632
-2.98118 1.76871 4.79144
-2.99725 1.76858 4.78256
-2.9995 1.7601 4.7497
-3.01938 1.76733 4.76474
-3.03545 1.76721 4.75586
-3.03868 1.75977 4.726
-3.0666 1.76694 4.7361
-3.08464 1.76786 4.73022
-3.09874 1.76668 4.71734
-3.12073 1.77071 4.71845
-3.12877 1.77064 4.71351
-3.14484 1.77051 4.70363
-3.17006 1.7671 4.67487
-3.19108 1.77007 4.67198
-3.20813 1.77097 4.6651
-3.23125 1.76975 4.64929
-3.24534 1.76959 4.63739
-3.26241 1.76947 4.62852
-3.2765 1.7693 4.61663
-3.29257 1.76918 4.60775
-3.30766 1.76901 4.59587
-3.31965 1.77103 4.59693
-3.33374 1.77087 4.58503
-3.34783 1.7697 4.57316
-3.3639 1.77058 4.56426
-3.38196 1.77147 4.55638
-3.39802 1.77135 4.54751
-3.42312 1.77318 4.53467
-3.48345 1.77257 4.49112
-5.33696 1.76529 2.43691
-5.36557 1.76111 2.35618
-5.39179 1.7637 2.32733
-5.39992 1.76346 2.3104
-5.40008 1.76015 2.28944
-5.40912 1.76206 2.28348
-5.41227 1.75977 2.26354
-5.42738 1.76257 2.24961
-5.4355 1.76233 2.23267
-5.44263 1.76208 2.21572
-5.43682 1.75672 2.19176
-5.44694 1.75649 2.17583
-5.44403 1.75431 2.16384
-5.46311 1.75816 2.15293
-0.312619 1.73196 5.25794
-0.330641 1.73193 5.25508
-0.373709 1.72983 5.24643
-0.391662 1.73193 5.25254
-0.408684 1.7319 5.24967
-0.426668 1.73294 5.25179
-0.443706 1.73188 5.24693
-0.451767 1.72877 5.23904
-0.469736 1.73084 5.24314
-0.486766 1.72979 5.23928
-0.503819 1.7287 5.23243
-0.521756 1.73183 5.24052
-0.538833 1.7287 5.23069
-0.555886 1.72661 5.22385
-0.565793 1.73179 5.23585
-0.580939 1.72552 5.21705
-0.600837 1.73073 5.23013
-0.617852 1.73071 5.22826
-0.632983 1.72547 5.21145
-0.650951 1.72754 5.21555
-0.667073 1.72332 5.19973
-0.678903 1.73065 5.22172
-0.693064 1.72435 5.20091
-0.710125 1.72225 5.19307
-0.730001 1.7285 5.20913
-0.746077 1.72636 5.19928
-0.763138 1.72426 5.19144
-0.782052 1.72843 5.20252
-0.791051 1.72944 5.20258
-0.808066 1.72942 5.2007
-0.827034 1.73149 5.20482
-0.843079 1.73042 5.19895
-0.861101 1.73039 5.19609
-0.877154 1.72929 5.18923
-0.884216 1.72618 5.18132
-0.903199 1.72822 5.18344
-0.921175 1.73028 5.18654
-0.937258 1.72813 5.17569
-0.955235 1.72919 5.17881
-0.971303 1.72807 5.16995
-0.98834 1.727 5.16509
-0.998278 1.73013 5.17312
-1.01628 1.73114 5.17324
-1.03042 1.72589 5.15543
-1.04843 1.72687 5.15355
-1.06835 1.73103 5.16364
-1.08347 1.72782 5.1488
-1.0934 1.73095 5.15683
-1.11142 1.73093 5.15496
-1.12652 1.72775 5.14212
-1.14452 1.72876 5.14224
-1.16347 1.73287 5.14832
-1.18051 1.73179 5.14247
-1.19657 1.7307 5.1356
-1.20557 1.73069 5.13467
-1.2226 1.73064 5.1308
-1.23962 1.73061 5.12793
-1.25665 1.73158 5.12504
-1.27271 1.72946 5.11619
-1.29266 1.73357 5.12328
-1.30678 1.72935 5.10745
-1.31675 1.73141 5.1115
-1.33474 1.73344 5.1126
-1.34983 1.73028 5.10076
-1.36881 1.73333 5.10386
-1.38488 1.7312 5.09401
-1.40386 1.73326 5.09712
-1.41895 1.73109 5.08527
-1.4299 1.7342 5.0923
-1.44594 1.73312 5.08644
-1.47805 1.73192 5.0717
-1.49414 1.72977 5.06085
-1.52014 1.73178 5.06001
-1.59121 1.7347 5.05151
-1.92093 1.73848 4.95592
-1.96009 1.7362 4.93525
-3.04579 1.74563 4.44622
-3.09002 1.74522 4.41655
-3.10904 1.74719 4.41367
-3.14721 1.74787 4.39094
-3.19045 1.74643 4.35929
-3.22158 1.7472 4.34251
-3.22763 1.7471 4.33555
-3.27582 1.74877 4.31089
-3.28693 1.74656 4.296
-3.30596 1.74951 4.2921
-3.313 1.74944 4.28715
-3.3251 1.74824 4.27326
-3.34711 1.75124 4.27238
-3.3602 1.75106 4.25948
-3.37329 1.74989 4.2476
-3.38738 1.74974 4.2367
-3.40035 1.75279 4.23976
-3.40652 1.74847 4.21786
-3.42556 1.75041 4.21298
-3.44558 1.75438 4.21007
-3.45867 1.75321 4.19818
-3.47275 1.75306 4.18729
-3.4898 1.75497 4.18039
-3.49188 1.75181 4.16945
-3.50895 1.75369 4.16055
-3.53194 1.75872 4.16165
-3.54107 1.75547 4.14476
-3.55515 1.75532 4.13387
-3.57518 1.75828 4.12998
-3.5853 1.75605 4.11408
-3.59135 1.75595 4.10713
-3.61237 1.75892 4.10424
-3.62745 1.75978 4.09434
-3.64252 1.76064 4.08444
-3.6566 1.76049 4.07355
-3.68159 1.76552 4.07466
-3.68477 1.76019 4.05176
-3.69479 1.76215 4.04881
-3.7168 1.76613 4.04692
-3.72692 1.7639 4.03102
-3.742 1.76477 4.02112
-3.77116 1.76548 4.00033
-3.8274 1.76903 3.9677
-4.70851 1.76563 3.02625
-4.75501 1.76467 2.95961
-4.76413 1.76444 2.94368
-4.77524 1.76424 2.92976
-4.78942 1.7639 2.90587
-4.79256 1.76062 2.88694
-4.80666 1.76244 2.87402
-4.82076 1.76326 2.86111
-4.82789 1.76201 2.84418
-4.84397 1.76486 2.83326
-4.8491 1.76259 2.81533
-4.85416 1.76248 2.80737
-4.86726 1.7633 2.79445
-4.87539 1.76205 2.77753
-4.8996 1.76365 2.74968
-4.90672 1.76342 2.73374
-4.91683 1.76321 2.71882
-4.92089 1.76309 2.71085
-4.93101 1.76286 2.69493
-4.94212 1.76266 2.68101
-4.95937 1.76219 2.64814
-4.96649 1.76096 2.63221
-5.03024 1.76152 2.53267
-5.06166 1.76071 2.47691
-5.07889 1.76027 2.44604
-5.10418 1.76071 2.40722
-5.11943 1.76023 2.37434
-5.12258 1.75795 2.35539
-5.13567 1.75977 2.34246
-5.1428 1.75852 2.32553
-5.14786 1.75941 2.31756
-5.151 1.75714 2.29961
-5.16311 1.75793 2.28469
-5.16226 1.75463 2.26473
-5.17039 1.75439 2.24779
-5.17153 1.75111 2.22885
-5.18862 1.75394 2.21693
-5.19069 1.75381 2.20795
-5.19483 1.75255 2.19
-5.20395 1.75232 2.17407
-5.2051 1.75002 2.15411
-5.20923 1.74776 2.13617
-5.21536 1.74751 2.11922
-5.22447 1.7473 2.10428
-5.22555 1.74615 2.09431
-5.23965 1.74895 2.08037
-5.24578 1.7477 2.06343
-0.272766 1.72868 5.10567
-0.289788 1.72865 5.1028
-0.306795 1.72865 5.10193
-0.323848 1.72656 5.09508
-0.340802 1.72866 5.10118
-0.357809 1.72866 5.10031
-0.374877 1.72654 5.09147
-0.382862 1.72657 5.09353
-0.399946 1.72342 5.0827
-0.416914 1.72549 5.0868
-0.433937 1.72446 5.08394
-0.450967 1.72441 5.08007
-0.467974 1.72441 5.0792
-0.484911 1.72754 5.08728
-0.493934 1.7265 5.08437
-0.510018 1.72335 5.07353
-0.527017 1.72437 5.07364
-0.544001 1.72541 5.07576
-0.560985 1.72645 5.07787
-0.578014 1.7264 5.074
-0.586053 1.72433 5.06909
-0.603068 1.72432 5.06722
-0.621004 1.72845 5.07529
-0.636135 1.72321 5.05848
-0.653111 1.72427 5.06159
-0.670126 1.72425 5.05972
-0.686202 1.72211 5.04987
-0.696124 1.72627 5.05989
-0.711224 1.72209 5.04706
-0.730161 1.72622 5.05514
-0.747175 1.7262 5.05327
-0.764167 1.72723 5.05439
-0.782142 1.72928 5.05749
-0.788251 1.72408 5.04361
-0.803343 1.72092 5.03177
-0.82038 1.72085 5.0269
-0.837379 1.72087 5.02703
-0.855332 1.72397 5.03312
-0.86947 1.71871 5.0153
-0.8865 1.71867 5.01143
-0.897383 1.7239 5.02644
-0.911537 1.71861 5.00662
-0.929473 1.72274 5.01469
-0.948411 1.72587 5.02279
-0.961572 1.71957 5.00198
-0.979571 1.72059 5.0021
-0.997531 1.72367 5.00719
-1.00461 1.72053 4.99729
-1.02354 1.72466 5.00537
-1.03765 1.72046 4.99154
-1.05465 1.72248 4.99164
-1.0736 1.72558 4.99773
-1.09159 1.72762 4.99984
-1.1057 1.72341 4.98501
-1.11372 1.72237 4.98208
-1.13265 1.72752 4.99115
-1.14872 1.7254 4.9823
-1.16671 1.72742 4.98341
-1.19781 1.72525 4.97067
-1.20875 1.72838 4.97871
-1.22382 1.72624 4.96885
-1.23988 1.72514 4.96099
-1.27391 1.7261 4.95723
-1.28897 1.725 4.94936
-1.30793 1.72808 4.95446
-1.31693 1.72909 4.95451
-1.33199 1.72698 4.94665
-1.34707 1.72485 4.9368
-1.36603 1.72893 4.94188
-1.38402 1.73096 4.94299
-1.3991 1.72882 4.93313
-1.40906 1.7309 4.93817
-1.42608 1.73187 4.93529
-1.44505 1.73393 4.9384
-1.46111 1.73384 4.93152
-1.47324 1.7286 4.91469
-1.49317 1.73373 4.92276
-1.51021 1.73367 4.91789
-1.52017 1.73575 4.92294
-1.53331 1.73149 4.9051
-1.55128 1.73355 4.9082
-1.56637 1.7324 4.89733
-1.58632 1.7355 4.90344
-1.60432 1.73751 4.90354
-1.61353 1.72911 4.87573
-1.62449 1.7322 4.88177
-1.64248 1.73422 4.88188
-1.65462 1.72996 4.86403
-1.67359 1.73303 4.86813
-1.69159 1.73504 4.86823
-1.70567 1.73289 4.85737
-1.72076 1.73074 4.84651
-1.73169 1.73487 4.85454
-1.76183 1.73162 4.83681
-1.79294 1.73042 4.82206
-1.81193 1.73245 4.82317
-1.81798 1.73137 4.81723
-1.83697 1.73439 4.81833
-1.854 1.73435 4.81446
-1.872 1.73635 4.81356
-1.91622 1.73195 4.78496
-1.92423 1.73294 4.784
-1.94126 1.73389 4.78012
-1.9583 1.73383 4.77525
-1.97237 1.73269 4.76537
-2.03148 1.73551 4.75077
-2.04654 1.73441 4.7429
-2.06356 1.73537 4.74001
-2.09664 1.73725 4.73023
-2.13578 1.736 4.71154
-2.16589 1.7348 4.69678
-2.18194 1.73471 4.68991
-2.20094 1.73772 4.69
-2.21502 1.73657 4.67913
-2.22402 1.73757 4.67918
-2.2381 1.73643 4.6693
-2.30326 1.73816 4.64776
-2.31638 1.73594 4.63289
-2.3234 1.7359 4.62995
-2.39055 1.73866 4.61041
-2.40463 1.7375 4.59953
-2.43264 1.74149 4.59768
-2.46178 1.74023 4.57892
-2.49093 1.73798 4.56017
-2.51696 1.74092 4.55532
-2.5461 1.73967 4.53756
-2.56214 1.7406 4.53166
-2.57524 1.73841 4.51879
-2.59425 1.7414 4.51689
-2.59931 1.7393 4.50996
-2.61437 1.73918 4.50107
-2.62943 1.73907 4.49319
-2.64845 1.74205 4.49128
-2.68054 1.74288 4.47851
-2.69561 1.74276 4.46963
-2.71672 1.74255 4.45479
-2.72981 1.74039 4.44292
-2.76586 1.74431 4.43613
-2.77797 1.74211 4.42225
-2.80303 1.74401 4.41441
-2.81513 1.74181 4.40053
-2.86329 1.74454 4.37985
-2.87143 1.74028 4.36197
-2.89341 1.74432 4.36408
-2.89551 1.74113 4.35114
-2.93453 1.74811 4.34833
-2.94466 1.74387 4.33147
-2.95972 1.74476 4.32357
-2.97774 1.74671 4.31967
-2.9828 1.7456 4.31173
-2.99391 1.7434 4.29784
-3.01096 1.74431 4.29096
-3.02898 1.74728 4.28805
-3.05196 1.75234 4.29114
-3.06307 1.75013 4.27626
-3.08098 1.7563 4.2873
-3.09011 1.75306 4.27042
-3.10518 1.75393 4.26152
-3.12322 1.75587 4.25662
-3.13531 1.75369 4.24375
-3.15037 1.75458 4.23585
-3.15951 1.75132 4.21796
-3.16852 1.7523 4.21601
-3.18854 1.75528 4.21412
-3.1947 1.75098 4.19323
-3.21669 1.75499 4.19333
-3.22583 1.75173 4.17545
-3.24089 1.75263 4.16755
-3.25695 1.75352 4.15965
-3.26102 1.75139 4.15071
-3.27708 1.75228 4.14282
-3.28818 1.7511 4.12992
-3.31513 1.7582 4.13602
-3.32623 1.75702 4.12312
-3.33833 1.75582 4.10923
-3.35439 1.75672 4.10133
-3.35647 1.75355 4.09039
-3.37154 1.75443 4.08149
-3.38265 1.75323 4.06759
-3.40168 1.75517 4.06271
-3.42169 1.75917 4.0618
-3.43181 1.75694 4.0459
-3.44094 1.7547 4.029
-3.44995 1.75567 4.02706
-3.46601 1.75657 4.01916
-3.47514 1.75432 4.00226
-3.49615 1.75831 4.00036
-3.50825 1.75712 3.98747
-3.52431 1.75802 3.97958
-3.54136 1.75993 3.97268
-3.54542 1.75881 3.96472
-3.56149 1.75969 3.95583
-3.57259 1.75849 3.94193
-3.59162 1.76144 3.93803
-3.59975 1.7582 3.92113
-3.62285 1.76001 3.90728
-3.64387 1.76399 3.90538
-3.65497 1.76279 3.89148
-3.67104 1.76367 3.88258
-3.68511 1.76453 3.87268
-3.70831 1.76317 3.84687
-0.479132 1.72414 4.92527
-0.513069 1.72828 4.93346
-0.521099 1.72723 4.92954
-0.537145 1.72515 4.92369
-0.554128 1.72719 4.92579
-0.603172 1.72714 4.92016
-0.621117 1.73026 4.92725
-0.629148 1.7292 4.92332
-0.645155 1.7292 4.92244
-0.661208 1.72711 4.91559
-0.676269 1.725 4.90774
-0.692315 1.72392 4.90187
-0.707422 1.71973 4.88805
-0.725366 1.72384 4.89512
-0.734304 1.72697 4.90314
-0.75035 1.72489 4.89729
-0.767341 1.72692 4.89839
-0.78434 1.72693 4.89852
-0.798463 1.72271 4.88269
-0.816392 1.72685 4.89176
-0.823446 1.72475 4.88485
-0.840453 1.72475 4.88397
-0.858405 1.72885 4.89005
-0.874435 1.7278 4.88619
-0.891434 1.72882 4.8863
-0.905541 1.72462 4.87246
-0.921548 1.72562 4.87157
-0.931501 1.72871 4.8776
-0.947538 1.72765 4.87274
-0.964545 1.72865 4.87185
-0.978637 1.72448 4.86002
-0.994651 1.72546 4.85812
-1.01164 1.72649 4.85923
-1.01871 1.72436 4.85032
-1.03476 1.72329 4.84445
-1.05173 1.72534 4.84755
-1.06778 1.72426 4.84169
-1.08283 1.72317 4.83482
-1.10273 1.72938 4.84788
-1.11778 1.72829 4.841
-1.1258 1.72826 4.83907
-1.14281 1.72824 4.83719
-1.15982 1.72923 4.83531
-1.17776 1.73336 4.84338
-1.19479 1.73331 4.83951
-1.20692 1.72807 4.82268
-1.22685 1.73322 4.83175
-1.23294 1.73006 4.82084
-1.24895 1.73004 4.81896
-1.26982 1.73829 4.835
-1.282 1.73096 4.8122
-1.29899 1.73299 4.8133
-1.31988 1.74021 4.82735
-1.33202 1.73395 4.80953
-1.34005 1.7339 4.80559
-1.35706 1.7349 4.80471
-1.37113 1.73276 4.79484
-1.38815 1.73373 4.79195
-1.40808 1.73889 4.80203
-1.41729 1.72948 4.77423
-1.42628 1.73152 4.77627
-1.44717 1.73772 4.78934
-1.46029 1.73351 4.7745
-1.47145 1.72721 4.75367
-1.49625 1.73961 4.77968
-1.51133 1.73746 4.76882
-1.52151 1.73013 4.74601
-1.53147 1.73321 4.75104
-1.54849 1.73318 4.74817
-1.5616 1.72998 4.73431
-1.58152 1.73513 4.74338
-1.59463 1.73193 4.72953
-1.60869 1.73082 4.72165
-1.61868 1.73184 4.72271
-1.6308 1.72863 4.70785
-1.65073 1.73276 4.71594
-1.66873 1.73478 4.71604
-1.6959 1.73047 4.69431
-1.71488 1.73351 4.69641
-1.71899 1.72931 4.6825
-1.73207 1.72717 4.67263
-1.75007 1.72917 4.67173
-1.76611 1.72911 4.66685
-1.78214 1.73006 4.66296
-1.80404 1.73625 4.67503
-1.81421 1.72993 4.6532
-1.82026 1.72885 4.64726
-1.83825 1.73188 4.64835
-1.85233 1.72973 4.63749
-1.87132 1.73277 4.63959
-1.88931 1.7358 4.64068
-1.9145 1.72943 4.61496
-1.9235 1.73145 4.616
-1.94052 1.73242 4.61311
-1.95459 1.73128 4.60323
-1.96768 1.72913 4.59236
-2.00565 1.7352 4.59556
-2.0117 1.7331 4.58863
-2.02578 1.73196 4.57875
-2.04278 1.73396 4.57785
-2.05981 1.73493 4.57497
-2.07191 1.73273 4.56109
-2.08992 1.73473 4.56019
-2.10399 1.7336 4.55132
-2.11003 1.73252 4.54538
-2.13197 1.73865 4.55345
-2.14506 1.73649 4.54158
-2.15716 1.7333 4.52872
-2.17221 1.73321 4.52183
-2.18825 1.73413 4.51594
-2.19824 1.73617 4.51798
-2.2133 1.73505 4.50911
-2.2313 1.73806 4.5092
-2.24341 1.73486 4.49534
-2.2624 1.73789 4.49644
-2.27844 1.73883 4.49155
-2.29448 1.73975 4.48565
-2.29757 1.73558 4.47373
-2.3087 1.73235 4.45786
-2.32669 1.73536 4.45796
-2.34766 1.73943 4.46205
-2.36665 1.74346 4.46314
-2.37579 1.73819 4.44428
-2.38888 1.73703 4.4334
-2.40282 1.74116 4.44144
-2.41195 1.7369 4.42357
-2.428 1.73783 4.41768
-2.4401 1.73564 4.4048
-2.46106 1.74072 4.40888
-2.47711 1.74064 4.403
-2.49117 1.74053 4.39511
-2.49821 1.74045 4.38916
-2.51128 1.73932 4.38028
-2.5293 1.74129 4.37738
-2.54435 1.7422 4.37048
-2.55547 1.73899 4.35561
-2.58039 1.74615 4.36569
-2.5815 1.74193 4.35076
-2.59952 1.74391 4.34887
-2.61161 1.74173 4.33599
-2.62864 1.74368 4.33209
-2.64173 1.74253 4.3212
-2.65579 1.74241 4.31231
-2.66382 1.74235 4.30837
-2.68184 1.74534 4.30646
-2.69293 1.74315 4.29358
-2.708 1.74303 4.28469
-2.72503 1.74498 4.28079
-2.74403 1.748 4.28089
-2.75909 1.74787 4.272
-2.76514 1.74679 4.26606
-2.77723 1.74562 4.25417
-2.7913 1.7455 4.24528
-2.80735 1.74641 4.23838
-2.82043 1.74525 4.2275
-2.83845 1.74824 4.22559
-2.84561 1.74293 4.20472
-2.85362 1.74391 4.20276
-2.8667 1.74275 4.19188
-2.88571 1.74575 4.19098
-2.90375 1.74769 4.18608
-2.91683 1.74754 4.17518
-2.93683 1.75155 4.17527
-2.95385 1.7535 4.17137
-2.952 1.74722 4.15245
-2.96706 1.74712 4.14456
-2.9831 1.74904 4.13865
-2.99618 1.7489 4.12875
-3.01718 1.75291 4.12885
-3.03124 1.75279 4.11996
-3.04432 1.75265 4.11006
-3.05136 1.75258 4.10511
-3.07137 1.75557 4.10322
-3.07851 1.75129 4.08433
-3.09555 1.75323 4.07943
-3.11259 1.75517 4.07453
-3.12368 1.75398 4.06163
-3.12885 1.74766 4.03976
-3.1448 1.75378 4.04679
-3.15787 1.75364 4.03689
-3.17392 1.75455 4.02999
-3.18701 1.75338 4.01811
-3.1991 1.75323 4.0072
-3.20723 1.74897 3.98932
-3.22417 1.7551 3.99736
-3.23031 1.75082 3.97847
-3.24043 1.7486 3.96358
-3.26736 1.75674 3.97166
-3.27153 1.75142 3.94977
-3.2866 1.7523 3.94086
-3.30959 1.75733 3.94196
-3.3087 1.75312 3.92802
-3.31782 1.74989 3.91213
-3.3408 1.75594 3.91422
-3.34299 1.74957 3.88932
-3.36201 1.75254 3.88642
-3.38104 1.75549 3.88252
-3.38113 1.75231 3.87057
-3.39124 1.7501 3.85567
-3.41324 1.75512 3.85577
-3.41939 1.75084 3.83687
-3.4285 1.74862 3.82197
-3.45743 1.75776 3.83006
-3.45566 1.74933 3.80116
-3.46467 1.75031 3.79922
-3.48271 1.75323 3.79331
-3.49183 1.75102 3.77841
-3.50689 1.75191 3.77051
-3.53186 1.75897 3.77359
-3.53305 1.7516 3.74871
-3.5491 1.75351 3.7418
-3.56209 1.75654 3.74285
-3.57617 1.7574 3.73294
-3.58428 1.75518 3.71803
-3.61838 1.76001 3.70522
-3.65159 1.75962 3.67747
-0.653035 1.72947 4.80548
-0.742114 1.73038 4.79514
-0.773206 1.72722 4.78342
-0.805219 1.72921 4.78163
-0.838225 1.73022 4.78086
-0.861301 1.72809 4.77107
-0.908383 1.72696 4.76044
-0.942342 1.73106 4.76563
-0.949364 1.73102 4.76269
-0.965418 1.72893 4.75584
-0.998392 1.733 4.75902
-1.01248 1.72883 4.74719
-1.04742 1.73497 4.75536
-1.05543 1.73495 4.75342
-1.08652 1.73281 4.74269
-1.10061 1.72964 4.73084
-1.13552 1.73683 4.742
-1.14259 1.7337 4.7331
-1.17462 1.73467 4.72932
-1.18969 1.73253 4.71947
-1.20473 1.73247 4.71458
-1.22366 1.73661 4.72366
-1.23871 1.73654 4.71778
-1.26177 1.73543 4.70997
-1.27876 1.73746 4.71106
-1.29383 1.73534 4.70221
-1.30985 1.73631 4.69931
-1.32685 1.73732 4.69943
-1.33484 1.73934 4.70046
-1.3499 1.73723 4.6926
-1.36496 1.73612 4.68473
-1.39797 1.73912 4.68293
-1.41302 1.73804 4.67706
-1.439 1.74109 4.67921
-1.45309 1.73892 4.66735
-1.52929 1.73658 4.64095
-1.55334 1.73751 4.63512
-1.56839 1.73641 4.62825
-1.58539 1.73841 4.62735
-1.60435 1.74251 4.63343
-1.61352 1.73518 4.61061
-1.64246 1.74132 4.61873
-1.67354 1.74118 4.60797
-1.69054 1.74319 4.60807
-1.70363 1.74002 4.59621
-1.71966 1.74098 4.59232
-1.72572 1.73886 4.58439
-1.75387 1.7356 4.56565
-1.77283 1.73969 4.57073
-1.78786 1.73963 4.56585
-1.80781 1.74473 4.57192
-1.82091 1.74155 4.55907
-1.82304 1.7363 4.54216
-1.83808 1.73623 4.53727
-1.85902 1.74137 4.54536
-1.87308 1.74126 4.53746
-1.88814 1.74015 4.52959
-1.90317 1.7411 4.52569
-1.91022 1.739 4.51877
-1.92623 1.74099 4.51686
-1.94227 1.74092 4.51198
-1.95732 1.74085 4.5061
-1.97139 1.73971 4.49622
-1.99134 1.74481 4.5023
-2.00246 1.7406 4.48744
-2.0144 1.74471 4.49447
-2.02454 1.74045 4.47661
-2.04352 1.74349 4.4787
-2.05464 1.74028 4.46383
-2.08571 1.74115 4.45405
-2.10273 1.74212 4.45117
-2.10877 1.74205 4.44621
-2.1258 1.74301 4.44233
-2.14575 1.74811 4.4484
-2.16178 1.74906 4.44451
-2.17487 1.74689 4.43264
-2.18402 1.74162 4.41378
-2.21003 1.74561 4.41192
-2.23099 1.7497 4.41702
-2.24112 1.74545 4.40015
-2.25813 1.74743 4.39825
-2.26925 1.74421 4.38238
-2.2843 1.74513 4.37648
-2.29428 1.74717 4.37853
-2.3044 1.74294 4.36266
-2.32438 1.74699 4.36575
-2.35251 1.74676 4.34897
-2.37347 1.75084 4.35306
-2.37755 1.74869 4.34312
-2.38866 1.74549 4.32925
-2.4037 1.74642 4.32335
-2.42368 1.75046 4.32544
-2.43774 1.75035 4.31755
-2.45083 1.7482 4.30668
-2.46785 1.75017 4.30378
-2.47586 1.75114 4.30182
-2.48598 1.74791 4.28595
-2.503 1.74988 4.28304
-2.51609 1.74773 4.27217
-2.52916 1.74759 4.26227
-2.56124 1.74945 4.25149
-2.57221 1.75252 4.25552
-2.57641 1.74513 4.22966
-2.59838 1.75021 4.23375
-2.61244 1.7501 4.22586
-2.62946 1.75207 4.22296
-2.64253 1.75093 4.21307
-2.66365 1.75072 4.19823
-2.70386 1.74834 4.17057
-2.72088 1.75029 4.16666
-2.73495 1.75017 4.15777
-2.74902 1.75005 4.14888
-2.75605 1.74999 4.14493
-2.78812 1.75387 4.13511
-2.80317 1.75377 4.12823
-2.81946 1.74524 4.09147
-2.84044 1.75028 4.09355
-2.8635 1.75217 4.0847
-2.8746 1.74998 4.07181
-2.90669 1.75283 4.06001
-2.92273 1.75476 4.0551
-2.94482 1.7546 4.04327
-2.98702 1.75523 4.01657
-2.99614 1.752 4.00069
-3.01724 1.75283 3.98783
-3.0313 1.75372 3.97993
-3.04833 1.75566 3.97502
-3.06042 1.7545 3.96413
-3.0735 1.75335 3.95325
-3.0946 1.75417 3.94039
-3.13283 1.75274 3.9097
-3.14492 1.75257 3.89779
-3.16909 1.75025 3.875
-3.18107 1.7543 3.87803
-3.20129 1.74987 3.84825
-3.22228 1.7549 3.84933
-3.24447 1.75155 3.82454
-3.25854 1.75243 3.81563
-3.2836 1.75632 3.80776
-3.29173 1.75308 3.79087
-3.30975 1.75603 3.78696
-3.31788 1.75279 3.77007
-3.35097 1.75663 3.75826
-3.35503 1.75552 3.75031
-3.37009 1.75641 3.74241
-3.38118 1.75524 3.7305
-3.38931 1.75299 3.7136
-3.40952 1.74961 3.6868
-3.42556 1.75153 3.68089
-3.43953 1.75559 3.68393
-3.45261 1.75645 3.67402
-3.4758 1.7541 3.64922
-3.50392 1.75586 3.63241
-0.214034 1.71523 4.67237
-0.23001 1.71629 4.67547
-0.237041 1.71523 4.67154
-0.253932 1.72045 4.68559
-0.26904 1.71526 4.67178
-0.284031 1.71628 4.67288
-0.300038 1.71628 4.672
-0.3151 1.71317 4.66416
-0.331983 1.7194 4.67919
-0.339083 1.71522 4.66631
-0.355036 1.71732 4.6724
-0.36919 1.71103 4.65259
-0.385174 1.71207 4.6547
-0.402096 1.71623 4.66477
-0.418048 1.71933 4.67084
-0.433126 1.7152 4.66102
-0.439249 1.70997 4.64514
-0.457062 1.71933 4.66914
-0.470302 1.70788 4.6384
-0.487184 1.71512 4.65342
-0.502223 1.71305 4.64857
-0.518237 1.71304 4.64669
-0.525284 1.71095 4.64077
-0.539368 1.7078 4.62992
-0.556328 1.71089 4.635
-0.573227 1.71609 4.64806
-0.588264 1.71503 4.64319
-0.602396 1.70879 4.62638
-0.616488 1.70562 4.61453
-0.626347 1.71289 4.6325
-0.640432 1.70874 4.62167
-0.655478 1.70766 4.6158
-0.673399 1.71282 4.62586
-0.688429 1.71178 4.62198
-0.703474 1.7107 4.61611
-0.727458 1.71275 4.61826
-0.758487 1.71271 4.6145
-0.774463 1.71476 4.61759
-0.803608 1.7095 4.59888
-0.826622 1.71049 4.59704
-0.857643 1.71047 4.59427
-0.912693 1.71241 4.58766
-0.942753 1.71131 4.5799
-0.957775 1.71128 4.57701
-1.00482 1.71222 4.57135
-1.02881 1.71425 4.57251
-1.09794 1.71405 4.55603
-1.19008 1.71484 4.53771
-1.19807 1.71584 4.53775
-1.24316 1.7157 4.52609
-1.28925 1.71555 4.51444
-1.31327 1.71653 4.51161
-1.38842 1.71729 4.49216
-1.42748 1.7182 4.48444
-1.44642 1.72333 4.49251
-1.45755 1.71808 4.47567
-1.48351 1.72216 4.4798
-1.54269 1.72086 4.45726
-1.5958 1.72167 4.44165
-1.62684 1.72361 4.43685
-1.65595 1.72143 4.4231
-1.82331 1.72582 4.37529
-1.90158 1.72435 4.3399
-2.12322 1.72724 4.25551
-2.14234 1.72501 4.23969
-2.2687 1.72838 4.19158
-2.39507 1.73373 4.14245
-2.65424 1.72961 3.98844
-2.68334 1.73142 3.97463
-2.81797 1.73128 3.89164
-2.82906 1.73011 3.87974
-2.89738 1.73053 3.83824
-2.93351 1.73329 3.82047
-2.97667 1.735 3.79877
-3.04212 1.73116 3.73931
-3.11251 1.73144 3.68783
-3.25627 1.73403 3.58686
-3.29251 1.7336 3.55613
-3.47045 1.74085 3.43035
-3.47063 1.73451 3.40744
-3.48983 1.73214 3.38162
-3.5029 1.732 3.37172
-3.51497 1.73288 3.36279
-3.5359 1.74102 3.37183
-3.54003 1.73676 3.35392
-3.55212 1.73661 3.34301
-3.56321 1.73644 3.3311
-3.58025 1.73936 3.32518
-3.59332 1.74022 3.31527
-3.60134 1.74118 3.31231
-3.61442 1.74204 3.3024
-3.62749 1.74292 3.29348
-3.63163 1.73864 3.27457
-3.65463 1.74466 3.27466
-3.65678 1.73936 3.25475
-3.68077 1.7464 3.25583
-3.68384 1.74526 3.24687
-3.70088 1.74819 3.24095
-3.70601 1.74494 3.22403
-3.73 1.75096 3.22413
-3.73414 1.74769 3.2062
-3.74622 1.74754 3.1953
-3.76227 1.75045 3.18837
-3.78239 1.75124 3.17351
-0.191088 1.71614 4.53216
-0.275085 1.7172 4.53278
-0.305099 1.71719 4.531
-0.336105 1.7182 4.53022
-0.366135 1.71716 4.52646
-0.374111 1.71821 4.52951
-0.388219 1.71302 4.51569
-0.404187 1.71609 4.51977
-0.418272 1.71194 4.50893
-0.43424 1.71401 4.51302
-0.448294 1.71191 4.50616
-0.4652 1.7171 4.51821
-0.472207 1.71709 4.51726
-0.486307 1.71291 4.50443
-0.502229 1.71707 4.51449
-0.518197 1.71914 4.51858
-0.532297 1.71496 4.50575
-0.547312 1.71494 4.50386
-0.563311 1.71595 4.50396
-0.569388 1.71181 4.49407
-0.585364 1.71386 4.49716
-0.600378 1.71385 4.49527
-0.616315 1.71798 4.50333
-0.628509 1.70861 4.47856
-0.645438 1.71276 4.48763
-0.65246 1.71272 4.48468
-0.667491 1.71167 4.48081
-0.68342 1.71582 4.48987
-0.697489 1.71269 4.48102
-0.713464 1.71575 4.4841
-0.726596 1.70951 4.46728
-0.741602 1.7105 4.46638
-0.752455 1.71779 4.48536
-0.764617 1.71049 4.46456
-0.777709 1.70732 4.4527
-0.794654 1.71044 4.45978
-0.81159 1.71557 4.46784
-0.824666 1.71243 4.45798
-0.832674 1.71242 4.45704
-0.84865 1.71448 4.46013
-0.87771 1.71338 4.45236
-0.890825 1.70817 4.43754
-0.906808 1.71021 4.43963
-0.930783 1.71327 4.44276
-0.944836 1.71218 4.43588
-0.960812 1.71423 4.43897
-0.97292 1.71004 4.42513
-0.988934 1.71002 4.42325
-1.0049 1.71309 4.42732
-1.01896 1.71098 4.41946
-1.02502 1.70887 4.41153
-1.04488 1.71716 4.43056
-1.05601 1.7119 4.41272
-1.07587 1.72018 4.43075
-1.08702 1.71391 4.41193
-1.10205 1.71386 4.40804
-1.11802 1.71693 4.41212
-1.12408 1.71482 4.40419
-1.13717 1.71065 4.39235
-1.15413 1.71474 4.39742
-1.17011 1.71678 4.39951
-1.18221 1.7126 4.38666
-1.20016 1.71671 4.39374
-1.20717 1.71669 4.39179
-1.2222 1.71664 4.3879
-1.23626 1.71553 4.38002
-1.25225 1.71757 4.38211
-1.26435 1.71439 4.36925
-1.28422 1.72164 4.38529
-1.29733 1.71844 4.37144
-1.30627 1.72155 4.37846
-1.31741 1.71629 4.36062
-1.33633 1.72146 4.37069
-1.34746 1.71621 4.35385
-1.36736 1.72342 4.36689
-1.37944 1.72126 4.35601
-1.38647 1.72021 4.35208
-1.39857 1.71704 4.34022
-1.41652 1.72113 4.34529
-1.43349 1.7242 4.34938
-1.44657 1.72206 4.33951
-1.46061 1.722 4.33461
-1.47075 1.71572 4.31578
-1.48267 1.72088 4.32579
-1.4977 1.72185 4.32289
-1.51369 1.72387 4.32398
-1.52871 1.72484 4.32108
-1.54374 1.72478 4.31619
-1.55388 1.71953 4.29935
-1.56696 1.71738 4.28847
-1.57887 1.72257 4.30049
-1.59193 1.72144 4.2916
-1.60597 1.72138 4.28671
-1.62197 1.72339 4.2868
-1.63699 1.72436 4.2839
-1.65203 1.72429 4.27901
-1.66706 1.72524 4.27511
-1.66821 1.71695 4.25524
-1.69106 1.72725 4.27426
-1.70119 1.72302 4.2584
-1.71623 1.72294 4.25251
-1.7293 1.72182 4.24363
-1.74824 1.72693 4.25069
-1.75232 1.72379 4.24077
-1.76441 1.72062 4.22891
-1.77942 1.7216 4.227
-1.81242 1.72662 4.22718
-1.82451 1.72446 4.2153
-1.83464 1.71921 4.19845
-1.84067 1.71916 4.1945
-1.86061 1.72429 4.20257
-1.87367 1.72418 4.19467
-1.88478 1.71997 4.17982
-1.90079 1.72196 4.17891
-1.91483 1.72189 4.17301
-1.92578 1.726 4.18004
-1.94179 1.72798 4.17813
-1.95093 1.72272 4.16027
-1.96793 1.72573 4.16035
-1.98688 1.73083 4.16642
-1.99503 1.72454 4.14657
-2.01302 1.72859 4.14865
-2.02298 1.73065 4.15269
-2.03015 1.72433 4.13084
-2.04223 1.72319 4.12095
-2.05824 1.72517 4.11904
-2.08339 1.7219 4.09927
-2.1053 1.73009 4.11132
-2.10938 1.72695 4.10139
-2.11751 1.72169 4.08353
-2.14141 1.72989 4.09659
-2.15052 1.72668 4.0817
-2.16655 1.72763 4.07781
-2.17961 1.72752 4.06991
-2.18972 1.72432 4.05603
-2.19772 1.72533 4.05608
-2.21965 1.73246 4.06414
-2.22582 1.72514 4.04229
-2.24479 1.73021 4.04636
-2.26179 1.73323 4.04644
-2.26599 1.72485 4.02059
-2.27499 1.72685 4.02063
-2.29495 1.73192 4.02471
-2.30111 1.72563 4.00484
-2.32206 1.73174 4.01091
-2.33709 1.73269 4.00701
-2.34325 1.72638 3.98615
-2.35928 1.72834 3.98224
-2.37319 1.73451 3.99325
-2.3764 1.72611 3.9664
-2.39044 1.72603 3.96051
-2.40745 1.72903 3.95959
-2.42053 1.72789 3.9497
-2.43655 1.73086 3.94678
-2.44948 1.73499 3.95482
-2.45663 1.73071 3.93593
-2.46771 1.72856 3.92505
-2.48768 1.73361 3.92812
-2.49581 1.73038 3.91223
-2.50295 1.72511 3.89336
-2.52293 1.73017 3.89643
-2.52402 1.72599 3.8845
-2.53806 1.72691 3.87859
-2.55606 1.72992 3.87868
