0.108916 1.77144 6.84539
0.0639627 1.77256 6.85171
0.0399021 1.77352 6.57784
0.0188105 1.77036 6.56604
0.00782584 1.7704 6.56812
-0.0133116 1.76615 6.55034
-0.035188 1.7704 6.56645
-0.0562953 1.76621 6.55267
-0.0791328 1.77253 6.57375
-0.100271 1.76728 6.55598
-0.110301 1.76623 6.55207
-0.133146 1.77254 6.57215
-0.154192 1.77047 6.56634
-0.197244 1.7694 6.55968
-0.240328 1.76627 6.54905
-0.25035 1.76623 6.54613
-0.27228 1.76838 6.55526
-0.294318 1.76732 6.55044
-0.315294 1.76838 6.55359
-0.337309 1.76837 6.55175
-0.390399 1.76623 6.54018
-2.09865 1.76894 6.24697
-2.13976 1.76876 6.23328
-2.15983 1.76763 6.22345
-2.18184 1.76962 6.22158
-2.20483 1.77165 6.22273
-2.232 1.76834 6.20098
-2.25695 1.77246 6.20811
-2.27408 1.76921 6.19028
-2.301 1.77439 6.20141
-2.32008 1.77324 6.19057
-2.33819 1.77103 6.17573
-2.35016 1.7731 6.17979
-2.37024 1.77197 6.16996
-2.3903 1.77185 6.16111
-2.41526 1.77494 6.16626
-2.43435 1.77378 6.15442
-2.4603 1.7789 6.16154
-2.47447 1.77358 6.13972
-2.48841 1.7767 6.14678
-2.50554 1.77446 6.12994
-2.53052 1.77751 6.13208
-2.55058 1.7774 6.12423
-2.57064 1.7773 6.11638
-2.5858 1.773 6.09556
-2.60979 1.77603 6.0967
-2.61785 1.77492 6.08877
-2.63987 1.77589 6.08592
-2.66289 1.77786 6.08307
-2.67804 1.77459 6.06423
-2.69909 1.7745 6.05739
-2.72309 1.77752 6.05752
-2.7331 1.7785 6.05558
-2.75415 1.77841 6.04874
-2.76833 1.77408 6.02591
-2.79036 1.77504 6.02206
-2.81239 1.77699 6.0182
-2.83344 1.77791 6.01134
-2.85547 1.77886 6.00749
-2.86944 1.78193 6.01155
-2.8895 1.78181 6.0027
-2.90759 1.78065 5.99086
-2.9316 1.78265 5.99001
-2.94772 1.78043 5.97416
-2.96779 1.78029 5.96431
-3.00182 1.78326 5.96052
-3.04393 1.78508 5.94681
3.78467 1.72989 5.3411
3.70811 1.73279 5.39864
3.68918 1.73196 5.4088
3.67329 1.73319 5.4239
3.66348 1.73755 5.44791
3.65756 1.73972 5.45893
3.63763 1.73887 5.46809
3.60281 1.74025 5.49234
3.5849 1.74044 5.50447
3.56903 1.74169 5.52058
3.56022 1.74708 5.54657
3.54418 1.744 5.54073
3.50804 1.73476 5.52314
3.05051 1.75791 5.85129
3.03565 1.76118 5.86935
3.01165 1.7582 5.86958
2.99678 1.76148 5.88764
2.9797 1.75633 5.87685
2.9618 1.75753 5.88997
2.92599 1.75993 5.9152
2.90604 1.75905 5.92237
2.88714 1.76125 5.93548
2.86821 1.7614 5.94462
2.86231 1.7636 5.95764
2.84034 1.76267 5.96181
2.81735 1.7597 5.96303
2.79741 1.75985 5.97218
2.78154 1.76311 5.98925
2.7606 1.76323 5.99641
2.74167 1.76338 6.00555
2.72866 1.76138 6.00468
2.71176 1.76358 6.01778
2.69183 1.76373 6.02693
2.66986 1.7628 6.03111
2.64992 1.76295 6.04026
2.62794 1.761 6.04245
2.62511 1.76632 6.0644
2.60313 1.76538 6.06758
2.58422 1.76658 6.0797
2.56122 1.76459 6.07991
2.54434 1.76683 6.095
0.960655 1.78041 6.54079
0.788833 1.78187 6.56507
0.765765 1.77876 6.55629
0.723888 1.78202 6.57256
0.701842 1.77995 6.56675
0.690912 1.78209 6.57581
0.668881 1.78005 6.572
0.625866 1.77905 6.57034
0.603897 1.77913 6.5745
0.582936 1.78021 6.57965
0.55986 1.77708 6.56987
0.54996 1.78028 6.5829
0.527868 1.77712 6.57111
0.50583 1.77506 6.5663
0.48493 1.77827 6.57941
0.462969 1.77936 6.58456
0.440816 1.77408 6.56481
0.419947 1.77835 6.5819
0.407878 1.77522 6.57304
0.386978 1.77843 6.58615
0.364848 1.7742 6.56938
0.343994 1.77849 6.58847
0.321895 1.77532 6.57569
0.299903 1.77535 6.57685
0.288919 1.77538 6.57893
0.267896 1.77436 6.57611
0.24592 1.77542 6.57926
0.22389 1.77437 6.57544
0.202852 1.77231 6.57063
0.180752 1.76814 6.55785
0.158922 1.77448 6.57993
0.14773 1.76712 6.55512
0.126877 1.77341 6.57418
0.104777 1.76924 6.56141
0.0838394 1.77137 6.56954
0.0618243 1.77036 6.56772
-2.74529 1.76221 5.76588
-2.78342 1.76199 5.74916
-2.79344 1.76195 5.74624
-2.8135 1.76286 5.73938
-2.83355 1.76376 5.73151
-2.89173 1.76446 5.70894
-2.93694 1.76207 5.68031
-2.95993 1.7651 5.68144
-2.979 1.76498 5.67258
-3.00102 1.76695 5.66972
-3.02305 1.76891 5.66586
-3.03916 1.7667 5.65101
-3.0482 1.76663 5.64608
-3.07022 1.7696 5.6432
-3.0893 1.76947 5.63334
-3.10343 1.76621 5.61549
-3.12842 1.77026 5.61762
-3.14157 1.76597 5.59778
-3.15258 1.76695 5.59585
-3.16968 1.76577 5.58299
-3.18875 1.76665 5.57412
-3.20484 1.76547 5.56126
-3.2318 1.77056 5.56639
-3.24003 1.76414 5.53754
-3.26304 1.76613 5.53569
-3.27899 1.77023 5.54175
-3.2941 1.76901 5.52688
-3.30726 1.76471 5.50604
-3.33422 1.76981 5.51117
-3.34539 1.76549 5.48931
-3.36545 1.76739 5.48143
-3.38748 1.76934 5.47757
-3.39553 1.76824 5.47064
-3.41558 1.76916 5.46378
-3.43762 1.7711 5.45892
-3.45668 1.77198 5.45005
-3.47378 1.7708 5.43719
-3.49384 1.77169 5.42933
-3.50683 1.77472 5.43038
-3.51998 1.77145 5.41153
-3.54793 1.77654 5.41666
-3.56997 1.77848 5.4118
-3.58311 1.77621 5.39293
-3.6293 1.77687 5.36826
-5.78807 1.74636 3.15067
-5.82247 1.74559 3.09694
-5.89545 1.74372 2.9675
3.41167 1.73414 5.34185
3.39476 1.73533 5.35396
3.38884 1.73648 5.36399
3.37498 1.73875 5.38206
3.35401 1.73784 5.38723
3.3371 1.73803 5.39936
3.32323 1.7403 5.41643
3.30126 1.73837 5.42063
3.28132 1.73749 5.42779
3.27743 1.74071 5.44278
3.25544 1.73875 5.44397
3.23347 1.73682 5.44817
3.22264 1.74117 5.47119
3.19358 1.73507 5.46349
3.17869 1.7373 5.47857
3.17886 1.74262 5.4995
3.15891 1.74173 5.50666
3.14302 1.74397 5.52175
3.12509 1.74411 5.53089
3.10921 1.74535 5.54599
3.0923 1.74654 5.5581
3.07742 1.74878 5.57418
3.06542 1.74679 5.5743
3.04547 1.74691 5.58145
3.02248 1.74394 5.58267
3.00558 1.74515 5.59578
2.98765 1.74529 5.60491
2.96669 1.7444 5.61109
2.94774 1.74352 5.61824
2.93676 1.74255 5.62034
2.92392 1.74687 5.64138
2.90905 1.75014 5.65844
2.88706 1.74818 5.66064
2.87118 1.74942 5.67574
2.84918 1.74745 5.67693
2.83819 1.74647 5.67803
2.81926 1.74662 5.68717
2.80338 1.74886 5.70326
2.78444 1.749 5.7114
2.76754 1.7502 5.72452
2.75064 1.75241 5.73761
2.72968 1.7515 5.74278
2.71867 1.74949 5.7419
2.70279 1.75174 5.75799
2.68082 1.7508 5.76117
2.66696 1.75409 5.78022
2.64395 1.75109 5.77944
2.62707 1.75433 5.79452
2.61708 1.75336 5.79661
2.60121 1.75561 5.8127
2.58432 1.75784 5.8278
2.56435 1.75692 5.83196
2.54645 1.75912 5.84507
2.53056 1.76136 5.86015
2.50756 1.75836 5.85937
2.49962 1.75948 5.86742
2.47967 1.7596 5.87457
2.46277 1.76181 5.88766
2.4418 1.76088 5.89183
2.4239 1.76309 5.90494
2.40089 1.76009 5.90416
2.38604 1.7644 5.92421
2.37707 1.76445 5.92727
2.35611 1.76355 5.93345
2.33717 1.76367 5.94059
2.2983 1.76496 5.95886
2.27323 1.75985 5.95013
2.25533 1.76204 5.96223
2.24841 1.76421 5.97325
1.51916 1.77313 6.20765
1.46724 1.77331 6.21804
1.40634 1.77355 6.23149
1.35236 1.77163 6.23493
1.31037 1.7697 6.23728
1.29145 1.77186 6.24739
1.26945 1.77087 6.24757
1.26258 1.77513 6.26456
1.2385 1.77098 6.2538
1.21647 1.76894 6.25
1.19652 1.77006 6.25713
1.15452 1.76709 6.25749
1.13457 1.76921 6.26461
1.12253 1.76613 6.25875
1.10363 1.76933 6.27184
1.0816 1.76731 6.26904
1.0627 1.77051 6.28214
1.03963 1.76638 6.27237
1.02071 1.76956 6.28347
1.00865 1.76645 6.2756
0.989759 1.76967 6.2897
0.966666 1.76551 6.27793
0.945674 1.76454 6.27911
0.924651 1.76351 6.27628
0.905774 1.76676 6.29237
0.88269 1.76361 6.28159
0.87379 1.76681 6.29462
0.852783 1.76581 6.29379
0.830744 1.76376 6.28898
0.81076 1.7638 6.29113
0.788721 1.76074 6.28634
0.770929 1.76815 6.31337
0.747784 1.76289 6.29462
0.739938 1.76819 6.31461
0.716822 1.76299 6.29986
0.695807 1.76197 6.29803
0.6748 1.76097 6.2972
0.653839 1.76206 6.30234
0.63387 1.76314 6.30648
0.622831 1.76107 6.30159
0.600816 1.76006 6.29977
0.580832 1.7601 6.30192
0.517856 1.75919 6.30541
0.424934 1.76041 6.31609
-2.96995 1.75915 5.41457
-2.98901 1.76005 5.40669
-2.99803 1.76001 5.40376
-3.01511 1.75986 5.39289
-3.046 1.76809 5.407
-3.05323 1.76065 5.37717
-3.0713 1.76051 5.3673
-3.08936 1.76041 5.35944
-3.10842 1.7613 5.35157
-3.11548 1.76019 5.34364
-3.13454 1.7611 5.33677
-3.14965 1.75889 5.32191
-3.16772 1.75875 5.31205
-3.18776 1.76069 5.30717
-3.20386 1.75951 5.29431
-3.22192 1.75939 5.28544
-3.23195 1.76034 5.2815
-3.25299 1.76228 5.27663
-3.26513 1.75903 5.25877
-3.28319 1.75891 5.24991
-3.30325 1.76082 5.24303
-3.32329 1.76174 5.23716
-3.33726 1.7648 5.24022
-3.35435 1.76465 5.22935
-3.36846 1.76243 5.21449
-3.38457 1.76124 5.20063
-3.4056 1.76318 5.19576
-3.42071 1.76198 5.18189
-3.44866 1.76809 5.18801
-3.44584 1.76174 5.16408
-3.46786 1.76471 5.1612
-3.48691 1.76562 5.15433
-3.50301 1.76444 5.14146
-3.52899 1.76948 5.14359
-3.54411 1.76727 5.12873
-3.55229 1.76292 5.10485
-3.56726 1.76599 5.10892
-3.58829 1.76893 5.10404
-3.60637 1.7688 5.09417
-3.62148 1.76759 5.0793
-3.64746 1.77164 5.08144
-3.67867 1.77026 5.05469
-3.6798 1.76601 5.03776
-3.72384 1.77194 5.031
-5.55254 1.74328 3.08694
-5.5607 1.74198 3.06701
-5.56286 1.73966 3.04506
-5.60005 1.7443 3.01927
-5.59218 1.74006 3.00327
-5.60132 1.73879 2.98436
-5.61742 1.74059 2.97045
-5.63154 1.74136 2.95454
-5.63986 1.73775 2.91265
-5.65995 1.74058 2.90076
-5.65008 1.73533 2.88376
-5.66519 1.73711 2.86885
-5.69026 1.74198 2.85896
-5.70239 1.74174 2.84205
-5.71153 1.74148 2.82412
-5.71967 1.74121 2.80519
-5.72682 1.73892 2.78527
-5.73487 1.74082 2.7783
-5.74401 1.74056 2.76037
-5.76527 1.74005 2.72554
-5.77142 1.73876 2.7056
-5.78057 1.73849 2.68667
-5.78671 1.73721 2.66773
-5.79676 1.73911 2.66078
-5.8059 1.73885 2.64285
-5.82417 1.73832 2.60599
-5.82634 1.735 2.58405
-5.83747 1.73575 2.56712
-5.83964 1.73343 2.54517
-5.84869 1.73433 2.53822
-5.84786 1.73099 2.51526
-5.87493 1.73686 2.50538
-5.87926 1.73223 2.46247
-5.89437 1.73402 2.44756
-5.90261 1.73156 2.41665
-5.91273 1.73232 2.39972
-5.94513 1.73356 2.34693
3.30308 1.72809 5.13173
3.28819 1.72931 5.14582
3.27533 1.73258 5.16387
3.2584 1.73275 5.174
3.24352 1.73399 5.1901
3.22761 1.73517 5.2012
3.20866 1.73428 5.20836
3.20274 1.73644 5.21837
3.18582 1.73661 5.2295
3.17397 1.7399 5.24854
3.15401 1.73901 5.2547
3.1371 1.7392 5.26683
3.12119 1.74037 5.27794
3.11628 1.74255 5.28994
3.09632 1.74165 5.29611
3.07737 1.74076 5.30226
3.06349 1.743 5.31834
3.0344 1.73586 5.30766
3.02053 1.73912 5.32472
3.0087 1.74344 5.34575
3.00581 1.74667 5.36072
2.98179 1.74264 5.35796
2.96385 1.74279 5.3671
2.94491 1.74192 5.37525
2.93004 1.74517 5.39132
2.91413 1.74636 5.40342
2.9011 1.74331 5.39957
2.88316 1.74345 5.4087
2.86626 1.74464 5.42081
2.84629 1.74272 5.42499
2.82632 1.74181 5.43016
2.81042 1.74301 5.44326
2.78843 1.74104 5.44446
2.77337 1.73693 5.43663
2.75544 1.73708 5.44576
2.7436 1.7414 5.46679
2.69083 1.74388 5.49716
2.67289 1.74403 5.50629
2.66188 1.74201 5.5044
2.64701 1.74527 5.52147
2.62603 1.74333 5.52466
2.60911 1.74449 5.53477
2.59424 1.74775 5.55183
2.5763 1.74788 5.55997
2.55532 1.74594 5.56315
2.55247 1.75123 5.5821
2.53249 1.74928 5.58528
2.51457 1.75046 5.5964
2.49765 1.75162 5.60651
2.47565 1.74964 5.60671
2.45975 1.75084 5.61981
2.45283 1.75401 5.63082
2.43185 1.75207 5.634
2.41595 1.75426 5.64609
2.40517 1.76069 5.67508
2.36625 1.75989 5.68639
2.34527 1.75893 5.68856
2.33733 1.76005 5.69661
2.31737 1.75914 5.70177
2.28718 1.74981 5.67813
2.28151 1.76145 5.72101
2.26256 1.76055 5.72717
1.60918 1.76818 5.94501
1.56926 1.76836 5.95531
1.54928 1.76742 5.95847
1.51037 1.76861 5.96975
1.49726 1.76343 5.95692
1.47939 1.76668 5.97301
1.45836 1.76465 5.9702
1.43943 1.76578 5.97833
1.41946 1.76585 5.98248
1.39845 1.76485 5.98165
1.38743 1.76282 5.97876
1.36848 1.76394 5.98589
1.34747 1.76194 5.98508
1.32852 1.76304 5.9912
1.30959 1.7652 6.00132
1.28755 1.76213 5.99553
1.26858 1.7622 5.99967
1.25755 1.76015 5.99578
1.23862 1.76231 6.00589
1.21759 1.76027 6.00208
1.19866 1.76142 6.01121
1.17871 1.76252 6.01734
1.15769 1.76049 6.01453
1.13876 1.76265 6.02464
1.12773 1.7606 6.02076
1.10774 1.76063 6.02191
1.08774 1.75964 6.02207
1.06883 1.76184 6.03418
1.04779 1.75976 6.02837
1.02779 1.75879 6.02954
1.01784 1.75989 6.0356
0.997849 1.75992 6.03675
0.977902 1.76104 6.04388
0.957879 1.75901 6.04106
0.936872 1.75801 6.04024
0.916895 1.75807 6.04339
0.896895 1.75708 6.04355
0.886926 1.75815 6.04761
0.865857 1.75503 6.03881
0.848003 1.76032 6.05787
0.829088 1.7625 6.06898
0.805926 1.75521 6.04826
0.787003 1.75737 6.05838
0.76595 1.75528 6.05157
0.735973 1.75535 6.05479
0.715973 1.75436 6.05496
-2.69933 1.75521 5.36258
-2.76254 1.75584 5.33504
-2.77961 1.75572 5.32617
-2.79965 1.75665 5.32031
-2.8177 1.75656 5.31344
-2.83676 1.75747 5.30657
-2.85088 1.75524 5.29071
-2.89307 1.7539 5.26604
-2.91409 1.75586 5.26217
-2.93018 1.75471 5.25131
-2.94824 1.7556 5.24343
-2.96515 1.76078 5.25448
-2.98125 1.7596 5.24162
-3.00521 1.76367 5.24574
-3.0223 1.76352 5.23487
-3.04332 1.76549 5.232
-3.05842 1.76431 5.21913
-3.07353 1.7621 5.20427
-3.08946 1.76725 5.21332
-3.10555 1.76608 5.20145
-3.12264 1.76591 5.18958
-3.13576 1.76269 5.17373
-3.15284 1.76255 5.16386
-3.1709 1.76343 5.15498
-3.186 1.76225 5.14211
-3.198 1.76326 5.14218
-3.21705 1.76517 5.1353
-3.23808 1.76712 5.13143
-3.24923 1.76284 5.11157
-3.27223 1.76685 5.11169
-3.28437 1.76358 5.09282
-3.30045 1.76344 5.08295
-3.31739 1.76756 5.09001
-3.32756 1.76424 5.06814
-3.34265 1.76308 5.05627
-3.36862 1.76815 5.06039
-3.37878 1.76384 5.03852
-3.39883 1.76576 5.03265
-3.42183 1.76876 5.03177
-3.42395 1.76554 5.01684
-3.44399 1.76647 5.01097
-3.467 1.77045 5.00909
-3.48111 1.76926 4.99521
-3.49819 1.76911 4.98434
-3.51625 1.77 4.97646
-3.52529 1.76993 4.97153
-3.53149 1.76455 4.94565
-3.57554 1.76948 4.93891
-3.58964 1.76829 4.92503
-3.62084 1.76692 4.89928
-5.89843 1.72801 2.04162
-5.92085 1.7272 1.9858
-5.92999 1.72694 1.96787
-5.93122 1.72448 1.93691
-5.94235 1.72523 1.91998
-5.93569 1.71856 1.87502
-5.93884 1.71627 1.85508
-5.95995 1.72108 1.84116
-5.96002 1.71993 1.83118
-5.96317 1.71864 1.81122
-5.97929 1.72041 1.79531
-5.98045 1.7191 1.77434
-5.9816 1.7168 1.75438
-5.98575 1.71651 1.73441
3.39528 1.72448 4.89205
3.35448 1.72491 4.91936
3.34261 1.72716 4.93542
3.28589 1.72876 4.97382
3.25002 1.72804 4.99111
3.23513 1.72926 5.0052
3.21717 1.72836 5.01135
3.19028 1.72759 5.02557
3.17232 1.72669 5.03172
3.15945 1.72895 5.04878
3.10968 1.73043 5.07914
3.0987 1.72947 5.08124
3.08582 1.73172 5.0973
3.0689 1.73188 5.10743
3.05196 1.73202 5.11656
3.03909 1.73427 5.13262
3.02521 1.73751 5.14868
2.99611 1.72936 5.13702
3.00033 1.73777 5.16487
2.97528 1.7327 5.15913
2.9675 1.73912 5.1871
2.94549 1.73612 5.18631
2.93567 1.74148 5.21031
2.9157 1.73956 5.21449
2.88964 1.73446 5.20676
2.88169 1.73457 5.21382
2.86882 1.73783 5.23087
2.8448 1.7338 5.22811
2.82887 1.73496 5.23821
2.81907 1.74034 5.26321
2.793 1.73422 5.2545
2.78013 1.73749 5.27155
2.77523 1.74068 5.28454
2.75526 1.73875 5.28872
2.73833 1.73992 5.29883
2.72546 1.74218 5.3159
2.7055 1.74126 5.32106
2.68654 1.74035 5.32622
2.67859 1.74146 5.33326
2.65354 1.73638 5.32652
2.63863 1.73858 5.33961
2.62985 1.745 5.36758
2.60276 1.73886 5.35687
2.58583 1.739 5.366
2.575 1.74434 5.38801
2.56299 1.74233 5.38713
2.55014 1.74662 5.40616
2.53321 1.74677 5.41529
2.50916 1.7427 5.40953
2.49427 1.74493 5.42461
2.48041 1.74821 5.44267
2.45737 1.74415 5.4379
2.4484 1.74421 5.44197
2.44065 1.75269 5.47391
2.4217 1.7528 5.48005
2.3956 1.74664 5.46834
2.38683 1.75409 5.49829
2.36482 1.75109 5.4975
2.35688 1.7522 5.50455
2.33691 1.75127 5.50871
2.31386 1.7472 5.50295
2.29694 1.74838 5.51406
2.27391 1.74432 5.50929
2.25086 1.74025 5.50352
2.23394 1.74142 5.51464
2.23619 1.75189 5.54647
2.21417 1.74888 5.54468
2.19725 1.75004 5.55479
1.55904 1.76497 5.79341
1.55007 1.76503 5.79748
1.53008 1.76406 5.79864
1.49217 1.76528 5.81191
1.47014 1.76223 5.80712
1.45321 1.76439 5.81722
1.43014 1.76026 5.80745
1.42324 1.76345 5.82046
1.40118 1.76037 5.81367
1.3812 1.75942 5.81684
1.3612 1.75844 5.817
1.34433 1.76169 5.83308
1.32328 1.75861 5.82729
1.3133 1.75865 5.82936
1.29433 1.75872 5.8335
1.27434 1.75877 5.83565
1.25952 1.76512 5.85867
1.23539 1.75789 5.84196
1.21436 1.75584 5.83815
1.19953 1.76219 5.86117
1.1854 1.75595 5.84437
1.1654 1.75495 5.84353
1.14538 1.75294 5.84171
1.12643 1.75404 5.84784
1.1085 1.7562 5.85794
1.08746 1.75313 5.85215
1.06747 1.75317 5.8543
1.06061 1.75844 5.87227
1.0406 1.75643 5.87045
1.0206 1.75546 5.87162
0.998511 1.7513 5.85985
0.979565 1.75241 5.86697
0.959542 1.75038 5.86415
0.951627 1.75355 5.87517
0.930558 1.75043 5.86637
0.911627 1.75158 5.8755
0.891619 1.75058 5.87466
0.873728 1.7548 5.88874
0.823712 1.75181 5.88716
0.804735 1.75187 5.8903
0.785767 1.75294 5.89443
0.72679 1.75203 5.89789
-2.61504 1.75281 5.13595
-2.64818 1.75255 5.1172
-2.6682 1.75452 5.11432
-2.6974 1.75115 5.08858
-2.70741 1.75113 5.08666
-2.74647 1.75504 5.0789
-2.76451 1.75598 5.07402
-2.77369 1.75063 5.05016
-2.7937 1.75262 5.04828
-2.81669 1.75665 5.0494
-2.81881 1.75243 5.03447
-2.83982 1.75441 5.0326
-2.86279 1.75947 5.0357
-2.87098 1.75313 5.01185
-2.88805 1.75299 5.00198
-2.91695 1.7612 5.01508
-2.91611 1.75489 4.99416
-2.93909 1.75894 4.99628
-2.95516 1.75882 4.9874
-2.96927 1.7566 4.97254
-2.98634 1.75648 4.96367
-3.00439 1.75839 4.95677
-3.02934 1.7635 4.96289
-3.03048 1.75823 4.94497
-3.05939 1.76642 4.95607
-3.06757 1.76108 4.93321
-3.08069 1.75886 4.91734
-3.1017 1.76186 4.91645
-3.10494 1.75339 4.88459
-3.12892 1.75743 4.88672
-3.14486 1.76256 4.89476
-3.15797 1.76035 4.87989
-3.17701 1.76229 4.875
-3.19211 1.76111 4.86213
-3.20226 1.75682 4.84227
-3.2213 1.75874 4.83638
-3.23428 1.7618 4.83944
-3.25134 1.76169 4.83157
-3.26544 1.76049 4.81769
-3.27955 1.7593 4.80381
-3.2976 1.76021 4.79693
-3.31368 1.76007 4.78705
-3.3347 1.76304 4.78417
-3.33385 1.75775 4.76424
-3.35882 1.76282 4.76835
-3.37687 1.76373 4.76147
-3.38405 1.75938 4.73759
-3.40112 1.75926 4.72872
-3.42312 1.76326 4.72782
-3.44118 1.76416 4.71994
-3.4512 1.76513 4.71801
-3.46134 1.76186 4.69913
-3.47545 1.76066 4.68525
-3.49548 1.7626 4.68037
-3.51354 1.7645 4.67248
-3.5316 1.76539 4.6646
-3.54471 1.76418 4.64972
-5.81734 1.71926 1.52207
-5.82571 1.71656 1.47417
-5.82216 1.70967 1.41423
3.69037 1.7146 4.3719
3.67849 1.71685 4.38796
3.65459 1.71507 4.40217
3.58103 1.71698 4.4607
3.57711 1.71913 4.4707
3.5622 1.71932 4.48281
3.54325 1.71742 4.48899
3.54148 1.72487 4.51889
3.48258 1.71812 4.53344
3.47866 1.72027 4.54344
3.47183 1.72462 4.56643
3.4559 1.72476 4.57555
3.44301 1.72598 4.58963
3.42507 1.72511 4.59778
3.40409 1.72217 4.60098
3.39422 1.72544 4.61901
3.38323 1.72347 4.62012
3.37539 1.72778 4.64112
3.3534 1.72481 4.64233
3.33951 1.72603 4.65642
3.33167 1.73035 4.67741
3.30967 1.72638 4.67864
3.30171 1.72646 4.6837
3.29085 1.72973 4.70173
3.27493 1.72991 4.71285
3.26203 1.73211 4.72592
3.25522 1.73748 4.7509
3.23727 1.73658 4.75704
3.21831 1.73469 4.76322
3.22047 1.741 4.78411
3.20556 1.74117 4.79522
3.18356 1.7382 4.79643
3.16967 1.74042 4.8105
3.15172 1.73954 4.81765
3.13478 1.73867 4.8258
3.1219 1.7409 4.84086
3.11494 1.74099 4.84691
3.08108 1.74128 4.86517
3.05907 1.73728 4.86439
3.04416 1.73847 4.87649
3.02331 1.74078 4.89661
3.00536 1.73989 4.90276
2.98062 1.74541 4.93687
2.95659 1.74137 4.93311
2.94675 1.74568 4.95413
2.92271 1.74063 4.94938
2.91677 1.74175 4.95741
2.88594 1.74411 4.98061
2.86495 1.74114 4.98181
2.84903 1.7423 4.99192
2.8321 1.74245 5.00104
2.81618 1.74262 5.01216
2.79229 1.74385 5.02633
2.77637 1.74402 5.03745
2.74655 1.7474 5.06162
2.7286 1.7465 5.06777
2.72166 1.74762 5.07581
2.6976 1.74254 5.06907
2.68575 1.74583 5.08811
2.65493 1.74919 5.11129
2.61107 1.7485 5.13064
2.59617 1.75071 5.14372
2.34889 1.74829 5.24063
2.32583 1.74321 5.23388
2.314 1.74853 5.25489
2.29808 1.7497 5.266
2.29012 1.75078 5.27104
2.2742 1.75196 5.28215
1.37445 1.76198 5.58382
1.27367 1.76347 5.61256
1.25261 1.76038 5.60576
1.21567 1.76051 5.61304
1.19668 1.75955 5.6152
1.16871 1.75962 5.61841
1.15285 1.76391 5.63747
1.13281 1.76084 5.63166
1.11381 1.76086 5.6328
1.09381 1.75988 5.63297
1.07797 1.76519 5.65301
1.06584 1.75894 5.63619
1.04792 1.76112 5.6473
1.00782 1.75496 5.63469
0.990944 1.76021 5.65074
0.974045 1.76341 5.66382
0.95189 1.75513 5.64411
0.941897 1.75515 5.64518
0.923952 1.75727 5.65229
0.906013 1.7584 5.66041
0.888052 1.75949 5.66553
0.868029 1.75746 5.66271
0.846929 1.75328 5.64993
0.828983 1.7544 5.65705
0.821091 1.75861 5.67105
0.801037 1.75552 5.66424
0.783053 1.75556 5.66638
0.764099 1.75667 5.67251
0.744014 1.75252 5.66172
0.726076 1.75465 5.66982
0.714968 1.74945 5.65598
0.695984 1.7495 5.65812
0.678076 1.75269 5.67021
0.661223 1.75798 5.68926
0.641131 1.75382 5.67748
0.622123 1.75282 5.67663
0.603116 1.75181 5.67579
0.594139 1.75287 5.67884
0.574077 1.74976 5.67104
0.556155 1.75192 5.68114
0.536078 1.74879 5.67134
0.51707 1.74779 5.6705
0.499171 1.75199 5.68357
0.48014 1.74995 5.67975
0.470118 1.74891 5.67684
0.452203 1.75209 5.68793
0.433149 1.749 5.68111
0.396358 1.75742 5.70827
0.329228 1.75122 5.69187
0.292244 1.75128 5.69414
0.0288901 1.75179 5.5151
0.00979027 1.74761 5.5023
-0.0172014 1.74765 5.5035
-0.0721296 1.75182 5.51286
-0.0902069 1.74768 5.50305
-0.127167 1.74978 5.5083
-0.154228 1.74769 5.50053
-0.172235 1.74768 5.49967
-1.65897 1.74927 5.27482
-1.75618 1.74993 5.24753
-1.8524 1.74955 5.21826
-1.88649 1.7494 5.20652
-1.90746 1.75246 5.20963
-1.91746 1.75447 5.20968
-1.93059 1.75023 5.19284
-1.95157 1.75329 5.19595
-1.96959 1.75425 5.19307
-1.98467 1.7521 5.18221
-2.00271 1.75304 5.17734
-2.02074 1.75398 5.17246
-2.02975 1.75397 5.17153
-2.04486 1.75178 5.15767
-2.06679 1.75691 5.16576
-2.07797 1.75058 5.14293
-2.09796 1.75361 5.14404
-2.11893 1.75668 5.14815
-2.13403 1.75448 5.1343
-2.14305 1.75446 5.13237
-2.16303 1.75751 5.13447
-2.17617 1.75425 5.11662
-2.19517 1.75625 5.11573
-2.2191 1.7614 5.12484
-2.22928 1.75607 5.10199
-2.23928 1.75707 5.10205
-2.25339 1.75386 5.0872
-2.27241 1.75584 5.08531
-2.28848 1.75471 5.07545
-2.31044 1.7588 5.08056
-2.32652 1.75866 5.07068
-2.34454 1.75962 5.0668
-2.35651 1.76168 5.07086
-2.3667 1.75634 5.04701
-2.38373 1.75627 5.04214
-2.40275 1.75824 5.03925
-2.41588 1.75502 5.0234
-2.43391 1.75597 5.01952
-2.4549 1.75999 5.01962
-2.45998 1.75684 5.0097
-2.479 1.75881 5.00681
-2.50098 1.76286 5.00892
-2.51114 1.75755 4.98807
-2.53213 1.7606 4.99019
-2.55018 1.76151 4.98331
-2.55329 1.7573 4.96939
-2.56934 1.75719 4.96151
-2.59429 1.76332 4.96861
-2.60247 1.75697 4.94476
-2.62544 1.76204 4.94886
-2.64642 1.76509 4.95098
-2.6497 1.75456 4.91515
-2.66561 1.76073 4.92618
-2.68169 1.7596 4.91632
-2.69775 1.75947 4.90744
-2.71283 1.75934 4.89755
-2.73875 1.7655 4.90766
-2.7489 1.76121 4.8878
-2.76696 1.76211 4.87992
-2.77893 1.76518 4.88396
-2.79303 1.76299 4.8711
-2.81107 1.76392 4.86522
-2.84025 1.7616 4.84247
-2.85829 1.76352 4.83658
-2.88535 1.76442 4.82877
3.81267 1.70822 4.01403
3.80279 1.71047 4.03007
3.78282 1.70754 4.03426
3.76297 1.70884 4.0534
3.73918 1.71027 4.08156
3.73334 1.71458 4.10254
3.71539 1.7127 4.10971
3.71258 1.71906 4.13364
3.69755 1.71501 4.12981
3.6796 1.71313 4.13697
3.6778 1.71951 4.1629
3.66893 1.72179 4.18093
3.64594 1.71782 4.18216
3.63909 1.72212 4.20216
3.62619 1.72232 4.21525
3.61115 1.71826 4.21042
3.60027 1.7205 4.22647
3.59443 1.72482 4.24746
3.57144 1.72085 4.24869
3.55248 1.71794 4.25388
3.55372 1.72639 4.28475
3.53173 1.72344 4.28696
3.52477 1.72352 4.29201
3.51287 1.72474 4.30608
3.48684 1.7187 4.30237
3.47192 1.71887 4.31348
3.457 1.71903 4.32359
3.44308 1.7192 4.33469
3.44017 1.72138 4.34668
3.4394 1.72881 4.37558
3.41943 1.72688 4.37976
3.40249 1.72602 4.38791
3.40069 1.73342 4.41481
3.37871 1.72946 4.41704
3.36176 1.72858 4.42418
3.36391 1.73386 4.44309
3.3419 1.72987 4.44331
3.33002 1.7321 4.45837
3.29512 1.72934 4.47268
3.28525 1.7326 4.48971
3.26034 1.73079 4.50192
3.24846 1.73302 4.51698
3.21255 1.73023 4.52929
3.20369 1.73451 4.5483
3.1401 1.73834 4.60173
3.12316 1.73748 4.60987
2.99859 1.73343 4.66888
2.98874 1.73771 4.68789
2.96485 1.73794 4.70207
2.95195 1.73914 4.71515
2.82058 1.74348 4.80009
1.00748 1.75931 5.4556
0.880646 1.76072 5.47854
0.862669 1.76078 5.48168
0.824631 1.75774 5.47701
0.80877 1.76301 5.49505
0.789754 1.761 5.49322
0.771762 1.76103 5.49436
0.761723 1.75896 5.48946
0.744801 1.76112 5.49956
0.726862 1.76325 5.50767
0.705701 1.75596 5.48693
0.687732 1.75703 5.49105
0.670855 1.76128 5.50712
0.650732 1.75505 5.49136
0.642786 1.75716 5.49839
0.624832 1.75827 5.50451
0.60474 1.7541 5.49272
0.588902 1.76043 5.51375
0.567756 1.75416 5.495
0.550872 1.75839 5.51006
0.54188 1.75842 5.51113
0.522772 1.75322 5.49735
0.505888 1.75746 5.51242
0.486849 1.7554 5.50759
0.467834 1.75438 5.50575
0.449819 1.75336 5.5039
0.431881 1.7555 5.512
0.422905 1.75655 5.51506
0.404913 1.75657 5.51619
0.384758 1.74929 5.49645
0.367944 1.75766 5.52045
0.348898 1.75459 5.51464
0.330891 1.75458 5.51378
0.320814 1.75144 5.5039
0.302884 1.75359 5.513
0.284907 1.75465 5.51612
0.266869 1.75259 5.51129
0.2479 1.75366 5.51542
0.230978 1.75682 5.5255
0.210823 1.74954 5.50576
0.201809 1.74952 5.50382
0.183886 1.75268 5.51391
0.165894 1.7527 5.51505
0.147848 1.75063 5.50922
0.128794 1.74754 5.5024
0.110757 1.74648 5.49755
0.0929191 1.7528 5.5186
0.0838271 1.74963 5.50671
0.0647887 1.74757 5.50189
-2.83737 1.74344 4.56168
-2.88258 1.74306 4.53402
-2.90667 1.7439 4.52219
-2.91976 1.74273 4.51031
-2.93582 1.74262 4.50243
-2.95484 1.74559 4.49953
-2.96497 1.74235 4.48265
-2.98005 1.74221 4.47276
-3.00104 1.74622 4.47286
-3.01105 1.74722 4.47192
-3.02019 1.74396 4.45404
-3.04019 1.74696 4.45314
-3.05625 1.74685 4.44526
-3.06441 1.74255 4.42439
-3.08442 1.74553 4.42249
-3.09146 1.74546 4.41755
-3.10456 1.74428 4.40466
-3.12359 1.74623 4.40077
-3.14162 1.74817 4.39588
-3.14681 1.74282 4.372
-3.1688 1.74685 4.3731
-3.18486 1.74773 4.36421
-3.18696 1.74455 4.35227
-3.20698 1.74752 4.34938
-3.226 1.74948 4.34549
-3.23514 1.74622 4.3276
-3.25317 1.74917 4.3237
-3.26824 1.74903 4.31381
-3.27936 1.74682 4.29892
-3.29234 1.74986 4.30098
-3.31137 1.75181 4.29709
-3.31951 1.74855 4.2792
-3.33854 1.75149 4.2743
-3.35659 1.75342 4.2684
-3.36868 1.75123 4.25553
-3.37969 1.75323 4.25458
-3.39773 1.75617 4.24967
-3.40686 1.75291 4.23179
-3.42689 1.75586 4.22789
-3.44097 1.75571 4.217
-3.45702 1.75662 4.21011
-3.47111 1.75646 4.19921
3.73611 1.70422 3.80763
3.52953 1.70913 3.99614
3.47878 1.70866 4.02954
3.46588 1.70886 4.04263
3.46205 1.71419 4.06459
3.43803 1.70918 4.06284
3.42815 1.71142 4.07889
3.41917 1.71047 4.08197
3.40627 1.71066 4.09406
3.36854 1.71322 4.13032
3.32869 1.71155 4.15064
3.3178 1.71378 4.16569
3.30388 1.71393 4.1758
3.28793 1.71205 4.18295
3.28109 1.71737 4.20392
3.26211 1.71442 4.20711
3.25718 1.71555 4.21513
3.25135 1.72089 4.2381
3.23641 1.72002 4.24623
3.21946 1.71914 4.25337
3.20959 1.72238 4.2694
3.18455 1.71532 4.26469
3.17568 1.71858 4.28171
3.17277 1.72176 4.29369
3.15177 1.71778 4.2939
3.14493 1.72309 4.31488
3.12899 1.72222 4.32301
3.11001 1.71928 4.3262
3.10419 1.72463 4.34917
3.09319 1.72363 4.34927
3.07825 1.72276 4.35739
3.06534 1.72395 4.36947
3.05041 1.72411 4.37959
3.03245 1.7222 4.38475
3.01246 1.71923 4.38594
3.00562 1.72454 4.40692
2.99562 1.72256 4.40802
2.97968 1.72269 4.41614
2.96982 1.72595 4.43317
2.95488 1.7261 4.44228
2.93995 1.72624 4.4514
2.93009 1.72951 4.46942
2.9101 1.72654 4.47062
2.9011 1.72557 4.4717
2.88617 1.72571 4.48081
2.87328 1.72693 4.49489
2.85835 1.72707 4.50401
2.83936 1.72511 4.50618
2.82645 1.7263 4.51826
2.82659 1.73157 4.53618
2.81268 1.73375 4.54826
2.78659 1.7256 4.53657
2.77167 1.72677 4.54767
2.75673 1.7269 4.55578
2.73775 1.72394 4.55797
2.73194 1.73032 4.58292
2.71788 1.72622 4.57609
2.70802 1.7305 4.5941
2.69006 1.72858 4.59926
2.67919 1.73284 4.61629
2.66223 1.73093 4.62144
2.64933 1.73313 4.63451
2.63034 1.73118 4.63668
2.62338 1.73126 4.64173
2.60947 1.73344 4.65381
2.59758 1.73567 4.66887
2.58165 1.7358 4.67698
2.56367 1.73386 4.68015
2.54773 1.73399 4.68827
2.54077 1.73507 4.69331
2.52787 1.73727 4.70637
2.50989 1.73533 4.70954
2.49699 1.73755 4.7236
2.48409 1.73975 4.73667
2.46816 1.73988 4.74479
2.45222 1.74001 4.75291
1.44918 1.7545 5.1493
1.4032 1.75156 5.1517
1.3883 1.75476 5.16476
1.35333 1.75386 5.17004
1.33842 1.75604 5.18112
1.29241 1.75206 5.18053
1.25642 1.75011 5.18283
1.23844 1.75016 5.18496
1.22356 1.75439 5.20001
1.21453 1.75235 5.19711
1.19552 1.75033 5.19528
1.18062 1.75354 5.20835
1.16158 1.75049 5.20454
1.14462 1.75158 5.20965
1.12974 1.75581 5.2247
1.10966 1.75068 5.21493
1.09965 1.74966 5.21302
1.08269 1.75074 5.21813
1.06467 1.74873 5.2163
1.04772 1.74984 5.22341
1.02972 1.74884 5.22256
1.0117 1.74682 5.22072
0.995808 1.75104 5.23478
0.985731 1.7469 5.22492
0.9688 1.74905 5.23402
0.94973 1.74493 5.22522
0.932769 1.74601 5.23033
0.914792 1.74607 5.23347
0.895738 1.74298 5.22666
0.888793 1.74509 5.23368
0.868699 1.73893 5.22192
0.853862 1.74625 5.24292
0.836869 1.74528 5.24407
0.8178 1.74116 5.23527
0.798776 1.73913 5.23244
0.782877 1.74333 5.2455
0.773877 1.74334 5.24557
0.756908 1.74341 5.2497
0.739924 1.74345 5.25183
0.721924 1.74346 5.25196
0.661009 1.74467 5.2634
0.644041 1.74574 5.26752
0.547057 1.74284 5.27029
0.494065 1.7419 5.2717
0.476073 1.74193 5.27284
0.397121 1.74207 5.27943
0.353144 1.74215 5.28276
-2.46927 1.74039 4.57395
-2.47829 1.74037 4.57202
-2.49335 1.74026 4.56414
-2.53853 1.73992 4.53948
-2.55359 1.73982 4.53159
-2.56964 1.73973 4.52471
-2.57669 1.73964 4.51877
-2.62484 1.74138 4.4991
-2.64286 1.74335 4.49621
-2.67002 1.74104 4.47444
-2.67804 1.74102 4.4725
-2.71014 1.74284 4.45872
-2.72619 1.74274 4.45184
-2.74126 1.74262 4.44295
-2.7573 1.74456 4.43804
-2.76138 1.7414 4.42712
-2.77843 1.74232 4.42123
-2.79546 1.74427 4.41733
-2.80756 1.74208 4.40345
-2.81966 1.73989 4.39058
-2.83868 1.74286 4.38768
-2.85769 1.74586 4.38677
-2.85782 1.74061 4.36985
-2.88275 1.74775 4.37793
-2.89584 1.74658 4.36605
-2.9109 1.74647 4.35816
-2.93091 1.75047 4.35725
-2.94499 1.74932 4.34637
-2.95709 1.74813 4.33348
-2.96017 1.74497 4.32255
-2.98314 1.75005 4.32665
-2.99524 1.74886 4.31376
-3.01228 1.74979 4.30787
-3.02833 1.7517 4.30096
-3.03945 1.74847 4.28509
-3.05537 1.75463 4.29512
-3.06353 1.75034 4.27524
-3.08156 1.75228 4.27035
-3.09761 1.7532 4.26446
-3.12972 1.755 4.24967
-3.14182 1.75382 4.23678
-3.16194 1.75258 4.21994
-3.18097 1.75553 4.21604
-3.2232 1.75512 4.18636
3.76631 1.69964 3.56744
3.68789 1.70084 3.64503
3.67597 1.70101 3.65611
3.62643 1.70593 3.71642
3.61149 1.70506 3.72455
3.5917 1.70849 3.75265
3.56184 1.70679 3.7719
3.53893 1.70499 3.78411
3.53005 1.70722 3.79914
3.52722 1.71256 3.82209
3.50221 1.70655 3.82036
3.49332 1.70878 3.8354
3.47939 1.70792 3.84452
3.47546 1.71006 3.85352
3.46759 1.71333 3.87153
3.45164 1.71143 3.87768
3.43772 1.7116 3.88878
3.43187 1.71589 3.90777
3.42602 1.72019 3.92775
3.40099 1.71315 3.92404
3.39403 1.71323 3.9291
3.38414 1.71545 3.94414
3.38031 1.72078 3.96609
3.36335 1.71888 3.97225
3.35347 1.72111 3.98729
3.33449 1.71817 3.99048
3.3236 1.7204 4.00553
3.31462 1.71944 4.00761
3.30575 1.7217 4.02465
3.28878 1.71978 4.0298
3.27992 1.72304 4.04683
3.26397 1.72216 4.05396
3.25004 1.72231 4.06406
3.24207 1.72138 4.06814
3.21826 1.72375 4.09229
3.19928 1.72082 4.09647
3.19243 1.72511 4.11546
3.17144 1.72114 4.11668
3.16256 1.72438 4.1327
3.15357 1.72342 4.13478
3.14066 1.72359 4.14588
3.12067 1.72064 4.14808
3.11483 1.72595 4.16904
3.09281 1.72094 4.16728
3.08294 1.72418 4.18331
3.06395 1.72023 4.18551
3.06104 1.72339 4.19649
3.05622 1.72975 4.22044
3.03724 1.72681 4.22362
3.02432 1.72798 4.2347
2.99927 1.7209 4.228
2.99243 1.72621 4.24897
2.99154 1.73042 4.26292
2.96647 1.72332 4.25521
2.94952 1.72142 4.26137
2.94065 1.72568 4.27838
2.92774 1.72687 4.29046
2.9128 1.72599 4.29858
2.89483 1.72407 4.30275
2.89192 1.72723 4.31372
2.87597 1.72635 4.32086
2.85495 1.72233 4.31908
2.84812 1.72766 4.34105
2.83217 1.72678 4.34819
2.82229 1.73001 4.36321
2.80026 1.72498 4.36045
2.79939 1.73022 4.37639
2.78039 1.72725 4.37757
2.77051 1.73049 4.3936
2.75457 1.72961 4.40074
2.73862 1.72972 4.40786
2.72571 1.73091 4.41994
2.72484 1.73514 4.43588
2.70685 1.73319 4.43805
2.69089 1.73229 4.44418
2.68002 1.73555 4.46122
2.66812 1.73775 4.47428
2.64204 1.73061 4.46358
2.63014 1.73282 4.47764
2.62927 1.73806 4.49357
2.61231 1.73614 4.49872
2.6004 1.73835 4.51178
2.58445 1.73845 4.5179
2.56445 1.73446 4.51811
2.53965 1.73886 4.54424
2.53269 1.73994 4.54927
2.51471 1.738 4.55244
2.50079 1.73917 4.56353
2.47194 1.74148 4.58271
1.62159 1.75025 4.93704
1.49683 1.74981 4.96999
1.47987 1.7499 4.97512
1.46596 1.75209 4.98719
1.45593 1.75003 4.9833
1.43587 1.74593 4.97551
1.42403 1.75125 4.99652
1.40603 1.75026 4.99667
1.38802 1.74826 4.99584
1.37311 1.75145 5.0079
1.35097 1.7432 4.99019
1.34403 1.74531 4.99721
1.33016 1.75057 5.01424
1.31008 1.74444 5.00448
1.29413 1.74655 5.01157
1.27613 1.74455 5.01074
1.25812 1.74256 5.0109
1.24217 1.74366 5.01701
1.23523 1.74577 5.02403
1.21826 1.74585 5.02816
1.19714 1.73964 5.0134
1.18431 1.74597 5.03541
1.16419 1.73977 5.02065
1.14826 1.74191 5.02974
1.14031 1.74301 5.03579
1.12125 1.7389 5.02799
1.10739 1.74418 5.04602
1.09039 1.74319 5.04616
1.07237 1.74117 5.04433
1.05435 1.73914 5.04149
1.03842 1.74129 5.05058
1.02835 1.73818 5.0427
1.01136 1.7372 5.04384
0.995447 1.74038 5.05492
0.976385 1.73627 5.04712
0.962493 1.74049 5.06117
0.94657 1.74265 5.07126
0.936524 1.74057 5.06536
0.920562 1.74065 5.07048
0.903609 1.74276 5.07658
0.867547 1.73766 5.06892
0.851586 1.73875 5.07403
0.834593 1.73778 5.07517
0.808593 1.7368 5.07538
0.791655 1.73893 5.08348
0.774655 1.73794 5.08362
0.740663 1.73698 5.08489
0.698748 1.73917 5.09618
-2.14045 1.73883 4.5495
-2.15846 1.74081 4.5476
-2.17055 1.73864 4.53573
-2.17957 1.73862 4.53379
-2.19363 1.73851 4.5259
-2.21065 1.73946 4.52201
-2.27692 1.73798 4.48653
-2.30801 1.73782 4.47476
-2.32209 1.73769 4.46487
-2.35909 1.7427 4.46408
-2.36218 1.73952 4.45214
-2.37625 1.7384 4.44327
-2.39623 1.74244 4.44536
-2.40833 1.74026 4.43248
-2.42438 1.74118 4.42658
-2.43943 1.74109 4.4197
-2.45153 1.73891 4.40682
-2.45856 1.73885 4.40287
-2.47756 1.74085 4.40199
-2.48965 1.7397 4.39109
-2.50471 1.73959 4.38321
-2.5178 1.73842 4.37132
-2.53976 1.74351 4.37641
-2.55086 1.74031 4.36254
-2.56283 1.74438 4.36657
-2.57985 1.74635 4.36367
-2.58998 1.7421 4.34681
-2.608 1.74407 4.34391
-2.61713 1.74083 4.32703
-2.63713 1.74384 4.32713
-2.64218 1.74274 4.32019
-2.65429 1.74054 4.30631
-2.67625 1.74563 4.3114
-2.69524 1.74965 4.31148
-2.70931 1.74952 4.30259
-2.71549 1.74319 4.27973
-2.73054 1.7431 4.27284
-2.7435 1.74718 4.27788
-2.76153 1.74913 4.27399
-2.76967 1.74487 4.25611
-2.78571 1.74679 4.2502
-2.79683 1.74358 4.23533
-2.80892 1.74241 4.22344
-2.83088 1.74749 4.22753
-2.83101 1.74225 4.2116
-2.84409 1.7421 4.2007
-2.87001 1.75026 4.21078
-2.88408 1.74913 4.2009
-2.90112 1.75106 4.196
-2.91321 1.74989 4.1841
-2.9342 1.75392 4.1852
-2.95135 1.75164 4.16536
3.83013 1.69531 3.27799
3.81822 1.6955 3.29007
3.80731 1.69569 3.30215
3.80144 1.69894 3.31915
3.78449 1.69606 3.32632
3.77083 1.70372 3.37032
3.75891 1.70389 3.38141
3.74196 1.70201 3.38857
3.7371 1.70528 3.40656
3.71913 1.70236 3.41174
3.7173 1.70769 3.43367
3.70933 1.70675 3.43775
3.69439 1.70488 3.44589
3.67643 1.70197 3.45107
3.67762 1.70934 3.47595
3.66067 1.70644 3.48213
3.63968 1.70149 3.48436
3.6559 1.7139 3.51305
3.6329 1.70792 3.51332
3.61494 1.70501 3.5185
3.61513 1.71238 3.54339
3.58707 1.7033 3.53673
3.56912 1.7014 3.5429
3.57031 1.70777 3.5678
3.56838 1.7099 3.57678
3.54537 1.70492 3.57703
3.55263 1.7154 3.60982
3.53366 1.71147 3.61403
3.52477 1.7137 3.62906
3.51286 1.71387 3.64015
3.48379 1.70578 3.63249
3.48085 1.7069 3.64049
3.48106 1.7143 3.66739
3.46612 1.71343 3.67551
3.44411 1.70843 3.67475
3.44229 1.71478 3.69868
3.42634 1.71288 3.70483
3.41635 1.71091 3.70593
3.40847 1.71316 3.72296
3.38646 1.70817 3.7222
3.38162 1.71347 3.74216
3.37677 1.71776 3.76214
3.35174 1.71072 3.75843
3.34184 1.71192 3.77149
3.34699 1.71922 3.79134
3.33508 1.7204 3.80342
3.31913 1.7185 3.80957
3.29046 1.72517 3.85369
3.25867 1.7256 3.88093
3.24171 1.7237 3.88708
3.23081 1.7259 3.90013
3.19699 1.72526 3.9234
3.18003 1.72337 3.92956
3.16912 1.72455 3.94162
3.15721 1.72574 3.9537
3.14531 1.72694 3.96677
3.10745 1.72523 3.98508
3.09755 1.72745 3.99913
3.08363 1.72761 4.00923
2.88073 1.7319 4.15572
2.86579 1.73203 4.16383
2.8578 1.73106 4.1659
2.84489 1.73224 4.17699
1.2022 1.75077 4.88718
1.16024 1.74987 4.89251
1.14322 1.74786 4.89067
1.12934 1.75209 4.90572
1.11131 1.74904 4.9019
1.09638 1.7522 4.91196
1.0794 1.75124 4.91411
1.05235 1.74717 4.90837
1.03743 1.75033 4.91844
1.02043 1.74835 4.91859
1.00549 1.75047 4.92668
0.987443 1.7474 4.92086
0.970436 1.7464 4.92
0.960405 1.74434 4.9161
0.946513 1.74856 4.93015
0.927451 1.74446 4.92235
0.912497 1.74556 4.92845
0.89552 1.74561 4.93158
0.877458 1.74151 4.92377
0.862559 1.74571 4.93682
0.854597 1.74679 4.94187
0.837559 1.74473 4.93703
0.820582 1.74479 4.94016
0.805644 1.74692 4.94824
0.787574 1.7428 4.93943
0.771636 1.74493 4.94752
0.755698 1.74706 4.95561
0.747706 1.74708 4.95667
0.729682 1.74505 4.95384
0.712636 1.74197 4.94801
0.696714 1.74513 4.95809
0.678612 1.73895 4.94531
0.663698 1.74312 4.95636
0.653636 1.73901 4.9485
0.637651 1.73905 4.95062
0.620667 1.7391 4.95275
0.605768 1.7433 4.9658
0.587667 1.73812 4.95301
0.570675 1.73815 4.95414
0.554691 1.73819 4.95626
0.545652 1.73612 4.95136
0.530823 1.74346 4.97336
0.512753 1.73934 4.96456
0.495714 1.73728 4.95972
0.479715 1.73729 4.95984
0.4638 1.74046 4.97091
0.446777 1.73943 4.96805
0.438831 1.74154 4.97508
0.421754 1.7374 4.96527
0.404785 1.73848 4.96939
0.388855 1.74162 4.97846
0.372848 1.74062 4.9776
0.35584 1.73961 4.97674
0.338778 1.73651 4.96891
0.330825 1.7386 4.97494
0.313787 1.73654 4.9701
0.296795 1.73657 4.97123
0.188859 1.73777 4.98002
0.0478703 1.73788 4.98208
0.00895226 1.73611 4.86039
-0.00804725 1.73612 4.86052
-0.0809912 1.73827 4.86803
-1.39041 1.73937 4.68486
-1.4164 1.74139 4.68502
-1.56181 1.73769 4.63217
-1.59581 1.74172 4.63236
-1.70409 1.74024 4.5952
-1.74727 1.73791 4.57155
-1.76428 1.73889 4.56966
-1.78227 1.74192 4.57076
-1.78537 1.73773 4.55784
-1.80631 1.74287 4.56592
-1.83738 1.74374 4.55614
-1.85047 1.74159 4.54527
-1.86748 1.74257 4.54338
-1.87763 1.7373 4.52454
-1.88956 1.74142 4.53257
-1.90461 1.74134 4.52668
-1.95271 1.74317 4.51301
-1.98279 1.74405 4.50323
-1.98886 1.74192 4.4943
-2.00193 1.74078 4.48442
-2.01992 1.74281 4.48552
-2.04086 1.74892 4.49259
-2.04905 1.74158 4.46876
-2.06704 1.7446 4.46985
-2.07015 1.7404 4.45593
-2.09206 1.74658 4.46701
-2.10515 1.74441 4.45514
-2.11824 1.74224 4.44326
-2.13033 1.74007 4.43139
-2.15029 1.74516 4.43646
-2.16927 1.7482 4.43856
-2.16746 1.73985 4.41467
-2.1884 1.74597 4.42174
-2.20542 1.74795 4.41983
-2.2195 1.7458 4.40897
-2.23258 1.74466 4.39908
-2.24959 1.74664 4.39718
-2.26858 1.74967 4.39828
-2.2697 1.74545 4.38335
-2.28574 1.74537 4.37747
-2.29685 1.74317 4.36359
-2.31485 1.74517 4.36269
-2.32597 1.74196 4.34782
-2.34692 1.74706 4.3539
-2.35002 1.74387 4.34097
-2.36407 1.74378 4.33408
-2.38306 1.7468 4.33518
-2.4001 1.74874 4.33028
-2.41809 1.75177 4.33137
-2.4223 1.74336 4.30352
-2.4472 1.75157 4.31659
-2.45326 1.75046 4.30865
-2.46042 1.74415 4.28779
-2.47645 1.7461 4.28388
-2.48953 1.74395 4.27301
-2.51049 1.75004 4.27808
-2.5285 1.75202 4.27619
-2.53469 1.74567 4.25233
-2.5427 1.74565 4.25039
-2.56268 1.75071 4.25346
-2.5728 1.74748 4.23758
-2.59081 1.74946 4.23569
-2.60685 1.7514 4.23078
-2.62388 1.75335 4.22688
-2.63498 1.75117 4.21399
-2.65707 1.751 4.20216
-2.67508 1.75299 4.20027
-2.69013 1.75389 4.19337
-2.70222 1.75273 4.18147
-2.71629 1.7526 4.17258
-2.73935 1.75349 4.16374
-2.75342 1.75336 4.15485
-2.79067 1.7499 4.12217
-2.81177 1.74972 4.10933
-2.82781 1.75165 4.10342
-2.86408 1.74716 4.06876
-2.89814 1.75105 4.05996
4.0637 1.68942 2.82225
4.06997 1.69993 2.85705
4.05403 1.69706 2.86522
4.03506 1.69315 2.87042
3.73888 1.70588 3.24451
3.73403 1.71016 3.26349
3.73016 1.71343 3.28147
3.71019 1.7095 3.28568
3.6934 1.71293 3.31376
3.69148 1.71508 3.32374
3.67049 1.71012 3.32598
3.6517 1.71254 3.35308
3.64582 1.71578 3.36908
3.63391 1.71596 3.38117
3.60999 1.71213 3.39141
3.58918 1.71452 3.41654
3.56938 1.71693 3.44365
3.54243 1.71205 3.45093
3.52547 1.70914 3.4561
3.51474 1.71668 3.49207
3.48 1.71821 3.52632
3.45304 1.71332 3.53259
3.44031 1.71984 3.5676
3.41547 1.72017 3.58878
3.39254 1.71734 3.599
3.37275 1.72075 3.6261
1.20023 1.74787 4.75922
1.08043 1.74835 4.78612
1.06547 1.74943 4.79122
1.02833 1.74019 4.77364
1.01653 1.74859 4.7996
1.00159 1.75071 4.80769
0.990494 1.74553 4.79484
0.976587 1.74872 4.8069
0.959579 1.74772 4.80605
0.945664 1.74989 4.81712
0.926594 1.74577 4.80832
0.911663 1.74791 4.81741
0.902617 1.74583 4.8115
0.886624 1.74486 4.81264
0.872772 1.75115 4.83165
0.854679 1.74598 4.81986
0.837694 1.74603 4.82199
0.821702 1.74505 4.82313
0.807849 1.75134 4.84214
0.796702 1.74407 4.82333
0.780702 1.74308 4.82346
0.764725 1.74314 4.82658
0.748779 1.74525 4.83367
0.731756 1.74322 4.83083
0.716848 1.74641 4.8429
0.70188 1.74748 4.847
0.690771 1.74228 4.83316
0.673725 1.73921 4.82733
0.660903 1.74656 4.85032
0.642825 1.74242 4.84052
0.624725 1.73724 4.82773
0.609803 1.7404 4.83779
0.595957 1.74671 4.85781
0.585833 1.74048 4.84197
0.568779 1.73739 4.83515
0.552834 1.7395 4.84224
0.535803 1.73746 4.8384
0.521973 1.74479 4.86039
0.504896 1.74065 4.85058
0.497974 1.74481 4.86057
0.479873 1.73863 4.8478
0.464982 1.74385 4.86184
0.446881 1.73767 4.84906
0.432005 1.74391 4.86509
0.398936 1.73981 4.85639
0.389866 1.73568 4.84752
0.374952 1.73985 4.85857
0.358983 1.74092 4.86268
0.341991 1.74095 4.86381
0.325984 1.74095 4.86293
0.308937 1.73787 4.8571
0.292914 1.73584 4.85425
0.285031 1.74207 4.86922
0.267891 1.73481 4.85145
0.253031 1.74109 4.86948
0.235962 1.73797 4.86065
0.204001 1.73907 4.86588
0.195986 1.73804 4.86395
0.178963 1.73701 4.86109
0.163041 1.74117 4.87115
0.129972 1.73706 4.86246
0.113964 1.73606 4.8616
0.0979805 1.7371 4.8637
0.0899499 1.73605 4.85978
0.0409821 1.73714 4.86413
-2.77824 1.73083 3.91533
-2.79636 1.72961 3.89949
-2.86269 1.73 3.85597
-2.87269 1.73201 3.85602
-2.88576 1.73189 3.84712
-2.91189 1.73164 3.82932
-2.96495 1.74056 3.82158
-2.96802 1.73841 3.81164
-2.97614 1.7352 3.79674
-2.98624 1.733 3.78285
-3.00327 1.73495 3.77895
-3.01238 1.73275 3.76505
-3.03237 1.73776 3.76512
-3.04841 1.7397 3.76022
-3.04258 1.73137 3.73829
-3.05169 1.72917 3.72439
-3.06871 1.73214 3.72148
-3.08376 1.73305 3.71457
-3.09188 1.72981 3.69868
-3.12574 1.74309 3.71574
-3.11693 1.73373 3.69181
-3.13 1.73361 3.68291
-3.14406 1.7345 3.675
-3.15317 1.73228 3.6601
-3.17118 1.73626 3.65818
-3.18822 1.7382 3.65328
-3.1993 1.73805 3.64236
-3.20238 1.7359 3.63241
-3.21346 1.73475 3.62151
-3.22554 1.73461 3.6116
-3.2406 1.7355 3.6037
-3.25762 1.73845 3.59979
-3.27764 1.74244 3.59788
-3.27485 1.73402 3.56998
-3.28584 1.73704 3.57102
-3.29891 1.73692 3.56212
-3.31397 1.73881 3.5542
-3.31811 1.73454 3.53529
-3.34506 1.74266 3.54238
-3.3502 1.73838 3.52348
-3.35228 1.73623 3.51352
-3.37328 1.74023 3.51262
-3.37841 1.73699 3.49571
-3.40852 1.73979 3.48089
-3.41664 1.73757 3.46598
-3.43367 1.74051 3.46107
-3.4407 1.74145 3.4571
-3.44783 1.73821 3.4402
-3.46684 1.74219 3.43829
-3.492 1.7429 3.41746
-3.52121 1.74251 3.38968
3.74694 1.69006 2.98765
3.63484 1.69191 3.10748
3.59428 1.69681 3.16672
3.57447 1.6982 3.19186
3.5586 1.69846 3.20897
3.51981 1.6959 3.23731
3.49202 1.69632 3.26452
3.46716 1.69562 3.28372
3.46028 1.69886 3.29972
3.44349 1.70228 3.3268
3.43349 1.7003 3.32791
3.40781 1.70494 3.37004
3.37186 1.69807 3.37741
3.36902 1.70338 3.39836
3.36205 1.70343 3.40141
3.35214 1.70362 3.41348
3.33215 1.69966 3.41569
3.33334 1.70703 3.44058
3.31133 1.70203 3.43982
3.30446 1.70427 3.45584
3.29455 1.70546 3.4679
3.29666 1.71068 3.48281
3.27666 1.70569 3.48303
3.27181 1.70998 3.50201
3.26007 1.7175 3.53699
3.232 1.70839 3.52833
3.23118 1.71473 3.55125
3.21614 1.70967 3.54644
3.2032 1.7098 3.55453
3.18522 1.70585 3.55773
3.17027 1.70497 3.56485
3.1644 1.70822 3.58185
3.13946 1.70536 3.59008
3.14066 1.71374 3.61595
3.11763 1.7067 3.61223
3.1148 1.71303 3.63416
3.09782 1.71009 3.63733
3.08388 1.70922 3.64545
3.07803 1.7145 3.66442
3.06902 1.71151 3.66453
3.06418 1.71681 3.68449
3.04417 1.71181 3.68372
3.03327 1.71401 3.69677
3.02336 1.71519 3.70883
3.01043 1.71535 3.71892
2.99649 1.71546 3.72603
2.99761 1.7197 3.74196
2.98872 1.72191 3.756
2.96467 1.71584 3.75027
2.94668 1.71187 3.75146
2.92767 1.70789 3.75166
2.92284 1.71321 3.77362
2.93508 1.72565 3.80335
2.89607 1.71768 3.80376
2.88819 1.7209 3.81878
2.85626 1.71708 3.82908
2.85546 1.72546 3.85496
2.84344 1.72143 3.85211
2.8386 1.72774 3.87306
2.82465 1.72685 3.88018
2.80059 1.71977 3.87346
2.79475 1.72507 3.89343
2.76787 1.72432 3.90965
2.75483 1.72026 3.9048
2.74898 1.72555 3.92377
2.73403 1.72466 3.9309
2.72008 1.72477 3.938
2.70716 1.72493 3.9481
2.69321 1.72505 3.9552
2.68726 1.72514 3.96125
2.67938 1.72938 3.97725
2.66342 1.72847 3.98238
2.65048 1.72859 3.99048
2.63958 1.73081 4.00453
2.60371 1.72909 4.02183
2.57583 1.72934 4.03804
2.55986 1.7274 4.04119
2.53502 1.72973 4.06234
2.52107 1.72984 4.06945
2.38366 1.7321 4.14846
2.36871 1.7312 4.15458
2.35172 1.72924 4.15674
1.69106 1.74227 4.46857
1.64618 1.74254 4.48491
1.62015 1.73851 4.48216
1.60929 1.74277 4.49918
1.59228 1.74078 4.49934
1.56031 1.73887 4.50361
1.5384 1.74104 4.51474
1.52241 1.73907 4.51589
1.5054 1.73707 4.51505
1.49351 1.7413 4.53008
1.4724 1.73409 4.51534
1.44659 1.74048 4.54045
1.43858 1.73947 4.53952
1.42568 1.74267 4.55257
1.40559 1.73651 4.54082
1.38856 1.73348 4.53799
1.37569 1.73773 4.55402
1.36173 1.73883 4.56011
1.3527 1.73677 4.55621
1.3388 1.73996 4.56827
1.31972 1.73484 4.55949
1.30784 1.73907 4.57452
1.28875 1.73292 4.56375
1.27587 1.73815 4.57877
1.25987 1.73617 4.57892
1.25187 1.73517 4.579
1.23796 1.73836 4.59106
1.22197 1.73839 4.59218
1.20702 1.73849 4.59829
1.18998 1.73542 4.59346
1.17193 1.73135 4.58766
1.16497 1.73343 4.59268
1.14998 1.73247 4.59481
1.134 1.73151 4.59694
1.12111 1.73573 4.61098
1.10512 1.73577 4.6131
1.09018 1.73688 4.6202
1.0752 1.73694 4.62331
1.06515 1.73384 4.61643
1.05018 1.73393 4.62154
1.03626 1.73708 4.6316
1.01714 1.72988 4.61685
1.00221 1.73201 4.62493
0.988307 1.73621 4.63798
0.962198 1.72902 4.62428
0.948306 1.73324 4.63832
0.917345 1.73333 4.64356
0.885329 1.73033 4.64184
0.869352 1.73038 4.64496
0.845352 1.7294 4.64516
0.830398 1.7305 4.65125
0.800483 1.73269 4.66245
0.775437 1.72962 4.65668
0.72956 1.73289 4.67298
0.643646 1.73311 4.68463
-2.16996 1.73095 4.08377
-2.2121 1.7317 4.06508
-2.29036 1.73324 4.03064
-2.36466 1.7327 3.9912
-2.40188 1.72928 3.96153
-2.43503 1.72902 3.94278
-2.4752 1.72871 3.92008
-2.49221 1.7317 3.91817
-2.55444 1.73328 3.88761
-2.58661 1.73198 3.86587
-2.60878 1.72965 3.84306
-2.62086 1.72852 3.83317
-2.63787 1.7315 3.83125
-2.64795 1.72934 3.82036
-2.66102 1.72922 3.81146
-2.67101 1.73124 3.8125
-2.68704 1.73319 3.8086
-2.69912 1.73305 3.79869
-2.70821 1.73087 3.78579
-2.72424 1.73282 3.78188
-2.74126 1.73579 3.77896
-2.74345 1.72843 3.75508
-2.74949 1.72735 3.74915
-2.76156 1.72723 3.74024
-2.77561 1.72813 3.73333
-2.78868 1.72801 3.72443
-2.80471 1.72996 3.72052
-2.82667 1.73605 3.72559
-2.82578 1.73083 3.71066
-2.83785 1.7307 3.70175
-2.85191 1.7316 3.69385
-2.86496 1.7315 3.68694
-2.88396 1.73651 3.68701
-2.89406 1.73431 3.67312
-2.9002 1.73007 3.65623
-2.91217 1.73412 3.65926
-2.93216 1.73915 3.66033
-2.94523 1.73903 3.65143
-2.95927 1.73995 3.64552
-2.97333 1.74084 3.63762
-2.98441 1.73968 3.62672
-2.99649 1.73954 3.61681
-3.00549 1.74054 3.61586
-3.01064 1.73626 3.59696
-3.02767 1.73921 3.59304
-3.03577 1.73701 3.57914
-3.04884 1.73689 3.57023
-3.0619 1.73778 3.56232
-3.06991 1.73875 3.56036
-3.08298 1.73963 3.55145
-3.09011 1.73538 3.53456
-3.10614 1.73834 3.53064
-3.11821 1.7382 3.52073
-3.13327 1.7391 3.51383
-3.14335 1.73895 3.50291
-3.14839 1.73786 3.49696
-3.16543 1.7408 3.49204
-3.17948 1.74171 3.48514
-3.18561 1.73846 3.46823
-3.20363 1.74143 3.46532
-3.21075 1.7382 3.44942
-3.22382 1.73907 3.4405
-3.23183 1.74105 3.43853
-3.23994 1.73785 3.42464
-3.254 1.73974 3.41672
-3.26607 1.7396 3.40681
-3.28112 1.74152 3.40089
-3.29419 1.7424 3.39198
-3.29824 1.7413 3.38502
-3.31031 1.74116 3.37511
-3.31942 1.73996 3.3612
-3.33149 1.73983 3.35229
-3.34753 1.74176 3.34638
-3.35762 1.74159 3.33446
3.79372 1.68468 2.69334
3.77404 1.68931 2.73542
3.73826 1.68678 2.76573
3.73229 1.68585 2.76979
3.73245 1.69114 2.78972
3.72153 1.69031 2.80081
3.71564 1.69254 2.81582
3.70271 1.69168 2.82494
3.69179 1.69084 2.83503
3.67382 1.68693 2.84023
3.66886 1.687 2.84526
