-2.16986 1.74683 5.29639
-2.18297 1.74361 5.28153
-2.20103 1.74352 5.27467
-2.21888 1.75082 5.2937
-2.233 1.74759 5.27785
-2.24614 1.74433 5.26
-2.27204 1.75053 5.2721
-2.28713 1.74936 5.26023
-2.30124 1.74617 5.24638
-2.31519 1.75027 5.25243
-2.32733 1.74601 5.23458
-2.34734 1.74799 5.2327
-2.36833 1.75102 5.23381
-2.37949 1.74572 5.21297
-2.40147 1.74978 5.21608
-2.42443 1.75386 5.22019
-2.42756 1.74962 5.20428
-2.44266 1.74744 5.19142
-2.46857 1.75362 5.20253
-2.48661 1.75455 5.19665
-2.50073 1.75233 5.18179
-2.5227 1.75539 5.18491
-2.54272 1.75736 5.18203
-2.54781 1.75521 5.1711
-2.56684 1.75615 5.16622
-2.58292 1.75501 5.15636
-2.60294 1.75698 5.15348
-2.63707 1.75675 5.13674
-2.6492 1.75249 5.11889
-2.66709 1.75971 5.13292
-2.68119 1.75753 5.12006
-2.69924 1.75844 5.11318
-2.7232 1.76253 5.1183
-2.73239 1.75718 5.09445
-2.75241 1.75914 5.09057
-2.77455 1.75689 5.07277
-2.7926 1.7578 5.06589
-2.81657 1.76188 5.07001
-2.82871 1.7586 5.05115
-2.84774 1.76056 5.04726
-2.87778 1.7635 5.04244
-2.92897 1.76316 5.01683
3.46118 1.70237 4.48751
3.38268 1.70539 4.55307
3.32099 1.70604 4.59453
3.30519 1.71045 4.62159
3.2703 1.70869 4.63588
3.25437 1.70885 4.646
3.24047 1.70904 4.6581
3.21948 1.70608 4.6603
3.22265 1.7134 4.68217
3.20166 1.71045 4.68438
3.18674 1.71061 4.69449
3.17183 1.7118 4.70658
3.15489 1.71093 4.71473
3.13289 1.70694 4.71495
3.13215 1.71645 4.74882
3.109 1.70718 4.73013
3.10016 1.7125 4.75112
3.08727 1.71372 4.7652
3.06325 1.70969 4.76244
3.05947 1.71712 4.79136
3.03544 1.71208 4.78762
3.01647 1.71017 4.79279
3.0085 1.71023 4.79685
3.00069 1.71559 4.82083
2.98173 1.71468 4.82599
2.97187 1.71797 4.84502
2.96001 1.72124 4.86306
2.92988 1.71203 4.84742
2.91685 1.70898 4.84357
2.90904 1.71534 4.86753
2.87312 1.71253 4.87885
2.85313 1.71058 4.88103
2.83722 1.71175 4.89213
2.82432 1.71297 4.90621
2.81839 1.7151 4.91523
2.80246 1.71525 4.92435
2.78755 1.71644 4.93644
2.76959 1.71552 4.94159
2.75367 1.71668 4.9517
2.74283 1.721 4.97272
2.71776 1.71489 4.96399
2.70878 1.71394 4.96708
2.69793 1.71824 4.9871
2.68606 1.7215 5.00414
2.66405 1.71849 5.00235
2.65118 1.72175 5.0194
2.63931 1.72501 5.03645
2.62627 1.72195 5.03159
2.60831 1.72105 5.03774
2.60457 1.73055 5.07163
2.57443 1.72129 5.05299
2.5646 1.72664 5.07599
2.54257 1.7226 5.07222
2.52563 1.72273 5.08034
2.52682 1.7301 5.10523
2.50582 1.7271 5.10443
2.49192 1.72932 5.1185
2.47397 1.72942 5.12464
2.4452 1.73388 5.15479
2.41807 1.72667 5.1391
2.40335 1.73521 5.17509
2.3864 1.73533 5.18222
2.36845 1.73443 5.18837
1.73525 1.7414 5.43007
1.69935 1.7426 5.44232
1.65548 1.74389 5.45964
1.61852 1.743 5.46593
1.5816 1.74318 5.47621
1.56261 1.7422 5.47736
1.53464 1.74128 5.48159
1.49767 1.73939 5.4869
1.48284 1.74571 5.50792
1.46383 1.74371 5.50709
1.45382 1.7427 5.50618
1.43588 1.74383 5.5143
1.41793 1.74493 5.52042
1.39583 1.73877 5.50868
1.37683 1.73778 5.50883
1.35888 1.73889 5.51495
1.3399 1.73793 5.51711
1.33403 1.74319 5.53408
1.31399 1.74013 5.52927
1.29603 1.74023 5.53541
1.27602 1.73921 5.53358
1.25702 1.73823 5.53373
1.23906 1.73833 5.53987
1.22213 1.74047 5.54896
1.2111 1.73841 5.54408
1.19415 1.73952 5.55119
1.17518 1.7396 5.55533
1.15723 1.74071 5.56245
1.13927 1.7408 5.56759
1.1213 1.74087 5.57172
1.10814 1.73357 5.55093
1.09126 1.73882 5.56698
1.07432 1.73994 5.57409
1.05327 1.73686 5.56829
1.03531 1.73695 5.57343
1.0184 1.74013 5.58451
0.997318 1.73599 5.57473
0.987294 1.73396 5.57183
0.971426 1.73922 5.58888
0.951356 1.7351 5.58009
0.932379 1.73516 5.58323
0.915457 1.73732 5.59333
0.895434 1.73629 5.59049
0.877472 1.73638 5.59563
0.869573 1.74058 5.60863
0.847372 1.73121 5.58293
0.83048 1.73443 5.59701
0.814627 1.74072 5.61604
0.792473 1.73344 5.59631
0.775565 1.73663 5.60839
0.755535 1.73459 5.60457
0.746573 1.73567 5.60963
0.728573 1.73468 5.60978
0.708535 1.73262 5.60496
0.68952 1.7316 5.60312
0.655759 1.74009 5.63425
0.643605 1.7338 5.61443
0.60769 1.73599 5.62567
0.55066 1.73297 5.62214
0.522676 1.73302 5.62435
0.50473 1.73514 5.63146
0.447731 1.73418 5.6319
0.0376033 1.74123 5.48287
0.019472 1.73499 5.46609
0.00052713 1.73811 5.47319
-0.017488 1.73709 5.47134
-0.035549 1.73498 5.46351
-0.0535334 1.73503 5.46564
-0.0715329 1.73504 5.46578
-0.0985083 1.7371 5.46895
-0.153522 1.73711 5.46737
-0.21652 1.73716 5.46784
-0.235511 1.73819 5.46897
-1.1743 1.74126 5.36698
-1.1994 1.73908 5.3542
-1.2184 1.7401 5.35433
-1.30656 1.73985 5.33399
-1.31752 1.74192 5.33805
-1.35162 1.73975 5.32533
-1.3716 1.74281 5.32844
-1.38669 1.73964 5.3166
-1.41471 1.74162 5.31378
-1.43079 1.73948 5.30393
-1.44879 1.74048 5.30305
-1.46781 1.74145 5.30018
-1.5019 1.74031 5.28945
-1.52089 1.74234 5.29057
-1.53186 1.74441 5.29462
-1.54793 1.74227 5.28477
-1.5679 1.74534 5.28888
-1.58397 1.74421 5.27901
-1.60104 1.74209 5.27017
-1.62296 1.74827 5.28125
-1.63415 1.7409 5.25644
-1.64805 1.74609 5.26847
-1.66412 1.74497 5.2596
-1.68117 1.74489 5.25373
-1.69725 1.74274 5.24288
-1.71722 1.74582 5.24699
-1.73429 1.7447 5.23813
-1.74524 1.74779 5.24417
-1.76131 1.74667 5.23531
-1.78032 1.74765 5.23343
-1.79738 1.74655 5.22558
-1.81636 1.74959 5.22768
-1.83342 1.74849 5.21982
-1.85147 1.74841 5.21396
-1.86046 1.74943 5.21501
-1.8785 1.74936 5.20915
-1.89456 1.74925 5.20127
-1.91554 1.75231 5.20438
-1.93358 1.75225 5.19952
-1.94964 1.75113 5.19065
-1.95963 1.75316 5.1927
-1.97667 1.75309 5.18683
-1.99766 1.75613 5.18894
-2.0147 1.75605 5.18307
-2.02882 1.75283 5.16722
-2.05077 1.75693 5.17333
-2.0688 1.7579 5.17045
-2.07685 1.7568 5.16352
-2.09291 1.7567 5.15564
-2.11389 1.75974 5.15776
-2.12505 1.75444 5.13692
-2.14407 1.75541 5.13405
-2.1621 1.75636 5.13017
-2.18308 1.75941 5.13228
-2.19014 1.75831 5.12535
-2.26128 1.76108 5.10684
-2.27441 1.75682 5.089
3.52202 1.69808 4.20008
3.51013 1.69929 4.21415
3.47927 1.6986 4.2334
3.46738 1.69981 4.24747
3.4355 1.69809 4.26474
3.42754 1.69817 4.2698
3.40578 1.70264 4.3009
3.39692 1.70592 4.31892
3.3739 1.7009 4.31717
3.36303 1.70416 4.33421
3.35708 1.70427 4.34125
3.33507 1.70027 4.34047
3.31813 1.69939 4.34762
3.30422 1.69958 4.35972
3.28246 1.70507 4.39181
3.27562 1.70938 4.4128
3.24463 1.70443 4.4151
3.24387 1.71289 4.44599
3.21782 1.70682 4.44027
3.19885 1.7039 4.44446
3.20012 1.7134 4.47832
3.17508 1.70834 4.47358
3.17217 1.71052 4.48557
3.16331 1.71481 4.50458
3.14131 1.71083 4.5048
3.13145 1.7141 4.52283
3.11753 1.71527 4.53392
3.10058 1.71439 4.54106
3.08655 1.71033 4.53622
3.07364 1.71153 4.54931
3.05974 1.71372 4.56138
3.04279 1.71183 4.56854
3.03191 1.71508 4.58457
3.00686 1.70901 4.57885
3.00206 1.71539 4.6048
2.99815 1.71856 4.61578
2.97005 1.7104 4.60411
2.95615 1.71161 4.6172
2.94427 1.71484 4.63224
2.92934 1.71498 4.64136
2.90632 1.70997 4.6396
2.89646 1.71426 4.65862
2.88443 1.71121 4.65475
2.86952 1.71238 4.66585
2.86269 1.71772 4.68882
2.84575 1.71685 4.69696
2.82474 1.71386 4.69617
2.81184 1.71606 4.70923
2.79983 1.71304 4.70737
2.7839 1.71318 4.71649
2.7781 1.72058 4.74343
2.75709 1.71657 4.74164
2.74318 1.71776 4.75373
2.7242 1.71682 4.75689
2.71029 1.718 4.76898
2.70638 1.72017 4.77998
2.69044 1.72032 4.7891
2.67248 1.7194 4.79425
2.6606 1.72265 4.81029
2.64062 1.72069 4.81247
2.62874 1.72394 4.82851
2.60874 1.72095 4.82871
2.60686 1.72519 4.84466
2.58585 1.72219 4.84386
2.575 1.72648 4.86288
2.5611 1.72768 4.87597
2.53804 1.72258 4.86822
2.52921 1.72793 4.89121
2.52531 1.73112 4.9042
2.48838 1.72928 4.9135
2.4694 1.72733 4.91568
2.44939 1.72433 4.91487
2.43956 1.72966 4.93687
2.41041 1.7204 4.91822
2.3943 1.71421 4.90443
2.37938 1.71538 4.91553
2.36854 1.71968 4.93555
2.36175 1.7281 4.96348
2.34684 1.72927 4.97458
2.33294 1.73149 4.98865
2.327 1.7326 4.99568
1.30467 1.74454 5.35426
1.25975 1.74472 5.36459
1.20583 1.74491 5.375
1.1709 1.74507 5.38426
1.15292 1.74513 5.38739
1.10797 1.74526 5.39473
1.09 1.74532 5.39787
1.05197 1.7423 5.3952
1.03504 1.74445 5.4043
1.02606 1.74448 5.40636
1.00808 1.74454 5.4095
0.973166 1.74573 5.42074
0.92715 1.74273 5.41914
0.909212 1.74487 5.42724
0.891235 1.74492 5.43038
0.873243 1.74495 5.43151
0.853158 1.7398 5.42074
0.838352 1.74818 5.44573
0.819305 1.74511 5.43992
0.811351 1.7462 5.44596
0.791297 1.74311 5.43916
0.772275 1.74208 5.43631
0.755352 1.74424 5.44641
0.737337 1.74323 5.44456
0.718329 1.74223 5.44372
0.702445 1.74646 5.45878
0.691321 1.74023 5.44295
0.672275 1.73816 5.43713
0.655398 1.74241 5.45319
0.637399 1.74242 5.45333
0.618337 1.73932 5.44552
0.599276 1.73621 5.4377
0.592461 1.74357 5.46165
0.57343 1.74153 5.45782
0.555415 1.74051 5.45597
0.5364 1.73949 5.45413
0.518423 1.73955 5.45727
0.501493 1.7427 5.46635
0.482462 1.74065 5.46252
0.473424 1.73858 5.45762
0.455493 1.74073 5.46672
0.436456 1.73967 5.46188
0.418471 1.73971 5.46402
0.40158 1.74393 5.47809
0.383557 1.7429 5.47524
0.373464 1.73773 5.46339
0.355496 1.7398 5.46749
0.337549 1.74092 5.47461
0.319573 1.74198 5.47773
0.300551 1.74095 5.47489
0.282466 1.7368 5.46409
0.264505 1.73788 5.46921
0.25549 1.73786 5.46727
0.236498 1.73789 5.46842
0.218475 1.73686 5.46557
0.200476 1.73687 5.4657
0.182584 1.74109 5.47978
0.164561 1.74006 5.47693
0.146593 1.74113 5.48105
0.13643 1.73383 5.46023
0.119578 1.74012 5.47927
0.100462 1.73491 5.46449
0.0825091 1.73702 5.47059
-2.08787 1.73986 4.89682
-2.118 1.73761 4.87908
-2.13996 1.7417 4.88418
-2.15913 1.73739 4.86239
-2.17912 1.74042 4.86349
-2.22532 1.73807 4.83787
-2.24335 1.73902 4.834
-2.25038 1.73896 4.82905
-2.27136 1.74202 4.83216
-2.28643 1.74189 4.82328
-2.29855 1.73866 4.80741
-2.32148 1.7438 4.81551
-2.33361 1.74057 4.79965
-2.34967 1.74045 4.79077
-2.35769 1.74043 4.78883
-2.37277 1.73927 4.77796
-2.3898 1.74023 4.77407
-2.41177 1.7453 4.77816
-2.42191 1.74003 4.75932
-2.44191 1.74304 4.75942
-2.45994 1.745 4.75553
-2.46599 1.7429 4.7486
-2.48303 1.74484 4.7437
-2.50007 1.74476 4.73783
-2.51219 1.74255 4.72295
-2.52825 1.74244 4.71507
-2.54725 1.74444 4.71419
-2.55331 1.74332 4.70625
-2.57332 1.74532 4.70537
-2.59035 1.74726 4.70047
-2.6074 1.74719 4.6946
-2.61951 1.74497 4.67972
-2.64345 1.75111 4.68781
-2.65556 1.74889 4.67293
-2.66557 1.74989 4.67199
-2.68162 1.7498 4.66511
-2.70065 1.75175 4.66123
-2.71079 1.74849 4.64335
-2.72388 1.74632 4.63148
-2.74487 1.75035 4.63258
-2.77191 1.75328 4.62674
-2.82107 1.75399 4.60509
-2.83813 1.75489 4.59721
-2.85616 1.75684 4.59332
-2.86123 1.75471 4.58438
-2.94759 1.75506 4.53702
-3.07421 1.75393 4.45498
-3.12041 1.75356 4.42833
-3.16057 1.75528 4.40761
2.67349 1.70551 4.53141
2.66161 1.70774 4.54647
2.62681 1.71116 4.57368
2.6129 1.71234 4.58477
2.59391 1.71038 4.58694
2.57592 1.70741 4.58812
2.55998 1.70754 4.59624
2.55403 1.70865 4.60327
2.53909 1.70878 4.61138
2.52925 1.71408 4.63138
2.51736 1.71631 4.64644
2.50243 1.71745 4.65554
2.4804 1.71341 4.65176
2.37673 1.71214 4.69657
2.36384 1.71435 4.71063
2.37315 1.72794 4.75037
2.35518 1.72701 4.75452
2.3433 1.73026 4.77056
2.32632 1.72931 4.7737
1.81593 1.73581 4.98848
1.78201 1.736 4.99974
1.77506 1.73709 5.00577
1.72417 1.73733 5.02016
1.70721 1.73744 5.02628
1.6882 1.73442 5.02447
1.67919 1.73341 5.02355
1.6653 1.73663 5.03761
1.6283 1.73367 5.03893
1.60927 1.73063 5.03512
1.59743 1.73595 5.05614
1.57739 1.73287 5.05033
1.56839 1.73189 5.05141
1.53448 1.73308 5.06265
1.51956 1.73524 5.07274
1.5036 1.73534 5.07886
1.48357 1.7323 5.07505
1.46969 1.73653 5.09009
1.46069 1.73555 5.09118
1.44167 1.73352 5.08835
1.42368 1.73155 5.08951
1.40876 1.73472 5.10058
1.3887 1.73062 5.09279
1.3738 1.73382 5.10586
1.35683 1.73389 5.10999
1.34784 1.73291 5.11107
1.33189 1.73403 5.11817
1.31597 1.73619 5.12826
1.2928 1.72688 5.10657
1.2779 1.73108 5.11962
1.26608 1.73745 5.14362
1.25501 1.73432 5.13475
1.23393 1.72917 5.12398
1.21901 1.73135 5.13507
1.20101 1.73036 5.13522
1.18404 1.73043 5.13934
1.1702 1.73674 5.15936
1.15218 1.73472 5.15752
1.14111 1.7306 5.14867
1.12521 1.73379 5.16074
1.10719 1.73177 5.15891
1.09021 1.73181 5.16103
1.07117 1.72877 5.15722
1.05421 1.72985 5.16233
1.03931 1.73304 5.1744
1.02926 1.72996 5.16852
1.01128 1.73002 5.17166
0.995351 1.73216 5.18075
0.976289 1.72806 5.17295
0.95725 1.726 5.16812
0.942343 1.72919 5.18019
0.934413 1.73232 5.1892
0.917436 1.73238 5.19233
0.898397 1.72932 5.18752
0.882475 1.73248 5.19759
0.863366 1.72629 5.18383
0.845389 1.72635 5.18696
0.827381 1.72534 5.18611
0.820443 1.72747 5.19413
0.803482 1.72855 5.19925
0.785498 1.7286 5.20138
0.767443 1.72551 5.19456
0.750506 1.72764 5.20266
0.733521 1.72768 5.20479
0.69056 1.72778 5.21011
0.638652 1.729 5.22248
0.612684 1.73008 5.22667
0.594669 1.72906 5.22482
0.577654 1.72804 5.22296
0.559684 1.72812 5.22709
0.499739 1.72926 5.23453
0.481739 1.72828 5.23468
0.446771 1.72936 5.23893
0.429787 1.7294 5.24106
-1.92669 1.73514 4.78766
-1.94273 1.73507 4.78178
-1.99284 1.73588 4.76715
-2.02886 1.73988 4.76536
-2.03196 1.73567 4.75144
-2.05096 1.73868 4.75154
-2.06505 1.73652 4.73968
-2.08306 1.73852 4.73878
-2.09812 1.73741 4.73091
-2.11121 1.73524 4.71904
-2.13217 1.74033 4.72412
-2.15428 1.73812 4.70932
-2.17622 1.74426 4.7174
-2.18636 1.73898 4.69855
-2.20438 1.73995 4.69567
-2.22043 1.74088 4.68977
-2.2314 1.74394 4.69381
-2.24352 1.73971 4.67796
-2.26055 1.74167 4.67406
-2.27462 1.73953 4.6642
-2.29756 1.74566 4.67228
-2.3077 1.74141 4.65442
-2.32572 1.74336 4.65053
-2.33178 1.74126 4.6436
-2.34979 1.74324 4.64171
-2.36584 1.74417 4.63581
-2.38287 1.74512 4.63193
-2.40089 1.74709 4.62903
-2.41594 1.74699 4.62215
-2.42496 1.74796 4.6192
-2.44297 1.74994 4.61731
-2.4541 1.7467 4.60044
-2.47409 1.74973 4.60154
-2.48325 1.74444 4.58169
-2.50324 1.74747 4.58279
-2.5183 1.74736 4.57491
-2.5273 1.74935 4.57395
-2.54336 1.74924 4.56607
-2.55842 1.74914 4.55818
-2.57939 1.75321 4.56228
-2.5925 1.75101 4.54841
-2.6115 1.75401 4.54751
-2.60868 1.74667 4.52459
-2.62472 1.74659 4.51871
-2.6467 1.75165 4.5218
-2.65585 1.74636 4.50195
-2.6788 1.75247 4.50803
-2.69682 1.75444 4.50514
-2.70893 1.75224 4.49126
-2.71991 1.75528 4.4933
-2.74314 1.74985 4.46355
3.27316 1.69559 3.95396
3.24935 1.69697 3.97912
3.18566 1.69663 4.02061
3.17274 1.6968 4.03171
3.15882 1.69696 4.04181
3.11209 1.69853 4.07814
2.99269 1.69878 4.15805
2.97977 1.69995 4.16913
2.97483 1.70106 4.17615
2.95887 1.70016 4.18229
2.90316 1.70077 4.2207
2.88631 1.70407 4.24079
2.86632 1.7011 4.24198
2.85441 1.70229 4.25405
2.84353 1.70553 4.27009
2.81161 1.70272 4.28137
2.80668 1.70486 4.29038
2.79275 1.705 4.29948
2.7768 1.70412 4.30662
2.76693 1.70836 4.32263
2.74591 1.70335 4.32086
2.73097 1.70348 4.32898
2.72906 1.70665 4.34095
2.71717 1.70887 4.355
2.70019 1.70693 4.35816
2.68323 1.70601 4.3633
2.67538 1.71131 4.38329
2.65741 1.70939 4.38745
2.6445 1.71056 4.39853
2.6426 1.71477 4.41249
2.62563 1.71282 4.41564
2.60866 1.71191 4.42079
2.59779 1.71517 4.43782
2.57879 1.71217 4.43701
2.57096 1.7175 4.45899
2.5621 1.72179 4.478
2.54904 1.71768 4.47016
2.53411 1.71784 4.48027
2.51714 1.7159 4.48342
2.50322 1.71807 4.4945
2.49233 1.72028 4.50855
2.47435 1.71834 4.51172
2.4684 1.72045 4.51873
2.44737 1.71541 4.51496
2.43853 1.72072 4.53595
2.41445 1.71358 4.52524
2.41576 1.72718 4.56603
2.3988 1.72627 4.57117
2.38387 1.72641 4.58029
2.36196 1.72761 4.59244
2.34499 1.72668 4.59658
1.8197 1.73339 4.82547
1.80272 1.73245 4.82861
1.79269 1.7304 4.82472
1.69697 1.732 4.86142
1.69001 1.73309 4.86746
1.66896 1.72901 4.86067
1.65708 1.73325 4.8767
1.63909 1.73128 4.87787
1.6221 1.73031 4.87901
1.60615 1.73142 4.88611
1.58816 1.73045 4.88726
1.58222 1.73157 4.89529
1.56423 1.73062 4.89744
1.54724 1.72964 4.89859
1.53027 1.72971 4.90271
1.51431 1.7298 4.90783
1.49732 1.72883 4.90898
1.48833 1.72886 4.91104
1.47032 1.72585 4.90922
1.45436 1.72695 4.91533
1.43739 1.72702 4.91945
1.42143 1.7271 4.92457
1.40649 1.72823 4.93267
1.38849 1.72725 4.93282
1.37847 1.72521 4.92993
1.36353 1.72634 4.93802
1.34553 1.72535 4.93817
1.32956 1.72542 4.94229
1.31464 1.72758 4.95238
1.2987 1.72871 4.96048
1.28172 1.72877 4.96361
1.27168 1.7257 4.95873
1.2547 1.72574 4.96086
1.23668 1.72271 4.95804
1.22071 1.7238 4.96314
1.20477 1.72491 4.97025
1.18778 1.72396 4.97239
1.17877 1.72293 4.97047
1.17005 1.73549 5.00736
1.1479 1.72621 4.98766
1.13299 1.7304 4.99971
1.11392 1.72528 4.99093
1.09797 1.72639 4.99803
1.08098 1.72642 4.99916
1.07301 1.72648 5.00322
1.055 1.72447 5.00138
1.03697 1.72244 4.99855
1.01997 1.72145 4.99869
1.00405 1.72461 5.00877
0.978044 1.72261 5.00799
0.962106 1.72474 5.01608
0.945113 1.72377 5.01723
0.870197 1.72299 5.0288
0.821329 1.72727 5.04611
-1.85675 1.734 4.64613
-1.87181 1.7329 4.63826
-1.90779 1.73795 4.64046
-1.92891 1.73573 4.62465
-1.942 1.73358 4.61378
-1.98912 1.73336 4.59713
-2.00811 1.7374 4.59921
-2.02824 1.73417 4.58241
-2.04819 1.73927 4.58849
-2.06128 1.7371 4.57662
-2.07634 1.73599 4.56875
-2.08943 1.73383 4.55687
-2.10743 1.73684 4.55697
-2.1125 1.73369 4.54705
-2.13542 1.74086 4.55712
-2.15735 1.74701 4.56619
-2.16356 1.73861 4.53936
-2.18255 1.74164 4.54046
-2.1976 1.74155 4.53357
-2.20266 1.73943 4.52564
-2.21871 1.74036 4.51975
-2.23771 1.74237 4.51986
-2.25766 1.74746 4.52494
-2.27175 1.74631 4.51406
-2.2868 1.74621 4.50717
-2.30087 1.74509 4.49829
-2.30988 1.74607 4.49635
-2.32591 1.74702 4.49245
-2.34294 1.74797 4.48857
-2.35997 1.74992 4.48466
-2.36912 1.74464 4.46481
-2.39009 1.74971 4.46889
-2.4012 1.74651 4.45502
-2.41513 1.75164 4.46305
-2.42723 1.74946 4.45017
-2.44228 1.74936 4.44329
-2.45537 1.74719 4.43142
-2.46944 1.74707 4.42252
-2.48646 1.74904 4.41962
-2.50744 1.75308 4.42172
-2.50955 1.74888 4.4078
-2.52756 1.75088 4.4069
-2.54163 1.75074 4.39701
-2.55571 1.7496 4.38713
-2.5968 1.75245 4.3754
-2.68516 1.75279 4.32705
-2.72132 1.75251 4.30632
3.47237 1.68896 3.5825
3.30656 1.69642 3.74166
3.26072 1.69277 3.76307
3.2578 1.69492 3.77306
3.24487 1.69508 3.78315
3.23801 1.69835 3.80116
3.21498 1.6923 3.79742
3.20307 1.69349 3.8095
3.1962 1.69675 3.8265
3.18327 1.6969 3.8366
3.17126 1.69388 3.83473
3.16238 1.69613 3.85077
3.14844 1.69626 3.85887
3.13249 1.69437 3.86602
3.12663 1.69864 3.88401
3.11573 1.70084 3.89706
3.09483 1.70005 3.91023
3.08293 1.70125 3.9233
3.06293 1.69727 3.92351
3.05202 1.69947 3.93656
3.03808 1.69859 3.94468
3.02314 1.69772 3.95281
3.02426 1.70295 3.96772
3.00426 1.69896 3.96793
2.96043 1.69733 3.99129
2.91671 1.69991 4.02859
2.89087 1.70124 4.04977
2.87188 1.69827 4.05095
2.86603 1.70357 4.07092
2.86312 1.70574 4.08191
2.84109 1.70069 4.07815
2.83829 1.70809 4.10507
2.81929 1.70511 4.10526
2.8084 1.70732 4.11931
2.79751 1.70954 4.13336
2.7775 1.70554 4.13257
2.77053 1.7056 4.13662
2.75963 1.7078 4.14967
2.73658 1.70173 4.14393
2.73682 1.71119 4.1748
2.71883 1.70923 4.17696
2.70592 1.71042 4.18904
2.70605 1.71466 4.20498
2.69515 1.71686 4.21803
2.68324 1.71906 4.23109
2.66323 1.71506 4.2303
2.65031 1.71621 4.24038
2.6374 1.71739 4.25146
2.62649 1.71959 4.26452
2.60662 1.72184 4.28063
2.57672 1.72107 4.29487
2.54683 1.7203 4.30911
2.45322 1.72213 4.3618
2.44425 1.72119 4.36488
1.52219 1.73359 4.7587
1.5052 1.73261 4.75984
1.44828 1.73082 4.7713
1.4354 1.73505 4.78633
1.41841 1.73408 4.78748
1.40347 1.73622 4.79656
1.39342 1.73213 4.78969
1.3785 1.73428 4.79977
1.3615 1.73331 4.80092
1.34555 1.73441 4.80702
1.32958 1.73448 4.81114
1.31361 1.73455 4.81526
1.30151 1.72837 4.80244
1.28863 1.7326 4.81748
1.27266 1.73267 4.8216
1.25876 1.73687 4.83464
1.24176 1.73489 4.8348
1.22579 1.73496 4.83892
1.2088 1.735 4.84105
1.19977 1.73295 4.83715
1.18279 1.73199 4.83929
1.16579 1.731 4.83943
1.15084 1.73212 4.84653
1.13387 1.73219 4.85066
1.11893 1.73432 4.85874
1.10089 1.73126 4.85392
1.09289 1.73025 4.85299
1.07592 1.73032 4.85712
1.06099 1.73246 4.8662
1.04395 1.7294 4.86138
1.02697 1.72946 4.8645
1.0089 1.72534 4.8557
1.00094 1.72642 4.86074
0.984947 1.72545 4.86188
0.97004 1.72963 4.87393
0.954063 1.72969 4.87705
0.936024 1.72663 4.87223
0.921109 1.7298 4.8833
0.90514 1.72987 4.88742
0.897179 1.73195 4.89245
0.878046 1.72372 4.87571
0.864209 1.73104 4.89671
0.847202 1.73003 4.89585
0.830163 1.72697 4.89103
0.815255 1.73016 4.90309
0.797217 1.7281 4.89826
0.790248 1.72916 4.9023
0.772186 1.72506 4.89449
0.756217 1.72613 4.8986
0.742364 1.73242 4.91761
0.723279 1.72727 4.90683
0.70731 1.72834 4.91093
0.698232 1.7242 4.90106
0.681248 1.72424 4.90319
0.665294 1.72534 4.9093
0.648263 1.7233 4.90545
0.63231 1.7244 4.91156
0.616294 1.72338 4.90969
0.599295 1.72339 4.90982
0.591341 1.72449 4.91587
0.559411 1.72664 4.92508
0.542396 1.72563 4.92322
0.526419 1.72668 4.92632
0.509358 1.72358 4.9185
0.493419 1.72471 4.9266
0.485512 1.72889 4.9386
0.468435 1.72475 4.92879
0.435466 1.72584 4.93302
0.3115 1.72499 4.93797
0.295523 1.72504 4.94109
0.237532 1.7251 4.94253
0.0326951 1.72559 4.83205
0.0167727 1.72875 4.84212
0.00075751 1.72773 4.84026
-0.0162031 1.72982 4.84535
-0.0322798 1.72668 4.83552
-0.0562327 1.72879 4.84167
-0.0722787 1.72671 4.83582
-0.105216 1.72985 4.84402
-0.153268 1.72779 4.83742
-0.209312 1.72674 4.83185
-0.258318 1.72776 4.83121
-1.10111 1.72977 4.72951
-1.22126 1.73255 4.70937
-1.27538 1.73135 4.6938
-1.29042 1.73027 4.68793
-1.32929 1.74055 4.70507
-1.3385 1.73115 4.67727
-1.34942 1.73632 4.68828
-1.38147 1.73624 4.68152
-1.39262 1.73096 4.66268
-1.41353 1.73714 4.67375
-1.44167 1.73389 4.65601
-1.44773 1.73077 4.6471
-1.46766 1.73591 4.65617
-1.48075 1.73374 4.6443
-1.50068 1.73891 4.65438
-1.52979 1.73671 4.63963
-1.53685 1.73459 4.63171
-1.55287 1.73556 4.62882
-1.56498 1.73136 4.61497
-1.58686 1.7396 4.63001
-1.59605 1.73124 4.6052
-1.616 1.73635 4.61228
-1.62712 1.73213 4.59642
-1.64393 1.74249 4.6204
-1.6502 1.73099 4.58661
-1.6662 1.73299 4.5857
-1.68518 1.73605 4.5888
-1.69923 1.73496 4.58192
-1.71721 1.738 4.58401
-1.72132 1.73379 4.5701
-1.73637 1.7327 4.56323
-1.75924 1.74197 4.58027
-1.77136 1.73774 4.56442
-1.79523 1.74701 4.58147
-1.79949 1.73551 4.54766
-1.8165 1.73749 4.54576
-1.82842 1.74165 4.55579
-1.84152 1.73947 4.54292
-1.85951 1.74149 4.54403
-1.88141 1.7497 4.55707
-1.8896 1.74134 4.53225
-1.90857 1.74541 4.53634
-1.91561 1.74534 4.53139
-1.93557 1.74943 4.53648
-1.94571 1.74416 4.51763
-1.95683 1.74094 4.50276
-1.97875 1.74711 4.51284
-1.99479 1.74704 4.50796
-2.00394 1.74176 4.4881
-2.02177 1.75108 4.5091
-2.03192 1.7468 4.49024
-2.04696 1.74673 4.48435
-2.05906 1.74456 4.47248
-2.07705 1.74657 4.47258
-2.09309 1.74751 4.46769
-2.10617 1.74637 4.4578
-2.11812 1.74947 4.46385
-2.13021 1.7473 4.45197
-2.15018 1.75136 4.45506
-2.16326 1.75022 4.44517
-2.17733 1.7491 4.43629
-2.19337 1.75003 4.4314
-2.20743 1.74891 4.42252
-2.21446 1.74887 4.41957
-2.29266 1.75151 4.39212
-2.39605 1.75082 4.3409
3.88497 1.68204 2.99742
3.76797 1.68408 3.13029
3.74916 1.68548 3.15641
3.73724 1.68564 3.1665
3.72524 1.68165 3.16665
3.71432 1.68182 3.17773
3.72055 1.69124 3.20655
3.69753 1.68525 3.20581
3.68462 1.68442 3.21692
3.68076 1.68869 3.23489
3.66975 1.6857 3.23502
3.66691 1.68999 3.25498
3.66608 1.69632 3.27689
3.64004 1.68828 3.27321
3.63115 1.69049 3.28724
3.60915 1.68452 3.2885
3.60732 1.68984 3.30944
3.60337 1.69094 3.31645
3.60355 1.69728 3.33936
3.5886 1.6954 3.3465
3.56862 1.69146 3.34971
3.56476 1.69574 3.36868
3.54075 1.68873 3.36696
3.53991 1.69406 3.38889
3.53094 1.69311 3.39197
3.518 1.69225 3.40109
3.5202 1.70063 3.42695
3.49719 1.69463 3.42621
3.48728 1.69482 3.43828
3.47537 1.69499 3.44937
3.4795 1.70124 3.46625
3.47262 1.70348 3.48227
3.44255 1.69437 3.47363
3.43063 1.69454 3.48472
3.42779 1.69984 3.50467
3.41688 1.70002 3.51675
3.39285 1.694 3.51402
3.39194 1.69616 3.52499
3.39111 1.7025 3.54791
3.37315 1.70059 3.55307
3.35619 1.69768 3.55825
3.34931 1.70092 3.57425
3.3495 1.70729 3.59916
3.32345 1.70022 3.59346
3.32658 1.70545 3.60936
3.30255 1.69943 3.60663
3.29063 1.69958 3.61672
3.28779 1.70491 3.63866
3.27992 1.70815 3.65468
3.25286 1.70007 3.648
3.23599 1.70033 3.66513
3.23517 1.70769 3.68903
3.20912 1.70062 3.68333
3.20225 1.70286 3.69935
3.19538 1.70712 3.71634
3.17336 1.7011 3.71459
3.17649 1.70735 3.73148
3.16458 1.70754 3.74357
3.14963 1.70664 3.7497
3.12559 1.69958 3.74498
3.10964 1.6987 3.75212
3.11691 1.71021 3.78689
3.09984 1.70411 3.77911
3.09601 1.71042 3.80005
3.06893 1.70129 3.79039
3.0752 1.7128 3.82518
3.04813 1.70471 3.8175
3.02025 1.70396 3.83372
3.02844 1.71331 3.85752
3.00137 1.7052 3.84885
2.99652 1.7095 3.86882
2.97956 1.70758 3.87398
2.97269 1.71184 3.89097
2.95167 1.70683 3.8892
2.95089 1.71524 3.91709
2.9338 1.70809 3.90632
2.91684 1.70618 3.91148
2.91705 1.71458 3.93836
2.90008 1.71266 3.94351
2.87704 1.70661 3.93878
2.85613 1.70679 3.94993
2.84241 1.71534 3.98691
2.80341 1.70737 3.98733
2.78363 1.71282 4.0164
2.7617 1.71196 4.02558
2.73889 1.71535 4.0507
2.72495 1.71549 4.05981
2.69909 1.71678 4.07799
2.68123 1.71906 4.09609
2.65032 1.71726 4.10835
2.61851 1.71965 4.13356
1.42949 1.73428 4.66637
1.41249 1.73329 4.66651
1.37748 1.72929 4.66484
1.33469 1.73472 4.69208
1.32567 1.73369 4.69017
1.3107 1.73376 4.69428
1.29475 1.73486 4.70038
1.26175 1.7319 4.70168
1.24782 1.73405 4.71075
1.24087 1.73514 4.71679
1.22282 1.73206 4.71097
1.20788 1.73319 4.71907
1.18985 1.73115 4.71523
1.17698 1.73539 4.73127
1.15791 1.73127 4.72247
1.14295 1.73136 4.72758
1.13599 1.73345 4.7336
1.12001 1.73351 4.73672
1.10298 1.73046 4.7329
1.08702 1.73155 4.738
1.07207 1.73165 4.74411
1.05715 1.73481 4.75418
1.04115 1.73383 4.75532
1.03318 1.7349 4.75936
1.01718 1.7339 4.7585
1.00121 1.73398 4.76362
0.983152 1.72988 4.75581
0.96509 1.72577 4.74801
0.950167 1.72893 4.75807
0.944268 1.73313 4.77106
0.927229 1.73007 4.76623
0.909151 1.72593 4.75643
0.89319 1.72602 4.76155
0.880352 1.73334 4.78254
0.864375 1.73339 4.78566
0.84629 1.72824 4.77487
0.840376 1.73241 4.78585
0.823352 1.73038 4.78301
0.807368 1.73042 4.78513
0.79243 1.73255 4.79321
0.774375 1.72846 4.78641
0.75839 1.7285 4.78853
0.744515 1.73375 4.80456
0.735476 1.73168 4.79966
0.720522 1.73278 4.80575
0.703484 1.73072 4.80091
0.686453 1.72867 4.79707
0.669437 1.72665 4.79523
0.653429 1.72565 4.79436
0.646507 1.7288 4.80437
0.628422 1.72465 4.79357
0.615623 1.73305 4.81954
0.598577 1.73097 4.8137
0.580492 1.72582 4.80291
0.565562 1.72897 4.81198
0.549562 1.72798 4.81211
0.541593 1.72904 4.81616
0.524508 1.72489 4.80535
0.509609 1.72909 4.8184
0.492585 1.72706 4.81556
0.461679 1.73126 4.82773
0.444648 1.72922 4.82389
0.436687 1.7303 4.82893
0.420632 1.7272 4.8221
0.404703 1.73035 4.83117
0.387656 1.72727 4.82535
0.372734 1.73143 4.8354
0.348734 1.73045 4.83559
0.332758 1.7315 4.8387
0.31572 1.72944 4.83386
0.299681 1.72738 4.82901
0.283743 1.72951 4.8371
0.267782 1.7316 4.84219
0.250698 1.72745 4.83138
0.243791 1.73163 4.84337
0.210682 1.72545 4.82971
0.194791 1.73066 4.84375
0.161738 1.72759 4.83705
0.14577 1.72966 4.84114
0.137816 1.73175 4.84717
0.121731 1.7276 4.83635
0.105763 1.72867 4.84045
0.0887475 1.72765 4.83859
0.0726783 1.72453 4.82976
0.0567716 1.72872 4.84182
0.0408266 1.73184 4.8489
-1.94198 1.73368 4.35074
-2.02125 1.73319 4.31434
-2.0845 1.73075 4.28184
-2.13961 1.73457 4.2672
-2.16378 1.73026 4.24544
-2.19287 1.7311 4.23365
-2.20693 1.72998 4.22477
-2.22702 1.72982 4.21292
-2.24305 1.73077 4.20903
-2.28523 1.72946 4.18636
-2.30025 1.73141 4.18245
-2.31728 1.73338 4.17955
-2.36155 1.72888 4.14394
-2.37954 1.73191 4.14503
-2.39952 1.73595 4.14712
-2.41764 1.73373 4.13129
-2.43169 1.73465 4.12538
-2.44476 1.73351 4.1155
-2.45487 1.73031 4.10162
-2.47485 1.73535 4.10369
-2.48397 1.73112 4.08782
-2.491 1.73107 4.08388
-2.50604 1.73301 4.07896
-2.53613 1.73385 4.06717
-2.55512 1.73788 4.06825
-2.55832 1.7295 4.0424
-2.58016 1.74081 4.0624
-2.58632 1.7345 4.04154
-2.59938 1.73439 4.03364
-2.61443 1.7353 4.02673
-2.62157 1.73104 4.00885
-2.64254 1.7361 4.01193
-2.66647 1.74325 4.02101
-2.66757 1.73906 4.00808
-2.67471 1.7348 3.99019
-2.69273 1.73776 3.98728
-2.70678 1.73767 3.98039
-2.72776 1.74273 3.98347
-2.73095 1.73536 3.9586
-2.75094 1.74039 3.95968
-2.75105 1.73518 3.94575
-2.77894 1.7454 3.95882
-2.79102 1.74426 3.94892
-2.79915 1.74101 3.93203
-2.80727 1.73678 3.91615
-2.82727 1.74179 3.91623
-2.83836 1.73963 3.90434
-2.85527 1.7468 3.91536
-2.86636 1.74563 3.90346
-2.8814 1.74655 3.89756
-2.89053 1.74332 3.88168
-2.91964 1.74512 3.86687
-2.92765 1.7461 3.86491
-2.93677 1.74288 3.85003
-2.9429 1.73862 3.83213
-2.96884 1.74776 3.84019
-2.99201 1.74443 3.81742
-3.00607 1.74533 3.80951
-3.01112 1.74424 3.80356
-3.08647 1.74658 3.75609
-3.09656 1.74541 3.74418
3.47383 1.68697 3.24547
3.27625 1.6919 3.43492
3.25039 1.69118 3.45312
3.22654 1.6915 3.4733
3.21653 1.68849 3.47242
3.20865 1.69173 3.48844
3.16013 1.6987 3.55171
3.07345 1.69139 3.59447
3.03868 1.69387 3.6257
3.00493 1.69638 3.65893
2.98805 1.69663 3.67505
2.93227 1.6941 3.70451
2.92248 1.70051 3.73149
2.88954 1.69565 3.73982
2.87377 1.70212 3.77084
2.8478 1.6982 3.7751
2.81587 1.69436 3.7844
2.80496 1.69654 3.79645
2.79202 1.69667 3.80454
2.78111 1.69786 3.81661
2.75917 1.69599 3.82481
2.75535 1.70233 3.84774
2.73836 1.69938 3.84992
2.73252 1.70468 3.86988
2.70845 1.69758 3.86217
2.70362 1.7039 3.88411
2.68866 1.70199 3.88926
2.67359 1.69687 3.88044
2.6809 1.71145 3.92018
2.65076 1.69921 3.90259
2.6439 1.7045 3.92156
2.62793 1.70255 3.92471
2.62006 1.70581 3.94172
2.61106 1.70482 3.94181
2.60319 1.70909 3.95981
2.58215 1.70303 3.95505
2.58138 1.71246 3.98392
2.56641 1.71154 3.98905
2.54537 1.70549 3.9843
2.53548 1.7087 3.99833
2.53257 1.71186 4.0093
2.51153 1.70581 4.00455
2.49961 1.70798 4.01561
2.50087 1.71948 4.04943
2.48186 1.71548 4.04864
2.46589 1.71354 4.05179
2.45498 1.71574 4.06484
2.44293 1.71164 4.05799
2.43203 1.71384 4.07104
2.39731 1.7204 4.10721
1.93598 1.72501 4.33165
1.91305 1.72514 4.33982
1.88617 1.7274 4.35599
1.87019 1.72546 4.35914
1.84927 1.72662 4.36928
1.83023 1.72256 4.36448
1.8044 1.7269 4.38662
1.78637 1.72287 4.38381
1.77241 1.72296 4.38892
1.75747 1.72409 4.39701
1.75152 1.72618 4.40303
1.73655 1.72626 4.40814
1.71851 1.7212 4.40335
1.70559 1.72336 4.41342
1.68961 1.7224 4.41555
1.67773 1.72665 4.43158
1.66871 1.72461 4.42868
1.65476 1.72572 4.43577
1.63774 1.72271 4.43394
1.61973 1.71969 4.43212
1.60886 1.72495 4.44913
1.59184 1.72193 4.4473
1.57381 1.71889 4.44348
1.5699 1.72205 4.45447
1.55495 1.72317 4.46156
1.53486 1.71702 4.4508
1.52194 1.71918 4.46087
1.50596 1.71823 4.46401
1.49201 1.71933 4.4701
1.47398 1.7163 4.46728
1.47112 1.72255 4.48421
1.45205 1.71745 4.47643
1.43812 1.71858 4.48451
1.42314 1.71863 4.48763
1.41022 1.7208 4.49869
1.39218 1.71774 4.49387
1.38832 1.723 4.51083
1.36922 1.71684 4.49906
1.35631 1.72001 4.51011
1.34137 1.72114 4.51821
1.3264 1.72121 4.52232
1.31039 1.7192 4.52147
1.29336 1.71616 4.51765
1.28539 1.71722 4.52169
1.2704 1.71626 4.52382
1.25338 1.71423 4.52098
1.2405 1.71846 4.53601
1.22861 1.72268 4.55004
1.2116 1.72067 4.5492
1.19457 1.71763 4.54537
1.1876 1.71869 4.54941
1.1556 1.71673 4.55068
1.12466 1.71686 4.55791
1.11073 1.719 4.56699
1.10273 1.71801 4.56706
1.08674 1.71705 4.5692
1.07176 1.7171 4.57231
1.05679 1.71716 4.57542
1.02481 1.71623 4.57868
1.00985 1.71731 4.58377
0.987926 1.71947 4.59391
-1.73567 1.72818 4.25825
-1.78384 1.72688 4.23563
-1.81293 1.72674 4.22485
-1.82795 1.7277 4.22195
-1.84199 1.72763 4.21605
-1.85294 1.73172 4.22208
-1.89608 1.73149 4.2044
-1.90619 1.72727 4.18954
-1.92221 1.72925 4.18763
-1.93821 1.73125 4.18672
-1.94425 1.73018 4.18178
-1.95535 1.727 4.16891
-1.97137 1.72896 4.166
-1.98738 1.73096 4.16509
-2.0034 1.73193 4.1622
-2.01842 1.73389 4.15928
-2.0315 1.73176 4.14941
-2.04048 1.73379 4.15145
-2.04763 1.7285 4.13158
-2.06661 1.73256 4.13466
-2.08263 1.73353 4.13177
-2.09666 1.73446 4.12686
-2.1058 1.73022 4.10999
-2.11972 1.73538 4.12002
-2.13867 1.74046 4.12509
-2.14683 1.73517 4.10522
-2.1589 1.73303 4.09535
-2.17984 1.74017 4.1034
-2.18799 1.73489 4.08454
-2.19908 1.73272 4.07265
-2.21004 1.7358 4.07769
-2.22211 1.73467 4.06779
-2.23913 1.73665 4.06589
-2.25021 1.73449 4.05501
-2.26328 1.73437 4.04611
-2.27831 1.73431 4.04122
-2.28927 1.73839 4.04624
-2.29642 1.73311 4.02737
-2.31146 1.73403 4.02147
-2.33045 1.73808 4.02355
-2.33858 1.73383 4.00668
-2.35657 1.73686 4.00777
-2.37061 1.73778 4.00186
-2.37764 1.73773 3.99791
-2.38775 1.73453 3.98403
-2.40179 1.73545 3.97812
-2.4188 1.73845 3.97721
-2.43088 1.73629 3.96633
-2.44493 1.73721 3.96042
-2.45405 1.73298 3.94455
-2.46008 1.73293 3.94059
-2.48893 1.74521 3.95863
-2.4951 1.73891 3.93777
-2.5042 1.73571 3.92388
-2.52318 1.73975 3.92597
-2.53328 1.73757 3.91307
-2.54832 1.7395 3.90816
-2.5593 1.74254 3.9102
-2.57039 1.74039 3.89931
-2.58444 1.74129 3.8924
-2.60046 1.74326 3.88949
-2.61056 1.74107 3.8766
-2.62265 1.73891 3.86472
-2.6346 1.744 3.87074
-2.64273 1.73976 3.85386
-2.65875 1.74172 3.85095
-2.66984 1.74055 3.83905
-2.67896 1.73734 3.82416
-2.69597 1.74032 3.82225
-2.712 1.74227 3.81834
-2.72813 1.74002 3.80049
-2.74317 1.74096 3.79559
-2.75821 1.74288 3.78967
-2.76931 1.74071 3.77779
-2.78632 1.74369 3.77587
-2.79236 1.74362 3.77092
-2.80641 1.74453 3.76401
3.27365 1.68476 3.22301
3.25484 1.68715 3.24812
3.234 1.68747 3.26928
3.20216 1.68581 3.29054
3.16839 1.68628 3.3208
3.15371 1.69591 3.36277
3.13571 1.69193 3.36397
3.12277 1.69106 3.37208
3.1159 1.6943 3.38808
3.09791 1.69035 3.39028
3.09094 1.68941 3.39434
3.08304 1.69261 3.40736
3.07515 1.69482 3.42139
3.05919 1.69292 3.42754
3.05129 1.69512 3.44056
3.03734 1.69324 3.4477
3.01835 1.68926 3.4489
3.01742 1.69241 3.45886
3.00045 1.68949 3.46303
2.98954 1.69066 3.4741
2.98063 1.69184 3.48615
2.9508 1.6922 3.50937
2.93989 1.69337 3.52044
2.92392 1.69144 3.52459
2.91703 1.69467 3.5396
2.90005 1.69173 3.54277
2.88812 1.69187 3.55186
2.88024 1.6951 3.56687
2.85932 1.69328 3.57806
2.85344 1.69752 3.59404
2.83342 1.6925 3.59227
2.82453 1.69472 3.6063
2.82069 1.70103 3.62724
2.80674 1.70014 3.63436
2.79977 1.69919 3.63743
2.78986 1.70138 3.64947
2.77085 1.69638 3.64869
2.75994 1.69856 3.66074
2.75711 1.70489 3.68267
2.73405 1.6978 3.67595
2.73315 1.70198 3.68789
2.72526 1.70421 3.70292
2.70727 1.70124 3.7041
2.69331 1.70034 3.71022
2.68847 1.70564 3.73018
2.66743 1.69959 3.72643
2.65753 1.70279 3.73946
2.65763 1.70698 3.7524
2.63862 1.70298 3.7516
2.62973 1.7052 3.76564
2.62287 1.71047 3.78361
2.60183 1.70441 3.77886
2.59092 1.70559 3.79093
2.58911 1.71397 3.81582
2.57808 1.71091 3.81195
2.57223 1.7162 3.83092
2.54331 1.71338 3.84218
2.52734 1.71145 3.84633
2.5054 1.71059 3.85451
2.48942 1.70865 3.85765
2.47344 1.7067 3.8608
2.45847 1.70477 3.86495
2.44757 1.70697 3.878
2.44273 1.71327 3.89794
2.43183 1.71547 3.91099
1.92979 1.72366 4.17269
1.89592 1.72393 4.18995
1.84403 1.72219 4.20536
1.81716 1.72446 4.22254
1.78925 1.72566 4.23473
1.75233 1.72485 4.24602
1.71046 1.72513 4.26334
1.67849 1.72322 4.26761
1.65654 1.72232 4.27378
1.62864 1.72354 4.28698
1.59868 1.72163 4.29223
1.58577 1.72482 4.30429
1.57674 1.72278 4.30138
1.56278 1.72286 4.30649
1.54577 1.71985 4.30466
1.53591 1.72614 4.32364
1.51683 1.72 4.31388
1.50187 1.72009 4.31899
1.48485 1.71706 4.31616
1.47888 1.71812 4.32019
1.46493 1.71923 4.32728
1.44995 1.71827 4.32941
1.43397 1.71733 4.33254
1.4241 1.72259 4.34954
1.40606 1.71953 4.34472
1.39623 1.72584 4.36571
1.38412 1.71965 4.35189
1.3753 1.72701 4.37585
1.35518 1.71979 4.3601
1.33814 1.71573 4.35529
1.32318 1.71682 4.36139
1.3123 1.72105 4.37641
1.30327 1.719 4.37251
1.28933 1.72013 4.3806
1.27435 1.72017 4.38271
1.25732 1.71714 4.37988
1.24542 1.72034 4.39293
1.22944 1.72038 4.39505
1.21137 1.71526 4.38626
1.20542 1.71737 4.39327
1.19455 1.72261 4.40928
1.17854 1.72061 4.40843
1.16049 1.71654 4.40262
1.14757 1.71971 4.41368
1.13051 1.7156 4.40587
1.11451 1.71361 4.40601
1.10961 1.71781 4.41899
1.09255 1.7137 4.41118
1.06777 1.72315 4.44023
1.03263 1.71391 4.42263
1.0267 1.71605 4.43164
1.01171 1.71607 4.43276
0.981766 1.7162 4.43998
0.95078 1.71425 4.44224
0.936827 1.71635 4.44832
0.898865 1.71545 4.45362
0.854942 1.71663 4.46393
0.674174 1.71721 4.49529
0.606252 1.71841 4.50579
-1.40795 1.72443 4.22083
-1.52923 1.72495 4.18373
-1.60938 1.7267 4.16331
-1.67156 1.72639 4.13978
-1.68462 1.72528 4.13189
-1.72675 1.72506 4.11521
-1.74078 1.72601 4.1113
-1.75171 1.73014 4.11932
-1.7638 1.72798 4.10845
-1.77588 1.72583 4.09757
-1.80298 1.72466 4.08479
-1.83204 1.72556 4.07699
-1.86712 1.72742 4.06623
-1.88412 1.73043 4.06631
-1.8952 1.72828 4.05542
-1.91219 1.73131 4.05651
-1.91431 1.72509 4.04161
-1.92637 1.72498 4.0337
-1.94828 1.73216 4.04477
-1.9584 1.72794 4.0299
-1.97046 1.72682 4.02101
-1.98843 1.73089 4.02508
-1.99854 1.72769 4.01121
-2.01147 1.73283 4.02023
-2.02058 1.72962 4.00534
-2.03855 1.73369 4.00942
-2.04965 1.7305 3.99655
-2.06171 1.73038 3.98764
-2.07871 1.73239 3.98774
-2.09079 1.73125 3.97784
-2.0978 1.73224 3.97688
-2.11381 1.73422 3.97497
-2.12391 1.73104 3.96209
-2.13894 1.73199 3.95819
-2.15299 1.7319 3.9513
-2.1621 1.72868 3.93641
-2.18106 1.73377 3.94148
-2.18809 1.73372 3.93753
-2.19425 1.72742 3.91767
-2.21518 1.73456 3.92572
-2.22529 1.73136 3.91185
-2.23636 1.72922 3.90196
-2.2504 1.73015 3.89705
-2.26039 1.73218 3.8981
-2.27246 1.73105 3.8892
-2.28947 1.73405 3.88829
-2.30252 1.73395 3.88138
-2.30965 1.72971 3.8645
-2.32863 1.73375 3.86658
-2.34464 1.73673 3.86466
-2.34674 1.73256 3.85273
-2.3588 1.73143 3.84384
-2.37285 1.73235 3.83793
-2.39281 1.73844 3.84299
-2.39699 1.73009 3.81914
-2.412 1.73307 3.81721
-2.422 1.73509 3.81826
-2.43407 1.73395 3.80837
-2.45008 1.73695 3.80744
-2.46018 1.73477 3.79455
-2.48014 1.73984 3.79862
-2.4932 1.73973 3.79072
-2.50034 1.73547 3.77284
-2.51328 1.74058 3.77986
-2.52437 1.73843 3.76897
-2.54039 1.74039 3.76607
-2.54949 1.73821 3.75316
-2.55959 1.73602 3.74027
-2.57561 1.73799 3.73736
-2.58065 1.73691 3.73142
-2.5947 1.73781 3.72451
-2.61368 1.74287 3.72758
-2.61884 1.73656 3.70671
-2.62794 1.73438 3.6938
-2.63012 1.72704 3.67093
-2.658 1.73827 3.68497
-2.66602 1.73924 3.68302
-2.68501 1.74326 3.6831
-2.7042 1.73891 3.65931
-2.72022 1.74187 3.65538
-2.74238 1.73957 3.63458
3.88868 1.66965 2.29547
3.37055 1.68057 2.94431
3.29416 1.68281 3.02486
3.26239 1.68328 3.0551
3.25449 1.68448 3.06814
3.22667 1.68386 3.09236
3.21574 1.68401 3.10244
3.19692 1.68637 3.12555
3.18296 1.68447 3.13169
3.177 1.68454 3.13673
3.17313 1.6878 3.15372
3.15414 1.68383 3.15492
3.15935 1.69324 3.18274
3.13834 1.68824 3.18197
3.1264 1.68737 3.19008
3.12549 1.69053 3.20104
3.10363 1.69083 3.2202
3.09876 1.69408 3.23719
3.08279 1.69215 3.24134
3.07287 1.69232 3.25242
3.06498 1.69453 3.26645
3.04589 1.68639 3.25571
3.04203 1.69166 3.27366
3.02908 1.68975 3.27979
3.02018 1.69195 3.29283
3.00925 1.69311 3.30289
2.99833 1.69326 3.31297
2.98336 1.69035 3.31813
2.97739 1.69041 3.32217
2.97353 1.69568 3.34013
2.96564 1.6979 3.35416
2.94866 1.69495 3.35733
2.94885 1.70231 3.38122
2.91873 1.69112 3.36761
2.92488 1.6984 3.38646
2.91699 1.70061 3.40049
2.89697 1.6956 3.39871
2.88706 1.69678 3.41077
2.87715 1.69795 3.42183
2.85308 1.68985 3.41413
2.84721 1.69411 3.43112
2.84529 1.69726 3.44108
2.82041 1.69651 3.45729
2.81757 1.70282 3.47822
2.79553 1.69577 3.47349
2.78865 1.69899 3.48849
2.77671 1.69914 3.49758
2.76973 1.69817 3.49965
2.7487 1.69314 3.49688
2.75294 1.7046 3.52768
2.72584 1.69343 3.51505
2.71695 1.69664 3.52907
2.71512 1.70398 3.55198
2.69803 1.69582 3.54023
2.68711 1.69697 3.5503
2.67517 1.69711 3.55938
2.6683 1.70135 3.57538
2.65029 1.69735 3.57457
2.64544 1.70265 3.59453
2.63149 1.70175 3.60065
2.62046 1.6977 3.59679
2.60346 1.69473 3.59797
2.59356 1.69693 3.61101
2.58263 1.69807 3.62008
2.58182 1.70644 3.64496
2.5699 1.7066 3.65505
2.56404 1.71187 3.67302
2.55504 1.70987 3.67312
2.53703 1.70587 3.67231
2.4911 1.70005 3.68275
2.48118 1.70122 3.6938
2.47725 1.70436 3.70279
2.46227 1.70142 3.70595
2.44933 1.70154 3.71404
2.44753 1.70991 3.73894
2.42851 1.7059 3.73714
2.41556 1.705 3.74325
2.41477 1.71541 3.77111
2.39564 1.70517 3.7544
1.92873 1.72258 4.0327
1.88874 1.71763 4.03407
1.8598 1.71577 4.04232
1.84293 1.72003 4.05938
1.83304 1.72326 4.07441
1.81704 1.72127 4.07456
1.78913 1.72146 4.08577
1.76017 1.71957 4.09202
1.7423 1.72383 4.10909
1.71541 1.72506 4.12328
1.68441 1.72108 4.12357
1.67353 1.72533 4.13959
1.66449 1.72226 4.13471
1.63351 1.71931 4.13698
1.62364 1.72457 4.15398
1.60558 1.71946 4.14619
1.58855 1.71543 4.14338
1.58465 1.71963 4.15635
1.57171 1.72176 4.16442
1.55364 1.71564 4.15564
1.52982 1.72199 4.17873
1.5019 1.72318 4.18993
1.49186 1.7191 4.18406
1.48199 1.72435 4.20106
1.452 1.72141 4.20333
1.44214 1.72768 4.22131
1.42101 1.71844 4.20461
1.40809 1.7206 4.21467
1.40316 1.72374 4.22367
1.38201 1.71449 4.20596
1.37215 1.72076 4.22394
1.36332 1.72809 4.2459
1.34216 1.7178 4.22521
1.33028 1.72203 4.24024
1.32431 1.72309 4.24427
1.30727 1.71903 4.23946
1.2933 1.7191 4.24356
1.28142 1.72433 4.25858
1.26231 1.71715 4.24583
1.2504 1.72032 4.25687
1.23748 1.72349 4.26792
1.22739 1.71732 4.25609
1.21139 1.71634 4.25622
1.19639 1.71435 4.25637
1.1814 1.71339 4.25849
1.16847 1.71653 4.26755
1.15554 1.71867 4.27661
1.14261 1.72082 4.28568
1.1377 1.72498 4.29666
1.1186 1.7178 4.28391
1.10669 1.72199 4.29593
1.09066 1.71894 4.2921
1.07362 1.71488 4.28729
1.05966 1.71597 4.29238
1.04463 1.71393 4.28952
1.04076 1.71919 4.30647
1.02266 1.71299 4.2927
1.00976 1.71721 4.30674
0.995803 1.71829 4.31183
0.980803 1.7173 4.31195
0.96374 1.7122 4.30416
0.958849 1.71741 4.31812
0.943841 1.71641 4.31725
0.928818 1.71437 4.31439
0.915942 1.71962 4.33041
0.901965 1.71967 4.33352
0.885926 1.71661 4.32868
0.869887 1.71355 4.32385
0.862902 1.71358 4.3259
0.847933 1.71465 4.33
0.835011 1.71781 4.34005
0.820002 1.71581 4.33919
0.806064 1.71793 4.34727
0.754095 1.71703 4.35167
0.725149 1.71816 4.35887
0.70911 1.71509 4.35404
0.688141 1.71517 4.3582
0.629219 1.71636 4.36863
0.548281 1.71554 4.37725
-1.52838 1.72369 4.03073
-1.63962 1.72628 3.99852
-1.6768 1.72297 3.97585
-1.70388 1.72282 3.96505
-1.72085 1.72688 3.96812
-1.73895 1.7237 3.9553
-1.75495 1.72671 3.95538
-1.7781 1.72243 3.93561
-1.79409 1.72546 3.93669
-1.83015 1.72837 3.92892
-1.83829 1.72311 3.91105
-1.85232 1.72306 3.90716
-1.86732 1.72605 3.90623
-1.87842 1.72288 3.89436
-1.89441 1.7259 3.89443
-1.90437 1.72899 3.90046
-1.91349 1.72476 3.88459
-1.92555 1.72365 3.8767
-1.94156 1.72565 3.87579
-1.95459 1.72658 3.87087
-1.96764 1.7265 3.86497
-1.97565 1.72748 3.86302
-1.9887 1.7274 3.85711
-2.00174 1.72732 3.85121
-2.01774 1.73033 3.85129
-2.02982 1.72819 3.84141
-2.04188 1.72808 3.8335
-2.05787 1.7311 3.83358
-2.06292 1.72901 3.82765
-2.07203 1.72581 3.81376
-2.08606 1.72675 3.80885
-2.10206 1.72976 3.80893
-2.1161 1.73069 3.80402
-2.1262 1.72751 3.79114
-2.13715 1.73161 3.79716
-2.14527 1.72737 3.78128
-2.16424 1.73245 3.78535
-2.17531 1.73031 3.77547
-2.19033 1.73329 3.77353
-2.19943 1.7301 3.76065
-2.21544 1.73208 3.75874
-2.22245 1.73306 3.75678
-2.23058 1.72883 3.7409
-2.2525 1.73599 3.75096
-2.25766 1.72969 3.73009
-2.26972 1.72958 3.72218
-2.28968 1.73566 3.72724
-2.28979 1.72944 3.71233
-2.29791 1.72623 3.69744
-2.31983 1.73338 3.7065
-2.33189 1.73327 3.69859
-2.34199 1.7311 3.6867
-2.35701 1.73306 3.68378
-2.37301 1.73606 3.68286
-2.3751 1.7319 3.67193
-2.38814 1.73282 3.66602
-2.4012 1.73271 3.65812
-2.41326 1.7326 3.65021
-2.42828 1.73457 3.64729
-2.44035 1.73444 3.63838
-2.45142 1.73332 3.62948
-2.46338 1.7374 3.63451
-2.4784 1.74036 3.63158
-2.48355 1.73407 3.61171
-2.49857 1.73604 3.60879
-2.51063 1.73593 3.60088
-2.51973 1.73374 3.58798
-2.53477 1.73468 3.58308
-2.54574 1.73875 3.58711
-2.55681 1.73761 3.5772
-2.57085 1.73954 3.57228
-2.58488 1.74048 3.56737
-2.58805 1.73316 3.5455
-2.60802 1.73923 3.54956
-2.61306 1.73914 3.5436
-2.62414 1.738 3.5337
-2.64016 1.73997 3.53079
-2.65223 1.73985 3.52188
-2.65934 1.73665 3.50798
-2.69444 1.74046 3.49419
3.4413 1.6751 2.64481
3.42246 1.67542 2.66595
3.40269 1.67688 2.69608
3.37694 1.6794 2.73025
3.36997 1.67847 2.73431
3.35012 1.67778 2.75448
3.34322 1.67996 2.7665
3.33834 1.6832 2.78249
3.32539 1.68031 2.78963
3.32454 1.68659 2.80854
3.30159 1.68173 2.81679
3.29066 1.68087 2.82589
3.28376 1.68307 2.83891
3.27585 1.68425 2.85095
3.26492 1.68439 2.86003
3.255 1.68455 2.87011
3.25306 1.68567 2.87811
3.24112 1.68481 2.88721
3.22515 1.68188 2.89137
3.2243 1.68716 2.91031
3.21538 1.68833 2.92136
3.18942 1.68243 2.92664
3.17949 1.68257 2.93571
3.17562 1.68582 2.9527
3.16469 1.68598 2.96278
3.14972 1.68305 2.96694
3.14283 1.68626 2.98094
3.14197 1.69154 2.99987
3.1229 1.68342 2.99114
3.12508 1.69076 3.01401
3.11416 1.69092 3.0241
3.10019 1.689 3.02923
3.09027 1.68916 3.0393
3.07833 1.68828 3.04741
3.0674 1.68844 3.05749
3.06849 1.6926 3.06842
3.05756 1.69276 3.0785
3.04562 1.69188 3.08661
3.03671 1.69305 3.09766
3.02981 1.69525 3.11068
3.02392 1.69848 3.12568
3.00484 1.69034 3.11594
3.00704 1.69871 3.1408
2.986 1.69167 3.13707
2.97811 1.69488 3.15108
2.98332 1.70428 3.1779
2.96432 1.69929 3.17812
2.94834 1.69635 3.18129
2.95145 1.70157 3.19619
2.93347 1.69861 3.19837
2.92556 1.69979 3.21041
2.91766 1.70199 3.22344
2.90067 1.69903 3.22561
2.88571 1.69612 3.23077
2.88185 1.70139 3.24872
2.87688 1.70145 3.25276
2.86191 1.69953 3.2579
2.85502 1.70275 3.27191
2.83904 1.6998 3.27507
2.82408 1.69689 3.28023
2.82021 1.70214 3.29718
2.8102 1.69913 3.2963
2.79827 1.69928 3.30539
2.79037 1.70147 3.31842
2.77943 1.7016 3.3265
2.77254 1.70483 3.34151
2.76464 1.70703 3.35454
2.75069 1.70612 3.36066
2.74067 1.7031 3.35878
2.73379 1.70634 3.37478
2.71275 1.70029 3.37003
2.70485 1.70248 3.38306
2.7 1.70777 3.40202
2.67896 1.70171 3.39727
2.67106 1.70391 3.41029
2.67116 1.7081 3.42323
2.65618 1.70616 3.42638
2.64323 1.70527 3.43349
2.63129 1.7054 3.44158
2.62339 1.70759 3.45461
2.60943 1.70668 3.45972
2.60852 1.71086 3.47167
2.58566 1.71114 3.48984
2.5299 1.71065 3.52227
2.504 1.70887 3.5355
2.49511 1.71208 3.54952
2.47709 1.70806 3.54771
2.46617 1.70922 3.55778
2.45523 1.70936 3.56686
1.41901 1.72447 4.07151
1.37811 1.7247 4.08482
1.33723 1.72595 4.10011
1.33024 1.72598 4.10216
1.30229 1.72509 4.10839
1.28729 1.7241 4.10852
1.27537 1.72727 4.11956
1.26142 1.72737 4.12567
1.24539 1.72434 4.12283
1.22545 1.72546 4.12997
1.18353 1.72565 4.14128
1.16751 1.72262 4.13845
1.14653 1.72168 4.14162
1.13567 1.72795 4.15961
1.12271 1.72904 4.16469
1.10565 1.72495 4.15788
1.09373 1.7281 4.16792
1.07071 1.72509 4.16614
1.05778 1.72723 4.17521
1.04485 1.72936 4.18328
1.02778 1.72424 4.17448
1.01278 1.72327 4.17561
0.999837 1.72538 4.18267
0.978859 1.72444 4.18585
0.964891 1.72551 4.18994
-1.78504 1.7216 3.81166
-1.8281 1.7255 3.80292
-1.86722 1.72629 3.78721
-1.89441 1.72094 3.76249
-1.90746 1.72086 3.75658
-1.93452 1.72275 3.74776
-1.97967 1.72348 3.72809
-2.00575 1.72334 3.71728
-2.02077 1.72531 3.71437
-2.02285 1.72216 3.70443
-2.04181 1.72725 3.7095
-2.05583 1.72921 3.70657
-2.06396 1.72397 3.68971
-2.077 1.7249 3.68479
-2.09102 1.72687 3.68187
-2.09816 1.72061 3.66401
-2.11403 1.72986 3.68
-2.12215 1.72664 3.6651
-2.13421 1.72553 3.65721
-2.14922 1.72751 3.65529
-2.1684 1.72217 3.63151
-2.19131 1.73135 3.64255
-2.19438 1.72923 3.63461
-2.19854 1.72191 3.61274
-2.22343 1.73214 3.62678
-2.22956 1.72689 3.6099
-2.24162 1.72679 3.60299
-2.25761 1.72981 3.60307
-2.26464 1.72975 3.59912
-2.2767 1.72966 3.59221
-2.2927 1.73265 3.59129
-2.29587 1.72533 3.56942
-2.31088 1.72831 3.56749
-2.32788 1.73132 3.56757
-2.33993 1.73123 3.56066
-2.34301 1.72808 3.55073
-2.35803 1.73105 3.5478
-2.37404 1.73405 3.54688
-2.37621 1.72571 3.52401
-2.39716 1.73281 3.53007
-2.40922 1.7327 3.52216
-2.4192 1.73575 3.52519
-2.4283 1.73357 3.51229
-2.43937 1.73244 3.50339
-2.44351 1.72718 3.48549
-2.46446 1.73328 3.49156
-2.47356 1.7311 3.47866
-2.49055 1.73511 3.47873
-2.49361 1.73299 3.47078
-2.5116 1.73702 3.47186
-2.51873 1.73279 3.45597
-2.53572 1.7368 3.45604
-2.54777 1.73771 3.44912
-2.5628 1.73967 3.4462
-2.56992 1.73544 3.43032
-2.57792 1.73743 3.42935
-2.59295 1.73938 3.42543
-2.61509 1.73913 3.4076
-2.62615 1.73902 3.39968
-2.64631 1.73573 3.37888
-2.6563 1.73875 3.37991
-2.71363 1.73814 3.33634
-2.71866 1.73808 3.33238
-2.72775 1.73591 3.32048
-2.74278 1.73786 3.31657
3.74241 1.68422 2.12534
3.7115 1.67743 2.13867
3.69146 1.66838 2.13396
3.66181 1.67009 2.18116
3.64096 1.66839 2.20035
3.63713 1.67273 2.22331
3.63035 1.67717 2.2523
3.60836 1.67021 2.25457
3.60146 1.6714 2.26661
3.59253 1.67055 2.27669
3.57865 1.6698 2.29281
3.57073 1.66997 2.30387
3.56483 1.67216 2.31688
3.55692 1.67235 2.32894
3.55002 1.67353 2.34098
