-1.05651 1.7664 7.60125
-1.08342 1.77059 7.61339
-1.09453 1.76738 7.59852
-1.11762 1.76522 7.58673
-1.14457 1.76733 7.5929
-1.16864 1.76623 7.5851
-1.19267 1.76617 7.58028
-1.21865 1.76823 7.58344
-1.23166 1.76821 7.58154
-1.25763 1.77029 7.58571
-1.28263 1.77031 7.58589
-1.30478 1.76703 7.56611
-1.33078 1.76805 7.56629
-1.35771 1.7712 7.57544
-1.38079 1.77005 7.56463
-1.39475 1.77115 7.57072
-1.42171 1.77425 7.57588
-1.44386 1.76997 7.55611
-1.46983 1.77203 7.55927
-1.4939 1.77091 7.55047
-1.517 1.76874 7.53768
-1.53093 1.77188 7.54674
-1.55983 1.7761 7.55989
-1.58099 1.7718 7.53911
-1.60696 1.77386 7.54228
-1.63395 1.77591 7.54445
-1.65703 1.77477 7.53364
-1.68204 1.77476 7.53183
-1.69602 1.77681 7.5349
-1.7191 1.77466 7.52411
-1.74413 1.77562 7.52028
-1.77402 1.78087 7.53543
-1.7971 1.77872 7.52464
-1.82116 1.77862 7.51682
-1.85201 1.78492 7.53596
-1.86308 1.7838 7.52706
-1.88615 1.78267 7.51725
-1.91602 1.78794 7.5344
-1.93817 1.78466 7.51461
-1.96514 1.78674 7.51878
-1.99018 1.78768 7.51396
-2.01325 1.78655 7.50415
-2.02821 1.78865 7.51023
-2.05617 1.79174 7.51539
-2.07926 1.78957 7.5026
-2.10136 1.78841 7.49078
-2.13223 1.79367 7.50694
-2.15437 1.7914 7.48814
-2.16735 1.79245 7.49122
-2.21645 1.79228 7.47759
-2.24442 1.79536 7.48175
-2.29256 1.79412 7.46313
-2.35173 1.79283 7.44159
3.48827 1.70022 6.63086
3.47834 1.70136 6.63992
3.46048 1.70364 6.65802
3.44161 1.7059 6.67513
3.41664 1.70398 6.67935
3.39777 1.70626 6.69746
3.38296 1.70963 6.72152
3.36387 1.70548 6.71073
3.34501 1.70776 6.72884
3.32512 1.70898 6.74297
3.30422 1.7102 6.75711
3.27924 1.70826 6.76033
3.26241 1.7116 6.78241
3.23235 1.70751 6.7747
3.22343 1.70868 6.78575
3.20966 1.71411 6.81477
3.18469 1.71321 6.81998
3.15972 1.71127 6.82319
3.14288 1.71461 6.84527
3.11384 1.71055 6.84055
3.09396 1.71279 6.85567
3.08607 1.715 6.8697
3.0611 1.71408 6.8739
3.04121 1.71532 6.88904
3.00349 1.72089 6.92624
2.97343 1.7168 6.91853
2.95967 1.72227 6.94956
2.94668 1.72129 6.95067
2.92681 1.72356 6.96779
2.8789 1.72177 6.98018
-0.481877 1.77231 7.41681
-0.652901 1.77438 7.41407
-0.786949 1.77537 7.40806
-0.809133 1.77003 7.3843
-0.858099 1.77313 7.38863
-0.884021 1.77629 7.39878
-0.908059 1.77524 7.39397
-0.93205 1.77627 7.39514
-0.942195 1.772 7.37627
-0.969087 1.77622 7.39042
-0.989316 1.76979 7.36066
-1.01619 1.77405 7.3768
-1.03926 1.77293 7.36799
-1.06331 1.77185 7.36119
-1.07437 1.77074 7.35329
-1.10125 1.77499 7.36943
-1.12336 1.77279 7.35463
-1.14834 1.77385 7.3578
-1.17142 1.7727 7.34699
-1.19739 1.77378 7.35117
-1.2195 1.77159 7.33736
-1.23438 1.77582 7.35242
-1.25936 1.77787 7.35457
-1.28052 1.77258 7.33381
-1.30645 1.77673 7.34294
-1.33144 1.77776 7.34412
-1.3555 1.77666 7.33631
-1.38142 1.78084 7.34745
-1.38961 1.77448 7.3226
-1.41557 1.77757 7.32775
-1.44152 1.77969 7.33492
-1.46363 1.77749 7.32011
-1.48478 1.77321 7.30033
-1.51361 1.78055 7.32245
-1.53476 1.77627 7.30267
-1.55065 1.78049 7.31672
-1.57565 1.78252 7.31788
-1.59776 1.77932 7.3031
-1.62083 1.7792 7.29427
-1.64872 1.78343 7.30842
-1.67082 1.78125 7.29562
-1.68378 1.78333 7.30068
-1.70881 1.78429 7.29686
-1.72992 1.78109 7.28206
-1.7559 1.78314 7.28423
-1.80203 1.78192 7.26759
-1.81891 1.78617 7.28366
-1.86697 1.78708 7.276
3.52269 1.69013 6.2887
3.51901 1.69975 6.33059
3.51433 1.70838 6.3725
3.49342 1.70855 6.38366
3.48245 1.70864 6.38874
3.43859 1.70794 6.40709
3.41666 1.70808 6.41625
3.39878 1.70933 6.43237
3.36873 1.70425 6.42567
3.35594 1.70968 6.45369
3.34396 1.70873 6.45679
3.31999 1.70781 6.46099
3.29705 1.70694 6.46918
3.28528 1.71239 6.49919
3.26029 1.71043 6.5004
3.23734 1.70955 6.50759
3.1478 1.7145 6.5682
3.12079 1.71151 6.56745
3.09988 1.71268 6.57859
3.08281 1.70856 6.56978
3.07511 1.71716 6.60972
3.03126 1.71747 6.62904
2.96749 1.71898 6.66051
0.0293642 1.75157 7.05021
0.00631092 1.74948 7.04342
-0.00566552 1.75053 7.04649
-0.0286034 1.75267 7.05463
-0.0516642 1.75057 7.04684
-0.0754018 1.76009 7.08088
-0.097624 1.75267 7.05215
-0.120685 1.75057 7.04436
-0.132661 1.75162 7.04743
-0.155592 1.75377 7.05657
-0.178683 1.75061 7.04479
-0.201705 1.75059 7.04197
-0.225635 1.75274 7.05112
-0.247742 1.74955 7.03733
-0.270695 1.75165 7.04347
-0.282618 1.75381 7.05353
-0.305717 1.75063 7.04075
-0.328724 1.75063 7.03992
-0.352646 1.7538 7.05006
-0.375684 1.75274 7.04525
-0.397767 1.7506 7.03444
-0.424359 1.7644 7.08745
-0.431828 1.7485 7.02673
-0.456704 1.75376 7.04284
-0.480557 1.75905 7.06195
-0.501833 1.74954 7.02624
-0.52577 1.75267 7.03438
-0.5478 1.75163 7.03056
-0.572653 1.75793 7.04965
-0.608613 1.76003 7.05489
-0.650926 1.74945 7.01436
-0.673925 1.75047 7.01452
-0.699778 1.75577 7.03364
-0.710808 1.75572 7.02973
-0.824003 1.75142 7.00464
-0.860886 1.75667 7.01984
-0.907914 1.75764 7.01618
-0.976965 1.75759 7.0097
-1.55064 1.75964 6.92198
-1.63073 1.76051 6.90957
-1.73484 1.76336 6.89531
-1.7579 1.76227 6.8885
-1.78189 1.76429 6.88865
-1.82892 1.76627 6.88497
-1.86299 1.76616 6.87623
-1.88505 1.76506 6.86841
-1.90808 1.766 6.86357
-1.935 1.77018 6.87471
-1.95607 1.76905 6.86489
-1.98106 1.77108 6.86604
-2.00214 1.76995 6.85622
-2.01805 1.77414 6.86828
-2.0362 1.77085 6.84846
-2.06412 1.77502 6.85861
-2.08423 1.77283 6.84479
-2.11116 1.77697 6.85294
-2.13225 1.77481 6.84113
-2.15011 1.7811 6.86017
-2.17022 1.77889 6.84535
-2.19423 1.78089 6.8445
-2.22312 1.78611 6.85764
-2.23446 1.77546 6.81388
-2.25749 1.77642 6.81004
-2.28248 1.77846 6.8112
-2.29351 1.7784 6.80728
-2.31557 1.7783 6.79945
-2.34741 1.78663 6.82057
-2.36067 1.77914 6.78677
-2.38566 1.78116 6.78693
-2.41361 1.78528 6.79408
-2.42659 1.78632 6.79617
-2.46973 1.78609 6.77849
-2.49279 1.78599 6.77067
-2.61804 1.78857 6.73757
3.60464 1.68407 5.88312
3.5827 1.68321 5.89129
3.57679 1.68539 5.90331
3.55991 1.68664 5.91942
3.53593 1.6847 5.92263
3.51129 1.69241 5.96971
3.48226 1.68837 5.96599
3.4674 1.69067 5.98507
3.46453 1.69392 6.00204
3.43143 1.68775 5.98938
3.42267 1.69322 6.02037
3.39972 1.69232 6.02656
3.37979 1.69249 6.03671
3.35498 1.69487 6.06186
3.32797 1.69186 6.06011
3.3192 1.69833 6.09108
3.29826 1.69746 6.09926
3.26515 1.69027 6.08461
3.25844 1.69883 6.12254
3.23241 1.69481 6.11979
3.21739 1.69277 6.11694
3.20457 1.69714 6.14097
3.18974 1.70047 6.16304
3.15864 1.69431 6.15036
3.12082 1.69569 6.17463
3.10294 1.69792 6.18973
3.09299 1.69803 6.19681
3.07918 1.7024 6.22085
3.05214 1.69835 6.21611
3.04034 1.70375 6.24312
3.0184 1.70389 6.25129
2.9944 1.70091 6.25151
2.98852 1.70413 6.26651
2.9747 1.7085 6.29056
2.94665 1.70441 6.28383
2.92673 1.70459 6.29498
2.90784 1.70681 6.30909
2.88078 1.70173 6.30237
2.86699 1.70714 6.32939
2.84787 1.70193 6.31461
2.83712 1.70841 6.3466
2.81516 1.7075 6.35178
2.79626 1.70972 6.36589
2.78146 1.7141 6.39094
2.75542 1.71106 6.38718
2.74161 1.71543 6.41123
2.72555 1.71232 6.40339
2.71174 1.71672 6.42943
2.6709 1.71806 6.45073
2.64897 1.71819 6.45889
2.57926 1.72182 6.49837
0.972816 1.74686 6.97416
0.904924 1.74911 6.98864
0.847986 1.74927 6.99707
0.733141 1.75165 7.0179
0.69915 1.75169 7.01916
0.652073 1.74758 7.00957
0.607267 1.75398 7.03482
0.584297 1.75406 7.03899
0.561282 1.75304 7.03718
0.52516 1.74883 7.02151
0.50216 1.74785 7.0217
0.480322 1.75318 7.04279
0.456238 1.75003 7.03202
0.433293 1.75215 7.03916
0.398116 1.74484 7.01653
0.376394 1.75439 7.05256
0.352225 1.74808 7.03083
0.329187 1.74702 7.02602
0.306134 1.74494 7.01922
0.28445 1.75556 7.06023
0.271289 1.75026 7.03941
0.248266 1.74923 7.0366
0.226451 1.7556 7.06067
0.202214 1.74716 7.02997
0.17946 1.75565 7.06202
0.156284 1.74933 7.03929
0.144315 1.75039 7.04336
0.121269 1.74832 7.03757
0.0984087 1.7536 7.05566
0.0753629 1.75153 7.04987
0.052356 1.75153 7.04904
0.0293256 1.75255 6.77916
0.00712604 1.74518 6.75343
-0.0156499 1.75363 6.78248
-0.0377879 1.74838 6.76473
-0.0486489 1.75365 6.78273
-0.0707406 1.75049 6.77094
-0.0927782 1.74943 6.76613
-0.115747 1.75051 6.77028
-0.137739 1.75054 6.77145
-0.160607 1.75581 6.78855
-0.181906 1.74525 6.74986
-0.193706 1.75264 6.77584
-0.215797 1.74948 6.76405
-0.237727 1.75263 6.77317
-0.259873 1.74736 6.75441
-0.28271 1.75369 6.77549
-0.304717 1.75369 6.77466
-0.31484 1.74846 6.75881
-0.338601 1.75794 6.78986
-0.359877 1.74842 6.75415
-0.382707 1.75476 6.77623
-0.403883 1.74844 6.75348
-0.425982 1.74526 6.74069
-0.448858 1.75052 6.75679
-0.45985 1.75054 6.75787
-0.482841 1.75157 6.75903
-0.503917 1.74944 6.74922
-0.52597 1.74735 6.74242
-0.548 1.74731 6.73858
-0.569076 1.74517 6.72877
-0.593852 1.75362 6.75784
-0.626935 1.75148 6.74712
-0.648011 1.74935 6.73731
-0.669087 1.74722 6.72749
-0.714101 1.74722 6.72583
-0.725108 1.74721 6.72492
-0.769144 1.74717 6.72025
-1.20147 1.75282 6.67842
-1.34464 1.75358 6.65648
-1.36667 1.75354 6.65265
-1.38869 1.75351 6.64981
-1.48876 1.75644 6.64052
-1.55388 1.75625 6.62501
-1.56491 1.75518 6.62011
-1.58694 1.75615 6.61726
-1.60992 1.7582 6.6194
-1.63293 1.7592 6.61856
-1.65495 1.75917 6.61573
-1.67699 1.7591 6.6099
-1.68992 1.76224 6.61895
-1.71295 1.7632 6.61511
-1.734 1.76211 6.60828
-1.75506 1.76201 6.60044
-1.77711 1.76193 6.59461
-1.80009 1.76398 6.59675
-1.82406 1.76606 6.6009
-1.83413 1.76493 6.59199
-1.85614 1.76592 6.59014
-1.88013 1.76795 6.59129
-1.90313 1.76897 6.59145
-1.92615 1.76994 6.58861
-1.95013 1.773 6.59175
-1.96016 1.77193 6.58684
-1.98222 1.77183 6.579
-2.0062 1.77389 6.58215
-2.02726 1.77379 6.57431
-2.04833 1.77267 6.56549
-2.07327 1.77679 6.57261
-2.09532 1.77671 6.56578
-2.10538 1.77561 6.55887
-2.12936 1.77766 6.56102
-2.14945 1.77649 6.54919
-2.17246 1.77749 6.54835
-2.19547 1.77948 6.54649
-2.21654 1.77836 6.53767
-2.23662 1.77722 6.52683
-2.25059 1.77928 6.53091
-2.2736 1.78127 6.52905
-2.29465 1.78118 6.52221
-2.3407 1.78313 6.51653
-2.35688 1.77878 6.49271
-2.45998 1.78365 6.47941
3.90447 1.6697 5.32999
3.81406 1.6739 5.40762
3.75932 1.67446 5.44303
3.73939 1.67361 5.4522
3.72942 1.67367 5.45627
3.7186 1.67702 5.47931
3.69361 1.67407 5.48154
3.68279 1.67842 5.50456
3.66689 1.67964 5.51866
3.65202 1.6809 5.53576
3.62905 1.67898 5.53996
3.62617 1.68221 5.55594
3.59916 1.6782 5.5542
3.58326 1.67942 5.5683
3.56739 1.68167 5.58439
3.5515 1.6829 5.59949
3.53359 1.6831 5.61163
3.52464 1.68319 5.61769
3.49964 1.68022 5.61893
3.49085 1.68563 5.64592
3.47193 1.68581 5.65706
3.452 1.68595 5.66621
3.43206 1.68509 5.67437
3.41719 1.68735 5.69145
3.40521 1.68639 5.69356
3.38628 1.68655 5.7037
3.37446 1.6899 5.72674
3.34844 1.68689 5.72498
3.33357 1.68915 5.74206
3.31973 1.69247 5.76312
3.29675 1.68952 5.76534
3.28678 1.6896 5.77041
3.27294 1.69291 5.79047
3.2459 1.68885 5.78573
3.23003 1.69111 5.80282
3.21414 1.69235 5.81793
3.1932 1.69248 5.82608
3.18729 1.69466 5.8381
3.16938 1.69485 5.85023
3.14843 1.69396 5.8564
3.13256 1.69622 5.87349
3.11161 1.69634 5.88065
3.09067 1.69546 5.88782
3.07377 1.69668 5.90193
3.06786 1.69886 5.91394
3.04083 1.69482 5.91021
3.02495 1.69707 5.9263
3.00401 1.6972 5.93445
2.97594 1.69209 5.92574
2.91227 1.69577 5.96917
2.9025 1.70223 5.99915
2.87646 1.69817 5.99441
2.86161 1.70146 6.01347
2.84271 1.70267 6.0266
2.81564 1.69756 6.01788
2.80771 1.69869 6.02692
2.79591 1.7041 6.05394
2.77294 1.70316 6.05712
2.75503 1.70435 6.06924
2.73306 1.70344 6.07442
2.71109 1.7015 6.07762
2.70316 1.70366 6.08765
2.69036 1.70905 6.11367
2.66838 1.70711 6.11686
2.65355 1.71145 6.13891
2.46419 1.71583 6.22428
2.44914 1.71274 6.21744
0.967608 1.74252 6.68123
0.923647 1.74263 6.68656
0.868702 1.74277 6.69397
0.848825 1.74602 6.71007
0.782879 1.74617 6.71757
0.771887 1.7462 6.71865
0.749903 1.74624 6.72082
0.726864 1.74419 6.71602
0.704911 1.74529 6.72217
0.683996 1.74847 6.73328
0.659912 1.74432 6.72252
0.626935 1.74439 6.72577
0.606066 1.74866 6.74287
0.584051 1.74765 6.74105
0.562052 1.74766 6.74121
0.538975 1.74453 6.73143
0.506091 1.74778 6.74664
0.462131 1.74888 6.75195
0.440216 1.75206 6.76307
0.417077 1.74581 6.74534
0.395116 1.7469 6.75048
0.372017 1.74373 6.7377
0.362079 1.74585 6.74575
0.339087 1.74588 6.74692
0.318141 1.747 6.75406
0.295165 1.74806 6.75722
0.273112 1.74598 6.75042
0.251089 1.74495 6.7476
0.24022 1.74921 6.76462
0.218228 1.74924 6.76579
0.196306 1.7524 6.7759
0.17316 1.74714 6.75715
0.151376 1.75457 6.78521
0.129215 1.74827 6.76447
0.107285 1.75142 6.77359
0.0952158 1.7483 6.76473
0.0732472 1.74937 6.76888
0.0511863 1.74727 6.76107
0.00822609 1.75144 6.5003
-0.109708 1.75464 6.50914
-0.130754 1.75257 6.50333
-0.141684 1.75571 6.51237
-0.163745 1.75361 6.50456
-0.184706 1.75469 6.5097
-0.206682 1.75575 6.51286
-0.227805 1.75153 6.49707
-0.248719 1.75471 6.50819
-0.259757 1.75365 6.50328
-0.281672 1.75682 6.5144
-0.302771 1.75365 6.50161
-0.323748 1.75471 6.50475
-0.345769 1.75468 6.50192
-0.366784 1.75466 6.50008
-0.388729 1.75678 6.50721
-0.398852 1.75255 6.49135
-0.42079 1.75469 6.49948
-0.439082 1.74414 6.46177
-0.461942 1.75042 6.47985
-0.483018 1.74729 6.47006
-0.504909 1.75251 6.48415
-0.525939 1.75147 6.48032
-0.536916 1.75252 6.48339
-0.55803 1.74932 6.46859
-0.579976 1.75143 6.47573
-0.601013 1.75038 6.4709
-0.621089 1.74824 6.46108
-0.643057 1.75032 6.46522
-0.654965 1.7535 6.47726
-0.676025 1.7524 6.46943
-0.697055 1.75136 6.46561
-0.718046 1.75239 6.46675
-0.7382 1.74711 6.44698
-0.759198 1.74812 6.44712
-0.782143 1.75124 6.45425
-0.790305 1.74494 6.4334
-0.81228 1.747 6.43654
-0.834241 1.74909 6.44167
-0.854302 1.74698 6.43385
-0.8744 1.74481 6.42103
-0.89733 1.74796 6.43016
-0.918336 1.74896 6.42931
-0.928367 1.7479 6.4254
-0.950358 1.74893 6.42655
-0.97138 1.74891 6.42371
-0.994332 1.75201 6.42983
-1.01249 1.74673 6.41005
-1.03641 1.75089 6.42017
-1.06746 1.74981 6.41341
-1.08943 1.75189 6.41755
-1.11049 1.75078 6.40972
-1.13249 1.7518 6.40987
-1.15447 1.75385 6.41201
-1.17165 1.7475 6.38823
-1.18648 1.75484 6.41024
-1.20751 1.75481 6.40739
-1.23045 1.75793 6.41452
-1.25245 1.75895 6.41467
-1.27061 1.75365 6.39388
-1.2926 1.75568 6.39502
-1.31459 1.75671 6.39617
-1.32561 1.75669 6.39425
-1.34568 1.75556 6.38442
-1.36861 1.7597 6.39353
-1.38772 1.75651 6.37972
-1.41068 1.7596 6.38485
-1.43367 1.76063 6.38601
-1.44467 1.76164 6.38608
-1.46474 1.76052 6.37724
-1.48963 1.76575 6.39136
-1.50872 1.76358 6.37953
-1.52878 1.76247 6.3707
-1.55178 1.7635 6.37185
-1.57184 1.76238 6.36302
-1.58187 1.76234 6.3601
-1.60194 1.76121 6.35026
-1.62781 1.76748 6.36737
-1.64692 1.76427 6.35256
-1.67088 1.76738 6.35869
-1.68994 1.76626 6.34985
-1.71391 1.76933 6.35399
-1.72103 1.7651 6.3381
-1.74012 1.76395 6.32726
-1.76309 1.76601 6.3304
-1.78704 1.77012 6.33652
-1.811 1.77321 6.34166
-1.83206 1.77211 6.33383
-1.85505 1.77415 6.33598
-1.86312 1.77201 6.32607
-1.88221 1.77085 6.31423
-1.92819 1.77493 6.31751
-1.94922 1.77487 6.31267
-2.00037 1.77362 6.29407
3.78891 1.67768 5.12172
3.771 1.67787 5.13385
3.75914 1.68015 5.15191
3.75423 1.68233 5.16392
3.7363 1.68249 5.17405
3.71232 1.67954 5.17627
3.7035 1.6839 5.20028
3.68659 1.68409 5.21241
3.66564 1.68219 5.21859
3.65075 1.68343 5.23369
3.64787 1.68765 5.24865
3.62386 1.68367 5.24889
3.61304 1.68802 5.27191
3.58601 1.68298 5.26819
3.56808 1.68214 5.27834
3.54915 1.68229 5.28748
3.5363 1.68459 5.30754
3.53948 1.69093 5.33043
3.50972 1.69442 5.36261
3.49181 1.6946 5.37374
3.33748 1.69602 5.46289
2.93821 1.70368 5.69382
2.92131 1.7059 5.70792
2.9034 1.70608 5.71905
2.87328 1.69888 5.70438
2.87449 1.70628 5.73127
0.445023 1.74675 6.47207
0.328103 1.74898 6.48292
0.253065 1.74596 6.47853
0.147222 1.75133 6.49925
0.0502174 1.75139 6.49898
0.0284438 1.74193 6.26425
0.00726742 1.7356 6.2415
-0.0136937 1.73669 6.24665
-0.0336159 1.73985 6.25675
-0.0437543 1.7346 6.2389
-0.0646226 1.73986 6.25598
-0.0856992 1.73673 6.24619
-0.105699 1.73674 6.24634
-0.126644 1.73886 6.25347
-0.146705 1.73676 6.24565
-0.167665 1.73885 6.25078
-0.177696 1.7378 6.24687
-0.198657 1.73889 6.25201
-0.239786 1.73466 6.23538
-0.259824 1.7336 6.23054
-0.280716 1.73783 6.24464
-0.290777 1.73572 6.23675
-0.311768 1.73675 6.23789
-0.353682 1.73994 6.24916
-1.53373 1.74865 6.1129
-1.56477 1.7496 6.10812
-1.58577 1.75061 6.10826
-1.60582 1.75052 6.10142
-1.6459 1.75041 6.09172
-1.66886 1.7535 6.09685
-1.68695 1.75133 6.08501
-1.69794 1.75235 6.08608
-1.71703 1.75019 6.07425
-1.73803 1.75221 6.07438
-1.75806 1.75215 6.06953
-1.78005 1.75419 6.07167
-1.80108 1.75515 6.06781
-1.81108 1.75514 6.06689
-1.83309 1.75714 6.06603
-1.85507 1.75919 6.06816
-1.87513 1.75808 6.06033
-1.89614 1.76008 6.05946
-1.91618 1.76001 6.05361
-1.93623 1.75993 6.04776
-1.94821 1.76197 6.04982
-1.96727 1.76087 6.04198
-1.98732 1.76079 6.03613
-2.00931 1.76282 6.03726
-2.02837 1.76272 6.02941
-2.0494 1.76266 6.02457
-2.06749 1.7615 6.01272
-2.07948 1.76254 6.0148
-2.10246 1.76558 6.01692
-2.12348 1.76655 6.01407
-2.1445 1.76752 6.01121
-2.16454 1.76846 6.00635
-2.18654 1.77048 6.00648
-2.20561 1.76935 5.99664
-2.21368 1.76722 5.98773
-2.23764 1.77131 5.99285
-2.25868 1.77125 5.98801
-2.27481 1.76901 5.97116
-2.29681 1.77001 5.97032
-2.31882 1.77201 5.96945
-2.32687 1.77091 5.96253
-2.34889 1.7729 5.96066
-2.36895 1.7728 5.95282
-2.39193 1.77584 5.95494
-2.41197 1.77577 5.94909
-2.42712 1.7725 5.93025
-2.43912 1.77351 5.93033
-2.45916 1.77443 5.92447
-2.48019 1.77539 5.92061
-2.49828 1.77422 5.90876
-2.59146 1.77694 5.88542
-2.61052 1.77683 5.87756
3.66634 1.66669 4.91477
3.6176 1.66725 4.95014
3.60574 1.66952 4.9682
3.56092 1.6689 4.99155
3.544 1.66907 5.00267
3.53415 1.67237 5.0227
3.51927 1.67361 5.0378
3.50336 1.6738 5.04992
3.49149 1.67706 5.06696
3.48456 1.67819 5.076
3.4646 1.6763 5.08218
3.44768 1.67647 5.0933
3.43785 1.68081 5.11531
3.42094 1.68098 5.12644
3.40603 1.68218 5.13954
3.39317 1.68446 5.1576
3.38319 1.68451 5.16068
3.36932 1.68576 5.17677
3.35239 1.68592 5.18689
3.33244 1.68504 5.19406
3.31654 1.68623 5.20616
3.30469 1.68953 5.2262
3.27866 1.68449 5.22247
3.26969 1.68457 5.22754
3.24973 1.68266 5.23272
3.24599 1.69115 5.26563
3.20779 1.67981 5.24108
3.19188 1.68 5.2532
3.17396 1.68016 5.26333
3.16702 1.68128 5.27137
3.15314 1.68353 5.28744
3.14029 1.68682 5.30649
3.12439 1.68802 5.3196
3.10949 1.69024 5.33368
3.09055 1.68936 5.34084
3.07667 1.69161 5.35691
3.06567 1.69063 5.35801
3.05283 1.69393 5.37806
3.0349 1.69408 5.38719
3.01594 1.69318 5.39335
2.99194 1.6902 5.39357
2.97806 1.69245 5.40965
2.95404 1.68842 5.40689
2.9461 1.68955 5.41493
2.9241 1.68756 5.41513
2.90718 1.68774 5.42625
2.88621 1.68581 5.43044
2.87132 1.68803 5.44452
2.86253 1.69445 5.4725
2.8556 1.69659 5.48152
2.83767 1.69673 5.49065
2.81975 1.69691 5.50179
2.80181 1.69704 5.50992
2.7849 1.69822 5.52103
2.76901 1.70045 5.53612
2.74497 1.69639 5.53136
2.73297 1.69439 5.53048
2.7059 1.68928 5.52176
2.70016 1.6978 5.55668
2.68936 1.70317 5.58169
2.67448 1.70542 5.59777
2.6535 1.70448 5.60094
2.6486 1.70668 5.61395
2.63068 1.70784 5.62407
2.61072 1.70694 5.63023
2.59177 1.70705 5.63637
2.55593 1.70838 5.65763
2.53902 1.70957 5.66974
0.992781 1.73598 6.17306
0.982835 1.73709 6.18012
0.961812 1.73606 6.1773
0.90195 1.73837 6.19572
0.880959 1.7384 6.19687
0.85992 1.73634 6.19206
0.849974 1.73746 6.19912
0.828936 1.7354 6.19431
0.788998 1.73654 6.2026
0.748037 1.73665 6.2079
0.727068 1.73772 6.21205
0.717045 1.73669 6.20914
0.69603 1.73567 6.20731
0.675061 1.73575 6.21147
0.655092 1.73682 6.2156
0.634046 1.73475 6.20979
0.615185 1.73903 6.22787
0.594139 1.73695 6.22206
0.58417 1.73802 6.22612
0.563186 1.73806 6.22828
0.542155 1.73602 6.22447
0.522194 1.73711 6.2296
0.501148 1.73504 6.22379
0.480117 1.73299 6.21998
0.470164 1.73509 6.22602
0.449172 1.73512 6.22718
0.429157 1.7341 6.22535
0.408165 1.73413 6.2265
0.388189 1.73519 6.22964
0.367212 1.73525 6.2328
0.347236 1.73631 6.23593
0.336251 1.73635 6.23801
0.315182 1.73323 6.22922
0.29519 1.73326 6.23037
0.274183 1.73326 6.22953
0.254176 1.73226 6.22869
0.234269 1.73645 6.24078
0.213262 1.73545 6.23995
0.203339 1.73861 6.24998
0.182262 1.73548 6.24019
0.162386 1.73973 6.25628
0.141271 1.73552 6.2415
0.12038 1.73974 6.25559
0.100296 1.73659 6.24479
0.0903805 1.73976 6.25582
0.0692656 1.73556 6.24104
0.0482663 1.73557 6.2412
0.0325634 1.73124 6.01535
0.0135175 1.72916 6.00952
0.0035793 1.73129 6.01756
-0.0164666 1.72921 6.01175
-0.0364578 1.73024 6.01288
-0.0565112 1.72815 6.00606
-0.0764874 1.72921 6.0092
-0.116402 1.73241 6.02045
-0.145454 1.73132 6.01369
-0.185415 1.73243 6.01897
-0.205467 1.73134 6.01214
-0.334501 1.73136 6.00811
-0.364485 1.73241 6.01032
-1.65364 1.74698 5.8598
-1.71078 1.74675 5.84223
-1.76474 1.75185 5.84656
-1.80186 1.75065 5.83185
-1.82384 1.7537 5.83398
-1.82995 1.7495 5.82008
-1.84997 1.75045 5.81622
-1.87195 1.75351 5.81934
-1.89003 1.75138 5.8095
-1.90809 1.75127 5.80164
-1.92811 1.75123 5.79779
-1.93911 1.75324 5.79785
-1.95521 1.75005 5.78501
-1.98306 1.75836 5.8041
-1.99821 1.75409 5.78528
-2.01921 1.75609 5.7844
-2.04022 1.75809 5.78353
-2.0583 1.75595 5.7737
-2.06734 1.75587 5.76777
-2.09128 1.76 5.77589
-2.10347 1.75464 5.75106
-2.12742 1.75875 5.75718
-2.14744 1.75972 5.75431
-2.16159 1.75545 5.73548
-2.18652 1.7606 5.74459
-2.19655 1.76055 5.74067
-2.21364 1.75838 5.72883
-2.2376 1.76247 5.73395
-2.25958 1.76552 5.73607
-2.27275 1.7602 5.71424
-2.2967 1.76431 5.72036
-2.31477 1.76419 5.7115
-2.32283 1.76308 5.70358
-2.34286 1.76403 5.69971
-2.35995 1.76185 5.68687
-2.37998 1.76281 5.68301
-2.40394 1.7669 5.68813
-2.42497 1.76785 5.68427
-2.4401 1.76461 5.66743
-2.45306 1.7677 5.67249
-2.47113 1.76758 5.66362
-2.48919 1.76747 5.65576
-2.5332 1.77147 5.65403
-2.55127 1.77134 5.64417
-2.5603 1.77129 5.64024
-2.58034 1.77223 5.63537
-2.59645 1.76902 5.62054
-2.61944 1.77306 5.62265
-2.65362 1.77073 5.59894
-2.66756 1.77385 5.606
-2.75791 1.77222 5.5597
-2.809 1.77507 5.54804
3.59282 1.66676 4.7133
3.58789 1.66789 4.72232
3.56693 1.66598 4.72751
3.54419 1.6705 4.76162
3.51438 1.67189 4.78682
3.50049 1.67313 4.80191
3.49354 1.67423 4.80895
3.48066 1.67546 4.82403
3.47082 1.67978 4.84504
3.45389 1.67893 4.85419
3.42583 1.67285 4.84749
3.42004 1.67925 4.87444
3.40904 1.67726 4.87455
3.3921 1.6764 4.88369
3.38227 1.68074 4.9057
3.35926 1.67674 4.90494
3.34437 1.67896 4.91902
3.33149 1.68019 4.9341
3.31456 1.68035 4.94423
3.30863 1.68149 4.95326
3.28968 1.6806 4.96041
3.27477 1.68178 4.97151
3.26595 1.68614 4.99551
3.25206 1.68837 5.01059
3.23616 1.68856 5.02271
3.21822 1.68869 5.03084
3.21329 1.69084 5.04085
3.19029 1.68686 5.04108
3.17641 1.68909 5.05615
3.15948 1.68925 5.06628
3.14458 1.69045 5.07938
3.12765 1.6906 5.0885
3.12274 1.69278 5.10051
3.10175 1.68981 5.10171
3.08788 1.69307 5.11877
3.07095 1.69322 5.1279
3.05199 1.69232 5.13405
3.03911 1.69457 5.15012
3.02423 1.6968 5.1652
3.01423 1.69482 5.16631
2.99732 1.696 5.17742
2.97735 1.69407 5.1816
2.9655 1.69838 5.20162
2.9445 1.69539 5.20183
2.93164 1.69867 5.21988
2.91557 1.69355 5.21107
2.8956 1.69162 5.21525
2.88172 1.69487 5.23131
2.86276 1.69396 5.23647
2.85396 1.69935 5.26246
2.83805 1.70054 5.27456
2.81402 1.69651 5.2718
2.81012 1.6997 5.28479
2.7861 1.69568 5.28203
2.76815 1.69579 5.28916
2.74819 1.69488 5.29433
2.73127 1.69504 5.30445
2.70823 1.691 5.30069
2.69842 1.69636 5.32468
2.67761 1.70075 5.34978
2.65865 1.70085 5.35592
2.62888 1.7053 5.38508
2.60992 1.7044 5.39124
2.60197 1.7055 5.39728
2.582 1.70359 5.40246
2.56507 1.70473 5.41158
2.51329 1.7072 5.44093
2.49637 1.70736 5.45106
2.48537 1.70637 5.45116
2.46235 1.70334 5.44838
2.42849 1.70465 5.46761
2.37467 1.70504 5.49202
1.11192 1.73125 5.9262
1.0809 1.72923 5.92347
1.04301 1.73147 5.93772
1.02301 1.73048 5.93789
1.00405 1.73158 5.94401
0.984109 1.7327 5.95115
0.974078 1.73165 5.94724
0.954101 1.73171 5.95039
0.933032 1.72759 5.94161
0.914132 1.7308 5.9547
0.894094 1.72874 5.94988
0.875171 1.7309 5.96
0.866225 1.73301 5.96703
0.845202 1.73098 5.96422
0.826233 1.73205 5.96835
0.806225 1.73105 5.96751
0.786272 1.73216 5.97365
0.766272 1.73117 5.97381
0.745187 1.72702 5.96303
0.737288 1.73122 5.97603
0.716241 1.72815 5.97024
0.697303 1.73028 5.97835
0.677319 1.73032 5.9805
0.658396 1.73249 5.99061
0.638381 1.73147 5.98878
0.618351 1.73043 5.98494
0.609458 1.73364 5.99896
0.588359 1.72946 5.98618
0.569444 1.73264 5.99728
0.549444 1.73165 5.99744
0.529406 1.73059 5.99261
0.509452 1.7317 5.99874
0.499437 1.73068 5.99684
0.479391 1.7286 5.99102
0.460507 1.73284 6.0061
0.43943 1.7287 5.99632
0.419438 1.72873 5.99747
0.399446 1.72876 5.99862
0.379424 1.72773 5.99578
0.370431 1.72776 5.99685
0.350525 1.73195 6.00894
0.330478 1.72887 6.00314
0.311602 1.73412 6.0192
0.290487 1.72892 6.00444
0.271511 1.72998 6.00756
0.251503 1.72897 6.00673
0.241458 1.72789 6.00082
0.22155 1.73109 6.01292
0.201497 1.729 6.00611
0.181544 1.7311 6.01223
0.161521 1.72907 6.00941
0.142629 1.73329 6.02349
0.132514 1.72908 6.00862
0.112599 1.73225 6.01973
0.0924845 1.72805 6.00494
0.0524856 1.72808 6.00524
0.0113649 1.7269 5.85655
-0.00863455 1.72691 5.8567
-0.05661 1.72799 5.86005
-0.0765862 1.72905 5.86318
-0.134638 1.72699 5.85665
-1.71798 1.74539 5.68228
-1.75898 1.74842 5.68254
-1.77413 1.74413 5.66272
-1.81415 1.74612 5.65999
-1.8261 1.74923 5.66704
-1.84417 1.74809 5.65719
-1.86417 1.75011 5.65731
-1.88223 1.749 5.64946
-1.90518 1.75311 5.65557
-1.91641 1.74569 5.62676
-1.94033 1.75085 5.63687
-1.94936 1.74978 5.63195
-1.96741 1.74971 5.62609
-1.98645 1.75065 5.62122
-2.00549 1.75057 5.61536
-2.02551 1.75154 5.6125
-2.04552 1.75354 5.61162
-2.0626 1.75239 5.60076
-2.07457 1.75446 5.60482
-2.09459 1.75543 5.60196
-2.11363 1.75536 5.5961
-2.13462 1.7584 5.59821
-2.15365 1.75934 5.59334
-2.17174 1.75719 5.58251
-2.17977 1.75712 5.57757
-2.1998 1.75809 5.57471
-2.21982 1.75905 5.57084
-2.23985 1.76 5.56698
-2.25888 1.76097 5.56411
-2.27694 1.76085 5.55524
-2.28499 1.75977 5.54932
-2.30796 1.76384 5.55343
-2.32897 1.76483 5.55158
-2.34505 1.76368 5.54071
-2.36704 1.76671 5.54183
-2.38609 1.76763 5.53596
-2.40415 1.76651 5.52711
-2.41122 1.76439 5.5182
-2.42732 1.76321 5.50534
-2.44734 1.76418 5.50247
-2.46836 1.76616 5.5006
-2.5094 1.7701 5.49485
-2.55455 1.76984 5.47519
-2.59166 1.76964 5.46047
-2.65487 1.76926 5.43195
3.48799 1.66419 4.60311
3.47914 1.66849 4.62312
3.37564 1.66754 4.68992
3.33787 1.67001 4.72017
3.32599 1.67226 4.73623
3.31714 1.67556 4.75625
3.29111 1.67052 4.75252
3.29225 1.67579 4.77044
3.27329 1.67389 4.77661
3.26041 1.67612 4.79168
3.25055 1.67941 4.8107
3.23465 1.6806 4.82281
3.21771 1.67973 4.83095
3.19774 1.6778 4.83513
3.18572 1.67578 4.83325
3.17385 1.67804 4.85031
3.15287 1.6761 4.8535
3.14505 1.68045 4.87649
3.12913 1.68162 4.8876
3.10018 1.67875 4.89486
3.08527 1.67994 4.90695
3.06935 1.6801 4.91707
3.05039 1.67818 4.92225
3.02636 1.67416 4.91949
3.01752 1.67848 4.94049
3.00465 1.68172 4.95654
2.99974 1.6839 4.96855
2.98686 1.68615 4.98462
2.96991 1.68626 4.99174
2.95096 1.68437 4.99791
2.93097 1.68241 5.00009
2.91506 1.68359 5.0112
2.90116 1.6848 5.02529
2.90639 1.69424 5.05511
2.87628 1.68604 5.04046
2.85935 1.68619 5.04958
2.84647 1.68844 5.06565
2.83054 1.68959 5.07575
2.8055 1.68452 5.07002
2.81277 1.69504 5.10481
2.78871 1.68995 5.09807
2.77382 1.69217 5.11215
2.75993 1.6944 5.12722
2.73588 1.68932 5.12048
2.72505 1.69366 5.1435
2.70811 1.69379 5.15163
2.70421 1.69699 5.16461
2.68831 1.69818 5.17671
2.65343 1.69844 5.19297
2.63141 1.69543 5.19118
2.61245 1.69452 5.19634
2.5884 1.68944 5.1906
2.57942 1.68948 5.19266
2.57164 1.69592 5.22163
2.55166 1.69497 5.2248
2.53981 1.69928 5.24482
2.48715 1.70497 5.28914
2.45598 1.69567 5.26751
2.43396 1.69164 5.26474
2.41092 1.68758 5.25997
2.39742 1.70455 5.32483
1.45113 1.7245 5.68671
1.36627 1.72484 5.70635
1.27246 1.72626 5.73104
1.2635 1.72736 5.73709
1.2235 1.72539 5.73742
1.18763 1.72865 5.75365
1.15969 1.72879 5.76186
1.11966 1.72577 5.7592
1.1007 1.72686 5.76433
1.08276 1.72798 5.77145
1.06383 1.73013 5.78056
1.03065 1.72081 5.75795
1.01587 1.72925 5.78694
0.993764 1.72406 5.77318
0.976872 1.72828 5.78725
0.956871 1.72629 5.78743
0.938918 1.72839 5.79353
0.917879 1.72534 5.78873
0.909949 1.72847 5.79775
0.887841 1.72328 5.78399
0.869933 1.72547 5.79609
0.850926 1.72447 5.79525
0.832003 1.72663 5.80536
0.810903 1.72246 5.79258
0.802988 1.72563 5.8036
0.781888 1.72045 5.79083
0.76295 1.72258 5.79894
0.745027 1.72474 5.80905
0.726043 1.72479 5.81119
0.707135 1.72798 5.82329
0.686004 1.72174 5.80654
0.676012 1.72176 5.80761
0.657043 1.72284 5.81174
0.638059 1.72288 5.81388
0.619044 1.72186 5.81204
0.600098 1.72398 5.81915
0.580082 1.72197 5.81733
0.561137 1.72408 5.82444
0.551075 1.72097 5.81657
0.53213 1.72309 5.82368
0.514199 1.72524 5.83278
0.495331 1.7305 5.84985
0.474115 1.7211 5.82214
0.455146 1.72218 5.82627
0.446193 1.72427 5.83231
0.426177 1.72226 5.83049
0.407224 1.72436 5.8366
0.349241 1.72443 5.83904
0.330249 1.72446 5.84018
0.320249 1.72447 5.84026
0.301288 1.72555 5.84538
0.282335 1.72666 5.85151
0.262227 1.72246 5.83772
0.223236 1.72251 5.83902
0.204267 1.72358 5.84314
0.195345 1.72674 5.85316
0.156292 1.72466 5.84649
0.136338 1.72576 5.85262
0.117362 1.72682 5.85575
0.0983931 1.72789 5.85988
0.0783165 1.72476 5.85008
0.0367568 1.73171 5.64226
0.0177423 1.73169 5.6404
0.00874255 1.7317 5.64047
-0.0102726 1.73069 5.63863
-0.0282489 1.73174 5.64175
-0.0471862 1.73488 5.64984
-0.0662785 1.73071 5.63805
-0.0842937 1.7297 5.6362
-0.103185 1.73492 5.65026
-0.112285 1.73073 5.63739
-0.131276 1.73176 5.63852
-0.150291 1.73074 5.63668
-0.169221 1.73389 5.64578
-0.188228 1.73389 5.64492
-0.20632 1.72973 5.63312
-0.225265 1.73284 5.64021
-0.234327 1.72973 5.63233
-0.25238 1.72864 5.62548
-0.271356 1.7297 5.62861
-0.289394 1.72864 5.62376
-0.308401 1.72864 5.6229
-0.327393 1.72867 5.62404
-0.346361 1.73074 5.62816
-0.355376 1.72972 5.62624
-0.374375 1.73073 5.62637
-0.392413 1.72967 5.62152
-0.41135 1.7328 5.62961
-0.429488 1.72755 5.61183
-0.448411 1.73071 5.62192
-0.457434 1.72967 5.61901
-0.475487 1.72858 5.61216
-0.494501 1.72856 5.6103
-0.513501 1.72858 5.61044
-0.532469 1.73065 5.61456
-0.550522 1.72856 5.60772
-0.569521 1.72957 5.60785
-0.615557 1.72953 5.6032
-1.20301 1.73903 5.54447
-1.25712 1.73785 5.5299
-1.26714 1.73782 5.52797
-1.30709 1.74194 5.53421
-1.32223 1.73767 5.51539
-1.34316 1.74182 5.52449
-1.35828 1.73759 5.50866
-1.3773 1.73858 5.50679
-1.38631 1.73855 5.50486
-1.42531 1.74158 5.50511
-1.46044 1.73936 5.4884
-1.47944 1.74036 5.48753
-1.50843 1.74341 5.4897
-1.5416 1.73909 5.46701
-1.56159 1.74012 5.46815
-1.57864 1.74003 5.46128
-1.59866 1.74101 5.45941
-1.60767 1.74099 5.45748
-1.63059 1.74617 5.46858
-1.64376 1.74085 5.44675
-1.66762 1.74812 5.46383
-1.68372 1.74594 5.45098
-1.70566 1.75007 5.45909
-1.7198 1.7458 5.44025
-1.73175 1.74892 5.4473
-1.74785 1.74574 5.43447
-1.76491 1.74563 5.42659
-1.78587 1.7487 5.43071
-1.80588 1.7497 5.42984
-1.82491 1.75066 5.42597
-1.83392 1.75165 5.42502
-1.8549 1.75369 5.42715
-1.87099 1.75153 5.4153
-1.89098 1.75356 5.41643
-1.90512 1.7493 5.39859
-1.92412 1.7513 5.39771
-1.94316 1.75224 5.39283
-1.95317 1.75223 5.39191
-1.97414 1.75529 5.39502
-1.99413 1.75832 5.39613
-2.00826 1.75408 5.3793
-2.02826 1.75609 5.37942
-2.04534 1.75496 5.36956
-2.06534 1.75696 5.36868
-2.07437 1.75692 5.36575
-2.09339 1.75788 5.36188
-2.11142 1.75883 5.358
-2.12948 1.75874 5.35114
-2.15046 1.76178 5.35325
-2.16655 1.75962 5.3414
-2.18656 1.7616 5.33952
-2.19656 1.76261 5.33958
-2.21657 1.76459 5.3377
-2.23068 1.7614 5.32386
-2.25168 1.76441 5.32397
-2.2658 1.76119 5.30812
-2.29778 1.76525 5.3113
-2.31484 1.76513 5.30243
-2.34898 1.76389 5.2847
-2.36898 1.76589 5.28383
-2.3841 1.76368 5.26897
-2.40311 1.76466 5.2671
-2.44923 1.76646 5.25142
3.95663 1.64835 3.89072
3.9527 1.64948 3.89973
3.93194 1.65297 3.93184
3.91298 1.65006 3.93703
3.90008 1.65028 3.95112
3.90634 1.65976 3.98394
3.88627 1.65366 3.97618
3.83365 1.65544 4.02656
3.82882 1.65977 4.04853
3.80987 1.65787 4.0547
3.79886 1.65488 4.05483
3.80313 1.66438 4.08866
3.78215 1.66144 4.09187
3.77125 1.66265 4.10593
3.76644 1.66801 4.12989
3.74949 1.66613 4.13705
3.73154 1.66424 4.14421
3.74175 1.67263 4.17102
3.71673 1.66762 4.16928
3.71494 1.67402 4.1962
3.69295 1.67007 4.19842
3.68005 1.67127 4.21151
3.66614 1.67146 4.22361
3.66323 1.67362 4.2346
3.64225 1.67068 4.2378
3.63136 1.67291 4.25285
3.32726 1.68284 4.50503
3.29148 1.68429 4.53429
3.24369 1.68374 4.56266
3.23281 1.68599 4.57871
3.2069 1.68518 4.59092
3.194 1.68638 4.604
3.12333 1.68707 4.64753
3.03078 1.68903 4.7082
2.99197 1.68941 4.73249
0.948157 1.72792 5.55943
0.828335 1.73035 5.5833
0.689452 1.73067 5.59935
0.642491 1.73078 5.6047
0.624522 1.73085 5.60884
0.588622 1.73407 5.62206
0.568546 1.73094 5.61226
0.5406 1.73206 5.61945
0.521562 1.73 5.61463
0.503662 1.73421 5.6277
0.485662 1.73322 5.62785
0.46664 1.73219 5.62501
0.457678 1.73327 5.63006
0.437617 1.73017 5.62226
0.41971 1.73436 5.63433
0.400617 1.72919 5.62255
0.382741 1.73444 5.63861
0.363602 1.72819 5.62084
0.335704 1.7324 5.63399
0.317789 1.73558 5.64508
0.298689 1.7314 5.63229
0.279798 1.73562 5.64637
0.260659 1.72937 5.6286
0.242898 1.73884 5.6596
0.232714 1.73149 5.63578
0.214791 1.73465 5.64587
0.19566 1.72842 5.62911
0.176707 1.73052 5.63522
0.157731 1.73158 5.63835
0.139716 1.73056 5.6365
0.120732 1.73161 5.63863
0.111708 1.72957 5.63572
0.0927477 1.73166 5.64084
0.0737093 1.7296 5.63601
0.0557412 1.73167 5.64011
0.0194432 1.73613 5.4673
0.000474485 1.7372 5.47143
-0.0625005 1.73829 5.47488
-0.0804843 1.73934 5.477
-0.099507 1.73831 5.47416
-0.117475 1.74038 5.47827
-0.135467 1.74041 5.4794
-0.144528 1.73829 5.4715
-0.162474 1.74041 5.47861
-0.18052 1.73834 5.47277
-0.199511 1.73936 5.4739
-0.23461 1.7352 5.46122
-0.253471 1.74148 5.47928
-0.262578 1.73728 5.4654
-0.280539 1.73936 5.47051
-0.298562 1.73833 5.46766
-0.317537 1.74039 5.47077
-0.335576 1.73833 5.46594
-0.353513 1.74146 5.47403
-0.371551 1.7404 5.46918
-0.380566 1.74038 5.46725
-0.398619 1.73829 5.46041
-0.415688 1.73517 5.45159
-0.434656 1.73724 5.4557
-0.452702 1.73616 5.44985
-0.470662 1.73825 5.45496
-0.479685 1.73721 5.45204
-0.498607 1.74137 5.46212
-0.515698 1.73821 5.4503
-0.534705 1.73821 5.44944
-0.552705 1.73822 5.44957
-0.570735 1.73818 5.44571
-0.58685 1.73297 5.43091
-0.597772 1.73712 5.44093
-0.614802 1.73707 5.43706
-0.632878 1.73394 5.42724
-0.65273 1.74123 5.44628
-0.669822 1.73807 5.43446
-0.684999 1.73074 5.41168
-0.706805 1.74013 5.43671
-0.714889 1.73697 5.42581
-0.731966 1.73383 5.41599
-0.748042 1.7317 5.40614
-0.768917 1.73795 5.4222
-0.786948 1.7369 5.41835
-0.803086 1.73165 5.40055
-0.81393 1.73895 5.42053
-0.831999 1.73683 5.41169
-0.849044 1.73576 5.40584
-0.868966 1.73992 5.41593
-0.886042 1.73778 5.40609
-0.904041 1.7388 5.40621
-0.921102 1.73669 5.39837
-0.928217 1.73247 5.38348
-0.951023 1.74186 5.40852
-0.967114 1.73869 5.39668
-0.987051 1.74283 5.40477
-1.00317 1.73862 5.38995
-1.02119 1.73859 5.38709
-1.04302 1.74691 5.40813
-1.04917 1.74064 5.38927
-1.06719 1.7406 5.38641
-1.08521 1.74159 5.38453
-1.10419 1.74363 5.38664
-1.12126 1.74151 5.3778
-1.14117 1.74669 5.38887
-1.15727 1.74351 5.37604
-1.16917 1.74871 5.38906
-1.18722 1.74662 5.38222
-1.20235 1.74238 5.3654
-1.22228 1.74652 5.37449
-1.23936 1.74539 5.36463
-1.2593 1.74852 5.37273
-1.26832 1.74848 5.3698
-1.2844 1.74633 5.35895
-1.30341 1.74733 5.35808
-1.32337 1.75042 5.36319
-1.33848 1.74621 5.34836
-1.36039 1.7524 5.36044
-1.37645 1.75129 5.35257
-1.38449 1.75021 5.34665
-1.40059 1.74705 5.33482
-1.42153 1.75116 5.34191
-1.43859 1.75006 5.33406
-1.45759 1.75107 5.33419
-1.47462 1.75103 5.33031
-1.48365 1.75097 5.32638
-1.50265 1.75299 5.3265
-1.52164 1.75402 5.32762
-1.53871 1.75289 5.31877
-1.55574 1.75283 5.3139
-1.57473 1.75486 5.31501
-1.59277 1.7548 5.31015
-1.60082 1.7537 5.30322
-1.62178 1.75681 5.30933
-1.63883 1.75671 5.30246
-1.65685 1.75668 5.2996
-1.69292 1.75758 5.29086
-1.73604 1.75637 5.2752
4.06778 1.64267 3.51191
4.04699 1.6441 3.54005
4.05221 1.65252 3.56889
4.02026 1.64664 3.57522
4.00836 1.64684 3.58831
3.99847 1.64807 3.60337
4.0047 1.65651 3.6332
3.98675 1.65462 3.64036
3.97173 1.65061 3.63854
3.97192 1.65596 3.66246
3.95499 1.65511 3.6716
3.94107 1.65428 3.68272
3.93017 1.65548 3.69578
3.9213 1.65674 3.71284
3.90536 1.65587 3.72097
3.90041 1.65597 3.72801
3.89759 1.66132 3.75095
3.86754 1.65327 3.7463
3.8647 1.65758 3.76726
3.86189 1.66293 3.7912
3.84796 1.66309 3.80131
3.83506 1.66328 3.8134
3.83112 1.66442 3.82242
3.81014 1.66048 3.82563
3.80631 1.6648 3.8476
3.79845 1.66808 3.86561
3.78049 1.66518 3.87179
3.76557 1.66534 3.8819
3.76669 1.66856 3.89685
3.74771 1.66563 3.90104
3.73683 1.66786 3.91609
3.72796 1.67012 3.93312
3.70698 1.66618 3.93634
3.70012 1.66947 3.95535
3.66432 1.66888 3.98163
3.65545 1.67213 3.99865
3.63749 1.66922 4.00383
3.62963 1.67251 4.02284
0.1734 1.73494 5.46115
0.11844 1.73606 5.46655
0.0554422 1.7361 5.46703
0.0277736 1.72585 5.24636
0.0108205 1.72795 5.25245
0.00172793 1.72378 5.24058
-0.0162094 1.72691 5.24867
-0.0330853 1.73216 5.26472
-0.0511852 1.72798 5.25192
-0.0682619 1.72485 5.24209
-0.0852614 1.72486 5.24222
-0.0942536 1.72488 5.24329
-0.112168 1.72906 5.25436
-0.129253 1.72491 5.24355
-0.146275 1.72488 5.24068
-0.164235 1.72696 5.24579
-0.182212 1.72802 5.24891
-0.198343 1.72178 5.23212
-0.208249 1.72697 5.24412
-0.225249 1.72698 5.24425
-0.241403 1.71969 5.22447
-0.276402 1.72072 5.22472
-0.294339 1.72385 5.23281
-0.355406 1.72176 5.2243
-0.373359 1.72486 5.23039
-0.390381 1.72383 5.22753
-0.40738 1.72484 5.22765
-0.416411 1.72379 5.22373
-0.467486 1.72168 5.21415
-1.04895 1.72816 5.15442
-1.14602 1.73108 5.14511
-1.36838 1.73151 5.09777
-1.42946 1.7334 5.0872
-1.57472 1.73498 5.05327
-1.59174 1.73495 5.0504
-1.59978 1.73488 5.04546
-1.61583 1.73379 5.03859
-1.66888 1.73673 5.03195
-1.69394 1.73663 5.02414
-1.71195 1.73761 5.02226
-1.72508 1.73438 5.0064
-1.74992 1.7437 5.02645
-1.76696 1.74362 5.02058
-1.78303 1.7415 5.01173
-1.79811 1.74036 5.00186
-1.80612 1.74034 4.99992
-1.8222 1.7392 4.99006
-1.83921 1.74018 4.98817
-1.8592 1.74321 4.98928
-1.87525 1.74313 4.9834
-1.89032 1.74101 4.97455
-1.9152 1.74925 4.98961
-1.92127 1.74611 4.9797
-1.93733 1.746 4.97182
-1.9573 1.74908 4.97593
-1.97043 1.74583 4.95907
-1.99041 1.74889 4.96218
-2.00646 1.7488 4.9553
-2.02054 1.74665 4.94444
-2.03152 1.7487 4.94749
-2.05052 1.7507 4.9466
-2.06657 1.75062 4.94073
-2.08362 1.75053 4.93386
-2.10066 1.75147 4.92897
-2.11573 1.75033 4.9191
-2.12769 1.75341 4.92414
-2.14277 1.75228 4.91427
-2.15882 1.75219 4.90739
-2.17783 1.75317 4.90552
-2.1988 1.75724 4.90962
-2.2129 1.75506 4.89676
-2.21796 1.75295 4.88882
-2.23894 1.75701 4.89192
-2.25107 1.75275 4.87407
-2.26909 1.75472 4.87118
-2.30317 1.75659 4.86141
-2.31825 1.75444 4.85055
-2.34725 1.75846 4.85071
-2.36331 1.75836 4.84283
-2.37937 1.75723 4.83397
-2.39445 1.7571 4.82408
-2.40853 1.75594 4.81321
-2.43655 1.75892 4.81037
3.92088 1.643 3.393
3.89019 1.64463 3.43421
3.85739 1.64405 3.46147
3.83558 1.64544 3.48662
3.82367 1.64563 3.49871
3.81782 1.64891 3.5177
3.78997 1.64723 3.53794
3.76827 1.65182 3.57704
3.74728 1.64787 3.57926
3.73739 1.64908 3.59332
3.73354 1.65338 3.61329
3.72063 1.65357 3.62538
3.70257 1.64748 3.61861
3.70377 1.65486 3.64449
3.6848 1.65193 3.64868
3.67189 1.65212 3.66078
3.66905 1.65643 3.68174
3.64707 1.65248 3.68396
3.64514 1.65363 3.69396
3.63626 1.65586 3.709
3.62133 1.655 3.71812
3.61749 1.66031 3.73907
3.60457 1.66049 3.75017
3.58662 1.65759 3.75635
3.57773 1.65982 3.77139
3.5738 1.66095 3.7804
3.55987 1.6611 3.7895
3.54393 1.65923 3.79765
3.54009 1.66455 3.81961
3.52718 1.66473 3.8307
3.50417 1.65973 3.82995
3.51739 1.67015 3.8587
3.49741 1.66721 3.86189
3.48349 1.66637 3.87201
3.4847 1.67378 3.8999
3.45967 1.66774 3.89618
3.45282 1.67102 3.91518
3.44394 1.67427 3.9312
3.42991 1.67023 3.92837
3.42305 1.6735 3.94637
3.39319 1.67279 3.96461
3.3833 1.67502 3.97965
3.35051 1.67546 4.0079
3.3267 1.67785 4.03305
3.26898 1.67644 4.07051
3.13378 1.68109 4.17647
3.09593 1.67941 4.19678
3.06024 1.68403 4.23699
3.0463 1.68418 4.24609
3.02834 1.68326 4.25124
3.01644 1.68446 4.26432
3.00947 1.68453 4.26837
2.97656 1.68173 4.28066
2.96164 1.68189 4.29077
2.93783 1.68529 4.31691
2.93188 1.68638 4.32293
2.90302 1.68667 4.34115
2.88708 1.6858 4.34928
2.84327 1.68622 4.37561
2.82342 1.68851 4.39473
2.79151 1.68672 4.407
2.76542 1.67957 4.3963
2.76468 1.68906 4.42917
2.7 1.69174 4.47262
2.65519 1.69215 4.49796
0.963074 1.71985 5.15039
0.869221 1.7222 5.17006
0.853298 1.72436 5.18015
0.800298 1.7224 5.18058
0.758399 1.72463 5.19386
0.723391 1.72264 5.19316
0.689484 1.72584 5.20537
0.6725 1.72588 5.20749
0.663531 1.72695 5.21155
0.62636 1.71765 5.18996
0.611547 1.72601 5.21395
0.594624 1.72817 5.22405
0.576546 1.72404 5.21424
0.559586 1.72613 5.21934
0.533679 1.72932 5.23149
0.515617 1.72622 5.22367
0.498648 1.72629 5.2278
0.480602 1.72421 5.22197
0.463641 1.7253 5.22708
0.446679 1.72639 5.23219
0.43768 1.72639 5.23226
0.419665 1.72538 5.23041
0.40375 1.72855 5.24148
0.385696 1.72646 5.23465
0.367689 1.72546 5.2338
0.350712 1.72651 5.23691
0.333767 1.72863 5.24401
0.324736 1.72658 5.24011
0.307837 1.73078 5.25317
0.288621 1.72138 5.22545
0.271745 1.72663 5.24151
0.254768 1.72669 5.24463
0.237784 1.72773 5.24675
0.228761 1.72669 5.24383
0.210707 1.7236 5.23701
0.193754 1.7257 5.24311
0.175739 1.72469 5.24126
0.158832 1.72888 5.25333
0.141763 1.72576 5.2445
0.123748 1.72474 5.24265
0.11481 1.72786 5.25067
0.0977101 1.72368 5.23786
0.0798186 1.7279 5.25193
0.0627883 1.72686 5.24808
0.0458039 1.7269 5.25021
0.0235119 1.71738 5.07949
0.00645086 1.71528 5.07165
-0.0104482 1.71948 5.08472
-0.0274785 1.71844 5.08086
-0.0354475 1.7195 5.0849
-0.0524389 1.72053 5.08602
-0.0695238 1.71638 5.07521
-0.0865308 1.71638 5.07433
-0.103445 1.72055 5.0854
-0.119546 1.71537 5.0726
-0.12846 1.71954 5.0836
-0.145521 1.71743 5.07576
-0.162443 1.72159 5.08583
-0.196527 1.71746 5.07515
-0.306523 1.71954 5.07594
-0.32353 1.71953 5.07507
-0.399557 1.72053 5.07163
-1.15213 1.73189 4.99712
-1.19128 1.72762 4.97748
-1.21026 1.72968 4.98059
-1.22629 1.72963 4.97671
-1.25935 1.72954 4.96896
-1.27638 1.72949 4.96509
-1.30239 1.73148 4.96326
-1.35052 1.72927 4.94665
-1.36852 1.73126 4.94575
-1.37458 1.72916 4.93883
-1.3955 1.73433 4.94891
-1.41155 1.73324 4.94205
-1.42855 1.73425 4.94216
-1.44559 1.73419 4.93729
-1.47865 1.73408 4.92854
-1.48375 1.7309 4.91662
-1.50272 1.73396 4.91972
-1.53774 1.73594 4.91696
-1.55086 1.73271 4.9011
-1.5708 1.73685 4.90919
-1.58977 1.73992 4.91329
-1.5939 1.73467 4.89639
-1.60897 1.73355 4.88752
-1.62697 1.73556 4.88763
-1.64593 1.73864 4.89173
-1.66295 1.73962 4.88984
-1.679 1.73953 4.88296
-1.69408 1.73737 4.87211
-1.706 1.74153 4.88214
-1.72107 1.74041 4.87326
-1.73516 1.73826 4.8624
-1.75414 1.7413 4.8645
-1.77115 1.74228 4.86261
-1.78525 1.7391 4.84976
-1.79915 1.7453 4.86278
-1.81325 1.74212 4.84993
-1.83221 1.74621 4.85501
-1.84631 1.74403 4.84215
-1.86138 1.74189 4.83229
-1.87743 1.74181 4.82642
-1.8874 1.74386 4.82946
-1.91129 1.7521 4.84452
-1.92049 1.74472 4.8187
-1.93948 1.74775 4.81979
-1.95552 1.74768 4.81392
-1.9745 1.75073 4.81701
-1.99055 1.75064 4.81013
-2.00054 1.75166 4.8112
-2.01266 1.74844 4.79533
-2.02969 1.74939 4.79145
-2.06767 1.75444 4.79366
-2.08273 1.75434 4.78577
-2.10779 1.75424 4.77796
-2.15791 1.75604 4.76231
-2.19001 1.75587 4.74955
-2.21309 1.75572 4.73873
-2.25928 1.75438 4.71409
4.10354 1.63432 2.94969
4.06193 1.63511 3.001
4.04809 1.63543 3.0221
3.99355 1.63637 3.08351
3.96192 1.63912 3.13271
3.93515 1.63958 3.16291
3.93432 1.64491 3.18484
3.91133 1.63996 3.18709
3.90948 1.64425 3.20704
3.89152 1.64034 3.21223
3.87071 1.64174 3.23837
3.86476 1.64183 3.24442
3.85385 1.64202 3.2565
3.85604 1.64839 3.28139
3.84211 1.64753 3.29051
3.82415 1.64463 3.29669
3.82332 1.64996 3.31862
3.80537 1.64706 3.3248
3.79437 1.64407 3.32493
3.79958 1.65248 3.35277
3.77759 1.64853 3.35499
3.77374 1.65181 3.37397
3.76183 1.652 3.38606
3.74991 1.65217 3.39715
3.74193 1.65022 3.40024
3.73708 1.6545 3.41922
3.72516 1.65467 3.4303
3.71325 1.65486 3.44239
3.70436 1.65607 3.45644
3.69044 1.65525 3.46756
3.67752 1.6554 3.47766
3.6766 1.65757 3.48864
3.65562 1.65361 3.49085
3.65479 1.65894 3.51278
3.64388 1.66014 3.52585
3.63197 1.66031 3.53694
3.6251 1.66257 3.55396
3.62217 1.66472 3.56395
3.6042 1.66179 3.56813
3.5933 1.66199 3.58121
3.58744 1.66626 3.59919
3.57149 1.66438 3.60634
3.56261 1.66661 3.62138
3.55573 1.66886 3.6384
3.5407 1.66481 3.63457
3.53182 1.66704 3.64961
3.51688 1.66517 3.65775
3.49891 1.66326 3.66291
3.49407 1.66756 3.68289
3.4882 1.67083 3.70089
3.46923 1.66789 3.70407
3.46529 1.66902 3.71309
3.43057 1.67158 3.74932
3.4116 1.66866 3.7535
3.40674 1.67294 3.77248
3.38776 1.669 3.77568
3.37595 1.67338 3.80071
3.33518 1.67385 3.83101
3.31923 1.67195 3.83716
3.31832 1.67513 3.84912
3.29732 1.67014 3.84936
3.29348 1.67547 3.87131
3.2199 1.67634 3.92686
3.18598 1.67253 3.93817
3.10857 1.67972 4.01566
3.07869 1.67798 4.03191
3.04892 1.68145 4.06209
2.9723 1.68125 4.11268
2.95736 1.68138 4.12079
2.94747 1.6836 4.13583
2.93354 1.68375 4.14494
2.91658 1.68183 4.15009
2.88478 1.68426 4.1773
2.85693 1.68556 4.19649
1.20752 1.71564 4.94358
1.05184 1.71938 4.9867
1.03487 1.71943 4.98983
1.00886 1.71744 4.98905
0.976945 1.71962 5.00026
0.925983 1.71873 5.00566
0.918029 1.71983 5.01171
0.902045 1.71987 5.01383
0.885068 1.71993 5.01695
0.869115 1.72203 5.02304
0.852122 1.72105 5.02419
0.83413 1.72008 5.02534
0.81713 1.7201 5.02546
0.810184 1.7222 5.03249
0.793176 1.7202 5.03164
0.774106 1.71608 5.02285
0.758153 1.71818 5.02894
0.742199 1.71928 5.03504
0.724184 1.71827 5.03319
0.707192 1.71729 5.03434
0.700285 1.72148 5.04633
0.682231 1.71839 5.03951
0.667362 1.72365 5.05654
0.649285 1.71951 5.04674
0.632285 1.71853 5.04688
0.616332 1.72063 5.05297
0.597246 1.71548 5.04219
0.589293 1.71757 5.04822
0.573339 1.71867 5.05433
0.556363 1.71973 5.05744
0.541464 1.72393 5.07049
0.523402 1.72083 5.06267
0.506433 1.7209 5.0668
0.497394 1.71883 5.0619
0.479332 1.71573 5.05408
0.463395 1.71886 5.06215
0.447465 1.721 5.07124
0.430519 1.72312 5.07834
0.412411 1.71792 5.06455
0.396496 1.7211 5.07563
0.387473 1.72006 5.07271
0.371512 1.72115 5.07781
0.353474 1.71908 5.07298
0.33642 1.71699 5.06614
0.319397 1.71496 5.0633
0.303467 1.71811 5.07237
0.286459 1.7171 5.07151
0.277475 1.71814 5.07357
0.260437 1.71608 5.06872
0.24453 1.72027 5.08078
0.226437 1.7151 5.06899
0.210523 1.71928 5.08005
0.193562 1.72136 5.08515
0.184492 1.71724 5.07628
0.167508 1.71828 5.07839
0.15054 1.71935 5.08251
0.133556 1.72039 5.08462
0.117572 1.72143 5.08672
0.100603 1.72251 5.09084
0.0835183 1.71836 5.08002
0.0744954 1.71732 5.07711
0.0575655 1.72046 5.08619
0.0404806 1.71631 5.07538
0.0225311 1.72544 4.94836
0.0145157 1.72442 4.94644
-0.00146066 1.72548 4.94954
-0.018506 1.7244 4.94368
-0.0344748 1.72547 4.94779
-0.0515515 1.72234 4.93796
-0.0675203 1.72341 4.94207
-0.0845662 1.72133 4.93623
-0.0925503 1.72237 4.93827
-0.108542 1.72239 4.93939
-0.125534 1.72342 4.94051
-0.142487 1.72552 4.9466
-0.157626 1.71926 4.92881
-0.174602 1.72032 4.93192
-0.18257 1.72239 4.93595
-0.199562 1.72241 4.93708
-0.215616 1.72032 4.93023
-0.232623 1.72032 4.92936
-0.248584 1.7224 4.93445
-0.264707 1.71718 4.91864
-0.280729 1.71615 4.91578
-0.288744 1.71612 4.91384
-0.306666 1.72028 4.92391
-0.322704 1.71822 4.91906
-0.339634 1.72237 4.92813
-0.355656 1.72133 4.92527
-0.37171 1.71924 4.91842
-0.379764 1.71715 4.91151
-0.395771 1.71714 4.91063
-0.429676 1.72234 4.92281
-0.445745 1.72022 4.91396
-0.477798 1.71814 4.90723
-0.486789 1.71916 4.90829
-0.503727 1.72229 4.91637
-0.519811 1.71914 4.90553
-0.536733 1.7233 4.9156
-0.552825 1.72014 4.90377
-0.569778 1.72224 4.90987
-0.586761 1.72428 4.91196
-0.594784 1.72324 4.90904
-0.610799 1.72322 4.90716
-0.625875 1.72009 4.89732
-0.64289 1.72007 4.89545
-0.659858 1.72214 4.89954
-0.67588 1.72211 4.89666
-0.716932 1.72203 4.88997
-0.765944 1.72404 4.88831
-0.789997 1.72195 4.88152
-0.82401 1.72395 4.87975
-0.913144 1.72275 4.86244
-0.92915 1.72374 4.86154
-0.946158 1.72374 4.86067
-0.986232 1.72362 4.85097
-1.00417 1.72675 4.85906
-1.03527 1.72457 4.84533
-1.05323 1.72767 4.85142
-1.08531 1.72653 4.84068
-1.09525 1.72966 4.84871
-1.10839 1.7244 4.83088
-1.12828 1.73061 4.84394
-1.1443 1.73059 4.84206
-1.1613 1.7326 4.84216
-1.1754 1.72842 4.82933
-1.19143 1.72837 4.82545
-1.20527 1.73668 4.84543
-1.21935 1.73453 4.83457
-1.23345 1.73034 4.82173
-1.25241 1.73445 4.82782
-1.26651 1.73126 4.81497
