-4.4885 1.68466 0.269378
-4.47163 1.67739 0.252356
-4.48472 1.68122 0.240396
-4.47684 1.67698 0.224397
-4.48494 1.6798 0.211415
-4.49004 1.68059 0.19744
-4.48715 1.67938 0.183434
-4.4902 1.67928 0.176457
-4.47332 1.67203 0.160435
-4.48042 1.67385 0.14746
-4.49052 1.67764 0.133478
-4.48463 1.67443 0.119479
-4.48474 1.67321 0.104496
-4.49284 1.67602 0.0915136
-4.50089 1.67893 0.0845303
-4.495 1.67572 0.0705315
-4.48511 1.67049 0.0555324
-4.49322 1.67428 0.0415353
-4.48533 1.67006 0.0265364
-4.48943 1.67087 0.0135535
-4.49453 1.67266 -0.000436583
-4.48765 1.66944 -0.0154427
-4.4957 1.67234 -0.022426
-4.48981 1.66913 -0.0364248
-4.49191 1.66892 -0.0504078
-4.48403 1.66569 -0.0654215
-4.50112 1.67251 -0.0783955
-4.50523 1.67331 -0.0923783
-4.48534 1.66507 -0.107408
-4.50238 1.672 -0.113383
-4.50549 1.67179 -0.127359
-4.49661 1.66756 -0.142365
-4.50071 1.66936 -0.156363
-4.49882 1.66815 -0.170361
-4.50292 1.66995 -0.184359
-4.50703 1.67074 -0.198341
-4.50008 1.66763 -0.205349
-4.50218 1.66843 -0.219346
-4.4983 1.6662 -0.234345
-4.4994 1.666 -0.248335
-4.50051 1.66679 -0.262341
-3.25959 1.74296 2.7716
-3.29286 1.74245 2.73585
-3.32209 1.74201 2.70508
-3.31628 1.73265 2.68117
-3.33444 1.73235 2.66031
-3.35643 1.73937 2.66037
-3.34558 1.73108 2.64141
-3.35069 1.72788 2.62749
-3.36871 1.73285 2.62455
-3.36389 1.7245 2.60164
-3.38389 1.7305 2.6007
-3.39893 1.73442 2.59475
-3.40205 1.7302 2.57984
-3.4051 1.7301 2.57286
-3.42014 1.73302 2.56693
-3.42823 1.73185 2.55501
-3.43533 1.73068 2.54308
-3.43248 1.72438 2.52314
-3.44753 1.72729 2.51621
-3.44965 1.72305 2.50029
-3.46065 1.72706 2.50031
-3.4737 1.72897 2.49338
-3.48278 1.72881 2.48245
-3.48591 1.72558 2.46652
-3.50194 1.72951 2.46158
-3.50903 1.72834 2.44965
-3.52308 1.73225 2.4427
-3.51421 1.72501 2.42674
-3.52925 1.72793 2.42081
-3.53832 1.72779 2.41088
-3.54145 1.72455 2.39495
-3.54953 1.72439 2.38401
-3.5616 1.72627 2.37507
-3.57266 1.72714 2.36614
-3.57081 1.72186 2.3472
-3.57685 1.72279 2.34223
-3.57995 1.71959 2.3283
-3.59898 1.72554 2.32435
-3.60011 1.72129 2.30742
-3.60918 1.72215 2.29748
-3.6133 1.71893 2.28255
-3.62138 1.71877 2.27162
-3.63139 1.72275 2.26963
-3.6345 1.71955 2.2557
-3.63961 1.71834 2.24176
-3.65267 1.72023 2.23383
-3.65876 1.71905 2.22089
-3.66685 1.71889 2.20995
-3.66498 1.71462 2.192
-3.67997 1.71965 2.19303
-3.67911 1.71438 2.1751
-3.69528 1.71507 2.15321
-3.71543 1.71678 2.13334
-3.72458 1.71549 2.11342
-3.73167 1.71532 2.10147
-3.74572 1.71823 2.09454
-3.74386 1.71296 2.0766
-3.75294 1.7138 2.06565
-3.75505 1.71158 2.0507
-3.76519 1.71033 2.03279
-3.78025 1.71422 2.02485
-3.78435 1.71203 2.01191
-3.79343 1.71287 2.00096
-3.79853 1.71168 1.98802
-3.8086 1.71354 1.97806
-3.82273 1.7143 1.96116
-3.83479 1.71718 1.9522
-3.83093 1.71091 1.93426
-3.83504 1.7097 1.92031
-3.86104 1.71871 1.91937
-3.85519 1.71241 1.89942
-3.87323 1.71733 1.89348
-3.87336 1.71409 1.87753
-3.88138 1.71705 1.87455
-3.88548 1.71485 1.86061
-3.89058 1.71366 1.84766
-3.89369 1.71246 1.8337
-3.90078 1.71228 1.82176
-3.9009 1.70905 1.8058
-3.91596 1.71194 1.79787
-3.91204 1.70879 1.78789
-3.92709 1.71268 1.77994
-3.92024 1.7064 1.76098
-3.94028 1.71232 1.75504
-3.94936 1.71418 1.74508
-3.95446 1.71298 1.73114
-3.94463 1.70466 1.71018
-3.96759 1.71473 1.71421
-3.97368 1.71456 1.70225
-3.9738 1.71032 1.68632
-3.96794 1.70505 1.66835
-3.97901 1.70691 1.6584
-3.99009 1.70976 1.64744
-3.99021 1.70654 1.63249
-3.99625 1.70747 1.62752
-3.98939 1.70118 1.60856
-4.02039 1.71319 1.60761
-4.01752 1.70895 1.59165
-4.02063 1.70673 1.57671
-4.01775 1.70249 1.56075
-4.04577 1.71247 1.55781
-4.03991 1.7072 1.53984
-4.04096 1.70609 1.53286
-4.04008 1.70286 1.5169
-4.03721 1.69862 1.50094
-4.05327 1.70349 1.49199
-4.06036 1.70432 1.48003
-4.06545 1.70415 1.46807
-4.06657 1.70093 1.45312
-4.0726 1.70286 1.44814
-4.08181 1.70146 1.42122
-4.07494 1.69619 1.40325
-4.08901 1.69907 1.39431
-4.10607 1.70496 1.38635
-4.09821 1.69869 1.36838
-4.10524 1.70062 1.3634
-4.10934 1.69943 1.35045
-4.1244 1.70431 1.34149
-4.11256 1.69601 1.32152
-4.12762 1.70088 1.31256
-4.13173 1.69968 1.29861
-4.12785 1.69544 1.28264
-4.12891 1.69434 1.27566
-4.135 1.69516 1.2637
-4.1381 1.69396 1.24974
-4.16325 1.70068 1.22982
-4.14741 1.69136 1.20884
-4.1555 1.69319 1.19687
-4.17456 1.69908 1.18893
-4.16464 1.69291 1.17794
-4.17273 1.69474 1.16597
-4.18481 1.69759 1.15502
-4.17295 1.69031 1.13704
-4.18603 1.69417 1.12708
-4.18919 1.69186 1.10613
-4.19628 1.69268 1.09317
-4.20038 1.69249 1.0802
-4.20149 1.69128 1.06623
-4.21257 1.69412 1.05527
-4.21268 1.6919 1.0403
-4.2118 1.68968 1.02532
-4.21695 1.68839 1.00538
-4.21506 1.68616 0.990395
-4.22814 1.69001 0.979435
-4.23224 1.68982 0.966467
-4.23235 1.68761 0.952498
-4.23645 1.68741 0.93853
-4.24559 1.68914 0.919571
-4.24271 1.68491 0.90461
-4.24681 1.68472 0.891642
-4.26388 1.69159 0.881667
-4.26099 1.68836 0.866691
-4.25712 1.68412 0.850723
-4.2642 1.68595 0.838747
-4.26127 1.68383 0.830755
-4.27535 1.68768 0.819803
-4.26647 1.68243 0.803812
-4.28255 1.68728 0.792859
-4.28066 1.68507 0.778876
-4.28176 1.68387 0.7649
-4.27788 1.68063 0.748917
-4.27794 1.67952 0.741933
-4.297 1.6864 0.732973
-4.29711 1.68518 0.71799
-4.29123 1.68096 0.703006
-4.29633 1.68177 0.690031
-4.30143 1.68156 0.67607
-4.30752 1.68339 0.664087
-4.30764 1.68117 0.649119
-4.31068 1.68208 0.643128
-4.30779 1.67986 0.628137
-4.31489 1.68067 0.615176
-4.32298 1.6835 0.603194
-4.3171 1.67927 0.58821
-4.32719 1.68209 0.575243
-4.3273 1.68088 0.561259
-4.32735 1.67978 0.554275
-4.31947 1.67555 0.539276
-4.31957 1.67434 0.525293
-4.33166 1.67817 0.513326
-4.33277 1.67697 0.49935
-4.34885 1.68281 0.488383
-4.32799 1.67253 0.470376
-4.349 1.6815 0.467401
-4.35011 1.6803 0.453425
-4.35921 1.68311 0.44045
-4.35432 1.67988 0.425459
-4.35543 1.67868 0.411483
-4.34854 1.67445 0.396492
-4.35963 1.67828 0.384517
-4.36467 1.6802 0.378526
-4.3518 1.67395 0.362519
-4.36289 1.67677 0.349559
-4.36699 1.67758 0.336576
-4.36011 1.67335 0.321585
-4.36121 1.67314 0.307594
-4.3723 1.67697 0.29562
-4.36237 1.67283 0.286605
-4.37146 1.67566 0.27463
-4.36258 1.67043 0.259638
-4.36468 1.67023 0.245655
-4.37478 1.67404 0.232673
-4.36589 1.66881 0.217681
-4.37299 1.67163 0.204691
-4.3711 1.66942 0.190708
-4.37515 1.67132 0.183709
-4.37325 1.66911 0.169726
-4.37835 1.67092 0.156736
-4.37047 1.66669 0.141737
-4.36857 1.66448 0.127753
-4.38067 1.6693 0.114771
-4.37877 1.66709 0.100788
-4.38082 1.668 0.0947888
-4.37293 1.66378 0.0797899
-4.38902 1.66961 0.0678231
-4.38413 1.66738 0.0528172
-4.38923 1.66919 0.039827
-4.37535 1.66196 0.0248274
-4.38744 1.66678 0.0118454
-4.3825 1.66467 0.0048384
-4.3816 1.66346 -0.00915239
-4.37671 1.66125 -0.0231585
-4.37982 1.66105 -0.037134
-4.39391 1.66687 -0.0501157
-4.38902 1.66366 -0.0641069
-4.39312 1.66545 -0.0781045
-4.39722 1.66726 -0.0911023
-4.39827 1.66716 -0.0980938
-4.39438 1.66495 -0.112092
-4.39948 1.66674 -0.126082
-4.39059 1.66253 -0.140089
-4.39469 1.66333 -0.154072
-4.39679 1.66414 -0.16707
-4.3939 1.66193 -0.181061
-4.39395 1.66182 -0.18806
-4.39006 1.66061 -0.202073
-4.38117 1.6564 -0.21608
-4.39327 1.6612 -0.230061
-4.39636 1.66201 -0.243052
-4.39647 1.6618 -0.25705
-4.39358 1.66059 -0.271056
-3.33043 1.7354 2.52821
-3.35972 1.73385 2.49045
-3.37687 1.73356 2.46958
-3.38695 1.73442 2.45964
-3.39709 1.73216 2.44175
-3.40119 1.72995 2.42781
-3.41537 1.72761 2.40395
-3.42446 1.72745 2.39302
-3.44559 1.7292 2.37515
-3.44268 1.72504 2.36419
-3.44294 1.71653 2.33031
-3.46295 1.72252 2.32838
-3.48296 1.7285 2.32644
-3.47215 1.71812 2.30151
-3.48521 1.72002 2.29358
-3.4982 1.72504 2.2946
-3.50429 1.72387 2.28266
-3.50841 1.72165 2.26772
-3.52046 1.72355 2.26078
-3.51263 1.71521 2.23785
-3.53365 1.72219 2.2359
-3.54272 1.72305 2.22595
-3.52886 1.71277 2.208
-3.54291 1.71568 2.20106
-3.55497 1.71857 2.19311
-3.56007 1.71638 2.18018
-3.56318 1.71416 2.16523
-3.58022 1.7181 2.1603
-3.57637 1.71182 2.14136
-3.58538 1.71479 2.13939
-3.59048 1.7136 2.12644
-3.6105 1.71956 2.1225
-3.60067 1.71023 2.10056
-3.63164 1.72231 2.10462
-3.62095 1.70871 2.06473
-3.63792 1.71577 2.06776
-3.6511 1.71442 2.04387
-3.65122 1.71018 2.02793
-3.66926 1.71612 2.02298
-3.6644 1.70884 2.00405
-3.68542 1.71581 2.00111
-3.68847 1.71572 1.99513
-3.68063 1.70841 1.97418
-3.70464 1.71639 1.97224
-3.6958 1.70808 1.95129
-3.71085 1.71198 1.94435
-3.70997 1.70775 1.9284
-3.72105 1.70961 1.91845
-3.72116 1.70638 1.9035
-3.73417 1.71138 1.90252
-3.73627 1.70817 1.88859
-3.74933 1.71106 1.88064
-3.75344 1.70986 1.86669
-3.75654 1.70765 1.85274
-3.77166 1.71044 1.83781
-3.77985 1.70706 1.81192
-3.77898 1.70283 1.79597
-3.79005 1.70569 1.78601
-3.80323 1.70534 1.76211
-3.80833 1.70415 1.74917
-3.81635 1.70611 1.7462
-3.83141 1.71 1.73825
-3.83363 1.70458 1.70935
-3.83972 1.7044 1.69739
-3.84183 1.70218 1.68244
-3.84488 1.7021 1.67646
-3.86192 1.70802 1.6705
-3.86004 1.70378 1.65455
-3.87112 1.70564 1.64461
-3.86924 1.7014 1.62865
-3.88828 1.70733 1.62271
-3.87844 1.69903 1.60275
-3.89848 1.70695 1.59679
-3.88658 1.69875 1.58382
-3.89765 1.70161 1.57386
-3.90075 1.69942 1.56091
-3.90983 1.70126 1.54995
-3.90895 1.69803 1.53399
-3.92301 1.70192 1.52604
-3.9301 1.70175 1.51409
-3.92617 1.69861 1.50511
-3.93725 1.70147 1.49514
-3.9533 1.70536 1.48721
-3.94843 1.70111 1.47023
-3.95752 1.70195 1.45929
-3.95265 1.6967 1.44232
-3.95774 1.69652 1.43036
-3.96976 1.70049 1.42739
-3.97485 1.70031 1.41543
-3.97695 1.69911 1.40147
-3.98503 1.69995 1.39051
-3.98017 1.69569 1.37354
-3.99423 1.69957 1.36458
-3.99235 1.69533 1.34863
-3.99042 1.69321 1.34065
-4.00946 1.69912 1.3337
-4.00559 1.69488 1.31773
-4.01965 1.69876 1.30878
-4.01378 1.6945 1.2918
-4.03582 1.70243 1.28584
-4.02099 1.69211 1.26488
-4.02708 1.69294 1.25291
-4.02613 1.69083 1.24594
-4.0402 1.69469 1.23599
-4.03433 1.68945 1.22002
-4.05936 1.69938 1.21406
-4.04352 1.68908 1.19409
-4.0516 1.69092 1.18312
-4.06468 1.69478 1.17316
-4.05687 1.6874 1.14821
-4.0819 1.69635 1.14326
-4.06905 1.68806 1.12429
-4.07924 1.68869 1.09935
-4.08733 1.69052 1.08738
-4.0814 1.68639 1.0784
-4.09945 1.69228 1.07044
-4.09158 1.68702 1.05346
-4.09867 1.68785 1.0415
-4.11374 1.69271 1.03154
-4.10388 1.68645 1.01456
-4.10997 1.68628 1.0026
-4.10703 1.68416 0.994611
-4.12321 1.68782 0.970676
-4.12641 1.68542 0.943732
-4.13849 1.68926 0.932764
-4.13261 1.68402 0.916795
-4.13566 1.68494 0.910804
-4.14275 1.68576 0.898843
-4.14386 1.68456 0.884868
-4.14695 1.68437 0.871892
-4.15304 1.68419 0.859939
-4.14916 1.68097 0.844955
-4.16922 1.68785 0.836003
-4.1563 1.68169 0.825996
-4.15841 1.68049 0.812027
-4.16649 1.68332 0.800045
-4.16161 1.67909 0.785069
-4.17369 1.68294 0.774101
-4.18278 1.68476 0.762141
-4.18588 1.68457 0.749165
-4.18698 1.68338 0.736189
-4.18005 1.67925 0.727197
-4.18015 1.67804 0.713214
-4.18735 1.67766 0.68727
-4.19943 1.6815 0.676303
-4.20652 1.68332 0.663328
-4.19166 1.67505 0.646335
-4.19171 1.67395 0.639351
-4.21377 1.68283 0.630385
-4.2009 1.67559 0.614393
-4.19801 1.67336 0.599402
-4.22107 1.68125 0.590458
-4.21319 1.67602 0.575474
-4.2133 1.67581 0.561476
-4.23131 1.68278 0.558508
-4.21645 1.67452 0.541516
-4.22354 1.67634 0.52954
-4.23562 1.68018 0.517573
-4.22774 1.67495 0.502589
-4.22985 1.67474 0.488606
-4.23394 1.67557 0.476623
-4.22601 1.67143 0.467623
-4.23409 1.67426 0.455641
-4.24718 1.67809 0.443681
-4.23331 1.67084 0.427681
-4.2374 1.67165 0.414699
-4.24849 1.67548 0.402724
-4.24959 1.67429 0.389748
-4.2517 1.67409 0.375765
-4.26472 1.68003 0.371774
-4.25485 1.67379 0.35579
-4.23996 1.66656 0.340783
-4.26803 1.67743 0.330832
-4.26015 1.6732 0.315833
-4.25326 1.66899 0.301842
-4.27533 1.67784 0.290876
-4.2614 1.6717 0.28186
-4.25951 1.66949 0.267877
-4.27659 1.67534 0.256917
-4.26671 1.67111 0.241903
-4.26281 1.6679 0.22792
-4.26691 1.66871 0.214937
-4.25603 1.66348 0.19993
-4.27106 1.66942 0.194955
-4.26917 1.66721 0.180971
-4.25928 1.663 0.166957
-4.27237 1.66681 0.153998
-4.27647 1.66862 0.141
-4.26958 1.66441 0.127008
-4.27067 1.66422 0.114018
-4.27672 1.66612 0.107034
-4.27083 1.66291 0.0930354
-4.27193 1.66272 0.0800447
-4.27703 1.66453 0.0670545
-4.27013 1.66132 0.0530482
-4.27523 1.66213 0.0400728
-4.27234 1.66092 0.026067
-4.26844 1.65771 0.0120832
-4.28149 1.66363 0.00609303
-4.27659 1.66042 -0.00789826
-4.27469 1.65922 -0.0208967
-4.28779 1.66404 -0.0338711
-4.28688 1.66385 -0.0468769
-4.27999 1.65964 -0.0608684
-4.29004 1.66354 -0.0678514
-4.28314 1.66034 -0.0808578
-4.28625 1.66114 -0.0948481
-4.29534 1.66495 -0.107838
-4.28345 1.65873 -0.121837
-4.28955 1.66155 -0.134835
-4.31064 1.66937 -0.147794
-4.30669 1.66826 -0.154808
-4.28381 1.65804 -0.168831
-4.27491 1.65384 -0.181838
-4.28401 1.65764 -0.195827
-4.27511 1.65344 -0.208834
-4.29421 1.66125 -0.222807
-4.28131 1.65505 -0.235815
-4.26842 1.64883 -0.249822
-4.28146 1.65475 -0.255812
-4.27957 1.65354 -0.26981
-3.47358 1.72531 2.11138
-3.48178 1.72092 2.08451
-3.47792 1.71465 2.06657
-3.50292 1.72367 2.06662
-3.50801 1.72249 2.05468
-3.51907 1.72437 2.04573
-3.52722 1.72209 2.02682
-3.53728 1.72397 2.01787
-3.55145 1.72365 1.99598
-3.55158 1.7194 1.97904
-3.55965 1.72026 1.96909
-3.5617 1.71917 1.96312
-3.57675 1.72308 1.95617
-3.58184 1.7219 1.94423
-3.59092 1.72276 1.93428
-3.58905 1.71751 1.91734
-3.59912 1.71937 1.90739
-3.60831 1.716 1.88251
-3.61136 1.71592 1.87653
-3.62939 1.72186 1.87158
-3.62652 1.7166 1.85463
-3.63062 1.71541 1.84168
-3.63969 1.71627 1.83173
-3.64478 1.7151 1.81978
-3.64883 1.71501 1.81382
-3.65492 1.71484 1.80186
-3.66499 1.71671 1.79291
-3.66809 1.71451 1.77896
-3.67816 1.71638 1.77001
-3.67927 1.71416 1.75505
-3.68735 1.71402 1.74511
-3.69543 1.71486 1.73416
-3.69549 1.71374 1.72617
-3.70855 1.71663 1.71823
-3.71365 1.71544 1.70528
-3.71675 1.71325 1.69234
-3.71985 1.71206 1.67938
-3.72394 1.71088 1.66642
-3.73302 1.71273 1.65646
-3.73009 1.7086 1.6475
-3.74713 1.71452 1.64154
-3.75223 1.71333 1.62859
-3.74537 1.70706 1.61063
-3.75743 1.70994 1.60168
-3.76352 1.70976 1.58973
-3.76761 1.70859 1.57777
-3.77863 1.71257 1.5758
-3.78272 1.71138 1.56284
-3.7938 1.71424 1.55288
-3.7949 1.71103 1.53894
-3.80309 1.70967 1.51402
-3.81218 1.71051 1.50307
-3.80525 1.70636 1.49308
-3.8223 1.71127 1.48613
-3.82739 1.71109 1.47417
-3.8285 1.70889 1.46021
-3.83559 1.70971 1.44825
-3.84267 1.70956 1.4373
-3.84677 1.70937 1.42434
-3.85186 1.70919 1.41238
-3.85989 1.71114 1.40841
-3.85701 1.7069 1.39245
-3.86509 1.70876 1.38248
-3.87417 1.7096 1.37153
-3.88126 1.71043 1.35957
-3.88236 1.70824 1.34661
-3.88446 1.70703 1.33264
-3.8885 1.70796 1.32766
-3.8936 1.70777 1.3147
-3.8937 1.70456 1.30074
-3.89879 1.70439 1.28878
-3.90588 1.70522 1.27682
-3.91397 1.70706 1.26586
-3.91407 1.70385 1.2519
-3.91612 1.70377 1.24592
-3.93129 1.70644 1.22299
-3.9324 1.70423 1.20903
-3.93849 1.70506 1.19706
-3.94557 1.7059 1.1861
-3.95182 1.70241 1.15319
-3.964 1.70407 1.12926
-3.96909 1.70389 1.1173
-3.97019 1.70169 1.10334
-3.97429 1.7015 1.09037
-3.97334 1.70039 1.08338
-3.97744 1.7002 1.07041
-3.98353 1.70003 1.05845
-3.98275 1.69562 1.03051
-3.99581 1.69949 1.02155
-3.99493 1.69727 1.00657
-3.99996 1.6992 1.00158
-4.00804 1.70004 0.99063
-4.00815 1.69884 0.976647
-4.00926 1.69663 0.962686
-4.01435 1.69745 0.95071
-4.02044 1.69828 0.938742
-4.02962 1.69792 0.913813
-4.03377 1.69764 0.894846
-4.02689 1.6924 0.87887
-4.04295 1.69728 0.869917
-4.04306 1.69607 0.855934
-4.04826 1.69469 0.82999
-4.05429 1.69662 0.825006
-4.05949 1.69524 0.799062
-4.06978 1.69468 0.761143
-4.07203 1.69118 0.727207
-4.07534 1.68759 0.687279
-4.08343 1.68942 0.675311
-4.08059 1.68611 0.654336
-4.09187 1.68655 0.616409
-4.09995 1.68839 0.605442
-4.09417 1.68398 0.577459
-4.10425 1.6868 0.565492
-4.10641 1.68551 0.545525
-4.1135 1.68734 0.533549
-4.11968 1.68697 0.508598
-4.12293 1.68549 0.47564
-4.13353 1.68232 0.396756
-4.13557 1.68324 0.390757
-4.13478 1.68084 0.363782
-4.14087 1.68166 0.351814
-4.14621 1.67999 0.305873
-4.14232 1.67778 0.291875
-4.14043 1.67557 0.277891
-4.15151 1.67941 0.266916
-4.14362 1.67518 0.251917
-4.14572 1.67499 0.238934
-4.15681 1.67882 0.226959
-4.14892 1.67461 0.21296
-4.14796 1.67452 0.206954
-4.15716 1.67614 0.180995
-4.15826 1.67595 0.168005
-4.16135 1.67676 0.155014
-4.15546 1.67355 0.141015
-4.1635 1.67648 0.136032
-4.1587 1.67308 0.109042
-4.1598 1.67289 0.0960516
-4.1619 1.6727 0.0830685
-4.16799 1.67451 0.0700858
-4.16724 1.67202 0.0371124
-4.17054 1.67144 -0.0018596
3.17578 1.80812 7.57482
3.15696 1.81249 7.5989
3.13406 1.8137 7.61205
3.06148 1.80775 7.00461
2.95844 1.78286 6.60269
2.9485 1.78398 6.61075
2.60523 1.80859 6.84001
2.58229 1.80873 6.84818
2.48156 1.80932 6.88393
2.38187 1.812 6.92565
2.31407 1.81343 6.95214
2.23732 1.81596 6.98469
2.14656 1.8185 7.01734
1.64176 1.82818 7.17702
2.93402 1.77612 6.28193
2.92326 1.78259 6.31292
2.92246 1.78899 6.33984
2.89848 1.78703 6.34205
2.88263 1.79034 6.36212
2.77108 1.7943 6.42191
2.75423 1.79759 6.44099
2.71236 1.79787 6.45831
2.67051 1.7992 6.4786
2.65443 1.79506 6.46879
2.63452 1.79624 6.47992
2.61052 1.79427 6.48113
2.59163 1.79649 6.49524
2.56866 1.79557 6.49943
2.54876 1.79678 6.51256
2.52885 1.79797 6.5247
2.51788 1.79804 6.52878
2.49388 1.79605 6.52899
2.47193 1.79616 6.53515
2.45611 1.80052 6.55921
2.43211 1.79854 6.55942
2.41731 1.80394 6.58546
2.39536 1.80406 6.59262
2.38439 1.80412 6.5967
2.36039 1.80214 6.59691
2.33843 1.80223 6.60208
2.31445 1.80028 6.60429
2.29555 1.8025 6.6184
2.2726 1.80261 6.62457
2.25269 1.8038 6.63671
2.24273 1.80488 6.64177
2.182 1.80946 6.67816
2.13709 1.80865 6.68951
2.06232 1.81215 6.72003
2.01842 1.81239 6.73436
1.9975 1.81355 6.7445
1.97555 1.81366 6.75066
1.96355 1.81368 6.75175
1.87577 1.81516 6.7804
1.81986 1.81438 6.79283
1.79893 1.81553 6.80197
1.753 1.81569 6.81132
1.68715 1.81704 6.8318
1.67721 1.81816 6.83986
1.6323 1.81937 6.85218
1.61036 1.81949 6.85934
1.56541 1.81963 6.86668
1.54347 1.81975 6.87385
1.4876 1.82204 6.89124
1.44165 1.82118 6.8986
1.36381 1.82355 6.92015
1.31889 1.82373 6.93049
1.17215 1.82734 6.96554
1.12724 1.82855 6.97787
2.88193 1.77704 6.00427
2.06884 1.80327 6.39107
2.82908 1.76645 5.7598
2.82134 1.77495 5.79273
2.80546 1.7772 5.80882
2.7965 1.77729 5.81489
2.77656 1.77741 5.82204
2.75456 1.77544 5.82323
2.73869 1.77769 5.83932
2.71569 1.77572 5.84052
2.69981 1.77797 5.85661
2.68089 1.77813 5.86675
2.67701 1.78237 5.88272
2.65504 1.78043 5.88592
2.63306 1.77949 5.8891
2.61515 1.78068 5.90122
2.59623 1.78084 5.91136
2.57729 1.78199 5.92048
2.55326 1.77795 5.91673
2.54431 1.77904 5.92278
2.52234 1.77812 5.92696
2.50442 1.77929 5.93808
2.48754 1.78153 5.95317
2.4686 1.78166 5.96131
2.44151 1.77552 5.95061
2.4236 1.77769 5.96171
2.41261 1.77673 5.96381
2.39267 1.77687 5.97196
2.37477 1.77906 5.98406
2.35786 1.78026 5.99717
2.33691 1.78036 6.00333
2.31899 1.78153 6.01345
2.30007 1.7827 6.02458
2.28909 1.78174 6.02667
2.27116 1.7829 6.03679
2.25326 1.78511 6.0499
2.23025 1.78311 6.0491
2.21644 1.78847 6.07313
2.19241 1.78545 6.07035
2.17041 1.78346 6.07055
2.16352 1.78667 6.08456
2.14357 1.78679 6.0917
2.12158 1.78482 6.0929
2.10469 1.78804 6.10698
2.08168 1.78505 6.1062
2.06787 1.79141 6.13021
2.04692 1.79153 6.13737
2.03489 1.78948 6.13349
2.01495 1.78961 6.14164
1.99806 1.79285 6.15672
1.97608 1.79189 6.1589
1.95716 1.79305 6.16903
1.93517 1.7921 6.17121
1.91522 1.7922 6.17736
1.90831 1.79539 6.18936
1.88837 1.79552 6.19751
1.86535 1.79351 6.19572
1.84746 1.79573 6.20982
1.82648 1.79579 6.21298
1.80654 1.79592 6.22113
1.7866 1.79704 6.22826
1.77561 1.79606 6.22936
1.75361 1.79508 6.22954
1.73471 1.79728 6.24265
1.71373 1.79634 6.24582
1.69275 1.7964 6.24898
1.67488 1.79967 6.26607
1.65289 1.7987 6.26725
1.64085 1.79663 6.26237
1.62194 1.79781 6.2735
1.60406 1.80106 6.28959
1.57792 1.79481 6.27187
1.55697 1.79593 6.27902
1.54113 1.80025 6.30007
1.51914 1.79928 6.30125
1.50815 1.79931 6.30234
1.4882 1.79941 6.30849
1.46827 1.80157 6.3186
1.4473 1.80063 6.32178
1.42737 1.80279 6.3319
1.40743 1.80393 6.34003
1.38853 1.80612 6.35214
1.37443 1.80194 6.33931
1.35449 1.80307 6.34744
1.3335 1.80211 6.34962
1.31356 1.80425 6.35774
1.29158 1.80329 6.35992
1.27165 1.80544 6.36904
1.24962 1.8024 6.36525
1.2376 1.80136 6.36235
1.21973 1.80564 6.38043
1.19771 1.80361 6.37762
1.17673 1.80367 6.38078
1.15473 1.80269 6.38096
1.13376 1.80275 6.38412
1.11489 1.80701 6.4012
1.10494 1.80812 6.40826
1.0829 1.80605 6.40245
1.05985 1.80298 6.39667
1.03889 1.80307 6.40183
1.01896 1.80522 6.41095
1.00008 1.80947 6.42703
0.977004 1.80534 6.41726
0.965997 1.80533 6.41635
0.946081 1.80751 6.42747
0.92722 1.81179 6.44555
0.906282 1.81392 6.45367
0.883197 1.80977 6.44291
0.861151 1.8067 6.43712
0.843359 1.81411 6.46415
0.830267 1.80994 6.45231
0.809251 1.80893 6.45048
0.78936 1.81315 6.46457
0.767337 1.81112 6.46176
0.746352 1.81117 6.46392
0.725399 1.81227 6.47006
0.703384 1.81126 6.46825
0.694484 1.81446 6.48127
0.671407 1.81133 6.47149
0.650423 1.81137 6.47364
0.631616 1.81776 6.49869
0.608524 1.81459 6.48691
0.58754 1.81464 6.48907
0.566586 1.81574 6.49521
0.555563 1.81471 6.49231
0.534633 1.81686 6.50144
0.512656 1.81692 6.5046
0.491626 1.81587 6.50078
0.469634 1.8159 6.50194
0.449796 1.82123 6.52302
0.427704 1.81707 6.51124
0.417765 1.81919 6.51929
0.395712 1.8171 6.51248
0.374828 1.82134 6.52758
0.352698 1.81611 6.51082
0.331798 1.81931 6.52393
0.310876 1.82248 6.53404
0.288814 1.81937 6.52626
0.277846 1.82144 6.53031
0.256893 1.82255 6.53645
0.234855 1.82149 6.53163
0.191925 1.82365 6.54092
0.0341893 1.82035 6.31113
2.78417 1.75674 5.50724
2.77947 1.76732 5.54613
2.76255 1.76748 5.55625
2.74463 1.76864 5.56637
2.7328 1.77299 5.5894
2.70591 1.77422 5.60359
2.68697 1.77435 5.61173
2.64705 1.77254 5.62306
2.61425 1.77595 5.64926
2.60428 1.77602 5.65333
2.58229 1.77405 5.65453
2.57251 1.78048 5.68351
2.54949 1.77746 5.68073
2.52545 1.7734 5.67597
2.51161 1.77772 5.69701
2.48755 1.77364 5.69025
2.47757 1.77267 5.69234
2.46067 1.77488 5.70544
2.44173 1.77501 5.71358
2.42074 1.77305 5.71577
2.40283 1.77423 5.72689
2.38081 1.77122 5.7251
2.36595 1.77549 5.74315
2.36108 1.77975 5.76012
2.33601 1.77463 5.75139
2.31809 1.77579 5.76151
2.30222 1.77806 5.7786
2.2802 1.77604 5.77679
2.26331 1.77826 5.79089
2.25048 1.78361 5.81391
2.22928 1.77323 5.78722
2.21135 1.77539 5.79732
2.19344 1.77657 5.80844
2.1755 1.7767 5.81658
2.16269 1.78308 5.84158
2.14684 1.78737 5.86064
2.12074 1.7812 5.84793
2.10767 1.77709 5.84008
2.0959 1.78453 5.86907
2.06774 1.77625 5.8494
2.05392 1.7816 5.87243
2.03806 1.78588 5.89049
2.01193 1.77866 5.87479
1.99505 1.7819 5.88987
1.98404 1.77989 5.88898
1.96203 1.77789 5.88818
1.94718 1.78218 5.90723
1.93544 1.79169 5.94118
1.90417 1.7782 5.90661
1.88935 1.78456 5.93063
1.8704 1.78467 5.93677
1.85941 1.78369 5.93787
1.84251 1.78689 5.95095
1.82562 1.78913 5.96605
1.80052 1.78396 5.95331
1.78159 1.7851 5.96244
1.76264 1.78522 5.96958
1.74269 1.78532 5.97573
1.7327 1.78536 5.97781
1.71582 1.78859 5.99289
1.69584 1.78865 5.99604
1.67383 1.78564 5.99425
1.6549 1.78779 6.00336
1.63288 1.78477 6.00157
1.61393 1.78588 6.0077
1.60602 1.78906 6.01971
1.58399 1.78602 6.01592
1.56711 1.78926 6.032
1.54507 1.78621 6.02721
1.52511 1.7863 6.03236
1.50516 1.7874 6.0385
1.48519 1.78749 6.04365
1.47728 1.79066 6.05466
1.45629 1.78969 6.05584
1.43425 1.78663 6.05105
1.41428 1.7867 6.0552
1.39533 1.78682 6.06234
1.3764 1.78897 6.07145
1.35539 1.78697 6.07064
1.34541 1.787 6.07271
1.32752 1.79124 6.08779
1.30655 1.7903 6.09096
1.28553 1.78928 6.08913
1.2666 1.79043 6.09826
1.24665 1.79153 6.10439
1.22669 1.79164 6.11054
1.21668 1.79062 6.10863
1.19466 1.7896 6.10681
1.17575 1.79178 6.11793
1.15682 1.79293 6.12705
1.11582 1.79197 6.12838
1.09481 1.78996 6.12656
1.08379 1.78893 6.12466
1.06489 1.79213 6.13676
1.04389 1.79114 6.13693
1.00499 1.79338 6.15119
0.98501 1.79342 6.15334
0.964025 1.79247 6.15552
0.955079 1.79458 6.16255
0.933025 1.79149 6.15576
0.894172 1.7958 6.175
0.873149 1.79377 6.17218
0.853226 1.79693 6.18229
0.833257 1.797 6.18644
0.825419 1.80332 6.20741
0.803304 1.79812 6.19265
0.783396 1.80131 6.20475
0.763396 1.80032 6.20492
0.742381 1.79931 6.20309
0.722474 1.8025 6.2152
0.702505 1.80257 6.21935
0.691482 1.80154 6.21644
0.671513 1.80261 6.22058
0.650459 1.79952 6.21378
0.63056 1.80273 6.22689
0.609529 1.80169 6.22306
0.589576 1.80279 6.22919
0.56963 1.80391 6.23633
0.560769 1.80918 6.25432
0.538638 1.80394 6.23756
0.518708 1.80609 6.24668
0.497685 1.80506 6.24385
0.476716 1.80514 6.24801
0.45677 1.80726 6.25513
0.435748 1.80623 6.25231
0.425679 1.8031 6.24343
0.405825 1.8084 6.2625
0.384849 1.80946 6.26564
0.364895 1.81056 6.27178
0.34385 1.80849 6.26597
0.322897 1.81059 6.27209
0.302966 1.81274 6.28121
0.292967 1.81274 6.28129
0.271944 1.81172 6.27846
0.250999 1.81383 6.28559
0.229937 1.81073 6.27779
0.209961 1.81179 6.28093
0.189054 1.81498 6.29304
0.168 1.81289 6.28623
0.157923 1.80975 6.27635
0.137032 1.81398 6.29045
0.117063 1.81505 6.29458
0.096126 1.81818 6.30269
0.0751417 1.81823 6.30485
0.0542195 1.82139 6.31496
0.0340146 1.81904 6.15513
0.0130152 1.81905 6.15529
-0.00709217 1.81486 6.1415
-0.0270452 1.81696 6.14762
-0.0369984 1.81906 6.15366
-0.0580292 1.81701 6.14985
-0.119011 1.81909 6.15228
2.741 1.75346 5.3516
2.73829 1.76403 5.38946
2.72138 1.76522 5.40158
2.68773 1.77391 5.44671
2.63493 1.77533 5.47309
2.61191 1.77132 5.47132
2.60294 1.77138 5.47539
2.58196 1.76944 5.47857
2.56402 1.76957 5.48671
2.54812 1.77178 5.4998
2.52815 1.77085 5.50396
2.51023 1.77201 5.51408
2.49433 1.77322 5.52719
2.48026 1.76909 5.51835
2.46233 1.77025 5.52847
2.44949 1.77456 5.54851
2.42238 1.76737 5.53482
2.40649 1.76959 5.5489
2.3916 1.77282 5.56397
2.3696 1.76984 5.56418
2.35961 1.76988 5.56626
2.34472 1.7721 5.58034
2.32272 1.77011 5.58053
2.30479 1.77026 5.58967
2.28786 1.7714 5.59878
2.2679 1.77049 5.60394
2.24996 1.77164 5.61306
2.24916 1.77901 5.63796
2.21795 1.76763 5.61136
2.20616 1.77404 5.63836
2.19026 1.77626 5.65245
2.16722 1.7732 5.64767
2.15132 1.77541 5.66076
2.1334 1.77657 5.67088
2.12034 1.77246 5.66303
2.10446 1.77571 5.67911
2.08347 1.77474 5.68028
2.06656 1.77593 5.69239
2.04452 1.77287 5.6876
2.02658 1.773 5.69574
2.01071 1.77726 5.71279
2.00174 1.77731 5.71586
1.97973 1.77532 5.71506
1.96282 1.77651 5.72717
1.94487 1.77762 5.73429
1.92491 1.77671 5.73945
1.90595 1.7768 5.7446
1.89213 1.78215 5.76762
1.88316 1.78321 5.77168
1.86112 1.78016 5.76689
1.84012 1.77817 5.76707
1.82221 1.78036 5.77918
1.8053 1.78255 5.79127
1.78738 1.78371 5.80139
1.76535 1.78067 5.7976
1.75945 1.78488 5.81159
1.73844 1.78187 5.80979
1.71538 1.77777 5.80202
1.7026 1.7862 5.831
1.68055 1.78213 5.82523
1.66058 1.78221 5.82938
1.63958 1.78021 5.82856
1.63371 1.78546 5.84553
1.61371 1.78348 5.84571
1.59477 1.78461 5.85384
1.57375 1.7826 5.85203
1.55686 1.78581 5.86611
1.53277 1.77965 5.85438
1.51483 1.78179 5.86248
1.50484 1.78081 5.86357
1.48694 1.78403 5.87766
1.46797 1.7841 5.88181
1.42801 1.7832 5.88712
1.40904 1.78328 5.89126
1.38702 1.78025 5.88847
1.37702 1.78026 5.88855
1.35908 1.78139 5.89667
1.33913 1.78249 5.9028
1.32017 1.78259 5.90895
1.30122 1.7837 5.91507
1.28226 1.7838 5.92121
1.26226 1.78281 5.92138
1.2523 1.78388 5.92544
1.23333 1.78395 5.92958
1.21336 1.78404 5.93473
1.17545 1.78523 5.946
1.15445 1.78425 5.94617
1.13655 1.78745 5.95926
1.1255 1.78537 5.95338
1.1076 1.78858 5.96647
1.08656 1.78552 5.96167
1.0466 1.78562 5.96697
0.979758 1.78897 5.98743
0.95875 1.78797 5.9866
0.920866 1.79022 6.00185
0.90192 1.79233 6.00897
0.881967 1.79344 6.0151
0.871951 1.79242 6.01319
0.853013 1.79355 6.02132
0.831959 1.79046 6.01452
0.812021 1.79259 6.02264
0.793044 1.79265 6.02578
0.773075 1.79372 6.02992
0.753122 1.79483 6.03605
0.743083 1.79276 6.03116
0.72526 1.79911 6.0542
0.704207 1.79703 6.04739
0.685299 1.79922 6.0595
0.664238 1.79711 6.05169
0.644238 1.79613 6.05186
0.62427 1.7972 6.05599
0.615316 1.7983 6.06204
0.595316 1.79831 6.06219
0.575417 1.80152 6.0753
0.555432 1.80156 6.07745
0.535464 1.80264 6.08158
0.515425 1.80058 6.07677
0.495472 1.80168 6.0829
0.485488 1.80272 6.08496
0.465488 1.80173 6.08512
0.445511 1.80279 6.08826
0.424442 1.79967 6.07946
0.405543 1.80288 6.09256
0.385505 1.80182 6.08773
0.365636 1.80609 6.10482
0.35449 1.79981 6.08599
0.33456 1.80296 6.09509
0.315622 1.80509 6.10321
0.295738 1.80933 6.1183
0.275708 1.80828 6.11446
0.254631 1.80415 6.10468
0.234677 1.80625 6.1108
0.224709 1.80732 6.11486
0.204717 1.80735 6.11601
0.184671 1.80628 6.11018
0.164725 1.80739 6.11731
0.144742 1.80844 6.11945
0.124819 1.8116 6.12955
0.103881 1.81373 6.13768
0.0937738 1.80954 6.12382
0.073898 1.81479 6.13989
0.0538986 1.8148 6.14004
0.028093 1.81426 5.90021
0.00809356 1.81428 5.90036
-0.0110138 1.81009 5.88656
-0.0299436 1.81323 5.89566
-0.0599271 1.81428 5.89787
2.71211 1.75277 5.10079
2.70618 1.7549 5.1098
2.69027 1.75609 5.12191
2.46338 1.7694 5.26844
2.43052 1.77071 5.28767
2.41461 1.7729 5.29976
2.39462 1.77093 5.30094
2.38769 1.77307 5.30996
2.36566 1.76902 5.30619
2.3528 1.7733 5.32422
2.3267 1.76614 5.31252
2.31996 1.77565 5.34644
2.29182 1.7674 5.32877
2.28305 1.77484 5.35773
2.27305 1.77384 5.35782
2.25918 1.77711 5.37488
2.23614 1.77305 5.37011
2.22225 1.77628 5.38517
2.19717 1.77014 5.37445
2.18433 1.77546 5.39547
2.1623 1.77141 5.3917
2.15741 1.77564 5.40667
2.14047 1.77577 5.4148
2.12457 1.77796 5.42689
2.10152 1.77389 5.42112
2.08662 1.77609 5.4342
2.06663 1.77512 5.43537
2.04176 1.77739 5.45252
2.00892 1.78074 5.47472
1.97202 1.78094 5.487
1.95405 1.78002 5.49115
1.93407 1.77908 5.49432
1.92918 1.7833 5.50929
1.90816 1.78027 5.50649
1.89124 1.78245 5.51759
1.85228 1.78055 5.52291
1.8174 1.78181 5.53916
1.7915 1.78401 5.55132
1.77357 1.78515 5.56044
1.75254 1.78213 5.55765
1.71665 1.78336 5.5719
1.69767 1.78242 5.57506
1.68973 1.78453 5.58209
1.67075 1.78358 5.58524
1.63486 1.78482 5.5995
1.61589 1.78491 5.60464
1.60104 1.7902 5.62368
1.58102 1.78818 5.62186
1.5731 1.79034 5.63189
1.55102 1.78521 5.62213
1.53308 1.78634 5.63025
1.51306 1.78431 5.62743
1.5003 1.79277 5.6584
1.47822 1.78864 5.64863
1.45821 1.78663 5.64681
1.44925 1.78772 5.65286
1.43233 1.78988 5.66296
1.40922 1.78369 5.64922
1.39647 1.79318 5.68118
1.37127 1.78282 5.65652
1.35645 1.78918 5.67954
1.33541 1.7861 5.67375
1.32851 1.79031 5.68774
1.30745 1.78621 5.67996
1.29054 1.7894 5.69204
1.2695 1.78633 5.68624
1.25156 1.78746 5.69436
1.23569 1.79172 5.71142
1.21567 1.78971 5.7096
1.20361 1.7866 5.70174
1.18983 1.79502 5.72972
1.16564 1.78569 5.70604
1.14874 1.78889 5.71912
1.13083 1.79107 5.73022
1.11081 1.79004 5.72739
1.08973 1.7849 5.71762
1.08391 1.79225 5.74056
1.06283 1.78812 5.73078
1.04703 1.79551 5.75679
1.02595 1.79138 5.74701
1.00696 1.79041 5.74817
0.986921 1.78835 5.74335
0.972153 1.7968 5.77334
0.958983 1.78949 5.75154
0.942137 1.79479 5.77159
0.922091 1.79172 5.76579
0.902106 1.79176 5.76794
0.884161 1.79388 5.77504
0.867308 1.79917 5.7941
0.844122 1.79084 5.77039
0.837284 1.79615 5.79137
0.818285 1.79617 5.79151
0.799331 1.79727 5.79764
0.778246 1.79312 5.78686
0.76247 1.80156 5.81585
0.740301 1.79425 5.79413
0.722393 1.79644 5.80623
0.713439 1.79854 5.81227
0.695548 1.80276 5.82634
0.674401 1.79549 5.80761
0.636502 1.79871 5.82085
0.617533 1.79979 5.82497
0.59968 1.80508 5.84403
0.587495 1.79673 5.82024
0.569565 1.79988 5.82933
0.549565 1.79889 5.8295
0.532766 1.80729 5.8555
0.511588 1.79897 5.83278
0.491543 1.79689 5.82696
0.472612 1.79904 5.83608
0.463674 1.80216 5.8441
0.424636 1.79912 5.83944
0.405752 1.80335 5.85452
0.386745 1.80335 5.85366
0.366676 1.80024 5.84486
0.348892 1.80866 5.87287
0.337762 1.80342 5.85603
0.319916 1.80973 5.87607
0.299808 1.80453 5.8623
0.280855 1.80664 5.86841
0.260864 1.80667 5.86956
0.240694 1.79936 5.84782
0.222949 1.80986 5.8808
0.211803 1.80358 5.86198
0.192958 1.80989 5.88203
0.174004 1.811 5.88816
0.155005 1.81101 5.8883
0.134874 1.80577 5.87153
0.116029 1.81208 5.89158
0.095968 1.80998 5.88376
0.0860141 1.81107 5.88982
0.0669839 1.81003 5.88598
0.0469694 1.81001 5.88413
2.69341 1.74645 4.87599
2.68559 1.75179 4.89897
1.47971 1.78766 5.4476
1.18232 1.79307 5.52978
1.12636 1.79118 5.53523
0.906748 1.79708 5.5868
0.860802 1.79722 5.59415
0.822778 1.7942 5.59148
0.721979 1.79866 5.61817
0.665996 1.79773 5.62061
0.565182 1.80216 5.64531
0.518221 1.80327 5.65065
0.499237 1.80331 5.65279
0.481245 1.80334 5.65392
0.462245 1.80235 5.65408
0.424246 1.80238 5.65437
0.199451 1.80793 5.68198
0.0377026 1.79561 5.45135
0.0198192 1.80085 5.46641
0.000881835 1.80398 5.47451
-0.0171641 1.8019 5.46867
-0.0351636 1.80191 5.46881
-0.0621396 1.80298 5.472
-0.0801002 1.80507 5.4771
-0.0990996 1.80508 5.47725
-0.117091 1.80611 5.47837
-0.153067 1.80718 5.48162
-0.181089 1.80615 5.47885
2.63889 1.74248 4.67343
2.55558 1.75889 4.76483
2.53862 1.75697 4.76999
2.52369 1.75812 4.77908
2.5137 1.75714 4.78017
2.49979 1.75934 4.79325
2.48181 1.75739 4.79541
2.46892 1.75962 4.81048
2.45095 1.75869 4.81463
2.43704 1.75986 4.82572
2.42008 1.75996 4.83185
2.41211 1.76003 4.8359
2.3911 1.75602 4.83412
2.3782 1.75822 4.84719
2.36023 1.75729 4.85134
2.34328 1.75741 4.85847
2.32835 1.75855 4.86756
2.31546 1.76077 4.88163
2.30649 1.76083 4.8857
2.28749 1.75885 4.88587
2.27358 1.76103 4.89794
2.25458 1.75805 4.89813
2.24068 1.76126 4.91219
2.2217 1.75931 4.91436
2.21187 1.76466 4.93736
2.19676 1.75845 4.92256
2.18285 1.76063 4.93464
2.16997 1.76388 4.95069
2.14997 1.76189 4.95087
2.12995 1.75786 4.94808
2.114 1.75798 4.9552
2.09909 1.76017 4.96728
2.09316 1.76229 4.97529
2.07823 1.76345 4.98539
2.05822 1.76043 4.98358
2.0433 1.76261 4.99467
2.03146 1.76793 5.01568
2.00736 1.76075 5.00297
1.99344 1.76293 5.01404
1.98651 1.76505 5.02206
1.96956 1.76516 5.02919
1.95464 1.76734 5.04027
1.94074 1.76954 5.05335
1.92072 1.76651 5.05054
1.90683 1.76974 5.0656
1.88988 1.76984 5.07173
1.87883 1.76676 5.06585
1.86495 1.77 5.08091
1.85207 1.77424 5.09695
1.82899 1.7691 5.0862
1.81305 1.76923 5.09432
1.8002 1.77453 5.11434
1.77915 1.77044 5.10756
1.77014 1.76943 5.10664
1.75728 1.77371 5.12468
1.74033 1.77483 5.13179
1.71825 1.76868 5.12104
1.7054 1.77399 5.14106
1.68638 1.77097 5.13925
1.66839 1.77 5.1404
1.66351 1.77524 5.15636
1.64349 1.77221 5.15356
1.62549 1.77022 5.15372
1.61058 1.77341 5.16579
1.58954 1.76934 5.16001
1.57463 1.77153 5.17209
1.55972 1.77471 5.18416
1.54663 1.76955 5.17233
1.53172 1.77173 5.18441
1.5158 1.77389 5.1945
1.49575 1.77082 5.1887
1.47879 1.77091 5.19382
1.46389 1.77411 5.20689
1.44281 1.76898 5.19712
1.43384 1.76904 5.20119
1.41997 1.7743 5.21822
1.39992 1.77022 5.21143
1.38297 1.77133 5.21854
1.36806 1.7735 5.22963
1.34699 1.76939 5.22084
1.33209 1.7726 5.23491
1.32518 1.77577 5.24592
1.30614 1.77271 5.24111
1.28919 1.77383 5.24822
1.2733 1.77705 5.26229
1.25322 1.7719 5.25152
1.2373 1.77507 5.26259
1.22036 1.77619 5.2697
1.21134 1.77517 5.26779
1.19337 1.77524 5.27192
1.17744 1.77738 5.28101
1.15532 1.77018 5.26628
1.14147 1.77547 5.28531
1.12351 1.77656 5.29043
1.1055 1.77555 5.28958
1.09858 1.77771 5.2996
1.07957 1.77671 5.29876
1.06157 1.77572 5.29891
1.04359 1.77578 5.30205
1.0287 1.779 5.31611
1.00759 1.7738 5.30235
0.991694 1.77701 5.31542
0.983717 1.77806 5.31847
0.965755 1.77814 5.3236
0.947732 1.77611 5.32077
0.928724 1.77511 5.31992
0.911778 1.77623 5.32704
0.895871 1.77942 5.33911
0.877902 1.78049 5.34323
0.868871 1.77844 5.33933
0.851979 1.78266 5.35339
0.83394 1.7796 5.34858
0.814886 1.77651 5.34176
0.795863 1.77448 5.33894
0.779995 1.77974 5.35598
0.763057 1.78187 5.36408
0.75408 1.78292 5.36713
0.736088 1.78195 5.36828
0.719158 1.78509 5.37736
0.701119 1.78203 5.37254
0.683173 1.78415 5.37965
0.666219 1.78525 5.38576
0.647165 1.78216 5.37895
0.639274 1.78737 5.39293
0.621228 1.7843 5.38711
0.603259 1.78537 5.39123
0.585244 1.78435 5.38938
0.568344 1.78756 5.40247
0.55036 1.7876 5.4046
0.532399 1.78969 5.40971
0.522314 1.78553 5.39884
0.506492 1.79288 5.42186
0.488454 1.79082 5.41702
0.469438 1.78981 5.41518
0.451431 1.78881 5.41433
0.434501 1.79195 5.42341
0.415439 1.78785 5.41562
0.407517 1.792 5.42561
0.389525 1.79203 5.42675
0.370494 1.78998 5.42292
0.353541 1.79208 5.42902
0.335549 1.79211 5.43016
0.316511 1.79005 5.42533
0.29958 1.7922 5.43443
0.290643 1.79532 5.44245
0.271573 1.7922 5.43364
0.253582 1.79223 5.43477
0.236713 1.7975 5.45182
0.217574 1.79124 5.43406
0.200683 1.79546 5.44812
0.181668 1.79545 5.44627
0.17373 1.79757 5.4543
0.155777 1.79967 5.4604
0.136816 1.80076 5.46553
0.1187 1.79555 5.45074
0.100747 1.79765 5.45685
0.0828023 1.80077 5.46394
0.064779 1.79874 5.4611
0.0558181 1.80082 5.46614
0.0263186 1.78391 5.26858
0.00827271 1.78183 5.26275
-0.0176105 1.78707 5.27787
-0.035625 1.78706 5.27601
-0.0526559 1.78501 5.27216
-0.0706861 1.78397 5.26831
-0.0876003 1.78814 5.27938
-0.105631 1.78709 5.27553
-0.114576 1.7892 5.28257
-0.131591 1.78919 5.2807
-0.149498 1.79338 5.29277
-0.167442 1.79649 5.29986
-0.185434 1.79652 5.301
-0.202449 1.7965 5.29913
-0.220379 1.79965 5.30822
-0.229417 1.79858 5.3033
-0.247362 1.8007 5.3104
-0.265369 1.8007 5.30954
-0.300368 1.80172 5.30979
-0.31832 1.80482 5.31588
-0.380303 1.8059 5.31833
2.62273 1.74321 4.51952
2.6088 1.74437 4.52961
2.56719 1.75414 4.57979
2.49543 1.75267 4.61235
2.47846 1.75174 4.6165
2.46352 1.75187 4.62461
2.44859 1.75301 4.63371
2.42858 1.74901 4.63292
2.41466 1.75118 4.64399
2.39668 1.74923 4.64615
2.39175 1.75136 4.65516
2.35782 1.74954 4.66545
2.34188 1.74965 4.67256
2.32389 1.7477 4.67473
2.31301 1.75094 4.69077
2.293 1.74793 4.68896
2.28707 1.75006 4.69798
2.27416 1.75225 4.71004
2.25617 1.75029 4.71221
2.24124 1.75044 4.72132
2.22632 1.7526 4.7314
2.21035 1.75168 4.73653
2.19441 1.7518 4.74365
2.19153 1.75704 4.7596
2.16846 1.75092 4.75086
2.15658 1.75415 4.76591
2.13859 1.75219 4.76807
2.12367 1.75335 4.77817
2.10262 1.74928 4.77239
2.09175 1.75354 4.78941
2.09092 1.76086 4.81131
2.06376 1.74957 4.79068
2.04883 1.75173 4.80076
2.0349 1.75288 4.80985
2.01387 1.74883 4.80607
2.00302 1.75412 4.82507
1.98605 1.75319 4.82922
1.9791 1.7543 4.83625
1.96518 1.75647 4.84733
1.9482 1.75552 4.84947
1.93125 1.75562 4.8556
1.91835 1.75882 4.86865
1.89934 1.75582 4.86783
1.88136 1.75488 4.87098
1.87849 1.76013 4.88793
1.85947 1.7571 4.88512
1.84249 1.75616 4.88826
1.83167 1.76252 4.91225
1.8106 1.7574 4.90348
1.79466 1.75853 4.91159
1.78997 1.77111 4.95044
1.76766 1.75554 4.91084
1.75274 1.75771 4.92192
1.73883 1.7599 4.93399
1.71881 1.75687 4.93119
1.71513 1.77048 4.97202
1.68792 1.7581 4.9454
1.67197 1.75921 4.95251
1.664 1.76028 4.95655
1.64805 1.76039 4.96367
1.62802 1.75735 4.95987
1.61001 1.75535 4.95903
1.59405 1.75543 4.96415
1.58018 1.75968 4.9802
1.56217 1.75768 4.97936
1.55521 1.75877 4.9854
1.53825 1.75886 4.99053
1.50532 1.75901 4.99977
1.4714 1.75919 5.01003
1.45646 1.76132 5.01811
1.44747 1.76135 5.02018
1.42845 1.75832 5.01737
1.41353 1.76048 5.02745
1.3626 1.75965 5.03684
1.34076 1.76498 5.05793
1.3217 1.76089 5.05114
1.28982 1.76313 5.06635
1.27079 1.7611 5.06352
1.21293 1.76341 5.08192
1.16202 1.76361 5.09331
1.12807 1.76374 5.10056
0.963549 1.77478 5.16364
0.947658 1.779 5.1777
0.908464 1.76865 5.15315
0.852758 1.77826 5.19143
0.830557 1.76889 5.16573
0.791781 1.77635 5.19492
0.737719 1.77127 5.1874
0.722889 1.7786 5.20941
0.704866 1.77657 5.20657
0.688936 1.77972 5.21565
0.676773 1.77142 5.19486
0.661921 1.77771 5.21388
0.646006 1.78088 5.22495
0.610006 1.77991 5.22524
0.573929 1.77479 5.21559
0.565952 1.77584 5.21863
0.551154 1.78423 5.24462
0.53096 1.77488 5.21991
0.513991 1.77595 5.22402
0.498147 1.78326 5.24404
0.479015 1.77602 5.22729
0.453015 1.77504 5.2275
0.438271 1.78654 5.26044
0.42031 1.78862 5.26555
0.402233 1.78449 5.25574
0.385272 1.78557 5.26086
0.366079 1.77622 5.23613
0.349227 1.78351 5.25516
0.341219 1.7825 5.25423
0.324296 1.78566 5.26431
0.306289 1.78466 5.26346
0.272436 1.79097 5.28263
0.253298 1.78471 5.26486
0.23629 1.78371 5.26401
0.227376 1.78788 5.27501
0.210322 1.78479 5.26819
0.192314 1.78479 5.26732
0.15847 1.79111 5.28749
0.140424 1.78903 5.28165
0.122456 1.79111 5.28576
0.114432 1.78907 5.28285
0.0964484 1.79011 5.28497
0.0784646 1.79115 5.28709
0.0614337 1.78911 5.28325
0.0433338 1.78493 5.27044
0.0323772 1.79504 5.14236
0.0143081 1.79192 5.13354
-0.00259044 1.79712 5.14659
-0.0197531 1.78883 5.12584
-0.0367137 1.79091 5.13094
-0.053744 1.78986 5.12708
-0.0706425 1.79507 5.14013
-0.0796579 1.79405 5.13822
-0.0966574 1.79406 5.13834
-0.113649 1.79509 5.13946
-0.130609 1.79717 5.14455
-0.147625 1.79615 5.1427
-0.164616 1.79718 5.14381
-0.182592 1.79824 5.14693
-0.190608 1.79722 5.145
-0.208583 1.79927 5.14811
-0.242567 1.80033 5.15035
2.59328 1.73339 4.32786
2.07175 1.76157 4.65542
1.99994 1.76099 4.68097
1.98602 1.76316 4.69205
1.94715 1.76444 4.70932
1.9142 1.76256 4.7156
1.90029 1.76474 4.72768
1.8694 1.76599 4.74289
1.85937 1.76294 4.73901
1.74275 1.76676 4.78984
1.72475 1.76577 4.78999
1.67996 1.76921 4.81728
1.63903 1.76837 4.8266
1.58911 1.76757 4.83799
1.57416 1.76768 4.84511
1.55926 1.77087 4.85717
1.5492 1.76778 4.85029
1.51832 1.77002 4.86549
1.50238 1.77115 4.8736
1.48743 1.77226 4.8807
1.47148 1.77236 4.88682
1.45244 1.7693 4.882
1.44446 1.76935 4.88506
1.42852 1.77048 4.89317
1.41254 1.77053 4.89529
1.39763 1.77271 4.90737
1.37961 1.77068 4.90454
1.36262 1.76973 4.90668
1.34872 1.77293 4.91974
1.33973 1.77295 4.9208
1.32172 1.77093 4.91897
1.30575 1.771 4.92309
1.28979 1.7711 4.92921
1.27279 1.77012 4.92935
1.25584 1.77122 4.93546
1.24298 1.77649 4.95349
1.23292 1.7734 4.94661
1.21491 1.77138 4.94477
1.19897 1.77251 4.95288
1.18299 1.77257 4.956
1.16809 1.77577 4.96906
1.15212 1.77584 4.97318
1.13409 1.77379 4.96935
1.12611 1.77384 4.97241
1.10915 1.77493 4.97752
1.09215 1.77394 4.97766
1.07414 1.77193 4.97583
1.06025 1.77614 4.98987
1.04224 1.77416 4.99004
1.02731 1.77629 4.99812
1.01725 1.77319 4.99124
1.00028 1.77325 4.99437
0.984338 1.77538 5.00246
0.968391 1.77649 5.00956
0.950353 1.77443 5.00473
0.935422 1.77658 5.01381
0.918445 1.77663 5.01694
0.909422 1.7746 5.01403
0.892414 1.77359 5.01318
0.876507 1.77678 5.02525
0.861585 1.77994 5.03532
0.843545 1.77688 5.0305
0.826569 1.77694 5.03363
0.809569 1.77695 5.03375
0.801608 1.77803 5.0388
0.783554 1.77494 5.03198
0.767615 1.77707 5.04007
0.752739 1.78132 5.05612
0.734708 1.77927 5.05229
0.718801 1.78346 5.06435
0.701817 1.7835 5.06647
0.695925 1.78771 5.08046
0.675794 1.78148 5.0637
0.659809 1.78152 5.06582
0.642809 1.78053 5.06596
0.625887 1.78369 5.07604
0.608887 1.7827 5.07619
0.592941 1.78482 5.08328
0.584965 1.78587 5.08632
0.567988 1.78592 5.08945
0.549949 1.78386 5.08462
0.533988 1.78495 5.08972
0.516996 1.78498 5.09085
0.500058 1.78711 5.09895
0.483082 1.78816 5.10206
0.474012 1.78404 5.09319
0.456997 1.78302 5.09133
0.440074 1.78618 5.10141
0.424106 1.78725 5.10552
0.407114 1.78728 5.10664
0.389091 1.78625 5.10379
0.373192 1.79045 5.11685
0.364176 1.78943 5.11494
0.347154 1.7884 5.11208
0.330138 1.78638 5.11024
0.3132 1.78951 5.11832
0.296178 1.78848 5.11546
0.262132 1.78541 5.10976
0.25424 1.79063 5.12375
0.236171 1.78651 5.11494
0.220288 1.79274 5.12997
0.20221 1.7886 5.12017
0.18518 1.78656 5.11633
0.168219 1.78864 5.12143
0.151103 1.78243 5.10664
0.142181 1.78659 5.11665
0.126267 1.79076 5.12771
0.108243 1.78873 5.12488
0.0912826 1.79082 5.12997
0.0742756 1.79082 5.1291
0.0573765 1.79502 5.14217
0.0403305 1.79294 5.13633
0.0353889 1.7911 5.01137
0.0182576 1.78486 4.99459
-0.014594 1.79216 5.01374
-0.0235937 1.79217 5.0138
-0.0405857 1.7922 5.01493
-0.0566549 1.78907 5.0061
-0.0736155 1.79116 5.01119
-0.0905918 1.79222 5.01431
-0.10756 1.79429 5.0184
-0.123583 1.79326 5.01554
-0.131652 1.79013 5.00665
-0.199557 1.79536 5.01908
-0.232555 1.79638 5.01932
1.97304 1.76025 4.56217
1.90323 1.75967 4.58771
1.80658 1.76442 4.63437
1.6899 1.76613 4.67723
1.52039 1.7702 4.74246
1.48334 1.76412 4.73583
1.47249 1.77042 4.75582
1.39963 1.76974 4.77438
1.36871 1.77093 4.7856
1.36177 1.77304 4.79262
1.31284 1.77221 4.802
1.29791 1.77435 4.81108
1.27883 1.76822 4.80132
1.26597 1.77449 4.81932
1.25695 1.77247 4.81742
1.22707 1.77571 4.8326
1.19206 1.77272 4.83191
1.17711 1.77384 4.839
1.1622 1.77701 4.85007
1.1372 1.77504 4.85129
1.12125 1.77615 4.85739
1.07127 1.77321 4.85981
1.04627 1.77224 4.86102
1.03134 1.77439 4.8701
1.0133 1.77131 4.86428
0.99735 1.77243 4.87138
0.984481 1.77769 4.88841
0.967489 1.77772 4.88953
0.950488 1.77573 4.88969
0.922372 1.76953 4.87499
0.910581 1.77794 4.90196
0.892535 1.77486 4.89614
0.878651 1.78009 4.91117
0.860604 1.77602 4.90537
0.843619 1.77606 4.90749
0.820705 1.77924 4.91862
0.804767 1.78137 4.92671
0.786689 1.77623 4.91692
0.772821 1.78249 4.93394
0.754751 1.77837 4.92513
0.728704 1.7743 4.91939
0.714867 1.78163 4.94039
0.697836 1.77958 4.93654
0.681914 1.78274 4.94662
0.646813 1.77657 4.93397
0.624999 1.78394 4.95803
0.589922 1.77882 4.94837
0.555906 1.77682 4.94666
0.525093 1.78519 4.97077
0.516039 1.7821 4.96388
0.484101 1.78424 4.97209
0.467101 1.78325 4.97223
0.433001 1.77808 4.95956
0.418203 1.78748 4.98554
0.409102 1.78229 4.97268
0.375141 1.78339 4.97792
0.359203 1.78552 4.98601
0.342126 1.78139 4.9762
0.326266 1.78766 4.99423
0.309227 1.7856 4.98939
0.284166 1.7825 4.98162
0.268314 1.78979 5.00064
0.252322 1.78982 5.00176
0.23533 1.78985 5.00289
0.217183 1.78258 4.98413
0.201261 1.78574 4.9942
0.192122 1.77948 4.97636
0.176315 1.78786 5.00136
0.160285 1.78681 4.9975
0.143348 1.78994 5.00558
0.126324 1.78791 5.00274
0.110395 1.79206 5.0118
0.0933716 1.79002 5.00895
0.084225 1.78375 4.99011
0.0683723 1.79004 5.00914
0.0512874 1.78589 4.99833
0.0289233 1.76925 4.81872
0.0129853 1.77138 4.82681
-0.0440357 1.77137 4.82424
-0.0920268 1.77142 4.8256
-0.108956 1.77557 4.83467
-0.124956 1.77558 4.83479
-0.148978 1.77455 4.83198
-0.164985 1.77455 4.8311
-0.213952 1.77664 4.83544
-0.229929 1.7777 4.83855
-0.245936 1.7777 4.83767
-0.254865 1.78184 4.84668
-0.271741 1.78808 4.86271
-0.286926 1.77974 4.83895
-0.304716 1.79015 4.86593
-0.319894 1.78182 4.84316
-0.334947 1.77973 4.83631
-0.352807 1.78701 4.85434
-0.36086 1.78491 4.84743
-0.377782 1.78907 4.8575
-0.394704 1.79323 4.86756
-0.408913 1.78284 4.84082
-0.426795 1.79008 4.85585
-0.441864 1.78696 4.84701
-0.459716 1.79425 4.86604
-0.467747 1.7932 4.86211
-0.483746 1.79421 4.86222
-0.514884 1.78797 4.84454
-0.531844 1.79105 4.84963
-0.548843 1.79206 4.84974
-0.564827 1.7931 4.85184
-0.589802 1.79517 4.855
-0.622801 1.79619 4.85524
-0.638816 1.79617 4.85336
-0.695874 1.7961 4.84579
2.54733 1.73359 4.06917
2.37622 1.74245 4.18735
2.3434 1.74483 4.21156
2.31553 1.74608 4.22776
2.30056 1.74517 4.23288
2.28865 1.74735 4.24494
2.27167 1.7454 4.2471
2.26165 1.74336 4.2442
2.25279 1.74765 4.26321
2.2297 1.74049 4.25149
2.22186 1.7458 4.27247
2.20894 1.74796 4.28254
2.1899 1.74391 4.27874
2.17395 1.74301 4.28487
2.17306 1.74824 4.29981
2.15709 1.74629 4.30296
2.13909 1.74431 4.30312
2.13023 1.74859 4.32213
2.11018 1.74452 4.31634
2.09524 1.74463 4.32345
2.06821 1.73961 4.32073
2.05731 1.74281 4.33376
2.04441 1.745 4.34583
2.03454 1.74926 4.36284
2.01855 1.7473 4.36499
1.99646 1.74015 4.35426
1.98356 1.74334 4.36632
1.97352 1.74029 4.36244
1.96366 1.74556 4.38043
1.94665 1.74256 4.37961
1.93068 1.74163 4.38374
1.9198 1.74586 4.39876
1.90076 1.7408 4.39398
1.89091 1.74609 4.41298
1.87681 1.7399 4.40018
1.86694 1.74518 4.41817
1.84993 1.74216 4.41635
1.82921 1.75271 4.45235
1.80914 1.74661 4.44459
1.80135 1.75601 4.47152
1.78619 1.74671 4.45076
1.77022 1.74578 4.4549
1.75221 1.74278 4.45408
1.74132 1.747 4.4681
1.73046 1.75127 4.48612
1.70733 1.74305 4.47042
1.69748 1.74934 4.4894
1.68642 1.74523 4.48154
1.67044 1.74428 4.48468
1.66572 1.75682 4.52053
1.64258 1.74757 4.50284
1.62657 1.74557 4.50199
1.61673 1.75189 4.52297
1.59563 1.74471 4.51024
1.59074 1.74892 4.52421
1.57781 1.75108 4.53428
1.55774 1.74594 4.52451
1.54687 1.75022 4.54253
1.52781 1.74611 4.53473
1.51389 1.74827 4.54481
1.49791 1.74733 4.54794
1.477 1.74952 4.56007
1.4641 1.75271 4.57212
1.44709 1.7507 4.57128
1.41616 1.75086 4.58051
1.40017 1.7499 4.58264
1.37926 1.75209 4.59477
1.36328 1.75114 4.59691
1.33236 1.75231 4.60712
1.29239 1.75041 4.61245
1.27848 1.75358 4.62351
1.26558 1.75678 4.63656
1.19959 1.75185 4.63813
1.19468 1.75603 4.65011
1.17662 1.75194 4.64331
1.16375 1.75718 4.65933
1.14671 1.75312 4.65451
1.13073 1.75318 4.65764
1.12199 1.76467 4.69054
