-4.95278 1.65722 0.351497
-4.96988 1.66303 0.337538
-4.96395 1.65989 0.328539
-4.96207 1.65765 0.312556
-4.96718 1.65943 0.297566
-4.95631 1.65417 0.280559
-4.95843 1.65394 0.264577
-4.96954 1.65674 0.250617
-4.96966 1.6565 0.234619
-4.95673 1.65136 0.225597
-4.95885 1.65112 0.209614
-4.97295 1.65593 0.195647
-4.9572 1.64843 0.162635
-4.98929 1.65926 0.149715
-4.96044 1.64797 0.131662
-4.95856 1.64673 0.115664
-4.9776 1.65266 0.109719
-4.96573 1.6484 0.0926899
-4.96085 1.64616 0.0766841
-4.97696 1.65095 0.0617325
-4.9702 1.64748 0.0307285
-4.97732 1.64925 0.0147538
-4.97961 1.64867 -0.0242258
-4.96673 1.64343 -0.0402473
-4.97597 1.64598 -0.0712198
-4.97626 1.6444 -0.1102
-4.96962 1.6407 -0.157201
-4.98326 1.64343 -0.243151
-2.85649 1.7754 3.82643
-2.8656 1.77218 3.81155
-2.87559 1.7752 3.81258
-2.88471 1.77199 3.79769
-2.89777 1.77187 3.78879
-2.9049 1.76762 3.77191
-2.91896 1.76851 3.764
-2.93203 1.76839 3.7551
-2.94509 1.76928 3.74718
-2.95014 1.76718 3.74025
-2.9632 1.76807 3.73233
-2.97033 1.76382 3.71545
-2.98538 1.76573 3.70853
-2.99251 1.7615 3.69265
-3.00161 1.7593 3.67875
-3.01171 1.75811 3.66584
-3.01182 1.75291 3.65191
-3.02685 1.75584 3.64698
-3.04091 1.75574 3.63909
-3.05397 1.75663 3.63117
-3.06012 1.75235 3.61228
-3.07318 1.75224 3.60438
-3.08525 1.7521 3.59447
-3.0903 1.75202 3.58851
-3.10634 1.75395 3.5836
-3.11445 1.75174 3.56869
-3.12553 1.75058 3.55779
-3.14158 1.75251 3.55188
-3.14671 1.74824 3.53398
-3.16176 1.75017 3.52807
-3.16779 1.7501 3.52311
-3.17987 1.74996 3.5132
-3.19194 1.74982 3.5033
-3.20105 1.74762 3.4894
-3.21412 1.74849 3.48048
-3.22818 1.74938 3.47257
-3.23826 1.74823 3.46166
-3.23737 1.74402 3.44772
-3.27657 1.74565 3.42098
-3.30468 1.74845 3.40615
-3.3108 1.74522 3.39024
-3.32179 1.74824 3.39128
-3.32197 1.7419 3.36837
-3.34099 1.74587 3.36546
-3.34811 1.74264 3.34956
-3.3582 1.74147 3.33765
-3.37424 1.7444 3.33273
-3.38136 1.74117 3.31683
-3.38839 1.74212 3.31286
-3.40145 1.74401 3.30493
-3.40757 1.74078 3.28902
-3.43271 1.74151 3.2702
-3.43884 1.73827 3.25329
-3.45687 1.74222 3.24937
-3.46092 1.74112 3.24242
-3.47002 1.73993 3.2295
-3.4821 1.73979 3.21959
-3.5084 1.73622 3.17984
-3.52841 1.74121 3.17791
-3.52452 1.736 3.16396
-3.5356 1.73584 3.15304
-3.55562 1.74081 3.15012
-3.56786 1.73536 3.11929
-3.5839 1.73828 3.11337
-3.58804 1.73402 3.09546
-3.5911 1.7329 3.0875
-3.61409 1.73892 3.08758
-3.61227 1.73258 3.06466
-3.61838 1.73036 3.04973
-3.64337 1.73739 3.05082
-3.6475 1.73415 3.0339
-3.65164 1.72988 3.01599
-3.66462 1.73492 3.01801
-3.68282 1.73255 2.99218
-3.68794 1.72932 2.97626
-3.7111 1.73102 2.95541
-3.72318 1.73087 2.9445
-3.72838 1.72549 2.91862
-3.74144 1.72736 2.90969
-3.7555 1.72925 2.90176
-3.76957 1.73113 2.89284
-3.78562 1.73404 2.88592
-3.7828 1.7277 2.86299
-3.78486 1.72558 2.85503
-3.79097 1.72336 2.84011
-3.80006 1.72319 2.82818
-3.81413 1.72507 2.81926
-3.83316 1.72901 2.81434
-3.83431 1.72473 2.79541
-3.84042 1.72351 2.78047
-3.86037 1.73061 2.78652
-3.86152 1.72633 2.76759
-3.86365 1.72207 2.74966
-3.8807 1.72598 2.74273
-3.88582 1.72276 2.72782
-3.88796 1.71949 2.70988
-3.90799 1.72443 2.70496
-3.91119 1.71905 2.67906
-3.92923 1.72298 2.67313
-3.93038 1.7187 2.6542
-3.94245 1.71956 2.64428
-3.96049 1.72448 2.63834
-3.96362 1.72123 2.62141
-3.96568 1.71911 2.61346
-3.98074 1.72201 2.60553
-3.97592 1.71566 2.58258
-3.99297 1.71857 2.57567
-4.00305 1.71942 2.56473
-4.00419 1.71515 2.5468
-4.0123 1.71495 2.53286
-4.02529 1.71896 2.5329
-4.02842 1.71571 2.51597
-4.04349 1.71859 2.50704
-4.05556 1.71945 2.49711
-4.05172 1.71413 2.47616
-4.05883 1.71293 2.46223
-4.06892 1.71376 2.45029
-4.07503 1.71154 2.43537
-4.07709 1.71143 2.42738
-4.08917 1.71229 2.41746
-4.10722 1.7162 2.41054
-4.11134 1.71396 2.3946
-4.1274 1.71786 2.38666
-4.14047 1.71972 2.37673
-4.13962 1.71544 2.35779
-4.15163 1.71841 2.35583
-4.15674 1.7172 2.34089
-4.16285 1.71599 2.32695
-4.17493 1.71684 2.31603
-4.17507 1.71357 2.29807
-4.17521 1.70931 2.28013
-4.18828 1.71117 2.2702
-4.18437 1.70799 2.25822
-4.20142 1.7119 2.25129
-4.21649 1.71476 2.24136
-4.21962 1.71252 2.22541
-4.21975 1.70826 2.20748
-4.23482 1.71214 2.19853
-4.23993 1.70992 2.1836
-4.23602 1.70675 2.17262
-4.25108 1.70963 2.16369
-4.26416 1.71248 2.15274
-4.26529 1.70922 2.13579
-4.27638 1.71007 2.12486
-4.27851 1.70782 2.10791
-4.28255 1.70773 2.10194
-4.29165 1.70855 2.089
-4.29775 1.70735 2.07506
-4.30685 1.70816 2.06211
-4.31396 1.70796 2.04817
-4.32305 1.70779 2.03624
-4.31422 1.70044 2.01328
-4.31834 1.69922 1.99832
-4.32338 1.70014 1.99235
-4.34244 1.70503 1.98442
-4.35253 1.70586 1.97248
-4.35465 1.70362 1.95653
-4.36574 1.70446 1.9446
-4.37682 1.7063 1.93365
-4.37895 1.70405 1.9167
-4.37901 1.70293 1.90871
-4.38113 1.7007 1.89276
-4.38625 1.69948 1.87781
-4.38538 1.69621 1.85985
-4.40046 1.69907 1.84992
-4.41553 1.70294 1.83998
-4.42562 1.70377 1.82804
-4.43066 1.70468 1.82206
-4.43378 1.70245 1.80612
-4.44188 1.70326 1.79317
-4.444 1.70102 1.77721
-4.4521 1.70184 1.76426
-4.45323 1.69959 1.7473
-4.45834 1.69837 1.73235
-4.46239 1.69928 1.72637
-4.46451 1.69605 1.71043
-4.47759 1.69889 1.69949
-4.48868 1.70072 1.68754
-4.49279 1.70051 1.67257
-4.4989 1.7003 1.65862
-4.50401 1.69908 1.64368
-4.51809 1.70193 1.63274
-4.50918 1.69775 1.62073
-4.51231 1.69551 1.60479
-4.52339 1.69734 1.59284
-4.53648 1.70019 1.58189
-4.53361 1.69692 1.56392
-4.54271 1.69773 1.55097
-4.54882 1.69753 1.53702
-4.55784 1.70048 1.53304
-4.552 1.69518 1.51308
-4.56608 1.69803 1.50214
-4.5672 1.69579 1.48618
-4.57231 1.69559 1.47222
-4.57642 1.69537 1.45725
-4.58352 1.69517 1.4433
-4.59156 1.6971 1.43834
-4.5877 1.69383 1.42035
-4.60079 1.69666 1.40841
-4.6039 1.69544 1.39345
-4.59904 1.69116 1.37447
-4.60216 1.68994 1.35951
-4.61425 1.69277 1.34756
-4.6173 1.69266 1.34058
-4.63138 1.69551 1.32964
-4.6345 1.69528 1.31367
-4.64073 1.69284 1.28375
-4.64982 1.69465 1.27079
-4.64197 1.68937 1.2518
-4.65001 1.69128 1.24584
-4.65313 1.69006 1.23088
-4.65824 1.68984 1.21591
-4.66235 1.68964 1.20195
-4.67244 1.69145 1.18899
-4.67157 1.6892 1.17202
-4.67668 1.689 1.15806
-4.68273 1.6909 1.15107
-4.68384 1.68868 1.13611
-4.68795 1.68846 1.12115
-4.68508 1.68521 1.10417
-4.69319 1.687 1.0902
-4.70827 1.69085 1.07926
-4.71139 1.68962 1.0633
-4.71157 1.68726 1.03933
-4.71269 1.68604 1.02435
-4.72079 1.68684 1.0104
-4.72789 1.68864 0.996427
-4.71903 1.68336 0.978436
-4.72926 1.68293 0.948515
-4.74029 1.68686 0.94354
-4.74452 1.68442 0.913603
-4.74863 1.6842 0.898636
-4.74476 1.68195 0.881637
-4.73889 1.67769 0.864654
-4.74694 1.67961 0.858685
-4.75903 1.68342 0.845718
-4.75616 1.68017 0.828742
-4.76327 1.68097 0.814782
-4.76961 1.67929 0.768848
-4.7668 1.67593 0.744874
-4.7759 1.67773 0.730914
-4.78213 1.67729 0.700963
-4.78723 1.67809 0.686988
-4.79734 1.68089 0.67302
-4.78947 1.67563 0.656037
-4.79352 1.67653 0.649053
-4.79176 1.67306 0.617087
-4.79487 1.67284 0.602111
-4.80997 1.67766 0.589152
-4.81108 1.67743 0.574161
-4.79523 1.66914 0.555162
-4.81925 1.67811 0.55221
-4.8014 1.66982 0.533195
-4.81549 1.67364 0.520243
-4.82072 1.67318 0.489285
-4.81185 1.66894 0.473279
-4.82295 1.67274 0.459304
-4.82101 1.67062 0.45132
-4.82312 1.6704 0.436337
-4.83323 1.6732 0.42237
-4.82436 1.66894 0.405364
-4.83346 1.67174 0.391389
-4.82471 1.66625 0.3584
-4.83082 1.66704 0.344432
-4.83687 1.66894 0.337449
-4.81701 1.66066 0.319419
-4.8361 1.66648 0.306475
-4.84122 1.66827 0.291485
-4.82635 1.661 0.274478
-4.83046 1.66178 0.259496
-4.83757 1.66357 0.244521
-4.83663 1.66246 0.237529
-4.84174 1.66424 0.222539
-4.83986 1.66201 0.206556
-4.82998 1.65776 0.190542
-4.8321 1.65754 0.175559
-4.83521 1.65832 0.160569
-4.84032 1.6591 0.145594
-4.83339 1.65597 0.136587
-4.83849 1.65776 0.122597
-4.84161 1.65754 0.107621
-4.83973 1.6563 0.0916234
-4.84584 1.65809 0.076641
-4.83596 1.65384 0.0606273
-4.83308 1.65262 0.0456215
-4.84513 1.65652 0.0386536
-4.83725 1.65228 0.0226548
-4.84136 1.65406 0.00765737
-4.85047 1.65585 -0.00730248
-4.84559 1.65362 -0.0223084
-4.83471 1.64938 -0.0383297
-4.84182 1.65116 -0.0533046
-4.83588 1.64904 -0.061319
-4.832 1.64681 -0.0763175
-4.84111 1.6506 -0.0913069
-4.83822 1.64837 -0.106298
-4.84134 1.64914 -0.122288
-4.83946 1.64791 -0.137286
-4.84057 1.64769 -0.152276
-4.84268 1.64847 -0.167274
-4.83674 1.64635 -0.175289
-4.84286 1.64813 -0.190271
-4.82797 1.6419 -0.205293
-4.82721 1.64044 -0.236281
-4.84232 1.64623 -0.251255
-4.84843 1.64801 -0.266238
-2.91824 1.76601 3.59501
-2.94634 1.76782 3.58119
-2.94852 1.76148 3.5583
-2.96058 1.76136 3.54939
-2.9786 1.76434 3.54748
-2.99067 1.7642 3.53757
-2.98779 1.75898 3.52262
-3.00382 1.76092 3.51772
-3.00995 1.75767 3.50081
-3.02994 1.7627 3.50188
-3.03112 1.75536 3.479
-3.04121 1.75419 3.46709
-3.05427 1.75408 3.45919
-3.0613 1.75503 3.45523
-3.06445 1.74975 3.43633
-3.08444 1.75476 3.4364
-3.0866 1.74845 3.41551
-3.09967 1.74933 3.40659
-3.11372 1.75123 3.39967
-3.12183 1.74803 3.38578
-3.13083 1.75102 3.3848
-3.13993 1.74885 3.3729
-3.15597 1.75078 3.36699
-3.16308 1.74857 3.35308
-3.17515 1.74844 3.34317
-3.18226 1.74622 3.32825
-3.20921 1.75534 3.33532
-3.20335 1.74807 3.31738
-3.21839 1.74999 3.31147
-3.23244 1.7519 3.30454
-3.23459 1.74661 3.28463
-3.25361 1.75059 3.28272
-3.26865 1.75251 3.2768
-3.27378 1.74926 3.25989
-3.28081 1.74921 3.25594
-3.29288 1.75008 3.24702
-3.29801 1.74584 3.23012
-3.30611 1.74464 3.21619
-3.33306 1.75374 3.22226
-3.34018 1.75053 3.20736
-3.33835 1.74319 3.18445
-3.35034 1.74721 3.18548
-3.34952 1.73987 3.16258
-3.3715 1.74691 3.16465
-3.37762 1.74368 3.14874
-3.38573 1.74148 3.13483
-3.39383 1.74029 3.12191
-3.41482 1.74631 3.12197
-3.40697 1.73902 3.10302
-3.41706 1.73785 3.09111
-3.42913 1.73873 3.08219
-3.4483 1.7374 3.05935
-3.45542 1.73518 3.04443
-3.4655 1.73503 3.03351
-3.47054 1.73494 3.02755
-3.47963 1.73377 3.01563
-3.48675 1.73155 3.00072
-3.49781 1.73243 2.99179
-3.51684 1.73638 2.98787
-3.53205 1.733 2.96103
-3.54007 1.73396 2.95808
-3.56933 1.73346 2.9233
-3.66736 1.72552 2.78814
-3.69264 1.72299 2.75136
-3.71082 1.72265 2.7275
-3.80272 1.71994 2.60822
-3.80784 1.7177 2.59229
-3.88773 1.71401 2.47493
-3.89476 1.71496 2.47096
-3.97465 1.71226 2.35259
-3.98176 1.71205 2.33864
-4.00398 1.71163 2.30881
-4.01208 1.71144 2.29588
-4.02316 1.71328 2.28493
-4.04718 1.72026 2.28201
-4.0294 1.70783 2.25405
-4.04446 1.71071 2.24512
-4.05256 1.71052 2.23219
-4.06271 1.71023 2.21226
-4.06683 1.70801 2.19733
-4.08587 1.71294 2.1914
-4.08003 1.70662 2.17044
-4.08713 1.70644 2.1575
-4.09821 1.70728 2.14657
-4.10525 1.70921 2.14159
-4.11134 1.70802 2.12865
-4.12243 1.70885 2.11672
-4.12854 1.70865 2.10277
-4.12468 1.70337 2.08381
-4.14585 1.70506 2.06195
-4.16323 1.70132 2.01113
-4.16934 1.70011 1.99719
-4.17445 1.69891 1.98324
-4.19356 1.7027 1.96833
-4.1907 1.69842 1.94937
-4.20278 1.70028 1.93943
-4.21983 1.70417 1.9315
-4.212 1.69786 1.91053
-4.23204 1.70277 1.90361
-4.23117 1.69951 1.88665
-4.2333 1.69728 1.87069
-4.2483 1.70227 1.86973
-4.25141 1.70005 1.85479
-4.2635 1.7019 1.84385
-4.2696 1.7017 1.8299
-4.27968 1.70354 1.81894
-4.27284 1.69724 1.79898
-4.2899 1.70112 1.79005
-4.28797 1.69899 1.78107
-4.28909 1.69675 1.76511
-4.30317 1.6996 1.75417
-4.31923 1.70349 1.74623
-4.31538 1.69921 1.72726
-4.32347 1.70003 1.71531
-4.33156 1.69985 1.70237
-4.32764 1.6977 1.69237
-4.33773 1.69853 1.68044
-4.33885 1.69629 1.66448
-4.3599 1.7022 1.65755
-4.34906 1.69488 1.63657
-4.37609 1.70383 1.63164
-4.37024 1.69854 1.61267
-4.36632 1.69539 1.60269
-4.38238 1.69927 1.59375
-4.3855 1.69804 1.57779
-4.39061 1.69783 1.56383
-4.38774 1.69358 1.54687
-4.4058 1.69846 1.53793
-4.39596 1.69215 1.51795
-4.41296 1.69715 1.517
-4.40512 1.69185 1.49702
-4.42119 1.69571 1.48708
-4.43526 1.69958 1.47713
-4.41146 1.68619 1.45214
-4.44149 1.69614 1.44722
-4.43962 1.69388 1.43024
-4.43669 1.69075 1.42126
-4.45276 1.69561 1.41131
-4.45487 1.69339 1.39636
-4.45998 1.69319 1.38239
-4.47805 1.69805 1.37246
-4.47119 1.69278 1.35448
-4.48128 1.69461 1.34253
-4.49243 1.69632 1.32258
-4.49056 1.69307 1.30562
-4.49866 1.69388 1.29266
-4.51273 1.69773 1.28171
-4.50388 1.69144 1.26273
-4.51896 1.69629 1.25178
-4.52407 1.69609 1.23781
-4.52811 1.696 1.23185
-4.52823 1.69376 1.21588
-4.52736 1.69153 1.1999
-4.53944 1.69436 1.18795
-4.53657 1.6911 1.17097
-4.54068 1.6909 1.15701
-4.53476 1.68675 1.14702
-4.55881 1.69465 1.13908
-4.53998 1.68531 1.11708
-4.55506 1.68915 1.10613
-4.55419 1.68692 1.09016
-4.56627 1.68975 1.0782
-4.5634 1.68651 1.06223
-4.5705 1.68831 1.04825
-4.57155 1.6872 1.04128
-4.57666 1.688 1.0273
-4.58476 1.6888 1.01335
-4.5749 1.68253 0.995365
-4.584 1.68434 0.982405
-4.58112 1.6811 0.966429
-4.59222 1.68392 0.953469
-4.59427 1.68381 0.946485
-4.59439 1.68258 0.930502
-4.5985 1.68237 0.916534
-4.60061 1.68115 0.901566
-4.60783 1.68073 0.872623
-4.62191 1.68556 0.860655
-4.62397 1.68546 0.853672
-4.61511 1.67919 0.835695
-4.59826 1.67089 0.816688
-4.6353 1.68482 0.80976
-4.62044 1.67654 0.791768
-4.62754 1.67834 0.777793
-4.64363 1.68317 0.765841
-4.62872 1.676 0.754834
-4.65179 1.68386 0.74489
-4.65191 1.68263 0.728907
-4.63805 1.67535 0.710908
-4.63616 1.67313 0.695924
-4.63429 1.67089 0.679941
-4.63739 1.67069 0.665965
-4.64949 1.6745 0.652998
-4.65953 1.67742 0.64703
-4.65565 1.67418 0.631046
-4.65976 1.67498 0.617064
-4.66287 1.67476 0.602088
-4.65899 1.67152 0.586105
-4.66909 1.67433 0.573137
-4.68018 1.67815 0.560163
-4.67625 1.67501 0.551178
-4.67137 1.67277 0.535173
-4.67947 1.67458 0.522205
-4.66261 1.66631 0.504198
-4.6817 1.67214 0.492254
-4.67682 1.6689 0.476263
-4.67493 1.66768 0.461265
-4.68898 1.6726 0.455297
-4.69308 1.67339 0.441314
-4.66424 1.66008 0.421291
-4.68133 1.66591 0.409332
-4.68344 1.66569 0.394349
-4.68754 1.66649 0.380366
-4.68267 1.66325 0.364375
-4.6997 1.67018 0.3594
-4.70381 1.66997 0.344432
-4.68595 1.6617 0.327418
-4.68806 1.66148 0.312435
-4.69116 1.66228 0.298444
-4.69928 1.66406 0.283477
-4.69539 1.66183 0.268479
-4.68645 1.65771 0.260471
-4.70155 1.66251 0.246512
-4.68069 1.65425 0.229475
-4.70677 1.66309 0.217539
-4.70489 1.66186 0.202541
-4.703 1.65964 0.187557
-4.70011 1.65842 0.172552
-4.70723 1.6602 0.157577
-4.69729 1.65607 0.149562
-4.70539 1.65887 0.135579
-4.69752 1.65463 0.119581
-4.70062 1.65543 0.10559
-4.70973 1.65821 0.0906157
-4.71484 1.65901 0.0766405
-4.71995 1.65979 0.0616653
-4.70301 1.65366 0.0536274
-4.70313 1.65243 0.0386443
-4.71323 1.65623 0.0246622
-4.71034 1.65401 0.00967133
-4.70346 1.65078 -0.00533486
-4.70457 1.65056 -0.0203253
-4.72467 1.65837 -0.0342913
-4.70885 1.65102 -0.0573049
-4.70596 1.64979 -0.0723106
-4.70308 1.64757 -0.0873014
-4.71318 1.65137 -0.101284
-4.70929 1.64914 -0.116282
-4.70641 1.64792 -0.131288
-4.71646 1.65182 -0.138271
-4.70557 1.64659 -0.153277
-4.70069 1.64437 -0.168283
-4.7078 1.64715 -0.183273
-4.71991 1.65094 -0.19824
-4.71402 1.64871 -0.213253
-4.70513 1.6455 -0.227275
-4.70519 1.64538 -0.235274
-4.70331 1.64416 -0.250272
-4.70541 1.64495 -0.26427
-2.97802 1.76354 3.35846
-2.9881 1.76239 3.34755
-3.00925 1.76111 3.32773
-3.01628 1.76205 3.32377
-3.03645 1.75974 3.30195
-3.04554 1.75857 3.29003
-3.06571 1.75626 3.26822
-3.07678 1.75612 3.2583
-3.08876 1.76016 3.26033
-3.08795 1.7528 3.23643
-3.10298 1.75474 3.23152
-3.12 1.75871 3.22858
-3.13207 1.75858 3.21968
-3.13323 1.75227 3.19878
-3.14828 1.75519 3.19284
-3.14241 1.74794 3.17591
-3.15249 1.74678 3.165
-3.1705 1.75177 3.16306
-3.17266 1.74547 3.14317
-3.18274 1.74532 3.13224
-3.20273 1.75134 3.1333
-3.20587 1.74607 3.1144
-3.21191 1.746 3.10945
-3.2329 1.75203 3.11052
-3.23207 1.7447 3.08862
-3.23918 1.74248 3.0737
-3.25819 1.74748 3.07277
-3.25834 1.74119 3.05286
-3.26743 1.74102 3.04093
-3.27843 1.74402 3.04097
-3.27958 1.73773 3.02107
-3.28768 1.73654 3.00815
-3.30272 1.73948 3.00321
-3.31478 1.74035 2.99429
-3.32388 1.73918 2.98238
-3.33693 1.74007 2.97446
-3.33701 1.73693 2.96451
-3.34313 1.73471 2.94958
-3.35717 1.73663 2.94366
-3.36328 1.73441 2.92874
-3.37138 1.73323 2.91581
-3.38543 1.73513 2.90889
-3.38956 1.7319 2.89297
-3.39856 1.73389 2.892
-3.40567 1.73269 2.87807
-3.41177 1.72949 2.86416
-3.42385 1.73035 2.85424
-3.42896 1.72814 2.84031
-3.45416 1.72776 2.8135
-3.50968 1.72478 2.74496
-3.54297 1.72423 2.70621
-3.54907 1.72304 2.69327
-3.56015 1.72388 2.68234
-3.60863 1.72097 2.61874
-3.62681 1.72065 2.59588
-3.65513 1.71903 2.55311
-3.67131 1.71769 2.52925
-3.69147 1.71837 2.50739
-3.69552 1.71829 2.50142
-3.70163 1.71609 2.48749
-3.72789 1.71559 2.4527
-3.78658 1.71227 2.36117
-3.79666 1.71311 2.35024
-3.79972 1.71201 2.34327
-3.823 1.71048 2.30647
-3.88467 1.71019 2.21692
-3.90185 1.71085 2.19304
-3.89794 1.70668 2.18207
-3.90802 1.70753 2.17113
-3.91711 1.70736 2.1592
-3.92619 1.7082 2.14826
-3.96173 1.70416 2.07657
-3.97493 1.70278 2.05069
-3.989 1.70566 2.04175
-3.99809 1.70649 2.02981
-3.99722 1.70224 2.01286
-4.01147 1.70076 1.97999
-4.04689 1.70096 1.92424
-4.0561 1.69855 1.89634
-4.06419 1.69938 1.88439
-4.07427 1.70022 1.87345
-4.08037 1.70002 1.8595
-4.09046 1.70086 1.84856
-4.08853 1.69873 1.83958
-4.1006 1.70059 1.82964
-4.11168 1.70243 1.81869
-4.11878 1.70225 1.80575
-4.1179 1.69901 1.78979
-4.13297 1.70289 1.78084
-4.14006 1.7027 1.7679
-4.13514 1.69855 1.75792
-4.14622 1.70139 1.74696
-4.1563 1.70224 1.73602
-4.15045 1.69695 1.71705
-4.16651 1.70083 1.70812
-4.17361 1.70064 1.69517
-4.17772 1.70044 1.6812
-4.17778 1.69832 1.67323
-4.19384 1.70321 1.66528
-4.19794 1.70201 1.65133
-4.19906 1.69977 1.63537
-4.20018 1.69655 1.62042
-4.20528 1.69635 1.60646
-4.21736 1.69919 1.59551
-4.21743 1.69708 1.58754
-4.22851 1.69892 1.57659
-4.2356 1.69975 1.56463
-4.2417 1.69955 1.55068
-4.24581 1.69834 1.53673
-4.24692 1.69612 1.52177
-4.259 1.69897 1.51081
-4.26311 1.69776 1.49686
-4.26915 1.69969 1.49188
-4.26628 1.69544 1.47491
-4.28235 1.7003 1.46496
-4.28645 1.6991 1.45101
-4.2756 1.69181 1.43203
-4.30562 1.70277 1.4281
-4.29379 1.69445 1.40713
-4.31178 1.70146 1.40716
-4.30991 1.69821 1.39019
-4.30504 1.69296 1.37323
-4.31214 1.69377 1.36027
-4.32621 1.69763 1.35032
-4.32434 1.69438 1.33335
-4.32141 1.69226 1.32536
-4.34047 1.69814 1.31641
-4.31766 1.68577 1.29242
-4.33373 1.68963 1.28248
-4.34879 1.69451 1.27352
-4.34692 1.69125 1.25655
-4.34305 1.68701 1.24059
-4.36012 1.69188 1.23064
-4.35719 1.68974 1.22165
-4.36029 1.68854 1.20769
-4.38035 1.69543 1.19974
-4.37847 1.6922 1.18377
-4.37959 1.68997 1.16881
-4.38569 1.69077 1.15484
-4.38181 1.68653 1.13887
-4.38985 1.68946 1.13389
-4.39695 1.69028 1.12093
-4.3861 1.68299 1.10195
-4.39718 1.68582 1.08999
-4.41425 1.69168 1.08003
-4.4004 1.68339 1.06105
-4.41249 1.68622 1.04909
-4.41953 1.68815 1.04412
-4.40767 1.68186 1.02512
-4.40978 1.68066 1.01115
-4.42486 1.68451 1.00021
-4.42397 1.68228 0.98523
-4.43008 1.68308 0.971262
-4.43718 1.68389 0.958302
-4.43723 1.68379 0.951303
-4.43635 1.68055 0.935342
-4.45043 1.6854 0.924375
-4.44555 1.68116 0.908399
-4.44567 1.67994 0.893416
-4.45276 1.68075 0.880455
-4.4459 1.67649 0.863464
-4.45099 1.6763 0.850504
-4.46602 1.68225 0.846528
-4.46015 1.678 0.829544
-4.45826 1.67578 0.814561
-4.46736 1.67759 0.801601
-4.46048 1.67235 0.785625
-4.46758 1.67416 0.772649
-4.47369 1.67496 0.758682
-4.47175 1.67384 0.750683
-4.47185 1.67163 0.736714
-4.48394 1.67546 0.724747
-4.48405 1.67424 0.709764
-4.48717 1.67402 0.694788
-4.49227 1.67383 0.681828
-4.49637 1.67463 0.667845
-4.49243 1.67251 0.659846
-4.50153 1.67432 0.646886
-4.50064 1.6731 0.631895
-4.49576 1.66986 0.615904
-4.50985 1.67369 0.603952
-4.50897 1.67247 0.588961
-4.51007 1.67126 0.574985
-4.51911 1.67418 0.569009
-4.51423 1.67095 0.554018
-4.52233 1.67275 0.540051
-4.52144 1.67154 0.52606
-4.52355 1.67132 0.511077
-4.52666 1.67112 0.497102
-4.52676 1.66991 0.483118
-4.52683 1.66879 0.475134
-4.53492 1.6706 0.462167
-4.53304 1.66938 0.447168
-4.52816 1.66614 0.431177
-4.53026 1.66594 0.417194
-4.53437 1.66673 0.403212
-4.52748 1.6625 0.38822
-4.53159 1.6633 0.374237
-4.53464 1.6642 0.367246
-4.53475 1.66298 0.352263
-4.54585 1.66579 0.339303
-4.54596 1.66558 0.325305
-4.54407 1.66336 0.310322
-4.55516 1.66718 0.297347
-4.55428 1.66495 0.282371
-4.55133 1.66385 0.275364
-4.54346 1.65961 0.259366
-4.54956 1.6614 0.245383
-4.55266 1.6622 0.231393
-4.55477 1.66199 0.21741
-4.55588 1.66179 0.203419
-4.55599 1.66056 0.188436
-4.55604 1.66046 0.181437
-4.56515 1.66326 0.167462
-4.56725 1.66305 0.153479
-4.56436 1.66083 0.138488
-4.55848 1.6576 0.12349
-4.5506 1.65438 0.108476
-4.56269 1.65819 0.0955089
-4.55575 1.65507 0.0875018
-4.56885 1.65988 0.0745273
-4.56196 1.65666 0.0595212
-4.56707 1.65745 0.0455459
-4.56118 1.65423 0.0305472
-4.56529 1.65602 0.0165496
-4.5684 1.6558 0.0015743
-4.55746 1.65168 -0.00644814
-4.56257 1.65247 -0.0204234
-4.56667 1.65427 -0.034421
-4.56578 1.65306 -0.0484118
-4.56888 1.65386 -0.0624021
-4.57499 1.65564 -0.0773845
-4.5631 1.65042 -0.0913988
-4.56516 1.65131 -0.0993974
-4.57427 1.6541 -0.113372
-4.55838 1.64787 -0.128402
-4.56149 1.64767 -0.142377
-4.56659 1.65046 -0.156382
-4.5617 1.64725 -0.170373
-4.56281 1.64703 -0.185364
-4.56991 1.64983 -0.199354
-4.55897 1.64572 -0.206376
-4.56508 1.6475 -0.221359
-4.56719 1.64829 -0.235356
-4.56141 1.64586 -0.264368
-2.99936 1.75792 3.18068
-3.01243 1.7588 3.17177
-3.02564 1.75339 3.14394
-3.03374 1.75121 3.13103
-3.04274 1.75421 3.13106
-3.05182 1.75306 3.12014
-3.05794 1.74983 3.10423
-3.07397 1.75278 3.10031
-3.08305 1.75162 3.08939
-3.09511 1.75251 3.08147
-3.10519 1.75237 3.07155
-3.10825 1.75025 3.0636
-3.11237 1.74702 3.04768
-3.12542 1.74793 3.04076
-3.13155 1.74469 3.02485
-3.13666 1.74148 3.00993
-3.15567 1.74647 3.009
-3.15384 1.73913 2.9861
-3.16879 1.74523 2.99212
-3.16994 1.73895 2.97322
-3.17903 1.73878 2.96129
-3.18514 1.73558 2.94738
-3.19621 1.73544 2.93746
-3.20728 1.73631 2.92853
-3.21835 1.73719 2.9196
-3.21949 1.73191 2.90069
-3.2285 1.7339 2.89972
-3.24652 1.73787 2.8968
-3.24964 1.73463 2.88087
-3.25575 1.73143 2.86696
-3.26781 1.73231 2.85804
-3.28384 1.73626 2.8541
-3.28705 1.72886 2.82723
-3.29613 1.72871 2.8163
-3.31614 1.73371 2.81538
-3.32026 1.73047 2.79945
-3.33545 1.72811 2.7746
-3.40307 1.72493 2.69214
-3.73046 1.71151 2.24475
-3.7406 1.71023 2.22584
-3.75777 1.71092 2.20396
-3.77792 1.71262 2.18308
-3.78819 1.7081 2.14722
-3.79728 1.70794 2.13629
-3.80947 1.70657 2.1104
-3.83075 1.70504 2.07357
-3.89459 1.70244 1.96308
-3.91275 1.70413 1.94119
-3.91587 1.70191 1.92624
-3.92998 1.70368 1.91032
-3.94429 1.70008 1.86947
-3.96763 1.69945 1.82565
-3.97571 1.70029 1.8147
-3.98492 1.69688 1.78682
-3.99102 1.6967 1.77386
-4.00408 1.69957 1.76492
-4.00421 1.69633 1.74897
-4.02026 1.70123 1.74101
-4.02729 1.70217 1.73705
-4.02542 1.69892 1.72008
-4.04347 1.70383 1.71314
-4.05056 1.70466 1.70118
-4.03574 1.69431 1.67822
-4.05479 1.70022 1.67128
-4.06686 1.70208 1.66134
-4.05596 1.69588 1.64835
-4.06605 1.69772 1.63739
-4.07812 1.70058 1.62744
-4.07624 1.69634 1.61149
-4.09529 1.70225 1.60454
-4.08645 1.69495 1.58458
-4.09647 1.69791 1.58161
-4.11153 1.70279 1.57265
-4.10567 1.69652 1.5547
-4.12173 1.70141 1.54675
-4.11986 1.69716 1.52979
-4.13193 1.70002 1.51984
-4.13105 1.69678 1.50388
-4.14113 1.69863 1.49293
-4.13422 1.69446 1.48194
-4.14629 1.69732 1.47198
-4.15538 1.69816 1.46104
-4.16247 1.69898 1.44808
-4.1596 1.69474 1.43212
-4.1657 1.69454 1.41816
-4.16182 1.6903 1.40219
-4.16986 1.69323 1.39721
-4.18193 1.69609 1.38726
-4.17906 1.69183 1.3703
-4.18714 1.69368 1.35933
-4.19125 1.69247 1.34538
-4.19237 1.69025 1.33041
-4.19248 1.68803 1.31545
-4.21048 1.69503 1.31448
-4.20162 1.68876 1.2965
-4.20174 1.68553 1.28155
-4.20484 1.68533 1.26757
-4.21692 1.68817 1.25662
-4.22202 1.68799 1.24366
-4.2331 1.69083 1.2327
-4.22718 1.68668 1.22272
-4.22829 1.68447 1.20875
-4.2294 1.68325 1.19378
-4.24547 1.68711 1.18384
-4.24757 1.68692 1.17086
-4.24769 1.68369 1.1549
-4.25677 1.68653 1.14393
-4.25589 1.68331 1.12897
-4.25894 1.68321 1.12199
-4.26504 1.68402 1.10902
-4.27523 1.68464 1.08309
-4.28632 1.68747 1.07113
-4.28044 1.68223 1.05516
-4.27557 1.67899 1.03917
-4.29558 1.68597 1.03722
-4.2907 1.68173 1.02124
-4.30278 1.68458 1.01029
-4.3009 1.68236 0.995303
-4.29303 1.67708 0.977319
-4.29713 1.67689 0.964351
-4.29924 1.67569 0.950383
-4.30129 1.67559 0.943399
-4.31936 1.68145 0.933447
-4.31049 1.67621 0.917456
-4.32157 1.67904 0.905496
-4.32568 1.67883 0.891528
-4.3198 1.67459 0.875544
-4.3239 1.6744 0.862576
-4.33992 1.68037 0.859608
-4.34203 1.67915 0.84464
-4.32916 1.67289 0.827633
-4.33626 1.6737 0.814673
-4.34336 1.67551 0.801698
-4.34147 1.67229 0.786729
-4.34657 1.6731 0.773754
-4.34973 1.67179 0.752794
-4.34584 1.66857 0.73781
-4.36591 1.67544 0.727858
-4.36004 1.67119 0.711875
-4.35615 1.66797 0.696891
-4.36824 1.6718 0.684924
-4.36735 1.67059 0.670933
-4.36741 1.66947 0.662949
-4.38049 1.67332 0.651989
-4.38559 1.67412 0.638014
-4.38171 1.67089 0.62303
-4.38281 1.66969 0.609055
-4.39091 1.6725 0.596072
-4.37903 1.66525 0.580088
-4.38409 1.66715 0.573097
-4.38818 1.66796 0.560114
-4.39129 1.66776 0.546138
-4.39539 1.66857 0.533155
-4.40348 1.67038 0.520188
-4.39561 1.66514 0.504204
-4.40669 1.66897 0.492229
-4.40275 1.66685 0.48423
-4.39587 1.66262 0.469238
-4.40797 1.66644 0.456271
-4.41606 1.66825 0.443303
-4.41217 1.66604 0.429305
-4.41128 1.66382 0.414329
-4.41938 1.66663 0.401347
-4.42342 1.66755 0.395363
-4.42254 1.66632 0.380372
-4.41165 1.66009 0.36538
-4.41376 1.65989 0.351397
-4.42086 1.6617 0.338422
-4.41797 1.65948 0.323431
-4.42612 1.66119 0.303464
-4.42933 1.66077 0.275491
-4.43543 1.66257 0.261508
-4.44852 1.6674 0.249534
-4.45163 1.6672 0.235558
-4.44973 1.66599 0.22156
-4.44479 1.66387 0.213553
-4.43191 1.65664 0.198561
-4.44301 1.66045 0.185586
-4.43812 1.65823 0.17058
-4.43823 1.65702 0.156597
-4.44333 1.65881 0.142607
-4.45043 1.66063 0.129632
-4.45353 1.66142 0.115642
-4.46358 1.66534 0.109658
-4.4427 1.65509 0.0936506
-4.44381 1.65488 0.0796601
-4.45091 1.65768 0.0656702
-4.44802 1.65547 0.0516792
-4.45312 1.65727 0.0376892
-4.45722 1.65808 0.0247062
-4.45627 1.65697 0.0177145
-4.46238 1.65977 0.00371713
-4.45449 1.65554 -0.0112818
-4.46459 1.65936 -0.024264
-4.4557 1.65513 -0.0392704
-4.45881 1.65592 -0.0532607
-4.45591 1.65371 -0.0672517
-4.45797 1.65461 -0.0742505
-4.46107 1.65541 -0.0882408
-4.46118 1.6552 -0.102239
-4.46527 1.65601 -0.115222
-4.45839 1.65278 -0.130228
-4.46149 1.65358 -0.144218
-4.4656 1.65437 -0.158201
-4.46165 1.65327 -0.165215
-4.45476 1.65006 -0.179222
-4.45187 1.64785 -0.193213
-4.46297 1.65265 -0.207202
-4.46008 1.65044 -0.221193
-4.46518 1.65323 -0.235198
-4.45129 1.64702 -0.249213
-4.46034 1.64992 -0.256188
-4.45145 1.64671 -0.27021
-3.0124 1.75589 3.04279
-3.01751 1.75267 3.02787
-3.02957 1.75356 3.01995
-3.01776 1.7422 2.99603
-3.02882 1.74309 2.9881
-3.03691 1.74092 2.97619
-3.05309 1.73857 2.95234
-3.06019 1.73538 2.93944
-3.08836 1.73708 2.91762
-3.09446 1.73488 2.9037
-3.10454 1.73474 2.89378
-3.12468 1.73447 2.87493
-4.02829 1.69027 1.4732
-4.03039 1.68906 1.45923
-4.05565 1.69256 1.42436
-4.07621 1.68748 1.35058
-4.08541 1.6861 1.32467
-4.08851 1.68491 1.31171
-4.12829 1.6834 1.20802
-4.27462 1.66699 0.634283
-4.35172 1.65599 0.0909514
-4.35482 1.6558 0.0779758
-4.35806 1.65036 -0.086942
-4.36037 1.64976 -0.127921
-3.06588 1.75101 2.84624
-3.071 1.74679 2.83134
-3.08206 1.74768 2.82341
-3.08022 1.74037 2.8025
-3.08129 1.73824 2.79354
-3.08937 1.73708 2.78261
-3.09151 1.73182 2.7647
-3.10654 1.73477 2.76077
-3.10868 1.7305 2.74285
-3.12073 1.73141 2.73593
-3.13385 1.73018 2.72004
-3.14193 1.73002 2.7091
-3.15994 1.73501 2.70716
-3.17413 1.73165 2.68232
-3.19625 1.73343 2.66646
-3.19845 1.72604 2.64058
-3.21846 1.73304 2.63962
-3.24469 1.7316 2.60884
-3.24186 1.72428 2.58692
-3.24887 1.72525 2.58496
-3.26987 1.73227 2.58502
-3.2822 1.72362 2.54123
-4.11248 1.67609 0.917966
-4.18449 1.67319 0.651514
-4.20365 1.66493 0.49776
-3.12694 1.74103 2.57481
-3.13799 1.74292 2.56686
-3.14019 1.73453 2.541
-3.15025 1.73542 2.53306
-3.1643 1.73834 2.52712
-3.1674 1.73514 2.51319
-3.16953 1.7309 2.49727
-3.18655 1.73587 2.49432
-3.18569 1.72959 2.47541
-3.20264 1.73769 2.48142
-3.21271 1.73756 2.47249
-3.21086 1.73127 2.45257
-3.211 1.72602 2.43564
-3.23497 1.73508 2.43869
-3.23113 1.72776 2.41777
-3.24815 1.73273 2.41482
-3.24921 1.73061 2.40686
-3.25331 1.72743 2.39394
-3.25941 1.72624 2.381
-3.27643 1.7312 2.37805
-3.27657 1.72594 2.36013
-3.27868 1.72272 2.34519
-3.29868 1.72872 2.34425
-3.29279 1.72252 2.3313
-3.29689 1.72032 2.31736
-3.30497 1.72018 2.30742
-3.30708 1.71696 2.29248
-3.32822 1.7187 2.27461
-3.33033 1.71548 2.25968
-3.33735 1.71744 2.2567
-3.34245 1.71526 2.24377
-3.39483 1.71954 2.19309
-3.4141 1.71602 2.15728
-3.43038 1.71248 2.12045
-3.44859 1.71108 2.09261
-3.45468 1.70991 2.08067
-3.46474 1.7118 2.07272
-3.47083 1.71062 2.06078
-3.47493 1.70943 2.04782
-3.50632 1.7077 1.99708
-3.52148 1.70739 1.9752
-3.78022 1.69322 1.48029
-3.80568 1.69233 1.41948
-3.81282 1.69107 1.40155
-3.84542 1.68891 1.32182
-3.8515 1.68975 1.31085
-3.85361 1.68755 1.2969
-3.86788 1.68702 1.26101
-3.87702 1.68776 1.24306
-3.88609 1.68962 1.2331
-3.8852 1.6864 1.21814
-3.89528 1.68926 1.20817
-3.89339 1.68504 1.19322
-3.90147 1.68688 1.18225
-3.9116 1.68863 1.1653
-3.90772 1.68341 1.15035
-3.9178 1.68625 1.13938
-3.9169 1.68305 1.12542
-3.92 1.68286 1.11244
-3.92409 1.68268 1.10047
-3.92615 1.68258 1.09349
-3.93622 1.68444 1.08354
-3.9453 1.68728 1.07256
-3.94242 1.68306 1.0576
-3.94651 1.68288 1.04563
-3.9526 1.68371 1.03366
-3.96068 1.68555 1.0227
-3.96472 1.68647 1.01671
-3.96482 1.68427 1.00374
-3.97291 1.6861 0.991776
-3.97301 1.68391 0.978808
-3.97711 1.68372 0.965839
-3.97921 1.68253 0.952871
-3.98031 1.68032 0.93891
-3.98939 1.68318 0.928935
-3.98944 1.68208 0.921951
-3.99653 1.68391 0.909975
-3.99364 1.6797 0.896014
-3.99574 1.67949 0.882031
-3.99684 1.6783 0.869055
-4.0149 1.68419 0.861103
-4.01201 1.68097 0.846127
-4.00109 1.67481 0.836134
-4.02414 1.68373 0.829175
-4.01526 1.67848 0.813183
-4.02235 1.67931 0.801223
-4.03242 1.68317 0.79124
-4.02754 1.67794 0.776279
-4.02959 1.67784 0.769295
-4.03967 1.68169 0.758312
-4.03079 1.67546 0.743336
-4.03389 1.67527 0.73036
-4.04796 1.68013 0.720393
-4.03708 1.67288 0.704416
-4.04517 1.67571 0.692433
-4.05226 1.67654 0.680473
-4.04432 1.67242 0.672473
-4.0575 1.67607 0.648515
-4.05072 1.66965 0.620555
-4.0628 1.6735 0.609587
-4.0589 1.67029 0.595603
-4.05996 1.67018 0.588612
-4.08102 1.67807 0.579653
-4.07114 1.67184 0.564668
-4.06824 1.66963 0.550677
-4.08531 1.67549 0.540718
-4.07543 1.67026 0.525719
-4.07654 1.66906 0.511743
-4.08856 1.674 0.50776
-4.07669 1.66676 0.491775
-4.08278 1.66859 0.479793
-4.09785 1.67345 0.469833
-4.08697 1.66822 0.454826
-4.09006 1.66803 0.44185
-4.09715 1.66986 0.429875
-4.09441 1.66535 0.395916
-4.09461 1.66397 0.369935
-4.1057 1.6678 0.35796
-4.0988 1.66358 0.343969
-4.11094 1.66733 0.326002
-4.10824 1.66273 0.286044
-4.11378 1.65967 0.214121
-4.11687 1.6605 0.202131
-4.12421 1.66083 0.157175
-4.12431 1.65964 0.144192
-4.12451 1.65824 0.11721
-4.12461 1.65705 0.104227
-4.12571 1.65686 0.091236
-4.12885 1.65758 0.0722464
-4.13315 1.657 0.0332818
-4.13324 1.65681 0.0202836
-4.13544 1.65643 -0.00569776
-4.13249 1.65432 -0.0126898
-4.13858 1.65715 -0.0246874
-4.13781 1.65074 -0.187621
-4.13606 1.64925 -0.220616
-4.13716 1.64905 -0.233607
-4.13726 1.64886 -0.246605
-4.13936 1.64967 -0.259603
-4.14045 1.64948 -0.272594
-3.20482 1.73738 2.32541
-3.20395 1.73213 2.30848
-3.20998 1.73308 2.30451
-3.225 1.73703 2.30057
-3.22613 1.73279 2.28464
-3.23123 1.7306 2.27171
-3.24328 1.73351 2.26475
-3.25135 1.73336 2.25481
-3.25644 1.73119 2.24288
-3.26856 1.73096 2.22698
-3.27266 1.72877 2.21404
-3.28671 1.73169 2.2081
-3.29379 1.73154 2.19715
-3.30087 1.73038 2.18622
-3.30199 1.72716 2.17128
-3.311 1.72913 2.16932
-3.31411 1.72693 2.15537
-3.32517 1.72882 2.14742
-3.3233 1.72357 2.13048
-3.33734 1.72649 2.12455
-3.34641 1.72735 2.1146
-3.35051 1.72517 2.10266
-3.35952 1.72815 2.10069
-3.36473 1.72274 2.0728
-3.36685 1.71852 2.05788
-3.37691 1.72041 2.04992
-3.38001 1.7172 2.03599
-3.38405 1.71713 2.03102
-3.39809 1.72205 2.02506
-3.4012 1.71885 2.01113
-3.4043 1.71666 1.99818
-3.41437 1.71753 1.98924
-3.41846 1.71634 1.97629
-3.42555 1.71618 1.96534
-3.43761 1.71807 1.9574
-3.42672 1.71086 1.94343
-3.44077 1.71377 1.93649
-3.45083 1.71564 1.92753
-3.45294 1.71243 1.9136
-3.45703 1.71026 1.90166
-3.46311 1.7101 1.8907
-3.47424 1.70986 1.87379
-3.47933 1.70968 1.86183
-3.48242 1.70751 1.84988
-3.49449 1.70938 1.84094
-3.4946 1.70618 1.82699
-3.50467 1.70804 1.81704
-3.50776 1.70586 1.80509
-3.51479 1.70781 1.80112
-3.51491 1.70358 1.78618
-3.52497 1.70546 1.77722
-3.53404 1.70733 1.76826
-3.53914 1.70614 1.75532
-3.53725 1.70192 1.74036
-3.55529 1.70786 1.73541
-3.55335 1.70474 1.72744
-3.55546 1.70253 1.71349
-3.56751 1.70542 1.70553
-3.59849 1.71747 1.70759
-3.58367 1.70712 1.68463
-3.58478 1.70392 1.67068
-3.59285 1.70478 1.66073
-3.59098 1.70054 1.64478
-3.59103 1.69843 1.63781
-3.60209 1.70131 1.62885
-3.60917 1.70117 1.6189
-3.61725 1.70201 1.60795
-3.62134 1.70083 1.59599
-3.63042 1.70269 1.58603
-3.63053 1.69947 1.57108
-3.62959 1.69737 1.5641
-3.63767 1.69821 1.55315
-3.64176 1.69703 1.5412
-3.65581 1.70094 1.53424
-3.65991 1.69975 1.52129
-3.66499 1.69959 1.51033
-3.66809 1.6984 1.49737
-3.67512 1.70035 1.49339
-3.6812 1.70019 1.48244
-3.68231 1.69798 1.46848
-3.69437 1.70086 1.45952
-3.70245 1.70272 1.44956
-3.70454 1.70052 1.4366
-3.71063 1.70035 1.42465
-3.71467 1.70128 1.41966
-3.71876 1.70011 1.40771
-3.71688 1.69688 1.39274
-3.72396 1.69772 1.38178
-3.73005 1.69755 1.36983
-3.73514 1.69738 1.35787
-3.74122 1.69722 1.34692
-3.74128 1.69612 1.33993
-3.74736 1.69696 1.32896
-3.75146 1.69577 1.31601
-3.75256 1.69358 1.30305
-3.76462 1.69645 1.2941
-3.76771 1.69628 1.28212
-3.77679 1.69712 1.27117
-3.77884 1.69703 1.26519
-3.78592 1.69787 1.25423
-3.78702 1.69568 1.24127
-3.79709 1.69854 1.2313
-3.81016 1.70242 1.22234
-3.82122 1.70529 1.21338
-3.80937 1.697 1.19441
-3.82742 1.70391 1.18744
-3.80953 1.69371 1.17446
-3.82459 1.69858 1.1655
-3.82768 1.69741 1.15354
-3.8248 1.69419 1.13856
-3.82589 1.69199 1.1256
-3.85292 1.70295 1.12164
-3.84405 1.6957 1.10468
-3.8421 1.69359 1.09769
-3.85129 1.69323 1.07277
-3.86236 1.69709 1.06279
-3.86057 1.69169 1.03585
-3.87359 1.69665 1.03288
-3.87978 1.69528 1.00794
-3.88686 1.69713 0.996965
-3.89206 1.69475 0.971036
-3.89615 1.69457 0.959068
-3.8963 1.69128 0.939115
-3.90039 1.6911 0.927147
-3.90858 1.69074 0.902211
-3.91068 1.69055 0.889227
-3.91986 1.6902 0.865298
-3.91292 1.68607 0.857306
-3.93197 1.69397 0.849332
-3.91312 1.68267 0.830354
-3.9252 1.68653 0.820387
-3.93527 1.68939 0.810419
-3.9254 1.68315 0.794435
-3.93348 1.68499 0.783467
-3.9465 1.68994 0.779491
-3.94061 1.68573 0.765507
-3.94271 1.68454 0.752539
-3.96177 1.69242 0.743564
-3.93992 1.68014 0.725579
-3.94101 1.67895 0.712603
-3.94815 1.67969 0.694644
-3.95424 1.68151 0.682661
-3.9723 1.68739 0.673709
-3.95144 1.67711 0.655701
-3.95453 1.67694 0.643725
-3.97959 1.68683 0.635767
-3.9737 1.68262 0.621783
-3.9728 1.68042 0.607807
-3.97385 1.68033 0.601815
-3.96996 1.67712 0.587831
-3.97205 1.67694 0.575848
-3.99112 1.68381 0.565889
-3.97125 1.67254 0.548903
-3.97534 1.67337 0.53692
-3.9944 1.68125 0.527946
-3.97748 1.67209 0.517953
-3.98357 1.67391 0.50597
-3.99465 1.67776 0.494995
-3.99175 1.67556 0.482004
-4.00184 1.67839 0.470036
-4.00194 1.6772 0.457053
-4.00303 1.67602 0.445077
-4.00208 1.67492 0.438085
-4.01716 1.68077 0.427111
-4.01027 1.67656 0.413119
-4.00937 1.67436 0.400143
-4.01646 1.67719 0.388153
-4.00657 1.67098 0.374168
-4.01566 1.6738 0.362193
-4.0187 1.67472 0.356202
-4.0168 1.67352 0.343204
-4.0169 1.67233 0.33022
-4.017 1.67114 0.317237
-4.01011 1.66693 0.303245
-4.01719 1.66877 0.29227
-4.02328 1.67058 0.279287
-4.02033 1.66849 0.273295
-4.01644 1.66628 0.259296
-4.02353 1.66811 0.247321
-4.01863 1.66491 0.23433
-4.02571 1.66674 0.222354
-4.0348 1.67057 0.210365
-4.0309 1.66737 0.197381
-4.02501 1.66416 0.183382
-4.05102 1.67613 0.1804
-4.03814 1.6689 0.165408
-4.02725 1.66269 0.151416
-4.04133 1.66854 0.140434
-4.03643 1.66534 0.127443
-4.04552 1.66917 0.115453
-4.05061 1.66998 0.102478
-4.04566 1.66789 0.0964704
-4.04876 1.6687 0.0834799
-4.04586 1.6665 0.0704887
-4.04596 1.66531 0.0575053
-4.04306 1.66412 0.0444994
-4.04814 1.66494 0.0325238
-4.04924 1.66475 0.0195331
-4.0453 1.66364 0.0125188
-4.05039 1.66447 0.000543289
-4.05348 1.66528 -0.0124471
-4.05357 1.6651 -0.0244455
-4.05167 1.66291 -0.0374291
-4.04477 1.65971 -0.0504356
-4.05687 1.66453 -0.0634175
-4.05091 1.66243 -0.0694322
-4.05001 1.66124 -0.0824232
-4.04711 1.65905 -0.0954143
-4.0612 1.66488 -0.107396
-4.0503 1.65968 -0.120403
-4.0454 1.65648 -0.133395
-4.05849 1.6623 -0.146384
-4.06054 1.66321 -0.152383
-4.06164 1.66302 -0.165373
-4.06672 1.66585 -0.177379
-4.05682 1.66065 -0.190378
-4.05292 1.65845 -0.203377
-4.06602 1.66427 -0.216366
-4.05611 1.65908 -0.228365
-4.05916 1.65998 -0.235357
-4.06126 1.66079 -0.248355
-4.05935 1.65961 -0.260353
-4.06345 1.66142 -0.273351
-3.41843 1.72443 1.84715
-3.42352 1.72326 1.8352
-3.42961 1.72208 1.82327
-3.43172 1.71988 1.80931
-3.43979 1.72074 1.79936
-3.44587 1.72059 1.78941
-3.45091 1.72052 1.78444
-3.454 1.71933 1.77148
-3.46109 1.71917 1.76054
-3.46716 1.71903 1.75058
-3.47324 1.71887 1.73963
-3.48033 1.71871 1.72868
-3.48343 1.71652 1.71574
-3.48349 1.71441 1.70777
-3.48857 1.71325 1.69682
-3.50361 1.71917 1.69085
-3.50572 1.71596 1.67691
-3.50882 1.71377 1.66396
-3.51789 1.71565 1.655
-3.52695 1.71752 1.64604
-3.53298 1.71846 1.64207
-3.52712 1.71219 1.62412
-3.54216 1.71711 1.61816
-3.54526 1.71492 1.60521
-3.54637 1.71172 1.59127
-3.56755 1.71538 1.56737
-3.57164 1.7142 1.55541
-3.57773 1.71403 1.54346
-3.5848 1.71489 1.5335
-3.58591 1.71168 1.51955
-3.60107 1.71338 1.49864
-3.59714 1.71025 1.48966
-3.61428 1.71298 1.47074
-3.61837 1.71179 1.45779
-3.63065 1.70926 1.42191
-3.63768 1.71121 1.41794
-3.64475 1.71207 1.40798
-3.65393 1.71072 1.38406
-3.6682 1.70921 1.34919
-3.67528 1.71005 1.33823
-3.71508 1.7065 1.23156
-3.75394 1.70184 1.11791
-3.76406 1.70361 1.10196
-3.79385 1.69809 0.998251
-3.83484 1.69616 0.86657
-3.84921 1.69545 0.817682
-3.84941 1.69106 0.791745
-3.8545 1.69189 0.779769
-3.86253 1.69484 0.775785
-3.86062 1.69264 0.762802
-3.86791 1.69009 0.724889
-3.87514 1.68965 0.694946
-3.87823 1.68947 0.68297
-3.88033 1.68828 0.670002
-3.88142 1.68809 0.657011
-3.88551 1.68791 0.645043
-3.89459 1.69077 0.635068
-3.8917 1.68756 0.621092
-3.88476 1.68344 0.613099
-3.89394 1.68509 0.589141
-3.90002 1.68693 0.578158
-3.89713 1.68372 0.564181
-3.90521 1.68657 0.553199
-3.90431 1.68437 0.540223
-3.90934 1.6863 0.535231
-3.91244 1.68611 0.522256
-3.92052 1.68796 0.511288
-3.92261 1.68778 0.499305
-3.91772 1.68457 0.485313
-3.9258 1.68641 0.474345
-3.9269 1.68522 0.461369
-3.92195 1.68311 0.454362
-3.92305 1.68192 0.441386
-3.92923 1.68257 0.41742
-3.93532 1.6844 0.405437
-3.9435 1.68505 0.381486
-3.9436 1.68385 0.368503
-3.93965 1.68175 0.361503
-3.93575 1.67855 0.348519
-3.94483 1.6824 0.337529
-3.94003 1.67701 0.311569
-3.95111 1.68185 0.30058
-3.95426 1.68157 0.281605
-3.95435 1.68038 0.268621
-3.95245 1.67819 0.255638
-3.95754 1.68001 0.243647
-3.95763 1.67884 0.231664
-3.96073 1.67965 0.218673
-3.96082 1.67847 0.20669
-3.95788 1.67636 0.199698
-3.96696 1.68021 0.188708
-3.96406 1.67801 0.175717
-3.96934 1.67745 0.137759
-3.97243 1.67828 0.125769
-3.97357 1.678 0.106779
-3.97476 1.67663 0.0818048
-3.97386 1.67543 0.0688139
-3.97695 1.67626 0.0568233
-3.97804 1.67608 0.0448325
-3.9751 1.67398 0.0378405
-3.9632 1.66778 0.0248409
-3.97928 1.67461 0.0128592
-3.97438 1.67241 -0.000146981
-3.97947 1.67324 -0.0121225
-3.97857 1.67205 -0.0251134
-3.96967 1.66785 -0.0381201
-3.98171 1.67278 -0.0431032
-3.9788 1.67159 -0.0561092
-3.96991 1.66639 -0.069101
-3.97599 1.66922 -0.0810987
-3.98208 1.67104 -0.0930815
-3.97918 1.66985 -0.106087
-3.97828 1.66865 -0.119078
-3.98637 1.67148 -0.131061
-3.98142 1.66939 -0.137068
-3.97951 1.6682 -0.150067
-3.9876 1.67102 -0.162049
-3.9847 1.66983 -0.175055
-3.98679 1.66965 -0.187038
-3.98689 1.66946 -0.200037
-3.98203 1.66718 -0.219042
-3.98712 1.669 -0.231032
-3.98022 1.6658 -0.244039
-3.98631 1.66863 -0.256036
5.09182 -0.510531 9.10912
5.10454 -0.512133 9.20406
5.15609 -0.516104 9.41076
5.17795 -0.518417 9.52565
5.19882 -0.520714 9.64154
5.21158 -0.522227 9.74248
5.23856 -0.524322 9.87232
5.25946 -0.526559 9.99222
5.2963 -0.528927 10.104
5.31419 -0.531178 10.2229
5.33919 -0.533226 10.3558
5.36623 -0.536202 10.4936
5.47216 -0.545518 11.017
5.49623 -0.548432 11.1589
5.52845 -0.551056 11.3207
5.68937 -0.566486 12.1089
5.00333 -0.437435 8.63864
5.01904 -0.438054 8.73254
5.09486 -0.44254 9.10809
5.11061 -0.444085 9.20701
5.12738 -0.444587 9.3089
5.14518 -0.446015 9.41581
5.18197 -0.447487 9.52057
5.20283 -0.448799 9.63544
5.22166 -0.450169 9.74634
5.24254 -0.451451 9.86321
5.26547 -0.453646 9.98609
5.28232 -0.454984 10.099
5.3411 -0.457502 10.3366
5.36204 -0.458681 10.4605
5.38806 -0.460671 10.5974
5.41106 -0.462718 10.7302
5.44118 -0.464548 10.8781
5.52823 -0.469583 11.2845
5.56146 -0.471178 11.4483
5.7598 -0.483867 12.4232
5.7901 -0.485327 12.596
5.83263 -0.488322 12.8007
5.14029 -0.393824 9.29305
5.16014 -0.39418 9.40492
5.17186 -0.394767 9.50086
5.25245 -0.397716 9.84534
5.27335 -0.398954 9.96522
5.29528 -0.399148 10.0881
5.31417 -0.400399 10.207
5.34119 -0.401405 10.3428
5.37706 -0.402728 10.4576
5.397 -0.402876 10.5834
5.42608 -0.404765 10.7273
5.45115 -0.40568 10.8691
5.47519 -0.406653 11.007
5.50638 -0.407336 11.1648
5.57044 -0.41031 11.4394
5.60268 -0.41089 11.6041
5.63086 -0.412585 11.761
5.66112 -0.414133 11.9278
5.80322 -0.419181 12.6059
5.84066 -0.420364 12.7977
5.87407 -0.422604 12.9855
6.08069 -0.430752 13.9972
4.91796 -0.311184 8.17835
4.93667 -0.310806 8.27222
4.95133 -0.310513 8.36012
5.02601 -0.310295 8.7156
5.04374 -0.310857 8.81349
5.0544 -0.310576 8.90041
5.07215 -0.311108 9.0003
5.12161 -0.311256 9.19496
5.13838 -0.310758 9.29684
5.15314 -0.310273 9.39773
5.17297 -0.310658 9.50761
5.19485 -0.310941 9.62446
5.25356 -0.310622 9.85105
5.27444 -0.31089 9.96891
5.29028 -0.311258 10.0798
5.31525 -0.311365 10.2086
5.42003 -0.310992 10.7109
5.44913 -0.310851 10.8567
5.47418 -0.310796 10.9965
5.62878 -0.311876 11.7405
5.14643 -0.25474 9.29795
5.28457 -0.251726 9.97996
5.30954 -0.250834 10.1088
5.38623 -0.249588 10.4662
5.41634 -0.248433 10.613
5.43833 -0.247494 10.7448
5.46338 -0.247454 10.8837
5.49047 -0.246327 11.0285
5.55655 -0.245273 11.305
5.58978 -0.244868 11.4688
5.61491 -0.243665 11.6186
5.64514 -0.243273 11.7814
5.67437 -0.241881 11.9441
5.75688 -0.24098 12.2786
5.79124 -0.240339 12.4583
5.82462 -0.238653 12.6411
5.85495 -0.238054 12.8178
5.89549 -0.237048 13.0226
5.93197 -0.236157 13.2193
6.02187 -0.234521 13.6036
6.05739 -0.233541 13.8064
6.096 -0.232399 14.0201
4.89621 -0.192795 8.06775
4.91086 -0.192532 8.15365
4.9708 -0.18877 8.41017
4.99257 -0.188261 8.51302
5.00624 -0.186953 8.60191
5.01788 -0.185703 8.68681
5.0336 -0.184307 8.78168
5.06629 -0.183969 8.87345
5.08302 -0.18253 8.97131
5.09775 -0.181119 9.06719
5.11653 -0.180593 9.17106
5.13128 -0.179137 9.26994
5.15413 -0.177481 9.38276
5.20772 -0.17538 9.59435
5.23265 -0.173577 9.71716
5.25759 -0.172744 9.84197
5.27645 -0.17107 9.95582
5.30039 -0.169236 10.0806
5.38213 -0.165891 10.445
5.40106 -0.164083 10.5679
5.42811 -0.162029 10.7076
5.45112 -0.161062 10.8415
5.48532 -0.158732 11.0002
5.58155 -0.154435 11.4295
5.61072 -0.152161 11.5842
5.64092 -0.150813 11.744
5.6671 -0.148522 11.8998
5.81729 -0.140429 12.5877
5.85777 -0.138541 12.7844
5.89116 -0.136826 12.9691
5.93169 -0.133849 13.1718
6.0926 -0.125327 13.9565
5.18351 -0.124812 9.42876
5.1993 -0.123268 9.53364
5.3268 -0.113506 10.1306
5.35179 -0.111584 10.2614
5.37069 -0.109836 10.3803
5.42852 -0.106265 10.6238
5.45356 -0.103255 10.7606
5.47759 -0.101229 10.8984
5.50775 -0.0989703 11.0522
5.53282 -0.0968858 11.194
5.56201 -0.0935823 11.3507
5.63829 -0.089151 11.6531
5.66242 -0.0869474 11.8029
5.69164 -0.084555 11.9657
5.72395 -0.0810168 12.1384
5.84293 -0.0722701 12.6665
5.87936 -0.0694831 12.8562
5.90871 -0.0668391 13.0359
5.95027 -0.0638041 13.2426
4.88463 -0.0870721 7.98026
4.89724 -0.0858819 8.06116
4.90985 -0.0836917 8.14204
4.92957 -0.0812994 8.23687
4.94321 -0.0800507 8.32176
4.97892 -0.07767 8.41647
4.98953 -0.0754784 8.49737
5.00523 -0.0741127 8.59024
5.02194 -0.071733 8.68409
5.03563 -0.0693956 8.77497
5.10384 -0.0630919 9.0684
5.11654 -0.0607241 9.16128
5.13636 -0.0581394 9.26911
5.25556 -0.0459638 9.82611
5.27849 -0.0431592 9.94891
5.43014 -0.0261495 10.6986
4.89494 -0.027553 8.0153
4.91263 -0.0242186 8.10613
4.92728 -0.021941 8.193
4.95003 -0.0194769 8.29281
4.95964 -0.0172994 8.37271
4.9913 -0.0140196 8.46044
5.00801 -0.0116399 8.55429
5.02371 -0.00927428 8.64715
5.03638 -0.00696571 8.73603
5.05617 -0.0034403 8.83985
5.07292 -0.000971807 8.9397
5.09372 0.00159738 9.04652
5.12036 0.00482165 9.13028
5.14017 0.00740637 9.23811
5.15392 0.00986224 9.33698
5.28031 0.0264024 9.91886
5.30122 0.0301639 10.0387
4.90092 0.0403168 8.00625
4.97041 0.052152 8.3356
4.98609 0.054488 8.42646
5.0038 0.0578521 8.51929
5.01848 0.0611887 8.61014
5.06181 0.0677629 8.78574
5.07956 0.0712157 8.88457
5.09731 0.0746834 8.9844
5.11609 0.0782095 9.08822
5.12779 0.0815631 9.18009
5.1476 0.0851329 9.28691
5.18133 0.0885593 9.38462
5.20016 0.0921595 9.49344
5.22304 0.0958751 9.61022
5.24289 0.100534 9.72302
5.2658 0.104294 9.84281
5.28669 0.10904 9.9616
5.34546 0.117462 10.1951
5.36435 0.121195 10.3129
5.38731 0.126074 10.4407
5.41233 0.130054 10.5754
5.53452 0.150197 11.1303
5.5657 0.155484 11.286
5.58673 0.160483 11.4218
5.7568 0.189277 12.2252
5.25687 0.158399 9.71406
5.39828 0.186926 10.4307
5.43041 0.193123 10.5804
5.44631 0.197873 10.6992
5.57367 0.221338 11.276
5.61098 0.227872 11.4486
5.63101 0.233886 11.5854
5.66835 0.240479 11.762
5.70634 0.246406 11.8937
5.76992 0.260423 12.235
5.80936 0.268222 12.4256
5.83153 0.274501 12.5804
5.87408 0.282505 12.785
5.96692 0.298019 13.1611
6.00139 0.305881 13.3558
6.03588 0.313772 13.5524
4.9662 0.160595 8.29702
4.98593 0.165017 8.39382
5.0006 0.169324 8.48266
5.01933 0.173746 8.57946
5.06062 0.181248 8.75007
5.08344 0.18583 8.85784
5.09714 0.190197 8.95069
5.11793 0.195736 9.05546
5.13672 0.200262 9.15927
5.14944 0.204659 9.25412
5.18724 0.209201 9.35978
5.2101 0.214887 9.47454
5.22792 0.219473 9.58235
5.24877 0.225131 9.69513
5.26865 0.229834 9.81093
5.28954 0.235565 9.9287
5.31348 0.241398 10.0535
5.35031 0.246 10.1631
5.37125 0.251821 10.2869
5.39014 0.257554 10.4047
5.41514 0.263505 10.5374
5.44221 0.269572 10.6782
5.53936 0.28969 11.0952
5.5685 0.296904 11.2459
5.59563 0.30309 11.3946
5.62479 0.310364 11.5493
5.76669 0.340869 12.1969
5.79595 0.348305 12.3626
5.82726 0.355858 12.5362
6.02032 0.399574 13.4703
5.1675 0.275683 9.25593
5.1853 0.281239 9.36173
5.26079 0.299069 9.69094
5.28472 0.304873 9.81369
5.30764 0.311647 9.93444
5.32956 0.318438 10.0562
5.34744 0.324157 10.173
5.41337 0.337884 10.4273
5.43939 0.344878 10.563
5.45732 0.350671 10.6848
5.48846 0.358884 10.8355
5.51352 0.365953 10.9762
5.54266 0.374167 11.1269
5.58365 0.381076 11.2575
5.61891 0.390523 11.4241
5.64404 0.397725 11.5739
5.67628 0.40713 11.7375
5.70348 0.415449 11.8952
5.73374 0.423899 12.0619
5.80712 0.440524 12.3771
5.84048 0.450149 12.5557
5.87691 0.459935 12.7453
5.91439 0.47081 12.9409
5.08545 0.316681 8.84689
5.19228 0.346109 9.35272
5.21312 0.352736 9.46348
5.23398 0.359409 9.57724
5.33446 0.386145 10.0361
5.35639 0.39395 10.1589
5.38035 0.400827 10.2866
5.39926 0.40759 10.4064
5.49023 0.431341 10.7984
5.51934 0.439496 10.9451
5.54744 0.447637 11.0908
5.56846 0.45562 11.2255
5.60168 0.464979 11.3862
5.67898 0.483438 11.6903
5.7082 0.4928 11.851
5.7364 0.502133 12.0097
5.76767 0.511597 12.1773
5.79998 0.522135 12.3499
5.88661 0.543223 12.697
5.91694 0.552821 12.8737
5.94831 0.563478 13.0543
5.98886 0.575483 13.2589
4.92645 0.326963 8.04882
4.93501 0.331052 8.12271
4.94966 0.336314 8.20853
5.01268 0.354221 8.47483
5.03345 0.360716 8.57659
5.04915 0.366081 8.6694
5.06486 0.371461 8.76322
5.08667 0.379029 8.86996
5.13108 0.39075 9.05548
