-3.16863 1.71035 2.88097
-3.17878 1.70706 2.86109
-3.19183 1.70797 2.85418
-3.2029 1.70884 2.84525
-3.21 1.70766 2.83232
-3.21213 1.70239 2.81441
-3.22319 1.70328 2.80648
-3.23624 1.70519 2.79955
-3.23632 1.70204 2.78959
-3.25235 1.70599 2.78565
-3.2664 1.7079 2.77873
-3.26952 1.70366 2.76281
-3.27562 1.70248 2.74988
-3.27478 1.69618 2.72996
-3.2908 1.70013 2.72602
-3.28591 1.69392 2.71207
-3.30692 1.69992 2.71114
-3.30706 1.69464 2.69222
-3.32706 1.70064 2.69128
-3.32125 1.69228 2.66736
-3.33331 1.69317 2.65944
-3.34032 1.69515 2.65746
-3.35239 1.69602 2.64854
-3.35949 1.69484 2.6356
-3.3626 1.69162 2.62067
-3.3697 1.68943 2.60776
-3.38673 1.69438 2.60381
-3.38885 1.69015 2.58789
-3.40092 1.69102 2.57897
-3.40794 1.69298 2.57599
-3.42 1.69387 2.56807
-3.4261 1.69268 2.55513
-3.42425 1.68639 2.5352
-3.44128 1.69034 2.53127
-3.45335 1.69222 2.52233
-3.44851 1.6849 2.5014
-3.45752 1.68688 2.49944
-3.46959 1.68875 2.4905
-3.4727 1.68553 2.47557
-3.48377 1.68641 2.46664
-3.49683 1.6893 2.4587
-3.49398 1.683 2.43877
-3.50008 1.68081 2.42584
-3.5071 1.68278 2.42287
-3.52711 1.68876 2.42093
-3.54031 1.68538 2.39507
-3.54243 1.68215 2.37914
-3.55847 1.68609 2.3742
-3.55462 1.67979 2.35426
-3.55867 1.6797 2.34829
-3.56973 1.68158 2.33934
-3.58478 1.68448 2.33241
-3.59386 1.68434 2.32248
-3.59997 1.68314 2.30854
-3.6221 1.68589 2.29067
-3.6152 1.68069 2.27769
-3.61633 1.67644 2.26076
-3.62839 1.67833 2.25282
-3.64245 1.68122 2.24488
-3.65862 1.68089 2.22201
-3.66372 1.67971 2.20906
-3.6598 1.67554 2.19809
-3.6909 1.68237 2.18522
-3.69414 1.6759 2.15334
-3.70819 1.6788 2.1464
-3.70335 1.67251 2.12646
-3.70745 1.6713 2.1125
-3.72044 1.67533 2.11354
-3.73463 1.67497 2.08865
-3.73575 1.67073 2.07272
-3.7549 1.67345 2.05282
-3.75901 1.67124 2.03888
-3.76106 1.67014 2.03191
-3.76915 1.66997 2.01997
-3.78122 1.67284 2.01102
-3.78532 1.67064 1.99708
-3.79241 1.67047 1.98514
-3.80659 1.67012 1.96125
-3.81661 1.6731 1.95928
-3.81872 1.67088 1.94432
-3.81784 1.66664 1.92838
-3.82494 1.66646 1.91543
-3.84098 1.67138 1.90948
-3.84011 1.66713 1.89253
-3.85317 1.67002 1.88459
-3.85025 1.66687 1.87461
-3.85436 1.66466 1.86067
-3.88236 1.67467 1.85974
-3.8755 1.66838 1.84077
-3.87762 1.66616 1.82582
-3.89765 1.6721 1.82088
-3.90573 1.67294 1.80993
-3.90579 1.67083 1.80196
-3.91687 1.67369 1.792
-3.90405 1.66334 1.76905
-3.91114 1.66316 1.75711
-3.93515 1.67214 1.75416
-3.92333 1.6628 1.7322
-3.94436 1.66974 1.72726
-3.94342 1.66762 1.71928
-3.9525 1.66947 1.70832
-3.95362 1.66625 1.69337
-3.95374 1.66301 1.67742
-3.95485 1.66079 1.66246
-3.97589 1.66773 1.65751
-3.97998 1.66654 1.64456
-3.98005 1.66442 1.63659
-3.99112 1.66728 1.62663
-3.99722 1.66709 1.61368
-3.99833 1.66387 1.59873
-4.00642 1.6647 1.58678
-4.00354 1.66046 1.57082
-4.00964 1.66027 1.55787
-4.01069 1.66017 1.55087
-4.01778 1.66 1.53893
-4.01889 1.65779 1.52497
-4.03595 1.66269 1.51702
-4.03009 1.65742 1.49905
-4.05611 1.66637 1.49512
-4.05523 1.66315 1.48016
-4.06126 1.66508 1.47517
-4.05839 1.66083 1.45821
-4.07445 1.66572 1.45026
-4.07456 1.6625 1.4353
-4.0677 1.65723 1.41733
-4.07978 1.66009 1.40738
-4.09086 1.66193 1.39643
-4.0949 1.66285 1.39045
-4.09701 1.66064 1.37649
-4.1041 1.66147 1.36453
-4.11119 1.6623 1.35257
-4.1113 1.66008 1.3376
-4.12637 1.66395 1.32866
-4.11751 1.65767 1.30968
-4.12959 1.66053 1.29973
-4.12366 1.65637 1.28975
-4.12477 1.65517 1.27577
-4.14184 1.66005 1.26682
-4.14693 1.65986 1.25386
-4.14306 1.65562 1.2379
-4.15812 1.66049 1.22894
-4.15518 1.65837 1.22094
-4.16527 1.6602 1.20899
-4.1584 1.65495 1.19201
-4.15951 1.65274 1.17805
-4.18067 1.65743 1.15614
-4.17281 1.65216 1.13816
-4.18688 1.65602 1.1282
-4.18694 1.65492 1.12122
-4.19303 1.65573 1.10825
-4.18916 1.65149 1.09228
-4.19824 1.65333 1.08132
-4.20633 1.65516 1.06936
-4.21043 1.65496 1.05539
-4.20755 1.65173 1.04041
-4.22356 1.65771 1.03844
-4.21071 1.64942 1.01947
-4.2148 1.64923 1.0065
-4.2219 1.65105 0.993523
-4.22999 1.65188 0.98157
-4.22711 1.64865 0.966594
-4.22721 1.64744 0.952611
-4.23625 1.65038 0.947635
-4.23635 1.64817 0.933667
-4.23547 1.64595 0.918691
-4.24656 1.64878 0.906731
-4.24666 1.64757 0.892747
-4.23779 1.64131 0.875771
-4.24288 1.64214 0.863795
-4.24993 1.64405 0.857819
-4.25602 1.64487 0.844851
-4.24915 1.63962 0.828875
-4.25923 1.64347 0.817892
-4.27232 1.6463 0.805948
-4.25745 1.63904 0.788941
-4.27353 1.64389 0.777989
-4.27158 1.64278 0.770989
-4.28566 1.64663 0.760037
-4.27279 1.63937 0.743045
-4.2759 1.63916 0.72907
-4.28798 1.64301 0.718102
-4.29109 1.6428 0.704127
-4.30017 1.64463 0.692166
-4.29624 1.64251 0.684167
-4.29235 1.63929 0.669183
-4.31142 1.64615 0.659224
-4.29955 1.63989 0.642225
-4.30465 1.6407 0.62925
-4.29478 1.63446 0.613265
-4.31185 1.64031 0.602306
-4.3159 1.64122 0.596322
-4.32599 1.64405 0.584355
-4.31911 1.63981 0.568363
-4.32521 1.64162 0.555381
-4.31333 1.63538 0.539381
-4.32142 1.63721 0.527414
-4.33152 1.64002 0.514446
-4.32059 1.63488 0.505439
-4.32069 1.63367 0.491456
-4.33278 1.6375 0.479488
-4.34587 1.64133 0.467528
-4.33199 1.63409 0.451529
-4.34009 1.6369 0.438547
-4.32921 1.63067 0.423555
-4.3373 1.63348 0.410572
-4.33236 1.63036 0.40258
-4.35144 1.63721 0.391621
-4.33158 1.62795 0.374606
-4.33367 1.62776 0.361623
-4.34676 1.63259 0.349648
-4.35287 1.63339 0.335681
-4.35596 1.63419 0.32269
-4.35203 1.63207 0.314691
-4.34613 1.62886 0.300692
-4.36422 1.6357 0.288725
-4.36432 1.63449 0.274742
-4.35544 1.62926 0.259751
-4.36653 1.63309 0.247776
-4.36663 1.63188 0.233793
-4.36869 1.63278 0.226794
-4.36879 1.63158 0.212811
-4.3669 1.63037 0.198812
-4.368 1.63016 0.184822
-4.36411 1.62695 0.170838
-4.37521 1.63077 0.157863
-4.37231 1.62956 0.143857
-4.36038 1.62343 0.135857
-4.37646 1.62926 0.12389
-4.37258 1.62704 0.108892
-4.37368 1.62685 0.0959012
-4.38977 1.63267 0.0829345
-4.37589 1.62643 0.0679201
-4.37399 1.62523 0.0539218
-4.38504 1.62914 0.0479461
-4.37714 1.62493 0.0339471
-4.37225 1.62272 0.019941
-4.38135 1.62552 0.00596623
-4.37846 1.62431 -0.00803961
-4.37157 1.6211 -0.0220459
-4.39665 1.63094 -0.0340042
-4.38677 1.62571 -0.0490034
-4.37982 1.6226 -0.0560106
-4.38792 1.62541 -0.0689931
-4.37903 1.62119 -0.0839995
-4.39113 1.626 -0.0969815
-4.38024 1.62079 -0.110988
-4.38134 1.62058 -0.124979
-4.39044 1.62439 -0.137969
-4.38549 1.62229 -0.144976
-4.3896 1.62308 -0.158958
-4.3917 1.62388 -0.172956
-4.39081 1.62267 -0.186947
-4.3949 1.62448 -0.199945
-4.40201 1.62728 -0.213935
-4.39312 1.62306 -0.227941
-4.39117 1.62196 -0.23494
-4.39327 1.62275 -0.248938
-4.38837 1.62056 -0.261944
-2.85448 1.70841 3.03265
-2.88758 1.71222 3.01884
-2.90161 1.71516 3.01391
-2.90872 1.71196 3.00001
-2.9178 1.71181 2.99007
-2.92787 1.71167 2.98015
-2.93993 1.71156 2.97224
-2.95 1.71144 2.96332
-2.9661 1.71226 2.95043
-2.9732 1.71007 2.93751
-2.97831 1.70685 2.92259
-2.98441 1.70366 2.90969
-2.98854 1.69942 2.89278
-3.01249 1.70852 2.89882
-3.02355 1.70941 2.89089
-3.02065 1.70422 2.87795
-3.03568 1.70717 2.87402
-3.03485 1.69984 2.85211
-3.05186 1.70482 2.85017
-3.06094 1.70367 2.83925
-3.06506 1.70045 2.82433
-3.08307 1.70543 2.82239
-3.08512 1.70333 2.81544
-3.09421 1.70217 2.80452
-3.10229 1.70202 2.79358
-3.11236 1.70188 2.78366
-3.12838 1.70484 2.78074
-3.13052 1.70058 2.76281
-3.13059 1.69745 2.75386
-3.14364 1.69935 2.74693
-3.15173 1.69819 2.736
-3.15585 1.69496 2.72008
-3.1679 1.69687 2.71314
-3.17697 1.69672 2.70321
-3.19102 1.69865 2.69729
-3.19911 1.69747 2.68536
-3.19917 1.69536 2.67739
-3.20627 1.69317 2.66448
-3.22726 1.7002 2.66553
-3.22641 1.6939 2.64562
-3.23549 1.69376 2.63569
-3.23762 1.68951 2.61876
-3.24471 1.68832 2.60583
-3.25272 1.69031 2.60486
-3.26379 1.69119 2.59593
-3.27485 1.69208 2.588
-3.273 1.68578 2.56808
-3.2801 1.68459 2.55515
-3.29116 1.68548 2.54722
-3.30322 1.68737 2.53928
-3.30329 1.68424 2.53032
-3.31633 1.68716 2.52438
-3.32853 1.68379 2.49852
-3.34768 1.6835 2.47866
-3.35874 1.68539 2.47072
-3.35682 1.68123 2.45976
-3.3649 1.68107 2.44882
-3.37498 1.68193 2.43889
-3.38704 1.68282 2.43096
-3.4032 1.68252 2.41008
-3.49623 1.67656 2.27386
-3.52154 1.67497 2.23306
-3.53061 1.67583 2.22312
-3.5377 1.67466 2.21119
-3.54478 1.6745 2.20024
-3.59845 1.67124 2.11268
-3.61362 1.67091 2.0898
-3.62064 1.67187 2.08684
-3.63283 1.67051 2.06194
-3.68338 1.67046 1.98932
-3.72298 1.66631 1.90967
-3.73715 1.66598 1.88677
-3.75233 1.66665 1.86387
-3.75948 1.66436 1.84396
-3.77054 1.66723 1.835
-3.78882 1.66571 1.79915
-3.78894 1.66247 1.7832
-3.80206 1.66325 1.76729
-3.81313 1.66611 1.75733
-3.83556 1.66128 1.70056
-3.85085 1.65973 1.66269
-3.87013 1.65919 1.62584
-3.89765 1.65619 1.55708
-3.91487 1.65676 1.5272
-3.96477 1.65404 1.4086
-3.97186 1.65386 1.39665
-3.98709 1.65441 1.36576
-3.9872 1.65221 1.35179
-4.00049 1.65064 1.31291
-4.00869 1.64926 1.28698
-4.01672 1.65221 1.283
-4.01682 1.649 1.26905
-4.04335 1.64798 1.19925
-4.04745 1.64779 1.18628
-4.05454 1.64862 1.17432
-4.05764 1.64742 1.16036
-4.05875 1.64621 1.14639
-4.07181 1.65009 1.13743
-4.06799 1.64474 1.11447
-4.07608 1.64557 1.10252
-4.07818 1.64538 1.08954
-4.08427 1.64521 1.07758
-4.08837 1.64502 1.06462
-4.09147 1.64481 1.05064
-4.09357 1.64362 1.03767
-4.09961 1.64455 1.0327
-4.1057 1.64536 1.01974
-4.10381 1.64315 1.00575
-4.10791 1.64297 0.992784
-4.1221 1.64461 0.967863
-4.1202 1.6424 0.95388
-4.13344 1.64293 0.921967
-4.12856 1.63971 0.906976
-4.13765 1.64154 0.895016
-4.13985 1.63914 0.868064
-4.1399 1.63803 0.86108
-4.14699 1.63886 0.849119
-4.15408 1.64069 0.837144
-4.14921 1.63645 0.821168
-4.15929 1.63929 0.8102
-4.16155 1.63578 0.775265
-4.16864 1.6376 0.763289
-4.16974 1.63641 0.750314
-4.17983 1.63924 0.738346
-4.18103 1.63684 0.711387
-4.17915 1.63362 0.696418
-4.1864 1.63314 0.663475
-4.18849 1.63195 0.650507
-4.1937 1.63155 0.623548
-4.19879 1.63238 0.611573
-4.20888 1.6352 0.599605
-4.20793 1.6351 0.592599
-4.20703 1.63289 0.578623
-4.20315 1.62967 0.563639
-4.21244 1.6301 0.524697
-4.21754 1.62991 0.511737
-4.22058 1.63082 0.505746
-4.22468 1.63163 0.492763
-4.22421 1.62561 0.423839
-4.22925 1.62653 0.417862
-4.23435 1.62834 0.404872
-4.22945 1.62513 0.390881
-4.23155 1.62493 0.377898
-4.23765 1.62575 0.36493
-4.23575 1.62454 0.350931
-4.24185 1.62535 0.337964
-4.2449 1.62626 0.331972
-4.2481 1.62587 0.304998
-4.2502 1.62567 0.292015
-4.2463 1.62346 0.278017
-4.24641 1.62226 0.264033
-4.24851 1.62207 0.25105
-4.25256 1.62297 0.244067
-4.25466 1.62277 0.231083
-4.25507 1.61998 0.17712
-4.26216 1.62179 0.164145
-4.26226 1.6216 0.151147
-4.26631 1.62249 0.144163
-4.26242 1.62028 0.130165
-4.27451 1.62412 0.118198
-4.26661 1.6209 0.104184
-4.26972 1.6207 0.0902082
-4.27681 1.62352 0.0782181
-4.27092 1.6203 0.0632195
-4.27097 1.62021 0.0572203
-4.27207 1.62 0.0432298
-4.28116 1.62283 0.0312547
-4.28926 1.62565 0.0182723
-4.28037 1.62142 0.00326583
-4.27248 1.6172 -0.0107332
-4.27558 1.61801 -0.0237236
-4.28662 1.62193 -0.0296993
-4.28772 1.62174 -0.04269
-4.28083 1.61853 -0.0566963
-4.28393 1.61932 -0.0706866
-4.28403 1.61913 -0.0836848
-4.28713 1.61994 -0.0966752
-4.29123 1.62074 -0.110658
-4.28429 1.61763 -0.117665
-4.27339 1.61341 -0.131687
-4.28549 1.61723 -0.144654
-4.28559 1.61704 -0.157652
-4.28669 1.61683 -0.171643
-4.28079 1.61463 -0.184657
-4.2829 1.61543 -0.198654
-4.28494 1.61634 -0.204653
-4.28405 1.61513 -0.218644
-4.27615 1.61193 -0.231658
-4.26926 1.60872 -0.245664
-4.29035 1.61654 -0.258623
-4.27946 1.61133 -0.27263
-2.93287 1.71071 2.84718
-2.94409 1.7053 2.81935
-2.96316 1.70717 2.80946
-2.9823 1.7069 2.79061
-3.00541 1.70869 2.77575
-3.02257 1.7074 2.7549
-3.02563 1.70629 2.74794
-3.06094 1.70371 2.70723
-3.06307 1.69946 2.69031
-3.08405 1.70651 2.69236
-3.08115 1.70131 2.67942
-3.08724 1.69914 2.66749
-3.10128 1.70206 2.66156
-3.10639 1.69886 2.64764
-3.12241 1.70282 2.6447
-3.12354 1.69857 2.62777
-3.13659 1.70048 2.62084
-3.1307 1.69427 2.60689
-3.14587 1.69194 2.58403
-3.16984 1.70102 2.58808
-3.18005 1.69561 2.56023
-3.18217 1.69137 2.54431
-3.19529 1.69116 2.52941
-3.20932 1.6941 2.52447
-3.2323 1.70214 2.52652
-3.22449 1.69277 2.5016
-3.23655 1.69366 2.49368
-3.25357 1.69863 2.49073
-3.25066 1.69446 2.47977
-3.24682 1.68715 2.45885
-3.27577 1.69826 2.4649
-3.261 1.68482 2.43598
-3.28299 1.69183 2.43605
-3.29604 1.69474 2.4291
-3.2912 1.68744 2.40917
-3.29027 1.68329 2.39922
-3.31028 1.69029 2.39827
-3.30544 1.68298 2.37734
-3.31551 1.68285 2.36841
-3.32756 1.68576 2.36146
-3.33465 1.68458 2.34953
-3.3318 1.67829 2.3296
-3.3577 1.69048 2.34161
-3.34591 1.67809 2.31571
-3.3679 1.6861 2.31575
-3.36902 1.68187 2.29982
-3.37624 1.67746 2.27194
-3.40123 1.68549 2.27301
-3.39942 1.67812 2.2481
-3.40352 1.67592 2.23416
-3.42665 1.67968 2.21728
-3.43492 1.67317 2.18243
-3.442 1.67301 2.17149
-3.45605 1.67592 2.16455
-3.46823 1.67357 2.14067
-3.48445 1.67215 2.11181
-3.49054 1.67098 2.09987
-3.51167 1.67373 2.08199
-3.51279 1.67051 2.06704
-3.52485 1.6724 2.0591
-3.52995 1.6712 2.04516
-3.53797 1.67317 2.04319
-3.55325 1.66962 2.00535
-3.5683 1.67354 1.99941
-3.59453 1.6751 1.96858
-3.58464 1.66789 1.95461
-3.59881 1.66756 1.93171
-3.60689 1.66842 1.92176
-3.61907 1.66707 1.89787
-3.6282 1.66581 1.87995
-3.64337 1.66649 1.85806
-3.6696 1.66905 1.82721
-3.67475 1.66676 1.80728
-3.69192 1.66745 1.7854
-3.69811 1.66407 1.75949
-3.70819 1.66593 1.74954
-3.7223 1.66771 1.73462
-3.73659 1.66516 1.69676
-3.74877 1.66482 1.67285
-3.74993 1.66049 1.65092
-3.77705 1.66727 1.63502
-3.80789 1.65565 1.52441
-3.84039 1.6557 1.45864
-3.84648 1.65553 1.44669
-3.86169 1.65611 1.41779
-3.87088 1.65474 1.39288
-3.87808 1.65337 1.36695
-3.88926 1.65302 1.34304
-3.8974 1.65276 1.3251
-3.90061 1.64935 1.29717
-3.91566 1.65424 1.28921
-3.93011 1.64937 1.23038
-3.9373 1.64801 1.20545
-3.94848 1.64866 1.18152
-3.95761 1.6494 1.16358
-3.95374 1.64516 1.14761
-3.96282 1.64701 1.13665
-3.97001 1.64564 1.11172
-3.98944 1.64481 1.05487
-3.99054 1.64362 1.0419
-3.99962 1.64546 1.03094
-4.0088 1.6451 1.00601
-4.01783 1.64805 1.00203
-4.01994 1.64784 0.988049
-4.01516 1.64141 0.959104
-4.02125 1.64224 0.947136
-4.0443 1.65115 0.940176
-4.02944 1.64187 0.922199
-4.03259 1.64058 0.90224
-4.03868 1.6414 0.890271
-4.04288 1.63902 0.864335
-4.05994 1.6459 0.85536
-4.05306 1.64066 0.839384
-4.05312 1.63956 0.8324
-4.05721 1.63938 0.820431
-4.06939 1.64102 0.795496
-4.0675 1.63881 0.781512
-4.0676 1.63662 0.768543
-4.0727 1.63743 0.755568
-4.07374 1.63734 0.749576
-4.06986 1.63412 0.734593
-4.08193 1.63798 0.724625
-4.07804 1.63475 0.709642
-4.09012 1.6386 0.698674
-4.08823 1.63539 0.684705
-4.09631 1.63823 0.673723
-4.08539 1.63208 0.66373
-4.11044 1.64198 0.655771
-4.09558 1.63371 0.638779
-4.09967 1.63454 0.626796
-4.10976 1.63737 0.614829
-4.10586 1.63416 0.600845
-4.12099 1.63792 0.583901
-4.1181 1.63571 0.56991
-4.11221 1.63148 0.554926
-4.12529 1.63633 0.543951
-4.12938 1.63715 0.531968
-4.1195 1.63091 0.515984
-4.12959 1.63375 0.505016
-4.12275 1.62942 0.483026
-4.13383 1.63227 0.472066
-4.12595 1.62804 0.457067
-4.13005 1.62885 0.444084
-4.14313 1.6327 0.433124
-4.13224 1.62747 0.418117
-4.15326 1.63544 0.415157
-4.14139 1.62919 0.399158
-4.13948 1.628 0.38616
-4.14957 1.63083 0.374192
-4.14768 1.62862 0.360209
-4.15377 1.63045 0.348226
-4.14788 1.62724 0.334227
-4.17194 1.6361 0.324276
-4.14903 1.62594 0.314252
-4.15912 1.62877 0.302285
-4.14923 1.62354 0.287286
-4.16431 1.62939 0.276311
-4.14743 1.62116 0.261304
-4.1755 1.63203 0.251353
-4.15058 1.62086 0.241329
-4.15967 1.62369 0.229354
-4.16976 1.62752 0.217372
-4.16786 1.62531 0.203388
-4.17106 1.62493 0.177414
-4.16526 1.62052 0.150432
-4.17531 1.62444 0.144449
-4.16941 1.62123 0.13045
-4.16451 1.61904 0.117444
-4.1826 1.62587 0.105477
-4.17581 1.62147 0.0784877
-4.17415 1.61878 0.0325086
-4.17725 1.61859 0.019533
-4.16736 1.61438 0.0055189
-4.18844 1.62222 -0.00643993
-4.19359 1.62394 -0.0254293
-4.1797 1.61772 -0.0394439
-4.1788 1.61651 -0.0534346
-4.18 1.61613 -0.0794235
-4.19019 1.61975 -0.105404
-4.17625 1.61264 -0.112405
-4.18244 1.61526 -0.1384
-4.18154 1.61407 -0.151391
-4.18564 1.61588 -0.164389
-4.17589 1.61038 -0.197386
-4.18908 1.615 -0.223358
-4.17418 1.6088 -0.236381
-4.18029 1.6106 -0.250363
-4.18039 1.61041 -0.263361
-3.13297 1.69977 2.4378
-3.14012 1.69648 2.4179
-3.15117 1.69738 2.41097
-3.16832 1.6971 2.3911
-3.18554 1.69468 2.36226
-3.19063 1.69251 2.35033
-3.20467 1.69643 2.34437
-3.19983 1.68813 2.32446
-3.21685 1.6931 2.32151
-3.22804 1.68973 2.29664
-3.23208 1.68966 2.29167
-3.24711 1.6936 2.28673
-3.24823 1.68936 2.2708
-3.26228 1.69229 2.26486
-3.26737 1.69111 2.25291
-3.26253 1.6828 2.232
-3.27259 1.68469 2.22404
-3.28259 1.68769 2.22407
-3.2847 1.68447 2.20914
-3.29279 1.68432 2.1982
-3.30782 1.68825 2.19325
-3.31291 1.68608 2.18132
-3.319 1.68491 2.16938
-3.33006 1.6868 2.16144
-3.32615 1.68263 2.15047
-3.3382 1.68453 2.14353
-3.34429 1.68436 2.13158
-3.35137 1.6832 2.12064
-3.36144 1.68408 2.11171
-3.37349 1.68698 2.10475
-3.38057 1.68683 2.09381
-3.38368 1.68362 2.07988
-3.39269 1.6866 2.0779
-3.3958 1.68339 2.06397
-3.3999 1.6822 2.05102
-3.40996 1.68309 2.04308
-3.41605 1.68292 2.03112
-3.42811 1.68481 2.02319
-3.43221 1.68262 2.01025
-3.43723 1.68356 2.00627
-3.44333 1.68239 1.99433
-3.44842 1.68222 1.98237
-3.45749 1.68207 1.97244
-3.4596 1.67987 1.95849
-3.46866 1.68074 1.94954
-3.47575 1.68058 1.9386
-3.47879 1.6805 1.93262
-3.48488 1.67932 1.92068
-3.48997 1.67815 1.90873
-3.49109 1.67493 1.89379
-3.51011 1.6809 1.89084
-3.50923 1.67666 1.8749
-3.50829 1.67454 1.86692
-3.51637 1.67539 1.85597
-3.52445 1.67624 1.84601
-3.53252 1.6761 1.83608
-3.53165 1.67186 1.82013
-3.53873 1.67171 1.80918
-3.54382 1.67153 1.79722
-3.55289 1.67241 1.78828
-3.55693 1.67232 1.78231
-3.56301 1.67216 1.77135
-3.5681 1.67099 1.75941
-3.57419 1.67081 1.74746
-3.58128 1.67066 1.73651
-3.58537 1.67048 1.72454
-3.59544 1.67134 1.7146
-3.5955 1.67024 1.70762
-3.59859 1.66805 1.69467
-3.59473 1.66279 1.67772
-3.61574 1.66976 1.67477
-3.61685 1.66756 1.66081
-3.63588 1.6735 1.65587
-3.62604 1.66519 1.63591
-3.63904 1.6702 1.63594
-3.63517 1.66495 1.61898
-3.64325 1.66579 1.60803
-3.65032 1.66665 1.59807
-3.65044 1.66343 1.58312
-3.66449 1.66733 1.57616
-3.6636 1.66311 1.56122
-3.67462 1.66809 1.55923
-3.67672 1.6659 1.54627
-3.68181 1.66471 1.53333
-3.68889 1.66557 1.52337
-3.69099 1.66336 1.50941
-3.69708 1.6632 1.49846
-3.6942 1.65896 1.4825
-3.70023 1.66091 1.47851
-3.70233 1.65872 1.46556
-3.71639 1.66261 1.45761
-3.71848 1.66142 1.44464
-3.72258 1.66023 1.43169
-3.72767 1.66005 1.41973
-3.73973 1.66294 1.41177
-3.73282 1.65778 1.4008
-3.74787 1.66268 1.39384
-3.74797 1.66048 1.37987
-3.75007 1.65829 1.36691
-3.76015 1.66015 1.35696
-3.76224 1.65895 1.34399
-3.77232 1.66081 1.33404
-3.77642 1.65962 1.32109
-3.77646 1.65954 1.31509
-3.78056 1.65835 1.30213
-3.78864 1.6592 1.29218
-3.79373 1.65903 1.28022
-3.80181 1.66087 1.26925
-3.79693 1.65563 1.25329
-3.807 1.65849 1.24332
-3.80706 1.65739 1.23634
-3.81115 1.65621 1.22438
-3.82421 1.66009 1.21542
-3.82033 1.65586 1.20046
-3.83339 1.65974 1.1915
-3.82752 1.6545 1.17553
-3.82762 1.65229 1.16156
-3.83665 1.65524 1.15758
-3.84673 1.6571 1.14763
-3.84583 1.65489 1.13365
-3.85391 1.65673 1.12268
-3.84903 1.65251 1.10771
-3.86209 1.65638 1.09875
-3.8622 1.65318 1.08479
-3.87621 1.65916 1.08281
-3.87133 1.65493 1.06783
-3.88439 1.65881 1.05887
-3.88151 1.65558 1.0439
-3.88759 1.65543 1.03295
-3.89368 1.65625 1.02098
-3.8858 1.65101 1.00499
-3.89782 1.65497 1.00202
-3.90092 1.65478 0.989049
-3.90501 1.65461 0.977081
-3.91209 1.65545 0.96612
-3.91419 1.65426 0.953152
-3.92028 1.65509 0.941184
-3.91839 1.65288 0.9272
-3.92742 1.65583 0.923224
-3.91954 1.64958 0.907255
-3.93161 1.65344 0.897288
-3.9357 1.65327 0.885319
-3.93381 1.65106 0.871336
-3.94289 1.6529 0.860376
-3.94 1.64969 0.846399
-3.94005 1.64859 0.839415
-3.95512 1.65447 0.83044
-3.95422 1.65226 0.816464
-3.95532 1.65107 0.803488
-3.96251 1.6507 0.778545
-3.9656 1.65053 0.766569
-3.96874 1.64925 0.747609
-3.96386 1.64502 0.732633
-3.97703 1.64769 0.709689
-3.97514 1.64548 0.695706
-3.9942 1.65236 0.686746
-3.98127 1.64622 0.677738
-3.98038 1.64401 0.663762
-3.99445 1.64888 0.653795
-3.99056 1.64567 0.639811
-3.98966 1.64347 0.626835
-4.00872 1.65035 0.617876
-4.00284 1.64613 0.602892
-4.00588 1.64704 0.5969
-4.00698 1.64585 0.583925
-4.00409 1.64364 0.569934
-4.00518 1.64245 0.556958
-4.01826 1.64731 0.546983
-4.00837 1.64108 0.531999
-4.01147 1.64089 0.519023
-4.02454 1.64575 0.509048
-4.0226 1.64365 0.502064
-4.01571 1.63942 0.487072
-4.02879 1.64428 0.477097
-4.0209 1.63905 0.462113
-4.022 1.63886 0.449123
-4.03308 1.64271 0.438148
-4.02813 1.6396 0.431155
-4.02524 1.63739 0.417164
-4.04431 1.64426 0.407205
-4.03143 1.63802 0.392198
-4.03253 1.63683 0.379222
-4.03962 1.63866 0.367247
-4.03272 1.63445 0.353256
-4.03681 1.63527 0.341272
-4.04985 1.64121 0.336282
-4.03996 1.63499 0.322298
-4.04305 1.6358 0.309307
-4.05413 1.63965 0.298332
-4.04524 1.63444 0.284341
-4.04934 1.63525 0.271358
-4.04744 1.63305 0.258374
-4.04649 1.63195 0.251382
-4.04758 1.63177 0.239391
-4.04968 1.63158 0.226408
-4.04579 1.62937 0.21241
-4.05288 1.6312 0.200434
-4.06696 1.63704 0.189452
-4.05607 1.63083 0.17546
-4.05811 1.63174 0.169461
-4.06221 1.63255 0.156479
-4.05931 1.63036 0.143487
-4.0574 1.62916 0.130489
-4.06749 1.63299 0.118507
-4.06559 1.6308 0.105523
-4.06169 1.6286 0.0925243
-4.07273 1.63352 0.0865338
-4.07083 1.63133 0.0735501
-4.06293 1.62713 0.060551
-4.07302 1.63096 0.0485687
-4.06513 1.62675 0.0345696
-4.07122 1.62857 0.0225868
-4.07631 1.63039 0.00959662
-4.07636 1.6303 0.00359743
-4.06847 1.62608 -0.0104016
-4.07256 1.62691 -0.0223846
-4.06666 1.62371 -0.0353836
-4.07075 1.62552 -0.0483813
-4.06785 1.62333 -0.0613725
-4.07195 1.62514 -0.0743702
-4.07499 1.62605 -0.0803616
-4.08108 1.62788 -0.0923444
-4.07918 1.62669 -0.105343
-4.07129 1.62247 -0.119342
-4.08438 1.6283 -0.131331
-4.08148 1.62611 -0.144322
-4.07757 1.62491 -0.157336
-4.07862 1.62483 -0.163328
-4.07872 1.62463 -0.176326
-4.06982 1.62043 -0.189332
-4.07791 1.62325 -0.202315
-4.08 1.62407 -0.214313
-4.06311 1.61587 -0.227321
-4.0782 1.62269 -0.24031
-4.08024 1.6236 -0.246309
-4.08234 1.62341 -0.259292
-4.07544 1.62021 -0.272298
-3.23529 1.69028 2.13067
-3.23933 1.69021 2.1257
-3.24839 1.69108 2.11675
-3.36676 1.68548 1.9357
-3.42451 1.68105 1.83719
-3.42861 1.67986 1.82424
-3.48021 1.67972 1.74461
-3.48839 1.67737 1.72071
-3.48552 1.67211 1.70376
-3.50958 1.67901 1.69584
-3.51267 1.67782 1.68288
-3.51876 1.67766 1.67193
-3.54005 1.6771 1.63309
-3.54813 1.67694 1.62215
-3.55941 1.6734 1.58528
-3.56848 1.67528 1.57632
-3.58364 1.67598 1.55542
-3.5817 1.67386 1.54744
-3.58878 1.6747 1.53648
-3.59486 1.67454 1.52553
-3.59696 1.67235 1.51257
-3.60304 1.67219 1.50162
-3.61422 1.67186 1.4787
-3.61526 1.67077 1.47273
-3.61637 1.66857 1.45877
-3.61847 1.66637 1.44581
-3.62853 1.66925 1.43684
-3.6427 1.66993 1.41494
-3.6428 1.66774 1.40197
-3.65083 1.66969 1.398
-3.65591 1.66953 1.38704
-3.65801 1.66834 1.37407
-3.66011 1.66615 1.36112
-3.67018 1.668 1.35117
-3.68539 1.6686 1.32327
-3.69047 1.66844 1.31231
-3.69467 1.66606 1.28637
-3.69876 1.66489 1.27442
-3.70484 1.66573 1.26345
-3.71696 1.6675 1.24751
-3.71507 1.66429 1.23354
-3.72514 1.66615 1.22359
-3.72823 1.66597 1.21161
-3.73842 1.66563 1.18769
-3.73956 1.66235 1.16875
-3.74963 1.6652 1.15878
-3.75681 1.66385 1.13485
-3.75791 1.66166 1.12189
-3.76909 1.66232 1.09796
-3.80281 1.66093 1.00322
-3.81932 1.65694 0.935395
-3.83159 1.65641 0.89949
-3.83667 1.65726 0.888515
-3.85309 1.65645 0.833643
-3.9531 1.64065 0.302557
-3.95823 1.64139 0.284582
5.18828 -0.499771 8.23447
5.28258 -0.507337 8.67293
5.30232 -0.509885 8.77183
5.32207 -0.511418 8.87172
5.3872 -0.516259 9.15534
5.40495 -0.518791 9.25526
5.42982 -0.520106 9.3701
5.45166 -0.522463 9.48199
5.47147 -0.524877 9.58989
5.50824 -0.526379 9.69265
5.52503 -0.528836 9.79757
5.54793 -0.531075 9.91745
5.57387 -0.533242 10.0423
5.59678 -0.535467 10.1632
5.62274 -0.53759 10.291
5.68556 -0.542051 10.5327
5.70852 -0.544172 10.6605
5.73454 -0.547177 10.7964
5.76665 -0.550008 10.9442
5.89391 -0.560687 11.5115
5.92611 -0.563356 11.6703
5.96035 -0.566922 11.8361
5.206 -0.437458 8.32342
5.2257 -0.43808 8.4173
5.28868 -0.44123 8.6799
5.30132 -0.44298 8.76485
5.32411 -0.443442 8.8697
5.33575 -0.445177 8.95565
5.35856 -0.445609 9.0625
5.39123 -0.447299 9.15229
5.41912 -0.448572 9.27011
5.43383 -0.450176 9.36504
5.45871 -0.451461 9.48188
5.47952 -0.452876 9.58977
5.49934 -0.454276 9.69865
5.51613 -0.454734 9.80355
5.55495 -0.456147 9.91229
5.57682 -0.458445 10.0282
5.60174 -0.459642 10.151
5.6277 -0.46078 10.2779
5.64759 -0.462032 10.3967
5.74148 -0.467398 10.7812
5.77053 -0.469345 10.921
5.79861 -0.471248 11.0638
5.82871 -0.473092 11.2107
5.96517 -0.480394 11.8038
5.9984 -0.482004 11.9666
6.03164 -0.48457 12.1324
6.06694 -0.486048 12.3042
5.34461 -0.394529 8.93183
5.36741 -0.394961 9.03868
5.38516 -0.395508 9.13756
5.48232 -0.399343 9.55795
5.50722 -0.399599 9.67678
5.524 -0.401056 9.78169
5.54589 -0.401325 9.89954
5.60965 -0.403905 10.1331
5.63865 -0.404957 10.266
5.66868 -0.405935 10.4038
5.68655 -0.406245 10.5186
5.71256 -0.407279 10.6525
5.78253 -0.409435 10.915
5.81061 -0.410337 11.0578
5.84276 -0.412095 11.2106
5.86679 -0.413068 11.3485
5.89388 -0.41394 11.4933
5.92506 -0.415638 11.6501
5.97417 -0.416482 11.7978
6.00842 -0.418048 11.9636
6.04168 -0.419599 12.1304
6.07901 -0.421005 12.3072
5.15716 -0.313197 8.06792
5.22964 -0.313378 8.39642
5.25035 -0.312986 8.49127
5.26401 -0.312707 8.57817
5.27968 -0.313401 8.66708
5.32803 -0.31277 8.84673
5.34474 -0.313375 8.94163
5.36449 -0.312909 9.04148
5.38628 -0.31337 9.14634
5.4091 -0.312772 9.25518
5.46261 -0.312849 9.4548
5.48445 -0.313206 9.56666
5.50223 -0.313679 9.67054
5.5251 -0.312978 9.78638
5.54191 -0.313405 9.89327
5.56986 -0.31356 10.0191
5.60767 -0.313973 10.1278
5.63262 -0.313125 10.2536
5.66061 -0.313191 10.3854
5.68456 -0.313342 10.5113
5.71156 -0.313392 10.6441
5.80756 -0.313553 11.0424
5.83462 -0.313484 11.1832
5.86371 -0.313358 11.328
5.89486 -0.314115 11.4808
6.03956 -0.313964 12.1048
6.07485 -0.314443 12.2766
5.5164 -0.254444 9.68656
5.67382 -0.251881 10.4064
5.70588 -0.250816 10.5472
5.8499 -0.248029 11.2142
5.88512 -0.246655 11.3759
5.90814 -0.246658 11.5117
6.02574 -0.243665 11.9889
6.059 -0.243216 12.1557
5.11378 -0.196051 7.87248
5.17459 -0.193527 8.11302
5.19022 -0.192294 8.19689
5.20689 -0.191003 8.28476
5.22558 -0.190655 8.37663
5.24123 -0.189378 8.4635
5.28347 -0.186965 8.62817
5.30421 -0.186529 8.72602
5.31788 -0.185221 8.81491
5.33763 -0.183755 8.91476
5.36042 -0.183216 9.01959
5.38323 -0.181648 9.12641
5.41288 -0.180382 9.21318
5.43773 -0.179726 9.326
5.46766 -0.177927 9.44876
5.48342 -0.176443 9.54964
5.50323 -0.175858 9.65749
5.52509 -0.174185 9.77132
5.58272 -0.172014 9.98788
5.60968 -0.170153 10.1147
5.6326 -0.168363 10.2365
5.66261 -0.167401 10.3703
5.68454 -0.16558 10.4941
5.71559 -0.16453 10.6339
5.74362 -0.162521 10.7706
5.78455 -0.16073 10.8933
5.81565 -0.15959 11.0391
5.84373 -0.157493 11.1819
5.87079 -0.15641 11.3237
5.90194 -0.154182 11.4754
5.9331 -0.152909 11.6302
6.04969 -0.146946 12.1053
6.087 -0.145396 12.279
5.57231 -0.116886 9.92814
5.71604 -0.106692 10.555
5.74306 -0.104712 10.6898
5.7711 -0.102674 10.8286
5.93253 -0.0911154 11.5483
5.9566 -0.0890302 11.6901
5.98983 -0.0866407 11.8528
5.01739 -0.0997746 7.41372
5.03602 -0.0975592 7.49656
5.08561 -0.092471 7.70714
5.10729 -0.0911393 7.79797
5.11884 -0.0890668 7.87086
5.13548 -0.0868352 7.95471
5.14907 -0.0856752 8.0336
5.17461 -0.0836426 8.10439
5.18822 -0.082453 8.18528
5.20588 -0.0801629 8.27313
5.22862 -0.0777136 8.37193
5.24429 -0.0764219 8.45981
5.2559 -0.0742162 8.5417
5.27461 -0.071838 8.63554
5.30423 -0.0706453 8.71731
5.32296 -0.0682227 8.81414
5.34372 -0.0657423 8.91496
5.36246 -0.0633048 9.0128
5.38427 -0.0617363 9.11963
5.46261 -0.0541884 9.42997
5.48342 -0.0516044 9.53779
5.50224 -0.0500188 9.64564
5.6326 -0.0365404 10.2235
5.66262 -0.0335485 10.3593
5.71357 -0.0277506 10.6179
5.83967 -0.0157873 11.1608
5.86877 -0.0126466 11.3066
5.90195 -0.00836095 11.4623
6.04258 0.00464313 12.0761
6.08091 0.00923601 12.2528
5.02907 -0.0405307 7.49777
5.09792 -0.0329385 7.74317
5.11555 -0.0307224 7.82601
5.13117 -0.0285048 7.90888
5.14578 -0.0263161 7.98974
5.16445 -0.0240119 8.07858
5.20665 -0.0197032 8.23622
5.22331 -0.0164125 8.32406
5.24303 -0.0140054 8.41989
5.26073 -0.011656 8.51173
5.27538 -0.00937851 8.5986
5.29613 -0.00591305 8.69841
5.32577 -0.00369085 8.78216
5.3435 -0.0012675 8.87901
5.36731 0.0023142 8.98679
5.38506 0.00476716 9.08563
5.40586 0.00732156 9.19145
5.42665 0.010861 9.29626
5.44949 0.0135028 9.40806
5.48323 0.0169292 9.50577
5.50102 0.019471 9.61061
5.52085 0.0230852 9.72043
5.54778 0.0258868 9.8432
5.63142 0.0360082 10.1925
5.65942 0.039957 10.3252
5.68641 0.043877 10.456
5.71342 0.0478562 10.5907
5.74247 0.0518932 10.7295
5.84055 0.0628776 11.1376
5.87474 0.0671922 11.2953
5.8998 0.0712469 11.4351
6.08287 0.0950327 12.2385
5.22116 0.0521965 8.29706
5.31749 0.0676706 8.73816
5.33925 0.07215 8.83895
5.45203 0.0894856 9.33891
5.47588 0.0931413 9.45169
5.49466 0.0966674 9.55551
5.55126 0.104765 9.76699
5.57312 0.108437 9.88079
5.58993 0.112009 9.98763
5.62196 0.117014 10.1243
5.64588 0.120803 10.2461
5.66272 0.125434 10.3569
5.70969 0.12931 10.4855
5.73872 0.134302 10.6213
5.76878 0.139368 10.762
5.79581 0.144377 10.8987
5.82286 0.149415 11.0375
5.85092 0.154482 11.1782
5.87598 0.159537 11.318
5.9281 0.164705 11.4665
5.98434 0.175046 11.762
6.01655 0.180407 11.9227
6.05182 0.186868 12.0903
6.08508 0.192331 12.258
5.65786 0.182669 10.2371
5.86297 0.220466 11.1771
6.06492 0.257969 12.0972
5.09163 0.136263 7.6877
5.19524 0.158279 8.16566
5.22304 0.162813 8.2704
5.32036 0.183271 8.71043
5.34112 0.187736 8.81022
5.36087 0.192187 8.90902
5.47772 0.215667 9.41886
5.50158 0.221323 9.53161
5.51835 0.225836 9.63443
5.59886 0.240692 9.96565
5.62379 0.246495 10.0884
5.65176 0.252384 10.2171
5.67367 0.258145 10.3369
5.70065 0.264065 10.4676
5.7966 0.282769 10.8567
5.82568 0.288864 10.9994
5.85576 0.295974 11.1431
5.88589 0.302158 11.2918
5.91196 0.309242 11.4335
5.99018 0.322537 11.7267
6.02239 0.329897 11.8874
6.0546 0.337243 12.0471
6.08482 0.344604 12.2078
5.71576 0.345163 10.4743
5.74886 0.352286 10.619
5.93526 0.397704 11.465
5.96135 0.404816 11.6087
6.07186 0.42962 12.0726
5.43306 0.342265 9.18629
5.60493 0.387627 9.96043
5.80166 0.439674 10.8493
5.96101 0.481053 11.5566
5.99117 0.490296 11.7092
6.02337 0.499626 11.8679
5.2821 0.363569 8.52502
5.39477 0.393681 9.00979
5.41353 0.400147 9.10957
5.43737 0.407773 9.22029
5.5534 0.441593 9.75299
5.58541 0.449539 9.88565
5.60426 0.457198 9.99841
5.72609 0.489614 10.5041
5.75817 0.498707 10.6467
5.77912 0.506542 10.7715
5.91139 0.54281 11.335
5.94865 0.554254 11.5016
5.97068 0.562252 11.6373
6.00391 0.57264 11.7999
6.04998 0.582708 11.9415
6.09035 0.594358 12.122
5.34194 0.445041 8.7614
5.47244 0.486753 9.35488
5.62253 0.533606 10.0261
5.65659 0.543668 10.1668
5.79533 0.587833 10.7911
5.82845 0.597999 10.9388
5.85245 0.60795 11.0715
5.94957 0.636993 11.4834
5.98582 0.648394 11.6469
6.01294 0.65858 11.7956
6.04921 0.67104 11.9632
6.07535 0.681256 12.1138
5.74475 0.638695 10.5767
5.87187 0.679669 11.1203
5.90809 0.692026 11.2808
5.93113 0.702037 11.4175
5.96737 0.714452 11.5821
6.07584 0.750152 12.0388
5.15861 0.506624 7.91475
5.27045 0.547047 8.42038
5.29218 0.555466 8.5171
5.39975 0.594374 8.98778
5.41952 0.601869 9.08953
5.43828 0.610336 9.18928
5.51057 0.634768 9.49142
5.5385 0.645553 9.61306
5.5573 0.654108 9.71881
5.58119 0.662822 9.83552
5.60103 0.672466 9.94724
5.66682 0.691911 10.1825
5.69583 0.702873 10.3161
5.71571 0.712575 10.4319
5.74474 0.723567 10.5675
5.76973 0.734488 10.6982
5.7927 0.744366 10.8259
5.83767 0.756227 10.9534
5.86675 0.767322 11.096
5.89179 0.778332 11.2327
5.91989 0.790458 11.3773
5.95308 0.803772 11.5349
5.98425 0.816028 11.6885
6.06963 0.842628 12.0025
5.84693 0.820643 10.9813
6.00944 0.885299 11.7073
6.04571 0.899759 11.8748
6.0749 0.913061 12.0314
5.2134 0.638931 8.13941
5.32433 0.686532 8.65694
5.34812 0.696053 8.76063
5.43803 0.732686 9.14447
5.46187 0.742296 9.25416
5.48572 0.752951 9.36684
5.51059 0.76362 9.48051
5.60785 0.803928 9.91024
5.63278 0.81573 10.0329
5.66379 0.827676 10.1655
5.68367 0.838378 10.2812
5.77957 0.874976 10.663
5.80457 0.886912 10.7947
5.83566 0.90002 10.9382
5.85764 0.911913 11.0669
5.88674 0.926038 11.2115
5.92769 0.937858 11.336
5.9568 0.952012 11.4826
5.99102 0.96637 11.6432
6.02625 0.981757 11.8057
6.0534 0.995972 11.9563
6.08766 1.0114 12.1219
5.07463 0.634644 7.50643
5.19889 0.68887 8.06677
5.36046 0.76063 8.79959
5.45347 0.800452 9.19635
5.4961 0.821603 9.41075
5.52909 0.834502 9.54033
5.6544 0.890832 10.1076
5.6834 0.903764 10.2392
5.76409 0.938959 10.5932
5.79822 0.954139 10.7417
5.82222 0.967075 10.8733
5.84826 0.980083 11.01
5.87331 0.994107 11.1476
5.94744 1.02223 11.4287
5.97963 1.03751 11.5842
6.00573 1.05265 11.7298
6.03998 1.06907 11.8943
5.03955 0.674488 7.35908
5.07173 0.690773 7.51462
5.09988 0.706002 7.6662
5.13369 0.717561 7.77279
5.14403 0.722219 7.81765
5.1909 0.746825 8.06297
5.22273 0.758415 8.17157
5.23634 0.766604 8.25236
5.25301 0.775894 8.34011
5.3666 0.825826 8.81258
5.3904 0.836377 8.91826
5.50525 0.889796 9.42367
5.53011 0.901465 9.53733
5.54791 0.912006 9.64205
5.63147 0.947932 9.97794
5.65437 0.959676 10.0966
5.67829 0.972449 10.2173
5.70122 0.985253 10.3399
5.73327 1.00029 10.4785
5.79815 1.02691 10.7256
5.82213 1.0398 10.8543
5.83902 1.05252 10.971
5.21952 0.818937 8.1387
5.53103 0.971205 9.51929
5.58618 1.00237 9.80245
5.27221 0.905118 8.35505
5.38834 0.968068 8.89632
5.39289 0.976145 8.96918
5.4043 0.981935 9.02301
5.01671 0.83565 7.23285
5.24556 0.960768 8.26242
5.25614 0.9689 8.33923
5.27157 0.976717 8.39501
5.28827 0.987067 8.48674
5.01647 0.887112 7.19609
5.02798 0.895095 7.26289
5.04356 0.904208 7.33865
5.06014 0.914335 7.41539
5.06946 0.919935 7.45624
5.081 0.927977 7.52704
5.09152 0.93699 7.59584
4.94043 1.00698 6.91285
4.64727 1.26184 5.53909
4.33881 1.06773 4.1691
4.40805 1.12301 4.4608
4.43148 1.13482 4.51646
4.44168 1.14021 4.54331
4.452 1.14783 4.58512
4.46963 1.16303 4.66677
4.47593 1.1706 4.70562
4.47718 1.17609 4.73853
4.50063 1.18794 4.79719
4.53077 1.21614 4.94657
4.52599 1.21956 4.97456
4.54139 1.23031 5.02629
4.54972 1.23796 5.07012
4.56802 1.24652 5.10886
4.57939 1.25624 5.15764
4.58874 1.26491 5.20344
4.58498 1.26937 5.23441
4.60039 1.28016 5.28814
4.60573 1.28781 5.33199
4.63846 1.30819 5.42646
4.64985 1.31793 5.47724
4.65417 1.32557 5.5201
4.66558 1.33534 5.57287
4.66991 1.34299 5.61673
4.69879 1.36567 5.73119
4.71408 1.37422 5.76896
4.71136 1.37977 5.8059
4.73693 1.39584 5.87948
4.74027 1.40351 5.92435
4.75271 1.41434 5.9811
4.77021 1.4273 6.04679
4.80437 1.45751 6.1971
4.81481 1.46836 6.25487
4.12027 0.955178 3.17828
4.12941 0.959452 3.19715
4.27112 1.07446 3.81046
4.27737 1.07994 3.84334
4.27655 1.0843 3.86728
4.28381 1.0908 3.90114
4.31253 1.10916 3.99466
4.3208 1.11669 4.03049
4.32 1.12008 4.05645
4.33231 1.12866 4.09624
4.33756 1.13514 4.12911
4.3408 1.1396 4.16002
4.36005 1.14807 4.19276
4.35825 1.15246 4.21871
4.36654 1.16002 4.25654
4.38188 1.16867 4.3013
4.37907 1.17304 4.32626
4.39565 1.18715 4.40194
4.4119 1.19463 4.43471
4.41415 1.2011 4.4666
4.43253 1.21183 4.51631
4.43679 1.21733 4.5502
4.46385 1.24436 4.68862
4.47216 1.25295 4.72843
4.47846 1.25952 4.76729
4.50216 1.27886 4.85884
4.52196 1.2994 4.9634
4.12105 1.00068 3.14459
4.11921 1.004 3.16556
4.12743 1.00942 3.19442
4.13767 1.01587 3.22525
4.14388 1.02128 3.25313
4.16117 1.02983 3.29088
4.16428 1.03303 3.30481
4.29056 1.14222 3.86232
4.34128 1.18653 4.08731
4.34754 1.19403 4.12116
4.3537 1.19833 4.14205
4.37329 1.21346 4.21869
4.40644 1.24465 4.368
4.44379 1.28024 4.54422
4.4521 1.28783 4.58405
4.45536 1.29433 4.61793
4.47691 1.31038 4.68954
4.48724 1.31902 4.73334
4.4885 1.32551 4.76624
4.50589 1.33726 4.81794
4.51927 1.34698 4.86671
4.51939 1.35021 4.88266
4.53303 1.36643 4.96533
4.55145 1.37923 5.02001
4.55372 1.38576 5.0559
4.57014 1.39756 5.11061
4.58756 1.41036 5.16529
4.59073 1.41469 5.18721
4.59908 1.42335 5.23202
4.61147 1.43409 5.28278
4.61477 1.44168 5.32265
4.62112 1.45134 5.36746
4.63452 1.46211 5.42021
4.64707 1.47717 5.4919
4.67261 1.49319 5.56148
4.67492 1.50079 5.60236
4.69036 1.51364 5.66006
4.70783 1.52753 5.72073
4.30699 1.20299 3.9143
4.37429 1.26538 4.21291
4.46427 1.34808 4.60107
4.46753 1.35458 4.63495
4.52739 1.40713 4.87675
4.53596 1.42223 4.95148
4.54631 1.43189 4.99626
4.57294 1.4511 5.07879
4.57623 1.45865 5.11666
4.59392 1.47697 5.20627
4.60126 1.48662 5.25007
4.61263 1.49733 5.29884
4.63195 1.50793 5.33954
3.9079 0.909869 2.20341
3.91607 0.914203 2.22629
3.91218 0.915413 2.2403
3.91627 0.918587 2.25223
3.91942 0.921881 2.27216
3.91754 0.924119 2.28814
3.93075 0.929509 2.31497
3.97632 0.968522 2.52007
3.98142 0.97171 2.53299
3.9866 0.976047 2.55589
4.00083 0.98348 2.58568
3.99996 0.985747 2.60365
4.00917 0.991139 2.63051
4.01132 0.994434 2.65044
4.02053 1.00083 2.67728
4.02563 1.00401 2.6902
4.05255 1.02678 2.81068
4.05573 1.03112 2.83359
4.0692 1.04403 2.89531
4.07339 1.04838 2.91922
4.08261 1.0538 2.94807
4.08478 1.05813 2.96999
4.096 1.06456 2.99982
4.10113 1.0688 3.01572
4.11454 1.07958 3.06946
4.11369 1.08288 3.08942
4.11789 1.08726 3.11533
4.13215 1.09575 3.1491
4.13635 1.10014 3.17501
4.13946 1.10334 3.18894
4.14685 1.11309 3.23975
4.15105 1.11847 3.26564
4.16028 1.12492 3.29648
4.16247 1.12929 3.3214
4.16668 1.13469 3.34829
4.17702 1.14433 3.39208
4.1772 1.14768 3.41603
4.20054 1.15932 3.45969
4.20173 1.16369 3.48462
4.19487 1.16597 3.50364
4.21813 1.17544 3.53633
4.22052 1.18421 3.58819
4.22978 1.19169 3.62101
4.23923 1.20356 3.67977
4.25352 1.21312 3.71853
4.25866 1.21637 3.73545
4.26792 1.22388 3.77027
4.27637 1.23575 3.82904
4.28867 1.24432 3.86782
4.30399 1.25493 3.90956
4.29815 1.25723 3.92957
4.31639 1.26569 3.96131
4.32386 1.27858 4.02207
4.32206 1.28297 4.04803
4.34041 1.29364 4.09374
4.36425 1.31724 4.20322
4.35931 1.31837 4.21124
4.37466 1.32802 4.25599
4.42757 1.38268 4.50482
4.46899 1.4234 4.68993
4.48235 1.43407 4.73568
4.28523 1.2824 3.80528
4.34217 1.33811 4.05806
4.35682 1.35634 4.14169
4.36912 1.36592 4.18146
4.37942 1.37449 4.22026
4.3756 1.37885 4.24423
4.38187 1.38636 4.27908
4.39733 1.40024 4.33876
4.40865 1.40984 4.37954
4.41896 1.41944 4.42033
4.42121 1.42591 4.45222
4.42244 1.43137 4.48313
4.44688 1.44619 4.53974
4.45506 1.45254 4.56358
4.4674 1.46318 4.60734
4.47168 1.47071 4.6432
4.4709 1.47615 4.67313
4.48123 1.48578 4.71592
4.49359 1.49645 4.76167
4.57735 1.58073 5.12084
3.76912 0.879613 1.57282
3.77638 0.885096 1.60569
3.77554 0.888422 1.62765
3.77968 0.891685 1.64557
3.79196 0.898209 1.68139
3.86037 0.956832 1.99605
3.88374 0.968525 2.04371
3.87683 0.968708 2.05576
3.90039 0.983785 2.12937
3.89047 0.983955 2.14044
3.91372 0.993411 2.17213
3.90681 0.993594 2.18418
3.91191 0.996782 2.1971
3.92611 1.00316 2.2229
3.92423 1.00539 2.23888
3.92739 1.00969 2.2588
3.93068 1.01625 2.29668
3.93182 1.01853 2.31564
3.94596 1.02478 2.33344
3.95514 1.03013 2.3573
3.96132 1.03547 2.38018
3.96059 1.04 2.41612
3.97394 1.05067 2.46187
3.97502 1.05282 2.47183
3.98724 1.05922 2.49965
3.98838 1.0625 2.51859
3.97645 1.06166 2.5287
3.99269 1.07011 2.55945
3.99385 1.0734 2.5794
4.00103 1.07875 2.60327
4.00111 1.0799 2.61325
4.02338 1.09041 2.64893
4.0165 1.09164 2.66397
4.02268 1.09699 2.68785
4.03088 1.10237 2.71371
4.03931 1.11319 2.76949
4.04651 1.11957 2.79535
4.06392 1.13136 2.84905
4.05502 1.13257 2.8631
4.06626 1.14001 2.89291
4.07043 1.14434 2.91582
4.07554 1.14756 2.93073
4.08577 1.15498 2.95955
4.08911 1.16265 3.00442
4.1074 1.17318 3.04113
4.10555 1.17648 3.0611
4.10873 1.18083 3.08501
4.11184 1.18403 3.09894
4.1261 1.19253 3.13271
4.12023 1.19478 3.14973
4.14657 1.20741 3.19335
4.14674 1.21175 3.21629
4.16119 1.2246 3.27399
4.15121 1.22265 3.2771
4.18194 1.24605 3.37253
4.19137 1.25787 3.4283
4.20464 1.26638 3.46307
4.19567 1.26544 3.46716
4.20693 1.27394 3.50095
4.21317 1.28039 3.53181
4.21436 1.28576 3.55673
4.23387 1.30174 3.62335
4.24323 1.31142 3.67015
4.2535 1.31993 3.70495
4.26478 1.32846 3.74074
4.27122 1.34131 3.79851
4.2827 1.35523 3.86123
4.30396 1.36472 3.89493
4.29409 1.36597 3.91099
4.31264 1.38303 3.98361
3.68509 0.854739 1.17277
3.69016 0.856868 1.1817
3.68545 0.859434 1.2197
3.69459 0.864693 1.23756
3.69474 0.866989 1.25752
3.77982 0.936902 1.6599
3.79394 0.942114 1.67472
3.79807 0.945362 1.69165
3.8022 0.948625 1.70957
3.81437 0.954942 1.73139
3.8165 0.957177 1.74734
3.82996 0.969069 1.80807
3.83824 0.97561 1.84492
3.84037 0.978845 1.86085
3.84551 0.982123 1.87977
3.85166 0.986414 1.89966
3.86201 0.995072 1.94446
3.86314 0.998322 1.96141
3.86427 1.00157 1.97835
3.86841 1.00485 1.99728
3.86653 1.00709 2.01326
3.88883 1.01763 2.05094
3.88594 1.01886 2.06595
3.89624 1.02743 2.10475
3.90642 1.03278 2.1286
3.90554 1.03501 2.14457
3.91164 1.03819 2.15648
3.91076 1.04044 2.17346
3.91793 1.04574 2.19433
3.92108 1.04904 2.21426
3.9202 1.05127 2.23023
3.92938 1.05762 2.25407
3.92651 1.05886 2.27008
3.94064 1.06512 2.28788
3.94581 1.06942 2.30878
3.9389 1.07062 2.32182
3.94809 1.07597 2.34567
3.95124 1.08026 2.36559
3.95741 1.08458 2.38748
3.96056 1.08888 2.4074
3.97484 1.09741 2.44417
3.99438 1.11343 2.51379
3.99352 1.1157 2.53177
4.00372 1.12208 2.5576
3.99976 1.12217 2.56363
4.01098 1.12957 2.59144
4.01615 1.1349 2.61332
4.01127 1.13614 2.62934
4.01444 1.14046 2.65126
4.02062 1.14581 2.67514
4.01775 1.14806 2.69213
4.02386 1.15228 2.70702
4.0391 1.16073 2.73779
4.03322 1.16195 2.75281
4.04242 1.16835 2.77965
4.05264 1.17475 2.80749
4.05681 1.18009 2.83038
4.05597 1.18339 2.85034
4.07114 1.1897 2.87213
4.07431 1.19504 2.89503
4.07547 1.19935 2.91596
4.0867 1.20678 2.94577
4.08686 1.21009 2.96673
4.09205 1.21546 2.99161
4.1053 1.22392 3.02339
4.10639 1.2261 3.03535
4.1136 1.23249 3.06221
4.1198 1.23887 3.08807
4.12298 1.24323 3.11198
4.1312 1.25065 3.14082
4.13741 1.25604 3.16769
4.13456 1.25934 3.18767
4.14471 1.26561 3.2065
4.15595 1.27308 3.23831
4.15009 1.27535 3.25632
4.1553 1.28175 3.28319
4.16453 1.2892 3.31402
4.1637 1.29252 3.33598
4.16992 1.29893 3.36384
4.18712 1.30732 3.39059
4.18428 1.31063 3.41157
4.25684 1.38852 3.74391
4.26812 1.39804 3.77969
4.27538 1.40554 3.81353
4.3613 1.49711 4.19258
3.66984 0.890198 1.13535
3.69146 0.905395 1.21697
3.6997 0.910847 1.24784
3.70694 0.9173 1.27869
3.99541 1.16741 2.51198
3.9985 1.17059 2.52392
4.0192 1.19092 2.61447
4.02539 1.19628 2.63935
4.02051 1.19852 2.65535
4.0236 1.2007 2.6673
4.02792 1.20932 2.70915
4.03109 1.21364 2.73106
4.04734 1.22311 2.7638
4.03844 1.22331 2.77687
4.04866 1.23072 2.80469
4.06483 1.23805 2.82746
4.06816 1.24668 2.87031
4.07939 1.25412 2.90012
4.08559 1.2605 2.92598
4.10194 1.27215 2.9707
4.14445 1.31805 3.16772
4.19611 1.3702 3.38259
4.20572 1.38738 3.46228
4.20691 1.39275 3.48719
4.21808 1.39906 3.50902
4.22331 1.40549 3.53789
4.23961 1.41705 3.5766
4.24081 1.42245 3.60351
4.25107 1.43195 3.6373
4.2563 1.43839 3.66717
4.26456 1.44687 3.69998
4.25962 1.44699 3.70802
4.27593 1.45858 3.74873
4.27512 1.46295 3.77368
4.28842 1.47352 3.81243
3.78353 1.01622 1.61369
3.79001 1.02715 1.67649
3.82208 1.0562 1.81584
3.83124 1.0605 1.83671
3.84643 1.06785 1.86049
3.84454 1.07007 1.87547
3.84892 1.07881 1.92532
3.87492 1.10571 2.05474
3.88108 1.11002 2.07564
3.89981 1.13042 2.17121
3.91924 1.14423 2.22686
3.92353 1.15178 2.26372
3.93808 1.16683 2.3354
3.94625 1.17317 2.35825
3.95544 1.17851 2.3821
3.95155 1.18074 2.3971
3.968 1.19458 2.45478
3.97718 1.20093 2.47862
3.98135 1.20526 2.50053
4.10155 1.33328 3.0468
4.14291 1.37687 3.22287
3.61718 0.924915 0.911203
3.62028 0.92712 0.925149
3.62539 0.930323 0.939065
3.64154 0.936592 0.957853
3.62855 0.933631 0.959995
3.62864 0.934809 0.971979
3.63987 0.941244 1.0018
3.64298 0.943449 1.01575
3.64809 0.946667 1.03066
3.65321 0.949885 1.04558
3.64924 0.948962 1.05062
3.65145 0.95236 1.07756
3.65757 0.956592 1.09345
3.66369 0.959824 1.10936
3.67382 0.965068 1.12621
3.66991 0.965234 1.13724
3.67598 0.967377 1.14716
3.67618 0.970762 1.17312
3.68643 0.977228 1.20495
3.70168 0.985704 1.23771
3.69782 0.986988 1.25672
3.70897 0.992261 1.27556
3.70205 0.992429 1.28662
3.70617 0.994648 1.30155
3.7153 0.999907 1.31941
3.71446 1.00222 1.34038
3.84972 1.11834 1.89372
3.85084 1.12159 1.91067
3.84997 1.12383 1.92664
3.79729 1.10658 1.70527
3.81802 1.12699 1.80082
3.85214 1.15912 1.94611
3.89869 1.20507 2.14711
3.90886 1.21141 2.16994
3.91509 1.21784 2.1998
3.91825 1.22214 2.21972
3.92541 1.22844 2.24057
3.92454 1.23071 2.25855
3.93774 1.23908 2.28433
3.93888 1.24235 2.30227
3.94914 1.25084 2.33607
3.95028 1.25511 2.354
3.95343 1.2594 2.37392
3.96061 1.26474 2.39679
3.96176 1.26902 2.41572
3.96491 1.27331 2.43564
3.97209 1.27866 2.45951
3.99385 1.30311 2.55799
4.0103 1.31797 2.61666
4.01347 1.32229 2.63857
4.02886 1.33602 2.68826
4.0362 1.34668 2.73305
4.04347 1.35519 2.76788
4.04865 1.36054 2.79176
4.08908 1.40726 2.97679
3.91898 1.27255 2.17996
3.91611 1.27479 2.19595
3.95137 1.31421 2.36012
3.97305 1.33649 2.44764
3.97621 1.34081 2.46956
3.9974 1.35115 2.49325
4.00473 1.36078 2.53606
4.0089 1.36611 2.55795
4.0191 1.37448 2.58375
4.00618 1.37266 2.59488
4.01947 1.38321 2.63263
4.02365 1.38954 2.6555
4.02983 1.39589 2.67937
4.04306 1.40533 2.70913
4.03935 1.41088 2.74608
4.05157 1.4203 2.77485
4.05567 1.42349 2.78778
4.06791 1.43294 2.81855
4.07812 1.44134 2.84635
4.08432 1.44771 2.87122
4.09253 1.45512 2.89905
4.08565 1.45734 2.91407
4.08882 1.46268 2.93697
3.95216 1.41166 2.32267
3.95653 1.42237 2.37048
3.8248 1.31031 1.75405
3.83697 1.31763 1.77585
3.89281 1.37813 2.01457
3.90934 1.39613 2.08219
3.92292 1.41424 2.15783
3.9321 1.42157 2.18065
3.94349 1.43532 2.23137
-2.82216 -0.531162 12.1968
-2.82766 -0.53015 12.1298
-2.84637 -0.528544 12.0349
-2.87186 -0.527488 11.9701
-2.88667 -0.526077 11.8622
-2.9102 -0.525096 11.7923
-2.92788 -0.523431 11.7014
-2.9696 -0.519793 11.4727
-2.98429 -0.518145 11.3807
-3.00971 -0.516941 11.3259
-3.02341 -0.515323 11.232
-3.04099 -0.514451 11.1551
-3.06007 -0.51157 11.0112
-3.08054 -0.511473 10.9493
-3.09614 -0.509662 10.8684
-3.13219 -0.507694 10.7296
-3.16526 -0.505788 10.5868
-3.16766 -0.504571 10.5338
-3.18224 -0.503701 10.4569
-3.20166 -0.502516 10.401
-3.68183 -0.469025 8.11782
-3.69316 -0.468683 8.07289
-3.71289 -0.467091 7.97701
-3.71806 -0.466428 7.95403
-3.72643 -0.466162 7.90408
-3.74711 -0.46448 7.8142
-3.77536 -0.462918 7.64837
-3.78963 -0.462441 7.61246
-3.79403 -0.461223 7.55947
-3.80828 -0.461716 7.52558
-3.81464 -0.460422 7.4776
-2.80279 -0.389644 12.2316
-2.82639 -0.388796 12.1527
-2.84607 -0.38913 12.0619
-2.84865 -0.388268 11.9849
-2.87024 -0.387423 11.906
-2.88797 -0.386846 11.8091
-2.90761 -0.386091 11.7243
-2.9272 -0.386247 11.6454
-2.94584 -0.385492 11.5605
-2.96641 -0.384588 11.4856
-2.96892 -0.384608 11.4167
-2.98653 -0.383795 11.3358
-3.00414 -0.383981 11.2549
-3.02468 -0.383033 11.183
-3.0442 -0.38304 11.1142
-3.05886 -0.382318 11.0272
-3.07935 -0.382281 10.9614
-3.0964 -0.381342 10.8215
-3.11492 -0.38035 10.7526
-3.13047 -0.38042 10.6797
-3.14994 -0.379324 10.6178
-3.16646 -0.379349 10.5479
-3.18201 -0.379419 10.4751
-3.20189 -0.378137 10.3582
-3.6657 -0.366915 8.12519
-3.68194 -0.366392 8.0923
-3.69132 -0.366125 8.04236
-3.72333 -0.366101 7.90758
-3.73295 -0.365309 7.82563
-3.74327 -0.365923 7.78371
-3.75754 -0.365446 7.74781
-3.76392 -0.365197 7.69684
-3.77621 -0.364765 7.65792
-3.7816 -0.364532 7.60595
-3.7848 -0.364914 7.57998
-3.7951 -0.364499 7.54005
-3.80442 -0.364129 7.49711
-2.81458 -0.292304 12.1182
-2.83718 -0.292487 12.0374
-2.85591 -0.29291 11.9405
-2.87751 -0.292065 11.8617
-2.95757 -0.293034 11.4552
-2.97618 -0.293234 11.3734
-2.99479 -0.292421 11.2925
-3.01434 -0.292488 11.2196
-3.052 -0.292718 10.9999
-3.06958 -0.292846 10.923
-3.0881 -0.292869 10.8531
-3.10467 -0.292967 10.7782
-3.10809 -0.293809 10.7213
-3.14117 -0.293903 10.5785
-3.15967 -0.293867 10.5126
-3.17423 -0.293967 10.4377
-3.19173 -0.293932 10.3718
-3.21016 -0.293777 10.314
-3.66068 -0.296971 8.12111
-3.68087 -0.297341 8.09527
-3.67426 -0.297116 8.04321
-3.68756 -0.297684 8.00431
