-4.63234 0.0797255 2.70894
-4.6315 0.0784141 2.68795
-4.64359 0.0782452 2.67605
-4.63977 0.0769019 2.65303
-4.64383 0.0767864 2.64507
-4.65891 0.0776344 2.63417
-4.65707 0.0763222 2.61317
-4.6632 0.0760749 2.59622
-4.65738 0.0747154 2.57219
-4.67147 0.074548 2.5603
-4.67858 0.074331 2.54535
-4.67766 0.0741675 2.53434
-4.67781 0.0728715 2.51436
-4.68095 0.0726073 2.49639
-4.68309 0.0713424 2.47842
-4.69718 0.0721748 2.46651
-4.69334 0.0708464 2.4445
-4.69349 0.0695505 2.42452
-4.69257 0.0694017 2.41451
-4.70267 0.0692017 2.40059
-4.71477 0.0690181 2.38768
-4.71791 0.0687538 2.3697
-4.71705 0.0674719 2.35071
-4.72417 0.0672402 2.33477
-4.72731 0.0669759 2.31679
-4.72538 0.0668264 2.30678
-4.73549 0.0666265 2.29286
-4.73862 0.0653623 2.2749
-4.73977 0.0650818 2.25591
-4.74589 0.0648493 2.23996
-4.75214 0.0633505 2.20602
-4.7562 0.063235 2.19805
-4.7656 0.061472 2.14614
-4.77172 0.0612395 2.13019
-4.78103 0.0606243 2.08826
-4.78516 0.0593757 2.07131
-4.78829 0.0591263 2.05433
-4.80485 0.0570278 1.97948
-4.82036 0.0550471 1.91262
-4.84104 0.0527147 1.82179
-4.84843 0.0519649 1.77085
-4.8721 0.0496643 1.68205
-4.87236 0.0481464 1.64707
-4.87941 0.0480627 1.64113
-4.88778 0.0473283 1.59119
-4.90619 0.0465421 1.53734
-4.89935 0.0452263 1.5163
-4.90645 0.0450241 1.50236
-4.92168 0.044591 1.47247
-4.91782 0.0443068 1.45345
-4.92799 0.0439885 1.43152
-4.93311 0.0437553 1.41556
-4.93424 0.0435043 1.39857
-4.93636 0.0422691 1.38261
-4.93949 0.0420196 1.36563
-4.94061 0.0417835 1.34964
-4.95171 0.0415843 1.33573
-4.94978 0.0414496 1.32671
-4.95689 0.0412326 1.31177
-4.96001 0.040998 1.29579
-4.95217 0.0396962 1.27575
-4.96426 0.0405124 1.26283
-4.9634 0.0402452 1.24482
-4.96253 0.038993 1.22783
-4.97257 0.0399113 1.22189
-4.97668 0.0396922 1.20692
-4.97894 0.0381905 1.17296
-4.98505 0.0379728 1.15801
-4.98917 0.0377389 1.14204
-4.98431 0.0374688 1.124
-4.99635 0.0374036 1.11909
-4.99647 0.0371519 1.1021
-4.9996 0.0369173 1.08612
-5.0097 0.0367173 1.0722
-5.01183 0.0364671 1.05522
-5.01594 0.036248 1.04025
-5.01807 0.0359978 1.02327
-5.01614 0.0358631 1.01425
-5.02424 0.0356617 1.00031
-5.02038 0.0353924 0.982286
-5.02849 0.0351761 0.967348
-5.02961 0.03494 0.951358
-5.02974 0.0346884 0.93436
-5.04384 0.0344913 0.920468
-5.0459 0.0343744 0.912484
-5.03904 0.0341028 0.894433
-5.04827 0.0336505 0.863505
-5.0484 0.032399 0.846523
-5.05951 0.0331996 0.832592
-5.06862 0.0329842 0.817662
-5.06469 0.032848 0.808633
-5.06993 0.032378 0.776675
-5.07505 0.0321448 0.760715
-5.08216 0.0319279 0.74577
-5.08128 0.0316903 0.729765
-5.08041 0.0314379 0.712759
-5.09046 0.0313416 0.705836
-5.09158 0.0311055 0.689846
-5.0977 0.0308878 0.674893
-5.09882 0.0306369 0.657903
-5.10394 0.0304185 0.642942
-5.11118 0.0299499 0.610999
-5.11736 0.029599 0.587048
-5.11449 0.0293452 0.570028
-5.1216 0.0291282 0.555082
-5.12373 0.0288781 0.5381
-5.13583 0.0296794 0.524177
-5.13895 0.0294448 0.508202
-5.13508 0.0291902 0.491174
-5.13015 0.0280535 0.482153
-5.14625 0.0288578 0.46826
-5.14338 0.028604 0.45124
-5.15162 0.0281361 0.419304
-5.15974 0.0279051 0.403367
-5.16186 0.0276697 0.387384
-5.16492 0.0275535 0.379408
-5.17104 0.0283357 0.36444
-5.17229 0.026848 0.331467
-5.18041 0.0276169 0.315515
-5.17453 0.026361 0.298487
-5.18665 0.0271476 0.283564
-5.17671 0.0260072 0.274505
-5.19283 0.0267967 0.259613
-5.19695 0.0265628 0.243645
-5.19008 0.0263061 0.226595
-5.20932 0.0268461 0.194727
-5.20844 0.0266085 0.178722
-5.2135 0.0264938 0.170761
-5.20862 0.0252386 0.15374
-5.21774 0.0260082 0.137795
-5.21187 0.0247523 0.120767
-5.23723 0.0260745 0.0739322
-5.24241 0.0257081 0.0489732
-5.23953 0.0254691 0.0329529
-5.24466 0.0252211 0.0159928
-5.24778 0.0249864 1.76086e-05
-5.24791 0.0247348 -0.0169801
-5.25903 0.0255059 -0.0329099
-5.25709 0.025386 -0.0409238
-5.27033 0.0249218 -0.0728216
-5.27159 0.0244192 -0.106809
-5.27671 0.024186 -0.12277
-5.27684 0.0239344 -0.139767
-5.28802 0.024587 -0.163696
-4.14685 0.209687 4.88666
-4.15726 0.206895 4.83278
-4.15341 0.205596 4.81276
-4.16975 0.202942 4.76792
-4.169 0.201453 4.73493
-4.18212 0.201226 4.71903
-4.19053 0.197433 4.66514
-4.19706 0.193386 4.59424
-4.2114 0.191745 4.55037
-4.2146 0.190348 4.52341
-4.23423 0.186119 4.43961
-4.23941 0.184767 4.41566
-4.24977 0.182079 4.36878
-4.25793 0.180774 4.34785
-4.26796 0.181722 4.34391
-4.26938 0.177894 4.28797
-4.29602 0.174655 4.20321
-4.30129 0.172126 4.16728
-4.30845 0.17182 4.14634
-4.32057 0.170607 4.13145
-4.31979 0.169177 4.10246
-4.32297 0.167824 4.0785
-4.33012 0.167518 4.05755
-4.32922 0.166325 4.04456
-4.33936 0.166066 4.02664
-4.33857 0.163651 3.99867
-4.33777 0.162251 3.97168
-4.35088 0.162053 3.95778
-4.35802 0.161777 3.93883
-4.36418 0.160471 3.9179
-4.36626 0.160309 3.90691
-4.37262 0.157618 3.85999
-4.37479 0.156279 3.83703
-4.38492 0.156035 3.8201
-4.3863 0.153296 3.77015
-4.39235 0.153196 3.76319
-4.40148 0.151952 3.74628
-4.40564 0.151644 3.72531
-4.41676 0.151415 3.7094
-4.41596 0.149029 3.68342
-4.41316 0.147628 3.65642
-4.43023 0.148492 3.64653
-4.42933 0.147299 3.63354
-4.42753 0.145913 3.60755
-4.43367 0.144636 3.58861
-4.44181 0.144375 3.57067
-4.44597 0.143067 3.54972
-4.45509 0.142837 3.53379
-4.44524 0.141534 3.51373
-4.45337 0.141273 3.49579
-4.46149 0.140042 3.47987
-4.46863 0.139781 3.46193
-4.47115 0.135761 3.393
-4.47423 0.135616 3.38302
-4.47937 0.135338 3.36406
-4.48668 0.132736 3.32315
-4.50889 0.132338 3.29532
-4.50807 0.130982 3.27133
-4.51014 0.13085 3.26234
-4.51231 0.129526 3.24038
-4.51148 0.129185 3.21737
-4.52458 0.129002 3.20447
-4.52872 0.127724 3.18552
-4.53088 0.126415 3.16455
-4.54414 0.125906 3.12965
-4.54621 0.125774 3.12067
-4.54538 0.124433 3.09768
-4.56163 0.122971 3.06582
-4.57008 0.121089 3.0059
-4.57215 0.119957 2.99694
-4.57629 0.119679 2.97797
-4.57446 0.118337 2.95497
-4.58059 0.11809 2.93802
-4.57876 0.116748 2.91502
-4.59385 0.116596 2.90414
-4.59998 0.116349 2.88718
-4.59707 0.115169 2.87518
-4.59425 0.113812 2.85117
-4.60734 0.114644 2.83926
-4.6065 0.113332 2.81827
-4.61462 0.113101 2.80233
-4.61577 0.111806 2.78235
-4.62388 0.11159 2.76742
-4.62396 0.111427 2.75642
-4.63208 0.110196 2.7405
-4.63323 0.109901 2.72051
-4.63239 0.108589 2.69952
-4.63951 0.108372 2.68457
-4.63568 0.107029 2.66156
-4.63782 0.105749 2.64259
-4.64785 0.106697 2.63865
-4.65298 0.106449 2.62169
-4.65612 0.10517 2.60273
-4.66623 0.10497 2.58881
-4.6725 0.103442 2.55287
-4.67358 0.103295 2.54288
-4.66874 0.101965 2.52086
-4.68283 0.101798 2.50897
-4.69095 0.101582 2.49403
-4.69821 0.101069 2.45909
-5.01197 0.0641532 1.0338
-5.04592 0.0623121 0.90807
-5.05515 0.0618598 0.877142
-5.08617 0.0598833 0.742386
-5.08929 0.0596486 0.726411
-5.10421 0.0578529 0.604533
-5.12661 0.0580695 0.550691
-5.16376 0.0558457 0.398983
-5.17318 0.0560232 0.343043
-5.19485 0.0547211 0.254214
-5.19597 0.054485 0.238223
-5.22688 0.0537156 0.117451
-5.23619 0.0541152 0.0765096
-5.2528 0.0539129 -0.0053735
-5.25198 0.052557 -0.0293629
-5.27361 0.0533435 -0.112223
-5.28704 0.0525092 -0.169117
-5.29116 0.0532604 -0.1861
-4.1617 0.248976 4.77018
-4.16677 0.248846 4.76122
-4.16899 0.246404 4.73127
-4.19274 0.240956 4.63251
-4.20313 0.238208 4.58162
-4.22696 0.231582 4.47089
-4.23413 0.231262 4.44894
-4.24537 0.229796 4.41704
-4.26488 0.225819 4.35024
-4.26632 0.221961 4.2923
-4.28339 0.221825 4.28243
-4.28988 0.218883 4.21851
-4.30837 0.214919 4.1527
-4.30858 0.21352 4.12572
-4.31265 0.213374 4.11575
-4.31584 0.211007 4.09081
-4.34127 0.209181 4.03402
-4.34068 0.205382 3.98006
-4.34177 0.205205 3.96807
-4.35409 0.202592 3.9262
-4.3662 0.202379 3.91129
-4.36342 0.200947 3.88229
-4.3656 0.199594 3.85832
-4.37573 0.198349 3.84141
-4.379 0.196819 3.80545
-4.39111 0.19662 3.79155
-4.3905 0.19285 3.73959
-4.40062 0.192621 3.72367
-4.39773 0.191397 3.70866
-4.414 0.190875 3.67279
-4.42847 0.186968 3.61095
-4.43688 0.184175 3.55704
-4.45115 0.183652 3.52115
-4.4573 0.182375 3.50222
-4.45775 0.178487 3.44227
-4.46786 0.178273 3.42735
-4.47716 0.176687 3.38743
-4.49161 0.173824 3.32858
-4.49983 0.172401 3.29966
-4.50017 0.170735 3.25468
-4.51776 0.166593 3.17686
-4.52894 0.166231 3.15195
-4.5301 0.164921 3.13097
-4.54122 0.164707 3.11606
-4.54337 0.163413 3.09609
-4.55547 0.163229 3.08318
-4.55074 0.161678 3.04616
-4.565 0.160185 3.01229
-4.5693 0.158596 2.97234
-4.57444 0.157333 2.95439
-4.58164 0.156938 2.92745
-4.58181 0.155613 2.90547
-4.60035 0.15256 2.83364
-4.60051 0.15125 2.81266
-4.62632 0.147669 2.70489
-4.65611 0.144151 2.60116
-4.66346 0.141476 2.55524
-4.67586 0.1397 2.50236
-4.69559 0.136278 2.40554
-4.70698 0.134516 2.35365
-4.72228 0.132935 2.31378
-4.7277 0.131125 2.25884
-4.74 0.129527 2.21795
-4.75339 0.128782 2.16706
-4.75773 0.126119 2.12212
-4.77508 0.125435 2.07526
-4.79045 0.124721 2.02638
-4.78454 0.123539 2.01435
-4.7898 0.122039 1.9804
-4.79393 0.121791 1.96344
-4.80417 0.121324 1.93152
-4.81227 0.121123 1.91758
-4.81946 0.119758 1.89265
-4.81162 0.118441 1.87161
-4.82884 0.119024 1.84272
-4.83197 0.117775 1.82576
-4.83815 0.117424 1.80181
-4.84952 0.116707 1.7529
-4.85065 0.115441 1.73493
-4.8579 0.114958 1.70198
-4.85497 0.113823 1.69298
-4.86621 0.113357 1.66106
-4.87033 0.113123 1.6451
-4.88555 0.112705 1.61621
-4.88269 0.112421 1.59719
-4.89486 0.112104 1.57529
-4.89499 0.110853 1.5583
-4.90835 0.110152 1.51041
-4.91851 0.109833 1.48849
-4.91466 0.109549 1.46946
-4.91605 0.10778 1.41749
-4.92934 0.107212 1.37859
-4.9407 0.105525 1.3317
-4.95206 0.104822 1.28379
-4.94714 0.103656 1.27276
-4.96236 0.104237 1.24387
-4.96349 0.103987 1.22688
-4.97471 0.103551 1.19696
-4.97703 0.10193 1.155
-4.98115 0.101696 1.13903
-4.99238 0.101246 1.10812
-5.00905 0.0999546 1.02025
-5.0234 0.0992691 0.973362
-5.02571 0.0976638 0.932397
-5.03083 0.0984304 0.916422
-5.04205 0.0979944 0.886509
-5.05335 0.0974103 0.846598
-5.05772 0.0966879 0.797635
-5.06609 0.0949833 0.749716
-5.06914 0.0958817 0.742725
-5.07638 0.0954132 0.710782
-5.0775 0.0941772 0.694806
-5.0996 0.0960005 0.681944
-5.08474 0.0947085 0.662849
-5.1089 0.095415 0.642017
-5.09803 0.0941406 0.623952
-5.10115 0.093906 0.607977
-5.11925 0.0947265 0.595099
-5.1064 0.0934359 0.576019
-5.12362 0.0940041 0.546136
-5.12069 0.0928688 0.537129
-5.11982 0.0926165 0.520124
-5.13392 0.0934193 0.506217
-5.13604 0.0931839 0.490234
-5.13542 0.0914432 0.440248
-5.1567 0.0928958 0.402382
-5.16837 0.0915864 0.313477
-5.18473 0.0908875 0.265604
-5.19497 0.091421 0.233669
-5.19303 0.0913011 0.225655
-5.18716 0.0900452 0.208627
-5.20628 0.0908369 0.193757
-5.1974 0.0905787 0.176692
-5.22176 0.0908855 0.128864
-5.22995 0.0905361 0.104927
-5.22707 0.0902971 0.088907
-5.24131 0.0908187 0.0560021
-5.22844 0.0895577 0.0389215
-5.24474 0.0899771 -0.000967452
-5.23987 0.0897218 -0.0180027
-5.25999 0.0904994 -0.0338648
-5.24912 0.0892399 -0.0509305
-5.26842 0.0896615 -0.0907968
-5.27767 0.0901795 -0.123739
-5.2798 0.0899293 -0.140722
-5.28904 0.0904473 -0.173664
-5.28316 0.0892062 -0.189693
-5.28129 0.0889531 -0.206705
-5.30548 0.0906003 -0.231551
-4.15729 0.328675 4.81697
-4.16249 0.326279 4.79004
-4.16769 0.324898 4.7641
-4.17388 0.323532 4.73916
-4.18204 0.322212 4.71724
-4.18526 0.319786 4.6883
-4.19454 0.317245 4.6514
-4.19378 0.314785 4.62042
-4.2069 0.314558 4.60452
-4.21209 0.313177 4.57858
-4.21232 0.310733 4.54861
-4.22147 0.309444 4.5287
-4.22159 0.308207 4.51272
-4.22678 0.306855 4.48877
-4.2421 0.30423 4.44592
-4.24035 0.30174 4.41294
-4.25048 0.301496 4.39602
-4.25963 0.300206 4.3761
-4.2528 0.297861 4.35308
-4.26294 0.297602 4.33516
-4.26316 0.295173 4.30619
-4.2896 0.292334 4.24843
-4.30083 0.290883 4.21753
-4.31019 0.288194 4.17063
-4.31535 0.286872 4.14869
-4.33932 0.278995 4.02097
-4.3702 0.272285 3.90428
-4.40424 0.265267 3.76663
-4.49146 0.242024 3.34157
-4.49894 0.238097 3.27867
-4.51113 0.236736 3.25378
-4.51147 0.234055 3.20782
-4.52672 0.233578 3.17494
-4.54655 0.227978 3.06615
-4.56079 0.2265 3.03328
-4.56303 0.225043 3.00231
-4.56717 0.223765 2.98336
-4.56932 0.22247 2.96339
-4.57148 0.221161 2.94242
-4.58358 0.221977 2.9295
-4.58175 0.21965 2.90752
-4.59186 0.219435 2.8926
-4.58995 0.219256 2.88058
-4.59806 0.21904 2.86565
-4.6032 0.217777 2.8477
-4.60336 0.216467 2.82672
-4.60849 0.216204 2.80876
-4.60964 0.214909 2.78878
-4.61776 0.214678 2.77285
-4.61883 0.213545 2.76387
-4.62198 0.213266 2.74489
-4.62726 0.210708 2.70697
-4.63738 0.210493 2.69204
-4.64365 0.208964 2.65611
-4.64174 0.208785 2.6441
-4.64886 0.208554 2.62815
-4.652 0.207275 2.60919
-4.65712 0.207041 2.59323
-4.65727 0.205745 2.57325
-4.66539 0.205514 2.55731
-4.66853 0.20425 2.53935
-4.66462 0.20307 2.52734
-4.68568 0.203967 2.51948
-4.68384 0.203654 2.49847
-4.67702 0.201294 2.47445
-4.68812 0.20111 2.46153
-4.69822 0.20091 2.44761
-4.69439 0.199581 2.4256
-4.70044 0.199497 2.41964
-4.69859 0.198185 2.39865
-4.69974 0.197904 2.37966
-4.7188 0.198785 2.37079
-4.71896 0.197489 2.3508
-4.72507 0.197271 2.33585
-4.72643 0.194561 2.2879
-4.73255 0.194329 2.27194
-4.73867 0.194097 2.25599
-4.74878 0.193897 2.24207
-4.74792 0.192615 2.22308
-4.75212 0.191218 2.19613
-4.76223 0.192018 2.18219
-4.76037 0.190735 2.16319
-4.76649 0.190503 2.14724
-4.76664 0.189222 2.12826
-4.77289 0.187723 2.09432
-4.78407 0.187391 2.07141
-4.80156 0.185426 2.00556
-4.80676 0.185045 1.9796
-4.81301 0.183561 1.94666
-4.94252 0.166801 1.3498
-4.96192 0.166015 1.29596
-4.97846 0.164961 1.22409
-5.00961 0.161733 1.07235
-5.03963 0.158741 0.936599
-5.06229 0.158469 0.849762
-5.06953 0.158001 0.817819
-5.12027 0.154617 0.587219
-5.13593 0.153325 0.499344
-5.16882 0.152587 0.380586
-5.22065 0.152026 0.137952
-5.23089 0.15156 0.106031
-4.15933 0.365539 4.80744
-4.19114 0.358978 4.70076
-4.19931 0.357658 4.67884
-4.20299 0.350329 4.58896
-4.22537 0.34759 4.53817
-4.22659 0.345177 4.51021
-4.2407 0.344965 4.49531
-4.2439 0.343568 4.46836
-4.24412 0.341139 4.43939
-4.25062 0.336166 4.3735
-4.26274 0.335938 4.35759
-4.27189 0.334649 4.33768
-4.27409 0.332266 4.31173
-4.27828 0.330899 4.28678
-4.28643 0.329609 4.26685
-4.2915 0.329479 4.25789
-4.2927 0.32708 4.23093
-4.29589 0.325712 4.20598
-4.30206 0.324391 4.18404
-4.3102 0.323116 4.16512
-4.31339 0.321748 4.14016
-4.31976 0.318028 4.09125
-4.32284 0.317867 4.08028
-4.32602 0.316529 4.05732
-4.3433 0.313994 4.02048
-4.35145 0.313703 4.00054
-4.35164 0.311319 3.97458
-4.35085 0.309919 3.94759
-4.36187 0.309882 3.94467
-4.35909 0.307451 3.91568
-4.3712 0.307238 3.90077
-4.36941 0.304837 3.87379
-4.37973 0.302208 3.8309
-4.39085 0.301994 3.81599
-4.39194 0.301817 3.804
-4.39113 0.299431 3.77802
-4.41455 0.296634 3.72323
-4.41871 0.295312 3.70128
-4.41592 0.29391 3.67428
-4.42496 0.293842 3.66935
-4.42514 0.291487 3.64538
-4.43048 0.288825 3.60045
-4.44458 0.288643 3.58756
-4.44295 0.285901 3.53758
-4.44901 0.285802 3.53063
-4.45415 0.284525 3.51168
-4.46328 0.28328 3.49477
-4.46047 0.281893 3.46876
-4.46978 0.279307 3.42886
-4.46788 0.278114 3.41587
-4.48828 0.276329 3.36204
-4.48746 0.273973 3.33806
-4.50056 0.27479 3.32515
-4.50977 0.273397 3.29824
-4.49901 0.269916 3.2662
-4.51608 0.270795 3.25732
-4.52221 0.270533 3.23936
-4.52536 0.269239 3.2194
-4.52852 0.26793 3.19844
-4.54078 0.266421 3.16355
-4.54005 0.263903 3.12858
-4.54916 0.263687 3.11365
-4.54834 0.262346 3.09066
-4.55049 0.261052 3.07069
-4.56458 0.260884 3.0588
-4.55579 0.258463 3.03077
-4.5688 0.259443 3.02885
-4.57709 0.256887 2.99094
-4.5693 0.255481 2.9639
-4.58239 0.255313 2.952
-4.58254 0.254002 2.93102
-4.5847 0.252708 2.91105
-4.58976 0.252593 2.90309
-4.59787 0.252377 2.88815
-4.60814 0.250851 2.85225
-4.61427 0.250604 2.8353
-4.61741 0.249325 2.81634
-4.61995 0.245276 2.74541
-4.62608 0.244029 2.72847
-4.63717 0.243844 2.71555
-4.63434 0.242517 2.69355
-4.63856 0.24109 2.6646
-4.64767 0.24089 2.65067
-4.64981 0.23961 2.6317
-4.65195 0.23933 2.61272
-4.66306 0.239131 2.5988
-4.66719 0.237882 2.58185
-4.67752 0.236239 2.53794
-4.68464 0.236007 2.522
-4.68678 0.234727 2.50303
-4.69718 0.23295 2.45013
-4.69626 0.231786 2.43914
-4.70636 0.232601 2.4262
-4.69954 0.230241 2.40218
-4.70965 0.230041 2.38826
-4.72089 0.229575 2.35634
-4.72004 0.228279 2.33635
-4.71812 0.227115 2.32536
-4.73435 0.226682 2.29548
-4.73151 0.225369 2.27448
-4.74261 0.225185 2.26156
-4.74175 0.224903 2.24256
-4.75705 0.223322 2.20269
-4.76118 0.223073 2.18572
-4.75847 0.220494 2.14673
-4.77776 0.219945 2.10888
-4.78501 0.218462 2.07595
-4.79859 0.215332 1.99909
-4.8067 0.216115 1.98414
-4.83365 0.211284 1.8594
-4.82694 0.208702 1.82038
-4.84217 0.208269 1.7905
-4.84921 0.209185 1.78453
-4.86896 0.205734 1.68572
-4.87813 0.2054 1.66279
-4.88165 0.202381 1.59385
-4.89674 0.203214 1.58195
-4.90305 0.201612 1.54102
-4.90717 0.201378 1.52505
-4.92053 0.200677 1.47716
-4.92365 0.200442 1.46118
-4.92884 0.199076 1.43624
-4.92997 0.198825 1.41925
-4.92524 0.197288 1.38323
-4.94232 0.198138 1.37234
-4.9495 0.197788 1.3484
-4.94564 0.196518 1.33039
-4.95787 0.196068 1.29948
-4.95999 0.195833 1.2835
-4.96012 0.194581 1.26651
-4.96132 0.194197 1.24053
-4.97454 0.193763 1.21063
-4.98265 0.193561 1.19669
-4.97492 0.192023 1.16065
-4.98104 0.19179 1.1447
-4.99507 0.192741 1.14079
-4.99221 0.191473 1.12278
-5.00431 0.192274 1.10886
-5.00244 0.192021 1.09185
-4.99758 0.190751 1.07383
-5.01068 0.191553 1.05991
-5.0138 0.190318 1.04395
-5.01586 0.190201 1.03597
-5.01199 0.189947 1.01894
-5.02509 0.190749 1.00502
-5.02422 0.189497 0.988034
-5.02934 0.189278 0.973074
-5.02347 0.188008 0.955046
-5.03958 0.188812 0.941154
-5.02965 0.187657 0.931095
-5.03777 0.18844 0.916142
-5.04688 0.188225 0.901212
-5.047 0.187988 0.885214
-5.05212 0.187755 0.869254
-5.05936 0.187286 0.837311
-5.05942 0.187168 0.829312
-5.05855 0.186916 0.812307
-5.06267 0.186682 0.796339
-5.06579 0.186447 0.780364
-5.07889 0.186249 0.766464
-5.07602 0.185995 0.749444
-5.07633 0.184389 0.708464
-5.09456 0.184958 0.678589
-5.10779 0.185508 0.647676
-5.09493 0.184232 0.629596
-5.11708 0.184937 0.608749
-5.11022 0.183666 0.590714
-5.10935 0.183413 0.573709
-5.11147 0.183178 0.557726
-5.12557 0.183981 0.543818
-5.1207 0.182726 0.526798
-5.11977 0.182592 0.517792
-5.13986 0.184414 0.504914
-5.14099 0.183163 0.487939
-5.13911 0.182925 0.471926
-5.14723 0.183693 0.455974
-5.14136 0.182438 0.438946
-5.15347 0.183224 0.424023
-5.14567 0.181834 0.397982
-5.1649 0.182403 0.368114
-5.17102 0.182171 0.352161
-5.16914 0.181918 0.335148
-5.17526 0.181685 0.319196
-5.18338 0.182469 0.304243
-5.18756 0.182117 0.280277
-5.19368 0.182884 0.264309
-5.19893 0.182399 0.231351
-5.19405 0.181144 0.214331
-5.19218 0.180906 0.198318
-5.20423 0.181796 0.190395
-5.20348 0.181307 0.157392
-5.21972 0.181859 0.126502
-5.22496 0.181374 0.0935437
-5.23302 0.182262 0.0855902
-5.23926 0.181792 0.0536397
-5.24439 0.181544 0.0366797
-5.23752 0.181288 0.0196294
-5.25263 0.182076 0.00472948
-5.24876 0.180822 -0.0122835
-5.24382 0.1807 -0.02032
-5.26707 0.182228 -0.053172
-5.27032 0.181742 -0.0861449
-5.27444 0.181508 -0.102113
-5.28156 0.182261 -0.119072
-5.27963 0.182141 -0.127086
-5.28287 0.181655 -0.160059
-5.28712 0.181169 -0.193025
-4.29204 0.36038 4.18343
-4.32932 0.349891 4.01384
-4.48227 0.310306 3.36049
-4.48244 0.308966 3.33751
-4.51007 0.304757 3.25477
-4.51123 0.303447 3.23379
-4.51339 0.302123 3.21183
-4.51862 0.299683 3.1819
-4.52592 0.298111 3.14297
-4.53918 0.296602 3.10809
-4.54532 0.29534 3.09015
-4.54241 0.294146 3.07714
-4.54557 0.292852 3.05718
-4.56197 0.291064 3.00333
-4.56628 0.288475 2.96339
-4.57846 0.288129 2.93949
-4.58574 0.285572 2.90157
-4.59386 0.285341 2.88564
-4.59402 0.28403 2.86465
-4.60115 0.282784 2.84772
-4.61679 0.278551 2.76389
-4.62903 0.278072 2.73099
-4.62812 0.276908 2.72
-4.63937 0.275413 2.6861
-4.6445 0.275165 2.66914
-4.64366 0.273854 2.64815
-4.64696 0.271279 2.60921
-4.65997 0.272258 2.60729
-4.66211 0.270979 2.58832
-4.66326 0.269684 2.56835
-4.67038 0.269452 2.5524
-4.6755 0.269219 2.53644
-4.66969 0.266859 2.51243
-4.6778 0.266643 2.49749
-4.68087 0.266512 2.48851
-4.69097 0.266327 2.47559
-4.69311 0.265047 2.45662
-4.68928 0.263719 2.43461
-4.6964 0.263487 2.41867
-4.70949 0.263319 2.40677
-4.70764 0.262021 2.38677
-4.71071 0.26189 2.37779
-4.70886 0.260593 2.3578
-4.72394 0.261441 2.34689
-4.72309 0.260144 2.3269
-4.72623 0.25888 2.30894
-4.90133 0.23103 1.50156
-4.96144 0.223913 1.22108
-4.99665 0.220569 1.06138
-5.03439 0.22113 0.962639
-5.04401 0.218923 0.880733
-5.04507 0.218806 0.872742
-5.04719 0.21757 0.856774
-5.04831 0.217334 0.840784
-5.05842 0.218119 0.825846
-5.05555 0.216866 0.808841
-5.06678 0.217415 0.777913
-5.06385 0.216279 0.768906
-5.06697 0.216045 0.752931
-5.07609 0.216829 0.737986
-5.07621 0.215592 0.722003
-5.07933 0.215358 0.706028
-5.09256 0.215908 0.675115
-5.08863 0.215772 0.666086
-5.09774 0.215557 0.651156
-5.10186 0.215323 0.635188
-5.10323 0.214598 0.586203
-5.11534 0.215385 0.57128
-5.12046 0.215166 0.55632
-5.12352 0.21505 0.548344
-5.12564 0.214815 0.532361
-5.13276 0.214583 0.516416
-5.12688 0.214327 0.499373
-5.13212 0.213857 0.467415
-5.14024 0.213641 0.452477
-5.13931 0.213507 0.443471
-5.14742 0.21329 0.428533
-5.15154 0.214056 0.412551
-5.15167 0.212805 0.395568
-5.16577 0.214608 0.381646
-5.1639 0.213355 0.364648
-5.17201 0.214138 0.349695
-5.16509 0.212985 0.339659
-5.16921 0.212751 0.323691
-5.17233 0.212517 0.307716
-5.17445 0.212281 0.291733
-5.18256 0.213065 0.27678
-5.19168 0.213835 0.260835
-5.1918 0.212598 0.244853
-5.19586 0.213482 0.236869
-5.19199 0.212228 0.219856
-5.19711 0.212995 0.203881
-5.19524 0.211742 0.186883
-5.20835 0.212529 0.171968
-5.20348 0.212274 0.154933
-5.21859 0.213062 0.140033
-5.21566 0.212927 0.131012
-5.22078 0.212694 0.115052
-5.2219 0.212458 0.0990613
-5.23102 0.213227 0.0831164
-5.23414 0.212993 0.0671411
-5.23927 0.212745 0.0501811
-5.24039 0.212508 0.0341908
-5.23945 0.212389 0.0261844
-5.24158 0.212139 0.00920181
-5.2527 0.21291 -0.00672803
-5.24782 0.21267 -0.0227634
-5.25894 0.213441 -0.0386933
-5.26506 0.213194 -0.0556458
-5.25619 0.211935 -0.0726964
-5.26625 0.212824 -0.0806348
-5.27637 0.213595 -0.0965722
-5.27349 0.213356 -0.112593
-5.27162 0.213102 -0.129605
-5.27475 0.212853 -0.14658
-5.29087 0.213628 -0.162473
-5.29099 0.213391 -0.17847
-4.14897 0.533017 4.83889
-4.1621 0.532774 4.82199
-4.16322 0.531553 4.80701
-4.16148 0.528034 4.77205
-4.17856 0.527884 4.76118
-4.17583 0.524364 4.7262
-4.18895 0.523136 4.71032
-4.19811 0.521832 4.6894
-4.19649 0.517091 4.63945
-4.20861 0.515863 4.62356
-4.2019 0.512281 4.58456
-4.21998 0.512146 4.57469
-4.22715 0.510811 4.55177
-4.21846 0.506213 4.51176
-4.24061 0.505918 4.49093
-4.24701 0.501153 4.43904
-4.25241 0.496372 4.38615
-4.26255 0.495098 4.36724
-4.27171 0.493809 4.34732
-4.27103 0.490172 4.30437
-4.27125 0.486743 4.27542
-4.28635 0.486562 4.26253
-4.30166 0.483966 4.22168
-4.29195 0.479397 4.18367
-4.30198 0.480345 4.17973
-4.3143 0.476717 4.13687
-4.32563 0.474074 4.09299
-4.33299 0.470384 4.04609
-4.33925 0.466885 4.01219
-4.33747 0.464455 3.9832
-4.35653 0.46535 3.97533
-4.35791 0.460596 3.92441
-4.37945 0.455561 3.85363
-4.38283 0.451823 3.80371
-4.38401 0.449469 3.77975
-4.39006 0.44937 3.77279
-4.40633 0.447849 3.73693
-4.4097 0.443141 3.68902
-4.41802 0.440525 3.64712
-4.42327 0.43804 3.61419
-4.43555 0.435487 3.57632
-4.45516 0.430317 3.49653
-4.4604 0.427847 3.4646
-4.46969 0.425277 3.4257
-4.47304 0.421613 3.38078
-4.48224 0.42022 3.35386
-4.50048 0.419759 3.322
-4.51219 0.412377 3.22819
-4.53474 0.408312 3.15541
-4.54428 0.403268 3.08454
-4.55555 0.401744 3.04865
-4.5577 0.400449 3.02868
-4.56483 0.400203 3.01173
-4.57203 0.397808 2.98482
-4.56822 0.395436 2.95982
-4.58147 0.394957 2.92693
-4.58163 0.392646 2.90596
-4.59672 0.393479 2.89406
-4.59911 0.389726 2.84312
-4.61872 0.385541 2.76232
-4.62998 0.384046 2.72842
-4.63825 0.381519 2.69252
-4.6505 0.380025 2.65863
-4.64874 0.377565 2.62765
-4.65815 0.374757 2.57275
-4.66527 0.374525 2.55681
-4.67453 0.373029 2.5229
-4.6877 0.372698 2.5
-4.69298 0.370169 2.46407
-4.69227 0.367591 2.4251
-4.70345 0.367244 2.40118
-4.7137 0.365763 2.36828
-4.72096 0.36425 2.33335
-4.73243 0.361355 2.27247
-4.74267 0.359874 2.23956
-4.74993 0.358376 2.20564
-4.76139 0.355481 2.14476
-4.76964 0.353999 2.11184
-4.78287 0.353549 2.08094
-4.77199 0.351319 2.06589
-4.77711 0.351086 2.04993
-4.79532 0.350685 2.02207
-4.79759 0.349153 1.9861
-4.80079 0.347771 1.96014
-4.81103 0.346305 1.92824
-4.82725 0.345872 1.89836
-4.81742 0.343539 1.87632
-4.8335 0.345388 1.86541
-4.83071 0.342972 1.83742
-4.82587 0.341672 1.8174
-4.84196 0.342506 1.80551
-4.8391 0.341223 1.7865
-4.85319 0.342055 1.7746
-4.85937 0.340704 1.75066
-4.85452 0.339405 1.73064
-4.85167 0.338121 1.71163
-4.87486 0.338753 1.6858
-4.88211 0.33727 1.65287
-4.88032 0.335854 1.62487
-4.87446 0.334569 1.60584
-4.89355 0.33542 1.59497
-4.8867 0.334118 1.57494
-4.8958 0.333918 1.56101
-4.89394 0.33265 1.54301
-4.91222 0.333115 1.50614
-4.90836 0.331831 1.48712
-4.91248 0.330597 1.47117
-4.91361 0.330347 1.45418
-4.92178 0.330012 1.43124
-4.938 0.330594 1.40235
-4.94212 0.32936 1.3864
-4.93727 0.328076 1.36738
-4.94251 0.327591 1.33442
-4.94969 0.327255 1.31148
-4.95992 0.326804 1.28056
-4.95306 0.324518 1.26154
-4.96617 0.32532 1.24762
-4.96331 0.324051 1.22962
-4.97334 0.324984 1.22468
-4.96449 0.323682 1.20463
-4.98458 0.324534 1.19377
-4.9867 0.324298 1.17778
-4.98383 0.32303 1.15978
-4.97897 0.32176 1.14176
-4.99506 0.323579 1.12885
-4.99326 0.322192 1.10285
-4.99638 0.320958 1.08689
-5.01048 0.322775 1.07397
-5.01872 0.322308 1.04203
-5.01485 0.321053 1.02502
-5.02702 0.320721 1.00212
-5.02315 0.319467 0.985102
-5.02328 0.319215 0.968104
-5.04037 0.321035 0.955205
-5.03052 0.318747 0.936162
-5.03862 0.318545 0.922224
-5.04674 0.319329 0.907271
-5.03882 0.31816 0.896227
-5.04393 0.317942 0.881267
-5.05903 0.31876 0.868367
-5.04518 0.316454 0.848294
-5.05129 0.317237 0.833326
-5.0684 0.318042 0.819441
-5.06759 0.316671 0.794452
-5.06472 0.316417 0.777432
-5.07183 0.3162 0.762487
-5.08406 0.31675 0.731566
-5.0762 0.315478 0.713523
-5.0913 0.316281 0.699623
-5.09548 0.315929 0.675657
-5.09261 0.314675 0.658651
-5.10896 0.314991 0.611763
-5.10827 0.313384 0.570776
-5.12363 0.313699 0.523881
-5.13886 0.314251 0.492983
-5.12794 0.313095 0.482917
-5.14604 0.3149 0.469024
-5.15353 0.312943 0.404101
-5.15683 0.312354 0.364129
-5.18418 0.314677 0.317294
-5.1823 0.313439 0.301296
-5.18043 0.313186 0.284283
-5.19048 0.314089 0.277345
-5.1966 0.313857 0.261392
-5.18474 0.312582 0.243319
-5.20384 0.314388 0.229434
-5.19298 0.312114 0.211384
-5.20909 0.313903 0.196477
-5.20222 0.312647 0.179441
-5.21128 0.313535 0.171495
-5.2084 0.313296 0.155475
-5.20553 0.312042 0.138469
-5.22464 0.313834 0.123585
-5.22277 0.313581 0.106572
-5.22989 0.313349 0.0906269
-5.22501 0.313108 0.0745914
-5.23907 0.314 0.066683
-5.24732 0.314517 0.033733
-5.23844 0.313274 0.0176823
-5.25156 0.314046 0.00176749
-5.24769 0.313792 -0.0152602
-5.25993 0.314312 -0.0481802
-5.27011 0.314964 -0.0721165
-5.27324 0.314714 -0.0890916
-5.26137 0.313454 -0.106165
-5.28249 0.315232 -0.122034
-5.27861 0.313993 -0.138047
-5.28874 0.315748 -0.154999
-5.2818 0.314625 -0.163036
-5.29593 0.315383 -0.179943
-5.29005 0.315142 -0.195986
-5.29817 0.314896 -0.212924
-5.2883 0.313637 -0.229982
-5.30642 0.315413 -0.245874
-4.1633 0.570342 4.79244
-4.17073 0.564504 4.73557
-4.17283 0.564313 4.72259
-4.20375 0.55353 4.60096
-4.20498 0.550086 4.57102
-4.23278 0.541538 4.46534
-4.24491 0.541295 4.44843
-4.44489 0.468794 3.52889
-4.45121 0.465162 3.48598
-4.47569 0.462233 3.4222
-4.49447 0.454736 3.32044
-4.51646 0.444799 3.18873
-4.54125 0.438277 3.085
-4.57854 0.427788 2.91542
-4.69433 0.400441 2.41462
-4.69746 0.399191 2.39766
-4.70059 0.398927 2.37969
-4.70771 0.397696 2.36376
-4.72942 0.39332 2.26997
-4.73056 0.392039 2.251
-4.73668 0.391807 2.23505
-4.73775 0.391674 2.22605
-4.74302 0.38916 2.19113
-4.74715 0.388911 2.17416
-4.74928 0.387647 2.15619
-4.7554 0.387414 2.14024
-4.7596 0.386032 2.11429
-4.7707 0.386848 2.10136
-4.76685 0.384549 2.08136
-4.77823 0.382802 2.03046
-4.78741 0.382468 2.00753
-4.79865 0.381003 1.97564
-4.79978 0.379737 1.95766
-4.8059 0.379505 1.94171
-4.81401 0.379303 1.92777
-4.81016 0.378004 1.90776
-4.81222 0.377887 1.89977
-4.81648 0.376372 1.86482
-4.8236 0.376155 1.84988
-4.82273 0.374888 1.83189
-4.82785 0.373655 1.81594
-4.83796 0.374455 1.80201
-4.84414 0.373104 1.77807
-4.85225 0.373888 1.76312
-4.85551 0.371387 1.72917
-4.85465 0.371105 1.71017
-4.86276 0.370904 1.69623
-4.86283 0.369771 1.68725
-4.86994 0.370554 1.67229
-4.87307 0.369304 1.65533
-4.88117 0.369103 1.64139
-4.87932 0.36782 1.62239
-4.88344 0.367586 1.60642
-4.89453 0.368402 1.59349
-4.88862 0.367235 1.58246
-4.89474 0.367002 1.56651
-4.90184 0.3668 1.55257
-4.89101 0.364467 1.53052
-4.89912 0.36425 1.51558
-4.91221 0.365082 1.50366
-4.91733 0.364849 1.4877
-4.91441 0.363699 1.4777
-4.92551 0.364514 1.46477
-4.91068 0.361163 1.4417
-4.91779 0.361946 1.42674
-4.93089 0.362763 1.41383
-4.92903 0.361495 1.39583
-4.93215 0.360261 1.37987
-4.94418 0.36221 1.37593
-4.93434 0.359892 1.35489
-4.94843 0.360725 1.34298
-4.95081 0.357971 1.29203
-4.95593 0.357738 1.27607
-4.9651 0.357404 1.25314
-4.96423 0.357152 1.23614
-4.96337 0.355885 1.21814
-4.97547 0.356701 1.20522
-4.98158 0.356483 1.19027
-4.97672 0.355213 1.17225
-4.97984 0.354964 1.15527
-4.98789 0.355881 1.14932
-4.99114 0.354395 1.11636
-4.99126 0.353143 1.09938
-4.99139 0.352906 1.08338
-4.99651 0.352673 1.06742
-5.00761 0.353474 1.05349
-5.0068 0.352103 1.0285
-5.01292 0.351871 1.01255
-5.01517 0.350384 0.979584
-5.02627 0.351184 0.965654
-5.03039 0.350965 0.950686
-5.02845 0.350831 0.941672
-5.03857 0.351616 0.926734
-5.03982 0.350128 0.893761
-5.04693 0.349911 0.878816
-5.04705 0.349674 0.862818
-5.04718 0.348423 0.845835
-5.05024 0.349306 0.837844
-5.05835 0.34909 0.822906
-5.06546 0.349873 0.807946
-5.07457 0.349672 0.794016
-5.06671 0.348386 0.774973
-5.06983 0.348151 0.758998
-5.07095 0.347915 0.743008
-5.07401 0.347798 0.735031
-5.08312 0.348583 0.720086
-5.08225 0.347345 0.704096
-5.08537 0.347111 0.688121
-5.09648 0.347897 0.673191
-5.10159 0.347678 0.65823
-5.09979 0.347292 0.632219
-5.10291 0.347057 0.616244
-5.11202 0.346842 0.601314
-5.10415 0.345584 0.58427
-5.12125 0.347389 0.570371
-5.11239 0.345117 0.552335
-5.1225 0.345902 0.537398
-5.13555 0.347822 0.531467
-5.12768 0.34655 0.513424
-5.13879 0.346336 0.498509
-5.13692 0.346083 0.481496
-5.14716 0.346631 0.450561
-5.15228 0.346398 0.4346
-5.15334 0.34628 0.426609
-5.15746 0.346046 0.410641
-5.1657 0.346578 0.378691
-5.16183 0.345324 0.361678
-5.17693 0.347127 0.347763
-5.18105 0.346893 0.331796
-5.17213 0.345739 0.321744
-5.17025 0.344501 0.305746
-5.17637 0.345268 0.289779
-5.18349 0.345037 0.273834
-5.1936 0.345822 0.258896
-5.19872 0.346588 0.242921
-5.20284 0.346354 0.226953
-5.20391 0.346222 0.217962
-5.20103 0.345983 0.201942
-5.20415 0.345748 0.185966
-5.21427 0.346519 0.170029
-5.2054 0.34526 0.152979
-5.21652 0.346032 0.137049
-5.22764 0.346803 0.121119
-5.22276 0.345562 0.105098
-5.23694 0.347217 0.0811773
-5.23407 0.345963 0.0641719
-5.23319 0.345726 0.0481665
-5.24431 0.346497 0.0322367
-5.25143 0.34725 0.0152769
-5.24555 0.346009 -0.000751205
-5.24874 0.345641 -0.0257252
-5.26298 0.347177 -0.0576451
-5.25711 0.345921 -0.074673
-5.27223 0.347695 -0.0905876
-5.26836 0.346441 -0.107601
-5.27242 0.347325 -0.115584
-5.28554 0.348098 -0.131499
-5.28567 0.347846 -0.148497
-5.28779 0.347611 -0.164479
-5.30116 0.34888 -0.214404
-5.29522 0.347757 -0.222433
-5.29935 0.347508 -0.239401
-4.15177 0.614321 4.85871
-4.15895 0.612971 4.83478
-4.1733 0.608286 4.78795
-4.17343 0.607049 4.77197
-4.17565 0.603607 4.74203
-4.18977 0.603395 4.72714
-4.18704 0.59886 4.69118
-4.19841 0.595143 4.64231
-4.20867 0.591633 4.60744
-4.21089 0.58922 4.57949
-4.22103 0.587946 4.56058
-4.23118 0.586657 4.54067
-4.23659 0.580862 4.48679
-4.23174 0.578563 4.46678
-4.24783 0.578397 4.45491
-4.24806 0.575953 4.42494
-4.25225 0.573586 4.4
-4.26041 0.571281 4.3791
-4.26856 0.569991 4.35917
-4.27473 0.568655 4.33624
-4.27682 0.567479 4.32427
-4.27009 0.562956 4.28928
-4.27923 0.561682 4.27037
-4.28839 0.560392 4.25045
-4.29455 0.559071 4.22851
-4.29277 0.555641 4.19955
-4.30202 0.553159 4.16665
-4.31017 0.551884 4.14773
-4.32129 0.55064 4.13083
-4.31852 0.547194 4.10085
-4.31973 0.544795 4.07389
-4.33085 0.544567 4.05798
-4.33701 0.54326 4.03704
-4.34316 0.540969 4.01712
-4.34228 0.539731 4.00113
-4.34843 0.53844 3.98119
-4.35062 0.536071 3.95624
-4.35976 0.534812 3.93832
-4.36392 0.532489 3.91639
-4.37603 0.532276 3.90148
-4.37424 0.529875 3.8745
-4.37037 0.52762 3.8575
-4.37652 0.526329 3.83756
-4.38783 0.52273 3.79669
-4.39895 0.522502 3.78078
-4.40212 0.520163 3.75784
-4.40827 0.519887 3.73888
-4.41035 0.518725 3.72791
-4.41669 0.515064 3.68301
-4.41787 0.512724 3.66005
-4.42501 0.511448 3.64112
-4.43333 0.507833 3.59923
-4.4374 0.507703 3.59026
-4.43559 0.505331 3.56528
-4.44968 0.505149 3.55239
-4.45583 0.503872 3.53345
-4.46314 0.500256 3.49155
-4.4673 0.498948 3.4706
-4.46739 0.497771 3.45862
-4.47552 0.497525 3.44168
-4.47967 0.495232 3.42174
-4.48482 0.494954 3.40278
-4.48301 0.491583 3.37782
-4.4961 0.4924 3.3649
-4.48626 0.489097 3.34487
-4.49736 0.488898 3.33096
-4.5045 0.487637 3.31303
-4.50169 0.485264 3.28804
-4.50982 0.485019 3.2711
-4.52208 0.48251 3.23622
-4.52019 0.481301 3.22223
-4.52035 0.478976 3.20026
-4.53561 0.477483 3.16639
-4.53876 0.47619 3.14643
-4.5429 0.474911 3.12748
-4.55815 0.473434 3.09461
-4.55824 0.472271 3.08363
-4.55443 0.469898 3.05863
-4.55857 0.46862 3.03968
-4.56868 0.46842 3.02575
-4.57481 0.468158 3.0078
-4.57298 0.465831 2.98582
-4.57911 0.464569 2.96788
-4.57422 0.463358 2.95386
-4.59145 0.461912 2.92301
-4.59659 0.460649 2.90506
-4.59774 0.459354 2.88509
-4.59989 0.45806 2.86512
-4.59807 0.455718 2.84214
-4.61307 0.457729 2.84222
-4.61621 0.45645 2.82326
-4.62134 0.455187 2.80532
-4.62449 0.453908 2.78636
-4.6248 0.450302 2.74541
-4.63789 0.451133 2.73349
-4.64096 0.451002 2.72452
-4.64012 0.448691 2.70354
-4.64425 0.447427 2.68559
-4.65236 0.447211 2.67065
-4.64854 0.444868 2.64765
-4.65864 0.445668 2.63372
-4.65788 0.442209 2.60276
-4.66798 0.443009 2.58882
-4.66914 0.440714 2.56886
-4.6653 0.439385 2.54685
-4.68766 0.437706 2.50003
-4.69684 0.436357 2.47612
-4.69699 0.435061 2.45614
-4.71237 0.433332 2.40627
-4.7155 0.432068 2.38831
-4.71572 0.429639 2.35934
-4.72284 0.429407 2.3434
-4.72696 0.429173 2.32743
-4.7301 0.427909 2.30947
-4.73523 0.426661 2.29253
-4.73445 0.425231 2.26354
-4.75394 0.422268 2.19772
-4.76419 0.420787 2.16481
-4.7829 0.416409 2.07101
-4.79208 0.416075 2.04808
-4.80658 0.413094 1.98122
-4.8314 0.408513 1.87346
-4.84583 0.40668 1.81659
-4.88745 0.398527 1.60199
-4.89655 0.398326 1.58806
-4.9048 0.397843 1.55513
-4.90692 0.396608 1.53916
-4.91616 0.396141 1.50723
-4.91324 0.394991 1.49723
-4.92447 0.39454 1.46631
-4.9266 0.39429 1.44933
-4.93171 0.394071 1.43437
-4.93297 0.391569 1.40041
-4.94101 0.392486 1.39446
-4.94826 0.392017 1.36252
-4.95138 0.390768 1.34556
-4.95164 0.389265 1.31158
-4.96293 0.388696 1.27266
-4.96705 0.388462 1.2567
-4.97417 0.388245 1.24175
-4.98653 0.387543 1.19385
-4.98572 0.386172 1.16886
-4.99582 0.386972 1.15492
-5.00306 0.385504 1.12299
-5.00232 0.384 1.089
-5.00638 0.383884 1.08104
-5.01461 0.383431 1.0501
-5.01474 0.38318 1.0331
-5.01886 0.382946 1.01713
-5.03109 0.38251 0.987229
-5.03128 0.382125 0.961233
-5.04052 0.381673 0.930305
-5.04476 0.381202 0.898339
-5.04489 0.379951 0.881356
-5.05393 0.380868 0.87541
-5.06204 0.380652 0.860472
-5.06317 0.380401 0.843482
-5.06629 0.380167 0.827507
-5.06641 0.37993 0.811509
-5.07153 0.379697 0.795549
-5.07865 0.37948 0.780604
-5.07983 0.37911 0.755615
-5.08695 0.378893 0.740669
-5.08807 0.378657 0.724679
-5.10143 0.378956 0.676769
-5.10461 0.377603 0.65281
-5.11497 0.3779 0.604877
-5.12109 0.377667 0.588924
-5.12439 0.377077 0.548952
-5.13363 0.37661 0.517024
-5.14187 0.377142 0.485074
-5.14299 0.375906 0.469098
-5.14006 0.375771 0.460077
-5.16254 0.376854 0.397222
-5.16878 0.376385 0.365271
-5.1769 0.377154 0.349319
-5.16996 0.376016 0.340282
-5.17608 0.375783 0.32433
-5.1812 0.376565 0.309354
-5.18932 0.376334 0.293417
-5.18745 0.37608 0.276404
-5.20299 0.376011 0.203512
-5.20812 0.375777 0.187552
-5.20924 0.375541 0.171562
-5.21836 0.376311 0.155617
-5.22054 0.375957 0.131635
-5.22978 0.376475 0.0986927
-5.2349 0.377242 0.0827178
-5.23802 0.377007 0.0667425
-5.24127 0.376521 0.0337696
-5.24746 0.377155 0.00880343
-5.2547 0.376686 -0.0231395
-5.25783 0.377437 -0.0401294
-5.26314 0.376834 -0.0810861
-5.28038 0.378357 -0.113983
-5.2825 0.378122 -0.129966
-5.28963 0.378875 -0.146926
-5.28588 0.377384 -0.179937
-5.30007 0.379024 -0.204857
-5.30619 0.379776 -0.221825
-5.30832 0.379541 -0.237807
-4.16174 0.695275 4.85458
-4.16904 0.691688 4.81469
-4.23421 0.663503 4.52956
-4.41337 0.590586 3.71787
-4.45271 0.57601 3.54236
-4.45812 0.5712 3.48746
-4.47357 0.566338 3.42864
-4.48296 0.562575 3.37676
-4.49606 0.562392 3.36386
-4.49541 0.557711 3.31792
-4.51085 0.553864 3.26009
-4.5242 0.550193 3.21424
-4.55098 0.543673 3.11052
-4.56341 0.539838 3.05366
-4.56557 0.537544 3.03371
-4.57385 0.534987 2.9958
-4.58189 0.535919 2.99085
-4.58106 0.533593 2.96888
-4.58536 0.530004 2.92896
-4.60061 0.528526 2.89609
-4.61211 0.524558 2.83022
-4.62138 0.522032 2.79433
-4.62766 0.519489 2.75741
-4.63387 0.518079 2.72947
-4.64014 0.51555 2.69355
-4.65661 0.511644 2.63172
-4.66488 0.509118 2.59582
-4.67215 0.507605 2.56089
-4.67038 0.504145 2.52992
-4.68646 0.504993 2.51903
-4.68263 0.503665 2.49702
-4.70414 0.499689 2.43023
-4.70137 0.497228 2.39924
-4.71959 0.496812 2.37038
-4.72386 0.494282 2.33445
-4.73511 0.493802 2.30153
-4.73632 0.491388 2.27357
-4.74443 0.491187 2.25964
-4.74557 0.489906 2.24066
-4.74785 0.48736 2.20371
-4.75703 0.487012 2.17978
-4.76727 0.485545 2.14788
-4.78478 0.482566 2.08104
-4.78385 0.481417 2.07105
-4.79097 0.481201 2.05611
-4.78626 0.47762 2.01712
-4.80547 0.478219 1.98925
-4.80967 0.476837 1.9633
-4.81991 0.475371 1.93139
-4.82417 0.473871 1.89744
-4.83761 0.471022 1.83958
-4.85197 0.470322 1.79169
-4.85609 0.469088 1.77574
-4.85828 0.467704 1.74977
-4.87804 0.464238 1.64996
-4.88721 0.463904 1.62703
-4.9017 0.460953 1.56217
-4.92662 0.457164 1.4404
-4.95472 0.452023 1.29467
-4.96795 0.452589 1.26475
-5.10575 0.440242 0.627887
-5.12304 0.441677 0.588991
-5.13784 0.439133 0.484126
-5.15207 0.440684 0.453206
-5.31234 0.444418 -0.246739
-4.15479 0.738117 4.8439
-4.16717 0.733371 4.79305
-4.17436 0.731021 4.76914
-4.17892 0.72193 4.6953
-4.19006 0.720656 4.6764
-4.21036 0.718094 4.63758
-4.20068 0.711451 4.5946
-4.21877 0.712301 4.58372
-4.2169 0.710048 4.56674
-4.22208 0.707682 4.54181
-4.23445 0.70298 4.49397
-4.23169 0.698505 4.46201
-4.24504 0.694834 4.41616
-4.25209 0.694735 4.40921
-4.27039 0.691172 4.3704
-4.2716 0.688758 4.34244
-4.27877 0.686438 4.32052
-4.27799 0.683008 4.29156
-4.28812 0.681749 4.27366
-4.28328 0.67845 4.25367
-4.28547 0.676066 4.22771
-4.29561 0.674807 4.20981
-4.30497 0.670119 4.16294
-4.30617 0.66772 4.13598
-4.3164 0.664269 4.1051
-4.31859 0.6619 4.08015
-4.33886 0.660397 4.04532
-4.3484 0.653338 3.97349
-4.35843 0.653286 3.96957
-4.35863 0.650902 3.9436
-4.36896 0.646258 3.89974
-4.37611 0.644982 3.88081
-4.38227 0.643676 3.85987
-4.38146 0.64029 3.83391
-4.38652 0.640176 3.82595
-4.39665 0.638931 3.80904
-4.39784 0.636577 3.78508
-4.40697 0.635317 3.76717
-4.40617 0.632932 3.74119
-4.41331 0.631656 3.72226
-4.40745 0.628385 3.70427
-4.41558 0.628125 3.68633
-4.41993 0.623447 3.64042
-4.42608 0.622156 3.62049
-4.43024 0.619848 3.59955
-4.44334 0.619665 3.58665
-4.43747 0.617409 3.56964
-4.45771 0.61595 3.53781
-4.45194 0.612502 3.50781
-4.46305 0.612303 3.49389
-4.47236 0.608703 3.45301
-4.46847 0.606478 3.43801
-4.47858 0.606263 3.42309
-4.48689 0.602663 3.3822
-4.49502 0.602417 3.36526
-4.49917 0.600124 3.34533
-4.51054 0.596407 3.29646
-4.51569 0.595129 3.27751
-4.51785 0.592805 3.25556
-4.52101 0.591512 3.2356
-4.53013 0.591281 3.21967
-4.53228 0.588972 3.19872
-4.53643 0.587694 3.17977
-4.53552 0.586516 3.16778
-4.54464 0.585285 3.15186
-4.54978 0.584008 3.13292
-4.54896 0.581667 3.10994
-4.56222 0.580173 3.07606
-4.5604 0.577817 3.05208
-4.56446 0.576701 3.04412
-4.5676 0.575423 3.02516
-4.57672 0.575192 3.00923
-4.58302 0.57162 2.97033
-4.58219 0.569279 2.94735
-4.58243 0.566805 2.91539
-4.60049 0.5677 2.90751
-4.60795 0.562817 2.84763
-4.61721 0.561306 2.81272
-4.61133 0.55908 2.7977
-4.62044 0.558864 2.78277
-4.62872 0.556322 2.74587
-4.64395 0.554875 2.715
-4.63906 0.553664 2.70098
-4.64435 0.550105 2.66307
-4.65843 0.550952 2.65216
-4.66256 0.549689 2.63421
-4.66394 0.54595 2.58426
-4.67321 0.543439 2.54937
-4.68232 0.543223 2.53444
-4.68958 0.54171 2.49951
-4.69272 0.540446 2.48155
-4.69892 0.539066 2.45561
-4.7257 0.533561 2.35288
-4.74343 0.527138 2.2561
-4.74756 0.526889 2.23913
-4.75162 0.526773 2.23116
-4.76101 0.523011 2.17928
-4.76514 0.522762 2.16231
-4.7953 0.514504 2.00864
-4.83249 0.507207 1.85201
-4.89332 0.498638 1.60856
-4.91931 0.493718 1.47781
-5.25541 0.47712 0.00538314
-4.15284 0.766979 4.83445
-4.16894 0.766798 4.82157
-4.1672 0.762279 4.78662
-4.18132 0.762052 4.77073
-4.18045 0.7598 4.75376
-4.1797 0.755311 4.72081
-4.18489 0.752945 4.69588
-4.19504 0.750657 4.67599
-4.20345 0.744879 4.62313
-4.2126 0.743574 4.60222
-4.21569 0.742414 4.59126
-4.2179 0.739001 4.56332
-4.22408 0.736651 4.5394
-4.23644 0.731964 4.49255
-4.24063 0.729597 4.46762
-4.25276 0.728354 4.45072
-4.24196 0.723947 4.4237
-4.25408 0.722719 4.40781
-4.26422 0.72246 4.38989
-4.26543 0.719046 4.36194
-4.26863 0.715664 4.33602
-4.28692 0.7131 4.29719
-4.27909 0.709769 4.27517
-4.28944 0.705096 4.22931
-4.29362 0.702744 4.20538
-4.30694 0.699132 4.16353
-4.31311 0.696811 4.1416
-4.32016 0.696712 4.13466
-4.32136 0.693328 4.10871
-4.32752 0.692022 4.08778
-4.33289 0.686286 4.03789
-4.33806 0.683964 4.01596
-4.34432 0.681466 3.98204
-4.34749 0.679127 3.9591
-4.36358 0.678976 3.94822
-4.36377 0.675592 3.92227
-4.36199 0.672161 3.8933
-4.37221 0.67074 3.8644
-4.37539 0.668401 3.84145
-4.37955 0.666079 3.81951
-4.39167 0.665866 3.80461
-4.39086 0.66248 3.77865
-4.40317 0.658897 3.73879
-4.40028 0.657673 3.72378
-4.41139 0.656459 3.70888
-4.40861 0.653043 3.68091
-4.41574 0.651782 3.66298
-4.43102 0.649245 3.62612
-4.44015 0.649 3.60919
-4.44341 0.645499 3.57527
-4.46102 0.638313 3.49449
-4.46933 0.634713 3.4536
-4.47042 0.633551 3.44263
-4.47954 0.633305 3.4257
-4.4799 0.62761 3.37878
-4.48937 0.6227 3.31691
-4.50735 0.624757 3.32002
-4.50968 0.620107 3.2761
-4.51185 0.618783 3.25413
-4.52394 0.6186 3.24122
-4.52113 0.615228 3.21625
-4.52238 0.61174 3.18331
-4.5325 0.611526 3.16838
-4.54675 0.610033 3.13451
-4.55123 0.604104 3.07162
-4.56358 0.600432 3.02576
-4.57999 0.597644 2.97192
-4.58802 0.597576 2.96698
-4.59217 0.596298 2.94803
-4.59233 0.593987 2.92706
-4.58751 0.591628 2.90306
-4.59961 0.59143 2.88915
-4.61111 0.586461 2.8233
-4.62551 0.582687 2.77046
-4.63279 0.580145 2.73354
-4.63999 0.578765 2.70761
-4.64926 0.577239 2.6717
-4.65141 0.57496 2.65275
-4.66679 0.572216 2.6019
-4.66817 0.568477 2.55196
-4.68739 0.568061 2.5231
-4.68554 0.565764 2.50312
-4.68768 0.564484 2.48415
-4.70911 0.562656 2.42734
-4.7267 0.557514 2.34953
-4.72984 0.55625 2.33157
-4.73397 0.556001 2.31461
-4.76109 0.54683 2.16693
-4.75931 0.5444 2.13794
-4.76855 0.542918 2.10503
-4.78791 0.541236 2.0582
-4.79104 0.540987 2.04122
-4.79808 0.540903 2.03527
-4.80021 0.539653 2.01831
-4.81672 0.536673 1.95147
-4.83142 0.532292 1.85763
-4.85523 0.52774 1.75186
-4.88029 0.520671 1.61113
-4.9316 0.517132 1.43755
-4.93386 0.51463 1.4036
-5.01763 0.505242 1.03632
-5.02187 0.504772 1.00435
-5.05895 0.502681 0.861643
-5.06918 0.503229 0.830707
-5.06968 0.500253 0.764746
-5.08397 0.500685 0.725842
-5.0962 0.500235 0.694937
-5.11262 0.500433 0.64005
-5.11786 0.499963 0.608092
-5.13128 0.500143 0.552183
-5.14988 0.499972 0.472314
-5.16055 0.497662 0.383417
-5.16967 0.499431 0.367457
-5.17697 0.498844 0.327515
-5.20675 0.500326 0.223703
-5.20788 0.500075 0.206713
-5.205 0.498836 0.190707
-5.22336 0.500138 0.14282
-5.23067 0.500536 0.101863
-5.28227 0.502419 -0.110805
-5.2744 0.501162 -0.127848
-5.30608 0.503837 -0.218662
-4.16938 0.805861 4.75799
-4.17161 0.802419 4.72805
-4.17879 0.800069 4.70414
-4.19192 0.798842 4.68825
-4.20341 0.791888 4.62344
-4.2138 0.786141 4.57259
-4.218 0.782745 4.54567
-4.22849 0.775805 4.48184
-4.25296 0.769906 4.42011
-4.26046 0.762934 4.35426
-4.35138 0.724303 3.97046
-4.3486 0.720872 3.94149
-4.35882 0.718435 3.9116
-4.3755 0.70913 3.82285
-4.3878 0.705547 3.78299
-4.38988 0.704386 3.77202
-4.40337 0.698449 3.7082
-4.40754 0.696126 3.68626
-4.41269 0.694819 3.66532
-4.43638 0.687504 3.57559
-4.44054 0.685182 3.55365
-4.44172 0.682842 3.53069
-4.45084 0.681612 3.51478
-4.44795 0.679388 3.49979
-4.4634 0.674526 3.44097
-4.46657 0.672203 3.41902
-4.4737 0.671942 3.40108
-4.47983 0.670694 3.38414
-4.48191 0.669533 3.37317
-4.49934 0.664717 3.31737
-4.50781 0.659791 3.2545
-4.5152 0.655041 3.20361
-4.52432 0.653811 3.1877
-4.5235 0.65147 3.16472
-4.52764 0.650192 3.14577
-4.53585 0.647784 3.11787
-4.54613 0.645243 3.08098
-4.55442 0.642687 3.04307
-4.56063 0.640277 3.01515
-4.56991 0.637736 2.97825
-4.57206 0.635442 2.9583
-4.57935 0.632885 2.92039
-4.58349 0.630606 2.90145
-4.58863 0.630344 2.88349
-4.59385 0.627918 2.85456
-4.59898 0.62667 2.83761
-4.60311 0.625407 2.81966
-4.61752 0.621618 2.76582
-4.64142 0.612874 2.64711
-4.64349 0.612742 2.63813
-4.65375 0.610247 2.60424
-4.6549 0.608951 2.58426
-4.66003 0.607703 2.56732
-4.66914 0.607488 2.55239
-4.66829 0.605191 2.53241
-4.67036 0.60506 2.52343
-4.68176 0.601283 2.47056
-4.69699 0.600836 2.43968
-4.69514 0.598538 2.4197
-4.69836 0.597126 2.39174
-4.71473 0.594398 2.3419
-4.71588 0.593117 2.32292
-4.721 0.591884 2.30698
-4.72919 0.59152 2.28204
-4.73431 0.590287 2.26609
-4.73644 0.589022 2.24813
-4.74456 0.588806 2.23319
-4.74769 0.587542 2.21523
-4.74484 0.585244 2.19524
-4.7499 0.586144 2.18826
-4.75715 0.583646 2.15435
-4.7573 0.582364 2.13537
-4.77238 0.583212 2.12447
-4.77252 0.581931 2.10548
-4.76768 0.579617 2.08448
-4.77174 0.579502 2.07651
-4.77387 0.578251 2.05954
-4.77899 0.578018 2.04358
-4.7871 0.577802 2.02864
-4.78824 0.576536 2.01067
-4.79436 0.575304 1.99473
-4.80147 0.575087 1.97979
-4.80453 0.574986 1.97281
-4.80666 0.573721 1.95484
-4.81178 0.573488 1.93888
-4.8169 0.573255 1.92292
-4.81306 0.570956 1.90292
-4.82017 0.570739 1.88798
-4.82628 0.570521 1.87303
-4.81938 0.568324 1.86
-4.82862 0.567857 1.82808
-4.8447 0.568705 1.81718
-4.84298 0.566157 1.7802
-4.84611 0.564907 1.76324
-4.86013 0.566873 1.76032
-4.85229 0.564556 1.73929
-4.85143 0.562289 1.72132
-4.86652 0.564122 1.7094
-4.86366 0.561839 1.69041
-4.86679 0.56159 1.67344
-4.88188 0.562423 1.66153
-4.87397 0.56024 1.64951
-4.88507 0.561055 1.63658
-4.89118 0.560837 1.62162
-4.88234 0.55852 1.60059
-4.88148 0.557253 1.5826
-4.89271 0.556802 1.55168
-4.89776 0.556702 1.54472
-4.90102 0.555201 1.51077
-4.90713 0.554984 1.49581
-4.90939 0.552482 1.46186
-4.9165 0.553265 1.4469
-4.92654 0.554198 1.44196
-4.92069 0.551898 1.42195
-4.9298 0.552697 1.408
-4.94003 0.552246 1.37708
-4.93842 0.548475 1.32512
-4.94348 0.548375 1.31816
-4.9486 0.548142 1.3022
-4.94772 0.546889 1.28521
-4.95484 0.547672 1.27025
-4.96494 0.547472 1.25633
-4.96607 0.547221 1.23934
-4.97417 0.54702 1.2254
-4.97524 0.546887 1.21641
-4.9755 0.545384 1.18243
-4.9876 0.5462 1.1695
-4.98885 0.544698 1.13553
-5.00295 0.545516 1.12262
-4.99816 0.543113 1.09562
-5.00028 0.542877 1.07964
-5.00252 0.54139 1.04667
-5.00864 0.541173 1.03172
-5.01595 0.540571 0.990776
-5.01906 0.540351 0.9758
-5.02518 0.540119 0.959848
-5.02531 0.538867 0.942865
-5.03454 0.539415 0.911922
-5.04072 0.539064 0.887971
-5.04383 0.538844 0.872995
-5.05794 0.539647 0.859088
-5.05707 0.539394 0.842083
-5.06418 0.539177 0.827137
-5.06431 0.538926 0.81014
-5.06038 0.53779 0.801126
-5.0615 0.536554 0.78515
-5.0746 0.538356 0.77122
-5.07173 0.537102 0.754215
-5.07585 0.536868 0.738247
-5.08596 0.537653 0.72331
-5.08608 0.537416 0.707312
-5.08515 0.536283 0.69832
