-4.1949 0.299922 3.94058
-4.20105 0.29863 3.92064
-4.20324 0.296262 3.89569
-4.2075 0.293747 3.86075
-4.21583 0.291116 3.81785
-4.24024 0.289334 3.76405
-4.25164 0.285558 3.71119
-4.24883 0.284171 3.68518
-4.25896 0.282927 3.66827
-4.26808 0.282697 3.65234
-4.26429 0.28028 3.62435
-4.27341 0.280049 3.60842
-4.27848 0.278935 3.60047
-4.28164 0.277611 3.57851
-4.27884 0.276224 3.55251
-4.28001 0.274885 3.52953
-4.30421 0.274503 3.50272
-4.31045 0.272048 3.4718
-4.31162 0.270723 3.44982
-4.33236 0.265273 3.35104
-4.33245 0.264095 3.33906
-4.33859 0.263833 3.32111
-4.34671 0.262602 3.30519
-4.35401 0.261016 3.26526
-4.36438 0.258313 3.21737
-4.3715 0.257066 3.20044
-4.37266 0.255756 3.17947
-4.38377 0.255557 3.16555
-4.3841 0.252906 3.12159
-4.39521 0.252707 3.10767
-4.39528 0.251559 3.09769
-4.4034 0.251328 3.08175
-4.40174 0.24866 3.03677
-4.41881 0.248539 3.0279
-4.42096 0.248245 3.00792
-4.43007 0.247029 2.993
-4.42219 0.245787 2.97696
-4.43246 0.244276 2.94205
-4.4376 0.243014 2.92411
-4.4477 0.242814 2.91018
-4.45283 0.242566 2.89322
-4.45705 0.241139 2.86427
-4.4582 0.239844 2.8443
-4.46133 0.23858 2.82634
-4.46149 0.237269 2.80536
-4.46464 0.23599 2.7864
-4.47573 0.236806 2.77347
-4.47887 0.235542 2.75551
-4.4889 0.23549 2.75158
-4.49104 0.23521 2.7326
-4.49716 0.233977 2.71666
-4.5003 0.233713 2.69869
-4.51171 0.230922 2.64481
-4.51278 0.23079 2.63582
-4.5189 0.229557 2.61988
-4.51109 0.228181 2.59484
-4.52318 0.228013 2.58293
-4.53428 0.227813 2.56901
-4.53442 0.226532 2.55003
-4.53656 0.226267 2.53205
-4.52867 0.22404 2.51702
-4.54276 0.224887 2.50611
-4.55301 0.223406 2.47321
-4.56211 0.223205 2.45928
-4.5634 0.221643 2.4213
-4.56148 0.220479 2.4103
-4.56461 0.22023 2.39333
-4.57272 0.220014 2.37839
-4.57784 0.21878 2.36245
-4.58396 0.218548 2.34649
-4.58709 0.217299 2.32953
-4.5952 0.217082 2.31459
-4.59826 0.216966 2.30662
-4.60039 0.216716 2.28964
-4.60352 0.215467 2.27268
-4.60666 0.215202 2.2547
-4.61277 0.214985 2.23975
-4.61491 0.21372 2.22178
-4.61903 0.213486 2.20581
-4.62109 0.213369 2.19783
-4.61725 0.211055 2.17683
-4.62337 0.210823 2.16088
-4.63047 0.210621 2.14693
-4.63872 0.210138 2.114
-4.6459 0.208788 2.09007
-4.65601 0.208588 2.07615
-4.65913 0.208353 2.06017
-4.65926 0.207087 2.04219
-4.6594 0.206821 2.02419
-4.66366 0.205306 1.98924
-4.66472 0.204188 1.98126
-4.66998 0.203688 1.94731
-4.68108 0.203504 1.93439
-4.68619 0.203286 1.91943
-4.69164 0.200401 1.85951
-4.70772 0.20125 1.84861
-4.72826 0.199214 1.77779
-4.73138 0.198979 1.76181
-4.72852 0.197696 1.74281
-4.73663 0.197494 1.72887
-4.73989 0.195993 1.69491
-4.74799 0.195792 1.68097
-4.75304 0.196692 1.674
-4.75317 0.19544 1.65701
-4.75928 0.195223 1.64206
-4.75842 0.193956 1.62407
-4.76353 0.193737 1.60911
-4.76965 0.19352 1.59416
-4.77576 0.193302 1.57921
-4.76784 0.192133 1.56816
-4.76997 0.191883 1.55118
-4.78505 0.192731 1.54028
-4.78618 0.19148 1.5233
-4.77933 0.190179 1.50327
-4.79354 0.190775 1.47536
-4.7966 0.190659 1.46739
-4.79872 0.189423 1.45142
-4.79686 0.189155 1.43341
-4.80696 0.18897 1.42048
-4.81931 0.188283 1.37358
-4.82236 0.188182 1.3666
-4.82149 0.18693 1.34961
-4.82461 0.186695 1.33364
-4.83372 0.186494 1.31971
-4.83198 0.18499 1.28571
-4.85349 0.183984 1.21688
-4.85062 0.18373 1.19986
-4.86784 0.183313 1.17099
-4.87501 0.182978 1.14805
-4.86715 0.181705 1.13
-4.88038 0.182271 1.10009
-4.89266 0.181717 1.06219
-4.90002 0.180026 1.01526
-4.90214 0.179791 0.999278
-4.92078 0.178531 0.913425
-4.93413 0.17786 0.867529
-4.9433 0.17854 0.845585
-4.95053 0.178087 0.814642
-4.96288 0.1774 0.767739
-4.97429 0.176608 0.713829
-4.97342 0.175356 0.696839
-4.99182 0.175585 0.643967
-4.99818 0.174878 0.596018
-5.01739 0.175463 0.56715
-5.02893 0.17442 0.496243
-5.03734 0.173612 0.441311
-5.05905 0.173235 0.347467
-5.07022 0.173903 0.324538
-5.07758 0.173197 0.276597
-5.0837 0.172965 0.260645
-5.09712 0.17316 0.205735
-5.10036 0.172689 0.173762
-5.10747 0.172472 0.158817
-5.11365 0.173121 0.134851
-5.12701 0.173419 0.0869403
-5.13213 0.173186 0.0709801
-5.13837 0.172717 0.0390297
-5.13643 0.172597 0.0310157
-5.14467 0.173129 -0.000934483
-5.14991 0.172659 -0.0328925
-5.16434 0.17284 -0.0887942
-5.17745 0.173613 -0.104709
-5.1827 0.173128 -0.137667
-5.191 0.173542 -0.177616
-4.06949 0.363458 4.38675
-4.08062 0.363214 4.36984
-4.08767 0.363131 4.36389
-4.09604 0.359397 4.314
-4.10044 0.355615 4.26109
-4.11157 0.354372 4.24419
-4.11805 0.349444 4.1813
-4.12521 0.348138 4.16037
-4.12839 0.346785 4.13641
-4.13555 0.34548 4.11548
-4.1439 0.341805 4.06959
-4.15215 0.340322 4.03667
-4.17061 0.336418 3.97486
-4.17578 0.335096 3.95291
-4.18193 0.333805 3.93298
-4.19235 0.329983 3.8771
-4.19851 0.328692 3.85717
-4.20466 0.3274 3.83723
-4.20882 0.326078 3.81528
-4.21298 0.32477 3.79433
-4.23351 0.320749 3.72453
-4.24065 0.319472 3.7056
-4.27067 0.311511 3.57193
-4.27582 0.310218 3.55198
-4.27997 0.308925 3.53203
-4.28503 0.308811 3.52407
-4.30065 0.303608 3.44225
-4.31374 0.30344 3.43035
-4.31202 0.300891 3.39337
-4.31716 0.299614 3.37442
-4.32528 0.299383 3.35849
-4.33061 0.29675 3.31556
-4.33575 0.295472 3.29662
-4.34188 0.294225 3.27968
-4.34296 0.294063 3.26869
-4.37065 0.288736 3.17796
-4.36982 0.28741 3.15597
-4.37703 0.286001 3.12804
-4.39112 0.285833 3.11615
-4.38929 0.284491 3.09315
-4.39642 0.284245 3.07621
-4.40669 0.281719 3.04032
-4.40892 0.280277 3.01035
-4.41207 0.278983 2.99039
-4.41521 0.277704 2.97143
-4.42233 0.277473 2.95549
-4.42648 0.276194 2.93653
-4.43459 0.275978 2.9216
-4.43367 0.274815 2.91061
-4.43881 0.274552 2.89265
-4.44394 0.273304 2.8757
-4.45206 0.273073 2.85976
-4.44923 0.270731 2.83677
-4.45336 0.270482 2.81981
-4.46546 0.270298 2.8069
-4.45857 0.269071 2.79186
-4.46668 0.268855 2.77692
-4.46983 0.267576 2.75796
-4.47595 0.266344 2.74203
-4.48804 0.267175 2.7301
-4.48024 0.264784 2.70408
-4.49531 0.265647 2.69418
-4.48743 0.263404 2.67815
-4.49769 0.261909 2.64424
-4.50679 0.261708 2.63031
-4.50894 0.260428 2.61134
-4.52018 0.259962 2.57943
-4.52325 0.259831 2.57046
-4.52339 0.25855 2.55147
-4.52951 0.257318 2.53553
-4.53265 0.257054 2.51756
-4.53877 0.255821 2.50162
-4.5419 0.255557 2.48365
-4.54603 0.254308 2.46669
-4.54511 0.25416 2.45669
-4.55223 0.252928 2.44076
-4.55336 0.252662 2.42277
-4.56546 0.252479 2.40986
-4.57058 0.252245 2.3939
-4.75862 0.223523 1.59463
-4.82338 0.21812 1.36217
-4.85014 0.216644 1.26138
-4.85126 0.215408 1.2454
-4.86354 0.214854 1.2075
-4.8749 0.214167 1.16059
-4.87415 0.212677 1.1276
-4.88132 0.212342 1.10465
-4.89554 0.212923 1.07575
-4.91419 0.210663 0.98991
-4.92866 0.209741 0.927024
-4.93982 0.210423 0.905095
-4.95753 0.208044 0.811251
-4.96458 0.20896 0.80529
-4.97182 0.208492 0.773347
-4.96807 0.207 0.740336
-4.98946 0.207231 0.687486
-5.01235 0.205515 0.570668
-5.02195 0.204337 0.490747
-5.04771 0.20386 0.389934
-5.08689 0.203564 0.233212
-5.11278 0.202821 0.114402
-5.12408 0.203251 0.075475
-5.1272 0.203016 0.0594998
-5.13232 0.202783 0.0435396
-5.14268 0.20308 -0.00439335
-5.1538 0.203851 -0.0203232
-5.14786 0.203728 -0.0283672
-5.15698 0.203498 -0.0442973
-5.1621 0.204265 -0.0602723
-5.16022 0.203026 -0.0762703
-5.17534 0.2048 -0.0921849
-5.16946 0.203559 -0.108213
-5.17658 0.204327 -0.124173
-5.17265 0.203191 -0.133187
-5.17877 0.203959 -0.149154
-5.18889 0.204729 -0.165092
-5.18901 0.204492 -0.18109
-4.09546 0.393534 4.25549
-4.19757 0.365509 3.84461
-4.21611 0.360472 3.77382
-4.26357 0.34865 3.58132
-4.1295 0.420467 4.11432
-4.11675 0.468874 4.20952
-4.12214 0.464124 4.15863
-4.15283 0.457784 4.06694
-4.15621 0.454046 4.01701
-4.16832 0.452833 4.00212
-4.16753 0.450433 3.97515
-4.17964 0.45022 3.96024
-4.18371 0.44909 3.95129
-4.18291 0.446689 3.92431
-4.1851 0.444321 3.89936
-4.19641 0.441737 3.85948
-4.2115 0.44157 3.84759
-4.20374 0.438091 3.81558
-4.21377 0.439039 3.81164
-4.21594 0.4367 3.78869
-4.22328 0.43304 3.74379
-4.23141 0.432794 3.72686
-4.24994 0.427771 3.65706
-4.26105 0.427572 3.64314
-4.27136 0.424973 3.60226
-4.26757 0.421556 3.57427
-4.2737 0.420294 3.55634
-4.26883 0.419053 3.54032
-4.27497 0.417777 3.52138
-4.28707 0.417578 3.50747
-4.28526 0.415207 3.48249
-4.29538 0.414992 3.46757
-4.29556 0.412637 3.4436
-4.30069 0.411374 3.42565
-4.30874 0.411291 3.41971
-4.31306 0.408673 3.37778
-4.31721 0.40638 3.35784
-4.32235 0.406102 3.33888
-4.33346 0.405903 3.32497
-4.33165 0.403532 3.29999
-4.34897 0.400908 3.25715
-4.34715 0.398566 3.23417
-4.35643 0.39701 3.19625
-4.36356 0.395764 3.17932
-4.36662 0.395648 3.17135
-4.37177 0.39437 3.1524
-4.37292 0.39206 3.13144
-4.38403 0.391861 3.11753
-4.39314 0.391645 3.1026
-4.38733 0.389271 3.07759
-4.40441 0.390135 3.0677
-4.39653 0.387893 3.05167
-4.40564 0.387678 3.03674
-4.41309 0.38381 2.97785
-4.42037 0.381252 2.93993
-4.42757 0.379873 2.91401
-4.44265 0.379721 2.90312
-4.44893 0.378178 2.86618
-4.44312 0.374804 2.84119
-4.46441 0.374256 2.80335
-4.47069 0.371713 2.76643
-4.47796 0.370186 2.7305
-4.48515 0.368821 2.70557
-4.47933 0.366461 2.68156
-4.49441 0.367309 2.67066
-4.49571 0.363733 2.63172
-4.50696 0.362253 2.59882
-4.50305 0.361072 2.58681
-4.51912 0.361936 2.57691
-4.53037 0.360455 2.54402
-4.53188 0.356465 2.47708
-4.55109 0.356064 2.44922
-4.56332 0.354614 2.41833
-4.55963 0.351005 2.37735
-4.56682 0.35064 2.35241
-4.57421 0.347875 2.3005
-4.59129 0.348739 2.29061
-4.59449 0.347342 2.26365
-4.59278 0.343778 2.22569
-4.60999 0.344376 2.19781
-4.61326 0.341861 2.16286
-4.61034 0.340696 2.15186
-4.62343 0.341527 2.13994
-4.62769 0.340012 2.10499
-4.63493 0.338544 2.07306
-4.63408 0.337262 2.05407
-4.64312 0.337194 2.04914
-4.64851 0.334429 1.99722
-4.65761 0.334228 1.98329
-4.66087 0.332727 1.94933
-4.66805 0.332377 1.92538
-4.68526 0.331975 1.89752
-4.6935 0.330507 1.86559
-4.68566 0.32919 1.84455
-4.6947 0.329123 1.83962
-4.70095 0.327639 1.80668
-4.71716 0.328236 1.77879
-4.70932 0.325919 1.75777
-4.72838 0.3278 1.74888
-4.7226 0.325366 1.71987
-4.72985 0.323898 1.68794
-4.74805 0.324511 1.66107
-4.74824 0.323127 1.63508
-4.7505 0.321625 1.60112
-4.76771 0.321223 1.57325
-4.75687 0.318904 1.5522
-4.77195 0.320752 1.54129
-4.76404 0.318569 1.52926
-4.77713 0.3194 1.51734
-4.77128 0.318115 1.49831
-4.79959 0.318514 1.45651
-4.79174 0.317227 1.43747
-4.80116 0.314404 1.38158
-4.81638 0.314986 1.35268
-4.81949 0.314766 1.3377
-4.82454 0.314666 1.33074
-4.82168 0.313398 1.31274
-4.83078 0.314197 1.29879
-4.84101 0.31376 1.26887
-4.84027 0.312256 1.23488
-4.84133 0.311139 1.22691
-4.84943 0.311937 1.21295
-4.85866 0.311485 1.18203
-4.86989 0.311049 1.15211
-4.86109 0.308643 1.12508
-4.87918 0.310478 1.11319
-4.88529 0.310275 1.09923
-4.87643 0.307987 1.0802
-4.88654 0.308787 1.06626
-4.88067 0.307517 1.04823
-4.89477 0.308334 1.03532
-4.90082 0.309235 1.02836
-4.89895 0.307982 1.01136
-4.91105 0.308798 0.998435
-4.90319 0.306526 0.980407
-4.90943 0.306057 0.948457
-4.92452 0.30789 0.936541
-4.92258 0.306755 0.927542
-4.91871 0.305501 0.91053
-4.92283 0.305267 0.894562
-4.92807 0.304812 0.863604
-4.93119 0.304577 0.847628
-4.95158 0.304822 0.795771
-4.96293 0.304134 0.748861
-4.96505 0.303899 0.732878
-4.96523 0.302544 0.708896
-4.99168 0.303674 0.64907
-4.99586 0.303322 0.625104
-5.0011 0.302867 0.594146
-5.00758 0.301924 0.530199
-5.02374 0.302609 0.508308
-5.0271 0.300916 0.461352
-5.03534 0.301448 0.429402
-5.05075 0.301659 0.375507
-5.05299 0.301187 0.343527
-5.06416 0.300855 0.320613
-5.07339 0.301402 0.28967
-5.07663 0.300931 0.257697
-5.07987 0.300459 0.225724
-5.09005 0.301126 0.202787
-5.09329 0.300655 0.170814
-5.10453 0.301189 0.138887
-5.1137 0.301855 0.115943
-5.11694 0.301383 0.0839698
-5.12618 0.301916 0.0520271
-5.1376 0.301095 -0.00388238
-5.15184 0.302631 -0.0358023
-5.16108 0.303164 -0.0677449
-5.16433 0.302678 -0.100718
-5.18775 0.303865 -0.156567
-5.185 0.303375 -0.189585
-5.19918 0.30403 -0.213491
-5.20343 0.304544 -0.246471
-4.04912 0.522959 4.42024
-4.06917 0.52387 4.41338
-4.06445 0.519334 4.37741
-4.07558 0.51909 4.36049
-4.08472 0.517815 4.34158
-4.08098 0.514309 4.3076
-4.09011 0.51305 4.28968
-4.09717 0.512951 4.28273
-4.0954 0.509491 4.25177
-4.10156 0.508185 4.23083
-4.1117 0.506926 4.21292
-4.11687 0.504589 4.18999
-4.12105 0.503252 4.16704
-4.12612 0.502107 4.1571
-4.13546 0.498448 4.11221
-4.14559 0.497204 4.09531
-4.14579 0.494805 4.06834
-4.15295 0.493499 4.04741
-4.15811 0.491192 4.02648
-4.16139 0.488647 3.98954
-4.17549 0.488464 3.97664
-4.17371 0.485034 3.94768
-4.18085 0.483758 3.92875
-4.18602 0.482436 3.9068
-4.1882 0.480082 3.88285
-4.18731 0.478875 3.86886
-4.19147 0.476567 3.84792
-4.19763 0.47526 3.82699
-4.20775 0.475031 3.81106
-4.21687 0.473786 3.79415
-4.2121 0.470339 3.76416
-4.22023 0.470093 3.74722
-4.22431 0.468948 3.73727
-4.23343 0.468717 3.72134
-4.23461 0.466363 3.69738
-4.23481 0.463978 3.67141
-4.23996 0.462686 3.65147
-4.2461 0.461409 3.63253
-4.25522 0.460179 3.61661
-4.26362 0.456401 3.56373
-4.27474 0.455187 3.54883
-4.27808 0.451509 3.5029
-4.28423 0.450232 3.48396
-4.28332 0.449054 3.47197
-4.29361 0.446499 3.43408
-4.30904 0.442651 3.37625
-4.31428 0.440196 3.34532
-4.32438 0.439996 3.3314
-4.32655 0.438672 3.30943
-4.33467 0.437441 3.29351
-4.34279 0.43721 3.27757
-4.33899 0.433823 3.25159
-4.3481 0.433607 3.23666
-4.34935 0.43112 3.2037
-4.3545 0.429842 3.18475
-4.36974 0.428365 3.15188
-4.37686 0.428133 3.13594
-4.37206 0.424745 3.10995
-4.38027 0.423351 3.08303
-4.38839 0.42312 3.06709
-4.40296 0.418006 2.99127
-4.41016 0.415626 2.96535
-4.41745 0.414069 2.92742
-4.42457 0.412837 2.91149
-4.42969 0.411589 2.89455
-4.4369 0.410195 2.86762
-4.44219 0.407636 2.82969
-4.45659 0.404862 2.77683
-4.46569 0.404662 2.7629
-4.46377 0.403497 2.75191
-4.46891 0.402235 2.73396
-4.47304 0.401986 2.71699
-4.48613 0.401818 2.70509
-4.48529 0.400506 2.6841
-4.49164 0.39783 2.63818
-4.4999 0.395318 2.60328
-4.50717 0.39379 2.56735
-4.51229 0.392557 2.55141
-4.51941 0.39234 2.53646
-4.52774 0.389695 2.49256
-4.53699 0.388198 2.45864
-4.54227 0.385669 2.42272
-4.56795 0.381341 2.33196
-4.57108 0.381091 2.31499
-4.57314 0.379975 2.30702
-4.57628 0.37971 2.28904
-4.5969 0.375511 2.20725
-4.59896 0.37538 2.19826
-4.60721 0.373912 2.16634
-4.61944 0.373462 2.13544
-4.61659 0.371164 2.11545
-4.6257 0.370963 2.10152
-4.65009 0.370211 2.04971
-4.65534 0.368711 2.01576
-4.6525 0.367413 1.99576
-4.65057 0.366264 1.98576
-4.65967 0.366078 1.97283
-4.6628 0.365828 1.95585
-4.66293 0.364562 1.93787
-4.66805 0.364329 1.92191
-4.67815 0.364144 1.90899
-4.68127 0.363909 1.89301
-4.68532 0.363808 1.88604
-4.68646 0.362543 1.86807
-4.68261 0.360259 1.84907
-4.69071 0.361057 1.83512
-4.70094 0.359606 1.80421
-4.70506 0.359372 1.78824
-4.70712 0.359255 1.78026
-4.70626 0.357988 1.76227
-4.70839 0.356738 1.7453
-4.71649 0.357536 1.73135
-4.72858 0.357367 1.71944
-4.72374 0.356068 1.69942
-4.72785 0.355849 1.68445
-4.73702 0.355515 1.66152
-4.74213 0.354296 1.64658
-4.74925 0.355079 1.63162
-4.7525 0.352593 1.59868
-4.76359 0.353409 1.58574
-4.75768 0.352242 1.57472
-4.76478 0.35204 1.56077
-4.77489 0.352839 1.54683
-4.76903 0.350554 1.52782
-4.77714 0.351338 1.51287
-4.78624 0.351152 1.49994
-4.77839 0.34885 1.47991
-4.79042 0.3508 1.47597
-4.79454 0.349566 1.46002
-4.79666 0.34933 1.44403
-4.7958 0.348063 1.42604
-4.8049 0.348877 1.4131
-4.79406 0.346559 1.39205
-4.80216 0.346357 1.37811
-4.81121 0.347275 1.37216
-4.80435 0.344989 1.35314
-4.82954 0.346637 1.32831
-4.81969 0.344334 1.30826
-4.8268 0.345116 1.2933
-4.82992 0.343882 1.27734
-4.82998 0.343764 1.26934
-4.84308 0.34458 1.25643
-4.84532 0.343108 1.22446
-4.84345 0.341855 1.20747
-4.85855 0.343674 1.19455
-4.8477 0.34137 1.1745
-4.85175 0.341269 1.16753
-4.85786 0.341066 1.15358
-4.86098 0.340832 1.1376
-4.87108 0.341631 1.12367
-4.88119 0.341432 1.10974
-4.88131 0.341195 1.09374
-4.88443 0.34096 1.07777
-4.8805 0.339824 1.06876
-4.89085 0.339136 1.02184
-4.9012 0.337447 0.974934
-4.90538 0.33711 0.951967
-4.92247 0.338944 0.940067
-4.91884 0.336201 0.890073
-4.92914 0.335631 0.851154
-4.94436 0.336213 0.822256
-4.94548 0.335977 0.806266
-4.9567 0.335541 0.776353
-4.95776 0.335423 0.768361
-4.95589 0.33517 0.751348
-4.96699 0.335971 0.737418
-4.97211 0.335752 0.722458
-4.96724 0.334497 0.705438
-4.97834 0.335298 0.691507
-4.97565 0.333689 0.650505
-4.99375 0.335509 0.637613
-4.99487 0.334273 0.621638
-5.00398 0.335058 0.606692
-4.99711 0.333801 0.589657
-4.99524 0.332548 0.572659
-5.00129 0.333449 0.56569
-5.0094 0.334232 0.550738
-5.00652 0.332993 0.534732
-5.01863 0.333795 0.52081
-5.03286 0.334346 0.489904
-5.02399 0.333088 0.472854
-5.03516 0.333755 0.449925
-5.04127 0.333538 0.434972
-5.0374 0.332283 0.417959
-5.04052 0.332063 0.402984
-5.04264 0.331828 0.387001
-5.05481 0.333496 0.364065
-5.06104 0.333042 0.333114
-5.06129 0.331553 0.300134
-5.0684 0.332336 0.285174
-5.07758 0.333002 0.26223
-5.0787 0.332766 0.24624
-5.08194 0.332294 0.214267
-5.08806 0.332062 0.198314
-5.09117 0.331842 0.183339
-5.09229 0.331606 0.167348
-5.10135 0.332494 0.159402
-5.10646 0.333276 0.144427
-5.10559 0.333023 0.127422
-5.1147 0.333808 0.112477
-5.12182 0.333576 0.0965318
-5.12094 0.333338 0.0805265
-5.11906 0.3331 0.0645136
-5.12118 0.332865 0.0485309
-5.13224 0.333754 0.0405999
-5.13336 0.333518 0.0246097
-5.14148 0.334302 0.00965713
-5.1466 0.334068 -0.00630304
-5.15172 0.334835 -0.022278
-5.15284 0.334584 -0.0392682
-5.15297 0.334347 -0.0552659
-5.15603 0.334231 -0.0632423
-5.16215 0.334999 -0.0792097
-5.16327 0.334762 -0.0952
-5.16139 0.334524 -0.111213
-5.16951 0.334293 -0.12715
-5.17463 0.33506 -0.143125
-5.18275 0.335829 -0.159078
-5.18481 0.335697 -0.168062
-5.18693 0.335462 -0.184044
-5.20105 0.337235 -0.199966
-5.19317 0.335992 -0.21601
-5.1943 0.335741 -0.233
-4.41694 0.451012 2.99088
-4.45195 0.443069 2.85825
-4.49842 0.431216 2.66374
-4.51318 0.424732 2.56294
-4.54791 0.420321 2.46625
-4.5933 0.41163 2.2827
-4.63468 0.401951 2.10013
-4.8245 0.375659 1.32984
-4.83267 0.37534 1.3079
-4.82981 0.374071 1.2899
-4.85644 0.372847 1.2061
-4.8709 0.371939 1.14422
-4.87103 0.370702 1.12824
-4.8802 0.370368 1.10531
-4.88967 0.368443 1.0424
-4.89797 0.367871 1.00346
-4.90807 0.368671 0.989525
-4.90932 0.367183 0.956552
-4.92155 0.367748 0.926632
-4.91974 0.366376 0.901635
-4.93283 0.367193 0.88872
-4.92697 0.365923 0.870692
-4.93208 0.365704 0.855732
-4.94319 0.366505 0.841801
-4.9473 0.366286 0.826834
-4.95359 0.365713 0.787884
-4.96271 0.365497 0.772954
-4.97617 0.364589 0.71106
-4.97636 0.364219 0.686064
-4.97947 0.363999 0.671088
-4.99382 0.364328 0.625185
-4.98895 0.363073 0.608165
-4.99999 0.363992 0.602234
-4.99912 0.36274 0.585243
-5.01222 0.364542 0.571313
-5.00947 0.363052 0.53831
-5.01359 0.362832 0.523342
-5.0207 0.362615 0.508397
-5.02576 0.363501 0.500421
-5.02588 0.363264 0.484423
-5.03399 0.363048 0.469485
-5.03923 0.362592 0.438527
-5.04734 0.363376 0.423575
-5.04946 0.363141 0.407592
-5.05252 0.363024 0.399616
-5.05664 0.36379 0.383633
-5.05276 0.362551 0.36762
-5.05688 0.362317 0.351652
-5.06199 0.363098 0.336677
-5.06411 0.362863 0.320694
-5.06823 0.362629 0.304727
-5.07835 0.363414 0.289789
-5.07441 0.362293 0.281775
-5.07453 0.362041 0.264777
-5.07466 0.361804 0.24878
-5.08177 0.361587 0.233834
-5.09588 0.363375 0.218912
-5.08901 0.362119 0.201877
-5.09412 0.3619 0.186916
-5.09319 0.361766 0.17791
-5.1063 0.363554 0.16298
-5.11241 0.363336 0.148027
-5.11354 0.363085 0.131037
-5.1189 0.362378 0.0830816
-5.12708 0.363043 0.0601302
-5.13519 0.363812 0.0441777
-5.13344 0.363322 0.0111673
-5.14056 0.363105 -0.00377801
-5.15574 0.364761 -0.0276915
-5.15286 0.364522 -0.0437118
-5.15498 0.364272 -0.0606944
-5.1661 0.365057 -0.0756244
-5.16023 0.363802 -0.0926524
-5.17734 0.365577 -0.108552
-5.17753 0.365222 -0.132549
-5.18064 0.365987 -0.148539
-5.19076 0.366757 -0.164476
-5.18089 0.365498 -0.181534
-5.19701 0.366273 -0.197426
-5.19713 0.366036 -0.213424
-5.19726 0.365785 -0.230422
-5.20732 0.367673 -0.238375
-4.05423 0.588674 4.40031
-4.08221 0.57677 4.27068
-4.54388 0.484297 2.46427
-4.58124 0.473659 2.28469
-4.58842 0.473309 2.26074
-4.59866 0.471843 2.22884
-4.60393 0.469328 2.19391
-4.62646 0.466294 2.12311
-4.63505 0.462145 2.04523
-4.66563 0.460042 1.96948
-4.72975 0.447914 1.68811
-4.74816 0.446128 1.63426
-4.76264 0.444206 1.57139
-4.77705 0.442402 1.51652
-4.86682 0.433033 1.15028
-4.90909 0.430546 0.980616
-4.92998 0.426815 0.862812
-4.94638 0.427042 0.809925
-4.99889 0.426103 0.609307
-5.0229 0.424136 0.475498
-5.03631 0.424346 0.421589
-5.04754 0.423896 0.390676
-5.0602 0.423616 0.303763
-5.07543 0.424168 0.272866
-5.09696 0.425132 0.202004
-5.10556 0.423954 0.122075
-5.1351 0.426924 0.0512438
-5.14464 0.425864 -0.0206786
-5.16818 0.427815 -0.09254
-5.17679 0.427622 -0.173483
-5.19334 0.428538 -0.247383
-4.30247 0.588593 3.43905
-4.32015 0.581259 3.34827
-4.34271 0.57618 3.27451
-4.38498 0.562724 3.107
-4.55115 0.517735 2.42583
-4.58317 0.51076 2.29115
-4.65839 0.496448 1.99689
-4.55115 0.541703 2.42347
-4.55442 0.539173 2.38753
-4.95174 0.483269 0.757126
-4.96396 0.483834 0.727205
-5.04548 0.481932 0.392802
-5.05266 0.482597 0.369843
-5.07324 0.482457 0.291989
-5.1128 0.48242 0.085259
-4.22311 0.683042 3.74209
-4.30462 0.653203 3.4121
-4.34188 0.638773 3.24657
-4.36964 0.631298 3.14588
-4.38506 0.626495 3.09106
-4.40055 0.621545 3.02624
-4.43788 0.607967 2.8507
-4.44906 0.606634 2.8278
-4.45418 0.605387 2.81085
-4.46659 0.601596 2.757
-4.47486 0.599069 2.72109
-4.47593 0.597937 2.71211
-4.48619 0.596441 2.67821
-4.49147 0.593897 2.64128
-4.50172 0.591416 2.60839
-4.50279 0.590269 2.59841
-4.50692 0.59002 2.58145
-4.51105 0.588772 2.56449
-4.52245 0.584996 2.51163
-4.52566 0.582598 2.48468
-4.52979 0.581335 2.46673
-4.54188 0.582166 2.45481
-4.54203 0.579885 2.43584
-4.54516 0.578621 2.41788
-4.54829 0.577371 2.40092
-4.55341 0.577138 2.38496
-4.55961 0.575758 2.35902
-4.57497 0.573058 2.31117
-4.58529 0.570444 2.26928
-4.58344 0.568147 2.2493
-4.6121 0.56488 2.16255
-4.60925 0.562582 2.14256
-4.61736 0.562365 2.12762
-4.61949 0.561115 2.11066
-4.62561 0.560883 2.0947
-4.64828 0.556582 2.00593
-4.65339 0.556363 1.99097
-4.6637 0.553779 1.95108
-4.67207 0.551045 1.90117
-4.68942 0.550376 1.85531
-4.71108 0.546089 1.76752
-4.73587 0.542567 1.66375
-4.73207 0.539165 1.63676
-4.77306 0.536255 1.5061
-4.77817 0.536037 1.49114
-4.81536 0.530739 1.33448
-4.82047 0.530521 1.31951
-4.82671 0.530052 1.28756
-4.83906 0.52838 1.24168
-4.84112 0.528263 1.23369
-4.86382 0.525902 1.14089
-4.86999 0.525566 1.11793
-4.86712 0.524312 1.10093
-4.87735 0.524861 1.06999
-4.88147 0.524642 1.05503
-4.88265 0.523272 1.03005
-4.88278 0.522036 1.01407
-4.88702 0.520565 0.982117
-4.90635 0.521927 0.938237
-4.91651 0.521609 0.916315
-4.91364 0.520355 0.899309
-4.91975 0.521137 0.884342
-4.92387 0.520918 0.869374
-4.92699 0.520684 0.853399
-4.93609 0.521483 0.839454
-4.94738 0.520914 0.800542
-4.9485 0.520677 0.784551
-4.94963 0.519441 0.768576
-4.94975 0.519205 0.752578
-4.95791 0.518885 0.730641
-4.96303 0.519651 0.714666
-4.96614 0.519432 0.699691
-4.97326 0.519215 0.684746
-4.98766 0.519425 0.630844
-4.98679 0.518173 0.613853
-4.9929 0.518955 0.598886
-4.99802 0.518737 0.583925
-4.99714 0.5175 0.567935
-5.00325 0.518282 0.552967
-5.00238 0.51703 0.535977
-5.00743 0.517929 0.529001
-5.01266 0.517474 0.498043
-5.02078 0.518258 0.48309
-5.01491 0.517002 0.466062
-5.02502 0.517787 0.451125
-5.02514 0.51755 0.435127
-5.03619 0.518454 0.428196
-5.0403 0.518235 0.413228
-5.03743 0.517982 0.396208
-5.04366 0.517527 0.365257
-5.06195 0.518977 0.327368
-5.05932 0.51725 0.278367
-5.07342 0.519053 0.264445
-5.07055 0.517799 0.247439
-5.07866 0.518583 0.232487
-5.08372 0.518468 0.224526
-5.08284 0.51823 0.20852
-5.08996 0.519013 0.19356
-5.09008 0.518776 0.177562
-5.10344 0.519075 0.129652
-5.10556 0.51884 0.113669
-5.11561 0.520743 0.106716
-5.11473 0.520506 0.0907105
-5.11186 0.519252 0.0737051
-5.11697 0.520034 0.05873
-5.12009 0.519799 0.0427548
-5.13521 0.521573 0.0268402
-5.12833 0.520331 0.0108046
-5.13663 0.520745 -0.0291445
-5.14275 0.521512 -0.045112
-5.15387 0.522283 -0.0610418
-5.15399 0.522046 -0.0770396
-5.15111 0.520807 -0.0930452
-5.16517 0.523699 -0.100983
-5.16529 0.523462 -0.116981
-5.17253 0.522993 -0.148924
-5.1879 0.525279 -0.197849
-5.19408 0.525928 -0.221815
-5.13533 0.622206 0.00134796
-4.48222 0.74917 2.65892
-4.49875 0.744146 2.5891
-4.50288 0.742897 2.57215
-4.50808 0.741501 2.54521
-4.54517 0.731411 2.40262
-4.55342 0.729914 2.3687
-4.77419 0.68581 1.47489
-4.87747 0.67343 1.03979
-4.88783 0.671742 0.992887
-4.89711 0.671186 0.95496
-4.91246 0.671516 0.909064
-4.91258 0.670279 0.893081
-4.92386 0.670724 0.855154
-4.94139 0.6697 0.785292
-4.94974 0.669011 0.738359
-4.95398 0.667555 0.707408
-4.96309 0.668339 0.692463
-4.96414 0.668236 0.685471
-4.97762 0.668313 0.622563
-4.98073 0.668093 0.607588
-4.98385 0.667858 0.591612
-4.9889 0.667758 0.584651
-4.99402 0.66854 0.569676
-4.99614 0.668305 0.553693
-4.99926 0.66807 0.537718
-5.00138 0.667835 0.521735
-5.01778 0.668062 0.468848
-5.02302 0.667592 0.43689
-5.02714 0.667358 0.420922
-5.03125 0.668138 0.40594
-5.04665 0.66835 0.352045
-5.0519 0.66788 0.320087
-5.05402 0.667644 0.304105
-5.05614 0.667409 0.288122
-5.06219 0.66831 0.281153
-5.07354 0.668622 0.234228
-5.06967 0.667367 0.217215
-5.08078 0.669153 0.20227
-5.08608 0.66858 0.163313
-5.10867 0.670426 0.0844448
-5.10979 0.67019 0.0684546
-5.12721 0.671373 0.0125605
-5.13033 0.672138 -0.00342948
-5.13445 0.671904 -0.0193972
-5.13557 0.671668 -0.0353875
-5.14163 0.672554 -0.043356
-5.14475 0.673319 -0.059346
-5.15199 0.67385 -0.0913038
-5.15123 0.672376 -0.123292
-5.16135 0.674146 -0.139244
-5.16741 0.675032 -0.147213
-5.17053 0.674798 -0.163188
-5.17465 0.675564 -0.179171
-5.17878 0.676315 -0.196153
-5.1789 0.676078 -0.212151
-5.18302 0.675844 -0.228118
-5.1892 0.676493 -0.252085
-4.25489 0.908264 3.48396
-4.39938 0.852608 2.89379
-4.41063 0.850128 2.86091
-4.44785 0.836772 2.70037
-4.45711 0.833261 2.66548
-4.47456 0.8294 2.60666
-4.48082 0.826887 2.57174
-4.48909 0.823375 2.53685
-4.51891 0.816783 2.42816
-4.53962 0.809421 2.33541
-4.54274 0.808172 2.31845
-4.54787 0.806924 2.30151
-4.55399 0.806707 2.28655
-4.55704 0.80659 2.27858
-4.55917 0.80534 2.26161
-4.56729 0.805124 2.24667
-4.57354 0.801625 2.21276
-4.58962 0.803489 2.20286
-4.57682 0.799095 2.17682
-4.58186 0.79901 2.17086
-4.59295 0.79984 2.15893
-4.58911 0.796527 2.13795
-4.59324 0.796278 2.12098
-4.61131 0.798158 2.11209
-4.60859 0.793593 2.07413
-4.61962 0.795557 2.07118
-4.61278 0.792226 2.04918
-4.6179 0.790993 2.03323
-4.62202 0.790759 2.01726
-4.62216 0.788493 1.9993
-4.62927 0.788276 1.98435
-4.64535 0.790139 1.97444
-4.63147 0.785893 1.9584
-4.63459 0.785658 1.94242
-4.64383 0.784191 1.91051
-4.64695 0.782957 1.89455
-4.66304 0.784805 1.88364
-4.65918 0.781521 1.86466
-4.67433 0.783236 1.84475
-4.66762 0.778669 1.80676
-4.68171 0.779501 1.79485
-4.67586 0.776201 1.77485
-4.67997 0.775982 1.75988
-4.692 0.777932 1.75595
-4.70436 0.775245 1.70907
-4.69752 0.772929 1.68805
-4.71592 0.771158 1.63521
-4.72501 0.771972 1.62226
-4.73638 0.769269 1.57438
-4.74667 0.768699 1.53546
-4.75304 0.765979 1.48654
-4.78466 0.764787 1.40479
-4.77382 0.761469 1.38375
-4.78703 0.761064 1.35586
-4.80031 0.760511 1.31796
-4.80967 0.758822 1.27105
-4.80587 0.756419 1.24405
-4.82545 0.754308 1.16822
-4.83262 0.753973 1.14527
-4.84996 0.754319 1.10039
-4.84808 0.753066 1.0834
-4.85631 0.752628 1.05346
-4.86348 0.752293 1.03052
-4.88493 0.75242 0.970668
-4.89459 0.749139 0.883777
-4.907 0.748348 0.829875
-4.92533 0.748695 0.785002
-4.92246 0.747441 0.767996
-4.93157 0.74824 0.754051
-4.93986 0.747669 0.715117
-4.95121 0.747996 0.669191
-4.95033 0.746758 0.653201
-4.95944 0.747543 0.638255
-4.96973 0.747988 0.600321
-4.97197 0.746515 0.568355
-4.98637 0.746726 0.514453
-4.99772 0.747053 0.468528
-5.00184 0.746819 0.45256
-5.00496 0.746585 0.436585
-5.015 0.748503 0.430631
-5.02236 0.747812 0.38369
-5.02959 0.748358 0.352732
-5.04276 0.750027 0.329804
-5.049 0.749573 0.298853
-5.05424 0.749103 0.266895
-5.05436 0.748866 0.250897
-5.06147 0.749649 0.235937
-5.05454 0.74851 0.226901
-5.06365 0.749295 0.211956
-5.06577 0.749059 0.195973
-5.07289 0.749828 0.180013
-5.08711 0.751393 0.150093
-5.07924 0.750136 0.13305
-5.0853 0.751022 0.125081
-5.08242 0.749783 0.109076
-5.09154 0.750567 0.0941308
-5.09166 0.750316 0.0771331
-5.09978 0.7511 0.0621806
-5.1049 0.751866 0.0462056
-5.11002 0.752633 0.0302306
-5.11108 0.752515 0.0222392
-5.1112 0.752278 0.00624144
-5.11632 0.753045 -0.00973353
-5.12343 0.753828 -0.0246936
-5.12355 0.753591 -0.0406914
-5.12268 0.752339 -0.0576818
-5.13779 0.755127 -0.0726113
-5.13185 0.754005 -0.0806405
-5.14397 0.755776 -0.0965776
-5.14109 0.754538 -0.112583
-5.14721 0.755305 -0.128551
-5.15246 0.75582 -0.161523
-5.15864 0.756469 -0.18549
-5.15676 0.756231 -0.201502
-5.16488 0.757 -0.217455
-5.169 0.757766 -0.233437
-5.17112 0.75753 -0.24942
-4.06202 1.04951 4.25052
-4.07831 1.04495 4.21171
-4.09142 1.04475 4.19781
-4.09362 1.04037 4.17189
-4.08996 1.0327 4.12697
-4.11419 1.03127 4.09717
-4.11836 1.02893 4.07423
-4.11956 1.02455 4.0483
-4.12889 1.01891 4.00445
-4.13395 1.01879 3.99648
-4.15024 1.01524 3.95865
-4.15639 1.01295 3.93873
-4.17098 1.00282 3.86198
-4.17018 0.99842 3.83504
-4.18527 0.999268 3.82414
-4.18745 0.995915 3.8002
-4.19478 0.990269 3.75633
-4.20589 0.990055 3.74142
-4.20499 0.987862 3.72844
-4.2266 0.978694 3.64873
-4.23275 0.977417 3.62979
-4.24748 0.964993 3.53307
-4.26987 0.961254 3.48229
-4.27095 0.960092 3.47131
-4.27826 0.954491 3.43045
-4.29785 0.947366 3.35369
-4.29214 0.940785 3.31474
-4.30523 0.940617 3.30284
-4.33202 0.931097 3.19916
-4.35763 0.923932 3.11945
-4.37816 0.917896 3.04869
-4.38951 0.913238 3.00384
-4.40193 0.908418 2.94799
-4.41135 0.902596 2.89214
-4.41144 0.900434 2.88117
-4.42154 0.900234 2.86725
-4.42667 0.898986 2.85031
-4.4318 0.897738 2.83336
-4.43295 0.895443 2.8134
-4.44023 0.891901 2.7765
-4.44643 0.88952 2.75058
-4.45554 0.88932 2.73665
-4.44673 0.884929 2.71065
-4.46594 0.884528 2.68279
-4.46013 0.881169 2.65879
-4.4602 0.880021 2.64881
-4.47628 0.880884 2.63892
-4.47543 0.878588 2.61894
-4.47957 0.877324 2.60099
-4.48882 0.874843 2.56809
-4.48997 0.872548 2.54813
-4.50099 0.873511 2.5452
-4.49616 0.870182 2.52321
-4.50925 0.871014 2.51129
-4.51038 0.869748 2.49332
-4.50755 0.866421 2.47134
-4.52362 0.867284 2.46145
-4.51978 0.864971 2.44045
-4.51388 0.862774 2.42744
-4.53096 0.863638 2.41755
-4.53807 0.863421 2.40261
-4.5412 0.862172 2.38565
-4.56289 0.855826 2.29389
-4.56603 0.853562 2.27595
-4.58139 0.851863 2.22808
-4.59483 0.847014 2.17025
-4.59198 0.844731 2.15126
-4.5981 0.844498 2.1353
-4.60215 0.844398 2.12834
-4.60229 0.842131 2.11037
-4.60143 0.83985 2.09139
-4.60854 0.839633 2.07645
-4.61067 0.838383 2.05948
-4.61479 0.837149 2.04353
-4.6239 0.837948 2.02958
-4.62403 0.835682 2.01161
-4.6241 0.835549 2.00261
-4.6332 0.835363 1.98968
-4.62836 0.832048 1.96869
-4.63646 0.832847 1.95474
-4.64357 0.832645 1.9408
-4.6457 0.831395 1.92383
-4.64883 0.830145 1.90687
-4.6489 0.829012 1.89788
-4.65401 0.828794 1.88292
-4.6661 0.829625 1.871
-4.66523 0.827358 1.85303
-4.67036 0.827125 1.83706
-4.67049 0.824858 1.8191
-4.67162 0.823608 1.80212
-4.67667 0.824522 1.79615
-4.67381 0.822239 1.77716
-4.68391 0.822054 1.76423
-4.68504 0.820803 1.74726
-4.69713 0.821619 1.73433
-4.69029 0.819319 1.71431
-4.70144 0.819016 1.6934
-4.69759 0.816732 1.6744
-4.71268 0.818565 1.66249
-4.71679 0.817346 1.64753
-4.71393 0.816063 1.62853
-4.72104 0.81586 1.61458
-4.72715 0.815643 1.59963
-4.71924 0.813474 1.5886
-4.72734 0.813273 1.57466
-4.73844 0.814088 1.56173
-4.73558 0.811805 1.54274
-4.74966 0.813652 1.53182
-4.74979 0.812401 1.51484
-4.74494 0.810116 1.49583
-4.74999 0.810016 1.48887
-4.75709 0.809814 1.47492
-4.75323 0.808545 1.45691
-4.76633 0.809362 1.444
-4.76446 0.808109 1.427
-4.76957 0.80789 1.41204
-4.77668 0.807673 1.39709
-4.77375 0.806538 1.38809
-4.78286 0.807337 1.37414
-4.78598 0.806103 1.35818
-4.7962 0.805666 1.32826
-4.79732 0.80443 1.31229
-4.80444 0.805213 1.29733
-4.8035 0.804094 1.28933
-4.80463 0.802843 1.27236
-4.81472 0.803658 1.25942
-4.81385 0.802405 1.24243
-4.8272 0.801734 1.19653
-4.83125 0.801633 1.18957
-4.83337 0.801398 1.17358
-4.83649 0.801163 1.15761
-4.8446 0.800962 1.14367
-4.84172 0.799708 1.12666
-4.84584 0.799489 1.1117
-4.84497 0.798237 1.09471
-4.85102 0.798137 1.08775
-4.85713 0.79892 1.07278
-4.86324 0.798717 1.05883
-4.87758 0.799046 1.01293
-4.8797 0.797811 0.99696
-4.96013 0.794086 0.674577
-4.9756 0.794179 0.612683
-4.97578 0.792824 0.588701
-4.98414 0.792134 0.541768
-4.99225 0.792918 0.526816
-5.00653 0.794365 0.488897
-5.01589 0.793676 0.441971
-5.01413 0.792201 0.409975
-5.03553 0.794417 0.356096
-5.04476 0.794964 0.325153
-5.04889 0.79473 0.309185
-5.05207 0.794377 0.285211
-5.0593 0.794923 0.254253
-5.06254 0.794452 0.22228
-5.08394 0.796668 0.168401
-5.08706 0.797433 0.152411
-5.09661 0.796374 0.0804891
-5.10772 0.798159 0.0655443
-5.11084 0.798925 0.0495542
-5.11508 0.798454 0.0175888
-5.1132 0.798216 0.00157591
-5.12832 0.799989 -0.0143387
-5.13038 0.800872 -0.0223373
-5.13662 0.800403 -0.0542877
-5.14398 0.801697 -0.102258
-5.1451 0.801461 -0.118248
-5.15516 0.80235 -0.126187
-5.15541 0.801862 -0.159182
-5.15465 0.801387 -0.191185
-4.05672 1.12499 4.28237
-4.06984 1.12478 4.26747
-4.08645 1.11359 4.18675
-4.0946 1.1113 4.16684
-4.09183 1.10585 4.1369
-4.10098 1.10358 4.118
-4.11528 1.099 4.07817
-4.12045 1.09668 4.05624
-4.12353 1.09552 4.04528
-4.12274 1.0901 4.01735
-4.12692 1.08776 3.99441
-4.14002 1.08758 3.98151
-4.14022 1.08318 3.95457
-4.15034 1.08195 3.93867
-4.15649 1.07966 3.91874
-4.15263 1.07539 3.90077
-4.16176 1.07415 3.88386
-4.1701 1.06849 3.839
-4.17328 1.06515 3.81607
-4.18041 1.06389 3.79814
-4.18657 1.0616 3.77822
-4.19262 1.0615 3.77126
-4.1938 1.05714 3.74733
-4.19399 1.05377 3.72238
-4.19518 1.0504 3.69744
-4.2174 1.04899 3.66862
-4.21561 1.04459 3.64167
-4.22067 1.04348 3.63372
-4.2288 1.04223 3.6168
-4.22501 1.03781 3.58883
-4.24524 1.03537 3.55802
-4.24741 1.03304 3.53606
-4.25048 1.03191 3.5271
-4.25365 1.02859 3.50517
-4.25681 1.02628 3.48423
-4.26593 1.02505 3.46831
-4.26511 1.0217 3.44435
-4.26827 1.01939 3.42341
-4.28145 1.01704 3.39954
-4.27666 1.01262 3.37156
-4.29472 1.01452 3.36367
-4.29787 1.01223 3.34373
-4.2921 1.00679 3.31476
-4.30319 1.00661 3.30184
-4.31331 1.00539 3.28694
-4.31754 1.00194 3.25602
-4.32268 1.00067 3.23807
-4.31688 0.995271 3.2111
-4.32998 0.996088 3.19819
-4.33611 0.993841 3.18126
-4.33131 0.989453 3.15529
-4.34034 0.9904 3.15134
-4.3415 0.988091 3.13038
-4.35575 0.985598 3.09652
-4.35691 0.982288 3.07558
-4.35807 0.979978 3.05462
-4.36627 0.977599 3.02871
-4.36958 0.971995 2.98781
-4.38084 0.9695 2.95393
-4.38299 0.967206 2.93398
-4.3931 0.967006 2.92005
-4.40973 0.958789 2.83729
-4.41286 0.956525 2.81935
-4.41999 0.955279 2.80241
-4.42901 0.957241 2.79945
-4.42818 0.953915 2.77749
-4.43132 0.951636 2.75855
-4.44739 0.953514 2.74964
-4.43561 0.947092 2.72164
-4.44785 0.945612 2.68875
-4.44992 0.94448 2.67978
-4.45206 0.942216 2.66183
-4.45819 0.941968 2.64488
-4.46232 0.93972 2.62794
-4.46545 0.938456 2.60998
-4.47257 0.937239 2.59505
-4.47892 0.932563 2.54916
-4.48817 0.930066 2.51526
-4.49827 0.930881 2.50232
-4.50155 0.926336 2.46541
-4.51059 0.927268 2.46046
-4.51088 0.922706 2.42253
-4.515 0.921458 2.40558
-4.53023 0.921024 2.37569
-4.52731 0.91886 2.3647
-4.54993 0.913662 2.28294
-4.54908 0.911381 2.26396
-4.55918 0.911181 2.25004
-4.5594 0.907766 2.22209
-4.59345 0.898734 2.08346
-4.60056 0.898517 2.06851
-4.62024 0.892199 1.97874
-4.65725 0.885242 1.84511
-4.65938 0.883992 1.82814
-4.6728 0.881173 1.77227
-4.67992 0.880956 1.75733
-4.68523 0.878353 1.7164
-4.68935 0.877119 1.70045
-4.70269 0.875448 1.65457
-4.70482 0.874198 1.6376
-4.72634 0.872192 1.56878
-4.73058 0.870721 1.53683
-4.7347 0.869487 1.52088
-4.743 0.867916 1.48196
-4.75223 0.867463 1.45103
-4.76133 0.867278 1.4381
-4.76053 0.864892 1.41213
-4.76365 0.864658 1.39615
-4.77275 0.865472 1.38321
-4.77587 0.864237 1.36725
-4.78098 0.864019 1.35229
-4.78311 0.863768 1.3353
-4.79021 0.863566 1.32136
-4.78529 0.861415 1.31135
-4.79739 0.863231 1.29841
-4.79451 0.860977 1.28142
-4.79764 0.860743 1.26545
-4.80076 0.860508 1.24947
-4.80387 0.859288 1.23451
-4.81397 0.860088 1.22057
-4.82426 0.859533 1.18265
-4.82538 0.858297 1.16668
-4.82663 0.856809 1.13371
-4.83873 0.857626 1.12078
-4.84478 0.858526 1.11381
-4.84191 0.856273 1.09682
-4.85001 0.857071 1.08287
-4.84826 0.854581 1.04989
-4.86036 0.856397 1.03695
-4.8555 0.854128 1.01895
-4.86454 0.855045 1.013
-4.87065 0.855827 0.998033
-4.86579 0.853558 0.980028
-4.88699 0.856173 0.953145
-4.88711 0.854936 0.937162
-4.88829 0.853582 0.913188
-4.88854 0.851093 0.880222
-4.91274 0.854726 0.854347
-4.90088 0.851436 0.835304
-4.91598 0.853254 0.822389
-4.91517 0.851884 0.797399
-4.92327 0.852682 0.783447
-4.9184 0.850427 0.766441
-4.93063 0.850991 0.736521
-4.94173 0.852792 0.722576
-4.93181 0.850637 0.712531
-4.94491 0.852439 0.698602
-4.94603 0.851203 0.682626
-4.94116 0.849948 0.665606
-4.94827 0.849731 0.65066
-4.94939 0.849495 0.63467
-4.96056 0.851177 0.612726
-4.96691 0.849486 0.565793
-4.98002 0.851288 0.551863
-4.97315 0.849031 0.534842
-4.98631 0.850715 0.512913
-4.99154 0.850259 0.481955
-4.99366 0.850024 0.465973
-5.00102 0.849333 0.419032
-5.01754 0.850309 0.349132
-5.04618 0.852071 0.26431
-5.05253 0.852379 0.217347
-5.0516 0.85126 0.209355
-5.06083 0.852808 0.178398
-5.06707 0.852338 0.146447
-5.10313 0.856261 0.00464127
-4.18143 1.21666 3.78188
-4.18351 1.2155 3.77092
-4.2175 1.19759 3.64042
-4.21869 1.19424 3.61647
-4.22781 1.19301 3.60056
-4.23296 1.18971 3.58064
-4.23811 1.18742 3.56071
-4.25048 1.1817 3.51188
-4.25265 1.17838 3.48995
-4.25481 1.17507 3.46901
-4.26096 1.1728 3.45009
-4.26808 1.17155 3.43316
-4.27946 1.16483 3.38433
-4.28478 1.15921 3.34245
-4.29091 1.15695 3.32453
-4.30535 1.15012 3.26773
-4.30643 1.14896 3.25676
-4.31157 1.1467 3.23882
-4.31769 1.14545 3.22189
-4.31688 1.14109 3.19794
-4.324 1.13986 3.18201
-4.32914 1.1376 3.16408
-4.33932 1.13624 3.13918
-4.33949 1.13191 3.11724
-4.34065 1.1296 3.09628
-4.35275 1.12942 3.08337
-4.35391 1.12611 3.06242
-4.36501 1.12592 3.04951
-4.36617 1.12361 3.02855
-4.36227 1.1204 3.01457
-4.3674 1.11916 2.99762
-4.37652 1.11794 2.9827
-4.38364 1.11671 2.96677
-4.39291 1.11318 2.93089
-4.39208 1.10986 2.90893
-4.39514 1.10974 2.90095
-4.40425 1.10852 2.88604
-4.40143 1.10518 2.86306
-4.40755 1.10395 2.84713
-4.41467 1.10272 2.8312
-4.41796 1.09714 2.7923
-4.42815 1.0958 2.76839
-4.43924 1.09561 2.75548
-4.44866 1.0898 2.70063
-4.45478 1.08857 2.68469
-4.45501 1.08413 2.65475
-4.46411 1.08393 2.64082
-4.46427 1.08163 2.62085
-4.4664 1.07937 2.6029
-4.47352 1.07814 2.58697
-4.47965 1.0769 2.57103
-4.48071 1.07677 2.56204
-4.48982 1.07657 2.54811
-4.49096 1.07329 2.52917
-4.50534 1.06956 2.47932
-4.50748 1.0673 2.46137
-4.51352 1.06821 2.4554
-4.5067 1.06387 2.43241
-4.51382 1.06263 2.41648
-4.52591 1.06346 2.40456
-4.53416 1.06098 2.37165
-4.54036 1.0586 2.34573
-4.54149 1.05634 2.32777
-4.54462 1.05509 2.31081
-4.54377 1.05281 2.29183
-4.55187 1.0526 2.2779
-4.557 1.05136 2.26095
-4.56112 1.05012 2.245
-4.5592 1.04796 2.23401
-4.5683 1.04877 2.22107
-4.56944 1.04651 2.20311
-4.57755 1.04629 2.18817
-4.57968 1.04404 2.17122
-4.58579 1.04382 2.15626
-4.58999 1.04144 2.13033
-4.59026 1.03691 2.09439
-4.60136 1.03772 2.08146
-4.60847 1.03751 2.06652
-4.60376 1.03194 2.02856
-4.61678 1.03391 2.02563
-4.62702 1.03246 1.99472
-4.63114 1.03122 1.97877
-4.63141 1.02769 1.94282
-4.64151 1.0285 1.92988
-4.64371 1.02612 1.90393
-4.64683 1.02489 1.88797
-4.65507 1.02242 1.85606
-4.66018 1.0222 1.8411
-4.6574 1.01878 1.81313
-4.66949 1.01961 1.8012
-4.67673 1.01815 1.76928
-4.67985 1.01691 1.75332
-4.68995 1.01771 1.73938
-4.68709 1.01444 1.7214
-4.68716 1.01331 1.71242
-4.69041 1.01082 1.67948
-4.70549 1.01267 1.66856
-4.70875 1.01017 1.63462
-4.71505 1.00758 1.5947
-4.71917 1.00735 1.57873
-4.7274 1.0059 1.54781
-4.73152 1.00466 1.53186
-4.7357 1.00333 1.5089
-4.73483 1.00106 1.49093
-4.74207 1.0006 1.45999
-4.74519 0.99937 1.44402
-4.75641 0.998949 1.41511
-4.75348 0.997799 1.40511
-4.76782 0.996143 1.36023
-4.77718 0.994454 1.31332
-4.7912 0.997404 1.30938
-4.78335 0.994118 1.29037
-4.80256 0.995717 1.26249
-4.7957 0.992445 1.24448
-4.80779 0.994262 1.23154
-4.81091 0.993027 1.21558
-4.81297 0.992925 1.2086
-4.8111 0.991657 1.1906
-4.81721 0.991454 1.17665
-4.81634 0.990202 1.15966
-4.83255 0.991799 1.13175
-4.82968 0.989531 1.11376
-4.83374 0.98943 1.10679
-4.84097 0.988976 1.07585
-4.84109 0.987739 1.05987
-4.85119 0.988539 1.04593
-4.85144 0.986066 1.01396
-4.8535 0.985949 1.00598
-4.87383 0.987312 0.962106
-4.87196 0.986059 0.945108
-4.87706 0.985855 0.931148
-4.88717 0.987655 0.917195
-4.88323 0.985519 0.908196
-4.88535 0.985284 0.892213
-4.89247 0.986067 0.877253
-4.8866 0.982811 0.860255
-4.89171 0.983593 0.84528
-4.89383 0.982357 0.829312
-4.90094 0.98314 0.814352
-4.901 0.983022 0.806353
-4.9141 0.984839 0.793423
-4.90624 0.981567 0.775409
-4.91833 0.984383 0.762457
-4.92445 0.98415 0.746504
-4.92357 0.982913 0.730514
-4.92869 0.983694 0.715539
-4.92975 0.983577 0.707547
-4.94845 0.982213 0.614696
-4.96073 0.982659 0.576776
-4.96385 0.982439 0.561801
-4.97196 0.983223 0.546848
-4.96909 0.981969 0.529843
-4.97632 0.982515 0.498885
-4.98137 0.982415 0.491924
-4.98748 0.983198 0.476956
-4.9876 0.982961 0.460958
-5.00171 0.985763 0.447021
-4.99284 0.982505 0.43
-5.00706 0.984071 0.40008
-5.00213 0.982935 0.391059
-5.00625 0.982701 0.375091
-5.00836 0.98248 0.360108
-5.02783 0.984576 0.298215
-5.02889 0.984458 0.290224
-5.036 0.985241 0.275264
-5.04212 0.986009 0.259296
-5.04723 0.98679 0.244321
-5.04335 0.98555 0.228308
-5.04448 0.985314 0.212318
-5.04859 0.98508 0.19635
-5.05265 0.985965 0.188366
-5.06789 0.988516 0.157439
-5.06301 0.986276 0.141433
-5.07412 0.989062 0.126474
-5.07636 0.98859 0.0944932
-5.07742 0.988472 0.0865018
-5.07854 0.988236 0.0705115
-5.09365 0.991024 0.055582
-5.08478 0.988766 0.0385463
-5.09489 0.990551 0.023594
-5.09401 0.989314 0.00760345
-5.09913 0.990081 -0.00837152
-5.10519 0.991966 -0.0163549
-5.10831 0.991732 -0.0323301
-5.11143 0.992497 -0.0483201
-5.11555 0.992263 -0.0642878
-5.12267 0.994031 -0.0802626
-5.12679 0.994797 -0.0962451
-5.12891 0.994562 -0.112228
-5.13496 0.996462 -0.119211
-5.13209 0.995208 -0.136217
-5.14021 0.995977 -0.152169
-5.14033 0.995741 -0.168167
-5.16388 0.999676 -0.241058
-4.04856 1.40094 4.27722
-4.05671 1.39765 4.25733
-4.08148 1.38217 4.15673
-4.11875 1.35574 3.99138
-4.12797 1.35131 3.96151
-4.13335 1.34258 3.91268
-4.14564 1.33702 3.87385
-4.16122 1.3259 3.79812
-4.18978 1.31683 3.72446
-4.19504 1.31135 3.69157
-4.22496 1.29458 3.57103
-4.22821 1.28909 3.53813
-4.24862 1.28331 3.48436
-4.25503 1.27451 3.43053
-4.2673 1.27099 3.39467
-4.29211 1.25644 3.28906
-4.31366 1.24837 3.21633
-4.31193 1.24186 3.18141
-4.3295 1.23276 3.10667
-4.34168 1.23041 3.08279
-4.36321 1.22339 3.01305
-4.38366 1.21752 2.95328
-4.3878 1.21526 2.93534
-4.38995 1.21298 2.91639
-4.39226 1.20637 2.8755
-4.40474 1.19843 2.8117
-4.42824 1.19347 2.74594
-4.42434 1.19028 2.73296
-4.43046 1.18905 2.71702
-4.43972 1.18555 2.68314
-4.4538 1.1874 2.67222
-4.45495 1.18412 2.65327
-4.4561 1.18182 2.63331
-4.46528 1.17947 2.60941
-4.45647 1.1741 2.58442
-4.47255 1.17596 2.57451
-4.47768 1.17471 2.55757
-4.47981 1.17245 2.53961
-4.48394 1.1712 2.52266
-4.4863 1.16451 2.47577
-4.49655 1.16203 2.44288
-4.51199 1.15718 2.38506
-4.52522 1.15573 2.35418
-4.53646 1.15328 2.3233
-4.53958 1.15203 2.30634
-4.54364 1.15193 2.29937
-4.55189 1.14843 2.26548
-4.54406 1.1441 2.24348
-4.55417 1.1439 2.22955
-4.56142 1.14142 2.19664
-4.56674 1.13678 2.15374
-4.58481 1.13966 2.14484
-4.58509 1.13512 2.1079
-4.58729 1.13173 2.08196
-4.59341 1.1315 2.06601
-4.60477 1.1278 2.01815
-4.63341 1.12356 1.93341
-4.63568 1.11905 1.89849
-4.63681 1.11779 1.88152
-4.64498 1.11746 1.85858
-4.65721 1.11602 1.82869
-4.66644 1.11457 1.79778
-4.66465 1.11116 1.76981
-4.68311 1.10827 1.70898
-4.68836 1.10578 1.67605
-4.69355 1.10443 1.65211
-4.70303 1.09949 1.58825
-4.72516 1.10224 1.57037
-4.72542 1.09874 1.53642
-4.74063 1.09933 1.50852
-4.74687 1.09786 1.47658
-4.74221 1.09221 1.43263
-4.76752 1.09361 1.39079
-4.77095 1.08976 1.33387
-4.78118 1.08933 1.30395
-4.78031 1.08708 1.28697
-4.78941 1.08787 1.27302
-4.80381 1.0871 1.22014
-4.80606 1.08461 1.18719
-4.80917 1.08339 1.17223
-4.83991 1.08297 1.07445
-4.8411 1.0806 1.04949
-4.85575 1.07733 0.963637
-4.87308 1.07869 0.919742
-4.88218 1.07949 0.905797
-4.8805 1.07589 0.864832
-4.88561 1.07667 0.849857
-4.89372 1.07745 0.834904
-4.91305 1.07881 0.791023
-4.90319 1.07554 0.772995
-4.91223 1.07746 0.767034
-4.91435 1.07622 0.751066
-4.92258 1.07677 0.720116
-4.92682 1.07531 0.689165
-4.93299 1.07598 0.666198
-4.93411 1.07474 0.650223
-4.93523 1.0745 0.634233
-4.94546 1.07507 0.604297
-4.96086 1.07529 0.551403
-4.98119 1.07864 0.5065
-4.98431 1.07841 0.490525
-4.98443 1.07717 0.474542
-4.9805 1.07603 0.465528
-4.9956 1.07885 0.452598
-5.00383 1.0794 0.421648
-4.99896 1.07714 0.404642
-5.00719 1.07769 0.373692
-5.01025 1.07857 0.365701
-5.01236 1.07835 0.350718
-5.01261 1.07688 0.318737
-5.02572 1.07867 0.303807
-5.03413 1.07886 0.24886
-5.04124 1.07964 0.2339
-5.05235 1.08243 0.21894
-5.04049 1.07817 0.201912
-5.06837 1.08144 0.0840571
-5.07455 1.08209 0.0600908
-5.08066 1.08287 0.0451232
-5.0909 1.0844 0.0131732
-5.09314 1.08393 -0.0188073
-5.10725 1.08772 -0.0337592
-5.11855 1.08914 -0.0737005
-5.12567 1.0899 -0.0896604
-5.12579 1.08967 -0.105658
-5.12291 1.08843 -0.121664
-5.13103 1.0902 -0.137631
-5.13122 1.08984 -0.161628
-5.13534 1.09059 -0.17861
-5.14758 1.09313 -0.21056
-4.21987 1.35367 3.57712
-4.23116 1.3491 3.53826
-4.23333 1.34478 3.51634
-4.24552 1.34242 3.49147
-4.25067 1.34012 3.47153
-4.25898 1.33454 3.43167
-4.25817 1.32917 3.40674
-4.26637 1.32578 3.37985
-4.27549 1.32455 3.36394
-4.28081 1.31793 3.32207
-4.28893 1.3167 3.30615
-4.29525 1.31009 3.26529
-4.29633 1.30893 3.25431
-4.30562 1.30338 3.21646
-4.31771 1.30421 3.20453
-4.32302 1.29761 3.16367
-4.33114 1.29638 3.14774
-4.33222 1.29523 3.13777
-4.3304 1.29087 3.11382
-4.33355 1.28759 3.09489
-4.34764 1.28843 3.08298
-4.34879 1.28513 3.06303
-4.35293 1.28285 3.04409
-4.35517 1.2784 3.01317
-4.36428 1.27718 2.99826
-4.37653 1.2747 2.96538
-4.37471 1.27036 2.94243
-4.38382 1.26914 2.92751
-4.38605 1.2647 2.89759
-4.40144 1.25894 2.84579
-4.40558 1.25668 2.82785
-4.41171 1.25543 2.81091
-4.40888 1.25111 2.78895
-4.4199 1.25307 2.786
-4.4121 1.24768 2.76002
-4.41723 1.24543 2.74309
-4.42832 1.24625 2.73016
-4.43047 1.24297 2.71122
-4.4366 1.24172 2.69429
-4.43973 1.23946 2.67634
-4.44677 1.24039 2.67138
-4.43897 1.235 2.6454
-4.45404 1.23687 2.63648
-4.4522 1.23255 2.61453
-4.45833 1.23131 2.59859
-4.4636 1.22679 2.56269
-4.46667 1.22665 2.55372
-4.47477 1.22645 2.53978
-4.48005 1.22192 2.50388
-4.48517 1.22069 2.48793
-4.49427 1.22049 2.474
-4.49642 1.21821 2.45505
-4.4935 1.21605 2.44406
-4.49465 1.21277 2.42511
-4.50573 1.2136 2.41318
-4.50289 1.21028 2.39221
-4.50802 1.20905 2.37626
-4.51314 1.2078 2.35932
-4.52324 1.20762 2.34639
-4.51734 1.20442 2.3334
-4.52345 1.2042 2.31844
-4.53071 1.20071 2.28454
-4.53683 1.19947 2.26861
-4.54991 1.20132 2.25768
-4.54614 1.19587 2.22772
-4.55625 1.19667 2.21379
-4.5524 1.19237 2.19382
-4.55951 1.19216 2.17887
-4.56264 1.18991 2.16193
-4.57487 1.18847 2.13204
-4.57495 1.18733 2.12205
-4.57608 1.18506 2.10409
-4.5812 1.18484 2.08913
-4.63663 1.17307 1.8997
-4.63178 1.16877 1.87972
-4.64202 1.16732 1.84882
-4.64812 1.16712 1.83486
-4.67205 1.15833 1.71316
-4.67623 1.15698 1.68921
-4.68659 1.15327 1.64133
-4.6907 1.15305 1.62636
-4.69781 1.15285 1.61242
-4.72059 1.14734 1.50966
-4.72888 1.14477 1.47075
-4.73799 1.14557 1.45681
-4.7411 1.14535 1.44183
-4.74522 1.14412 1.42588
-4.74535 1.14287 1.4089
-4.74641 1.14175 1.40092
-4.75152 1.14153 1.38596
-4.75664 1.14131 1.371
-4.76374 1.14211 1.35704
-4.76885 1.14189 1.34208
-4.76998 1.14064 1.3251
-4.77509 1.14042 1.31014
