4.32003 1.05563 1.98361
4.32532 1.06219 2.02148
4.33463 1.06879 2.06232
4.35485 1.0772 2.09104
4.34187 1.07524 2.09317
4.36008 1.08264 2.12093
4.36624 1.08695 2.14182
4.36049 1.09044 2.17482
4.36968 1.09579 2.19867
4.38187 1.10115 2.2235
4.40446 1.11729 2.30111
4.39958 1.11853 2.31713
4.4138 1.12593 2.34491
4.43009 1.13448 2.38267
4.42019 1.13468 2.39574
4.42436 1.138 2.41766
4.43556 1.14438 2.44349
4.46515 1.16251 2.52101
4.45417 1.16056 2.52412
4.47141 1.169 2.55387
4.46553 1.17025 2.5709
4.4888 1.17975 2.60559
4.49901 1.18614 2.63242
4.50326 1.19163 2.66531
4.51564 1.20234 2.71407
4.51998 1.21001 2.75893
4.54226 1.22052 2.79461
4.5497 1.23037 2.85241
4.56092 1.23779 2.88122
4.55907 1.24009 2.90121
4.57734 1.2496 2.93593
4.57566 1.25622 2.97785
4.59585 1.26357 3.00259
4.58798 1.26483 3.01964
4.59821 1.27225 3.04845
4.6014 1.27662 3.07337
4.62789 1.29256 3.13794
4.62706 1.29589 3.1599
4.64325 1.30323 3.18368
4.6446 1.31092 3.23056
4.67862 1.33987 3.36289
4.68987 1.34833 3.39469
4.70936 1.36226 3.45834
4.71156 1.36765 3.48425
4.72593 1.37836 3.53299
4.72914 1.38376 3.55989
4.22819 1.03613 1.60854
4.23133 1.0384 1.62648
4.22943 1.03961 1.64048
4.24361 1.04593 1.66329
4.24675 1.0492 1.68122
4.2448 1.0493 1.68823
4.25697 1.05562 1.71005
4.26123 1.06113 1.74494
4.26336 1.06338 1.76189
4.27855 1.06973 1.78569
4.27861 1.07085 1.79367
4.2687 1.07003 1.80576
4.2859 1.0774 1.83152
4.29004 1.08067 1.84945
4.29519 1.08496 1.86935
4.30549 1.09253 1.90816
4.32088 1.10227 1.95891
4.32201 1.10554 1.97686
4.33533 1.11413 2.01763
4.33145 1.11537 2.03365
4.3496 1.12264 2.0524
4.3447 1.12285 2.06644
4.34885 1.12714 2.08635
4.35501 1.13145 2.10724
4.34913 1.13168 2.12228
4.36533 1.13906 2.14906
4.3725 1.14438 2.17093
4.37559 1.14654 2.18187
4.38476 1.15188 2.20473
4.38792 1.15519 2.22566
4.39408 1.15949 2.24655
4.3892 1.16073 2.26257
4.4024 1.16811 2.28837
4.41252 1.17232 2.30323
4.42286 1.18096 2.34703
4.41596 1.18118 2.36108
4.42917 1.18857 2.38788
4.42228 1.18979 2.40291
4.43549 1.19618 2.42972
4.4426 1.20038 2.44361
4.45883 1.20782 2.47338
4.46631 1.21974 2.53615
4.46545 1.22202 2.55513
4.48981 1.23469 2.60077
4.48192 1.23491 2.61582
4.4891 1.24026 2.63969
4.4983 1.24664 2.66553
4.49645 1.24894 2.68552
4.50666 1.25633 2.71233
4.5229 1.26478 2.74309
4.52197 1.26591 2.75208
4.52917 1.27129 2.77795
4.53234 1.27563 2.80087
4.5506 1.2851 2.83359
4.54875 1.2874 2.85358
4.55796 1.29379 2.88042
4.55821 1.29928 2.91334
4.57647 1.30877 2.94706
4.57161 1.31104 2.96507
4.58283 1.31847 2.99488
4.5991 1.32796 3.02862
4.59223 1.32922 3.04566
4.60539 1.33552 3.06647
4.61662 1.34296 3.09628
4.61075 1.34423 3.1143
4.62199 1.35168 3.14511
4.6282 1.35807 3.17198
4.64674 1.37411 3.24261
4.26413 1.11186 1.72616
4.30972 1.1509 1.93327
4.39184 1.20994 2.20882
4.41243 1.22706 2.28542
4.41559 1.23037 2.30635
4.42276 1.23571 2.32922
4.42793 1.24003 2.35112
4.43023 1.24662 2.39101
4.43332 1.24978 2.40194
4.45673 1.26354 2.45457
4.47635 1.28074 2.53618
4.48972 1.29144 2.58392
4.4949 1.29678 2.60681
4.5041 1.30216 2.63266
4.51045 1.31183 2.67848
4.52994 1.32676 2.74212
4.54333 1.33751 2.79287
4.54249 1.34082 2.81383
4.56175 1.35131 2.84753
4.56083 1.35246 2.85752
4.56602 1.35782 2.88241
4.57121 1.36319 2.90729
4.58042 1.3706 2.93512
4.58361 1.37496 2.96003
4.59886 1.38442 2.99178
4.60104 1.38878 3.0157
4.61673 1.4081 3.10531
4.63099 1.41657 3.13808
4.6382 1.42398 3.16592
4.64241 1.42938 3.19282
4.64953 1.43361 3.2087
4.65876 1.44105 3.23853
4.66297 1.44644 3.26542
4.66817 1.45284 3.29229
4.67339 1.45925 3.32016
4.67759 1.46465 3.34705
4.20974 1.11516 1.5415
4.26667 1.16286 1.7934
4.28732 1.1801 1.878
4.31201 1.19941 1.96754
4.32847 1.21229 2.02723
4.36357 1.24239 2.17054
4.19562 1.15487 1.52101
4.20377 1.15916 1.54089
4.23148 1.17851 1.63341
4.25124 1.19796 1.73199
4.28607 1.22155 1.84039
4.28218 1.22378 1.85539
4.36024 1.2837 2.12295
4.36762 1.29341 2.17176
4.39854 1.32017 2.29115
4.24999 1.22644 1.69657
4.2451 1.22665 1.71061
4.27584 1.24907 1.80706
4.2965 1.26734 1.89364
4.30667 1.27366 1.91547
4.30178 1.27387 1.92951
4.3149 1.28009 1.94532
4.32507 1.28641 1.96715
4.31818 1.28662 1.9812
4.32634 1.29193 2.00207
4.34054 1.2993 2.02785
4.33866 1.30154 2.04384
4.34275 1.30471 2.05576
4.35594 1.31206 2.07956
4.35707 1.31432 2.09752
4.36123 1.31863 2.11842
4.36338 1.32291 2.13735
4.36251 1.32516 2.15432
4.39085 1.33979 2.1979
4.38194 1.33898 2.20998
4.38711 1.3443 2.23187
4.39428 1.34962 2.25374
4.40045 1.35495 2.27661
4.40777 1.36355 2.31744
4.40985 1.36572 2.32839
4.45909 1.46899 2.48351
-2.37439 -0.504732 10.8764
-2.39204 -0.502993 10.7905
-2.43407 -0.500991 10.6537
-2.47121 -0.498216 10.5019
-2.47564 -0.497071 10.444
-2.49418 -0.496124 10.3721
-2.51564 -0.495012 10.3112
-2.53123 -0.494156 10.2333
-2.55265 -0.49297 10.1774
-2.59206 -0.489726 9.98966
-2.60567 -0.487916 9.90873
-2.62703 -0.487611 9.86088
-2.64548 -0.486486 9.80099
-2.66098 -0.485467 9.73409
-2.67649 -0.484463 9.66618
-2.6934 -0.482243 9.54526
-2.71569 -0.481805 9.50641
-2.72725 -0.480892 9.43248
-2.74468 -0.479724 9.37558
-2.76401 -0.479376 9.33072
-2.77555 -0.478434 9.25878
-2.77695 -0.477203 9.20676
-2.79626 -0.476811 9.1649
-2.80779 -0.47584 9.09496
-2.8271 -0.475448 9.05309
-2.84152 -0.474267 8.99718
-2.8579 -0.47301 8.94627
-3.38425 -0.442856 6.77349
-3.4014 -0.44314 6.75362
-3.40379 -0.442908 6.70163
-3.41699 -0.442298 6.67472
-3.41838 -0.441067 6.6227
-3.42253 -0.441361 6.60274
-3.43179 -0.440872 6.56779
-3.44794 -0.441157 6.54792
-3.46252 -0.439287 6.47099
-3.47906 -0.439341 6.3991
-3.49046 -0.438118 6.34617
-3.52151 -0.436168 6.20635
-3.54113 -0.435383 6.12348
-2.3757 -0.3775 10.8235
-2.3953 -0.376671 10.7436
-2.41387 -0.375783 10.6677
-2.43635 -0.375714 10.6039
-2.45491 -0.375797 10.53
-2.47442 -0.37479 10.4621
-2.49394 -0.374797 10.3933
-2.49545 -0.373803 10.3253
-2.51494 -0.373767 10.2594
-2.53442 -0.373685 10.1965
-2.55194 -0.372709 10.1266
-2.57044 -0.372673 10.0608
-2.58794 -0.371653 9.99389
-2.60639 -0.371528 9.93401
-2.60979 -0.371311 9.88103
-2.62727 -0.371246 9.81715
-2.64376 -0.370196 9.75225
-2.66318 -0.370012 9.69639
-2.68158 -0.369783 9.64351
-2.69512 -0.36984 9.57161
-2.71159 -0.368761 9.50871
-2.71493 -0.369425 9.46374
-2.72943 -0.368392 9.39782
-2.74684 -0.368193 9.34294
-2.76325 -0.367996 9.28805
-2.77675 -0.367964 9.22215
-2.79216 -0.367767 9.16725
-2.81053 -0.367479 9.11838
-2.80895 -0.36631 9.06234
-2.82632 -0.366023 9.01346
-2.84368 -0.365721 8.96558
-2.85613 -0.365601 8.90567
-2.87446 -0.365239 8.86179
-3.38334 -0.356162 6.7522
-3.39263 -0.355718 6.71426
-3.40683 -0.356108 6.68737
-3.41412 -0.35568 6.64841
-3.42734 -0.3561 6.61951
-3.43365 -0.355702 6.57855
-3.43187 -0.355133 6.54952
-3.44113 -0.355645 6.5146
-3.45039 -0.355142 6.48065
-3.45866 -0.354669 6.4447
-3.46791 -0.355166 6.41078
-3.48012 -0.354557 6.38386
-3.48542 -0.35516 6.3429
-3.4866 -0.3545 6.31989
-3.49781 -0.354921 6.29098
-3.50409 -0.354464 6.25402
-3.51531 -0.354886 6.2251
-3.52454 -0.354323 6.19516
-3.53082 -0.353882 6.1572
-3.54104 -0.354304 6.12828
-2.36833 -0.290893 10.8642
-2.38696 -0.291123 10.7803
-2.40462 -0.291414 10.6924
-2.41103 -0.291209 10.6385
-2.4511 -0.291297 10.4957
-2.46964 -0.29135 10.4239
-2.48917 -0.291373 10.354
-2.50771 -0.291425 10.2821
-2.52914 -0.291254 10.2253
-2.53159 -0.291141 10.1653
-2.54914 -0.291209 10.0924
-2.5657 -0.291293 10.0185
-2.58708 -0.291033 9.96768
-2.60362 -0.291087 9.8958
-2.62208 -0.291977 9.83494
-2.64246 -0.291717 9.78408
-2.65749 -0.29172 9.64818
-2.67784 -0.291402 9.60132
-2.69334 -0.291383 9.53443
-2.71077 -0.292214 9.47756
-2.73014 -0.291926 9.4287
-2.74409 -0.291781 9.30278
-2.76147 -0.292524 9.25192
-2.77497 -0.292506 9.18501
-2.79042 -0.292369 9.12612
-2.80874 -0.291992 9.08324
-2.82318 -0.292856 9.02436
-2.84192 -0.292293 8.92648
-2.85439 -0.292202 8.86456
-2.86977 -0.292946 8.81368
-3.38003 -0.296638 6.7873
-3.38439 -0.296331 6.74032
-3.43095 -0.297377 6.53266
-3.45145 -0.29734 6.4668
-3.50813 -0.297601 6.2442
-2.39317 -0.232614 10.7465
-2.40789 -0.23301 10.6516
-2.42938 -0.233957 10.5867
-2.44893 -0.234039 10.5129
-2.46943 -0.234001 10.447
-2.50993 -0.235919 10.2483
-2.53037 -0.235777 10.1895
-2.5479 -0.235801 10.1196
-2.56835 -0.236675 10.0597
-2.58584 -0.236625 9.99487
-2.58635 -0.237631 9.92688
-2.60383 -0.237566 9.863
-2.65233 -0.238478 9.66435
-2.67366 -0.239114 9.62052
-2.6872 -0.239171 9.54861
-2.69154 -0.239834 9.50365
-2.70894 -0.239621 9.44977
-2.73888 -0.24045 9.32499
-2.75336 -0.241373 9.2621
-2.76978 -0.241205 9.20522
-2.78812 -0.241858 9.16036
-2.80394 -0.24246 9.05147
-2.82618 -0.241918 9.01962
-2.83279 -0.243113 8.93868
-2.86943 -0.243345 8.85395
-3.38228 -0.256174 6.75071
-3.39549 -0.256579 6.72281
-3.40912 -0.256798 6.63991
-3.42725 -0.257051 6.62205
-3.42764 -0.257821 6.57005
-3.43178 -0.2571 6.55107
-3.45326 -0.258017 6.48824
-3.45561 -0.258696 6.44226
-3.46684 -0.258147 6.41133
-3.48004 -0.258538 6.38443
-3.4753 -0.259044 6.3504
-3.4997 -0.259812 6.29759
-3.50831 -0.26002 6.21565
-3.52741 -0.260198 6.20279
-3.53682 -0.260006 6.14785
-3.53816 -0.260671 6.10286
-3.54739 -0.261109 6.07294
-1.76916 -0.12476 13.2605
-1.65208 -0.0538699 13.6626
-1.68384 -0.0553423 13.5619
-1.71089 -0.0573809 13.4231
-1.74541 -0.0583776 13.3544
-3.5171 -0.172712 6.23542
-2.39153 -0.030585 10.6795
-2.41109 -0.0316814 10.6046
-3.38259 -0.115974 6.69563
-3.39798 -0.116733 6.64375
-3.43605 -0.119808 6.50207
-3.50315 -0.12589 6.22362
-3.53616 -0.128835 6.0909
-3.5454 -0.129302 6.05897
-1.6202 0.125613 13.7628
-1.75787 0.111487 13.2759
-2.38321 0.0399492 10.7153
-2.4018 0.037793 10.6365
-2.48339 0.0287737 10.2942
-2.50191 0.0267655 10.2254
-2.51943 0.0247418 10.1555
-2.61423 0.0143176 9.78534
-2.73379 0.001416 9.31437
-2.8123 -0.00747227 8.98104
-1.66873 0.216498 13.5497
-2.3635 0.121214 10.801
-2.38503 0.119194 10.7312
-2.42611 0.114106 10.5886
-2.44718 0.110019 10.4468
-2.46865 0.107117 10.385
-2.48915 0.10514 10.3181
-2.50865 0.103177 10.2523
-2.5262 0.101109 10.1794
-2.54179 0.0979652 10.1016
-2.56371 0.0941748 9.9798
-2.58218 0.0912556 9.91698
-2.60163 0.0893962 9.85814
-2.61911 0.0874613 9.7943
-2.6356 0.0855109 9.72944
-2.65645 0.081853 9.61664
-2.67293 0.0799174 9.55278
-2.6933 0.0782215 9.50495
-2.70487 0.0751048 9.42908
-2.72327 0.0733335 9.37623
-2.73969 0.0715163 9.32038
-2.75612 0.0696843 9.26352
-2.75654 0.0678555 9.20754
-2.77686 0.0662484 9.16571
-2.78839 0.0642204 9.09582
-2.80577 0.062478 9.04497
-2.81826 0.0605246 8.98008
-2.83755 0.0589613 8.94125
-2.83599 0.0571014 8.88325
-2.85822 0.0566733 8.85342
-2.87165 0.0548392 8.79654
-3.38035 -0.0126314 6.71809
-3.39455 -0.0140208 6.69121
-3.40384 -0.0145767 6.65329
-3.41606 -0.0159971 6.62439
-3.40937 -0.0166092 6.58335
-3.42061 -0.0180747 6.55145
-3.42593 -0.0197075 6.50851
-3.4421 -0.0200215 6.48663
-3.44642 -0.021655 6.44368
-3.46357 -0.0219386 6.42381
-3.47184 -0.0234656 6.38789
-3.47302 -0.0238053 6.3649
-3.48757 -0.0258756 6.29203
-3.49385 -0.0274336 6.2541
-3.50902 -0.0277483 6.23221
-3.52553 -0.0297431 6.16436
-3.53592 -0.0314907 6.11346
-1.66542 0.289021 13.5847
-1.69338 0.284161 13.4579
-1.7405 0.27899 13.3093
-2.44078 0.167719 10.4939
-2.46128 0.165757 10.428
-2.53978 0.152898 10.0968
-2.57773 0.148075 9.97211
-2.5923 0.144961 9.89626
-2.64906 0.136538 9.66278
-2.66649 0.133707 9.60594
-2.68199 0.131741 9.54008
-2.69944 0.12888 9.48125
-2.73035 0.125111 9.36052
-2.75011 0.12063 9.25972
-2.76654 0.118798 9.20286
-2.78197 0.116965 9.146
-2.8469 0.107222 8.8906
-3.38126 0.0274833 6.7255
-3.40297 0.0241222 6.6327
-3.41816 0.0237483 6.60682
-3.43176 0.0205738 6.52696
-3.443 0.019123 6.49606
-3.46151 0.0171296 6.42822
-3.4617 0.0167596 6.40322
-3.46996 0.0152622 6.3693
-3.47625 0.0136894 6.33037
-3.48648 0.0122527 6.30046
-3.49671 0.0118011 6.26954
-3.50003 0.0101817 6.22758
-3.50416 0.00991819 6.20962
-3.51537 0.00852664 6.18272
-3.5177 0.0068769 6.13875
-3.53186 0.00656143 6.11686
-3.54834 0.00462584 6.05301
-2.34833 0.248382 10.812
-2.38946 0.241191 10.6624
-2.40805 0.23805 10.5846
-2.42954 0.235103 10.5198
-2.44521 0.230797 10.431
-2.45255 0.229136 10.386
-2.49063 0.223047 10.2434
-2.5072 0.219934 10.1675
-2.52959 0.217195 10.1167
-2.54421 0.213977 10.0339
-2.5656 0.211237 9.98309
-2.61954 0.200457 9.72562
-2.65447 0.194662 9.60295
-2.668 0.191635 9.53309
-2.71014 0.18543 9.38248
-2.73814 0.179481 9.24976
-2.75358 0.176634 9.19191
-2.77096 0.174892 9.14106
-2.78873 0.170394 9.03924
-2.82053 0.165848 8.93353
-1.65114 0.465332 13.6049
-1.68004 0.459577 13.4852
-1.71086 0.453986 13.3765
-2.58308 0.277206 9.91223
-2.72215 0.251328 9.37459
-2.7892 0.238365 9.10425
-3.38048 0.123924 6.68706
-3.39369 0.122534 6.66018
-3.40296 0.121008 6.62427
-3.41223 0.119482 6.58836
-3.40947 0.118006 6.55635
-3.41874 0.11548 6.52045
-3.43293 0.11512 6.49556
-3.44021 0.113577 6.45864
-3.44947 0.112081 6.42472
-3.45774 0.110554 6.3888
-3.4652 0.107656 6.32789
-3.47544 0.10619 6.29599
-3.48271 0.104662 6.26006
-3.49392 0.103256 6.23216
-3.50414 0.101834 6.20326
-3.50944 0.100261 6.16431
-3.53104 0.0970918 6.08451
-3.5383 0.0955938 6.05058
-1.72035 0.531932 13.3044
-2.37309 0.383726 10.6982
-2.39555 0.380825 10.6364
-2.41511 0.376744 10.5626
-2.43467 0.372663 10.4888
-2.45225 0.36855 10.413
-2.47275 0.364573 10.3462
-2.49228 0.360551 10.2764
-2.49473 0.356665 10.2164
-2.51326 0.353642 10.1466
-2.53372 0.349754 10.0858
-2.55319 0.34685 10.024
-2.57165 0.342961 9.96318
-2.58432 0.338667 9.87533
-2.59161 0.336095 9.83642
-2.60715 0.332041 9.76458
-2.62655 0.32927 9.71176
-2.64111 0.325185 9.63792
-2.66051 0.322415 9.5851
-2.67601 0.318449 9.51927
-2.69441 0.315678 9.46644
-2.69291 0.3127 9.40046
-2.71228 0.309989 9.35164
-2.72675 0.306081 9.2898
-2.74416 0.30328 9.23497
-2.75864 0.300358 9.17211
-2.77698 0.297705 9.12728
-2.79436 0.294963 9.07645
-2.79476 0.292193 9.02448
-2.81114 0.28945 8.97364
-2.82851 0.286737 8.9248
-2.84197 0.282844 8.86396
-2.85736 0.2801 8.8131
-2.86883 0.277176 8.75023
-2.88422 0.274432 8.69938
-2.8875 0.272887 8.66242
-2.90091 0.269097 8.60857
-2.91334 0.266262 8.5517
-2.93359 0.264774 8.51787
-2.93622 0.260547 8.43494
-2.95645 0.259103 8.40411
-2.97276 0.256508 8.36326
-2.97016 0.253736 8.31128
-2.98647 0.251126 8.26943
-2.99787 0.24835 8.21655
-3.00928 0.245559 8.16267
-3.02654 0.244068 8.12882
-3.04087 0.241427 8.08496
-3.04216 0.239866 8.04699
-3.05353 0.237134 7.99711
-3.06686 0.234507 7.95424
-3.08118 0.232895 7.91237
-3.08958 0.230102 7.85846
-3.11721 0.225893 7.77572
-3.11554 0.223256 7.73274
-3.13276 0.221824 7.70289
-3.13919 0.218985 7.64597
-3.15445 0.217493 7.6121
-3.16579 0.214835 7.56722
-3.17317 0.212085 7.51631
-3.17933 0.210779 7.49537
-3.19065 0.209165 7.45348
-3.21425 0.205013 7.37471
-3.22752 0.20349 7.33882
-3.23293 0.199679 7.28391
-3.24423 0.19811 7.24502
-3.24644 0.196697 7.21705
-3.25478 0.194037 7.17215
-3.27 0.192604 7.14228
-3.28129 0.19105 7.10438
-3.29795 0.186774 7.01756
-3.31731 0.184078 6.96974
-3.34914 0.178472 6.86004
-3.35843 0.176902 6.82113
-3.36674 0.174316 6.78123
-3.37328 0.171254 6.70931
-3.41728 0.164318 6.57673
-3.4299 0.160113 6.49487
-3.45688 0.154223 6.36615
-3.47539 0.15023 6.29834
-3.49153 0.149975 6.28046
-3.49602 0.147001 6.21453
-3.50428 0.144504 6.18062
-2.34952 0.452724 10.766
-2.67429 0.374835 9.47742
-2.75976 0.355042 9.15031
-2.83915 0.336422 8.83514
-2.86307 0.329648 8.7144
-2.92289 0.315109 8.47303
-3.00537 0.296314 8.14589
-3.04862 0.286888 7.98033
-3.23727 0.244952 7.23427
-1.62676 0.720716 13.63
-2.35144 0.524806 10.7709
-2.37296 0.520785 10.7012
-2.39254 0.515675 10.6254
-2.41657 0.506679 10.4897
-2.43513 0.501597 10.4159
-2.45659 0.49771 10.3551
-2.47513 0.492658 10.2833
-2.49366 0.487635 10.2135
-2.51317 0.483643 10.1457
-2.51564 0.479741 10.0848
-2.5351 0.474838 10.023
-2.55165 0.470784 9.95114
-2.57111 0.466895 9.89033
-2.58858 0.46199 9.82853
-2.60414 0.457906 9.75469
-2.62354 0.454136 9.70189
-2.62791 0.450414 9.65297
-2.64245 0.446359 9.58113
-2.66088 0.442543 9.52532
-2.68025 0.439832 9.4765
-2.69572 0.434911 9.41368
-2.71119 0.431004 9.35184
-2.71455 0.428311 9.3049
-2.74448 0.419512 9.18224
-2.76382 0.41686 9.13742
-2.77633 0.412862 9.06956
-2.7937 0.40915 9.02074
-2.81009 0.406407 8.9699
-2.8095 0.402592 8.91495
-2.82392 0.398774 8.8591
-2.84224 0.396165 8.81727
-2.85568 0.392317 8.75942
-2.87303 0.389648 8.71359
-2.88938 0.386965 8.66674
-2.91459 0.376615 8.50706
-2.927 0.372824 8.45321
-2.94039 0.370079 8.40234
-2.95963 0.367605 8.36952
-2.9691 0.363694 8.30764
-2.97138 0.361148 8.27069
-2.98572 0.358492 8.22583
-2.99712 0.354716 8.17297
-3.01245 0.35209 8.13011
-3.02383 0.349344 8.07923
-3.03817 0.346703 8.03537
-3.04854 0.34297 7.9855
-3.05179 0.341484 7.95254
-3.06316 0.338782 7.90466
-3.07747 0.336185 7.8638
-3.09078 0.333573 7.82193
-3.10117 0.329826 7.77106
-3.11545 0.327289 7.7342
-3.12778 0.324646 7.69033
-3.15071 0.316842 7.5676
-3.16204 0.314214 7.52472
-3.17532 0.312661 7.48684
-3.18762 0.310078 7.44696
-3.19796 0.307419 7.40207
-3.21052 0.302348 7.32923
-3.23015 0.297119 7.24545
-3.24047 0.294505 7.20356
-3.25569 0.293072 7.17369
-3.26503 0.290427 7.12979
-3.26525 0.288983 7.09981
-3.27556 0.286399 7.05992
-3.28978 0.284965 7.03004
-3.36731 0.264077 6.69689
-3.3825 0.262703 6.67102
-3.39929 0.257176 6.56722
-3.42472 0.253351 6.51046
-3.44225 0.249327 6.44064
-1.63493 0.793299 13.601
-1.66671 0.785798 13.4983
-1.6956 0.777072 13.3806
-2.3533 0.586993 10.783
-2.45843 0.556942 10.3702
-2.47502 0.551799 10.2924
-2.51205 0.541813 10.1568
-2.56996 0.52411 9.90448
-2.59036 0.520341 9.85168
-2.60591 0.515286 9.77986
-2.67713 0.493987 9.48667
-2.69455 0.490185 9.43185
-2.71198 0.486354 9.37503
-2.77903 0.467392 9.10478
-2.79151 0.463453 9.04093
-2.86788 0.441861 8.72778
-2.89667 0.434343 8.62409
-2.91201 0.431688 8.57924
-2.96785 0.415131 8.33687
-2.98319 0.411477 8.29204
-3.00793 0.405044 8.1943
-3.02356 0.398812 8.1105
-3.03395 0.396065 8.05961
-3.05023 0.393529 8.02277
-3.09989 0.378309 7.80334
-3.11025 0.37562 7.75645
-3.12453 0.373068 7.71859
-3.13784 0.370471 7.67772
-3.17404 0.360144 7.51913
-3.19669 0.353902 7.43438
-3.207 0.351303 7.39349
-3.24509 0.342199 7.24989
-3.25343 0.339539 7.20499
-3.26373 0.336954 7.1651
-3.28039 0.330664 7.0773
-3.30514 0.324216 6.97857
-3.31935 0.322812 6.9507
-3.33695 0.317656 6.87189
-3.34921 0.315161 6.83802
-3.35771 0.311176 6.77113
-3.36996 0.308711 6.73926
-3.38654 0.303583 6.66245
-3.39286 0.300951 6.61953
-3.4031 0.299485 6.58762
-3.40844 0.295838 6.54371
-3.41888 0.291972 6.48484
-3.43012 0.290521 6.45394
-3.43937 0.288025 6.42004
-3.45059 0.286618 6.39214
-3.4628 0.285198 6.36325
-3.46927 0.281285 6.30135
-3.47557 0.278712 6.26243
-3.49503 0.274823 6.20163
-3.5092 0.273493 6.17875
-3.51466 0.269594 6.11784
-1.71345 0.863284 13.2585
-2.3597 0.661116 10.723
-2.36611 0.656307 10.6681
-2.38761 0.651345 10.6023
-2.40622 0.645175 10.5225
-2.42576 0.639123 10.4508
-2.44531 0.634072 10.379
-2.46385 0.62802 10.3072
-2.48337 0.623027 10.2394
-2.48681 0.618172 10.1815
-2.5248 0.60826 10.0509
-2.54523 0.604417 9.99312
-2.55983 0.598273 9.91531
-2.57927 0.593414 9.85652
-2.59679 0.58842 9.78871
-2.64866 0.568802 9.54236
-2.66612 0.564912 9.48154
-2.68354 0.560095 9.42574
-2.70096 0.556294 9.37092
-2.70334 0.552541 9.31998
-2.72075 0.547754 9.26618
-2.73524 0.542803 9.20135
-2.75067 0.538985 9.14551
-2.76904 0.535273 9.0967
-2.78153 0.53032 9.03186
-2.79695 0.526503 8.97602
-2.82912 0.514247 8.82243
-2.84548 0.510548 8.7746
-2.8589 0.506729 8.71875
-2.87233 0.502895 8.6619
-2.91877 0.488117 8.47244
-2.93021 0.484266 8.41458
-2.9436 0.480521 8.36373
-2.95598 0.476775 8.31287
-2.98891 0.466979 8.19024
-3.01563 0.460592 8.09553
-3.02996 0.456966 8.05268
-3.03741 0.453083 7.99279
-3.09297 0.43806 7.7864
-3.1137 0.430654 7.69065
-3.11987 0.429333 7.66872
-3.15485 0.419434 7.53911
-3.17749 0.414207 7.45534
-3.1888 0.410594 7.41348
-3.21363 0.402984 7.30376
-3.23526 0.396771 7.221
-3.24852 0.394277 7.18714
-3.25808 0.389189 7.11327
-3.27035 0.386665 7.0774
-3.28798 0.380449 6.99461
-3.30024 0.378955 6.96072
-3.35086 0.363809 6.7463
-3.37556 0.357466 6.65457
-3.4014 0.349841 6.54386
-3.41165 0.347346 6.50997
-3.42091 0.344849 6.47607
-3.4416 0.338517 6.38531
-3.45282 0.337081 6.35541
-3.45814 0.333478 6.3145
-3.47034 0.332088 6.2876
-3.49 0.326799 6.19982
-3.49825 0.324317 6.16691
-3.52103 0.316824 6.06518
-1.60013 0.967617 13.6901
-1.61839 0.964113 13.6553
-1.64921 0.955537 13.5477
-1.67909 0.944842 13.432
-3.05339 0.497075 7.99126
-3.11633 0.476318 7.735
-3.12864 0.47372 7.69413
-3.18653 0.455076 7.44581
-3.21111 0.448954 7.36907
-3.24327 0.437713 7.21646
-3.26486 0.43156 7.1377
-3.27714 0.429036 7.10183
-3.29772 0.422911 7.02506
-3.30702 0.420326 6.98516
-3.30923 0.417928 6.95821
-3.3195 0.415402 6.92232
-3.32682 0.411771 6.87943
-3.34005 0.410337 6.84954
-3.34738 0.406706 6.80665
-3.38035 0.39782 6.67801
-3.39258 0.395385 6.64813
-3.3979 0.391753 6.60522
-3.41014 0.390302 6.57433
-3.41842 0.387761 6.53742
-3.42985 0.382926 6.48057
-3.43911 0.380429 6.44668
-3.44145 0.37675 6.40074
-3.4576 0.376465 6.38086
-3.46588 0.373939 6.34496
-3.47413 0.371441 6.31105
-3.47944 0.367838 6.27014
-3.48455 0.366635 6.2562
-3.48985 0.364062 6.21727
-3.50106 0.36264 6.18837
-3.51129 0.360204 6.15848
-3.52151 0.358782 6.12957
-3.52778 0.355269 6.09467
-3.5301 0.352634 6.05172
-3.54014 0.352567 6.04679
-1.62344 1.0549 13.64
-2.34919 0.795938 10.7779
-2.41531 0.770842 10.4987
-2.43387 0.76376 10.425
-2.45535 0.758829 10.3612
-2.51438 0.734905 10.094
-2.53483 0.730047 10.0352
-2.55234 0.724053 9.96739
-2.57083 0.71812 9.90361
-2.58637 0.712065 9.83181
-2.62473 0.696444 9.65331
-2.64511 0.691704 9.60252
-2.66158 0.686798 9.54071
-2.67806 0.680878 9.47791
-2.69256 0.675912 9.41209
-2.73173 0.661661 9.25857
-2.7597 0.650772 9.12993
-2.77707 0.64706 9.08111
-2.80694 0.637379 8.96646
-2.82664 0.629032 8.87472
-2.83715 0.623033 8.80688
-2.85351 0.61935 8.76005
-2.88134 0.609757 8.65138
-2.91242 0.597663 8.50878
-2.92874 0.594038 8.46595
-2.94214 0.590264 8.4131
-2.96693 0.580742 8.30941
-2.99888 0.570916 8.18478
-3.00342 0.564853 8.11289
-3.02265 0.562423 8.08307
-3.03601 0.558737 8.03622
-3.06169 0.550424 7.94652
-3.05904 0.546741 7.90055
-3.10294 0.537012 7.78201
-3.10742 0.532068 7.71811
-3.12366 0.529606 7.68626
-3.12198 0.525983 7.6443
-3.13527 0.522431 7.60644
-3.14956 0.519879 7.56859
-3.1599 0.51622 7.52371
-3.16927 0.511502 7.47484
-3.18254 0.508978 7.43898
-3.19877 0.506546 7.40913
-3.19508 0.502922 7.36715
-3.21377 0.495604 7.27739
-3.22507 0.49202 7.23752
-3.24668 0.485837 7.15676
-3.25797 0.483282 7.11888
-3.2847 0.475866 7.02218
-3.30527 0.469771 6.94741
-3.36321 0.449024 6.69212
-3.42002 0.430513 6.45279
-3.44012 0.430335 6.43994
-3.44859 0.425424 6.37807
-3.46119 0.418264 6.29926
-3.48263 0.414406 6.24047
-3.49107 0.409554 6.1826
-3.50856 0.404605 6.1178
-1.64215 1.12642 13.5391
-2.35449 0.856254 10.7311
-2.37502 0.849233 10.6613
-2.39906 0.836223 10.5247
-2.41956 0.830261 10.4589
-2.43908 0.824269 10.3911
-2.45762 0.817217 10.3194
-2.47811 0.811284 10.2556
-2.49371 0.804112 10.1758
-2.51223 0.798119 10.108
-2.51662 0.793367 10.0571
-2.53513 0.786375 9.98935
-2.55165 0.78038 9.92155
-2.57012 0.774476 9.85977
-2.58565 0.768451 9.78996
-2.60703 0.763712 9.73919
-2.62352 0.757777 9.67539
-2.62593 0.75198 9.62149
-2.64238 0.747104 9.56168
-2.65786 0.741168 9.49787
-2.67628 0.736367 9.44307
-2.69274 0.730491 9.38328
-2.7082 0.7246 9.32247
-2.72365 0.719723 9.26265
-2.72992 0.716209 9.22775
-2.74145 0.710182 9.15791
-2.75492 0.704274 9.09609
-2.77719 0.700758 9.06031
-2.78966 0.695849 8.99847
-2.80605 0.691106 8.94765
-2.81034 0.687532 8.90873
-2.82476 0.682714 8.8529
-2.83428 0.675714 8.78507
-2.85259 0.672121 8.74426
-2.86505 0.667227 8.68341
-2.88138 0.663603 8.64059
-2.89772 0.658949 8.59577
-2.90755 0.649328 8.48597
-2.92389 0.644689 8.44216
-2.93628 0.640928 8.3903
-2.94673 0.635062 8.33146
-2.96498 0.632572 8.29763
-2.99203 0.61955 8.16
-3.00341 0.615818 8.11014
-3.01772 0.612207 8.06829
-3.02813 0.607415 8.01444
-3.04047 0.602758 7.96959
-3.059 0.596751 7.90081
-3.06841 0.591943 7.84595
-3.07975 0.588286 7.80108
-3.09208 0.584658 7.75822
-3.10834 0.582167 7.72437
-3.11575 0.577373 7.67049
-3.11995 0.574977 7.64356
-3.13128 0.570334 7.5997
-3.14358 0.567765 7.56083
-3.15589 0.564167 7.51997
-3.16328 0.559418 7.46909
-3.18049 0.557016 7.44125
-3.19181 0.553403 7.39938
-3.19205 0.550929 7.36742
-3.21269 0.543686 7.28267
-3.23724 0.537624 7.20993
-3.24558 0.533964 7.16504
-3.26277 0.531606 7.1402
-3.25711 0.527951 7.09621
-3.2674 0.524381 7.05734
-3.28995 0.518332 6.98559
-3.29926 0.514732 6.9447
-3.31248 0.512298 6.91483
-3.31981 0.508667 6.87194
-3.33227 0.503773 6.8111
-3.34451 0.501308 6.77922
-3.34887 0.496616 6.73232
-3.36013 0.494121 6.69843
-3.3763 0.492792 6.67557
-3.37749 0.490423 6.65061
-3.39406 0.484325 6.57582
-3.40234 0.480783 6.53893
-3.4116 0.478287 6.50503
-3.41889 0.475715 6.46612
-3.43209 0.473325 6.43925
-3.45177 0.466022 6.35049
-3.45708 0.462419 6.30958
-3.4726 0.456409 6.24078
-3.49324 0.450181 6.15701
-3.50544 0.44779 6.13013
-3.51368 0.445323 6.09823
-3.52094 0.442825 6.06432
-1.63085 1.2119 13.5707
-1.65983 1.19899 13.4411
-1.68967 1.18739 13.3315
-1.70698 1.18379 13.2907
-2.32897 0.929175 10.7938
-2.34857 0.922005 10.714
-2.37204 0.915105 10.6523
-2.39257 0.909084 10.5825
-2.45373 0.879926 10.2994
-2.47225 0.873918 10.2306
-2.49465 0.86815 10.1779
-2.51126 0.860978 10.0981
-2.52877 0.853984 10.0303
-2.54973 0.841135 9.90463
-2.57014 0.836336 9.84985
-2.58374 0.828177 9.77106
-2.61966 0.816412 9.65049
-2.64005 0.811672 9.59971
-2.64244 0.805905 9.5478
-2.66281 0.802194 9.49901
-2.67244 0.792973 9.4162
-2.6967 0.790487 9.38242
-2.70631 0.782296 9.3016
-2.73528 0.770437 9.17498
-2.74544 0.768119 9.15308
-2.75503 0.759987 9.07627
-2.77922 0.758619 9.05047
-2.78391 0.749276 8.95963
-2.80518 0.745759 8.92383
-2.81767 0.739821 8.86001
-2.82293 0.736307 8.82509
-2.86421 0.72085 8.65761
-2.88249 0.717316 8.6208
-2.89102 0.710286 8.55095
-2.91323 0.707888 8.52315
-2.90965 0.702057 8.46721
-2.94035 0.693718 8.37555
-2.95275 0.688942 8.3227
-2.96514 0.684197 8.27186
-2.98143 0.680631 8.23303
-2.99188 0.674766 8.17419
-3.03322 0.658191 7.99872
-3.0436 0.653444 7.94786
-3.0589 0.649878 7.90902
-3.07517 0.647357 7.87318
-3.09521 0.634329 7.7355
-3.13218 0.622462 7.60794
-3.14059 0.617684 7.55507
-3.20037 0.596234 7.3198
-3.27253 0.570069 7.0357
-3.29608 0.564021 6.96395
-3.31762 0.557971 6.89219
-3.34015 0.551951 6.82244
-3.35064 0.546012 6.7586
-3.36725 0.538825 6.67782
-3.39268 0.534 6.62108
-3.39014 0.528095 6.56014
-1.70028 1.26508 13.2424
-2.34242 0.995215 10.7279
-2.38061 0.977919 10.5714
-2.42162 0.963966 10.4379
-2.47972 0.93491 10.1618
-2.49629 0.926827 10.088
-2.51868 0.922073 10.0362
-2.5736 0.895355 9.78299
-2.59012 0.88836 9.71521
-2.60855 0.88253 9.65843
-2.62894 0.87779 9.60765
-2.63229 0.873112 9.56173
-2.66619 0.860376 9.44316
-2.67973 0.853335 9.37236
-2.69519 0.846444 9.31157
-2.70966 0.840537 9.24976
-2.73194 0.837005 9.21297
-2.77764 0.813724 8.98963
-2.79111 0.807816 8.92781
-2.80943 0.803193 8.88501
-2.82287 0.797344 8.82719
-2.87034 0.778523 8.6348
-2.88374 0.772748 8.58198
-2.9086 0.761094 8.46932
-2.96438 0.737657 8.23506
-2.98262 0.735197 8.20323
-2.99109 0.728285 8.14139
-3.03534 0.712876 7.97692
-3.04572 0.707144 7.92708
-3.05806 0.703487 7.88222
-3.10667 0.68237 7.66987
-3.20436 0.648202 7.31706
-3.2272 0.637561 7.20538
-3.24584 0.629332 7.12163
-3.3633 0.586669 6.66708
-3.4118 0.568759 6.46869
-1.71126 1.34902 13.2373
-2.32473 1.07345 10.8116
-2.33951 1.06194 10.7089
-2.38157 1.0469 10.5694
-2.39919 1.03771 10.4887
-2.42069 1.03075 10.4229
-2.44022 1.02273 10.3532
-2.48366 1.00195 10.1638
-2.52069 0.986964 10.0283
-2.53627 0.978851 9.9525
-2.55668 0.973067 9.89873
-2.57466 0.958156 9.76907
-2.6106 0.944362 9.64653
-2.62516 0.936278 9.57275
-2.64648 0.932657 9.52996
-2.66003 0.924601 9.45817
-2.66828 0.921119 9.42528
-2.70018 0.908396 9.30769
-2.71272 0.90034 9.23589
-2.73012 0.894568 9.1831
-2.74167 0.886511 9.1113
-2.76392 0.884039 9.0785
-2.78267 0.872588 8.97979
-2.7942 0.86556 8.90998
-2.81251 0.860967 8.86918
-2.82499 0.854044 8.80636
-2.85674 0.843602 8.70774
-2.86102 0.840057 8.67082
-2.86955 0.832028 8.601
-2.88783 0.828493 8.56418
-2.91659 0.818035 8.46454
-2.92608 0.811094 8.40071
-2.93228 0.808699 8.37378
-2.94274 0.801804 8.31296
-2.96751 0.791328 8.21229
-2.98577 0.787838 8.17847
-2.99522 0.781957 8.11862
-3.01248 0.778466 8.0848
-3.03554 0.763411 7.94517
-3.04987 0.758785 7.90234
-3.06319 0.755174 7.86049
-3.07357 0.749426 7.80965
-3.08591 0.74477 7.7648
-3.1128 0.733058 7.64816
-3.1345 0.723712 7.55645
-3.14877 0.72019 7.52061
-3.15714 0.714471 7.47175
-3.20461 0.695634 7.27836
-3.34774 0.641673 6.73516
-3.3675 0.631208 6.63545
-1.60843 1.48234 13.5996
-1.63739 1.46749 13.474
-1.66534 1.45167 13.3494
-1.69709 1.44022 13.2508
-2.32419 1.14045 10.7436
-2.34763 1.13361 10.6859
-2.36722 1.12449 10.6092
-2.38773 1.11649 10.5414
-2.40535 1.10731 10.4607
-2.42389 1.09826 10.3889
-2.44441 1.09127 10.3212
-2.44883 1.08444 10.2653
-2.4654 1.07534 10.1906
-2.48685 1.06849 10.1318
-2.50631 1.06161 10.0721
-2.52481 1.05465 10.0063
-2.54135 1.04561 9.93555
-2.56175 1.03984 9.88278
-2.56224 1.03189 9.81889
-2.58071 1.02499 9.75712
-2.61562 1.01124 9.63758
-2.63212 1.00428 9.57179
-2.64955 0.997445 9.51502
-2.66796 0.991659 9.46123
-2.66935 0.984891 9.40934
-2.68777 0.97909 9.35456
-2.70128 0.971109 9.28777
-2.71868 0.965337 9.23497
-2.73607 0.959595 9.18418
-2.74955 0.952658 9.12038
-2.75289 0.947009 9.07648
-2.76732 0.941176 9.01967
-2.78079 0.934268 8.95786
-2.79815 0.928586 8.91107
-2.8155 0.923918 8.86527
-2.82796 0.917024 8.80445
-2.84663 0.906721 8.71573
-2.90711 0.885879 8.52147
-2.93716 0.869859 8.38392
-2.94759 0.864023 8.32707
-3.0959 0.801726 7.76103
-3.11761 0.791351 7.66734
-3.14964 0.777377 7.53277
-3.15286 0.77395 7.50384
-3.1681 0.770487 7.472
-3.18778 0.76117 7.38228
-3.20104 0.757676 7.34842
-3.21038 0.753017 7.30356
-3.22071 0.748388 7.2607
-3.22684 0.746127 7.24277
-3.23224 0.740361 7.19089
-3.24156 0.735731 7.14803
-3.25383 0.732223 7.11316
-3.26413 0.727638 7.0733
-3.27246 0.724008 7.03042
-3.28592 0.717115 6.96961
-3.30256 0.707884 6.88586
-3.32803 0.701985 6.82413
-3.33654 0.694985 6.75629
-3.35905 0.688025 6.69055
-3.37562 0.679912 6.61479
-3.39614 0.673921 6.54702
-3.40519 0.673824 6.54009
-3.40757 0.668086 6.49019
-3.4188 0.66465 6.46032
-3.42215 0.659957 6.41341
-3.43928 0.658717 6.39655
-3.44065 0.653008 6.34864
-3.48471 0.639954 6.20815
-3.48509 0.634229 6.15923
-3.49333 0.630761 6.12733
-3.5179 0.623669 6.05261
-2.33719 1.20937 10.7367
-2.35486 1.19809 10.65
-2.43658 1.15384 10.2922
-2.45511 1.14583 10.2235
-2.47558 1.13791 10.1607
-2.53452 1.10718 9.90658
-2.55397 1.10032 9.84782
-2.5705 1.0913 9.77807
-2.64374 1.05599 9.4841
-2.6641 1.05029 9.43633
-2.67763 1.04227 9.36655
-2.69743 1.02973 9.26187
-2.7158 1.02402 9.21308
-2.72834 1.01498 9.1423
-2.74476 1.00917 9.0875
-2.76017 1.00239 9.03371
-2.7756 0.995554 8.97692
-2.81073 0.97839 8.82942
-2.82707 0.972721 8.78362
-2.84051 0.965888 8.72681
-2.85883 0.961265 8.68402
-2.87324 0.955491 8.6312
-2.88406 0.941901 8.52347
-2.89747 0.936111 8.46965
-2.91281 0.930442 8.42384
-2.92913 0.925847 8.38303
-2.93861 0.918907 8.31919
-2.95491 0.914342 8.28038
-2.98392 0.898395 8.14781
-3.0012 0.89486 8.11099
-3.00964 0.888008 8.05315
-3.02299 0.882337 8.00733
-3.04899 0.867403 7.87573
-3.06426 0.863881 7.83989
-3.0717 0.857028 7.78204
-3.08698 0.852492 7.74521
-3.10127 0.84894 7.70737
-3.11192 0.83869 7.62259
-3.12423 0.834092 7.58174
-3.13457 0.828434 7.5369
-3.14591 0.823776 7.49205
-3.16311 0.821389 7.46521
-3.18404 0.807599 7.34355
-3.20665 0.798417 7.26285
-3.21893 0.794893 7.22699
-3.22827 0.789234 7.18214
-3.27266 0.769559 6.99974
-3.28098 0.764928 6.95686
-3.3243 0.7454 6.78446
-3.34681 0.73841 6.71672
-3.35511 0.734839 6.67783
-3.37584 0.724419 6.58113
-3.41488 0.70942 6.44462
-3.51498 0.66644 6.03696
-1.64691 1.62127 13.3898
-1.67673 1.60669 13.2822
-2.33722 1.27223 10.7268
-2.35487 1.26198 10.642
-2.3725 1.25077 10.5593
-2.39688 1.24504 10.5096
-2.41451 1.23383 10.4269
-2.43401 1.22587 10.3611
-2.45159 1.21575 10.2854
-2.45698 1.20899 10.2335
-2.47551 1.20098 10.1648
-2.49694 1.19415 10.108
-2.51349 1.18409 10.0353
-2.53293 1.17724 9.97754
-2.57428 1.15465 9.80116
-2.5898 1.14564 9.7324
-2.62182 1.12868 9.59888
-2.63828 1.12181 9.53909
-2.67748 1.10148 9.38067
-2.6949 1.09468 9.32589
-2.71133 1.08787 9.27011
-2.77738 1.05492 9.00106
-2.78886 1.047 8.93825
-2.8072 1.04134 8.89347
-2.81966 1.03445 8.83266
-2.84947 1.02089 8.72607
-2.85472 1.01742 8.69415
-2.86616 1.00955 8.63535
-2.88054 1.00382 8.58554
-2.89592 0.99811 8.53673
-2.92368 0.985651 8.43711
-2.93739 0.97427 8.34337
-2.95369 0.96969 8.30355
-2.96707 0.96296 8.25375
-2.97847 0.957184 8.20091
-2.99084 0.951483 8.15308
-3.00451 0.940191 8.06534
-3.02274 0.936746 8.03452
-3.03313 0.930998 7.98368
-3.04352 0.924237 7.93185
-3.0598 0.920716 7.89602
-3.08348 0.910401 7.80634
-3.08377 0.904839 7.76842
-3.0961 0.900212 7.72557
-3.10645 0.894524 7.67873
-3.12271 0.891033 7.6449
-3.13305 0.885374 7.60005
-3.14438 0.880746 7.5572
-3.15696 0.871631 7.48142
-3.17024 0.867093 7.44458
-3.17958 0.862434 7.39972
-3.20122 0.852207 7.31602
-3.21447 0.848714 7.28217
-3.2238 0.843084 7.23931
-3.22307 0.838551 7.20337
-3.24026 0.836194 7.17853
-3.24762 0.830503 7.13167
-3.25889 0.826979 7.0958
-3.27017 0.82244 7.05894
-3.27751 0.817779 7.01406
-3.28977 0.814285 6.9802
-3.28803 0.809781 6.94625
-3.30127 0.806317 6.9144
-3.31155 0.801777 6.87754
-3.31986 0.797191 6.83766
-3.32718 0.792575 6.79578
-3.35264 0.785691 6.73506
-3.35187 0.782246 6.70511
-3.36409 0.778811 6.67525
-3.37731 0.776392 6.64638
-3.38068 0.770684 6.59848
-3.39487 0.768324 6.57362
-3.40315 0.763783 6.53674
-3.39548 0.758141 6.49376
-3.41263 0.756857 6.47391
-3.41892 0.752285 6.43502
-3.42226 0.746636 6.39112
-3.43842 0.745337 6.37026
-3.4457 0.74078 6.33238
-3.44902 0.736161 6.29046
-3.45612 0.734974 6.27753
-3.46733 0.731568 6.24966
-3.48779 0.725695 6.1899
-3.49111 0.721061 6.14698
-3.49541 0.716487 6.10808
-3.51352 0.715293 6.09423
-3.51272 0.711893 6.06727
-2.8685 1.05184 8.58673
-2.95211 1.00781 8.24397
-2.99545 0.986239 8.06859
-3.02312 0.975957 7.98094
-3.03253 0.969164 7.9271
-3.03773 0.964769 7.9002
-3.06143 0.954425 7.80852
-3.16126 0.908993 7.4379
-3.16963 0.903274 7.38904
-3.17995 0.897646 7.34619
-3.22638 0.874898 7.15885
-3.24897 0.865775 7.08215
-3.34393 0.820058 6.69249
-2.45052 1.34771 10.2814
-2.56298 1.28506 9.82815
-3.45488 0.828318 6.30014
-3.46216 0.823791 6.26426
-3.49185 0.813451 6.17263
-3.50951 0.803177 6.0859
-3.52895 0.796333 6.02814
-2.32837 1.47966 10.6876
-2.35375 1.47294 10.6379
-2.37779 1.45293 10.5014
-2.39832 1.44291 10.4317
-2.41594 1.43073 10.351
-2.43448 1.42067 10.2792
-2.45594 1.4118 10.2195
-2.47351 1.40071 10.1448
-2.48083 1.39509 10.1029
-2.49448 1.38184 10.0182
-2.51493 1.37397 9.95849
-2.53342 1.36504 9.89475
-2.55384 1.35724 9.84002
-2.56841 1.34614 9.76528
-2.58882 1.33935 9.71153
-2.5922 1.33162 9.66166
-2.60578 1.3205 9.58592
-2.62711 1.31487 9.54215
-2.64458 1.30596 9.48041
-2.65813 1.29591 9.40865
-2.67652 1.28817 9.3579
-2.69492 1.28141 9.30613
-2.69437 1.27252 9.24625
-2.71178 1.26474 9.19248
-2.72332 1.25469 9.12171
-2.74463 1.24912 9.08195
-2.76005 1.2413 9.02617
-2.77546 1.23451 8.97238
-2.78797 1.22455 8.90661
-2.7903 1.2179 8.86273
-2.80764 1.21224 8.81793
-2.82013 1.20331 8.75415
-2.83259 1.19443 8.69437
-2.84991 1.1888 8.65158
-2.86431 1.18203 8.59878
-2.88001 1.16868 8.50708
-2.89537 1.162 8.46029
-2.9078 1.15418 8.40449
-2.92412 1.14957 8.36267
-2.9375 1.14184 8.31288
-2.95219 1.1295 8.22216
-2.96653 1.12385 8.17735
-2.97892 1.1161 8.12655
-2.99617 1.11263 8.09373
-3.0056 1.10479 8.03691
-3.01895 1.09812 7.9911
-3.03426 1.09354 7.95128
-3.04789 1.08132 7.86855
-3.08 1.06218 7.72305
-3.10114 1.05992 7.70425
-3.11374 1.04876 7.62549
-3.1241 1.04307 7.57865
-3.13937 1.03855 7.54283
-3.1507 1.03292 7.49999
-3.16102 1.02729 7.45715
-3.17432 1.02172 7.41832
-3.18785 1.01271 7.34955
-3.19916 1.00711 7.30871
-3.22815 0.990197 7.17816
-3.24042 0.985689 7.14332
-3.24559 0.983367 7.12139
-3.25293 0.976706 7.07653
-3.28874 0.963149 6.96999
-3.29411 0.957443 6.92211
-3.30561 0.948475 6.85632
-3.31588 0.94395 6.82046
-3.3384 0.934945 6.75175
-3.3467 0.930374 6.71288
-3.36091 0.926985 6.68603
-3.3552 0.921404 6.64706
-3.36744 0.917939 6.6152
-3.37968 0.91349 6.58436
-3.39189 0.911084 6.55648
-3.39822 0.905453 6.51361
-3.41774 0.896461 6.44588
-3.41497 0.892 6.41492
-3.43112 0.890716 6.39506
-3.43349 0.884007 6.34717
-3.4447 0.880601 6.3193
-3.45889 0.878242 6.29444
-3.46123 0.871578 6.24955
-3.47148 0.868112 6.21767
-3.47166 0.864757 6.19372
-3.49211 0.857898 6.13496
-3.49839 0.853356 6.09807
-3.51058 0.850994 6.0732
-3.51094 0.844285 6.02529
-2.42485 1.48183 10.3573
-2.44244 1.4697 10.2806
-2.48583 1.44303 10.0983
-2.5053 1.43413 10.0365
-2.79906 1.26631 8.89008
-3.2157 1.03503 7.23441
-3.22723 1.025 7.16464
-3.24147 1.02154 7.13279
-3.26404 1.01144 7.0581
-3.27334 1.00587 7.01925
-3.29295 0.995705 6.93954
-3.29415 0.991306 6.91261
-3.30541 0.986811 6.87875
-3.31274 0.98118 6.83589
-3.32695 0.977776 6.80804
-3.34257 0.967575 6.7263
-3.35382 0.963109 6.69444
-3.35797 0.960816 6.6745
-3.36232 0.954139 6.62863
-3.37651 0.950765 6.60278
-3.39112 0.940592 6.52303
-3.40235 0.937156 6.49316
-3.40885 0.928184 6.42734
-3.42008 0.923749 6.39748
-3.43427 0.921389 6.37262
-3.44055 0.916846 6.33573
-3.44487 0.911228 6.29384
-3.45611 0.906777 6.26299
-3.46929 0.904417 6.23812
-3.46749 0.901031 6.21215
-3.4787 0.897625 6.18428
-3.48104 0.890976 6.14039
-3.49422 0.88863 6.11652
-3.50445 0.885194 6.08665
-3.50775 0.879604 6.04675
-2.3529 1.59847 10.605
-2.37539 1.58854 10.5413
-2.43459 1.54331 10.2534
-2.45412 1.53228 10.1837
-2.47458 1.52341 10.124
-2.49307 1.51346 10.0593
-2.49555 1.50355 9.99743
-2.516 1.49468 9.93771
-2.53448 1.48477 9.87599
-2.55198 1.47479 9.80926
-2.57046 1.46489 9.74753
-2.58696 1.45493 9.6818
-2.60539 1.44711 9.62604
-2.60975 1.4394 9.57818
-2.62624 1.42947 9.51445
-2.64563 1.42171 9.4627
-2.67853 1.40399 9.34519
-2.71283 1.3775 9.17582
-2.72925 1.36969 9.12005
-2.74565 1.36191 9.06728
-2.75913 1.35201 9.00552
-2.77748 1.34534 8.95975
-2.80674 1.31991 8.79433
-2.82213 1.31316 8.74354
-2.83652 1.3054 8.69175
-2.85193 1.29763 8.63898
-2.88265 1.28325 8.54441
-2.89704 1.2765 8.49361
-2.89737 1.26885 8.44972
-2.90883 1.25997 8.38993
-2.92611 1.25544 8.35312
-2.9395 1.24769 8.30233
-2.95288 1.23996 8.25254
-2.96428 1.2322 8.20073
-2.97049 1.22879 8.17283
-2.9809 1.22 8.11903
-2.9972 1.21444 8.08023
-3.00858 1.20769 8.02941
-3.02193 1.20103 7.9846
-3.04692 1.18112 7.85406
-3.06123 1.17552 7.81325
-3.07848 1.17206 7.78142
-3.08689 1.16327 7.72761
-3.09922 1.15762 7.68378
-3.11181 1.14649 7.60703
-3.12217 1.13879 7.55922
-3.13939 1.13537 7.53039
-3.14874 1.1287 7.48456
-3.15909 1.12204 7.43973
-3.17336 1.11752 7.40389
-3.18173 1.11082 7.35605
-3.18395 1.10639 7.32713
-3.20852 1.0963 7.25245
-3.21786 1.08964 7.20762
-3.23013 1.08511 7.17177
-3.24241 1.07958 7.13494
-3.25174 1.07395 7.09209
-3.25393 1.07058 7.06715
-3.25933 1.06281 7.0153
-3.2706 1.05729 6.97946
-3.28483 1.05386 6.94961
-3.29215 1.04822 6.90675
-3.30441 1.04374 6.8739
-3.31765 1.03928 6.84206
-3.31491 1.03378 6.80812
-3.32421 1.02819 6.76827
-3.33546 1.02371 6.73541
-3.34179 1.01808 6.69254
-3.36824 1.01123 6.63383
-3.37575 1.00124 6.56703
-3.38895 0.99785 6.54017
-3.39528 0.992219 6.4973
-3.41183 0.982166 6.42556
-3.42503 0.978776 6.39871
-3.43034 0.973173 6.35782
-3.43349 0.969894 6.33889
-3.4388 0.964292 6.29801
-3.45299 0.961932 6.27315
-3.46125 0.957435 6.23927
-3.47344 0.954059 6.21341
-3.48072 0.949532 6.17753
-3.47992 0.945147 6.15158
-3.48719 0.940619 6.1157
-3.50862 0.933806 6.05995
-2.8004 1.45139 8.82634
-2.81383 1.44257 8.77056
-2.8302 1.43486 8.72179
-2.84557 1.42816 8.674
-2.89005 1.39731 8.47977
-2.9054 1.39065 8.43498
-2.91781 1.38286 8.38118
-2.93218 1.37515 8.33239
-2.97357 1.34749 8.15109
-2.98398 1.3397 8.09727
-3.01361 1.32747 8.01367
-3.13747 1.25206 7.50865
-3.18397 1.22318 7.3124
-3.19822 1.21871 7.27957
-3.21984 1.20652 7.1989
-3.25196 1.18537 7.05243
-3.2652 1.18091 7.0206
-3.2755 1.17532 6.98075
-3.28382 1.16871 6.93891
-3.29607 1.16524 6.90704
-3.3056 1.15422 6.83727
-3.31685 1.14974 6.80442
-3.32319 1.14307 6.75956
-3.33248 1.13753 6.7227
-3.34668 1.13514 6.69584
-3.35695 1.12963 6.661
-3.36523 1.12409 6.62414
-3.36642 1.12072 6.59919
-3.37668 1.11623 6.56533
-3.38397 1.11066 6.52646
-3.39719 1.10725 6.49861
-3.40348 1.10168 6.45973
-3.40782 1.09503 6.41586
-3.42102 1.09164 6.389
-3.41727 1.08617 6.35705
-3.43145 1.08382 6.33319
-3.44464 1.08046 6.30834
-3.44699 1.07378 6.26245
-3.4582 1.07038 6.23458
-3.46942 1.06695 6.20571
-3.47274 1.06034 6.16383
-3.47392 1.057 6.14088
-3.48511 1.05362 6.11501
-3.48942 1.04802 6.07412
-3.5026 1.04569 6.05125
-2.65101 1.63869 9.39152
-2.75 1.57396 9.00117
-2.76835 1.56629 8.95541
-2.7789 1.55424 8.88366
-2.79722 1.54763 8.84189
-2.81262 1.53986 8.78912
-2.82118 1.52678 8.71636
-2.8395 1.52016 8.6736
-2.84085 1.5125 8.62871
-2.85524 1.50475 8.57793
-2.86963 1.49599 8.52616
-2.89742 1.47949 8.4236
-2.91274 1.47286 8.38081
-2.92843 1.45854 8.29112
-2.93984 1.44975 8.23733
-2.95908 1.44529 8.20554
-2.9705 1.4365 8.15175
-2.98092 1.42668 8.09596
-2.99818 1.42219 8.06216
-2.99654 1.4135 8.01527
-3.00988 1.40684 7.97046
-3.02616 1.40132 7.93466
-3.03557 1.39253 7.88085
-3.04889 1.3859 7.83804
-3.07553 1.37368 7.75441
-3.07679 1.36718 7.72052
-3.08717 1.35944 7.6707
-3.09753 1.35176 7.62389
-3.10984 1.34616 7.58306
-3.12707 1.34173 7.55325
-3.1286 1.32971 7.48443
-3.13279 1.32634 7.45951
-3.14705 1.32083 7.42469
-3.1564 1.31418 7.37985
-3.16771 1.30758 7.33903
-3.18197 1.30308 7.3052
-3.18836 1.29432 7.25337
-3.20262 1.28983 7.21954
-3.20778 1.28652 7.19862
-3.22742 1.27329 7.11496
-3.23575 1.26666 7.07211
-3.24507 1.26005 7.03027
-3.2534 1.25342 6.98743
-3.27353 1.25217 6.9696
-3.27814 1.23899 6.88982
-3.28844 1.23342 6.85097
-3.32221 1.21895 6.75042
-3.3315 1.21238 6.71159
-3.34101 1.20241 6.6458
-3.35225 1.19794 6.61394
-3.36053 1.1924 6.57708
-3.37276 1.18797 6.54724
-3.38007 1.18236 6.50637
-3.39031 1.1779 6.47451
-3.4378 1.14905 6.28027
-2.84905 1.59 8.59462
-2.86541 1.58232 8.54785
-2.8984 1.56041 8.41741
-2.91472 1.55381 8.37662
-2.92321 1.54186 8.31186
-2.99522 1.498 8.04901
-3.03327 1.47601 7.9126
-3.06217 1.45628 7.7951
-3.0962 1.43429 7.65966
-3.13145 1.40689 7.49631
-3.15801 1.39583 7.42366
-3.16835 1.38818 7.37885
-3.20349 1.364 7.23045
-3.2138 1.3574 7.18962
-3.23539 1.34526 7.11195
-3.26948 1.32217 6.96953
-3.28075 1.31666 6.93469
-3.29005 1.31109 6.89584
-3.3211 1.28907 6.75838
-3.33234 1.28461 6.72653
-3.34162 1.27807 6.68969
-3.35288 1.27357 6.65583
-3.36118 1.267 6.61699
-3.3807 1.25699 6.54827
-3.37992 1.25158 6.52035
-3.3882 1.24604 6.48348
-3.4014 1.24265 6.45663
-3.4077 1.23608 6.41777
-3.4209 1.2327 6.39192
-3.42523 1.22605 6.34804
-3.43349 1.22056 6.31418
-3.43565 1.21725 6.29324
-3.44983 1.21392 6.27039
-3.45513 1.20733 6.23053
-3.46339 1.20283 6.19665
-3.46967 1.19729 6.15978
-3.48187 1.19391 6.13391
-3.4911 1.18948 6.10404
-3.49029 1.18509 6.0781
-3.50248 1.18173 6.05324
-3.50777 1.17519 6.01637
-2.86483 1.63941 8.48599
-2.90795 1.61427 8.33967
-2.95133 1.58262 8.15944
-2.97413 1.56409 8.05487
-2.98944 1.55749 8.01408
-3.00179 1.54882 7.9683
-3.02034 1.53677 7.8966
-3.03564 1.5302 7.85781
-3.04601 1.5225 7.81
-3.07813 1.49635 7.66361
-3.10403 1.47662 7.54608
-3.12864 1.46346 7.46645
-3.13899 1.45577 7.41963
-3.39468 1.29003 6.41487
-3.43485 1.26678 6.2615
-2.8904 1.70621 8.40319
-2.90576 1.69754 8.35742
-2.91521 1.68666 8.29765
-3.17289 1.50795 7.2951
-3.18419 1.50038 7.25629
-3.19647 1.49484 7.21946
-3.20876 1.48831 7.18264
-3.22937 1.47414 7.103
-3.2296 1.46869 7.07307
-3.2458 1.46531 7.04624
-3.25414 1.45766 7.00241
-3.29745 1.42814 6.83015
-3.29987 1.41732 6.77532
-3.31998 1.41613 6.76149
-3.33657 1.40299 6.6838
-3.34586 1.39645 6.64696
-3.35415 1.38988 6.60812
-3.35337 1.38446 6.58019
-3.3656 1.38003 6.55034
-3.37191 1.37343 6.50948
-3.38414 1.36899 6.47963
-3.4056 1.35911 6.41893
-3.41585 1.35364 6.38709
-3.41604 1.34925 6.36115
-3.42037 1.34162 6.31829
-3.43455 1.33829 6.29544
-3.44281 1.33278 6.26058
-3.45403 1.32837 6.23273
-3.45638 1.3197 6.18687
-3.46444 1.31958 6.17893
-3.46677 1.31093 6.13507
-3.477 1.3065 6.10521
-3.48821 1.30311 6.07834
-3.49251 1.29552 6.03848
-3.1689 1.60182 7.28568
-3.18217 1.5953 7.24987
-3.18954 1.58659 7.20205
-3.20402 1.57467 7.13932
-3.21532 1.5681 7.1005
-3.22661 1.56155 7.06268
-3.2369 1.55398 7.02386
-3.24524 1.54634 6.98003
-3.25554 1.53877 6.94121
-3.26166 1.53653 6.92529
-3.26899 1.52789 6.88147
-3.28028 1.52135 6.84465
-3.29252 1.51588 6.81281
-3.30083 1.50828 6.77198
-3.31208 1.5028 6.73915
-3.31526 1.49847 6.71623
-3.33284 1.48536 6.64055
-3.3441 1.47886 6.60672
-3.34844 1.4702 6.56188
-3.35772 1.46467 6.52602
-3.36995 1.45924 6.49619
-3.46386 1.39366 6.11582
-4.08211 -0.418446 3.86799
-4.09757 -0.418338 3.8071
-4.11184 -0.417876 3.77019
-4.12323 -0.417638 3.71827
-4.12641 -0.417976 3.69529
-4.13472 -0.417577 3.65434
-4.14384 -0.417808 3.63841
-4.14114 -0.417402 3.59838
-4.15323 -0.417586 3.58547
-4.63329 -0.423884 1.58691
-4.64239 -0.42407 1.57398
-4.64451 -0.424305 1.55799
-4.64862 -0.424525 1.54303
-4.66415 -0.42455 1.47313
-4.67923 -0.425702 1.46226
-4.66938 -0.425005 1.44218
-4.67243 -0.425107 1.4352
-4.68552 -0.426275 1.42331
-4.69575 -0.426712 1.39339
-4.69588 -0.425963 1.37638
-4.70397 -0.42615 1.36344
-4.7041 -0.426402 1.34645
-4.70216 -0.426521 1.33843
-4.71326 -0.426706 1.32552
-4.70341 -0.427009 1.30544
-4.71152 -0.427211 1.29151
-4.71064 -0.427448 1.2755
-4.72773 -0.427613 1.26363
-4.72486 -0.427867 1.24661
-4.72492 -0.427986 1.23861
-4.72803 -0.428205 1.22364
-4.72815 -0.428442 1.20764
-4.74125 -0.428625 1.19474
-4.74859 -0.429301 1.1488
-4.74567 -0.428451 1.13876
-4.75177 -0.428654 1.12481
-4.75589 -0.428873 1.10984
-4.77421 -0.430497 1.067
-4.78138 -0.430832 1.04405
-4.77352 -0.430104 1.02598
-4.78985 -0.430744 0.982105
-4.80911 -0.432248 0.947268
-4.81647 -0.432939 0.900327
-4.82081 -0.432617 0.854349
-4.82499 -0.432969 0.830382
-4.8321 -0.433171 0.816437
-4.84544 -0.434828 0.771555
-4.84973 -0.434402 0.732576
-4.85596 -0.434842 0.702625
-4.85708 -0.435078 0.686635
-4.86618 -0.436279 0.67272
-4.88182 -0.437511 0.588844
-4.89093 -0.437727 0.573914
-4.92384 -0.439495 0.453171
-4.91996 -0.439734 0.437143
-4.94054 -0.44086 0.360305
-4.94571 -0.442196 0.33736
-4.96535 -0.443426 0.253515
-4.97146 -0.443644 0.238562
-4.97458 -0.443878 0.222587
-5.00545 -0.446573 0.106843
-4.05136 -0.381051 3.96322
-4.05554 -0.380389 3.94024
-4.06357 -0.380457 3.9353
-4.06595 -0.380196 3.8853
-4.07309 -0.380472 3.86636
-4.08638 -0.381025 3.82846
-4.09849 -0.381238 3.81355
-4.08866 -0.380571 3.79147
-4.10175 -0.380754 3.77857
-4.10493 -0.381092 3.75559
-4.10709 -0.380417 3.7336
-4.10927 -0.380756 3.71061
-4.11857 -0.380356 3.66967
-4.11966 -0.380533 3.65768
-4.12978 -0.380748 3.64276
-4.13493 -0.38104 3.6228
-4.13908 -0.380348 3.60182
-4.1482 -0.380579 3.58589
-4.64213 -0.391615 1.6045
-4.77815 -0.398409 1.07255
-4.85137 -0.402738 0.777126
-4.81835 -0.376781 0.910511
-4.04747 -0.308358 3.94211
-4.06354 -0.308494 3.93223
-4.06275 -0.307895 3.90521
-4.06294 -0.30828 3.87922
-4.0813 -0.308962 3.83236
-4.08348 -0.309316 3.80838
-4.08665 -0.308655 3.78539
-4.09478 -0.3089 3.76845
-4.09885 -0.309031 3.75948
-4.10318 -0.309694 3.71452
-4.1143 -0.309908 3.6996
-4.12342 -0.310153 3.68267
-4.12658 -0.309462 3.66168
-4.12578 -0.309847 3.63568
-4.134 -0.310271 3.60674
-4.13915 -0.310563 3.58678
-4.1443 -0.310856 3.56682
-4.64217 -0.32977 1.59358
-4.66056 -0.330526 1.54173
-4.68145 -0.331258 1.42388
-4.68556 -0.331478 1.40891
-4.6898 -0.331948 1.37694
-4.70401 -0.332353 1.34905
-4.69909 -0.332504 1.33902
-4.7042 -0.332723 1.32406
-4.70844 -0.333179 1.29309
-4.71984 -0.33397 1.23918
-4.73193 -0.334139 1.22727
-4.73106 -0.334391 1.21027
-4.74827 -0.334793 1.1824
