-2.80259 -0.245008 8.40413
-2.81401 -0.245829 8.34822
-3.344 -0.258912 6.22711
-3.35342 -0.259749 6.17019
-3.37289 -0.259653 6.10833
-3.38346 -0.260771 6.03241
-3.41524 -0.261288 5.92864
-3.43368 -0.261133 5.87077
-3.44718 -0.262101 5.80488
-3.4707 -0.262106 5.73605
-3.46707 -0.262849 5.68602
-3.48219 -0.263074 5.67014
-3.48843 -0.263544 5.63819
-3.50288 -0.263422 5.57829
-1.7028 -0.13037 12.7467
-1.61954 -0.0640541 13.0412
-1.67903 -0.0669576 12.8426
-1.70148 0.0160723 12.7756
-2.40722 -0.0481621 9.89444
-2.50099 -0.0555429 9.52721
-2.58568 -0.0637526 9.17192
-2.74446 -0.0770396 8.53822
-2.77812 -0.0793181 8.4505
-2.7876 -0.0802589 8.38658
-2.79187 -0.0807741 8.35161
-2.80427 -0.0825498 8.29872
-3.33393 -0.125963 6.22307
-3.34516 -0.127399 6.19317
-3.3465 -0.128079 6.14718
-3.36301 -0.12906 6.08031
-3.36811 -0.129263 6.06635
-3.38756 -0.131137 6.00652
-3.3968 -0.13159 5.97559
-3.4001 -0.13218 5.93562
-3.4113 -0.132571 5.90871
-3.41755 -0.134055 5.87577
-3.44011 -0.135149 5.80095
-3.45426 -0.13542 5.78205
-3.4536 -0.136102 5.73605
-3.46675 -0.136389 5.71615
-3.47103 -0.137919 5.6802
-3.47514 -0.138138 5.66524
-3.48731 -0.138469 5.64233
-3.49158 -0.138985 5.60736
-3.49782 -0.139454 5.57541
-1.6896 0.096729 12.7523
-2.36086 0.021403 10.0691
-2.39691 0.0173564 9.9294
-2.5052 0.00596467 9.49332
-1.68417 0.189441 12.7999
-2.3232 0.103536 10.2816
-2.3257 0.100561 10.2157
-2.34524 0.0985087 10.1438
-2.36664 0.0967248 10.09
-2.38422 0.0936124 10.0142
-2.40465 0.0917833 9.95736
-2.4397 0.087736 9.81767
-2.44216 0.0858494 9.7577
-2.46253 0.0841239 9.70787
-2.47905 0.0811144 9.63904
-2.49752 0.0792099 9.57719
-2.53047 0.0753683 9.45148
-2.54597 0.0724025 9.38563
-2.55129 0.0717696 9.34268
-2.56871 0.069968 9.28783
-2.58128 0.0668519 9.21196
-2.60159 0.0652597 9.17113
-2.63485 0.0598113 9.00444
-2.65028 0.0579638 8.94657
-2.6657 0.0561607 8.89171
-2.6821 0.0543879 8.83885
-2.69651 0.0525989 8.78498
-2.7119 0.0508254 8.73211
-2.72865 0.0473718 8.63328
-2.74598 0.0467477 8.59041
-2.76037 0.0449734 8.53754
-2.77377 0.0431985 8.48466
-3.33407 -0.0303587 6.19565
-3.35255 -0.0322928 6.13181
-3.37002 -0.0342129 6.06896
-3.38849 -0.0361174 6.00712
-3.3969 -0.0379257 5.9522
-3.41635 -0.0397851 5.89337
-3.42655 -0.0411625 5.86746
-3.43182 -0.0416918 5.8315
-3.44515 -0.0433335 5.78762
-3.45962 -0.0452558 5.72475
-3.51008 -0.0510767 5.53219
-1.67412 0.257441 12.7998
-2.31734 0.15817 10.2568
-2.33975 0.155387 10.203
-2.35828 0.153364 10.1331
-2.37388 0.150191 10.0533
-2.43571 0.140653 9.81185
-2.45027 0.137568 9.738
-2.46873 0.135664 9.67615
-2.54097 0.124334 9.38083
-2.55643 0.121427 9.31898
-2.57483 0.119671 9.26713
-2.58832 0.117703 9.20126
-2.60475 0.114872 9.14441
-2.63994 0.109573 8.98774
-2.65634 0.1068 8.93489
-2.67074 0.105011 8.88102
-2.6842 0.103118 8.82014
-2.74611 0.0934169 8.56772
-2.80883 0.0850868 8.34028
-3.38423 0.00133445 6.03754
-3.3915 -0.000178431 6.00261
-3.40994 -0.00203856 5.94377
-3.48954 -0.0130887 5.59948
-3.49973 -0.0144514 5.57458
-2.32276 0.219279 10.1959
-2.34323 0.216376 10.1341
-2.43921 0.199598 9.74
-2.45473 0.196573 9.67015
-2.51345 0.186255 9.44371
-2.52797 0.183229 9.37385
-2.54639 0.181428 9.31901
-2.628 0.166365 8.9738
-2.64343 0.163533 8.91695
-2.70834 0.152834 8.66457
-2.72471 0.150121 8.61572
-2.73618 0.148211 8.55383
-1.58973 0.438847 13.0995
-2.34712 0.287489 10.1411
-2.36758 0.284601 10.0802
-2.40265 0.277539 9.93959
-2.45761 0.26473 9.68016
-2.47896 0.26205 9.63336
-2.49448 0.259055 9.56551
-2.56175 0.243648 9.2652
-2.57819 0.240801 9.20736
-2.5956 0.237999 9.15252
-2.61298 0.236272 9.10267
-2.62647 0.232319 9.03782
-2.66161 0.22511 8.88717
-2.67703 0.222307 8.83232
-2.6934 0.220578 8.78247
-2.736 0.209471 8.57092
-2.76476 0.204997 8.47019
-2.98316 0.164616 7.62532
-3.05528 0.151494 7.34402
-3.07496 0.147191 7.25522
-3.09558 0.142977 7.17242
-3.11104 0.1401 7.11257
-3.11544 0.137304 7.05864
-3.12772 0.13578 7.02275
-3.15222 0.132806 6.95597
-3.16909 0.128115 6.84115
-3.18035 0.125605 6.80627
-3.23585 0.116714 6.60879
-3.25045 0.113541 6.52894
-3.27094 0.110593 6.46413
-3.28118 0.109127 6.43222
-3.28355 0.106418 6.38427
-3.29261 0.106292 6.37534
-3.29792 0.104688 6.3344
-3.3121 0.103343 6.31052
-3.32134 0.101876 6.27861
-3.32369 0.100197 6.23265
-3.33295 0.0987004 6.19873
-3.34414 0.0973237 6.17283
-3.34137 0.0958775 6.14283
-3.35456 0.0955169 6.11793
-3.36379 0.0940795 6.08802
-3.36612 0.0914299 6.04407
-3.37732 0.0910382 6.01716
-3.39148 0.0897377 5.99628
-3.38771 0.0882908 5.96627
-3.39693 0.0868534 5.93635
-3.40616 0.085416 5.90644
-3.41833 0.0850843 5.88353
-3.41867 0.0824184 5.83857
-3.43578 0.0822087 5.8237
-3.44105 0.0806944 5.78876
-3.43825 0.0793074 5.76275
-3.44351 0.0777931 5.72781
-3.45864 0.0775376 5.70993
-3.46883 0.0761749 5.68502
-3.46817 0.074523 5.64103
-3.47736 0.0731448 5.61512
-3.48641 0.0730477 5.60819
-3.48771 0.0714712 5.56921
-3.49493 0.0700472 5.54029
-3.51104 0.0698368 5.52541
-1.67603 0.501297 12.7882
-2.2898 0.360957 10.3096
-2.31221 0.357174 10.2558
-2.3308 0.353033 10.178
-2.34931 0.34904 10.1102
-2.36979 0.346107 10.0463
-2.39077 0.338198 9.9166
-2.41023 0.335324 9.85678
-2.42774 0.33133 9.78896
-2.44524 0.328366 9.72313
-2.46565 0.324567 9.66833
-2.48118 0.321542 9.59849
-2.48458 0.317775 9.54656
-2.50009 0.314779 9.47871
-2.51756 0.310874 9.41689
-2.53597 0.308073 9.36207
-2.55049 0.304077 9.29422
-2.56789 0.30129 9.24039
-2.58866 0.29581 9.13961
-2.60119 0.291783 9.06976
-2.62052 0.290131 9.02492
-2.63791 0.287389 8.97409
-2.65334 0.283556 8.91725
-2.66914 0.277999 8.81144
-2.68357 0.275165 8.75458
-2.69896 0.272407 8.70273
-2.7163 0.269753 8.65789
-2.73169 0.267009 8.60704
-2.76048 0.261476 8.50233
-2.75986 0.258735 8.45236
-2.77619 0.256096 8.40851
-2.79055 0.253396 8.36065
-2.80492 0.251681 8.31178
-2.81831 0.248935 8.26092
-2.84931 0.241004 8.12925
-2.87505 0.236572 8.03149
-2.88545 0.233795 7.97861
-2.90271 0.231289 7.94377
-2.91311 0.228512 7.89088
-2.92968 0.224399 7.81506
-2.94007 0.221652 7.76417
-2.95632 0.220175 7.73131
-2.96669 0.217457 7.68242
-2.99037 0.213142 7.59265
-2.99359 0.211715 7.56369
-3.00491 0.209087 7.52081
-3.00938 0.206172 7.45888
-3.06669 0.197638 7.28541
-3.07799 0.195069 7.24653
-3.13275 0.18366 7.01408
-3.1494 0.178399 6.92827
-3.19151 0.171238 6.78067
-3.20594 0.168405 6.72382
-3.26282 0.155775 6.4764
-3.27601 0.1544 6.45051
-3.27739 0.151661 6.40056
-3.31224 0.147013 6.28787
-3.33173 0.14308 6.22407
-3.33802 0.141507 6.18513
-3.37812 0.134375 6.03952
-3.40498 0.128707 5.92579
-3.47394 0.116908 5.66645
-1.67922 0.574832 12.7561
-2.35066 0.407279 10.0583
-2.46203 0.380758 9.61347
-2.73736 0.314631 8.51337
-2.77233 0.307747 8.38472
-2.81248 0.298526 8.23313
-2.86621 0.285175 8.0047
-2.88251 0.282595 7.96486
-2.89095 0.279742 7.90696
-2.97854 0.259729 7.56487
-3.02705 0.248818 7.36637
-3.03737 0.246189 7.32348
-3.05064 0.244666 7.2876
-3.09607 0.233901 7.09907
-3.11865 0.229778 7.02229
-3.1527 0.221745 6.88365
-3.20624 0.210764 6.68019
-3.22185 0.205591 6.60037
-3.25281 0.198719 6.47269
-3.26109 0.197177 6.43577
-3.33726 0.181984 6.14953
-3.36415 0.175256 6.03181
-3.37964 0.171305 5.96698
-3.38985 0.169898 5.93907
-3.392 0.169604 5.91909
-3.39825 0.16712 5.88617
-3.4361 0.161475 5.77352
-3.44038 0.15993 5.73657
-3.44153 0.15865 5.7176
-3.46915 0.154441 5.63486
-3.4836 0.151578 5.576
-1.67305 0.66004 12.7698
-2.33318 0.479118 10.1151
-2.35269 0.474125 10.0473
-2.37314 0.470252 9.98752
-2.38972 0.465139 9.91171
-2.44953 0.449645 9.67336
-2.46799 0.445741 9.61155
-2.48546 0.441836 9.54973
-2.50292 0.43796 9.48991
-2.53827 0.425336 9.31134
-2.55278 0.42134 9.2435
-2.57019 0.417554 9.18968
-2.58759 0.414782 9.13684
-2.60208 0.409845 9.07302
-2.6064 0.407212 9.03008
-2.62279 0.404454 8.97824
-2.63725 0.399576 8.91841
-2.65365 0.396804 8.86557
-2.67003 0.393061 8.81474
-2.6835 0.389153 8.75289
-2.6868 0.386563 8.71295
-2.70317 0.38385 8.66411
-2.71856 0.380106 8.61327
-2.73003 0.376197 8.55141
-2.74929 0.373692 8.51658
-2.76075 0.369798 8.45572
-2.77319 0.366948 8.39785
-2.77647 0.364403 8.36091
-2.78888 0.360613 8.30705
-2.80128 0.356837 8.25419
-2.82053 0.355363 8.22135
-2.82999 0.351467 8.16047
-2.84334 0.348795 8.11461
-2.86062 0.346245 8.07677
-2.86094 0.343624 8.0348
-2.87234 0.339848 7.98194
-2.88665 0.337251 7.94108
-2.89705 0.333474 7.88821
-2.91432 0.331969 7.85335
-2.92862 0.329387 7.81349
-2.93803 0.325595 7.75961
-2.93832 0.323032 7.72165
-2.95064 0.320405 7.67877
-2.962 0.317717 7.63189
-2.97628 0.315165 7.59403
-2.99253 0.313689 7.56117
-2.99993 0.309909 7.50828
-3.01421 0.308372 7.4714
-3.01546 0.305885 7.43845
-3.02777 0.303287 7.39757
-3.03713 0.300598 7.35067
-3.05235 0.298165 7.32082
-3.06269 0.295506 7.27593
-3.0681 0.292711 7.22201
-3.12383 0.278361 6.99361
-3.13706 0.276927 6.96372
-3.17112 0.267879 6.8241
-3.18774 0.262678 6.74229
-3.20751 0.257167 6.6395
-3.23 0.253236 6.57572
-3.24462 0.248033 6.4939
-3.27753 0.241266 6.37323
-3.30332 0.234745 6.26951
-3.34972 0.224025 6.08399
-3.4714 0.195905 5.59825
-1.57544 0.754994 13.1077
-2.35347 0.532475 10.0705
-2.37102 0.527422 9.99866
-2.39049 0.523518 9.93686
-2.42747 0.514621 9.80725
-2.46292 0.500805 9.6157
-2.48235 0.49699 9.55989
-2.50172 0.493264 9.51009
-2.57092 0.473007 9.21987
-2.58442 0.46804 9.15403
-2.60085 0.464208 9.09721
-2.61728 0.460392 9.04138
-2.65046 0.449092 8.88478
-2.68224 0.44159 8.78211
-2.69764 0.438817 8.72926
-2.73988 0.427435 8.56673
-2.74413 0.42495 8.53379
-2.75755 0.421131 8.47794
-2.77289 0.417476 8.4331
-2.83067 0.402024 8.19773
-2.84404 0.398324 8.14988
-2.90912 0.3793 7.87562
-2.93478 0.374016 7.78788
-2.97401 0.362632 7.62532
-2.98731 0.36005 7.58545
-2.99668 0.357346 7.53756
-3.008 0.353718 7.49469
-3.02031 0.35112 7.45381
-3.05844 0.341942 7.30522
-3.06876 0.338313 7.26234
-3.19472 0.304648 6.73972
-3.20401 0.302093 6.70182
-3.22159 0.296981 6.62602
-3.24033 0.290529 6.52724
-3.25454 0.289139 6.50036
-3.26518 0.282889 6.41553
-3.28842 0.281432 6.38372
-3.30238 0.273562 6.25692
-3.34644 0.264522 6.11737
-3.35173 0.261964 6.07944
-3.36885 0.261739 6.06357
-3.36623 0.257982 6.0126
-3.38632 0.257834 6.00175
-3.38174 0.254002 5.94577
-3.40593 0.252649 5.92097
-3.45348 0.240634 5.71547
-3.46826 0.234121 5.61267
-2.30624 0.619756 10.2258
-2.32478 0.613719 10.1551
-2.34429 0.608727 10.0873
-2.36381 0.603734 10.0195
-2.38037 0.597651 9.94569
-2.38479 0.592826 9.88978
-2.40426 0.587922 9.828
-2.43733 0.576844 9.68639
-2.45674 0.573059 9.63258
-2.4713 0.566975 9.55877
-2.49508 0.559467 9.45605
-2.51157 0.554532 9.39224
-2.52803 0.549626 9.33043
-2.54546 0.54581 9.27461
-2.55897 0.539814 9.20679
-2.57736 0.536072 9.15597
-2.628 0.519897 8.93957
-2.64442 0.516095 8.88474
-2.65884 0.511277 8.82891
-2.67328 0.507429 8.77107
-2.69101 0.500006 8.6743
-2.7064 0.496262 8.62346
-2.73422 0.487669 8.51478
-2.74862 0.48391 8.46294
-2.76202 0.480135 8.41009
-2.77968 0.47286 8.32332
-2.80742 0.46643 8.22561
-2.82276 0.462775 8.18077
-2.83905 0.46021 8.14193
-2.8384 0.456528 8.09597
-2.85274 0.452873 8.05113
-2.86413 0.449126 8.00026
-2.87847 0.44647 7.9554
-2.88983 0.442768 7.90754
-2.90218 0.439082 7.86068
-2.91455 0.435365 7.81182
-2.91779 0.432909 7.78088
-2.93013 0.430252 7.736
-2.95576 0.424027 7.65228
-2.96615 0.42028 7.6014
-2.98043 0.417742 7.56454
-2.99371 0.415204 7.52768
-3.01664 0.405401 7.40498
-3.02698 0.402742 7.36009
-3.04124 0.400234 7.32523
-3.05355 0.397651 7.28535
-3.05797 0.392826 7.22945
-3.06215 0.391488 7.2065
-3.07442 0.388949 7.16962
-3.08573 0.385366 7.12976
-3.09801 0.382827 7.09288
-3.11028 0.381303 7.05699
-3.11664 0.377597 7.00909
-3.13186 0.375179 6.98023
-3.13505 0.373811 6.95527
-3.1414 0.370135 6.90937
-3.15563 0.367701 6.87951
-3.16885 0.366267 6.84963
-3.17424 0.362516 6.79871
-3.18746 0.360081 6.76885
-3.18965 0.358713 6.74388
-3.19402 0.355006 6.69596
-3.20724 0.353571 6.66608
-3.21947 0.351136 6.6362
-3.24435 0.343437 6.52049
-3.24849 0.341159 6.50155
-3.25579 0.338572 6.46164
-3.26309 0.336 6.42272
-3.27137 0.333459 6.38582
-3.28063 0.330962 6.35192
-3.29284 0.329556 6.32403
-3.29913 0.326984 6.28511
-3.30857 0.322132 6.22725
-3.33102 0.319275 6.16845
-3.34123 0.316868 6.14056
-3.35872 0.312919 6.07574
-3.36285 0.311655 6.05779
-3.36617 0.308051 6.01686
-3.38032 0.30775 5.99597
-3.38266 0.304101 5.95203
-3.40011 0.300225 5.89221
-3.40835 0.297758 5.86031
-3.41148 0.296508 5.84335
-3.42991 0.293678 5.78652
-3.4411 0.292316 5.76162
-3.45163 0.287287 5.69177
-3.44981 0.284931 5.66778
-3.47119 0.282206 5.61798
-1.55894 0.919749 13.1582
-1.58879 0.910113 13.0465
-1.61668 0.900387 12.9289
-1.64829 0.893226 12.8492
-2.67493 0.557046 8.81235
-3.06992 0.433874 7.23193
-3.12463 0.416569 7.00657
-3.25861 0.377881 6.48208
-3.30804 0.364119 6.29363
-3.35247 0.350354 6.10514
-3.43401 0.32644 5.77006
-3.45555 0.32139 5.69829
-3.46674 0.320028 5.67339
-1.66694 0.971839 12.7542
-2.29288 0.746281 10.2609
-2.31338 0.740319 10.1951
-2.33482 0.735476 10.1373
-2.35143 0.728304 10.0576
-2.37091 0.723371 9.99376
-2.39041 0.717423 9.92899
-2.41234 0.706619 9.8063
-2.43275 0.701834 9.75251
-2.45025 0.69587 9.68672
-2.46773 0.689936 9.62294
-2.48423 0.684971 9.55712
-2.49976 0.677946 9.48734
-2.50606 0.674359 9.44743
-2.52446 0.670588 9.39462
-2.53802 0.663518 9.32181
-2.58736 0.648934 9.14538
-2.62258 0.634577 8.98483
-2.63509 0.628579 8.91701
-2.65537 0.626046 8.88019
-2.68424 0.615366 8.76555
-2.70489 0.608123 8.6808
-2.7154 0.602124 8.61296
-2.74421 0.593561 8.50629
-2.78769 0.576692 8.31084
-2.80694 0.574232 8.27902
-2.81544 0.568262 8.21316
-2.84511 0.560966 8.12448
-2.87085 0.552534 8.02678
-2.8741 0.550048 7.99384
-2.89784 0.54163 7.89713
-2.92452 0.534317 7.80743
-2.9349 0.53057 7.75656
-2.93911 0.528173 7.72962
-2.94753 0.523351 7.67375
-2.95986 0.519723 7.63089
-2.97512 0.517216 7.59603
-2.98352 0.512438 7.54316
-2.99976 0.509976 7.51132
-3.0101 0.506318 7.46644
-3.01233 0.503875 7.43649
-3.0168 0.497961 7.3746
-3.03791 0.497754 7.35976
-3.04041 0.491794 7.29486
-3.05761 0.490407 7.26801
-3.06302 0.485612 7.21411
-3.0812 0.48327 7.19028
-3.08047 0.480751 7.15531
-3.09176 0.477182 7.11644
-3.09519 0.472341 7.05953
-3.1055 0.469757 7.01964
-3.12071 0.467353 6.99179
-3.12903 0.463723 6.9489
-3.13834 0.460123 6.90801
-3.16504 0.453781 6.8163
-3.17041 0.449059 6.7674
-3.18069 0.446519 6.73051
-3.19195 0.444024 6.69663
-3.22295 0.433078 6.564
-3.24445 0.428117 6.49823
-3.26061 0.426818 6.47737
-3.27304 0.421983 6.42053
-3.29983 0.414463 6.31683
-3.3205 0.407161 6.22808
-3.32777 0.404648 6.19316
-3.34427 0.399669 6.12635
-3.34366 0.394913 6.07541
-3.35683 0.393583 6.05253
-3.37352 0.386263 5.96275
-3.38668 0.384947 5.94086
-3.40119 0.379965 5.87404
-3.41336 0.378634 5.85115
-3.43954 0.366344 5.6955
-3.44775 0.364935 5.66758
-1.65375 1.0491 12.7719
-2.27853 0.811885 10.3018
-2.29806 0.805863 10.232
-2.3176 0.798827 10.1613
-2.33611 0.792834 10.0935
-2.35561 0.786871 10.0277
-2.37315 0.779833 9.95694
-2.39165 0.77387 9.89116
-2.39409 0.768013 9.83325
-2.41259 0.76205 9.76747
-2.4291 0.756056 9.69968
-2.44948 0.751331 9.64989
-2.46501 0.745306 9.58009
-2.48541 0.740551 9.52831
-2.50091 0.734586 9.4625
-2.5188 0.722852 9.34479
-2.53624 0.718007 9.28699
-2.55169 0.71213 9.22718
-2.57105 0.708448 9.18038
-2.58553 0.702512 9.11657
-2.6039 0.697815 9.06877
-2.60432 0.691987 9.01285
-2.62169 0.688274 8.96403
-2.63906 0.683576 8.91622
-2.65253 0.677668 8.8544
-2.665 0.67276 8.79256
-2.68235 0.668077 8.74575
-2.69872 0.664364 8.69693
-2.69712 0.658578 8.64399
-2.71545 0.654955 8.60118
-2.72594 0.649016 8.53734
-2.74032 0.644271 8.48651
-2.75959 0.641767 8.45168
-2.77004 0.635887 8.39184
-2.77136 0.632266 8.3499
-2.78768 0.628642 8.30707
-2.8001 0.623837 8.25223
-2.81149 0.619076 8.20038
-2.82976 0.615571 8.16556
-2.84019 0.610735 8.1087
-2.85255 0.606034 8.06086
-2.85484 0.603487 8.02391
-2.86621 0.598756 7.97406
-2.87762 0.59398 7.92121
-2.89681 0.591609 7.89538
-2.90427 0.585712 7.83452
-2.91956 0.58316 7.79667
-2.93386 0.579593 7.75782
-2.93511 0.576091 7.72388
-2.94353 0.571283 7.66901
-2.9588 0.568776 7.63415
-2.97209 0.565209 7.5953
-2.9795 0.560415 7.54142
-2.99673 0.557984 7.51158
-3.00412 0.553219 7.4597
-3.00733 0.550822 7.43276
-3.02258 0.54833 7.3989
-3.03291 0.544701 7.35603
-3.04226 0.540012 7.30916
-3.05454 0.537474 7.27229
-3.05701 0.531573 7.21139
-3.07322 0.52917 7.18354
-3.07347 0.526682 7.15057
-3.08573 0.523173 7.11571
-3.0931 0.519453 7.06682
-3.10634 0.517004 7.03595
-3.12058 0.51454 7.00409
-3.12695 0.50982 6.9552
-3.13111 0.508512 6.93425
-3.14335 0.505048 6.90239
-3.15069 0.501402 6.85849
-3.17518 0.496443 6.79274
-3.18053 0.492766 6.74683
-3.19771 0.490438 6.72399
-3.19398 0.486902 6.68801
-3.20622 0.484452 6.65713
-3.20959 0.48073 6.6082
-3.22968 0.479552 6.59537
-3.23404 0.475859 6.54845
-3.23937 0.472212 6.50454
-3.24548 0.471009 6.4906
-3.25574 0.468513 6.45671
-3.26795 0.466108 6.42884
-3.2713 0.46243 6.38291
-3.28252 0.459994 6.35303
-3.29671 0.457634 6.32816
-3.30202 0.454046 6.28825
-3.30714 0.452813 6.27231
-3.31145 0.449194 6.23039
-3.32464 0.447834 6.2055
-3.32501 0.443124 6.15757
-3.35039 0.439387 6.10681
-3.37629 0.42966 5.98913
-3.38946 0.428329 5.96625
-3.39572 0.425815 5.93133
-3.40395 0.423377 5.90142
-3.4173 0.419706 5.85557
-3.43506 0.411224 5.75481
-3.44625 0.409862 5.72992
-3.46384 0.403736 5.65313
-3.47205 0.401327 5.62522
-3.48126 0.398919 5.59732
-3.4865 0.39645 5.56539
-3.48978 0.393904 5.52845
-1.57335 1.15964 13.0807
-2.28684 0.872203 10.255
-2.30928 0.866361 10.1972
-2.31563 0.861685 10.1513
-2.35464 0.84873 10.0178
-2.37122 0.841603 9.94101
-2.39359 0.836909 9.89324
-2.40821 0.828706 9.81146
-2.4515 0.811222 9.64202
-2.46316 0.802943 9.55522
-2.48254 0.798202 9.50443
-2.49807 0.791192 9.43564
-2.53295 0.780486 9.31904
-2.54216 0.777093 9.29216
-2.5518 0.768843 9.20734
-2.57408 0.765311 9.17056
-2.58564 0.758224 9.09674
-2.61555 0.74647 8.97712
-2.61986 0.742867 8.9362
-2.63724 0.738139 8.8864
-2.65558 0.733487 8.8416
-2.73292 0.70397 8.53358
-2.74048 0.696895 8.46073
-2.75974 0.693392 8.42592
-2.77021 0.687482 8.36408
-2.78165 0.681632 8.30624
-2.80286 0.680233 8.27842
-2.81267 0.669671 8.17263
-2.82798 0.666075 8.1318
-2.84233 0.66139 8.08497
-2.85373 0.656614 8.03212
-2.8661 0.651913 7.98427
-2.8824 0.648333 7.94444
-2.88269 0.644771 7.90649
-2.89408 0.639009 7.85466
-2.90937 0.636458 7.8168
-2.91583 0.63056 7.75593
-2.94051 0.622246 7.66623
-2.95187 0.617559 7.61938
-2.95999 0.616328 7.60345
-2.99792 0.605535 7.48088
-3.00239 0.598621 7.41901
-3.01567 0.596083 7.38214
-3.03954 0.585398 7.26747
-3.07346 0.574632 7.14686
-3.08279 0.570003 7.104
-3.09384 0.569907 7.09708
-3.11543 0.562768 7.01934
-3.13504 0.555584 6.93858
-3.1495 0.550706 6.87875
-3.17204 0.543672 6.80802
-3.2333 0.517292 6.50983
-3.24257 0.51378 6.47495
-3.25184 0.511254 6.43905
-3.26406 0.508819 6.40917
-3.28278 0.500442 6.31542
-3.29499 0.498036 6.28755
-3.30955 0.491951 6.21374
-3.31879 0.488485 6.18185
-3.33746 0.481196 6.09409
-3.34966 0.478805 6.06721
-3.3579 0.476337 6.03531
-3.36713 0.4739 6.00541
-3.3744 0.470387 5.97051
-3.37654 0.469108 5.95154
-3.38182 0.465564 5.91463
-3.39105 0.463127 5.88473
-3.39929 0.460659 5.85283
-3.41343 0.459388 5.83395
-3.41574 0.455783 5.79301
-3.42692 0.454436 5.76912
-3.4271 0.452096 5.74615
-3.44059 0.446144 5.68133
-3.44782 0.443705 5.65142
-3.45605 0.441267 5.62151
-3.46327 0.438828 5.5916
-3.47954 0.436322 5.55675
-3.4838 0.433807 5.52182
-2.28642 0.945921 10.3029
-2.34356 0.916789 10.0217
-2.37865 0.901698 9.87916
-2.39713 0.894765 9.8154
-2.41656 0.88895 9.75962
-2.47143 0.863335 9.51338
-2.48887 0.857489 9.45559
-2.50631 0.851629 9.3968
-2.51985 0.843588 9.32601
-2.5426 0.83414 9.22731
-2.58798 0.81448 9.04592
-2.61982 0.803875 8.9363
-2.6713 0.784012 8.74095
-2.6828 0.777058 8.67614
-2.70109 0.773494 8.63732
-2.71783 0.763071 8.54059
-2.73415 0.759447 8.49776
-2.74758 0.753628 8.44194
-2.77534 0.743153 8.34129
-2.78871 0.738453 8.29345
-2.80537 0.730177 8.20669
-2.83013 0.719701 8.10602
-2.84643 0.716121 8.06619
-2.85783 0.71036 8.01435
-2.86919 0.705657 7.9665
-2.89519 0.692723 7.83487
-2.92086 0.684439 7.74717
-2.9475 0.676216 7.66348
-2.96107 0.668116 7.58869
-2.97144 0.663398 7.53984
-2.98179 0.658725 7.49398
-3.01031 0.652724 7.42527
-3.03222 0.640964 7.30559
-3.04451 0.637396 7.26673
-3.05385 0.632737 7.22187
-3.07007 0.630334 7.19402
-3.07546 0.625569 7.14212
-3.08993 0.618662 7.08033
-3.10955 0.611463 6.99857
-3.14263 0.597371 6.85601
-3.1529 0.59486 6.82112
-3.16713 0.591426 6.79127
-3.19104 0.580653 6.67059
-3.20721 0.578339 6.64875
-3.20447 0.574834 6.61477
-3.21276 0.571263 6.57588
-3.22795 0.568904 6.55103
-3.23329 0.565257 6.50712
-3.24254 0.56176 6.47323
-3.25772 0.560431 6.45037
-3.26107 0.555738 6.40345
-3.27446 0.550993 6.35262
-3.28273 0.547466 6.31673
-3.29198 0.544984 6.28383
-3.30124 0.541488 6.24995
-3.30949 0.538006 6.21706
-3.31991 0.533199 6.1622
-3.34664 0.524783 6.06551
-3.36114 0.518817 5.9997
-3.3745 0.514116 5.95186
-3.39723 0.505712 5.85614
-3.42257 0.503064 5.81137
-3.41682 0.498572 5.77839
-3.4303 0.493649 5.71555
-3.45496 0.48538 5.62885
-3.46218 0.482941 5.59894
-1.66888 1.28855 12.7325
-2.27872 1.00826 10.2579
-2.32069 0.993378 10.1294
-2.33438 0.984042 10.0386
-2.34365 0.97953 10.0038
-2.38067 0.96456 9.86925
-2.41668 0.950633 9.73771
-2.43128 0.941474 9.65894
-2.4536 0.936854 9.61617
-2.47253 0.923048 9.4935
-2.50939 0.911403 9.38094
-2.54327 0.898711 9.26536
-2.59497 0.874434 9.04208
-2.60653 0.866347 8.96828
-2.62875 0.863934 8.93948
-2.63737 0.854742 8.85867
-2.64556 0.852363 8.83276
-2.67443 0.839697 8.71915
-2.68691 0.832759 8.65534
-2.70912 0.830376 8.62854
-2.71475 0.821151 8.5457
-2.73791 0.818843 8.52391
-2.75071 0.807298 8.41916
-2.76117 0.801403 8.35832
-2.7775 0.796779 8.31551
-2.78992 0.790959 8.25968
-2.80623 0.786379 8.21986
-2.82059 0.781679 8.17204
-2.8219 0.777074 8.13111
-2.83331 0.771283 8.07727
-2.85058 0.767777 8.04245
-2.85806 0.760836 7.9786
-2.87042 0.756149 7.93176
-2.88573 0.751554 7.89093
-2.89936 0.743335 7.80815
-2.9127 0.738679 7.76331
-2.92405 0.734007 7.71746
-2.93736 0.72941 7.67662
-2.95068 0.724783 7.63378
-2.96594 0.722291 7.59993
-2.97757 0.713071 7.51714
-2.98694 0.708353 7.46828
-3.00024 0.703785 7.42944
-3.01352 0.700248 7.39259
-3.02288 0.695559 7.34572
-3.03616 0.692021 7.30887
-3.07228 0.676857 7.16134
-3.0939 0.668659 7.07962
-3.10322 0.66403 7.03675
-3.10346 0.660571 7.0058
-3.12307 0.652402 6.92606
-3.15493 0.641738 6.81244
-3.16225 0.637122 6.77056
-3.2065 0.620712 6.60611
-3.22823 0.611307 6.5104
-3.25701 0.601789 6.40674
-3.26529 0.598262 6.37085
-3.33121 0.573551 6.11768
-1.65276 1.37567 12.7401
-2.28387 1.07587 10.2309
-2.30532 1.069 10.1712
-2.32578 1.06212 10.1114
-2.36724 1.0393 9.91905
-2.38281 1.0302 9.84429
-2.40035 1.02218 9.77453
-2.42172 1.01745 9.72475
-2.43725 1.00844 9.65599
-2.44163 1.0027 9.60611
-2.46008 0.995831 9.54634
-2.47461 0.987805 9.47656
-2.49499 0.98208 9.42679
-2.51339 0.976324 9.37501
-2.52498 0.967179 9.29722
-2.54531 0.962542 9.25343
-2.56318 0.948869 9.13975
-2.58544 0.945367 9.10497
-2.59698 0.937325 9.03417
-2.62588 0.9236 8.91657
-2.64755 0.914298 8.82786
-2.66588 0.909675 8.78506
-2.68029 0.902887 8.73126
-2.69373 0.897038 8.67344
-2.72681 0.880961 8.53191
-2.74022 0.874172 8.4781
-2.75754 0.869548 8.4353
-2.77092 0.864818 8.38546
-2.81629 0.844188 8.20608
-2.90613 0.802719 7.83332
-2.91945 0.798092 7.79048
-2.93081 0.793405 7.74363
-2.972 0.776112 7.58718
-2.97648 0.769168 7.52331
-2.99173 0.765691 7.49047
-3.04021 0.74484 7.29611
-3.05446 0.741362 7.26327
-3.07117 0.730998 7.17054
-3.08443 0.727505 7.13668
-3.09572 0.723936 7.09781
-3.09301 0.719372 7.05986
-3.11656 0.711323 6.98814
-3.13812 0.704229 6.9134
-3.16066 0.696195 6.84268
-3.16822 0.68812 6.76985
-3.18538 0.686822 6.74899
-3.19269 0.682206 6.70711
-3.21225 0.67514 6.63435
-3.22369 0.66829 6.57653
-3.24323 0.661253 6.50577
-3.26175 0.654246 6.43701
-3.27731 0.647162 6.36322
-3.28677 0.640281 6.30338
-3.30291 0.639012 6.28452
-3.30033 0.632181 6.22859
-3.31586 0.625171 6.15981
-3.32923 0.620456 6.11097
-3.35263 0.615689 6.05821
-3.36186 0.613251 6.02831
-3.36912 0.609739 5.99341
-3.37342 0.605165 5.95451
-3.38049 0.605022 5.94456
-3.38183 0.599372 5.90065
-3.39005 0.596934 5.87074
-3.40421 0.595633 5.84987
-3.4154 0.593271 5.82498
-3.41968 0.589742 5.78906
-3.42889 0.586334 5.76118
-3.42906 0.583994 5.73821
-3.43333 0.580479 5.70329
-3.44748 0.579193 5.68341
-3.45965 0.576877 5.66153
-3.45602 0.572149 5.61257
-3.46719 0.569816 5.58969
-3.46834 0.567536 5.57073
-3.47853 0.565174 5.54583
-1.65974 1.45559 12.7339
-2.31995 1.1237 10.0825
-2.33946 1.11572 10.0157
-2.35699 1.1077 9.94596
-2.46836 1.05321 9.50355
-2.54055 1.019 9.21656
-2.55505 1.01103 9.15077
-2.64141 0.973495 8.84094
-2.65293 0.965497 8.77313
-2.70242 0.942618 8.57682
-2.7178 0.936904 8.52801
-2.73122 0.930085 8.47221
-2.74659 0.924371 8.4234
-2.74888 0.919811 8.38548
-2.76228 0.914051 8.33366
-2.79396 0.903742 8.24404
-2.80635 0.897982 8.19221
-2.82071 0.892297 8.1454
-2.83604 0.887672 8.10257
-2.84678 0.87523 8.00482
-2.85915 0.869514 7.956
-2.87348 0.864888 7.91317
-2.88681 0.860246 7.86933
-2.9021 0.855695 7.83151
-2.91543 0.851054 7.78767
-2.91377 0.845402 7.74373
-2.92611 0.840745 7.69889
-2.93844 0.835118 7.65606
-2.95078 0.830461 7.61122
-2.96604 0.826954 7.57638
-2.9764 0.821266 7.52953
-2.98898 0.812136 7.45275
-3.00325 0.808628 7.41791
-3.01262 0.80291 7.36906
-3.02689 0.799402 7.33421
-3.0382 0.794804 7.29336
-3.04657 0.789085 7.2445
-3.04977 0.785688 7.21757
-3.05909 0.781073 7.1757
-3.07434 0.777611 7.14387
-3.08366 0.772981 7.101
-3.092 0.768321 7.05612
-3.10428 0.763783 7.01928
-3.11654 0.760289 6.98542
-3.11382 0.755739 6.94846
-3.1261 0.752215 6.9126
-3.14031 0.748811 6.88475
-3.14667 0.743106 6.83688
-3.16188 0.740717 6.81002
-3.17313 0.737237 6.77716
-3.18144 0.732636 6.73628
-3.18068 0.729162 6.70432
-3.18898 0.724591 6.66545
-3.20122 0.721127 6.63359
-3.20951 0.717556 6.5947
-3.2188 0.713015 6.55783
-3.22905 0.709519 6.52395
-3.24227 0.707114 6.49608
-3.24444 0.703776 6.47315
-3.24977 0.699129 6.42925
-3.25805 0.695602 6.39336
-3.26929 0.692136 6.36149
-3.27854 0.688655 6.32861
-3.29075 0.686249 6.30073
-3.29822 0.679337 6.23888
-3.30748 0.675841 6.205
-3.31968 0.672465 6.17914
-3.32596 0.668922 6.14223
-3.33422 0.665425 6.10834
-3.34247 0.661943 6.07545
-3.3466 0.659679 6.05751
-3.35287 0.656166 6.02261
-3.37429 0.650353 5.96685
-3.3776 0.645749 5.92593
-3.39078 0.644418 5.90305
-3.387 0.640986 5.87407
-3.39722 0.637564 5.84519
-3.40248 0.63405 5.81028
-3.42289 0.629266 5.7565
-3.42914 0.625782 5.72359
-3.44033 0.62342 5.69871
-3.44247 0.621155 5.68075
-3.45563 0.619854 5.65987
-3.45693 0.615263 5.61994
-3.4681 0.612931 5.59706
-3.46941 0.60834 5.55713
-3.48257 0.607039 5.53624
-1.65445 1.53606 12.7657
-2.27831 1.21278 10.2919
-2.29494 1.20157 10.2091
-2.31446 1.19357 10.1414
-2.33298 1.18457 10.0727
-2.33839 1.17677 10.0188
-2.35495 1.1677 9.94606
-2.37539 1.16086 9.88831
-2.39193 1.15182 9.81755
-2.41237 1.14398 9.75982
-2.42888 1.13598 9.69205
-2.45074 1.12134 9.58042
-2.47015 1.11456 9.52665
-2.48662 1.10664 9.46389
-2.50213 1.09867 9.39811
-2.52053 1.09189 9.34434
-2.53701 1.08398 9.28258
-2.55148 1.07606 9.21979
-2.55388 1.06929 9.16791
-2.57225 1.06358 9.11912
-2.58771 1.0557 9.05935
-2.60315 1.04886 9.00156
-2.61954 1.0421 8.94977
-2.63495 1.03631 8.89597
-2.6527 1.02388 8.79827
-2.67007 1.01816 8.74948
-2.70084 1.00568 8.64788
-2.74437 0.980734 8.44755
-2.75876 0.973975 8.39575
-2.77508 0.96938 8.35494
-2.78848 0.962606 8.30213
-2.81327 0.950085 8.19849
-2.81752 0.9456 8.16558
-2.82988 0.939899 8.11775
-2.84228 0.934138 8.06593
-2.8566 0.928512 8.02311
-2.86995 0.923856 7.97828
-2.88133 0.917125 7.92845
-2.89596 0.906907 7.8457
-2.90731 0.90122 7.79887
-2.92064 0.896594 7.75603
-2.93592 0.892057 7.71921
-2.94725 0.887414 7.67536
-2.97611 0.873763 7.56276
-2.98548 0.86806 7.51491
-3.04529 0.839567 7.27675
-3.05758 0.836014 7.23889
-3.06691 0.83037 7.19504
-3.1123 0.809695 7.01266
-3.12163 0.804065 6.96981
-3.14417 0.796016 6.89808
-3.16693 0.784553 6.79841
-3.1772 0.781043 6.76354
-3.19676 0.771962 6.68981
-3.22874 0.758076 6.56124
-3.24335 0.748903 6.48147
-3.2741 0.737461 6.38286
-3.27822 0.736212 6.36591
-3.28454 0.73161 6.32502
-3.28689 0.725931 6.27911
-3.30105 0.723616 6.25725
-3.32152 0.716713 6.1955
-3.33328 0.705242 6.09574
-3.34942 0.703988 6.07788
-3.35964 0.700551 6.048
-3.36393 0.696992 6.01008
-3.38159 0.686732 5.92436
-3.40629 0.677374 5.83167
-3.428 0.666999 5.73797
-3.44428 0.663463 5.70114
-3.45054 0.659964 5.66724
-3.45974 0.657586 5.64134
-3.47024 0.649617 5.57553
-3.48354 0.646035 5.53567
-2.71795 1.03348 8.49858
-2.74575 1.01993 8.39297
-2.82931 0.978006 8.05718
-2.84462 0.97241 8.01637
-2.89929 0.94521 7.79816
-2.9087 0.938417 7.74432
-2.92201 0.93382 7.70348
-2.96125 0.913437 7.54106
-2.97357 0.90781 7.49823
-2.99623 0.897539 7.41154
-3.01076 0.888514 7.34177
-3.02403 0.885006 7.30692
-3.03437 0.879348 7.26207
-3.0447 0.874719 7.21921
-3.06018 0.866783 7.15544
-3.08081 0.856585 7.07373
-3.0921 0.852016 7.03488
-3.10143 0.846387 6.99203
-3.11172 0.841817 6.95317
-3.12202 0.837247 6.91431
-3.15507 0.82123 6.77678
-3.1683 0.817795 6.74692
-3.20664 0.797204 6.57049
-3.23446 0.784626 6.46287
-3.29219 0.758295 6.23567
-3.31284 0.748037 6.14996
-3.40138 0.711159 5.81713
-3.40253 0.708849 5.79617
-3.42723 0.698521 5.7055
-3.47045 0.68117 5.54506
-1.6054 1.71286 12.8877
-1.63418 1.69836 12.7852
-2.28749 1.33927 10.2561
-2.30604 1.3292 10.1833
-2.34561 1.30019 9.97803
-2.36507 1.29131 9.9183
-2.38358 1.28233 9.85156
-2.40206 1.27342 9.78883
-2.46083 1.242 9.5557
-2.47731 1.23308 9.49295
-2.56589 1.18713 9.15525
-2.73807 1.09516 8.47581
-2.82361 1.05128 8.14306
-2.84935 1.03887 8.04643
-2.29837 1.39347 10.1333
-2.3169 1.38346 10.0646
-2.33545 1.37339 9.99187
-2.35201 1.36232 9.91915
-2.37248 1.35342 9.85743
-2.4323 1.31993 9.61934
-2.44882 1.30992 9.5506
-2.4692 1.3022 9.50087
-2.48811 1.28545 9.38224
-2.50651 1.27768 9.32949
-2.52493 1.26988 9.27473
-2.53651 1.25876 9.19897
-2.55492 1.25198 9.14521
-2.57231 1.24422 9.09344
-2.60556 1.22082 8.93002
-2.62393 1.21412 8.88225
-2.6374 1.20621 8.82046
-2.65476 1.19952 8.77268
-2.66723 1.19061 8.7109
-2.68595 1.17723 8.61723
-2.70229 1.17058 8.57244
-2.71475 1.16268 8.51164
-2.73207 1.15709 8.47085
-2.74449 1.14927 8.41505
-2.75985 1.14259 8.36826
-2.77262 1.12809 8.26656
-2.78894 1.12248 8.22476
-2.80134 1.11472 8.17296
-2.83102 1.10341 8.08334
-2.84958 1.09334 8.01062
-2.86845 1.07767 7.89698
-2.92991 1.05186 7.70479
-2.93342 1.04187 7.63796
-2.95905 1.03066 7.55531
-2.98861 1.0216 7.48265
-2.9928 1.01823 7.45773
-3.00412 1.01261 7.4149
-3.01644 1.00701 7.37406
-3.04939 0.990169 7.24855
-3.07521 0.976604 7.14193
-3.13921 0.941745 6.87889
-3.15147 0.937251 6.84504
-3.1938 0.914692 6.67067
-3.20309 0.910137 6.6328
-3.25558 0.885275 6.43754
-3.27212 0.876222 6.36579
-3.28237 0.871741 6.33293
-3.29163 0.868245 6.29904
-3.30305 0.861439 6.24422
-3.31329 0.856988 6.21336
-3.32783 0.847934 6.1416
-3.34729 0.84106 6.08184
-3.35258 0.835487 6.04295
-3.35968 0.834314 6.03102
-3.3742 0.826304 5.96224
-3.41126 0.809259 5.82275
-3.42773 0.801369 5.76198
-3.4432 0.794463 5.7002
-3.46208 0.779745 5.58354
-2.28868 1.45574 10.2193
-2.30821 1.44473 10.1506
-2.36379 1.4147 9.94347
-2.36431 1.40368 9.87463
-2.38765 1.39704 9.83089
-2.40127 1.38486 9.75016
-2.41974 1.37594 9.68743
-2.43915 1.36815 9.63368
-2.45666 1.35819 9.56795
-2.48042 1.34373 9.46833
-2.4959 1.33481 9.40557
-2.51334 1.32596 9.34783
-2.58345 1.28591 9.07191
-2.59889 1.27707 9.01415
-2.75356 1.18908 8.40153
-3.12676 0.984561 6.93417
-3.17938 0.956462 6.72295
-3.19064 0.951953 6.6881
-3.2092 0.941871 6.61438
-3.26501 0.911391 6.37722
-3.29475 0.898977 6.28061
-3.29888 0.896729 6.26367
-3.35353 0.868543 6.04647
-3.3753 0.856064 5.94581
-3.38451 0.852657 5.91792
-3.39687 0.84697 5.87109
-3.40413 0.842473 5.83721
-3.41334 0.839065 5.80933
-3.43604 0.82772 5.71765
-3.43818 0.825456 5.6997
-3.44837 0.822078 5.67382
-3.45362 0.818594 5.64091
-3.46086 0.814141 5.61002
-3.46907 0.810732 5.58213
-2.31799 1.50412 10.0408
-2.33747 1.4952 9.97808
-2.35697 1.48424 9.91238
-2.37257 1.47208 9.83367
-2.39299 1.46428 9.77893
-2.43238 1.43561 9.59663
-2.45084 1.42673 9.53689
-2.46831 1.41684 9.47616
-2.48675 1.408 9.41842
-2.50757 1.39142 9.31081
-2.52403 1.38253 9.25006
-2.53952 1.37259 9.18631
-2.5579 1.36486 9.13656
-2.57628 1.35814 9.08679
-2.59172 1.34929 9.02903
-2.59312 1.34052 8.97716
-2.61147 1.33386 8.93139
-2.62496 1.32392 8.86763
-2.64234 1.31719 8.81785
-2.65775 1.3084 8.76409
-2.67216 1.30062 8.71031
-2.68755 1.29286 8.65853
-2.69087 1.28624 8.61665
-2.70236 1.2763 8.55288
-2.71773 1.2696 8.50508
-2.73309 1.2629 8.45729
-2.74552 1.25408 8.40151
-2.76381 1.24852 8.36272
-2.77525 1.23967 8.30493
-2.77464 1.23193 8.25504
-2.79192 1.22638 8.21724
-2.80431 1.21963 8.16643
-2.81672 1.21084 8.11265
-2.83497 1.20637 8.07984
-2.85875 1.19188 7.97822
-2.86102 1.18636 7.94332
-2.87534 1.17974 7.90052
-2.88476 1.17193 7.8457
-2.89516 1.16417 7.79388
-2.9124 1.15971 7.76207
-2.92475 1.15304 7.71626
-2.92406 1.14644 7.67635
-2.93835 1.14188 7.63752
-2.94775 1.13411 7.5857
-2.96498 1.12968 7.55589
-2.97827 1.12412 7.51706
-2.98961 1.11846 7.47223
-3.00122 1.1063 7.39348
-3.01645 1.10185 7.36266
-3.02581 1.09516 7.31582
-3.03811 1.08959 7.27699
-3.04941 1.08401 7.23715
-3.06932 1.06725 7.11754
-3.08652 1.06388 7.09171
-3.10614 1.05268 7.01001
-3.14218 1.03369 6.87455
-3.1608 1.02149 6.79286
-3.21336 0.993499 6.58864
-3.22068 0.987882 6.54677
-3.23289 0.984477 6.51891
-3.25066 0.969996 6.41825
-3.26387 0.966591 6.39039
-3.27115 0.961049 6.35352
-3.28238 0.957613 6.32365
-3.29794 0.94753 6.24991
-3.30639 0.938663 6.1911
-3.32783 0.931821 6.13335
-3.35771 0.917141 6.01878
-3.36398 0.911613 5.9829
-3.37222 0.908145 5.95101
-3.38244 0.903739 5.92315
-3.39068 0.900271 5.89126
-3.39892 0.895819 5.86038
-3.40716 0.892351 5.82849
-3.40436 0.88795 5.80153
-3.41457 0.884558 5.77466
-3.42477 0.88118 5.74878
-3.44122 0.874304 5.689
-3.44747 0.869821 5.65611
-3.45485 0.863086 5.60625
-3.469 0.860801 5.58639
-3.47524 0.856347 5.5555
-2.39302 1.59206 9.76304
-2.41344 1.58325 9.70731
-2.42802 1.57114 9.63159
-2.50125 1.52487 9.34079
-2.51964 1.51611 9.28905
-2.53511 1.50721 9.22729
-2.55253 1.49842 9.17354
-2.60416 1.46428 8.95941
-2.6186 1.45545 8.90264
-2.69599 1.40686 8.5899
-2.71235 1.39916 8.54213
-2.76924 1.36153 8.29508
-2.7836 1.35385 8.2483
-2.79795 1.34718 8.2025
-2.80839 1.33833 8.1447
-2.85562 1.31397 7.98339
-2.86799 1.30626 7.93559
-2.88035 1.29956 7.88778
-2.88976 1.29077 7.83397
-2.90406 1.28521 7.79516
-2.91444 1.27747 7.74534
-2.92707 1.26525 7.66261
-2.94431 1.26081 7.6318
-2.95075 1.25196 7.57397
-2.96602 1.24645 7.53916
-2.97931 1.24088 7.50034
-3.13089 1.15309 6.9007
-3.13921 1.14749 6.85984
-3.1495 1.14192 6.82099
-3.16807 1.13082 6.74629
-3.18983 1.11637 6.64765
-3.20108 1.11188 6.6138
-3.22062 1.10186 6.54408
-3.22988 1.09734 6.50922
-3.25255 1.08506 6.42156
-3.27008 1.07504 6.35183
-3.31652 1.04827 6.16355
-3.32576 1.04481 6.13166
-3.34227 1.03483 6.06493
-3.35993 1.02355 5.97822
-3.36817 1.0191 5.94734
-3.38661 1.01126 5.88959
-3.40522 1.00009 5.80988
-3.41049 0.995572 5.77498
-3.4207 0.992165 5.74711
-3.42891 0.988757 5.71921
-3.45259 0.976457 5.63056
-3.45275 0.974147 5.6096
-3.46196 0.969739 5.58173
-3.47214 0.967392 5.55783
-2.52797 1.60536 9.23678
-2.52941 1.59551 9.17993
-2.54876 1.58783 9.13319
-2.62987 1.54279 8.85743
-2.63222 1.53513 8.81255
-2.64474 1.52313 8.74481
-2.65914 1.51436 8.69205
-2.67455 1.50557 8.63828
-2.68895 1.49781 8.5865
-2.7063 1.49013 8.53974
-2.71874 1.4813 8.48295
-2.72104 1.47371 8.44308
-2.73643 1.46596 8.3923
-2.74981 1.45823 8.34251
-2.76321 1.44947 8.29073
-2.77954 1.44284 8.24695
-2.80728 1.42742 8.15037
-2.82391 1.41322 8.0687
-2.82943 1.4022 7.99989
-2.8467 1.3967 7.9651
-2.86397 1.39118 7.92931
-2.87438 1.3824 7.87651
-2.88576 1.37467 7.8267
-2.89194 1.37132 7.80279
-2.90038 1.36148 7.74599
-2.90879 1.35269 7.69218
-2.92701 1.34826 7.66238
-2.93445 1.33942 7.60556
-2.94873 1.33389 7.56874
-2.95392 1.32952 7.54384
-2.96133 1.32073 7.49002
-2.97365 1.31411 7.44821
-2.99184 1.31176 7.42338
-2.99531 1.30084 7.36155
-3.01351 1.29747 7.33574
-3.02679 1.29195 7.29991
-3.0241 1.28534 7.25899
-3.03836 1.27983 7.22417
-3.04869 1.2732 7.18134
-3.06194 1.26873 7.1485
-3.07324 1.26216 7.10968
-3.08357 1.25553 7.06685
-3.09289 1.24891 7.02501
-3.09314 1.24343 6.99209
-3.10637 1.23898 6.96125
-3.11372 1.2323 6.9154
-3.12501 1.22676 6.87856
-3.13922 1.22236 6.85073
-3.14755 1.21573 6.80789
-3.15488 1.20908 6.76403
-3.16002 1.20682 6.7461
-3.16341 1.19807 6.69525
-3.17369 1.19253 6.6584
-3.18888 1.18917 6.63357
-3.19521 1.18252 6.58971
-3.21038 1.18021 6.56785
-3.21966 1.17467 6.531
-3.22185 1.1703 6.50608
-3.22915 1.16473 6.46721
-3.2394 1.15925 6.43436
-3.24571 1.15365 6.39349
-3.25695 1.1492 6.36263
-3.26916 1.14479 6.33479
-3.26542 1.13929 6.30083
-3.27467 1.1348 6.26797
-3.28688 1.1314 6.2401
-3.29614 1.1259 6.20625
-3.30341 1.12139 6.17137
-3.31462 1.11698 6.14351
-3.31894 1.11037 6.10164
-3.3376 1.09809 6.01495
-3.34881 1.0947 5.98808
-3.35902 1.09029 5.96022
-3.36333 1.0847 5.92033
-3.37371 1.07697 5.87051
-3.38096 1.07248 5.83663
-3.40334 1.06575 5.78689
-3.40763 1.06021 5.75
-3.41486 1.05575 5.71912
-3.418 1.05349 5.70117
-3.43739 1.04673 5.64941
-3.44266 1.04122 5.61453
-3.45087 1.03781 5.58664
-3.45612 1.03233 5.55375
-3.46632 1.02895 5.52787
-2.77527 1.52727 8.27567
-2.78704 1.50878 8.17502
-2.80041 1.50107 8.12623
-2.82061 1.49768 8.09943
-2.83203 1.48789 8.04565
-2.84536 1.48125 8.00184
-2.87432 1.45942 7.87737
-2.88863 1.45283 7.83657
-2.89706 1.44299 7.77977
-2.95256 1.41112 7.58363
-2.9639 1.40347 7.53982
-3.02373 1.36395 7.29983
-3.08147 1.32762 7.07277
-3.14445 1.28582 6.81383
-3.15572 1.28031 6.77899
-3.17627 1.26926 6.70729
-3.19603 1.2528 6.60767
-3.20629 1.24729 6.57283
-3.21654 1.24281 6.53997
-3.22583 1.23727 6.50311
-3.24535 1.22626 6.43441
-3.26701 1.21299 6.34776
-3.27528 1.20748 6.3129
-3.31543 1.18427 6.16253
-3.35569 1.15986 5.99817
-3.37531 1.14766 5.91649
-3.38158 1.14215 5.88161
-3.39079 1.13774 5.85374
-3.41647 1.12544 5.7651
-3.42059 1.12321 5.74917
-3.42289 1.11662 5.70927
-3.44327 1.1099 5.65952
-3.46711 1.09329 5.54993
-2.77278 1.58018 8.20186
-2.94388 1.46341 7.53578
-2.96111 1.45898 7.50598
-3.0067 1.42393 7.29881
-3.03154 1.40431 7.18827
-3.19131 1.30117 6.56492
-3.20986 1.29012 6.49321
-3.21498 1.2869 6.47829
-3.23452 1.27586 6.4076
-3.24377 1.27138 6.37473
-3.25402 1.2659 6.34188
-3.26525 1.26146 6.31203
-3.2745 1.25598 6.27917
-3.2747 1.25158 6.25224
-3.28396 1.2461 6.21938
-3.29615 1.24273 6.19352
-3.30146 1.23614 6.15365
-3.3107 1.23067 6.1218
-3.32586 1.22837 6.10094
-3.32722 1.21968 6.05408
-3.32838 1.21637 6.03313
-3.33565 1.21086 5.99826
-3.34784 1.20748 5.9724
-3.35411 1.20197 5.93752
-3.36334 1.19753 5.90766
-3.37158 1.19208 5.87679
-3.39218 1.17992 5.79812
-3.39744 1.17442 5.76424
-3.4106 1.17212 5.74337
-3.41586 1.16661 5.70848
-3.42113 1.1611 5.6736
-3.4305 1.15338 5.62478
-3.45516 1.14011 5.53815
-3.4706 1.13228 5.48137
-2.78199 1.65267 8.16685
-2.79341 1.64288 8.11307
-2.90268 1.56462 7.686
-2.91893 1.55914 7.6532
-3.06513 1.4621 7.10466
-3.07348 1.45443 7.05883
-3.08575 1.44792 7.02401
-3.09899 1.44345 6.99217
-3.10657 1.42933 6.91643
-3.11884 1.42383 6.8816
-3.13404 1.41945 6.85577
-3.15066 1.40525 6.7741
-3.17143 1.38777 6.6735
-3.17776 1.38014 6.63065
-3.18704 1.3736 6.59382
-3.20322 1.37027 6.57098
-3.22374 1.35928 6.50329
-3.23419 1.3494 6.44351
-3.24543 1.34395 6.41267
-3.25567 1.3385 6.38182
-3.29189 1.31214 6.22146
-3.30311 1.30774 6.19361
-3.34948 1.2781 6.01337
-3.36499 1.26713 5.94764
-3.36139 1.25736 5.89575
-3.38576 1.25065 5.84703
-3.38789 1.24739 5.82909
-3.40008 1.24404 5.80523
-3.40435 1.23751 5.76935
-3.40962 1.232 5.73447
-3.42705 1.22317 5.67772
-3.44761 1.2121 5.60503
-3.46731 1.19776 5.51338
-3.48144 1.1955 5.49552
-3.13841 1.49962 6.79861
-3.14597 1.48553 6.72487
-3.1592 1.48109 6.69503
-3.16751 1.47351 6.6552
-3.17876 1.46803 6.62236
-3.19395 1.46467 6.59752
-3.19831 1.45498 6.55069
-3.2137 1.44623 6.49993
-3.21707 1.43651 6.45109
-3.22535 1.42997 6.41425
-3.23954 1.42663 6.3904
-3.24782 1.42009 6.35355
-3.26122 1.41033 6.30179
-3.27382 1.39617 6.22308
-3.287 1.39282 6.19923
-3.29625 1.38734 6.16638
-3.30352 1.38083 6.13152
-3.3047 1.37649 6.10859
-3.31591 1.37208 6.08074
-3.33045 1.35904 6.01003
-3.37874 1.33158 5.84178
-3.39224 1.31961 5.77605
-3.4054 1.31731 5.75518
-3.41808 1.301 5.6665
-3.43255 1.2911 5.60475
-3.44273 1.28675 5.58089
-3.44702 1.28021 5.54401
-3.89258 -0.415973 4.04027
-3.89675 -0.41531 4.01729
-3.89695 -0.41471 3.99028
-3.90509 -0.414971 3.97234
-3.91322 -0.415231 3.9544
-3.91342 -0.414616 3.92839
-3.91559 -0.414955 3.90541
-3.92363 -0.415023 3.90047
-3.92283 -0.414424 3.87345
-3.93196 -0.414669 3.85652
-3.94604 -0.414822 3.84563
-3.94226 -0.414254 3.81659
-3.94841 -0.414546 3.79663
-3.9495 -0.414723 3.78464
-3.95763 -0.413968 3.76769
-4.07122 -0.412965 3.29047
-3.90333 -0.377494 3.93677
-3.92693 -0.377662 3.85694
-3.94527 -0.378315 3.81208
-3.95776 -0.378268 3.74716
-4.0372 -0.378024 3.42271
-4.05776 -0.378105 3.34886
-4.0638 -0.378189 3.3429
-4.07723 -0.378024 3.28599
-4.08353 -0.378596 3.24705
-4.09289 -0.378301 3.1991
-4.10729 -0.37809 3.1452
-4.11342 -0.378337 3.12825
-4.11449 -0.378484 3.11826
-4.64286 -0.394339 1.08019
-4.64298 -0.394576 1.0642
-4.65307 -0.394761 1.05127
-4.65718 -0.394965 1.0373
-4.6573 -0.395202 1.02131
-4.6694 -0.396386 1.00841
-4.67051 -0.396607 0.993423
-4.66359 -0.39576 0.983357
-4.67867 -0.396912 0.972486
-4.67691 -0.396387 0.940461
-4.68501 -0.396589 0.926523
-4.68214 -0.396828 0.910502
-4.68425 -0.397048 0.895519
-4.69229 -0.397131 0.88958
-4.69541 -0.397351 0.874605
-4.70351 -0.397553 0.860667
-4.70862 -0.398756 0.846722
-4.70774 -0.397994 0.830701
-4.71097 -0.398451 0.799728
-4.71102 -0.398554 0.792729
-4.71614 -0.398773 0.777769
-4.72124 -0.398976 0.763808
-4.72835 -0.399178 0.749863
-4.73769 -0.399838 0.704937
-4.73974 -0.39994 0.697953
-4.75495 -0.401343 0.670085
-4.75319 -0.401819 0.638074
-4.7603 -0.402021 0.624129
-4.76734 -0.402104 0.618182
-4.76446 -0.402343 0.602162
-4.77057 -0.402546 0.588209
-4.77568 -0.402765 0.573248
-4.78378 -0.402966 0.55931
-4.78491 -0.403202 0.54332
-4.78103 -0.403442 0.527292
-4.79212 -0.403626 0.514377
-4.79118 -0.403746 0.50637
-4.79741 -0.404185 0.47642
-4.80851 -0.404384 0.462504
-4.80464 -0.404624 0.446477
-4.81873 -0.404806 0.433584
-4.81991 -0.405146 0.410594
-4.82003 -0.405383 0.394597
-4.82414 -0.405602 0.379629
-4.82625 -0.405823 0.364646
-4.82437 -0.406046 0.349633
-4.83048 -0.406264 0.33468
-4.84052 -0.407345 0.328771
-4.84064 -0.407582 0.312773
-4.84476 -0.407801 0.297805
-4.85087 -0.408019 0.282853
-4.85398 -0.408239 0.267877
-4.86009 -0.408442 0.253924
-4.85921 -0.408679 0.237919
-4.86826 -0.408776 0.230988
-4.85938 -0.40902 0.214922
-4.86949 -0.409234 0.199999
-4.8766 -0.409437 0.186054
-4.88371 -0.409654 0.171109
-4.88583 -0.409874 0.156126
-4.89094 -0.410093 0.141166
-4.89206 -0.410329 0.125175
-4.89311 -0.410432 0.118184
-4.89623 -0.410666 0.102209
-4.90534 -0.411867 0.088293
-4.90446 -0.412104 0.0722877
-4.90869 -0.41256 0.0413221
-4.91481 -0.412778 0.0263693
-4.91786 -0.412879 0.0193928
-4.92697 -0.413095 0.0044626
-4.92709 -0.413332 -0.0115352
-4.9282 -0.413553 -0.0265256
-4.93532 -0.413785 -0.0424707
-4.92944 -0.414011 -0.0575138
-4.9405 -0.414122 -0.0654299
-4.95584 -0.415791 -0.111296
-4.95996 -0.416011 -0.126264
-4.95908 -0.416248 -0.142269
-4.96937 -0.416818 -0.181188
-4.96748 -0.417042 -0.196201
-4.98472 -0.417488 -0.227069
-3.89867 -0.350227 4.02234
-3.90074 -0.350374 4.01236
-3.90312 -0.350127 3.96136
-3.91821 -0.350279 3.95048
-3.93894 -0.350701 3.85363
-3.94607 -0.350962 3.83568
-3.95955 -0.350885 3.77277
-3.9628 -0.351386 3.7388
-4.03584 -0.352346 3.46833
-4.04395 -0.351563 3.45338
-4.0554 -0.352443 3.39347
-4.06244 -0.352512 3.38852
-4.09451 -0.352591 3.24674
-4.10164 -0.352838 3.2298
-4.10478 -0.353117 3.21082
-4.11406 -0.352658 3.17388
-4.11927 -0.353069 3.14592
-4.13053 -0.353579 3.11101
-4.13267 -0.353859 3.09203
-4.6408 -0.371254 1.08584
-4.65089 -0.371439 1.07291
-4.65899 -0.372626 1.05999
-4.64513 -0.371917 1.04087
-4.65723 -0.372101 1.02796
-4.66334 -0.372304 1.01401
-4.6634 -0.372422 1.00601
-4.66551 -0.372643 0.99103
-4.66762 -0.372864 0.976047
-4.67174 -0.373083 0.961079
-4.67884 -0.373285 0.947134
-4.68695 -0.373486 0.933196
-4.68906 -0.373707 0.918213
-4.68912 -0.373825 0.910214
-4.70022 -0.37501 0.897314
-4.69634 -0.374249 0.881271
-4.70544 -0.37445 0.867341
-4.70357 -0.374688 0.851328
-4.70867 -0.374892 0.837367
-4.71472 -0.374991 0.830414
-4.71783 -0.375196 0.816438
-4.71296 -0.375452 0.799403
-4.71906 -0.375654 0.78545
-4.72817 -0.375855 0.771519
-4.72928 -0.376076 0.756529
-4.73639 -0.377279 0.742598
-4.73751 -0.376515 0.726593
-4.73856 -0.376618 0.719602
-4.73868 -0.376854 0.703604
-4.75078 -0.378038 0.690711
-4.74989 -0.378261 0.675705
-4.74901 -0.377498 0.659685
-4.75812 -0.378699 0.64577
-4.75724 -0.377937 0.62975
-4.76228 -0.379022 0.623803
-4.7634 -0.379258 0.607813
-4.76951 -0.379461 0.59386
-4.77262 -0.379681 0.578884
-4.77473 -0.379901 0.563902
-4.78184 -0.380103 0.549956
-4.78689 -0.380203 0.542995
-4.78801 -0.380439 0.527004
-4.79412 -0.380642 0.513052
-4.80134 -0.381081 0.483108
-4.79946 -0.38132 0.467095
-4.80158 -0.38154 0.452113
-4.81062 -0.381622 0.446181
-4.80874 -0.381861 0.430168
-4.81685 -0.382062 0.41623
-4.82496 -0.382278 0.401293
-4.82507 -0.3825 0.386295
-4.82919 -0.382719 0.371327
-4.83929 -0.382919 0.357404
-4.83541 -0.383159 0.341376
-4.83647 -0.383277 0.333385
-4.84058 -0.383496 0.318417
-4.8397 -0.383719 0.303411
-4.8538 -0.383916 0.289519
-4.85192 -0.384154 0.273506
-4.85304 -0.384375 0.258516
-4.85915 -0.384593 0.243563
-4.8632 -0.385694 0.236609
-4.86732 -0.385913 0.221641
-4.87443 -0.38613 0.206696
-4.88054 -0.386347 0.191743
-4.88365 -0.386567 0.176767
-4.88877 -0.386786 0.161807
-4.88495 -0.387144 0.13778
-4.89206 -0.387361 0.122835
-4.90117 -0.387561 0.108905
-4.90029 -0.387799 0.0928993
-4.9074 -0.388016 0.0779541
-4.90651 -0.388239 0.0629486
-4.91157 -0.388354 0.0549873
-4.92069 -0.388569 0.0400571
-4.9218 -0.38879 0.0250667
-4.92392 -0.390026 0.00909875
-4.92503 -0.390247 -0.00589165
-4.92615 -0.390483 -0.0218819
-4.93527 -0.390698 -0.0368121
-4.94138 -0.390916 -0.0517649
-4.94544 -0.391032 -0.0597337
-4.94655 -0.391253 -0.0747241
-4.94467 -0.391491 -0.090737
-4.95378 -0.391707 -0.105667
-4.9559 -0.391942 -0.12165
-4.96314 -0.392396 -0.152593
-4.97743 -0.393963 -0.191467
-4.98267 -0.394418 -0.222426
-4.99079 -0.394649 -0.238363
-3.9033 -0.306532 3.93372
-3.93116 -0.3072 3.81992
-3.94029 -0.307445 3.80299
-3.94454 -0.307945 3.76902
-3.96359 -0.30802 3.76317
-3.95782 -0.307484 3.73211
-3.97091 -0.307652 3.72021
-4.02373 -0.309197 3.4786
-4.02689 -0.309506 3.45762
-4.03302 -0.309768 3.43967
-4.03609 -0.309899 3.4307
-4.0424 -0.310501 3.38975
-4.04953 -0.310748 3.3728
-4.05367 -0.310026 3.35382
-4.06278 -0.310242 3.33889
-4.07214 -0.310946 3.29096
-4.0806 -0.310843 3.23002
-4.09187 -0.311353 3.19511
-4.11116 -0.311917 3.15625
-4.10834 -0.312274 3.13223
-4.11248 -0.312537 3.11427
-4.64213 -0.334953 1.0383
-4.65856 -0.3358 0.980431
-4.72339 -0.339337 0.738938
-4.73872 -0.339977 0.695057
-4.74711 -0.340741 0.643125
-4.77906 -0.342583 0.517375
-4.78017 -0.342805 0.502385
-4.78428 -0.343024 0.487417
-4.79456 -0.343564 0.450497
-4.82029 -0.345982 0.353714
-4.82951 -0.346404 0.324785
-4.83162 -0.346625 0.309803
-4.87064 -0.348596 0.175107
-4.87287 -0.349053 0.144126
-4.8791 -0.349493 0.114176
-4.88732 -0.349931 0.0842399
-4.89949 -0.350248 0.0623332
-4.91295 -0.351142 0.00143946
-4.91413 -0.351496 -0.0225497
-4.93235 -0.352927 -0.0523953
-4.93359 -0.353385 -0.0833835
-4.93576 -0.353724 -0.106365
-4.94699 -0.354175 -0.137278
-4.95823 -0.354626 -0.168191
-4.97046 -0.355076 -0.199097
-4.97663 -0.355412 -0.222048
-3.87936 -0.275731 4.0561
-3.88352 -0.276054 4.03413
