-5.90734 0.736923 6.78271
-5.9047 0.73221 6.73475
-5.90701 0.728605 6.69382
-5.90024 0.725156 6.66381
-5.89859 0.721474 6.61785
-5.90883 0.719008 6.58596
-5.90519 0.71431 6.53899
-5.91246 0.711782 6.50308
-5.90385 0.707007 6.45108
-5.89807 0.703588 6.42308
-5.90167 0.697407 6.34319
-5.91221 0.691363 6.27235
-5.90062 0.685556 6.21834
-5.90489 0.683026 6.1824
-5.89811 0.679607 6.1544
-5.90337 0.677093 6.11947
-5.90764 0.674563 6.08354
-5.90397 0.670924 6.04056
-5.90426 0.667347 6.00161
-5.90556 0.663771 5.96266
-5.90287 0.660162 5.92169
-5.90133 0.655273 5.86174
-5.89864 0.651664 5.82077
-5.90289 0.648164 5.78685
-5.90814 0.645679 5.75392
-5.89751 0.640961 5.70591
-5.90473 0.639522 5.67598
-5.90686 0.638272 5.65901
-5.90317 0.634663 5.61803
-5.90047 0.631084 5.57906
-5.90869 0.62866 5.55015
-5.90698 0.626097 5.51217
-5.90527 0.622533 5.4742
-5.91546 0.621156 5.4483
-5.91275 0.617591 5.41033
-5.90296 0.614185 5.3833
-5.91216 0.612792 5.35638
-5.89952 0.608087 5.30935
-5.90277 0.605601 5.27641
-5.90402 0.603113 5.24345
-5.91123 0.601704 5.21552
-5.90355 0.597077 5.17353
-5.90964 0.596904 5.16157
-5.90915 0.590897 5.09365
-5.91338 0.589456 5.0637
-5.90866 0.585905 5.02671
-5.90593 0.58237 4.99074
-5.91003 0.582181 4.97777
-5.91177 0.574731 4.87988
-5.90705 0.57118 4.84289
-5.9063 0.568691 4.80992
-5.91151 0.566296 4.78299
-5.90217 0.558986 4.69501
-5.89844 0.556466 4.66002
-5.89967 0.554022 4.63006
-5.90288 0.55161 4.60212
-5.90446 0.546472 4.52519
-5.89873 0.54295 4.4902
-5.90293 0.541553 4.46325
-5.9131 0.540235 4.44134
-5.90241 0.526666 4.26844
-5.90705 0.520412 4.18355
-5.90163 0.514283 4.10759
-5.90128 0.50801 4.02167
-5.90347 0.469811 3.46817
-5.90155 0.459693 3.32529
-5.89961 0.450619 3.18539
-5.90039 0.389387 2.15716
-5.90088 0.386425 2.0922
-5.91002 0.386165 2.07427
-5.91524 0.385725 2.04431
-5.89272 1.07801 9.62294
-5.90213 1.07222 9.56909
-5.89771 1.06407 9.49217
-5.90515 1.05922 9.43429
-5.88862 1.05129 9.37227
-5.89605 1.04647 9.31639
-5.89557 1.03845 9.2475
-5.88816 1.03029 9.16955
-5.9025 1.02665 9.12571
-5.90298 1.0197 9.0618
-5.89186 1.00699 8.94689
-5.89234 1.00104 8.88297
-5.89084 0.994079 8.81806
-5.90415 0.990467 8.77621
-5.90364 0.98452 8.71228
-5.90212 0.977586 8.64936
-5.89345 0.972929 8.60536
-5.89732 0.96123 8.49055
-5.89283 0.954235 8.42361
-5.90316 0.950606 8.38073
-5.90261 0.944718 8.32081
-5.907 0.938967 8.26992
-5.90348 0.933032 8.20697
-5.90171 0.929586 8.17701
-5.89323 0.922559 8.10804
-5.90453 0.918975 8.06817
-5.89803 0.911994 8.00221
-5.90438 0.907318 7.95633
-5.90381 0.902489 7.90038
-5.89748 0.893167 7.81146
-5.90283 0.88849 7.76557
-5.9062 0.883768 7.71665
-5.90858 0.879044 7.66774
-5.90402 0.873182 7.60978
-5.90201 0.860242 7.47894
-5.9014 0.855472 7.427
-5.90574 0.85081 7.38209
-5.90116 0.844992 7.32714
-5.90983 0.837696 7.2393
-5.89849 0.828401 7.15234
-5.90975 0.825905 7.11845
-5.90317 0.820072 7.06248
-5.91047 0.8165 7.02359
-5.90388 0.810696 6.96962
-5.8945 0.802476 6.88765
-5.90574 0.800011 6.85577
-5.89617 0.79416 6.79878
-5.91139 0.792757 6.77091
-5.9028 0.786936 6.71592
-5.90644 0.778696 6.63206
-5.90165 0.776278 6.60406
-5.89901 0.771581 6.5571
-5.90727 0.769083 6.5232
-5.90165 0.764339 6.47322
-5.91089 0.761872 6.44132
-5.90427 0.756128 6.39135
-5.89483 0.749026 6.31737
-5.90407 0.746559 6.28547
-5.89644 0.741828 6.23648
-5.91064 0.740454 6.2106
-5.89905 0.734646 6.15659
-5.89966 0.727462 6.07669
-5.90972 0.727337 6.06777
-5.90239 0.718029 5.97984
-5.90169 0.714436 5.93988
-5.90327 0.708313 5.86397
-5.90782 0.701236 5.7911
-5.90301 0.698877 5.7671
-5.90429 0.69633 5.73014
-5.90656 0.692799 5.6942
-5.90385 0.68922 5.65523
-5.9101 0.686751 5.62331
-5.90343 0.682095 5.57932
-5.9047 0.679578 5.54437
-5.89689 0.676188 5.51835
-5.90412 0.674749 5.48842
-5.89744 0.670122 5.44644
-5.9126 0.669822 5.42555
-5.90096 0.664104 5.37754
-5.9042 0.661632 5.3456
-5.90136 0.660319 5.32459
-5.90785 0.655377 5.26071
-5.89917 0.650734 5.21771
-5.90043 0.648232 5.18375
-5.90168 0.644745 5.1508
-5.91188 0.643367 5.1249
-5.90133 0.637471 5.0649
-5.89662 0.633906 5.02691
-5.89786 0.631433 4.99495
-5.90011 0.628961 4.963
-5.90036 0.626473 4.93003
-5.89763 0.622938 4.89406
-5.89899 0.619243 4.84712
-5.89649 0.61325 4.78018
-5.90468 0.611886 4.75526
-5.89921 0.605846 4.6853
-5.89758 0.602134 4.63733
-5.89682 0.59866 4.60537
-5.90302 0.597265 4.57844
-5.89927 0.594774 4.54544
-5.89952 0.5913 4.51349
-5.89875 0.588841 4.48252
-5.89699 0.586366 4.45054
-5.89933 0.582716 4.4066
-5.90123 0.564003 4.15586
-5.89647 0.560526 4.12387
-5.89691 0.556667 4.06592
-5.89787 0.546788 3.93906
-5.90007 0.544405 3.91311
-5.89729 0.541959 3.88312
-5.89874 0.528133 3.69231
-5.89725 0.504233 3.3616
-5.89753 0.50167 3.32364
-5.8981 0.496561 3.24871
-5.90825 0.496272 3.22879
-5.8987 0.482438 3.03789
-5.89771 0.473454 2.904
-5.89837 0.452258 2.55327
-5.89914 0.445749 2.45136
-5.9003 0.444424 2.42938
-5.90187 0.425392 2.08963
-5.90204 0.425066 2.06763
-5.89666 1.12513 9.36024
-5.90211 1.11926 9.30136
-5.89889 1.07884 8.93588
-5.89936 1.07192 8.87398
-5.90387 1.03703 8.54348
-5.90477 1.02428 8.42566
-5.90521 1.01842 8.36774
-5.90275 0.996402 8.16402
-5.9012 0.989528 8.1051
-5.90561 0.929933 7.52494
-5.91393 0.53588 3.13423
-5.91358 0.529606 3.04831
-5.91495 0.525897 3.00037
-5.88941 1.19753 9.38711
-5.88696 1.18845 9.31422
-5.89043 1.18153 9.25234
-5.88081 1.16085 9.07155
-5.88625 1.15399 9.01368
-5.88772 1.14707 8.95179
-5.8882 1.14013 8.88789
-5.89064 1.13427 8.82998
-5.88345 1.1217 8.7241
-5.89083 1.11596 8.67423
-5.89228 1.11009 8.61532
-5.88977 1.10213 8.55041
-5.89516 1.09638 8.49953
-5.89858 1.09057 8.44464
-5.88935 1.07905 8.34272
-5.88881 1.07216 8.28281
-5.89023 1.06633 8.2269
-5.89362 1.06058 8.17601
-5.89504 1.05475 8.12009
-5.88437 1.04911 8.07709
-5.89073 1.04442 8.0302
-5.89608 1.03973 7.98331
-5.89353 1.03285 7.92438
-5.89988 1.02818 7.87849
-5.90028 1.02239 7.82557
-5.8997 1.01658 7.77065
-5.89297 1.01205 7.73566
-5.89336 1.00629 7.68374
-5.89475 1.00053 7.63283
-5.89712 0.995809 7.58391
-5.89454 0.989993 7.52897
-5.89393 0.984223 7.47704
-5.8945 0.976113 7.40216
-5.8939 0.970344 7.35023
-5.89822 0.96571 7.30732
-5.89958 0.961016 7.2604
-5.89797 0.955245 7.20846
-5.9023 0.950612 7.16556
-5.90285 0.943547 7.09366
-5.89824 0.937774 7.0417
-5.89662 0.932033 6.99177
-5.90029 0.923733 6.90391
-5.90064 0.918053 6.85799
-5.90331 0.909753 6.77012
-5.89456 0.905258 6.73711
-5.90084 0.901715 6.70021
-5.89622 0.895957 6.64925
-5.90151 0.892399 6.61134
-5.9058 0.888839 6.57342
-5.90018 0.883095 6.52345
-5.90646 0.880552 6.48653
-5.90364 0.877195 6.46256
-5.89207 0.870358 6.40657
-5.89933 0.867845 6.37165
-5.9056 0.864332 6.33675
-5.89996 0.859617 6.28877
-5.90028 0.855011 6.24783
-5.90142 0.853731 6.22886
-5.89281 0.84697 6.17789
-5.89906 0.844471 6.14396
-5.90036 0.840895 6.10502
-5.89769 0.836257 6.06207
-5.89601 0.831634 6.02012
-5.90226 0.82915 5.98719
-5.88882 0.820045 5.91322
-5.90002 0.818654 5.88632
-5.89436 0.813984 5.84134
-5.89267 0.809391 5.80139
-5.90387 0.807999 5.77449
-5.8982 0.803344 5.73051
-5.8904 0.799953 5.7045
-5.89962 0.797531 5.6756
-5.89296 0.792875 5.63161
-5.89621 0.790374 5.59767
-5.90146 0.786904 5.56576
-5.89578 0.782264 5.52278
-5.902 0.779839 5.49385
-5.90115 0.778557 5.47486
-5.89845 0.773964 5.43491
-5.89375 0.770368 5.39492
-5.90296 0.767975 5.36802
-5.89429 0.763318 5.32402
-5.90051 0.760893 5.2951
-5.90375 0.758422 5.26315
-5.90104 0.754858 5.22518
-5.89522 0.751513 5.20218
-5.90044 0.749088 5.17325
-5.9007 0.74657 5.13829
-5.90095 0.743082 5.10534
-5.90221 0.740579 5.07138
-5.90246 0.737091 5.03843
-5.90073 0.733557 5.00246
-5.89589 0.731243 4.98146
-5.89317 0.727708 4.94548
-5.8944 0.72425 4.91454
-5.90161 0.722856 4.88761
-5.90483 0.720414 4.85767
-5.90707 0.717957 4.82672
-5.9083 0.715499 4.79576
-5.89948 0.712138 4.77174
-5.90072 0.70968 4.74078
-5.89997 0.706191 4.70782
-5.89723 0.702686 4.67385
-5.90045 0.701259 4.64489
-5.90565 0.698863 4.61796
-5.9039 0.695373 4.58499
-5.89905 0.693089 4.56599
-5.90724 0.691724 4.54107
-5.90051 0.688187 4.50506
-5.90671 0.686806 4.47913
-5.90594 0.683347 4.44817
-5.90816 0.680919 4.41922
-5.90242 0.677412 4.38522
-5.89955 0.676144 4.36722
-5.90475 0.673763 4.34129
-5.89702 0.670224 4.30528
-5.90023 0.668827 4.27832
-5.90443 0.66643 4.25138
-5.90068 0.662954 4.2194
-5.90886 0.661605 4.19548
-5.89803 0.659271 4.17343
-5.90123 0.656874 4.14648
-5.90543 0.655492 4.12053
-5.90365 0.653047 4.09055
-5.90287 0.649617 4.06159
-5.90508 0.648219 4.03462
-5.90728 0.645821 4.00767
-5.90143 0.643536 3.98866
-5.89865 0.64109 3.95867
-5.90284 0.639723 3.93372
-5.90106 0.636292 3.90475
-5.90923 0.635972 3.88282
-5.90944 0.633558 3.85485
-5.90777 0.629921 3.81189
-5.90996 0.627537 3.78593
-5.90718 0.625106 3.75694
-5.9074 0.622692 3.72898
-5.90859 0.621308 3.703
-5.90581 0.618877 3.67401
-5.90313 0.615253 3.63204
-5.89935 0.611821 3.60306
-5.90452 0.610484 3.58012
-5.91169 0.610164 3.55817
-5.90692 0.606717 3.52818
-5.90045 0.600676 3.45821
-5.90661 0.599369 3.43728
-5.90979 0.598016 3.41332
-5.90501 0.595584 3.38431
-5.90938 0.591862 3.33539
-5.91066 0.589315 3.29844
-5.90687 0.586898 3.27044
-5.91304 0.586577 3.24849
-5.90863 0.579419 3.17055
-5.909 0.576694 3.12159
-5.9081 0.575501 3.1086
-5.90829 0.573131 3.08363
-5.91046 0.571792 3.06066
-5.91265 0.56147 2.90381
-5.91261 0.543636 2.64504
-5.91374 0.533431 2.49618
-5.88546 1.24539 9.24236
-5.88716 1.20313 8.88795
-5.89554 1.19739 8.83709
-5.89798 1.19053 8.7792
-5.89707 1.15846 8.50463
-5.89951 1.15162 8.44774
-5.90742 0.652645 3.59052
-5.91057 0.630444 3.30683
-5.87912 1.14751 7.96858
-5.88088 1.07323 7.34261
-5.88888 0.883907 5.63323
-5.88588 0.869951 5.5014
-5.8894 0.862932 5.43252
-5.89193 0.855913 5.36363
-5.88637 0.849036 5.30469
-5.89087 0.843063 5.2388
-5.89338 0.836073 5.17191
-5.88769 0.831477 5.13193
-5.88682 0.830225 5.11494
-5.89031 0.823265 5.05006
-5.88758 0.819731 5.01409
-5.89876 0.818384 4.99019
-5.88908 0.813755 4.94818
-5.88833 0.810266 4.91522
-5.88794 0.789128 4.7035
-5.88977 0.778517 4.59466
-5.89001 0.776043 4.56269
-5.89219 0.736844 4.14423
-5.89051 0.686407 3.57489
-5.8916 0.674276 3.43105
-5.89279 0.671907 3.40609
-5.89299 0.669523 3.38013
-5.89186 0.66082 3.26523
-5.89105 0.658434 3.23926
-5.89323 0.656095 3.21631
-5.89886 0.650856 3.13241
-5.89109 0.647407 3.1024
-5.89092 0.638778 2.99251
-5.89409 0.627501 2.83868
-5.89328 0.625131 2.81371
-5.89645 0.623807 2.79175
-5.89563 0.622451 2.76776
-5.89779 0.621127 2.74579
-5.89407 0.617577 2.70881
-5.89525 0.616237 2.68584
-5.89542 0.614897 2.66286
-5.89958 0.613589 2.6419
-5.89478 0.611201 2.6159
-5.90192 0.610925 2.59695
-5.89421 0.607357 2.55894
-5.89373 0.602335 2.49001
-5.89291 0.600994 2.46702
-5.89108 0.598652 2.44403
-5.8945 0.594841 2.38911
-5.89483 0.59219 2.34514
-5.90098 0.591898 2.32519
-5.89317 0.589522 2.30016
-5.89434 0.588197 2.27819
-5.89159 0.585692 2.2442
-5.8979 0.58309 2.20328
-5.89325 0.580405 2.15728
-5.89242 0.578079 2.13531
-5.89266 0.576606 2.10332
-5.89283 0.57528 2.08134
-5.88729 1.40461 8.85096
-5.88776 1.39569 8.78909
-5.88908 1.32129 8.22212
-5.88959 1.29536 8.02448
-5.90279 0.884337 4.58119
-5.90354 0.834027 4.08787
-5.90343 0.757634 2.91384
-5.90424 0.748051 2.80697
-5.9046 0.744356 2.76002
-5.90371 0.702318 2.21756
-5.87189 1.49933 8.62941
-5.87729 1.49155 8.57656
-5.87676 1.48263 8.51468
-5.88216 1.47585 8.46181
-5.88458 1.46805 8.40794
-5.8714 1.45245 8.30005
-5.87778 1.44571 8.2502
-5.88217 1.43896 8.19932
-5.884 1.42333 8.08955
-5.88683 1.40874 7.98177
-5.87912 1.40217 7.94381
-5.88349 1.39645 7.89492
-5.8829 1.38865 7.84102
-5.88569 1.37411 7.73724
-5.8851 1.34838 7.5526
-5.88746 1.34267 7.50469
-5.88884 1.33594 7.45579
-5.88822 1.32919 7.40488
-5.8896 1.32246 7.35599
-5.88161 1.30349 7.22319
-5.88593 1.26298 6.91878
-5.89058 1.25171 6.83297
-5.88796 1.24499 6.78404
-5.88997 1.22802 6.65129
-5.89013 1.22471 6.63034
-5.88551 1.21797 6.58039
-5.89094 1.19419 6.39276
-5.8853 1.18747 6.34481
-5.88603 1.15812 6.11822
-5.89259 1.14903 6.04439
-5.88595 1.14233 5.99744
-5.89095 1.12638 5.86569
-5.88658 1.11616 5.7838
-5.89042 1.10252 5.67302
-5.89012 1.09116 5.58117
-5.88694 1.06161 5.34155
-5.89045 1.05362 5.27468
-5.8927 1.05013 5.24175
-5.8972 1.04216 5.17589
-5.89487 1.03185 5.08801
-5.8934 1.02383 5.01911
-5.89662 1.02039 4.98918
-5.89527 1.01013 4.90431
-5.89651 1.00667 4.87337
-5.89601 0.998696 4.80748
-5.89785 0.987055 4.69665
-5.89137 0.978029 4.62772
-5.89389 0.956071 4.42804
-5.89633 0.950215 4.37013
-5.89911 0.938708 4.26831
-5.89933 0.936264 4.23835
-5.89756 0.932819 4.20838
-5.89978 0.929391 4.17944
-5.89723 0.922516 4.12052
-5.89933 0.922325 4.10753
-5.90019 0.909639 3.99371
-5.89963 0.903795 3.93679
-5.89696 0.899142 3.89283
-5.90099 0.885132 3.75705
-5.89711 0.882893 3.74105
-5.90135 0.829638 3.18379
-5.89839 0.816594 3.04595
-5.86923 1.81991 9.88182
-5.85399 1.80343 9.78293
-5.86441 1.79561 9.72712
-5.86164 1.67252 8.91181
-5.87002 1.66579 8.86196
-5.87988 1.47762 7.56865
-5.88097 1.43957 7.29518
-5.88233 1.43286 7.24728
-5.88171 1.42614 7.19837
-5.88107 1.41943 7.15046
-5.87772 1.38821 6.93386
-5.87907 1.38255 6.88895
-5.87961 1.35455 6.68634
-5.8849 1.34999 6.64845
-5.8857 1.3185 6.41288
-5.88404 1.31183 6.36797
-5.88735 1.27233 6.06453
-5.88764 1.26677 6.02661
-5.885 1.24312 5.84792
-5.88289 1.22839 5.7311
-5.88813 1.22492 5.69919
-5.88161 1.21598 5.63626
-5.88638 1.18755 5.40469
-5.88976 1.13297 4.96046
-5.8895 1.12052 4.86263
-5.89322 1.11013 4.7688
-5.88861 1.10336 4.71686
-5.88289 1.09881 4.67988
-5.88313 1.09535 4.64893
-5.89132 1.09299 4.62402
-5.88559 1.08845 4.58804
-5.89102 1.08261 4.53116
-5.89114 1.08039 4.51619
-5.88938 1.07691 4.48422
-5.88763 1.07244 4.45227
-5.89206 1.0666 4.39538
-5.89329 1.06316 4.36544
-5.89251 1.05971 4.33548
-5.88689 1.05398 4.28652
-5.88711 1.05055 4.25756
-5.89031 1.04816 4.23062
-5.89352 1.04576 4.20368
-5.89374 1.04233 4.17472
-5.88699 1.03782 4.14074
-5.8881 1.03562 4.12677
-5.88931 1.0332 4.09882
-5.89152 1.0308 4.07186
-5.89272 1.02741 4.04492
-5.88897 1.02393 4.01294
-5.89415 1.02158 3.98901
-5.89337 1.01815 3.96005
-5.8885 1.01589 3.94304
-5.88871 1.01348 3.91508
-5.88792 1.01006 3.88712
-5.88814 1.00665 3.85917
-5.88835 1.00424 3.8312
-5.89154 1.00187 3.80626
-5.88587 0.996213 3.76229
-5.89205 0.994877 3.73935
-5.89126 0.991462 3.71139
-5.89166 0.986678 3.65846
-5.89584 0.984326 3.63452
-5.89505 0.981926 3.60755
-5.89515 0.979719 3.59358
-5.89336 0.977318 3.5666
-5.89456 0.974934 3.54064
-5.89475 0.972549 3.51467
-5.89245 0.962186 3.4228
-5.89464 0.959818 3.39785
-5.89384 0.957432 3.37187
-5.88944 0.94926 3.29295
-5.89361 0.947923 3.27
-5.8957 0.946761 3.25903
-5.89489 0.944376 3.23305
-5.89664 0.934912 3.13419
-5.89683 0.932557 3.11023
-5.89393 0.931348 3.09622
-5.88914 0.927945 3.06923
-5.8963 0.926639 3.0483
-5.8905 0.923236 3.0213
-5.89765 0.922945 3.00136
-5.89286 0.919527 2.97337
-5.89205 0.917171 2.9494
-5.89512 0.917025 2.93942
-5.89331 0.914654 2.91444
-5.88951 0.911266 2.88846
-5.89467 0.909959 2.86751
-5.89684 0.90862 2.84454
-5.89502 0.906264 2.82056
-5.88923 0.90286 2.79356
-5.89638 0.902569 2.77362
-5.89149 0.900359 2.75961
-5.89365 0.898035 2.73766
-5.89383 0.896694 2.71468
-5.89102 0.894322 2.68969
-5.89518 0.893014 2.66874
-5.89436 0.890659 2.64476
-5.89453 0.888318 2.6218
-5.89163 0.887124 2.60879
-5.88981 0.884782 2.58581
-5.89197 0.883458 2.56384
-5.89712 0.882166 2.5439
-5.8973 0.880826 2.52091
-5.89391 0.873624 2.43998
-5.89358 0.866307 2.35108
-5.89475 0.863982 2.32912
-5.89483 0.863819 2.31812
-5.89599 0.862509 2.29714
-5.89716 0.860184 2.27518
-5.89849 0.857549 2.23223
-5.89782 0.853897 2.18827
-5.89807 0.851409 2.1553
-5.89524 0.849067 2.13231
-5.89314 0.840318 2.01441
-5.88831 0.837975 1.99141
-5.88947 0.836665 1.97043
-5.89661 0.836388 1.95149
-5.87258 1.59902 7.72982
-5.86309 1.58804 7.6639
-5.86347 1.58028 7.61301
-5.87179 1.57468 7.57215
-5.87317 1.56694 7.52227
-5.87553 1.56025 7.47538
-5.86224 1.54485 7.38149
-5.86856 1.53923 7.33962
-5.86993 1.53252 7.29172
-5.87029 1.52581 7.24381
-5.87463 1.51917 7.19994
-5.87419 1.50807 7.12609
-5.87923 1.48906 6.99039
-5.87363 1.48028 6.93747
-5.87696 1.47464 6.89457
-5.86938 1.46582 6.83964
-5.87567 1.46125 6.80075
-5.86692 1.45576 6.76776
-5.86563 1.44239 6.67594
-5.87488 1.43791 6.64307
-5.86728 1.43012 6.59012
-5.87157 1.42456 6.55223
-5.88181 1.4211 6.52035
-5.87438 1.41 6.44645
-5.87668 1.40441 6.40654
-5.8651 1.39559 6.35158
-5.86641 1.38998 6.31067
-5.87962 1.38759 6.2838
-5.87085 1.38212 6.25281
-5.86819 1.37547 6.20888
-5.87743 1.372 6.177
-5.86683 1.36423 6.12503
-5.87605 1.36079 6.09514
-5.88231 1.35629 6.06125
-5.87269 1.34855 6.01129
-5.86789 1.34416 5.98531
-5.87017 1.33961 5.94839
-5.8665 1.33297 5.90546
-5.88097 1.32607 5.84366
-5.87333 1.31937 5.79669
-5.87263 1.31379 5.75777
-5.8698 1.31046 5.73579
-5.87362 1.29585 5.62702
-5.87518 1.28677 5.55416
-5.87644 1.28225 5.51923
-5.87812 1.27094 5.4304
-5.87073 1.25875 5.35051
-5.87695 1.25633 5.32159
-5.87027 1.2497 5.27963
-5.87948 1.24731 5.25273
-5.87364 1.24398 5.23073
-5.87019 1.23391 5.15885
-5.88039 1.23153 5.13296
-5.87171 1.2249 5.09098
-5.87494 1.22145 5.06005
-5.87321 1.21693 5.0251
-5.87137 1.19768 4.87335
-5.87658 1.19427 4.84544
-5.87484 1.18976 4.81149
-5.87123 1.18299 4.75955
-5.87418 1.16814 4.63478
-5.87839 1.16475 4.60786
-5.87255 1.16143 4.58686
-5.8757 1.14319 4.43513
-5.87792 1.14076 4.40618
-5.87153 1.12957 4.32629
-5.88237 1.103 4.08473
-5.87562 1.0985 4.05174
-5.87484 1.09507 4.02278
-5.87538 1.08702 3.95189
-5.8802 1.07543 3.84409
-5.87358 1.05473 3.66232
-5.87727 1.04539 3.57147
-5.87468 1.03859 3.51755
-5.87886 1.03723 3.49359
-5.87856 1.02687 3.40173
-5.87795 1.02212 3.35079
-5.87815 1.01873 3.32484
-5.87644 1.01515 3.28587
-5.87763 1.01279 3.26091
-5.87981 1.01045 3.23796
-5.87801 1.00705 3.211
-5.88317 1.00574 3.19005
-5.88237 1.00335 3.16408
-5.87757 0.99995 3.13709
-5.87587 0.995372 3.09814
-5.87605 0.993017 3.07417
-5.87923 0.991679 3.05121
-5.87941 0.989324 3.02724
-5.87661 0.985937 3.00127
-5.88376 0.985631 2.98032
-5.87607 0.980034 2.94034
-5.88322 0.979743 2.9204
-5.88042 0.976356 2.89442
-5.87779 0.971629 2.84547
-5.88095 0.970306 2.82351
-5.87742 0.963401 2.76258
-5.87859 0.962061 2.7396
-5.88076 0.959737 2.71765
-5.87596 0.957349 2.69164
-5.87812 0.955025 2.66969
-5.87592 0.945469 2.5648
-5.87652 0.938301 2.4859
-5.87669 0.93696 2.46292
-5.88084 0.935667 2.44297
-5.88101 0.933342 2.421
-5.88417 0.932033 2.40004
-5.87836 0.929659 2.37503
-5.87645 0.92848 2.36303
-5.87762 0.927155 2.34105
-5.87696 0.922489 2.29611
-5.88243 0.91856 2.2332
-5.87953 0.917366 2.2202
-5.8777 0.915039 2.19822
-5.87886 0.913729 2.17724
-5.87919 0.910078 2.13329
-5.87836 0.907752 2.11132
-5.88789 0.903708 2.04044
-5.88208 0.901348 2.01643
-5.86886 1.67937 7.68559
-5.86207 1.63308 7.39619
-5.87408 1.61312 7.26355
-5.86906 1.59322 7.13579
-5.86941 1.58653 7.08889
-5.87572 1.58094 7.04901
-5.86914 1.57112 6.9941
-5.87643 1.56656 6.95622
-5.87135 1.54777 6.83544
-5.87862 1.54224 6.79957
-5.87302 1.53447 6.74764
-5.87799 1.51558 6.61994
-5.87535 1.50788 6.57303
-5.87154 1.50451 6.54804
-5.87188 1.49786 6.50414
-5.87617 1.4923 6.46625
-5.87681 1.48006 6.38242
-5.87812 1.47445 6.34151
-5.87264 1.46344 6.27362
-5.87196 1.45682 6.23171
-5.87921 1.45334 6.19881
-5.87654 1.4467 6.15588
-5.87746 1.42891 6.03514
-5.88088 1.4211 5.98027
-5.88216 1.41654 5.94234
-5.87849 1.4099 5.89941
-5.88177 1.40437 5.86351
-5.87908 1.39876 5.82257
-5.87937 1.3932 5.78464
-5.8788 1.38535 5.72775
-5.87511 1.37875 5.68681
-5.87738 1.37423 5.65189
-5.88064 1.36973 5.61798
-5.88189 1.3473 5.4543
-5.88017 1.34175 5.41736
-5.88243 1.33725 5.38344
-5.88305 1.29015 5.03909
-5.88406 1.2732 4.90733
-5.88666 1.26302 4.82749
-5.88392 1.25751 4.79355
-5.88218 1.25301 4.7596
-5.87992 1.24057 4.66275
-5.88525 1.23494 4.61987
-5.88051 1.23042 4.5849
-5.88572 1.22702 4.55798
-5.88021 1.21805 4.49307
-5.88641 1.21567 4.46714
-5.88079 1.20893 4.41719
-5.88003 1.20547 4.38624
-5.88346 1.19863 4.32935
-5.88269 1.19417 4.29841
-5.8859 1.19177 4.27147
-5.88811 1.18836 4.24353
-5.87728 1.18403 4.22151
-5.88546 1.18268 4.19759
-5.88369 1.17823 4.16764
-5.88192 1.17479 4.13767
-5.88512 1.17139 4.11074
-5.87937 1.1669 4.07776
-5.87672 1.16123 4.03282
-5.88488 1.15991 4.01089
-5.88311 1.15547 3.98094
-5.87337 1.14996 3.94695
-5.87757 1.14757 3.92101
-5.88793 1.14387 3.87314
-5.87808 1.13957 3.85312
-5.88029 1.13717 3.82617
-5.88646 1.13483 3.80325
-5.88567 1.13243 3.77627
-5.88588 1.12902 3.74832
-5.88409 1.12561 3.72036
-5.88529 1.12222 3.69441
-5.88748 1.11985 3.66946
-5.88759 1.11865 3.65548
-5.8848 1.11523 3.6275
-5.88699 1.11186 3.60257
-5.89018 1.10949 3.57762
-5.89038 1.10711 3.55165
-5.88689 1.0991 3.48374
-5.87435 0.952744 1.9756
-5.88847 0.953518 1.95969
-5.85238 1.71732 7.47988
-5.85573 1.70963 7.43301
-5.85966 1.54625 6.39531
-5.8614 1.51087 6.16782
-5.86331 1.37744 5.26168
-5.86451 1.33717 4.97325
-5.86712 1.30905 4.76266
-5.86538 1.30454 4.72871
-5.86866 1.23022 4.16675
-5.8681 1.22336 4.10884
-5.86886 1.21088 4.00902
-5.86907 1.20747 3.98107
-5.87029 1.20405 3.95312
-5.87782 1.18107 3.75149
-5.87157 1.1686 3.65262
-5.86899 1.16078 3.5977
-5.87447 1.15486 3.53483
-5.87367 1.15146 3.50787
-5.87188 1.14805 3.4809
-5.87705 1.14672 3.45795
-5.87725 1.14333 3.432
-5.87744 1.14096 3.40704
-5.87157 1.13771 3.39004
-5.87376 1.13534 3.36509
-5.87196 1.13194 3.33812
-5.87115 1.12857 3.31316
-5.87633 1.12723 3.29021
-5.87652 1.12486 3.26525
-5.87969 1.12252 3.2423
-5.87879 1.12133 3.22931
-5.87799 1.11794 3.20335
-5.87319 1.11454 3.17636
-5.88135 1.11324 3.15544
-5.87954 1.10987 3.13047
-5.88571 1.10854 3.10854
-5.87793 1.10411 3.07954
-5.87901 1.10395 3.06855
-5.87622 1.10055 3.04157
-5.88337 1.09926 3.02164
-5.87378 1.09145 2.96768
-5.88492 1.09219 2.94975
-5.87515 1.08674 2.91975
-5.88329 1.08646 2.90082
-5.88338 1.08529 2.88883
-5.88555 1.08395 2.86587
-5.87477 1.07851 2.83686
-5.87496 1.07616 2.81289
-5.88808 1.07691 2.79598
-5.8803 1.07249 2.76798
-5.87241 1.07027 2.75295
-5.87277 1.06557 2.70602
-5.88191 1.0653 2.68709
-5.88408 1.06297 2.66514
-5.87628 1.05857 2.63814
-5.87944 1.05726 2.61718
-5.88859 1.05698 2.59825
-5.8739 1.05137 2.55722
-5.87806 1.04906 2.53628
-5.87225 1.04669 2.51127
-5.89053 1.04614 2.47341
-5.88897 1.04029 2.41648
-5.88349 1.03327 2.34753
-5.8717 1.02886 2.3205
-5.88092 1.02742 2.29059
-5.88441 1.02248 2.22668
-5.87634 1.01065 2.10378
-5.85061 1.77381 7.31
-5.85828 1.76051 7.22225
-5.86163 1.75285 7.17738
-5.85802 1.74408 7.12547
-5.86531 1.73852 7.08761
-5.86766 1.73186 7.04272
-5.85892 1.72433 7.00776
-5.85531 1.71559 6.95785
-5.8616 1.71002 6.91898
-5.85403 1.70019 6.86306
-5.86283 1.64176 6.49694
-5.86315 1.63514 6.45503
-5.85638 1.62869 6.42507
-5.86165 1.62416 6.38918
-5.87089 1.61971 6.35831
-5.8626 1.60433 6.26546
-5.85644 1.5857 6.15567
-5.86467 1.58225 6.12478
-5.86994 1.57673 6.0899
-5.86627 1.57008 6.04596
-5.87197 1.55572 5.95421
-5.86236 1.54698 5.90426
-5.86264 1.54141 5.86634
-5.87087 1.53798 5.83644
-5.87485 1.51807 5.70775
-5.87555 1.48479 5.48622
-5.87596 1.47699 5.43233
-5.8747 1.4426 5.2038
-5.87497 1.43708 5.16888
-5.87985 1.40243 4.92239
-5.88258 1.28134 4.03908
-5.87835 1.26784 3.93824
-5.88275 1.26206 3.88535
-5.87799 1.2566 3.85439
-5.8783 1.25199 3.81345
-5.88448 1.24966 3.79053
-5.87792 1.24178 3.73159
-5.87336 1.23393 3.67467
-5.87964 1.23039 3.63776
-5.88182 1.22804 3.61381
-5.88322 1.22125 3.56091
-5.88541 1.2189 3.53696
-5.88093 1.20988 3.46805
-5.88214 1.17657 3.17751
-5.8856 1.16969 3.11763
-5.88715 1.16261 3.04474
-5.87616 1.11872 2.64825
-5.88067 1.11275 2.58236
-5.88599 1.10912 2.53945
-5.88508 1.10794 2.52746
-5.88144 1.10224 2.48051
-5.87762 1.09988 2.45651
-5.88593 1.09728 2.41561
-5.88453 1.08911 2.33671
-5.88328 1.07965 2.23783
-5.87547 1.07627 2.21281
-5.8886 1.07703 2.1959
-5.88178 1.07367 2.17189
-5.88394 1.07236 2.15093
-5.87928 1.06769 2.10595
-5.87446 1.06435 2.08296
-5.88551 1.06525 2.07603
-5.88567 1.06394 2.05505
-5.86386 1.61392 5.69725
-5.85876 1.59417 5.57949
-5.85705 1.58761 5.54157
-5.8545 1.57775 5.48368
-5.85874 1.57328 5.45178
-5.85901 1.56774 5.41586
-5.86226 1.56327 5.38394
-5.86352 1.55776 5.34903
-5.86181 1.55119 5.31111
-5.86274 1.5334 5.19036
-5.86598 1.52893 5.15845
-5.86624 1.52343 5.12453
-5.8614 1.51912 5.10355
-5.86018 1.50359 5.00076
-5.86268 1.49363 4.93591
-5.86889 1.49024 4.90901
-5.86107 1.48588 4.88501
-5.85933 1.48037 4.85107
-5.86553 1.47698 4.82417
-5.86578 1.47249 4.79123
-5.8685 1.4591 4.69744
-5.86401 1.35539 3.97484
-5.86181 1.32288 3.73827
-5.87058 1.2785 3.37494
-5.86866 1.2604 3.23318
-5.86788 1.24101 3.07244
-5.86518 1.23643 3.03348
-5.86456 1.21576 2.85276
-5.86647 1.55618 4.02689
-5.86669 1.55277 3.99894
-5.8669 1.54835 3.971
-5.86633 1.53951 3.91412
-5.86874 1.53173 3.86125
-5.87194 1.52834 3.83532
-5.87104 1.52614 3.82134
-5.86947 1.51731 3.76545
-5.86867 1.51391 3.7385
-5.86889 1.50949 3.71056
-5.87306 1.50716 3.68762
-5.8674 1.4995 3.64369
-5.87585 1.35605 2.53372
-5.87215 1.33654 2.36396
-5.87132 1.3342 2.34098
-5.87564 1.32958 2.29908
-5.87281 1.32723 2.27609
-5.87215 1.32258 2.23215
-5.87422 1.32144 2.22218
-5.87057 1.31577 2.17723
-5.87671 1.31549 2.15827
-5.87006 1.30881 2.11232
-5.87022 1.30749 2.09133
-5.87246 1.30402 2.0594
-5.8786 1.30375 2.04045
-5.87693 1.29911 1.9975
-5.87591 1.35007 1.99473
-5.8584 1.66919 3.89214
-5.84966 1.66268 3.85817
-5.85982 1.66138 3.83726
-5.86102 1.657 3.81133
-5.85238 1.64829 3.76439
-5.86652 1.64804 3.74649
-5.86274 1.64261 3.71754
-5.86513 1.63484 3.66567
-5.85345 1.5674 3.23152
-5.86857 1.56817 3.21562
-5.85581 1.56069 3.18363
-5.86117 1.555 3.13675
-5.86045 1.55045 3.0998
-5.85267 1.54401 3.07084
-5.86499 1.5414 3.02896
-5.86518 1.53805 3.00501
-5.86038 1.53364 2.97804
-5.86753 1.53235 2.95811
-5.86319 1.51908 2.87226
-5.85739 1.51469 2.84628
-5.86454 1.51338 2.82535
-5.85286 1.50577 2.78436
-5.85901 1.50448 2.76443
-5.86833 1.50086 2.72255
-5.8685 1.49852 2.69958
-5.86669 1.49415 2.67463
-5.85292 1.48771 2.64561
-5.86297 1.48861 2.63867
-5.86232 1.48293 2.59275
-5.85552 1.47854 2.56676
-5.85569 1.4752 2.54381
-5.86283 1.47493 2.52486
-5.85646 1.46271 2.44298
-5.8558 1.45804 2.39804
-5.85713 1.45239 2.35413
-5.86436 1.45096 2.3242
-5.86967 1.44735 2.28329
-5.86526 1.43719 2.20539
-5.85828 1.42122 2.07256
-5.85727 1.56588 2.7235
-5.85836 1.56471 2.71252
-5.86152 1.56239 2.69058
-5.8617 1.56005 2.66761
-5.85689 1.55568 2.64264
-5.85408 1.55131 2.61768
-5.86321 1.55105 2.59975
-5.85741 1.54666 2.57376
-5.85153 1.54343 2.55877
-5.8517 1.54011 2.53681
-5.85702 1.53647 2.4939
-5.85022 1.53108 2.46793
-5.85338 1.52977 2.44697
-5.85181 1.52195 2.39106
-5.85297 1.51962 2.3691
-5.8583 1.51599 2.32619
-5.86667 1.56623 2.13948
2.67294 -0.568302 14.0904
2.677 -0.480406 14.4881
2.68408 -0.529138 18.4913
2.69793 -0.577303 22.3305
2.71038 -0.602876 24.386
2.67483 -0.405736 14.06
2.68726 -0.409977 14.517
2.67997 -0.41161 14.7441
2.67696 -0.413697 15.0082
2.68167 -0.424596 16.4335
2.69114 -0.444274 19.0221
2.70676 -0.471856 22.5629
2.71659 -0.488672 24.6693
2.68187 -0.294752 13.7882
2.67958 -0.295374 14.0163
2.67633 -0.294921 14.2493
2.68465 -0.295456 14.9564
2.67851 -0.295794 15.2035
2.68601 -0.296231 16.9977
2.69961 -0.296692 19.736
2.69602 -0.296981 20.189
2.69477 -0.296605 20.6871
2.70113 -0.29702 21.2672
2.68223 -0.221138 13.8291
2.67896 -0.22073 14.0592
2.69138 -0.218001 14.5141
2.68827 -0.217281 14.7652
2.68215 -0.21559 15.0142
2.69368 -0.209805 16.1482
2.69106 -0.209123 16.4643
2.68955 -0.20722 16.7953
2.68608 -0.205242 17.1313
2.70657 -0.198658 18.6573
2.7037 -0.196495 19.0733
2.69887 -0.194257 19.4944
2.69527 -0.191561 19.9465
2.6982 -0.186969 20.9995
2.71881 -0.182012 22.0104
2.72045 -0.178891 22.6264
2.68661 -0.119546 14.0036
2.68336 -0.116108 14.2356
2.6958 -0.111365 14.6915
2.69586 -0.108307 14.9655
2.68658 -0.10491 15.1946
2.68675 -0.101645 15.4826
2.68598 -0.098261 15.7786
2.7039 -0.0876801 16.6964
2.70138 -0.0837915 17.0264
2.70212 -0.0794018 17.3904
2.69771 -0.0753193 17.7334
2.69453 -0.0707787 18.1074
2.69772 -0.0665023 18.5314
2.69476 -0.0615176 18.9354
2.71285 -0.0515657 19.7432
2.71457 -0.0462516 20.2372
2.71641 -0.0407006 20.7472
2.71639 -0.0338819 21.2751
2.7106 -0.0217218 22.3662
2.68938 -0.0530731 13.8326
2.68714 -0.0496064 14.0666
2.68395 -0.0450355 14.3076
2.69438 -0.0383055 14.7625
2.69241 -0.0333208 15.0315
2.68635 -0.0295107 15.2885
2.69563 -0.00533538 16.7863
2.69636 0.00102447 17.1482
2.69198 0.00616603 17.4952
2.71294 0.0326655 19.0829
2.70595 0.0385938 19.4829
2.72426 0.089381 22.5754
2.73082 0.122954 24.6402
2.68129 0.0406108 13.9453
2.69047 0.0627004 14.897
2.68747 0.0686265 15.162
2.69907 0.10933 16.9656
2.6977 0.116514 17.3155
2.69538 0.124772 17.6705
2.70617 0.168816 19.632
2.70361 0.17957 20.0879
2.70863 0.191473 20.6218
2.71713 0.205292 21.2176
2.68945 0.130802 13.9579
2.68516 0.137167 14.1849
2.69162 0.164791 15.1726
2.69394 0.174349 15.4804
2.69007 0.181542 15.7634
2.7075 0.228931 17.4108
2.70317 0.239161 17.7637
2.70005 0.250819 18.1456
2.71935 0.327664 20.8367
2.70424 0.240171 14.1852
2.70205 0.247711 14.4241
2.69575 0.256062 14.6501
2.69269 0.264869 14.907
2.69068 0.274779 15.1709
2.7081 0.304366 16.0215
2.70538 0.315825 16.3224
2.70276 0.326505 16.6383
2.70131 0.338511 16.9762
2.70413 0.352046 17.35
2.70077 0.364216 17.6989
2.72249 0.405315 18.8543
2.71646 0.419138 19.2472
2.70953 0.434169 19.654
2.72794 0.473664 20.7685
2.73516 0.545507 22.7836
2.73597 0.567953 23.4214
2.7403 0.593402 24.1271
2.70608 0.32467 14.421
2.70295 0.335344 14.6689
2.69677 0.344917 14.9098
2.69796 0.356209 15.1997
2.71343 0.390886 16.0562
2.70761 0.403169 16.3451
2.70715 0.416144 16.6809
2.70678 0.430311 17.0298
2.70339 0.444436 17.3756
2.72286 0.490019 18.496
2.72098 0.507135 18.9088
2.71716 0.524385 19.3306
2.73354 0.672057 22.9548
2.73672 0.699211 23.6405
2.7369 0.727367 24.3261
2.69206 0.388691 13.8811
2.70534 0.42103 14.5796
2.70637 0.433997 14.8474
2.70437 0.445936 15.1133
2.69618 0.45748 15.3522
2.69851 0.471039 15.66
2.7163 0.513335 16.5584
2.71797 0.529574 16.9122
2.71342 0.544374 17.2361
2.71527 0.561969 17.6138
2.7078 0.577934 17.9487
2.72275 0.651329 19.5287
2.7201 0.671904 19.9725
2.72813 0.721636 21.0348
2.70243 0.48528 13.9206
2.70026 0.498864 14.1624
2.70976 0.550558 15.1547
2.70686 0.56566 15.4315
2.70611 0.581072 15.7294
2.70231 0.596398 16.0212
2.71924 0.665823 17.3332
2.71802 0.685272 17.701
2.71272 0.70456 18.0578
2.71286 0.726719 18.4735
2.72807 0.790754 19.6916
2.73814 0.847542 20.7579
2.7318 0.873726 21.2426
2.71237 0.609841 14.5657
2.71929 0.686243 15.8757
2.72071 0.705979 16.1955
2.73218 0.849135 18.6366
2.71313 0.677331 14.2607
2.70685 0.691696 14.4875
2.72018 0.779906 15.8523
2.71641 0.798276 16.1471
2.71694 0.820234 16.4818
2.73019 0.907282 17.8356
2.72914 0.932056 18.2253
2.7314 0.960419 18.655
2.72538 0.985256 19.0487
2.72827 1.09549 20.7523
2.71869 0.80417 14.7218
2.71663 0.821961 14.9776
2.72848 0.969947 17.0696
2.73951 1.12926 19.3185
2.73363 1.15836 19.7302
2.74628 1.41742 23.3797
2.75528 1.44529 23.7763
2.71239 0.821747 13.8825
2.70805 0.838007 14.1023
2.72278 0.916093 15.1212
2.72194 0.937327 15.4069
2.71909 0.958533 15.6907
2.71733 0.980915 15.9864
2.72686 1.07653 17.2431
2.72664 1.10498 17.6107
2.72343 1.13242 17.9784
2.71929 1.16102 18.356
2.73603 1.21923 19.1132
2.70981 0.91548 13.7961
2.70961 0.935003 14.0339
2.70845 0.9556 14.2766
2.70627 0.975154 14.5164
2.72652 1.06526 15.604
2.71741 1.08596 15.8538
2.71253 1.10911 16.1335
2.67603 0.309664 5.91025
2.67849 0.31455 5.97016
2.71796 0.964767 13.5453
2.71845 1.0504 14.5332
2.70804 1.06852 14.743
2.7175 1.08637 14.9357
2.7467 1.7829 22.8692
2.66586 0.351282 5.8837
2.67239 0.357298 5.95257
2.66873 0.360967 5.99755
2.76043 2.01881 23.7398
2.67073 0.387963 5.86212
2.67725 0.39498 5.93098
2.67302 0.404478 6.03188
2.67751 0.410436 6.09677
2.70341 1.15657 12.9225
2.67432 0.465049 5.79994
2.68478 0.498851 6.12441
2.68624 0.505738 6.18431
2.71319 1.22409 12.7544
2.67211 0.502602 5.7694
2.66947 0.5073 5.81636
2.67109 0.516512 5.89822
2.67862 0.524542 5.96805
2.67191 0.529109 6.00604
2.6866 0.539445 6.09679
2.685 0.545216 6.14873
2.68542 0.551044 6.20464
2.70866 1.15842 11.4942
2.68348 0.552255 5.81359
2.68185 0.556981 5.86254
2.68614 0.561526 5.89944
2.68349 0.567223 5.94638
2.68493 0.57408 6.00428
2.68436 0.580909 6.06019
2.69653 1.10649 10.4179
2.71244 1.24982 11.5878
2.70555 1.26798 11.7336
2.70488 1.28957 11.9084
2.7022 1.31115 12.0821
2.68693 0.600062 5.86786
2.67818 0.603571 5.90188
2.69196 1.06263 9.54948
2.69652 1.17339 10.4109
2.69969 1.19265 10.5636
2.70968 1.22652 10.8251
2.70986 1.24681 10.9798
2.70695 1.26495 11.1236
2.69994 1.28188 11.2534
2.71082 1.36435 11.8932
2.70914 1.38693 12.0669
2.70853 1.41063 12.2496
2.72196 1.53708 13.2247
2.69783 1.03155 8.86981
2.68985 1.04856 9.00463
2.6897 1.0632 9.11543
2.70928 1.16204 9.84792
2.70827 1.17897 9.9777
2.70417 1.19472 10.0955
2.70316 1.21266 10.2263
2.70221 1.2307 10.364
2.6992 1.24762 10.4938
2.70037 1.26889 10.6465
2.71745 1.28799 10.7891
2.70628 1.30261 10.898
2.70854 1.32505 11.0627
2.70776 1.34643 11.2234
2.70183 1.36451 11.3632
2.7187 1.43403 11.8711
2.71395 1.45546 12.0348
2.71231 1.48011 12.2135
2.70919 1.5307 12.5908
2.72308 1.58233 12.971
2.68873 0.668579 5.83483
2.67997 0.673059 5.86683
2.68343 0.680959 5.9277
2.6869 0.688859 5.98856
2.69391 0.990935 8.22035
2.68966 1.07617 8.8432
2.69666 1.09512 8.97489
2.69545 1.10864 9.07771
2.70074 1.15111 9.37908
2.69548 1.16353 9.47495
2.69437 1.18028 9.59273
2.69944 1.19934 9.73243
2.6994 1.21721 9.85818
2.69423 1.23184 9.96802
2.69525 1.25081 10.1007
2.70404 1.26534 10.2045
2.70613 1.28545 10.3472
2.70828 1.30569 10.4979
2.70732 1.32471 10.6346
2.70125 1.34152 10.7565
2.71234 1.38058 11.0308
2.71358 1.40299 11.1935
2.71176 1.42429 11.3482
2.70686 1.44442 11.492
2.70614 1.46792 11.6607
2.70649 1.49254 11.8373
2.71899 1.53938 12.1646
2.71426 1.56186 12.3313
2.71683 1.59092 12.5379
2.71633 1.61883 12.7345
2.69209 0.980429 7.71345
2.69792 1.05287 8.2154
2.70482 1.07061 8.3331
2.70352 1.08297 8.42494
2.70405 1.11194 8.62554
2.69768 1.12417 8.70841
2.70575 1.18215 9.11155
2.70459 1.19877 9.22133
2.71063 1.21778 9.35702
2.70747 1.23441 9.46681
2.69916 1.24676 9.5577
2.71193 1.2812 9.79013
2.70677 1.29683 9.89995
2.70678 1.3158 10.0327
2.7099 1.33797 10.1794
2.69962 1.35137 10.2733
2.71886 1.3947 10.5665
2.71072 1.4104 10.6804
2.71191 1.43369 10.835
2.71624 1.45928 11.0096
2.70638 1.49944 11.2901
2.70666 1.52394 11.4588
2.71771 1.54496 11.5954
2.71597 1.56842 11.7611
2.71636 1.59611 11.9427
2.71164 1.6196 12.1104
2.69523 0.942908 7.07089
2.69125 0.962893 7.20464
2.69084 1.01294 7.54495
2.69046 1.02514 7.62578
2.69825 1.04067 7.72951
2.70403 1.115 8.22443
2.69936 1.14158 8.3981
2.70368 1.22698 8.96488
2.70247 1.2425 9.06768
2.70764 1.30565 9.48276
2.70652 1.32237 9.59854
2.70235 1.33899 9.70734
2.70847 1.36116 9.85398
2.71409 1.3943 10.0665
2.71514 1.41533 10.2032
2.71211 1.43421 10.3299
2.70803 1.45202 10.4517
2.71328 1.47744 10.6153
2.70412 1.49407 10.7252
2.72121 1.51618 10.8677
2.72242 1.54053 11.0264
2.72285 1.58925 11.3447
2.71694 1.61035 11.4865
2.7155 1.66234 11.8227
2.68427 0.958004 6.94173
2.68177 0.967982 7.00761
2.68697 0.992316 7.16523
2.70133 1.03989 7.47446
2.69506 1.07424 7.70003
2.69673 1.08855 7.78882
2.69985 1.1516 8.19692
2.68831 1.1605 8.25688
2.69828 1.18037 8.38353
2.70536 1.22242 8.65689
2.70822 1.24007 8.76863
2.69775 1.25012 8.83857
2.6955 1.26558 8.93737
2.69534 1.28319 9.04612
2.7112 1.30085 9.15876
2.70467 1.35067 9.48311
2.70564 1.37054 9.60983
2.70353 1.38928 9.72658
2.70146 1.40808 9.84834
2.71638 1.42786 9.96895
2.71432 1.44668 10.0917
2.71231 1.46661 10.2214
2.70927 1.48646 10.3462
2.71437 1.57043 10.884
2.71457 1.59575 11.0406
2.71482 1.62118 11.2043
2.69151 0.89475 6.18251
2.6879 0.902507 6.23343
2.68891 0.964365 6.62856
2.70619 1.286 8.62794
2.70842 1.31138 8.78857
2.70922 1.32893 8.89332
2.70902 1.34548 8.99809
2.71193 1.36524 9.11679
2.70868 1.38071 9.2156
2.7106 1.40049 9.33631
2.71398 1.45109 9.64658
2.70463 1.46437 9.73247
2.71694 1.49289 9.90298
2.71384 1.51265 10.0217
2.70768 1.53029 10.1315
2.71665 1.61497 10.6503
2.71783 1.64026 10.8049
2.71489 1.66332 10.9436
2.70783 1.68315 11.0664
2.68671 0.94518 5.80574
2.68508 0.952891 5.85365
2.69161 0.964922 5.92343
2.69202 0.97272 5.97732
2.68532 0.979302 6.01628
2.68679 0.989218 6.07813
2.69107 0.994762 6.11502
2.68744 1.00248 6.16294
2.69095 1.01346 6.22976
2.68325 1.02006 6.26973
2.68067 1.02886 6.32362
2.68695 1.05634 6.49119
2.6854 1.06523 6.55108
2.68285 1.07509 6.60896
2.68521 1.12567 6.91824
2.69087 1.13994 7.004
2.68426 1.1477 7.05494
2.68439 1.1729 7.20358
2.6955 1.19704 7.34816
2.68998 1.20698 7.41107
2.6865 1.21799 7.47894
2.69831 1.30137 7.97768
2.69081 1.31234 8.04259
2.69461 1.32989 8.14731
2.6939 1.40128 8.57832
2.69842 1.52297 9.29959
2.69931 1.09106 6.26955
2.70046 1.11729 6.42018
2.69789 1.12612 6.47607
2.69428 1.13489 6.52798
2.69376 1.14581 6.58983
2.682 1.15029 6.62186
2.68761 1.16447 6.70162
2.69704 1.17429 6.75741
2.7006 1.18738 6.8312
2.70372 1.21355 6.97781
2.69507 1.22023 7.02278
2.69257 1.2322 7.08863
2.6921 1.24423 7.15746
2.70362 1.25624 7.22621
2.69909 1.26714 7.28709
2.70069 1.28031 7.36589
2.69517 1.29123 7.42778
2.69742 1.31966 7.59137
2.69395 1.33169 7.66122
2.70654 1.34582 7.73793
2.70517 1.36004 7.81974
2.69967 1.37102 7.88563
2.70138 1.38739 7.97839
2.71026 1.40809 8.09303
2.70072 1.41899 8.15395
2.69836 1.43324 8.23777
2.70693 1.44633 8.31152
2.70458 1.46159 8.39632
2.7043 1.47799 8.4911
2.70507 1.49548 8.59185
2.70178 1.51185 8.68364
2.69949 1.52822 8.77643
2.69531 1.15298 6.26367
2.69647 1.18024 6.41628
2.69492 1.1901 6.47415
2.69643 1.20309 6.54096
2.69386 1.21292 6.59684
2.6913 1.22278 6.65472
2.70381 1.23576 6.72144
2.70228 1.24668 6.7833
2.70077 1.25863 6.84714
2.69472 1.28046 6.97088
2.69322 1.29244 7.03673
2.69685 1.30765 7.11848
2.70329 1.31749 7.1753
2.70284 1.33157 7.2481
2.70342 1.34468 7.32291
2.69278 1.3534 7.37087
2.69443 1.36865 7.45565
2.7022 1.38714 7.55633
2.69465 1.39802 7.61523
2.70726 1.41318 7.69392
2.70588 1.42738 7.77473
2.70142 1.44043 7.84558
2.70722 1.45998 7.95027
2.71099 1.47847 8.05098
2.70659 1.49263 8.12881
2.70014 1.5057 8.20068
2.71074 1.52086 8.27938
2.70433 1.535 8.35623
2.70088 1.24296 6.46432
2.7021 1.27332 6.62388
2.70259 1.28525 6.68671
2.70514 1.29833 6.75951
2.69546 1.30596 6.80148
2.69599 1.31898 6.87029
2.70393 1.34279 6.99289
2.70447 1.35584 7.06371
2.6989 1.36667 7.1196
2.7015 1.38084 7.19838
2.70004 1.39388 7.2682
2.70675 1.41225 7.36089
2.7097 1.43608 7.48454
2.70726 1.45017 7.55836
2.70378 1.46218 7.62621
2.70712 1.49577 7.80072
2.70369 1.50987 7.87454
2.69721 1.36537 6.76158
2.70534 1.44643 7.17037
2.71201 1.56746 7.77962
2.71439 1.57718 7.82846
2.70254 1.32824 6.145
2.70412 1.37028 6.3504
2.70098 1.39295 6.4631
2.70452 1.40799 6.53286
2.70195 1.41882 6.58873
2.70778 1.44142 6.69736
2.70421 1.45325 6.75322
2.70881 1.4694 6.83096
2.7022 1.47916 6.88187
2.70476 1.49526 6.95563
2.70531 1.51031 7.02641
2.7107 1.52107 7.07822
2.70703 1.46296 6.46302
2.70855 1.47695 6.52981
2.70516 1.52819 6.20803
5.99449 0.832619 1.78694
5.86336 0.81248 1.77222
5.81237 0.805548 1.77471
5.74233 0.794526 1.7704
5.66024 0.781424 1.76021
5.59019 0.770387 1.7549
5.91934 0.882313 1.76276
5.86736 0.874396 1.76627
5.79431 0.862362 1.761
5.71926 0.850329 1.75574
5.31893 0.784035 1.71974
5.27294 0.777099 1.72219
5.22092 0.769108 1.7207
5.14785 0.75703 1.71242
5.04273 0.739901 1.69947
4.98871 0.730897 1.69701
5.99254 0.951578 1.78319
5.92351 0.93957 1.77989
5.84946 0.927537 1.77462
5.67233 0.896447 1.76142
5.59426 0.882372 1.75321
5.5232 0.870322 1.74692
5.45615 0.859283 1.74159
5.40915 0.851333 1.74306
5.23499 0.821167 1.72482
5.194 0.814227 1.72723
5.12894 0.803172 1.72088
5.06388 0.792102 1.71354
5.01787 0.784121 1.713
4.96584 0.776116 1.71051
4.82572 0.752013 1.69792
5.99357 0.998557 1.78149
5.89245 0.980426 1.76851
5.84039 0.970346 1.76105
5.77536 0.95835 1.75872
5.72236 0.949405 1.76025
5.63928 0.935319 1.75109
5.56622 0.92127 1.74484
5.49215 0.908207 1.7376
5.44517 0.900271 1.74007
5.37705 0.8871 1.72577
5.31902 0.877099 1.72336
5.27804 0.870174 1.72677
5.20897 0.858107 1.71947
5.15997 0.849144 1.71997
5.08588 0.836037 1.70972
5.02082 0.823982 1.70339
4.99581 0.819985 1.70264
4.94379 0.81098 1.70016
4.88172 0.799908 1.69279
4.69065 0.766932 1.68672
4.55552 0.742811 1.67309
4.5095 0.734801 1.67056
5.99552 1.05439 1.76964
5.90342 1.03628 1.7586
5.84341 1.02531 1.75822
5.69729 0.998225 1.74672
5.64329 0.988266 1.74727
5.58527 0.977279 1.74587
5.52116 0.96512 1.73253
5.46915 0.955159 1.73307
5.38706 0.940043 1.72191
5.36413 0.936208 1.73214
5.29005 0.922115 1.72291
5.24706 0.915177 1.72534
5.15292 0.895981 1.70833
5.12289 0.890959 1.70563
5.05783 0.878889 1.6983
4.96882 0.862956 1.6992
4.91177 0.85191 1.69379
4.86576 0.843929 1.69326
4.82275 0.835962 1.6937
4.76162 0.823756 1.67734
4.71058 0.81372 1.67287
4.56949 0.787677 1.66432
4.52146 0.779654 1.6608
4.47442 0.77063 1.65729
4.41842 0.760672 1.65786
4.25129 0.784495 1.63876
5.84859 1.20942 1.76445
5.78657 1.19643 1.76311
5.71753 1.18143 1.75986
5.5964 1.1553 1.74615
5.51933 1.13824 1.73899
5.4583 1.12524 1.73664
5.39727 1.11222 1.73329
5.3252 1.09716 1.72605
5.27118 1.08517 1.72464
5.21214 1.07316 1.72126
5.15705 1.06002 1.70987
5.096 1.04699 1.70552
5.05201 1.03804 1.70698
4.99998 1.02703 1.70454
4.9309 1.01194 1.69528
4.83787 0.992978 1.69426
4.80785 0.986956 1.69158
4.73172 0.969791 1.6774
4.67668 0.957758 1.673
4.65373 0.953879 1.68023
4.60069 0.942845 1.67579
4.47056 0.914721 1.66218
4.41751 0.902672 1.65676
4.39356 0.898779 1.663
4.35755 0.891805 1.66338
4.19741 0.857674 1.64809
3.82714 0.780508 1.62201
3.69697 0.75228 1.60141
5.6715 1.22534 1.75155
5.26022 1.13319 1.72501
5.19717 1.11915 1.71969
5.13812 1.10612 1.71533
5.07606 1.09206 1.709
5.01902 1.07903 1.70463
4.88794 1.04999 1.69704
4.83088 1.03795 1.69165
4.79089 1.02899 1.69308
4.73483 1.01693 1.68668
4.69081 1.00694 1.68516
4.52369 0.969869 1.67397
4.47666 0.959845 1.67047
4.42761 0.948793 1.665
4.38859 0.940792 1.66342
4.34255 0.930768 1.65991
4.99906 1.11907 1.70618
5.70452 1.3442 1.74254
5.66857 1.33733 1.74992
5.5624 1.31011 1.73112
5.51742 1.30019 1.7346
5.42235 1.27716 1.72866
5.26616 1.23894 1.7074
5.21716 1.22697 1.70794
5.14607 1.20888 1.69875
5.10308 1.19993 1.7002
5.05901 1.18884 1.6927
4.99494 1.17277 1.68542
4.9419 1.15975 1.68201
4.90893 1.15283 1.68636
4.78479 1.12269 1.67174
4.73777 1.11168 1.66926
4.19036 0.981429 1.6303
4.16138 0.97548 1.63261
4.0313 0.94546 1.62603
3.96227 0.929467 1.62379
3.91922 0.919411 1.61826
3.83819 0.900427 1.61615
3.78208 0.886263 1.60278
3.72908 0.874332 1.60536
3.68708 0.865364 1.60581
3.64903 0.856303 1.60023
3.61701 0.849298 1.59857
3.59603 0.844358 1.60181
3.55598 0.835285 1.59524
3.52194 0.827251 1.59162
3.50598 0.824337 1.59678
3.4759 0.816212 1.58713
3.45793 0.813299 1.59231
3.42188 0.804223 1.58571
3.38884 0.796189 1.58208
3.01454 0.710952 1.55115
2.9855 0.7049 1.54646
2.96851 0.700942 1.54865
2.93047 0.691897 1.54407
2.90444 0.686857 1.54034
2.88745 0.6829 1.54253
2.87649 0.681996 1.54862
2.84844 0.674929 1.54294
2.83748 0.673011 1.54805
2.82547 0.67099 1.54617
2.79842 0.663937 1.54148
2.78646 0.66202 1.5466
2.76444 0.656992 1.54384
2.74543 0.654006 1.54402
5.45333 1.34301 1.71945
5.3923 1.32801 1.71713
5.32424 1.31096 1.71089
5.2622 1.29493 1.7066
4.92994 1.21175 1.68133
4.88694 1.2018 1.6828
4.24042 1.04143 1.63204
4.05829 0.99736 1.62006
3.95521 0.97129 1.61122
3.84312 0.944241 1.60347
3.77207 0.927206 1.59825
3.69203 0.908207 1.59514
3.59597 0.885191 1.5902
3.56295 0.877171 1.58757
3.52992 0.869152 1.58494
3.48289 0.858128 1.58145
3.46391 0.854187 1.58465
3.43389 0.84718 1.58298
3.39181 0.836078 1.57446
3.37585 0.833164 1.57963
3.35286 0.828211 1.58187
3.33684 0.824179 1.57905
3.30179 0.816116 1.57344
3.2788 0.811149 1.57468
3.24073 0.801059 1.56712
3.01555 0.747932 1.5496
3.00158 0.746002 1.55373
2.98254 0.739943 1.54897
2.95852 0.734931 1.54722
2.93451 0.72892 1.54549
2.92556 0.72803 1.55257
2.88153 0.718019 1.55005
2.85852 0.713021 1.5493
2.85153 0.712041 1.55037
2.81645 0.702919 1.54076
2.80549 0.701016 1.54688
2.76648 0.693031 1.54629
4.97909 1.28493 1.69488
4.91 1.26682 1.68467
4.87101 1.25688 1.68711
4.82198 1.24487 1.68465
4.77697 1.23289 1.68417
4.69984 1.21171 1.66906
4.6779 1.20785 1.67729
4.62477 1.19267 1.66291
4.60083 1.18779 1.67016
4.55379 1.17576 1.66669
4.51578 1.16579 1.66713
4.47076 1.15478 1.66463
4.35365 1.12369 1.65397
4.25855 1.09959 1.64304
4.18552 1.08061 1.64187
4.11349 1.06362 1.63967
4.08143 1.05453 1.63204
4.04942 1.04655 1.6324
4.00336 1.03449 1.62593
3.97237 1.02652 1.62728
3.93534 1.01751 1.62469
3.87132 1.00153 1.62341
3.84627 0.994456 1.6177
3.81827 0.988492 1.619
3.7722 0.976393 1.61053
3.73516 0.966362 1.60695
3.70515 0.95937 1.60628
3.67715 0.952391 1.6066
3.6251 0.939341 1.60118
3.60211 0.934388 1.60343
3.56305 0.923314 1.59689
3.53605 0.917335 1.59718
3.51005 0.911354 1.59746
3.47902 0.903333 1.59481
3.42394 0.889227 1.58544
3.3909 0.880193 1.58182
3.37493 0.877264 1.58598
3.3439 0.869243 1.58334
3.24883 0.846196 1.57639
3.1758 0.828207 1.57421
3.10175 0.810189 1.57003
5.2022 1.39086 1.69863
5.10913 1.36681 1.69169
3.3328 0.898011 1.56699
3.27978 0.885021 1.56558
3.25874 0.878963 1.56083
3.2057 0.865944 1.55742
3.18069 0.859948 1.5567
3.14966 0.851912 1.55305
3.09862 0.838892 1.54963
3.03959 0.823892 1.54729
2.98956 0.81187 1.54385
2.96754 0.805872 1.5431
2.90749 0.790829 1.53778
2.8885 0.786858 1.53898
2.86448 0.780846 1.53725
2.82849 0.772903 1.53964
2.82457 0.773054 1.54967
2.8025 0.766952 1.54192
2.76349 0.757967 1.54135
2.72146 0.747954 1.53881
5.09315 1.41579 1.68908
5.04814 1.40382 1.6896
4.99912 1.39083 1.68816
4.9501 1.37684 1.68673
4.89707 1.36284 1.68434
4.84095 1.34566 1.67002
4.64582 1.29161 1.65929
4.60481 1.28063 1.65876
4.41371 1.22962 1.65095
4.36566 1.21559 1.64652
4.30657 1.19847 1.63622
4.28461 1.19357 1.64246
4.19446 1.16738 1.62552
4.16547 1.16043 1.62784
4.11541 1.14635 1.62043
4.08541 1.13838 1.62177
4.05541 1.13042 1.62311
4.00434 1.11633 1.61471
3.98733 1.11133 1.61391
3.9444 1.10151 1.62438
3.24077 0.911987 1.56148
3.20973 0.903937 1.55683
3.19074 0.898981 1.55905
3.17471 0.894949 1.55623
3.1497 0.887938 1.55452
3.13071 0.883982 1.55672
3.11172 0.879026 1.55894
3.08067 0.87096 1.55329
3.0436 0.859855 1.54473
3.05274 0.865115 1.56259
3.02164 0.855961 1.55096
3.00666 0.852016 1.55413
2.98465 0.847018 1.55337
2.95762 0.839979 1.54967
2.92858 0.831927 1.54501
2.91359 0.827968 1.54718
2.89359 0.822983 1.54741
2.87052 0.816882 1.53967
2.86962 0.818061 1.55166
2.84157 0.810993 1.54598
2.82156 0.805993 1.5452
4.17058 1.19658 1.63827
4.10546 1.17641 1.62406
3.87824 1.11323 1.6027
3.78718 1.08819 1.59676
3.68309 1.05914 1.58897
3.61504 1.0401 1.58376
3.54905 1.02318 1.58651
3.50798 1.01109 1.579
3.48499 1.00514 1.58126
3.44403 0.99626 1.5877
3.39788 0.981014 1.56927
3.38192 0.9781 1.57444
3.34386 0.967025 1.56789
3.30882 0.956977 1.5633
3.3049 0.958143 1.57431
3.26281 0.945012 1.56382
3.25187 0.943139 1.57193
3.22681 0.936039 1.56423
3.19577 0.927004 1.56059
3.16573 0.918953 1.55594
3.14273 0.912985 1.5572
3.12375 0.909029 1.5594
3.09773 0.902019 1.5577
3.06768 0.892953 1.55206
3.06472 0.893029 1.55708
3.05075 0.890113 1.56223
3.00362 0.875912 1.54679
2.9977 0.876065 1.55684
2.95258 0.861877 1.54239
2.92363 0.856002 1.54969
2.91364 0.854025 1.5508
2.88358 0.844944 1.54416
2.87262 0.844041 1.55025
2.84458 0.835988 1.54558
3.52711 1.1082 1.58642
3.49106 1.09716 1.58185
3.4751 1.09424 1.58702
3.22992 1.02215 1.57093
3.1689 1.00516 1.56964
3.14288 0.998153 1.56794
2.97774 0.951056 1.55488
3.46405 1.17005 1.57298
3.43604 1.16205 1.5723
3.41204 1.15509 1.57359
3.39106 1.14915 1.57684
3.36807 1.14318 1.5781
3.32799 1.12908 1.56961
3.307 1.12312 1.57185
3.28797 1.11708 1.56809
3.2499 1.10499 1.56055
3.23795 1.1021 1.56768
3.20893 1.09308 1.56504
3.17487 1.082 1.55846
3.15488 1.07605 1.56069
3.12584 1.06701 1.55705
3.10279 1.05992 1.55032
3.09284 1.05803 1.55743
