-2.75097 1.61802 2.72831
-2.75905 1.61688 2.71838
-2.76605 1.61887 2.71741
-2.77215 1.61568 2.7045
-2.78321 1.61657 2.69657
-2.79525 1.61849 2.69063
-2.80432 1.61836 2.6817
-2.81141 1.61621 2.67078
-2.82239 1.62024 2.6728
-2.82551 1.61601 2.65689
-2.83556 1.61691 2.64995
-2.83669 1.61166 2.63303
-2.85767 1.61872 2.63609
-2.85781 1.61344 2.61716
-2.86986 1.61436 2.61124
-2.87489 1.61429 2.60628
-2.87701 1.61007 2.59135
-2.89303 1.61404 2.58842
-2.89614 1.61083 2.57448
-2.90819 1.61274 2.56755
-2.91427 1.61058 2.55662
-2.93029 1.61455 2.55368
-2.92441 1.60832 2.53873
-2.93447 1.60921 2.53079
-2.94949 1.61318 2.52785
-2.94963 1.60691 2.50994
-2.96465 1.61088 2.50699
-2.97074 1.6087 2.49507
-2.98676 1.61267 2.49213
-2.97987 1.60644 2.47717
-3.00681 1.61657 2.48422
-3.02707 1.61308 2.45042
-3.02323 1.60578 2.4305
-3.04925 1.61274 2.42659
-3.05944 1.60838 2.40173
-3.06851 1.60925 2.39278
-3.07473 1.60282 2.36392
-3.08175 1.6038 2.36196
-3.0928 1.6057 2.35501
-3.11094 1.60644 2.33613
-3.11305 1.60223 2.32221
-3.13814 1.60706 2.30933
-3.14839 1.60157 2.27648
-3.19051 1.61037 2.26067
-3.1907 1.604 2.23576
-3.1948 1.60081 2.22283
-3.22498 1.60446 2.198
-3.23423 1.59898 2.16515
-3.25747 1.59854 2.13433
-3.27163 1.59724 2.11345
-3.28461 1.60226 2.11447
-3.28175 1.59599 2.09654
-3.30387 1.59977 2.08065
-3.31008 1.59538 2.05376
-3.33436 1.59385 2.01696
-3.38773 1.60014 1.96726
-3.38895 1.59372 1.93836
-3.43149 1.59068 1.86672
-3.44366 1.58935 1.84383
-3.4862 1.58833 1.77315
-3.4993 1.59013 1.75922
-3.51247 1.58981 1.73732
-3.52165 1.58747 1.71342
-3.54096 1.58587 1.67259
-3.57226 1.58829 1.63178
-3.59976 1.58435 1.56704
-3.61906 1.58375 1.52619
-3.66569 1.58456 1.44351
-3.67802 1.58092 1.39966
-3.69018 1.5816 1.37773
-3.69527 1.58142 1.36577
-3.70635 1.58328 1.35583
-3.72885 1.58032 1.29003
-3.73194 1.57913 1.27707
-3.75623 1.58159 1.23921
-3.76242 1.57922 1.21429
-3.7716 1.57887 1.19036
-3.76866 1.57675 1.18237
-3.77574 1.5776 1.17141
-3.78691 1.57826 1.14848
-3.80108 1.57995 1.12656
-3.80422 1.57767 1.10761
-3.82138 1.58137 1.08669
-3.82767 1.5778 1.04778
-3.82478 1.57459 1.0338
-3.82882 1.5755 1.02782
-3.8411 1.57498 0.991916
-3.85017 1.57684 0.981955
-3.86035 1.57749 0.958019
-3.86449 1.57621 0.939067
-3.86868 1.57484 0.914115
-3.87387 1.57348 0.889171
-3.88699 1.57625 0.873226
-3.89407 1.57809 0.862251
-3.89019 1.57387 0.847282
-3.89428 1.57369 0.835314
-3.89937 1.57452 0.823338
-3.90346 1.57434 0.81137
-3.91553 1.5782 0.801403
-3.9077 1.57287 0.779419
-3.91688 1.57252 0.75549
-3.92506 1.57317 0.731539
-3.93015 1.574 0.719564
-3.93119 1.57391 0.713572
-3.92631 1.56969 0.698596
-3.9294 1.56951 0.68662
-3.94257 1.57218 0.663676
-3.94167 1.57099 0.650686
-3.95774 1.57585 0.640733
-3.95679 1.57476 0.634741
-3.94691 1.56952 0.618742
-3.96607 1.5742 0.596814
-3.96427 1.57082 0.570847
-3.97131 1.57375 0.565856
-3.96841 1.57054 0.55188
-3.96352 1.56733 0.537889
-3.98957 1.57723 0.529937
-3.99386 1.57567 0.491988
-4.00209 1.57522 0.461052
-4.00539 1.57364 0.422095
-4.00154 1.57034 0.402112
-4.00563 1.57117 0.390129
-3.99874 1.56696 0.376137
-4.00583 1.56878 0.364162
-4.01891 1.57363 0.353187
-4.01211 1.56822 0.326212
-4.00717 1.56612 0.319205
-4.00627 1.56392 0.306229
-4.03143 1.57262 0.284287
-4.01664 1.56519 0.256282
-4.03172 1.57004 0.245322
-4.02088 1.56474 0.225316
-4.03196 1.56857 0.213341
-4.02606 1.56437 0.200357
-4.02616 1.56418 0.187359
-4.04424 1.57103 0.176392
-4.0314 1.56371 0.155401
-4.04248 1.56755 0.144426
-4.03059 1.56234 0.130412
-4.03169 1.56214 0.117421
-4.05377 1.57 0.10647
-4.03688 1.56278 0.0924473
-4.05796 1.57063 0.0814883
-4.04402 1.5645 0.0734729
-4.03812 1.56131 0.060474
-4.04621 1.56413 0.0484915
-4.06229 1.56997 0.0365246
-4.0455 1.56156 0.00951892
-4.04859 1.56238 -0.00247166
-4.06163 1.5683 -0.00846188
-4.06382 1.56793 -0.0334434
-4.05002 1.56054 -0.0594415
-4.05812 1.56435 -0.0724387
-4.04822 1.55915 -0.0854381
-4.06326 1.56507 -0.0914133
-4.06736 1.56688 -0.104411
-4.06645 1.5657 -0.116402
-4.05755 1.56151 -0.129409
-4.06165 1.56332 -0.142407
-4.06574 1.56413 -0.155389
-4.06079 1.56203 -0.161397
-4.06689 1.56385 -0.174379
-4.07498 1.56666 -0.187362
-4.06707 1.56348 -0.199376
-4.06217 1.56128 -0.212382
-4.05527 1.55808 -0.225388
-4.06137 1.55989 -0.238371
-4.06146 1.55972 -0.25037
-4.06451 1.56161 -0.257376
-4.07561 1.56543 -0.27035
3.33604 1.74481 2.56155
3.32309 1.74291 2.56767
3.32826 1.75125 2.59052
3.33143 1.75856 2.61139
3.31244 1.7526 2.61362
3.29841 1.74757 2.6108
3.30258 1.75589 2.63265
3.29467 1.75607 2.6447
3.28173 1.75418 2.65183
3.26288 1.75449 2.67197
3.25899 1.75772 2.68695
3.24899 1.75473 2.68707
3.23907 1.75488 2.69715
3.23116 1.75607 2.70919
3.21532 1.7574 2.73129
3.20842 1.7596 2.74432
3.20447 1.76069 2.75033
3.17252 1.75282 2.75769
3.16763 1.75604 2.77268
3.15368 1.75414 2.77881
3.15081 1.7584 2.79577
3.13087 1.75455 2.80498
3.11188 1.74957 2.8062
3.11303 1.75587 2.8261
3.09102 1.74886 2.82437
3.08008 1.74798 2.83247
3.08225 1.75531 2.85434
3.06518 1.7482 2.84658
3.05627 1.74937 2.85763
3.02431 1.74148 2.86399
3.03052 1.75188 2.89079
3.01453 1.74792 2.89297
3.00663 1.75012 2.906
2.99763 1.74812 2.9061
2.98568 1.74624 2.91321
2.97979 1.74946 2.92821
2.96482 1.74652 2.93137
2.96498 1.75283 2.95228
2.94093 1.74476 2.94658
2.94614 1.75515 2.97339
2.9341 1.7501 2.96955
2.91611 1.74513 2.97076
2.91829 1.75347 2.99363
2.89424 1.7454 2.98793
2.89742 1.75375 3.01178
2.87236 1.74465 3.0041
2.85847 1.74588 3.01919
2.85763 1.75218 3.03911
2.84569 1.75131 3.04721
2.83777 1.75348 3.05824
2.81775 1.74646 3.0565
2.80581 1.74657 3.06359
2.79782 1.74461 3.06568
2.7899 1.74678 3.0767
2.782 1.74898 3.08973
2.76399 1.74398 3.08894
2.7581 1.74719 3.10294
2.75423 1.75144 3.11991
2.73118 1.74437 3.11419
2.73227 1.74755 3.12613
2.72235 1.7487 3.13619
2.70233 1.74267 3.13343
2.6924 1.74383 3.14349
2.68549 1.74601 3.15551
2.66749 1.74102 3.15572
2.65352 1.73909 3.15986
2.65361 1.74326 3.1708
2.64064 1.74134 3.17592
2.62062 1.73531 3.17316
2.61877 1.74161 3.19309
2.32631 1.74683 3.39824
2.28044 1.74311 3.41564
2.27051 1.74527 3.42569
2.24742 1.73511 3.41401
2.24053 1.73933 3.429
2.22758 1.73843 3.43511
2.22464 1.74155 3.44309
2.20458 1.73345 3.43536
2.19972 1.73972 3.45331
2.19082 1.74293 3.46733
2.16467 1.73067 3.4487
2.15576 1.73284 3.45974
2.13569 1.72574 3.452
2.13379 1.72992 3.46395
2.12589 1.73311 3.47696
1.81314 1.73878 3.64426
1.79712 1.73475 3.64144
1.78111 1.73175 3.6406
1.761 1.72257 3.62789
1.75809 1.72674 3.63885
1.75123 1.73301 3.65681
1.7352 1.72897 3.65399
1.7263 1.73317 3.667
1.70519 1.72297 3.65231
1.69731 1.72821 3.66829
1.68435 1.72829 3.67339
1.67226 1.72214 3.66257
1.66642 1.72944 3.68251
1.64938 1.72438 3.67771
1.63539 1.72242 3.67985
1.62444 1.72353 3.68691
1.61658 1.7308 3.70487
1.60462 1.73088 3.70996
1.59151 1.72269 3.69617
1.58059 1.72484 3.70623
1.56454 1.71977 3.70042
1.55056 1.71882 3.70354
1.54577 1.72921 3.72943
1.52564 1.71899 3.71373
1.51778 1.72626 3.73168
1.50771 1.72013 3.72285
1.49781 1.72433 3.73586
1.48485 1.72442 3.74096
1.47289 1.72551 3.74703
1.46401 1.73074 3.76202
1.44184 1.71843 3.74037
1.44098 1.7257 3.75827
1.42391 1.71959 3.75049
1.41401 1.72378 3.7625
1.40001 1.72179 3.76264
1.38603 1.72084 3.76576
1.37306 1.72091 3.76986
1.36212 1.72304 3.77791
1.35206 1.71793 3.77006
1.34421 1.72521 3.78901
1.33123 1.72427 3.79213
1.31724 1.72431 3.79423
1.3012 1.71923 3.78843
1.28923 1.72031 3.7935
1.27526 1.71937 3.79662
1.26721 1.71629 3.79073
1.2563 1.71946 3.80176
-2.67838 1.63215 2.67254
-2.71875 1.62744 2.62291
-2.7368 1.63135 2.61599
-2.7439 1.62918 2.60407
-2.77917 1.62767 2.56835
-2.78618 1.62965 2.56638
-2.80034 1.62635 2.54553
-2.80445 1.62314 2.53161
-2.82257 1.6239 2.51473
-2.82662 1.62282 2.50877
-2.83766 1.62474 2.50283
-2.84276 1.62155 2.48991
-2.85777 1.62553 2.48797
-2.8599 1.62129 2.47204
-2.87094 1.62321 2.4661
-2.87506 1.61999 2.45117
-2.89001 1.62609 2.4572
-2.88022 1.61469 2.43029
-2.89126 1.61561 2.42436
-2.90927 1.6216 2.4234
-2.91336 1.61942 2.41046
-2.92342 1.6193 2.40254
-2.93447 1.62122 2.39659
-2.93057 1.61603 2.38364
-2.94063 1.61692 2.3757
-2.95876 1.61768 2.35882
-2.96881 1.61857 2.35089
-2.97987 1.61947 2.34396
-2.97701 1.61319 2.32502
-2.97807 1.61109 2.31806
-2.99905 1.61812 2.31912
-2.99024 1.60875 2.29519
-3.00129 1.60966 2.28825
-3.01831 1.61464 2.28631
-3.01346 1.60734 2.26638
-3.02743 1.6134 2.26939
-3.04047 1.61633 2.26445
-3.03463 1.60802 2.24352
-3.04172 1.60686 2.23259
-3.05773 1.61183 2.22964
-3.05587 1.60557 2.21272
-3.0699 1.60851 2.20778
-3.08188 1.61355 2.20979
-3.07704 1.60625 2.18986
-3.08611 1.60712 2.18092
-3.10312 1.61209 2.17797
-3.09927 1.60481 2.15905
-3.10735 1.60466 2.14911
-3.11441 1.60454 2.14016
-3.11448 1.6024 2.13119
-3.1315 1.60738 2.12925
-3.1336 1.60418 2.11531
-3.14168 1.60404 2.10537
-3.14875 1.60389 2.09542
-3.1608 1.6058 2.08849
-3.16489 1.60462 2.07653
-3.16595 1.60252 2.06957
-3.17701 1.60441 2.06162
-3.1811 1.60224 2.04969
-3.19315 1.60514 2.04273
-3.2042 1.60705 2.03579
-3.2073 1.60486 2.02284
-3.2104 1.60167 2.00991
-3.21841 1.60464 2.00793
-3.21654 1.59939 1.99099
-3.24151 1.60945 1.99403
-3.24561 1.60726 1.98109
-3.24274 1.60101 1.96416
-3.2528 1.6029 1.9562
-3.25989 1.60274 1.94526
-3.26193 1.60165 1.93929
-3.26503 1.59946 1.92634
-3.27707 1.60238 1.92039
-3.27521 1.59713 1.90345
-3.28427 1.598 1.8945
-3.29732 1.60092 1.88856
-3.30837 1.60281 1.88061
-3.30544 1.59968 1.87164
-3.31352 1.60053 1.86168
-3.32059 1.60039 1.85174
-3.32469 1.59822 1.8398
-3.33574 1.60111 1.83184
-3.33287 1.59587 1.81589
-3.34288 1.59884 1.81392
-3.35294 1.60073 1.80597
-3.35106 1.5965 1.79002
-3.36112 1.59738 1.78208
-3.36422 1.59619 1.76912
-3.37826 1.60012 1.76316
-3.38235 1.59794 1.75122
-3.38341 1.59684 1.74425
-3.38551 1.59465 1.73129
-3.39358 1.5955 1.72134
-3.3917 1.59128 1.70639
-3.40475 1.59419 1.69944
-3.40785 1.592 1.6865
-3.4189 1.59489 1.67854
-3.42194 1.59481 1.67356
-3.43002 1.59567 1.66361
-3.4361 1.59551 1.65265
-3.4372 1.59232 1.63971
-3.44527 1.59318 1.62975
-3.45534 1.59505 1.6208
-3.45843 1.59388 1.60884
-3.45152 1.58871 1.59786
-3.46058 1.59058 1.5889
-3.46866 1.59044 1.57896
-3.47474 1.59028 1.56801
-3.48481 1.59316 1.55904
-3.49387 1.59403 1.55009
-3.49497 1.59184 1.53713
-3.49603 1.59074 1.53016
-3.49712 1.58855 1.5172
-3.50918 1.59144 1.50924
-3.50431 1.58518 1.4923
-3.51637 1.58907 1.48433
-3.51846 1.58689 1.47238
-3.53052 1.58978 1.46442
-3.52858 1.58766 1.45644
-3.53367 1.58751 1.44548
-3.53975 1.58735 1.43452
-3.54782 1.5882 1.42457
-3.54693 1.585 1.41061
-3.557 1.58787 1.40164
-3.56208 1.58771 1.39068
-3.56313 1.58661 1.3837
-3.57917 1.59153 1.37775
-3.57729 1.58731 1.3628
-3.58436 1.58817 1.35284
-3.59145 1.58901 1.34188
-3.60151 1.59088 1.33292
-3.60356 1.59079 1.32694
-3.60266 1.58759 1.31298
-3.61074 1.58944 1.30301
-3.61582 1.58928 1.29205
-3.61692 1.58709 1.27909
-3.62599 1.58895 1.26913
-3.63706 1.59183 1.26017
-3.63312 1.5887 1.25218
-3.6412 1.58956 1.24223
-3.64329 1.58837 1.22926
-3.65436 1.59125 1.2203
-3.65944 1.59109 1.20934
-3.65855 1.58888 1.19536
-3.66363 1.58872 1.1844
-3.6587 1.58458 1.17542
-3.66877 1.58746 1.16646
-3.66987 1.58527 1.1535
-3.68293 1.58916 1.14554
-3.68203 1.58695 1.13156
-3.68512 1.58577 1.1196
-3.6952 1.58763 1.10965
-3.70422 1.59159 1.10665
-3.69933 1.58737 1.09168
-3.69744 1.58316 1.07772
-3.7115 1.58805 1.06976
-3.7096 1.58484 1.05579
-3.72068 1.5877 1.04583
-3.72077 1.58653 1.03384
-3.72381 1.58644 1.02787
-3.7289 1.58628 1.01691
-3.73199 1.58609 1.00393
-3.73708 1.58593 0.99297
-3.74316 1.58677 0.982002
-3.74924 1.58761 0.971034
-3.74735 1.5854 0.95705
-3.75837 1.58937 0.954074
-3.75348 1.58514 0.939098
-3.76256 1.587 0.929137
-3.76465 1.58582 0.917169
-3.77073 1.58667 0.906201
-3.77981 1.58851 0.895241
-3.77592 1.5853 0.881257
-3.78196 1.58723 0.876273
-3.79402 1.59111 0.867305
-3.78714 1.58588 0.852329
-3.79123 1.5857 0.84036
-3.79232 1.58453 0.828384
-3.8014 1.58737 0.817409
-3.8015 1.58518 0.804441
-3.81551 1.59116 0.802457
-3.80463 1.58391 0.78648
-3.80473 1.58272 0.773497
-3.82179 1.58861 0.765537
-3.79894 1.57632 0.746545
-3.817 1.5822 0.737592
-3.82902 1.58716 0.734609
-3.82313 1.58295 0.720625
-3.82622 1.58277 0.708649
-3.84328 1.58965 0.699675
-3.82941 1.58141 0.68369
-3.82652 1.5782 0.669714
-3.85156 1.58813 0.663755
-3.83464 1.57995 0.652747
-3.84372 1.58181 0.642786
-3.85679 1.58667 0.632811
-3.8529 1.58346 0.618828
-3.85 1.58027 0.605851
-3.86407 1.58513 0.595884
-3.8472 1.57588 0.579892
-3.85224 1.5778 0.5739
-3.86331 1.58165 0.563925
-3.85343 1.57543 0.548941
-3.8655 1.57929 0.538973
-3.87358 1.58213 0.527991
-3.8637 1.5759 0.513006
-3.87178 1.57874 0.502024
-3.88181 1.58269 0.49804
-3.87192 1.57646 0.483056
-3.87801 1.5783 0.472073
-3.89108 1.58216 0.462113
-3.88119 1.57694 0.447114
-3.89028 1.57978 0.436139
-3.89437 1.5806 0.424156
-3.88643 1.57648 0.416156
-3.88353 1.57329 0.403179
-3.90558 1.58218 0.395213
-3.89171 1.57494 0.379213
-3.88781 1.57274 0.366215
-3.89798 1.57441 0.343263
-3.89902 1.57432 0.337272
-3.91709 1.58118 0.327305
-3.90421 1.57495 0.312298
-3.91029 1.57579 0.30133
-3.91538 1.57762 0.289339
-3.91148 1.57543 0.276341
-3.91357 1.57525 0.264357
-3.92561 1.57918 0.259389
-3.91472 1.57397 0.245382
-3.91581 1.57378 0.232392
-3.9199 1.5746 0.220409
-3.92499 1.57544 0.209433
-3.92808 1.57625 0.196443
-3.93316 1.57809 0.185452
-3.92023 1.57097 0.177459
-3.93032 1.5748 0.165477
-3.94439 1.58066 0.155495
-3.9355 1.57544 0.141503
-3.94159 1.57727 0.12952
-3.93968 1.57608 0.116522
-3.93678 1.5739 0.10453
-3.94482 1.57681 0.0985468
-3.94791 1.57764 0.0865562
-3.93902 1.57242 0.0725645
-3.94011 1.57225 0.0605737
-3.95019 1.57609 0.0495912
-3.94929 1.5759 0.0365855
-3.94833 1.57481 0.0305936
-3.94743 1.57362 0.0176027
-3.94952 1.57444 0.00560453
-3.95461 1.57527 -0.006371
-3.94671 1.57107 -0.0193701
-3.9568 1.5749 -0.0313525
-3.9459 1.5707 -0.0443742
-3.95299 1.57252 -0.0563495
-3.95304 1.57242 -0.0633486
-3.95913 1.57425 -0.0753314
-3.95622 1.57307 -0.0873375
-3.95832 1.57388 -0.100335
-3.96841 1.57771 -0.112318
-3.95651 1.5715 -0.125317
-3.9636 1.57433 -0.137308
-3.95664 1.57124 -0.143315
-3.96274 1.57305 -0.156298
-3.95083 1.56786 -0.168312
-3.95993 1.57168 -0.181302
-3.97202 1.57651 -0.193284
-3.97511 1.57733 -0.205275
-3.96116 1.57122 -0.21229
-3.97425 1.57705 -0.22428
-3.95935 1.56985 -0.237287
-3.96744 1.57268 -0.24927
-3.96763 1.57231 -0.274266
3.30282 1.74442 2.39878
3.30395 1.74969 2.4167
3.30409 1.75495 2.43462
-2.79833 1.6274 2.41448
-2.83259 1.62691 2.37974
-2.85078 1.62455 2.35491
-2.86494 1.62325 2.33403
-2.89008 1.62499 2.31519
-2.89516 1.62383 2.30425
-2.91031 1.62255 2.28438
-2.91937 1.62344 2.27643
-2.92645 1.62229 2.2665
-2.92757 1.61806 2.25057
-2.93557 1.62005 2.2496
-2.94663 1.62195 2.24265
-2.94575 1.61671 2.22672
-2.97592 1.6194 2.20391
-2.97803 1.61619 2.18997
-2.98516 1.61293 2.17207
-2.99323 1.6128 2.16313
-3.00925 1.61777 2.16018
-3.01434 1.61659 2.14823
-3.02042 1.61545 2.13829
-3.02849 1.61531 2.12835
-3.03153 1.61524 2.12338
-3.04258 1.61614 2.11645
-3.04966 1.616 2.1065
-3.0617 1.61892 2.10055
-3.07088 1.61557 2.07666
-3.07398 1.61238 2.06373
-3.07205 1.60925 2.05476
-3.08708 1.6132 2.05082
-3.09316 1.61204 2.03988
-3.10322 1.61393 2.03192
-3.12737 1.61665 2.01206
-3.13754 1.61431 1.98917
-3.14263 1.61316 1.97822
-3.16187 1.6107 1.9464
-3.16789 1.61266 1.94342
-3.17894 1.61456 1.93647
-3.18502 1.6134 1.92553
-3.19508 1.61529 1.91758
-3.18724 1.60699 1.89764
-3.19331 1.60685 1.88769
-3.20542 1.60765 1.87376
-3.21349 1.60752 1.86483
-3.22355 1.60939 1.85587
-3.22565 1.6072 1.84292
-3.23074 1.60604 1.83197
-3.24577 1.60998 1.82703
-3.25185 1.60982 1.81607
-3.25291 1.60772 1.80911
-3.26396 1.61062 1.80215
-3.26108 1.60538 1.78621
-3.27412 1.6083 1.78026
-3.28617 1.61121 1.77331
-3.28728 1.608 1.75936
-3.28838 1.60581 1.7464
-3.29541 1.60676 1.74244
-3.30248 1.60763 1.73348
-3.30956 1.60747 1.72253
-3.31564 1.60733 1.71258
-3.3247 1.6092 1.70362
-3.33476 1.61009 1.69568
-3.34084 1.60993 1.68473
-3.3409 1.60883 1.67774
-3.341 1.60462 1.6638
-3.3441 1.60345 1.65184
-3.34719 1.60126 1.6389
-3.35128 1.6001 1.62794
-3.35438 1.59891 1.61498
-3.36643 1.60181 1.60803
-3.36947 1.60174 1.60305
-3.36758 1.59752 1.5881
-3.37864 1.59941 1.58015
-3.38372 1.59925 1.56919
-3.39279 1.60112 1.56023
-3.39588 1.59894 1.54828
-3.39693 1.59786 1.54231
-3.40599 1.59973 1.53335
-3.40909 1.59754 1.5204
-3.41915 1.60043 1.51243
-3.43021 1.60232 1.50449
-3.43738 1.60098 1.48156
-3.4454 1.60294 1.47859
-3.44452 1.59972 1.46363
-3.45159 1.60058 1.45367
-3.46364 1.60348 1.44671
-3.46773 1.60231 1.43476
-3.46783 1.60012 1.42179
-3.47691 1.60097 1.41185
-3.47596 1.59987 1.40485
-3.48004 1.59871 1.3939
-3.48015 1.5955 1.37995
-3.49718 1.60144 1.37499
-3.50945 1.59993 1.3401
-3.51747 1.60189 1.33713
-3.51857 1.5997 1.32417
-3.52266 1.59953 1.3122
-3.53073 1.6004 1.30324
-3.53282 1.59921 1.29028
-3.5389 1.59906 1.28032
-3.54797 1.60092 1.27036
-3.56018 1.60052 1.24246
-3.60409 1.59677 1.12283
-3.60913 1.5977 1.11785
-3.63764 1.59772 1.05005
-3.69898 1.59511 0.871531
-3.70107 1.59393 0.859562
-3.70326 1.59157 0.83461
-3.7063 1.59249 0.829619
-3.72996 1.59021 0.741819
-3.73505 1.59103 0.729843
-3.74831 1.59154 0.695931
-3.75653 1.59112 0.666995
-3.76071 1.58976 0.643043
-3.76181 1.58957 0.630053
-3.762 1.5862 0.6051
-3.75805 1.5841 0.598101
-3.77311 1.58897 0.589141
-3.76023 1.58174 0.574149
-3.7753 1.58762 0.565174
-3.77948 1.58627 0.541222
-3.78157 1.58609 0.529239
-3.78661 1.58801 0.523248
-3.78171 1.58381 0.510271
-3.79678 1.58969 0.501297
-3.79197 1.5843 0.475336
-3.79207 1.58311 0.462353
-3.80818 1.5889 0.447387
-3.80328 1.5857 0.434395
-3.80946 1.58635 0.410429
-3.80856 1.58416 0.397453
-3.81773 1.58582 0.374494
-3.82277 1.58775 0.369503
-3.82486 1.58757 0.35752
-3.81797 1.58336 0.343528
-3.81606 1.58118 0.331544
-3.83113 1.58705 0.32157
-3.82024 1.58083 0.307578
-3.83027 1.58476 0.302594
-3.83037 1.58459 0.290596
-3.82846 1.58239 0.277612
-3.83755 1.58524 0.266637
-3.83364 1.58306 0.254638
-3.84273 1.58589 0.242663
-3.84695 1.58544 0.212697
-3.84105 1.58225 0.199699
-3.8525 1.58237 0.139775
-3.85773 1.58293 0.109802
-3.86082 1.58375 0.0978112
-3.86391 1.58458 0.0858206
-3.85801 1.58138 0.0728217
-3.86404 1.58331 0.0678379
-3.86822 1.58396 0.0438565
-3.8695 1.58241 0.0068839
-3.87259 1.58323 -0.00510668
-3.87401 1.58142 -0.0600768
-3.8691 1.57924 -0.0720831
-3.87951 1.58143 -0.127045
-3.87983 1.57981 -0.169024
-3.87593 1.57762 -0.182023
-3.87302 1.57644 -0.194029
-3.87511 1.57726 -0.206027
-3.8832 1.58009 -0.21801
-3.88129 1.57891 -0.230008
-3.88538 1.58072 -0.243006
-3.87743 1.57663 -0.249006
-3.87952 1.57745 -0.261004
3.27873 1.74031 2.255
3.28792 1.75066 2.27878
3.28402 1.75385 2.29177
3.25787 1.74262 2.14011
3.25597 1.74583 2.15408
3.26308 1.75303 2.16792
0.0599913 -0.666975 19.8133
-0.00371282 -0.663291 19.5867
-0.0642738 -0.659328 19.3791
-0.125023 -0.654735 19.1464
-0.323005 -0.639396 18.3506
-0.377513 -0.635333 18.1499
-0.65365 -0.615188 17.0675
-0.700106 -0.611027 16.8738
-0.748179 -0.60911 16.7311
-0.942064 -0.594582 15.9483
-0.984168 -0.591728 15.8015
-1.13806 -0.579273 15.1504
-1.38722 -0.562222 14.1979
-1.42296 -0.559648 14.1001
0.0805204 -0.540116 19.8713
0.0160261 -0.538016 19.6727
-0.892867 -0.492392 16.0974
-0.936016 -0.490627 15.9447
-1.11541 -0.482131 15.2278
-1.15444 -0.480131 15.091
-1.19246 -0.478118 14.9553
-1.42201 -0.467881 14.0837
0.615095 -0.566787 21.9419
0.538113 -0.563641 21.6784
0.463003 -0.559748 21.3979
-0.36829 -0.43117 18.1598
-0.395147 -0.430838 18.046
-0.447574 -0.428614 17.8563
-0.499076 -0.427539 17.6567
-0.598021 -0.424272 17.2653
-0.647238 -0.422636 17.1036
-0.76001 -0.418989 16.6024
-0.806077 -0.418058 16.4607
-0.850271 -0.416381 16.302
-0.894405 -0.415585 16.1513
-0.996643 -0.411894 15.7209
-1.03679 -0.411131 15.5682
-1.07778 -0.410041 15.4375
-1.11689 -0.409204 15.2897
-1.20603 -0.40533 14.8723
-1.24299 -0.405199 14.7446
-1.27898 -0.404113 14.6138
-1.31489 -0.402894 14.492
-1.34982 -0.401705 14.3683
-1.38288 -0.400754 14.2285
-1.43048 -0.398889 14.0148
-1.46431 -0.398494 13.905
-1.49526 -0.397337 13.7792
-1.52998 -0.396748 13.6824
-1.55898 -0.395682 13.5506
0.757781 -0.466794 22.5545
0.677496 -0.465238 22.251
0.33828 -0.453133 20.8932
0.268401 -0.451785 20.6437
0.200456 -0.449571 20.3851
0.10753 -0.292474 19.9814
-0.0201981 -0.291727 19.4863
-0.395835 -0.291409 18.0739
-0.524 -0.29152 17.5208
-0.575293 -0.29103 17.3492
-0.830058 -0.290143 16.318
-0.874269 -0.290495 16.1573
-0.918343 -0.290581 16.0146
-0.960568 -0.289964 15.8519
-1.00264 -0.290051 15.7092
-1.05979 -0.29023 15.4246
-1.09979 -0.290171 15.2918
-1.13882 -0.290186 15.1541
-1.17779 -0.290068 15.0254
-1.21398 -0.290382 14.8677
-1.25288 -0.29013 14.7479
-1.33772 -0.289652 14.3715
-1.40658 -0.290275 14.124
-1.44051 -0.290086 14.0002
-1.47343 -0.289869 13.8785
-1.51712 -0.290169 13.6538
-1.5499 -0.289686 13.55
0.728624 -0.294279 22.3841
0.648324 -0.293753 22.0787
0.570166 -0.293946 21.7922
0.494152 -0.29286 21.5247
0.241199 -0.292344 20.4685
0.173274 -0.292086 20.213
0.139316 -0.188087 20.0757
-0.198152 -0.193486 18.8191
-0.5445 -0.199611 17.4456
-0.844472 -0.20606 16.2548
-0.887608 -0.206265 16.1041
-0.932577 -0.207142 15.9755
-1.11096 -0.210616 15.2607
-1.14808 -0.210795 15.112
-1.18614 -0.211841 14.9723
-1.41458 -0.215366 14.1169
-1.45837 -0.216858 13.8793
-1.52307 -0.218158 13.6537
0.680094 -0.178411 22.1697
0.601823 -0.179827 21.8683
0.525875 -0.180607 21.6098
0.451762 -0.182714 21.3294
-0.0724083 0.0374911 19.2938
-0.132215 0.0329808 19.0543
-0.751439 -0.00541812 16.6382
-0.988154 -0.0204543 15.7481
-1.23555 -0.0358303 14.767
-1.27152 -0.0376995 14.6393
-1.30842 -0.0394496 14.5196
-1.34243 -0.042409 14.3859
0.127098 0.178008 20.0113
-0.1228 0.157627 19.0974
-0.37758 0.134516 18.0665
-0.431846 0.130068 17.899
-0.903042 0.0885001 16.0179
-0.946104 0.0854436 15.8772
-0.987317 0.0810897 15.7166
-1.0294 0.0779881 15.5729
-1.08547 0.0719718 15.2994
-1.1255 0.0689576 15.1617
-1.16446 0.0661054 15.035
-1.19879 0.0625243 14.8593
-1.23671 0.0597307 14.7366
-1.27369 0.0568326 14.6069
-1.36027 0.0488317 14.2656
-1.39335 0.0457235 14.1219
-1.42911 0.0432689 14.0222
-1.46014 0.0402481 13.8845
0.752279 0.232297 22.4201
0.67214 0.22615 22.1368
0.5941 0.220195 21.8664
0.51687 0.212868 21.5711
0.194011 0.18372 20.2648
0.113678 0.301027 19.9436
-0.0733927 0.282198 19.2722
-0.133269 0.274555 19.0237
-0.383767 0.246005 18.0309
-0.437965 0.24169 17.8723
-0.752263 0.206648 16.6411
-0.860843 0.192694 16.167
-0.945171 0.18418 15.8587
-0.987294 0.180005 15.7101
-1.02743 0.175798 15.5594
-1.12247 0.163901 15.1573
-1.19666 0.155646 14.8669
-1.23277 0.151496 14.7202
-1.26969 0.148716 14.5985
-1.38828 0.13474 14.1226
-1.4231 0.132166 14.0149
-1.45599 0.128428 13.8961
-1.48979 0.125883 13.7904
-1.56137 0.115871 13.4491
0.649555 0.361834 22.0459
0.572483 0.353818 21.7716
0.497343 0.345668 21.4883
0.179531 0.307622 20.189
-0.0314199 0.4219 19.3878
-0.0930404 0.414762 19.1734
-0.152601 0.40774 18.9669
-0.350512 0.379277 18.1847
-0.404073 0.372251 17.9782
-0.45758 0.365329 17.7786
-0.772763 0.322525 16.5635
-0.837169 0.310849 16.2451
-0.880443 0.304378 16.0765
-0.923582 0.299174 15.9259
-0.96572 0.293969 15.7753
-1.00778 0.288912 15.6346
-1.04792 0.283706 15.484
-1.10395 0.274763 15.2155
-1.14297 0.269778 15.0799
-1.18377 0.266253 14.9752
-1.21903 0.259792 14.8075
-1.25697 0.255983 14.6839
-1.29296 0.25107 14.5532
-1.40968 0.233841 14.0603
-1.44357 0.230119 13.9425
-1.55197 0.21452 13.4925
0.631995 0.514542 21.9568
0.554748 0.503186 21.6595
0.478765 0.494347 21.3972
0.405647 0.48424 21.1168
0.147719 0.550722 20.0577
-0.0424477 0.522719 19.3744
-0.102265 0.513195 19.134
-0.410121 0.465038 17.9628
-0.83889 0.397285 16.2738
-0.88127 0.389606 16.0912
-0.925213 0.384788 15.9666
-0.96648 0.377331 15.799
-1.10273 0.355094 15.2373
-1.14357 0.350466 15.1257
-1.1798 0.344079 14.963
-1.21405 0.337646 14.7973
-1.25192 0.332971 14.6827
-1.28792 0.328043 14.551
-1.33574 0.317495 14.3095
-1.36973 0.312581 14.1788
-1.54485 0.285655 13.5014
0.611507 0.625449 21.8813
0.53541 0.613388 21.604
-0.0635081 0.632501 19.2229
-0.124319 0.620993 18.9835
-0.182956 0.611823 18.7671
-0.431224 0.566747 17.8065
-0.482748 0.557794 17.605
-0.534864 0.550641 17.4574
-0.794622 0.502611 16.432
-0.838912 0.495111 16.2614
-0.884021 0.487968 16.1148
-0.98641 0.467395 15.6668
-1.02655 0.461189 15.5162
-1.0676 0.454161 15.3776
-1.10765 0.448132 15.239
-1.14664 0.442206 15.1073
-1.30679 0.410226 14.4269
-1.34082 0.404238 14.2912
-1.37763 0.399666 14.1836
-1.42431 0.389413 13.962
-1.45721 0.38366 13.8424
-1.49009 0.378967 13.7267
-1.52389 0.373422 13.621
-1.55193 0.3674 13.4833
0.791719 0.78837 22.5576
0.710577 0.775225 22.2744
0.438169 0.722931 21.1631
0.36617 0.71106 20.8988
0.295223 0.699292 20.6414
0.22642 0.687804 20.4031
0.159367 0.674826 20.1317
-0.0188057 0.771638 19.4356
-0.0794815 0.760395 19.2141
-0.335213 0.706422 18.1927
-0.388716 0.695515 17.9943
-0.442014 0.686008 17.8228
-0.66187 0.638726 16.917
-0.950016 0.581963 15.8409
-0.991111 0.573846 15.6963
-1.1467 0.541959 15.0899
-1.37277 0.493267 14.1561
-1.3921 0.491629 14.1123
-1.42782 0.486234 14.0166
-1.45979 0.479363 13.889
0.41606 0.862547 21.1352
0.137618 0.923037 20.0082
0.0728051 0.909532 19.7689
-0.0830602 0.871112 19.1265
-0.142835 0.857677 18.8921
-0.200414 0.844625 18.6837
-0.257963 0.832632 18.4793
-0.313496 0.820668 18.2769
-0.368893 0.809969 18.0924
-0.498169 0.776685 17.5278
-0.54949 0.767132 17.3533
-0.59882 0.756562 17.1778
-0.716567 0.727306 16.6831
-0.76282 0.717882 16.5176
-0.808939 0.708725 16.37
-0.8532 0.699285 16.2035
-0.896371 0.690022 16.0489
-0.939549 0.680744 15.8933
-0.956622 0.672654 15.7516
-0.997823 0.663331 15.593
-1.03886 0.655332 15.4564
-1.07892 0.647274 15.3158
-1.11893 0.639335 15.1832
-1.15795 0.63235 15.0476
-1.20999 0.616406 14.7792
-1.24695 0.608553 14.6526
-1.2839 0.601714 14.5269
-1.31892 0.593726 14.3913
-1.3529 0.585842 14.2626
-1.38687 0.578972 14.135
-1.4227 0.572369 14.0253
-1.43453 0.56575 13.9155
-1.46739 0.559086 13.8018
-1.50122 0.553482 13.6922
-1.53306 0.546862 13.5815
-1.56587 0.540287 13.4738
0.76608 1.06776 22.4457
0.684754 1.05026 22.1385
0.414466 0.985216 21.0444
0.343555 0.969523 20.7921
0.273493 0.953533 20.5198
0.204778 0.940222 20.2935
0.131357 1.03738 19.9626
0.0663463 1.01949 19.6973
-0.145873 0.96646 18.8766
-0.203589 0.952142 18.6502
-0.260123 0.939178 18.4478
-0.315642 0.926243 18.2473
-0.36913 0.913366 18.0509
-0.54764 0.866705 17.3238
-0.596955 0.855165 17.1504
-0.645209 0.844743 16.9849
-0.693358 0.834528 16.8333
-0.758784 0.813824 16.5131
-0.803121 0.803236 16.3366
-0.84827 0.793019 16.185
-0.890487 0.782667 16.0245
-0.934476 0.77476 15.8939
-0.974806 0.763184 15.7184
-1.14905 0.719038 15.0262
-1.18609 0.710037 14.8896
-1.34291 0.669707 14.2533
-1.37684 0.661896 14.1297
-1.41166 0.655322 14.022
-1.52009 0.626681 13.5692
-1.55097 0.618986 13.4535
0.8308 1.21291 22.6601
0.749578 1.19362 22.3669
0.669357 1.17432 22.0738
0.592225 1.1562 21.7926
0.333237 1.08775 20.7384
0.264188 1.06979 20.4682
0.196436 1.0554 20.2368
0.106658 1.15886 19.8579
-0.0198662 1.12505 19.3933
-0.0815142 1.10987 19.176
-0.283881 1.05055 18.3363
-0.33934 1.03674 18.1439
-0.392845 1.02283 17.9454
-0.44619 1.01024 17.768
-0.572251 0.972378 17.2325
-0.620628 0.95872 17.051
-0.669837 0.947387 16.8915
-0.716167 0.935816 16.716
-0.827661 0.903059 16.2553
-0.871954 0.89056 16.0848
-0.915012 0.881519 15.9452
-0.957244 0.870137 15.7827
-0.999326 0.860051 15.6401
-1.09461 0.829681 15.2062
-1.13554 0.820905 15.0846
-1.17177 0.809519 14.9221
-1.21062 0.801874 14.8094
-1.24676 0.790681 14.6599
-1.33156 0.765251 14.2898
-1.36648 0.756485 14.1692
-1.40231 0.748883 14.0596
-1.4362 0.741161 13.9419
-1.5137 0.718333 13.6128
0.724593 1.32752 22.2231
0.645446 1.30737 21.94
0.567269 1.28717 21.6528
0.492204 1.26718 21.3806
0.172472 1.17536 20.0972
0.00461471 1.23484 19.4465
-0.369074 1.12719 18.0377
-0.47388 1.09878 17.6679
-0.645039 1.04681 16.9879
-0.738626 1.02082 16.6469
-0.974608 0.951326 15.7266
-1.18688 0.88921 14.9
-1.41341 0.824601 14.0395
-1.44637 0.815731 13.9119
0.140022 1.42017 20.0138
-0.020103 1.36327 19.3388
-0.0807981 1.345 19.1155
-0.141334 1.32804 18.9132
-0.199075 1.30868 18.6839
-0.256597 1.29174 18.4835
-0.312254 1.27354 18.2652
-0.445478 1.22738 17.7088
-0.496999 1.21044 17.5084
-0.54727 1.19699 17.341
-0.597663 1.18231 17.1575
-0.715296 1.14229 16.6789
-0.760734 1.12651 16.4895
-0.806786 1.11549 16.351
-0.850997 1.10215 16.1915
-0.894208 1.08881 16.032
-0.937411 1.07549 15.8735
-0.996591 1.05227 15.5862
-1.03763 1.04127 15.4497
-1.07769 1.02922 15.3092
-1.11775 1.01819 15.1706
-1.15584 1.00607 15.026
-1.24484 0.973274 14.6311
-1.28174 0.96354 14.5126
-1.31671 0.953671 14.3849
-1.35169 0.942772 14.2553
-1.38664 0.932947 14.1307
-1.46526 0.904884 13.7857
-1.49909 0.89628 13.6761
-1.53097 0.886587 13.5604
-1.56089 0.876803 13.4388
0.849481 1.64566 22.7085
0.766066 1.619 22.3905
0.686 1.59602 22.1184
0.344751 1.48323 20.7685
0.274867 1.46259 20.5203
0.206997 1.44199 20.274
-0.0844739 1.44351 19.1491
-0.445211 1.31879 17.7354
0.336823 1.58624 20.768
-0.221002 1.5136 18.541
-0.277373 1.49596 18.3606
-0.333774 1.47926 18.1763
-0.387327 1.45927 17.972
-0.465047 1.42601 17.614
-0.516449 1.40831 17.4296
-0.566767 1.39177 17.2562
-0.616062 1.37628 17.0858
-0.777122 1.31351 16.4198
-0.822342 1.29816 16.2594
-0.867463 1.284 16.1119
-0.909706 1.26861 15.9484
-0.952834 1.25543 15.7999
-1.05294 1.21644 15.3912
-1.09304 1.20332 15.2467
-1.29502 1.12978 14.4592
-1.33006 1.11777 14.3226
-1.36495 1.10605 14.205
-1.39893 1.09417 14.0764
-1.47942 1.06437 13.7494
-1.51131 1.05365 13.6318
-1.5413 1.04173 13.5012
-0.751108 1.42234 16.544
-0.816269 1.39317 16.2599
-0.86042 1.37896 16.1084
-0.902694 1.3615 15.941
-0.945686 1.34859 15.8105
-0.986883 1.33329 15.653
-1.04298 1.30624 15.3778
-1.08392 1.29342 15.2533
-1.12208 1.27819 15.1008
-1.16095 1.26751 14.9862
-1.19805 1.25339 14.8417
-1.28488 1.21594 14.4698
-1.3208 1.20416 14.3483
-1.35572 1.19239 14.2277
-1.38966 1.18058 14.1041
-1.49915 1.13484 13.6445
-1.53003 1.12416 13.5299
-1.56089 1.1125 13.4163
-1.17794 1.34347 14.8472
-1.21589 1.33065 14.7226
-1.25188 1.31774 14.5921
-1.28882 1.30493 14.4685
-1.37254 1.26769 14.1117
-1.40645 1.25494 13.9921
-1.44034 1.24224 13.8755
-1.47418 1.2316 13.7639
-1.50703 1.21997 13.6523
-1.54874 1.19667 13.428
-1.53422 1.29055 13.4875
5.31231 -0.460522 4.66359
5.32866 -0.461837 4.7105
5.32789 -0.462377 4.74151
5.34525 -0.462679 4.78939
5.34651 -0.463177 4.8234
5.36903 -0.464171 4.89225
5.39068 -0.465898 4.97913
5.41109 -0.467113 5.033
5.41235 -0.466596 5.06799
5.43075 -0.467824 5.12087
5.4339 -0.46853 5.14086
5.45733 -0.469688 5.19871
5.4586 -0.469156 5.2347
5.48204 -0.470314 5.29255
5.48936 -0.471682 5.33552
5.502 -0.472433 5.42045
5.52531 -0.473827 5.4623
5.53365 -0.474167 5.50724
5.54099 -0.474506 5.5522
5.54732 -0.474859 5.59616
5.57179 -0.475944 5.659
5.58548 -0.477606 5.74994
5.60679 -0.478999 5.7918
5.60809 -0.479408 5.83181
5.62654 -0.479547 5.89068
5.63994 -0.480757 5.9446
5.67297 -0.482752 6.0814
5.30644 -0.414315 4.67696
5.31474 -0.414743 4.71591
5.32203 -0.415171 4.75486
5.37449 -0.417336 4.94852
5.31635 -0.380548 4.66138
5.36679 -0.380756 4.85203
5.41627 -0.381875 5.0487
5.43264 -0.382146 5.09859
5.43895 -0.382543 5.13955
5.44626 -0.382941 5.18051
5.48319 -0.384132 5.30426
5.49858 -0.384373 5.35616
5.5059 -0.383741 5.3991
5.51323 -0.384095 5.44306
5.52963 -0.384322 5.49594
5.5449 -0.384815 5.53084
5.5613 -0.385027 5.58473
5.56562 -0.385408 5.62671
5.57195 -0.385761 5.67067
5.58332 -0.386029 5.72059
5.60075 -0.386197 5.77747
5.61198 -0.386746 5.8084
5.62842 -0.386899 5.86629
5.63375 -0.387252 5.91026
5.6522 -0.387376 5.97013
5.6636 -0.3876 6.02306
5.67198 -0.387865 6.073
5.69765 -0.388551 6.16283
5.71712 -0.388632 6.2257
5.7996 -0.390805 6.55515
5.81709 -0.391855 6.62004
5.32565 -0.325043 4.69549
5.32827 -0.32383 4.77747
5.35191 -0.324574 4.86331
5.39408 -0.324309 5.01801
5.41473 -0.324036 5.10486
5.47435 -0.323895 5.31944
5.37614 -0.286196 4.88956
5.51401 -0.28267 5.40354
5.5995 -0.28083 5.73392
5.60886 -0.281126 5.78186
5.64186 -0.28018 5.91461
5.66031 -0.280305 5.97448
5.66566 -0.279628 6.02044
5.68009 -0.278794 6.07733
5.68947 -0.279046 6.12827
5.71383 -0.278353 6.17608
5.72927 -0.278505 6.23397
5.73766 -0.277741 6.28591
5.75109 -0.277907 6.34282
5.77058 -0.277958 6.40768
5.77898 -0.277165 6.46161
5.79141 -0.27733 6.51853
5.81782 -0.276549 6.57233
5.82925 -0.276714 6.62925
5.84674 -0.275749 6.69511
5.86222 -0.275827 6.75801
5.87367 -0.274947 6.81791
5.88511 -0.275082 6.87684
5.90364 -0.275058 6.94671
5.924 -0.274362 6.99455
5.93748 -0.274424 7.05846
5.95701 -0.273387 7.12931
5.96849 -0.273463 7.19223
6.01789 -0.272744 7.37787
5.33029 -0.234901 4.77213
5.33657 -0.234357 4.80908
5.35091 -0.233687 4.85497
5.36325 -0.233029 4.89987
5.39409 -0.232393 5.01165
5.4014 -0.231806 5.05159
5.41373 -0.231149 5.09649
5.69422 -0.178668 6.08574
5.70765 -0.177848 6.14163
5.70796 -0.177226 6.18363
5.7508 -0.175614 6.2943
5.77766 -0.17393 6.40909
5.78909 -0.173095 6.466
5.80657 -0.17216 6.52986
5.82608 -0.170182 6.59669
5.85383 -0.168721 6.69648
5.88176 -0.16692 6.81925
5.89624 -0.165983 6.88314
5.91677 -0.164947 6.95398
5.93815 -0.164222 7.00382
5.9486 -0.163341 7.06373
5.9742 -0.162175 7.14353
5.98063 -0.161336 7.20048
5.99413 -0.160368 7.26637
6.01772 -0.15823 7.34417
6.04857 -0.156565 7.45793
5.30655 -0.155447 4.66612
5.32592 -0.153736 4.71496
5.33824 -0.153108 4.75786
5.3434 -0.152801 4.77882
5.35372 -0.152186 4.82074
5.359 -0.150642 4.85768
5.39273 -0.149216 4.95542
5.39197 -0.148741 4.98742
5.39323 -0.147239 5.0214
5.41149 -0.146734 5.05626
5.42888 -0.145991 5.10712
5.43517 -0.144418 5.14606
5.4498 -0.143185 5.22994
5.46518 -0.142456 5.27982
5.47035 -0.141119 5.30276
5.49178 -0.140291 5.3596
5.50112 -0.139631 5.40452
5.5145 -0.137901 5.4544
5.32083 -0.0580386 4.69358
5.34145 -0.0558247 4.7764
5.41029 -0.0472622 5.01979
5.45754 -0.0418536 5.18437
5.46586 -0.040223 5.22729
5.47821 -0.0385361 5.27418
5.48554 -0.0379047 5.31712
5.49789 -0.0362179 5.36401
5.51341 -0.0342075 5.43287
5.52578 -0.032491 5.48176
5.54017 -0.0307316 5.53363
5.54851 -0.0290714 5.57855
5.5629 -0.027312 5.63043
5.57024 -0.0256511 5.67535
5.60293 -0.0223276 5.76607
5.6123 -0.0206089 5.81498
5.62973 -0.0187777 5.87183
5.64414 -0.0169739 5.9267
5.66058 -0.0151271 5.98456
5.676 -0.0133092 6.04042
5.68624 -0.0118577 6.07133
5.69562 -0.0101094 6.12224
5.70703 -0.00831819 6.17613
5.71742 -0.00655585 6.22804
5.72883 -0.00476464 6.28193
5.74832 -0.00281642 6.34677
5.76563 -0.001222 6.38762
5.78915 0.000797317 6.45742
5.80158 0.00263221 6.51431
5.80898 0.00439673 6.56623
5.83689 0.00916785 6.68697
5.86969 0.0127134 6.79268
5.88618 0.0146786 6.85854
5.56667 0.0131773 5.59579
5.57401 0.0148382 5.64072
5.59144 0.0176545 5.69656
5.66163 0.0289118 5.9869
5.71081 0.0341857 6.14247
5.72221 0.0369768 6.19635
5.73765 0.0388243 6.25422
5.74807 0.0406311 6.30912
5.76049 0.043451 6.36499
5.79831 0.0470374 6.47367
5.83125 0.0528639 6.59835
5.84673 0.0547855 6.66122
5.8501 0.0565085 6.71017
5.87567 0.059615 6.78594
5.89099 0.0612257 6.82781
5.91152 0.0642619 6.89862
5.92601 0.066199 6.96249
5.92939 0.0679516 7.01345
5.96004 0.0722025 7.09916
5.96948 0.0740691 7.15807
5.98803 0.0771216 7.2299
6.00134 0.0787189 7.27078
6.02796 0.0819284 7.35354
6.02835 0.0836832 7.40452
5.30667 0.0215484 4.6645
5.31898 0.0231612 4.70639
5.33232 0.0248177 4.75127
5.33558 0.0263187 4.78523
5.3459 0.0279331 4.82713
5.3644 0.0309115 4.89396
5.3717 0.0324836 4.93289
5.39108 0.0352245 4.98371
5.40141 0.0368684 5.02761
5.40771 0.0384412 5.06654
5.44463 0.0442205 5.1882
5.46303 0.0459918 5.24104
5.46228 0.0474957 5.27503
5.47666 0.0502254 5.32489
5.50757 0.0549795 5.4446
5.52094 0.0567101 5.49448
5.59912 0.0699169 5.78174
5.7998 0.102934 6.53384
5.49886 0.102529 5.34595
5.59571 0.122055 5.72298
5.67601 0.136497 6.0262
5.69346 0.139372 6.08604
5.73559 0.147562 6.23562
5.75204 0.150438 6.29546
5.77893 0.156151 6.41219
5.79236 0.158985 6.46906
5.82818 0.164573 6.57772
5.84163 0.167451 6.63758
5.87158 0.174294 6.76327
5.88807 0.17723 6.82711
5.90457 0.18021 6.89396
5.9374 0.186814 7.00362
5.95391 0.189794 7.07047
5.96336 0.192676 7.13036
5.98493 0.19677 7.20515
5.99641 0.199709 7.26903
6.02689 0.20362 7.33175
6.03029 0.205417 7.3857
6.05491 0.209613 7.46747
5.37952 0.126009 4.90044
5.37574 0.127441 4.92945
5.4711 0.144005 5.24153
5.49494 0.150631 5.35227
5.53076 0.156203 5.45993
5.54011 0.158892 5.50682
5.57407 0.165748 5.63349
5.5925 0.169578 5.6903
5.59984 0.171239 5.73522
5.60719 0.173914 5.78114
5.62563 0.176774 5.83996
5.64927 0.182001 5.92372
5.66469 0.184818 5.97957
5.67507 0.187551 6.02946
5.68647 0.190342 6.08334
5.70695 0.19426 6.14613
5.71432 0.19698 6.19504
5.72859 0.198502 6.23092
5.74606 0.202407 6.29274
5.75142 0.205114 6.34066
5.77394 0.209104 6.40844
5.78334 0.211882 6.46134
5.79779 0.21476 6.5212
5.82015 0.217454 6.56899
5.83966 0.221432 6.6358
5.85311 0.22531 6.69565
5.86051 0.228089 6.74856
5.87801 0.231054 6.81439
5.89855 0.23509 6.88519
5.93541 0.241765 6.99983
5.94788 0.245674 7.06168
5.96641 0.249697 7.13149
5.97485 0.252549 7.1894
5.99945 0.257701 7.26814
6.04986 0.267432 7.45465
5.33038 0.15976 4.74629
5.35178 0.162529 4.79909
5.35303 0.165017 4.83205
5.3704 0.167729 4.88089
5.38061 0.169122 4.90779
5.38589 0.17168 4.94572
5.4126 0.177037 5.03845
5.433 0.180822 5.09225
5.44132 0.182438 5.13417
5.44965 0.185068 5.17707
5.4876 0.192906 5.30269
5.49997 0.195622 5.35156
5.50325 0.198182 5.3895
5.51966 0.20097 5.44335
5.52094 0.203516 5.48031
5.5483 0.206192 5.52707
5.55967 0.208909 5.57595
5.56902 0.211598 5.62284
5.58242 0.215373 5.67569
5.58271 0.216935 5.71367
5.60619 0.220851 5.77645
5.63688 0.22719 5.86813
5.64424 0.229881 5.91505
5.65361 0.232614 5.96494
5.68984 0.241986 6.12655
5.70411 0.244508 6.16241
5.71855 0.248356 6.22025
5.73298 0.25119 6.27711
5.77935 0.26285 6.45862
5.80709 0.26828 6.55634
5.82762 0.273287 6.62512
5.91733 0.294536 6.98318
5.29956 0.199105 4.63292
5.32521 0.204374 4.71966
5.31728 0.204498 4.72772
5.34371 0.209322 4.78446
5.35326 0.213396 4.85734
5.37365 0.217151 4.90913
5.38624 0.221296 4.98699
5.4186 0.225983 5.03468
5.41987 0.227501 5.06965
5.43423 0.231201 5.1175
5.44758 0.233872 5.16336
5.45691 0.236516 5.20726
5.45516 0.238006 5.24026
5.47948 0.24161 5.28203
5.48377 0.244184 5.32096
5.49816 0.246929 5.37182
5.5085 0.250602 5.41769
5.51684 0.253247 5.4616
5.52619 0.255921 5.50749
5.54259 0.259709 5.56132
5.55684 0.262187 5.59418
5.57124 0.264961 5.64704
5.58161 0.268664 5.69491
5.59399 0.27141 5.74579
5.60335 0.275113 5.79367
5.61675 0.277888 5.84653
5.64039 0.284114 5.93027
5.66287 0.288045 5.99406
5.67226 0.291793 6.04494
5.68567 0.295598 6.09979
5.7001 0.299416 6.15563
5.74628 0.309692 6.31115
5.75467 0.312455 6.36305
5.76911 0.316303 6.4209
5.83585 0.332659 6.65018
5.85335 0.336624 6.716
5.85974 0.340389 6.7679
5.87825 0.344382 6.83571
5.89474 0.349332 6.90053
5.94711 0.361973 7.08097
5.96463 0.365967 7.14879
5.97813 0.370934 7.21462
5.53094 0.29638 5.47085
5.59572 0.313826 5.70614
5.61013 0.317615 5.75998
5.67803 0.335281 6.01024
5.68741 0.339014 6.06013
5.69781 0.342791 6.113
5.74701 0.354109 6.27148
5.76146 0.357972 6.33032
5.77288 0.361792 6.38619
5.78329 0.365584 6.44006
5.8038 0.370561 6.50684
5.84904 0.382955 6.67034
5.86453 0.386906 6.73518
5.87597 0.391756 6.79303
5.89247 0.396721 6.85884
5.9019 0.400573 6.91672
5.93236 0.405439 6.97642
5.95492 0.410532 7.05119
5.96942 0.415484 7.11601
5.98796 0.420536 7.18781
5.99035 0.424304 7.23974
6.01395 0.429456 7.3185
6.03635 0.434224 7.37127
5.31887 0.291584 4.66541
5.33018 0.295183 4.70628
5.37031 0.306374 4.85583
5.37559 0.308917 4.89276
5.38693 0.31156 4.93664
5.3902 0.314091 4.97258
5.43012 0.323868 5.09415
5.44146 0.327525 5.13902
5.45785 0.331268 5.18985
5.46113 0.333814 5.22679
5.49176 0.341034 5.31047
5.49707 0.343623 5.35039
5.51145 0.347367 5.40124
5.52281 0.351054 5.4481
5.5241 0.353616 5.48606
5.53042 0.356248 5.52898
5.55475 0.360867 5.57173
5.57015 0.364655 5.62557
5.57346 0.367259 5.66651
5.5919 0.372089 5.72331
5.60428 0.375835 5.77417
5.61062 0.379497 5.81907
5.62301 0.383257 5.87093
5.63829 0.385794 5.90778
5.65372 0.390611 5.9636
5.6641 0.394344 6.01348
5.67449 0.398106 6.06535
5.7361 0.415214 6.27766
5.7576 0.420175 6.34343
5.7764 0.42873 6.44918
5.79086 0.432608 6.50902
5.8297 0.442222 6.6196
5.84214 0.447072 6.67744
5.85358 0.450937 6.73631
5.88556 0.460823 6.86494
5.94196 0.47652 7.04931
5.95443 0.481443 7.11215
5.97296 0.486466 7.18195
5.31196 0.375654 4.66922
5.32026 0.37824 4.70912
5.33259 0.381867 4.75198
5.34479 0.385258 4.77884
5.34806 0.387774 4.81379
5.36844 0.392514 4.86457
5.38481 0.396227 4.9134
5.38003 0.398645 4.9414
5.40345 0.403457 4.99716
5.42296 0.409449 5.06494
5.43733 0.414149 5.11277
5.4386 0.416681 5.14872
5.44793 0.420325 5.19261
5.4744 0.426208 5.25333
5.47566 0.428726 5.28829
5.4889 0.43119 5.32015
5.50731 0.436975 5.37394
5.49649 0.437339 5.39802
5.53708 0.445463 5.4756
5.52426 0.446813 5.49868
5.5578 0.453839 5.56933
5.57564 0.462484 5.68109
5.6082 0.469541 5.75375
5.60848 0.473103 5.7917
5.62289 0.477892 5.84553
5.64941 0.483879 5.91325
5.64769 0.486428 5.95023
5.67436 0.494725 6.03892
5.70019 0.504335 6.14859
5.71463 0.509168 6.20542
5.74016 0.516185 6.27513
5.74233 0.517524 6.2981
5.77191 0.524642 6.37478
5.78264 0.533055 6.47059
5.80215 0.539032 6.53737
5.82266 0.545009 6.60413
5.83914 0.550944 6.66793
5.86453 0.555695 6.71967
5.88708 0.562744 6.79141
5.89651 0.567581 6.84828
5.90191 0.571362 6.90119
5.9174 0.577312 6.96599
5.93492 0.583306 7.03378
5.9718 0.593996 7.14936
5.9873 0.599976 7.21616
5.99677 0.605872 7.27701
6.02137 0.613038 7.35673
5.32523 0.420113 4.70047
5.37342 0.435416 4.8579
5.39206 0.442646 4.94166
5.40742 0.447345 4.98948
5.4446 0.460612 5.14403
5.45695 0.465299 5.19087
5.47133 0.470028 5.2407
5.47764 0.47363 5.28161
5.50324 0.480781 5.36032
5.51965 0.485568 5.41413
5.529 0.490242 5.46
5.54137 0.494958 5.50884
5.54669 0.497576 5.55077
5.57736 0.506871 5.63941
5.58975 0.511617 5.69025
5.61151 0.520081 5.78998
5.62188 0.524813 5.83984
5.63932 0.530659 5.89763
5.65561 0.534209 5.93546
5.66398 0.538928 5.98433
5.68344 0.544817 6.04511
5.68779 0.548495 6.09103
5.69718 0.553243 6.14189
5.71363 0.559118 6.20169
5.7311 0.564023 6.26349
5.7474 0.568589 6.30231
5.76387 0.574494 6.36411
5.77126 0.579244 6.41499
5.78874 0.585178 6.47878
5.80925 0.591155 6.54554
5.8545 0.607563 6.70998
5.87099 0.613513 6.77478
5.88144 0.618379 6.83364
5.89692 0.624315 6.89744
5.9584 0.644156 7.09171
5.96683 0.648993 7.14858
5.98538 0.656045 7.22035
5.33675 0.470062 4.76465
5.35916 0.475845 4.8184
5.36632 0.478165 4.84032
5.37588 0.484253 4.91416
5.40359 0.49361 5.00683
5.40888 0.497168 5.04474
5.43747 0.504316 5.12343
5.43471 0.506777 5.15442
5.4511 0.51252 5.20522
5.47353 0.518347 5.26197
5.48414 0.525538 5.3428
5.51251 0.531228 5.39051
5.50773 0.532675 5.42052
5.53421 0.539588 5.48323
5.55291 0.548951 5.57596
5.5686 0.557286 5.66674
5.57682 0.559695 5.69464
5.6013 0.566624 5.75836
5.63818 0.578314 5.87393
5.65391 0.587723 5.96968
5.68261 0.597064 6.06134
5.68694 0.600712 6.10526
5.73598 0.614718 6.2427
5.75594 0.626568 6.36839
5.77745 0.633559 6.43614
5.81242 0.646413 6.5627
5.84436 0.659239 6.68729
5.87112 0.6687 6.78696
5.90916 0.6827 6.92349
5.93612 0.695559 7.05011
5.99962 0.716428 7.24635
6.02158 0.728292 7.37303
5.32218 0.508913 4.68617
5.33955 0.514611 4.73396
5.34281 0.518126 4.76889
5.39203 0.534473 4.9293
5.40438 0.53913 4.97415
5.41572 0.543788 5.019
5.421 0.547346 5.05691
5.47862 0.569456 5.26918
5.48998 0.574158 5.31703
5.49629 0.577761 5.35793
5.52292 0.586955 5.43961
5.55473 0.597515 5.54623
5.57647 0.607949 5.64392
5.58886 0.612695 5.69477
5.61652 0.621962 5.78143
5.62689 0.627695 5.83128
5.63828 0.632441 5.88213
5.65472 0.638287 5.93992
5.6641 0.64402 5.98978
5.68644 0.64867 6.03455
5.69583 0.654418 6.0854
5.71631 0.66135 6.14915
5.72671 0.666112 6.20101
5.7351 0.670875 6.25288
5.76266 0.679936 6.32555
5.75694 0.682487 6.36256
5.79677 0.695086 6.47209
5.81963 0.706756 6.58576
5.84924 0.715919 6.66541
5.84757 0.719556 6.70838
5.8802 0.728776 6.792
5.89755 0.734429 6.8368
5.91606 0.741421 6.90456
5.91945 0.746174 6.95547
5.94945 0.760105 7.08706
5.97506 0.76927 7.16674
5.98452 0.775166 7.22759
6.02105 0.783175 7.29721
6.02648 0.789015 7.35409
5.33651 0.558475 4.72434
5.33977 0.56199 4.75926
5.35411 0.566646 4.80409
5.3604 0.571204 4.84198
5.37979 0.576944 4.89276
5.41165 0.588593 5.00536
5.425 0.594264 5.05118
5.4376 0.602439 5.13098
5.46003 0.608266 5.18773
5.46419 0.610574 5.20867
5.48185 0.619848 5.29541
5.50356 0.629209 5.38812
5.53104 0.637136 5.45181
5.5332 0.639445 5.47276
5.55593 0.649849 5.56845
5.57666 0.660254 5.66415
5.60143 0.670746 5.76582
5.63615 0.682126 5.8604
5.65995 0.693663 5.96507
5.68446 0.701636 6.03178
5.68375 0.704199 6.06975
5.70725 0.712173 6.13646
5.72254 0.71671 6.17329
5.74435 0.728292 6.28096
5.76788 0.736296 6.34968
5.76719 0.739903 6.39064
5.78871 0.747894 6.45836
5.80114 0.754728 6.51518
5.83595 0.766286 6.62176
5.8605 0.775348 6.69445
5.86387 0.780071 6.74336
5.87935 0.786992 6.80615
5.89383 0.793914 6.86895
5.93676 0.808688 6.99042
5.96033 0.81678 7.06514
5.9718 0.823689 7.12696
5.98528 0.830627 7.19076
6.00281 0.83865 7.26052
6.0143 0.845588 7.32434
6.04579 0.853527 7.38899
5.68445 0.756556 6.02596
5.75143 0.787354 6.28504
5.78638 0.802193 6.41057
5.79176 0.806929 6.46047
5.82556 0.819458 6.56504
5.83901 0.826322 6.62385
5.85549 0.834257 6.68761
5.87099 0.842207 6.75239
5.87436 0.84693 6.8013
5.89692 0.856008 6.87501
5.91829 0.862718 6.92375
5.93884 0.870768 6.99549
5.95232 0.87869 7.05828
5.96683 0.885671 7.12508
5.97527 0.892523 7.18292
5.9918 0.900547 7.25268
6.02026 0.908429 7.31336
6.03881 0.917481 7.3851
6.04728 0.924392 7.44694
5.47655 0.714131 5.24605
5.63818 0.788039 5.85382
5.71548 0.824466 6.15574
5.72387 0.830215 6.2066
5.79156 0.858465 6.4287
5.80703 0.866356 6.48948
5.81745 0.873177 6.54531
5.84923 0.885678 6.6479
5.86572 0.893613 6.71166
5.88221 0.901548 6.77543
5.89568 0.909455 6.83722
5.91116 0.917391 6.90099
5.92868 0.925384 6.96875
5.96454 0.940045 7.08228
5.98308 0.949067 7.15202
5.98749 0.954878 7.20691
5.99493 0.961716 7.26376
5.61141 0.822485 5.7475
5.68971 0.860911 6.04938
5.70211 0.867686 6.10219
5.76073 0.894795 6.31438
5.77618 0.902671 6.37416
5.78962 0.91052 6.43195
5.8071 0.918439 6.49471
5.85134 0.939819 6.65708
5.86278 0.946668 6.7149
5.86111 0.951306 6.75785
5.29641 0.712133 4.56334
5.3057 0.716703 4.60221
5.32733 0.7279 4.68389
5.33965 0.732528 4.72674
5.46433 0.794598 5.20894
5.53132 0.828426 5.46997
5.55909 0.841914 5.57158
5.65778 0.888065 5.9232
5.73108 0.927495 6.22511
5.73861 0.936525 6.29493
5.64764 0.943726 5.89945
5.64794 0.948318 5.93939
5.5106 0.923905 5.3657
5.50483 0.927353 5.3957
5.52656 0.940743 5.49035
5.54209 0.949767 5.56011
5.17041 0.785219 4.15815
5.18562 0.789622 4.18598
5.26887 0.831925 4.47976
5.27312 0.835425 4.51368
5.2945 0.844149 4.5634
5.30079 0.848692 4.60029
5.30707 0.853235 4.63718
5.32354 0.862155 4.69993
5.34293 0.86988 4.74968
5.35425 0.876494 4.7915
5.36659 0.88315 4.83632
5.36986 0.88768 4.87223
5.38522 0.894365 4.91902
5.42037 0.915588 5.07047
5.43072 0.922246 5.1153
5.43501 0.926805 5.1532
5.45657 0.937884 5.22688
5.1817 0.839708 4.19127
5.19098 0.844249 4.22813
5.20015 0.848567 4.25
5.20439 0.852038 4.28192
5.21669 0.85862 4.32174
5.23326 0.868703 4.39548
5.31005 0.905138 4.63039
5.31734 0.910695 4.66826
5.31355 0.914112 4.69624
5.3401 0.925158 4.76789
5.16957 1.12209 4.14717
5.1892 1.19623 4.22394
5.20452 1.20384 4.26571
4.93376 1.15281 3.24037
4.94802 1.16031 3.27415
4.9665 1.17221 3.33585
4.97171 1.17762 3.36373
5.00134 1.19383 3.44628
5.00876 1.20263 3.5011
5.02707 1.21221 3.54083
5.02644 1.21894 3.58974
5.03057 1.22219 3.60666
5.04485 1.22971 3.64245
5.05832 1.24162 3.70418
5.06859 1.24813 3.73901
5.06979 1.25252 3.76594
5.08097 1.25786 3.78878
5.08821 1.26332 3.82065
5.09868 1.27422 3.88142
5.12002 1.28487 3.9261
5.11721 1.28824 3.95108
5.14169 1.30214 4.0127
