-2.95905 1.59941 2.47495
-2.9711 1.60131 2.46801
-2.97719 1.59916 2.45709
-2.98129 1.59695 2.44315
-2.99624 1.60305 2.44918
-2.98645 1.59165 2.42227
-2.99452 1.59152 2.41333
-3.01452 1.59753 2.41339
-3.02074 1.59111 2.38453
-3.03974 1.59712 2.38458
-3.03285 1.59091 2.37062
-3.06191 1.5978 2.36174
-3.06204 1.59255 2.34481
-3.06315 1.58832 2.32988
-3.09011 1.59942 2.33492
-3.08123 1.59119 2.31997
-3.08533 1.589 2.30703
-3.11527 1.60112 2.31408
-3.12855 1.59457 2.27627
-3.12569 1.5883 2.25834
-3.13781 1.58809 2.24343
-3.15905 1.58563 2.21163
-3.19016 1.59242 2.19576
-3.1934 1.58496 2.16489
-3.19949 1.5838 2.15395
-3.20954 1.58469 2.14601
-3.22464 1.58651 2.1331
-3.22774 1.58432 2.12015
-3.23085 1.58112 2.10622
-3.24091 1.583 2.09827
-3.33504 1.57584 1.94806
-3.39167 1.57563 1.86448
-3.42718 1.57267 1.79778
-3.43532 1.57141 1.77986
-3.44737 1.5733 1.77192
-3.44748 1.57009 1.75797
-3.45655 1.57196 1.74901
-3.46363 1.57181 1.73806
-3.47475 1.57158 1.72215
-3.47884 1.5714 1.71018
-3.49189 1.57431 1.70323
-3.49609 1.56993 1.67732
-3.50926 1.5696 1.65443
-3.52237 1.5714 1.6405
-3.52557 1.566 1.6136
-3.53166 1.56584 1.60264
-3.54178 1.56661 1.58671
-3.54487 1.56542 1.57374
-3.55195 1.56528 1.5638
-3.56301 1.56815 1.55484
-3.56711 1.56698 1.54288
-3.58242 1.56437 1.50103
-3.58651 1.56319 1.48908
-3.59868 1.56388 1.46716
-3.60277 1.5627 1.4552
-3.60885 1.56254 1.44425
-3.61588 1.56449 1.44028
-3.63633 1.56062 1.38048
-3.64341 1.56147 1.37052
-3.65254 1.56223 1.35357
-3.68421 1.55693 1.26488
-3.6893 1.55676 1.25292
-3.70246 1.55844 1.23099
-3.71159 1.5592 1.21404
-3.71567 1.55904 1.20307
-3.72276 1.55987 1.19111
-3.72794 1.55751 1.16718
-3.72606 1.55429 1.15222
-3.73912 1.55818 1.14426
-3.73419 1.55505 1.13526
-3.74724 1.55894 1.1273
-3.74336 1.55471 1.11233
-3.76141 1.56062 1.10538
-3.7636 1.55724 1.07945
-3.76071 1.55403 1.06547
-3.78226 1.55096 0.992667
-3.78635 1.55079 0.980699
-3.79044 1.55061 0.96873
-3.81547 1.56056 0.963771
-3.79862 1.55026 0.944794
-3.80969 1.55314 0.935834
-3.81383 1.55186 0.916881
-3.81393 1.55067 0.903898
-3.82011 1.54932 0.879961
-3.83228 1.55099 0.857025
-3.83238 1.54979 0.844041
-3.83942 1.55172 0.839065
-3.83752 1.54953 0.826081
-3.84161 1.54936 0.814113
-3.8447 1.54918 0.802137
-3.8468 1.54799 0.789169
-3.85189 1.54882 0.777193
-3.86595 1.55369 0.768226
-3.85502 1.54755 0.759233
-3.87109 1.55343 0.750266
-3.8672 1.54922 0.736297
-3.88127 1.55408 0.72633
-3.86938 1.54785 0.711331
-3.88745 1.55373 0.702378
-3.87258 1.54547 0.685386
-3.8866 1.55143 0.682403
-3.88969 1.55126 0.670427
-3.89677 1.5521 0.659467
-3.89787 1.55191 0.646476
-3.89497 1.54871 0.6335
-3.90904 1.55358 0.623532
-3.9081 1.55247 0.616541
-3.92017 1.55633 0.606573
-3.91028 1.5511 0.591574
-3.9024 1.54588 0.57659
-3.93943 1.56083 0.571647
-3.90659 1.54451 0.551638
-3.91667 1.54735 0.540671
-3.9287 1.5523 0.536687
-3.9189 1.5459 0.509705
-3.94696 1.5568 0.501754
-3.9151 1.54151 0.483737
-3.93717 1.54939 0.474786
-3.93826 1.5492 0.461795
-3.92633 1.54307 0.453795
-3.93641 1.54592 0.442827
-3.95648 1.55378 0.43286
-3.9327 1.54034 0.403876
-3.95577 1.55022 0.394903
-3.94588 1.54399 0.379918
-3.94493 1.5439 0.373912
-3.963 1.55076 0.363945
-3.94712 1.54253 0.348945
-3.94422 1.53934 0.335969
-3.96729 1.54921 0.325995
-3.95739 1.54299 0.31201
-3.95749 1.5428 0.299012
-3.97052 1.54775 0.295037
-3.95963 1.54253 0.28103
-3.96572 1.54336 0.269062
-3.99079 1.55323 0.259103
-3.95992 1.53897 0.243079
-3.95602 1.53678 0.230081
-3.97409 1.54363 0.219114
-3.96216 1.5375 0.211114
-3.96525 1.53832 0.199123
-3.98932 1.54819 0.189157
-3.96644 1.53695 0.174149
-3.97053 1.53778 0.162166
-3.9896 1.54563 0.151192
-3.96772 1.53539 0.136176
-3.97576 1.53832 0.131193
-3.99684 1.54718 0.120219
-3.97995 1.53896 0.106212
-3.98304 1.53978 0.094221
-3.99112 1.54261 0.0822385
-3.97533 1.5342 0.0552403
-3.99836 1.54316 0.0512806
-3.97947 1.53494 0.0372581
-3.98057 1.53474 0.0242674
-3.99165 1.53857 0.0122925
-3.98375 1.53438 -0.000706628
-3.98085 1.53318 -0.0137126
-3.99989 1.54112 -0.0186874
-3.98818 1.53355 -0.0566688
-3.99745 1.53701 -0.0936552
-4.0006 1.53673 -0.11263
-3.9937 1.53353 -0.125636
-3.99579 1.53436 -0.137635
-3.98889 1.53116 -0.150641
-4.00997 1.54 -0.162615
-3.99307 1.53179 -0.175622
-3.99412 1.5317 -0.181614
-3.99821 1.53351 -0.194612
-4.0013 1.53534 -0.206617
-3.9985 1.53295 -0.232606
-3.99859 1.53277 -0.244605
-4.00069 1.53358 -0.257603
-4.00973 1.5375 -0.263593
1.3543 1.73969 3.82057
1.25651 1.74018 3.8493
-2.40997 1.63006 2.87942
-2.66367 1.6229 2.6554
-2.67472 1.62281 2.64849
-2.71204 1.62021 2.6068
-2.73321 1.61889 2.58398
-2.74129 1.61775 2.57405
-2.78265 1.61506 2.5264
-2.79079 1.6118 2.50851
-2.79985 1.61168 2.49957
-2.82492 1.61655 2.48969
-2.82704 1.61133 2.47478
-2.83617 1.60908 2.45788
-2.84226 1.60691 2.44596
-2.86125 1.61394 2.447
-2.8594 1.60666 2.42809
-2.86946 1.60754 2.42015
-2.88348 1.61049 2.41621
-2.88255 1.60736 2.40725
-2.8936 1.60927 2.4003
-2.90466 1.61017 2.39337
-2.90776 1.60696 2.37944
-2.91087 1.60376 2.36551
-2.93085 1.6108 2.36756
-2.92801 1.60351 2.34764
-2.93304 1.60445 2.34366
-2.94805 1.60842 2.34072
-2.93925 1.59704 2.31582
-2.95229 1.60098 2.31086
-2.97029 1.60597 2.30992
-2.96445 1.59766 2.28899
-2.97047 1.59862 2.28602
-2.98252 1.60054 2.28009
-2.9896 1.60038 2.26914
-2.9927 1.59719 2.25621
-3.00674 1.60013 2.25127
-3.0009 1.59181 2.23035
-3.00996 1.5927 2.2224
-3.02691 1.5998 2.22842
-3.02604 1.59455 2.21149
-3.0351 1.59544 2.20355
-3.05212 1.6004 2.2006
-3.04727 1.59311 2.18067
-3.05435 1.59296 2.17072
-3.07137 1.59793 2.16778
-3.06348 1.59072 2.15382
-3.08148 1.59672 2.15287
-3.08756 1.59556 2.14193
-3.08769 1.59132 2.12599
-3.09476 1.59018 2.11606
-3.11377 1.59718 2.1151
-3.10196 1.5858 2.09018
-3.11295 1.58982 2.0912
-3.12499 1.59274 2.08525
-3.12213 1.58647 2.06732
-3.13418 1.58838 2.06038
-3.14424 1.59028 2.05342
-3.14734 1.58808 2.03948
-3.15739 1.58898 2.03254
-3.16044 1.58789 2.02658
-3.15857 1.58364 2.00962
-3.16465 1.58248 1.99869
-3.18067 1.58745 1.99573
-3.18775 1.58729 1.98479
-3.19284 1.58613 1.97384
-3.1929 1.58301 1.96589
-3.19699 1.58184 1.95393
-3.20207 1.58068 1.94299
-3.21413 1.58259 1.93605
-3.21622 1.58039 1.9231
-3.22331 1.58024 1.91215
-3.23635 1.58316 1.9062
-3.2364 1.58205 1.89922
-3.24646 1.58294 1.89128
-3.24856 1.58075 1.87833
-3.25863 1.58163 1.86939
-3.26968 1.58453 1.86243
-3.27676 1.58439 1.85248
-3.27787 1.58117 1.83754
-3.27494 1.57703 1.82857
-3.28898 1.58097 1.82362
-3.29008 1.57776 1.80967
-3.30213 1.58067 1.80272
-3.3102 1.58154 1.79377
-3.31131 1.57832 1.77882
-3.31739 1.57817 1.76887
-3.3274 1.58117 1.7679
-3.3285 1.57896 1.75394
-3.33955 1.58086 1.74699
-3.34166 1.57866 1.73304
-3.34674 1.5775 1.72209
-3.35482 1.57836 1.71214
-3.36283 1.58033 1.71017
-3.37289 1.58322 1.7022
-3.375 1.58002 1.68826
-3.38406 1.5819 1.6803
-3.38915 1.58073 1.66836
-3.40319 1.58465 1.6624
-3.4033 1.58143 1.64745
-3.40236 1.57932 1.64047
-3.40147 1.5751 1.62553
-3.41651 1.58004 1.62057
-3.4206 1.57886 1.60861
-3.42668 1.57871 1.59766
-3.43476 1.57956 1.58771
-3.43585 1.57737 1.57475
-3.44188 1.57832 1.57078
-3.44597 1.57714 1.55882
-3.45205 1.577 1.54887
-3.44618 1.57174 1.5319
-3.46322 1.57668 1.52696
-3.46631 1.57549 1.514
-3.4714 1.57533 1.50303
-3.47443 1.57526 1.49806
-3.48351 1.57612 1.48811
-3.48461 1.57393 1.47515
-3.49267 1.5758 1.46618
-3.49577 1.57361 1.45324
-3.49388 1.5704 1.43927
-3.50495 1.57228 1.43032
-3.51695 1.57727 1.42934
-3.50908 1.57001 1.41238
-3.51816 1.57187 1.40242
-3.52523 1.57273 1.39246
-3.52235 1.5685 1.3775
-3.52942 1.56936 1.36754
-3.53949 1.57123 1.35859
-3.54053 1.57015 1.35261
-3.54362 1.56897 1.34065
-3.54872 1.5688 1.32869
-3.55579 1.56965 1.31873
-3.56087 1.56949 1.30777
-3.56895 1.57135 1.2978
-3.56805 1.56814 1.28384
-3.57507 1.57011 1.28086
-3.57817 1.56893 1.2689
-3.58026 1.56774 1.25593
-3.58136 1.56555 1.24297
-3.58445 1.56437 1.23101
-3.59751 1.56826 1.22305
-3.60259 1.5681 1.21209
-3.60165 1.567 1.2051
-3.61171 1.56887 1.19615
-3.61281 1.56668 1.18318
-3.62089 1.56854 1.17322
-3.61202 1.56228 1.15624
-3.62707 1.56619 1.14929
-3.62512 1.56508 1.14229
-3.6322 1.56593 1.13133
-3.63928 1.56678 1.12137
-3.64237 1.56561 1.10941
-3.64347 1.56442 1.09644
-3.64955 1.56526 1.08547
-3.65862 1.56712 1.07551
-3.65768 1.56501 1.06853
-3.66375 1.56587 1.05856
-3.67482 1.56974 1.04959
-3.67393 1.56653 1.03563
-3.67602 1.56536 1.02366
-3.68011 1.56518 1.01169
-3.6832 1.56401 0.999728
-3.68524 1.56392 0.993744
-3.68534 1.56273 0.980761
-3.68942 1.56257 0.969793
-3.69751 1.56341 0.958839
-3.70059 1.56325 0.947864
-3.70667 1.56409 0.936895
-3.71076 1.56392 0.924927
-3.7158 1.56585 0.919936
-3.72188 1.56669 0.908968
-3.72198 1.5645 0.895999
-3.73304 1.56737 0.887039
-3.72915 1.56416 0.873055
-3.72925 1.56197 0.860086
-3.73832 1.56483 0.850111
-3.73139 1.56069 0.841119
-3.73648 1.56153 0.830143
-3.74256 1.56137 0.81919
-3.74964 1.56321 0.808214
-3.74575 1.56 0.794231
-3.75781 1.56388 0.785263
-3.75986 1.56379 0.779279
-3.76993 1.56665 0.769311
-3.76304 1.56144 0.755334
-3.76414 1.56025 0.742359
-3.78129 1.56495 0.721415
-3.79151 1.56553 0.69248
-3.78861 1.56333 0.679488
-3.80078 1.565 0.656552
-3.79988 1.56381 0.643561
-3.79403 1.55851 0.623593
-3.8091 1.56338 0.614633
-3.81319 1.56421 0.60265
-3.81328 1.56303 0.590666
-3.81537 1.56285 0.578683
-3.81756 1.56049 0.553731
-3.8226 1.56242 0.54874
-3.81879 1.55703 0.522788
-3.81989 1.55684 0.509797
-3.83496 1.56171 0.500837
-3.82607 1.5565 0.486845
-3.82916 1.55631 0.47387
-3.8303 1.55604 0.45588
-3.84237 1.55991 0.445912
-3.84646 1.56073 0.433929
-3.84356 1.55754 0.420953
-3.83966 1.55534 0.407954
-3.8438 1.55508 0.389986
-3.84589 1.5549 0.378003
-3.85797 1.55975 0.367021
-3.84608 1.55253 0.353036
-3.85017 1.55336 0.341053
-3.86334 1.55703 0.318095
-3.85639 1.55392 0.311088
-3.86048 1.55374 0.299119
-3.85857 1.55256 0.287121
-3.86566 1.55439 0.275146
-3.87674 1.55824 0.264171
-3.86085 1.55002 0.250171
-3.86594 1.55184 0.23818
-3.86899 1.55276 0.232189
-3.86609 1.55056 0.219198
-3.88025 1.55525 0.197232
-3.86736 1.54803 0.18324
-3.87145 1.54885 0.171257
-3.87349 1.54977 0.165258
-3.87858 1.55159 0.153267
-3.87068 1.5474 0.140268
-3.88876 1.55424 0.129302
-3.88086 1.55005 0.116302
-3.88794 1.55189 0.105327
-3.88904 1.5517 0.0923363
-3.88609 1.55061 0.0863293
-3.88918 1.55043 0.0743535
-3.89426 1.55226 0.0623632
-3.89136 1.55006 0.049372
-3.88146 1.54586 0.0363578
-3.89154 1.54971 0.0253754
-3.88864 1.54751 0.0123842
-3.89268 1.54944 0.00738536
-3.89378 1.54925 -0.00560531
-3.88987 1.54607 -0.0175894
-3.89097 1.54588 -0.03058
-3.89905 1.54872 -0.0415627
-3.90514 1.55155 -0.0535604
-3.89824 1.54835 -0.0665668
-3.89129 1.54426 -0.0725594
-3.89537 1.54608 -0.0845573
-3.89847 1.54689 -0.0975477
-3.90256 1.54772 -0.109531
-3.90165 1.54754 -0.121537
-3.89974 1.54636 -0.133535
-3.90383 1.54718 -0.145518
-3.89689 1.54408 -0.152526
-3.90897 1.54891 -0.164508
-3.90507 1.54673 -0.176507
-3.90216 1.54555 -0.188513
-3.90625 1.54636 -0.201496
-3.90834 1.54718 -0.213494
-3.90644 1.546 -0.225492
-3.90648 1.54591 -0.231491
-3.91057 1.54774 -0.243489
-3.91067 1.54755 -0.256487
-3.90776 1.54537 -0.268479
2.45392 1.7733 3.2317
2.44399 1.77444 3.24076
2.43304 1.77455 3.24784
2.41099 1.76646 3.24113
2.40409 1.76966 3.25414
2.3972 1.77287 3.26814
2.38524 1.77197 3.27425
2.37926 1.77202 3.27729
2.34929 1.7671 3.28159
2.34847 1.77544 3.30448
2.01864 1.76298 3.46217
2.00264 1.75999 3.46233
2.00578 1.76827 3.48119
1.98572 1.76116 3.47344
1.97273 1.7592 3.47557
1.96485 1.76343 3.49057
1.9468 1.75836 3.48478
1.93892 1.76258 3.49978
1.93192 1.7616 3.50085
1.91895 1.75966 3.50397
1.90496 1.7587 3.50609
1.89808 1.76294 3.52208
1.88613 1.76304 3.52817
1.8691 1.75899 3.52436
1.85815 1.7591 3.53144
1.85523 1.76325 3.5414
1.84632 1.76643 3.55343
1.82623 1.75829 3.5427
1.8153 1.75943 3.55176
1.79825 1.75435 3.54597
1.79038 1.75959 3.56195
1.78147 1.76278 3.57397
1.77142 1.7587 3.56811
1.76456 1.76395 3.58508
1.7526 1.76405 3.59117
1.73964 1.76413 3.59627
1.72665 1.76317 3.59838
1.71368 1.76224 3.60249
1.70568 1.76023 3.60158
1.69371 1.76032 3.60667
1.6828 1.76349 3.61771
1.66778 1.76047 3.61587
1.65685 1.76161 3.62494
1.64082 1.75756 3.62112
1.63193 1.76178 3.63512
1.60992 1.75778 3.63435
1.59795 1.75786 3.63944
1.58295 1.75587 3.63958
1.5481 1.75818 3.65881
1.54315 1.76027 3.66482
1.51721 1.75941 3.67303
1.50421 1.75743 3.67415
1.4793 1.75861 3.68533
-2.86131 1.61285 2.30599
-2.87757 1.60736 2.27219
-2.88558 1.60935 2.27122
-2.89873 1.60805 2.25034
-2.91276 1.611 2.2464
-2.92691 1.60971 2.22652
-2.94621 1.60415 2.18775
-2.96124 1.6081 2.1838
-2.95639 1.6008 2.16387
-2.9724 1.60578 2.16192
-2.97644 1.60571 2.15695
-2.9855 1.6066 2.149
-2.99158 1.60544 2.13806
-3.00275 1.60212 2.11619
-3.01083 1.60198 2.10625
-3.02094 1.60077 2.09135
-3.03497 1.60572 2.08738
-3.0331 1.59947 2.07045
-3.03918 1.59831 2.05952
-3.04626 1.59816 2.04957
-3.05631 1.60007 2.04262
-3.05642 1.59485 2.02769
-3.06444 1.59782 2.02571
-3.07648 1.59974 2.01977
-3.08057 1.59857 2.00782
-3.08964 1.59944 1.99887
-3.09075 1.59523 1.98494
-3.09781 1.59511 1.97599
-3.10091 1.59292 1.96305
-3.10893 1.59489 1.96108
-3.12495 1.59984 1.95712
-3.12009 1.59358 1.93918
-3.12418 1.5914 1.92724
-3.13523 1.5933 1.92029
-3.14628 1.59622 1.91433
-3.15032 1.59615 1.90936
-3.15142 1.59295 1.89542
-3.15651 1.59179 1.88447
-3.16756 1.59369 1.87753
-3.1627 1.58742 1.85958
-3.17076 1.58829 1.85063
-3.17286 1.5851 1.83769
-3.18287 1.5881 1.83672
-3.18298 1.58489 1.82276
-3.19603 1.58779 1.81582
-3.20111 1.58764 1.80486
-3.21415 1.59056 1.79891
-3.23117 1.59652 1.79595
-3.23426 1.59435 1.78401
-3.23233 1.59121 1.77504
-3.23343 1.58802 1.76209
-3.22757 1.58175 1.74414
-3.25156 1.59077 1.74418
-3.25466 1.58859 1.73224
-3.26272 1.58947 1.72328
-3.26084 1.58524 1.70833
-3.27085 1.58822 1.70636
-3.27991 1.59011 1.6984
-3.28201 1.58692 1.68546
-3.29207 1.58981 1.67749
-3.29218 1.5856 1.66355
-3.30224 1.58747 1.6546
-3.31229 1.58938 1.64765
-3.31733 1.59031 1.64267
-3.32141 1.58915 1.63172
-3.31953 1.58492 1.61676
-3.3276 1.58578 1.60681
-3.33069 1.58461 1.59485
-3.33279 1.58243 1.5829
-3.34385 1.58432 1.57495
-3.34987 1.58628 1.57197
-3.35097 1.58407 1.55801
-3.35804 1.58394 1.54906
-3.3691 1.58683 1.5411
-3.3712 1.58464 1.52815
-3.37429 1.58347 1.51618
-3.38136 1.58332 1.50624
-3.3844 1.58325 1.50126
-3.39048 1.58309 1.49031
-3.39258 1.58192 1.47834
-3.40463 1.58481 1.47039
-3.41579 1.58451 1.44947
-3.41894 1.58223 1.43053
-3.42899 1.58411 1.42257
-3.43309 1.58294 1.41062
-3.44524 1.58364 1.3897
-3.44435 1.58043 1.37574
-3.4414 1.57732 1.36876
-3.44848 1.57818 1.3588
-3.46264 1.57988 1.33788
-3.46772 1.57972 1.32692
-3.46283 1.5745 1.31196
-3.47988 1.58042 1.306
-3.49407 1.58004 1.2801
-3.50324 1.57973 1.25818
-3.49836 1.57449 1.24221
-3.51141 1.57939 1.23524
-3.51744 1.58034 1.23127
-3.51665 1.57494 1.20434
-3.53279 1.57867 1.1854
-3.54799 1.57928 1.15851
-3.55018 1.57591 1.13357
-3.55625 1.57677 1.1236
-3.56233 1.57761 1.11263
-3.56951 1.57627 1.0897
-3.5868 1.57671 1.05082
-3.58092 1.57148 1.03585
-3.59697 1.57639 1.0289
-3.59402 1.57428 1.02191
-3.62566 1.57405 0.937138
-3.63901 1.57238 0.891257
-3.64114 1.57011 0.873304
-3.67188 1.56868 0.775543
-3.71012 1.56428 0.611874
-3.72542 1.5657 0.571962
-3.73885 1.56485 0.514068
-3.74707 1.56543 0.485118
-3.74417 1.56323 0.472127
-3.76806 1.5615 0.354316
-3.76715 1.56033 0.342325
-3.77632 1.56199 0.319366
-3.79009 1.55949 0.217493
-3.79118 1.55931 0.205502
-3.8038 1.55909 0.122589
-3.7979 1.5559 0.10959
-3.79899 1.55574 0.0985989
-3.79809 1.55454 0.085608
-3.80335 1.55503 0.0506356
-3.80739 1.55694 0.044637
-3.81157 1.55659 0.0206703
-3.81175 1.55623 -0.00332634
-3.80885 1.55405 -0.0153176
-3.81689 1.55697 -0.021301
-3.81798 1.55679 -0.0332919
-3.81907 1.55662 -0.0452827
-3.82374 1.55233 -0.267215
2.18129 1.77421 3.28175
2.16731 1.77125 3.2839
2.15141 1.77345 3.29699
2.13436 1.76739 3.29221
1.94633 1.76645 3.28864
1.93335 1.76551 3.29175
1.9294 1.7666 3.29776
1.90649 1.76679 3.30993
1.77591 1.7637 3.36597
5.01829 1.69383 5.6709
5.00774 1.68981 5.33199
4.99187 1.69109 5.35009
4.95913 1.69262 5.38432
4.92048 1.69533 5.43058
5.13074 1.66094 4.6704
5.10604 1.66353 4.70955
5.07339 1.66725 4.75675
5.0565 1.66647 4.77089
5.0187 1.66488 4.7972
5.01491 1.6703 4.82515
5.00092 1.66834 4.82729
4.98504 1.66859 4.84341
4.97522 1.67094 4.86645
4.96236 1.67221 4.88453
4.94043 1.67038 4.89472
4.92051 1.66956 4.90589
4.90665 1.67083 4.92397
4.89771 1.67096 4.93204
4.88788 1.67329 4.95408
4.86796 1.67247 4.96525
4.8541 1.67374 4.98334
4.84629 1.67712 5.00835
4.82738 1.67631 5.0205
4.81353 1.67762 5.04059
4.80962 1.6798 5.05259
4.79274 1.68003 5.06772
4.78391 1.68338 5.09074
4.764 1.68257 5.1029
4.74813 1.68283 5.12002
4.74638 1.68931 5.15194
4.71536 1.68432 5.15125
4.71651 1.6886 5.17018
4.7087 1.69197 5.19519
4.69182 1.69322 5.2113
4.64493 1.68846 5.22573
5.08068 1.64596 4.26494
5.06579 1.6462 4.28005
5.05998 1.65056 4.30403
5.04307 1.64876 4.31719
5.0302 1.65002 4.33427
5.02932 1.65324 4.34923
5.00939 1.65141 4.35941
5.00156 1.65374 4.38144
4.9897 1.65503 4.40051
4.97381 1.65525 4.41463
4.94885 1.65135 4.42088
4.938 1.65364 4.43993
4.92703 1.65171 4.44404
4.91617 1.654 4.46309
4.89928 1.65322 4.47723
4.88843 1.65552 4.49728
4.85866 1.65599 4.5275
4.76166 1.66501 4.66012
4.76076 1.66722 4.67409
4.57059 1.68393 4.91631
4.50415 1.68806 4.98976
5.02317 1.64606 3.93133
5.02528 1.64928 3.94627
5.00938 1.64848 3.9594
5.00053 1.65079 3.97943
4.98564 1.65 3.99356
4.9778 1.65232 4.01459
4.97096 1.65565 4.03659
4.946 1.65174 4.04184
4.94913 1.65599 4.05876
4.93725 1.65624 4.07484
4.92137 1.65647 4.08996
4.91352 1.65877 4.10999
4.89359 1.65694 4.12017
4.8787 1.65615 4.13429
4.87489 1.66053 4.15926
4.87197 1.66169 4.17027
4.85507 1.6609 4.18341
4.84521 1.66318 4.20245
4.83234 1.66343 4.21855
4.8235 1.66575 4.23958
4.80256 1.66388 4.24777
4.79763 1.66503 4.25779
4.78677 1.66631 4.27586
4.75979 1.66137 4.27913
4.76203 1.66783 4.31002
4.75721 1.67219 4.334
4.73829 1.67136 4.34516
4.71937 1.66953 4.35533
4.71646 1.67171 4.36732
4.70963 1.67505 4.39032
4.69878 1.67634 4.40939
4.67683 1.67446 4.41658
4.67504 1.67886 4.44353
4.66318 1.68115 4.46259
4.63922 1.67724 4.46783
4.63934 1.68048 4.48379
4.63049 1.68378 4.50381
4.60854 1.6809 4.51101
4.59265 1.68112 4.52513
4.58684 1.68549 4.55012
4.56892 1.68467 4.56126
4.56702 1.68686 4.57425
4.5491 1.68604 4.5854
4.54935 1.69251 4.6173
4.52438 1.68859 4.62155
4.51554 1.69191 4.64257
4.49762 1.69108 4.65372
4.4908 1.69444 4.67772
4.48588 1.6956 4.68775
4.46696 1.69477 4.6989
4.4551 1.69705 4.71696
4.4382 1.69625 4.7301
4.42836 1.69957 4.75113
4.41145 1.69976 4.76326
4.40665 1.70416 4.79023
4.39164 1.70115 4.78839
4.3818 1.70446 4.80942
4.37802 1.70989 4.83837
4.35809 1.70804 4.84755
4.34825 1.71136 4.86857
4.3162 1.7043 4.86292
5.02002 1.6249 3.51561
5.00714 1.62515 3.5317
5.00029 1.62644 3.55074
4.98942 1.62769 3.5678
4.97452 1.6269 3.58093
4.97571 1.63228 3.60684
4.96284 1.63253 3.62294
4.95287 1.63059 3.62704
4.94803 1.63392 3.64903
4.93111 1.6321 3.66019
4.9122 1.63028 3.67136
4.75112 1.64615 3.92637
4.69968 1.65029 4.00071
4.5612 1.66435 4.20157
4.45523 1.67244 4.33827
4.43844 1.67485 4.36537
4.43059 1.67815 4.38538
4.41469 1.67835 4.3985
4.40281 1.6796 4.41457
4.39699 1.68296 4.43857
4.38702 1.68203 4.44266
4.37314 1.68326 4.45775
4.36328 1.68555 4.47679
4.35444 1.68886 4.49781
4.33955 1.68908 4.51192
4.32465 1.68929 4.52503
4.31681 1.69262 4.54704
4.30482 1.69064 4.54816
4.29699 1.69397 4.57018
4.28513 1.69625 4.58823
4.26216 1.69234 4.59347
4.25433 1.69667 4.61546
4.24044 1.69689 4.62957
4.23249 1.697 4.63663
4.22264 1.7003 4.65665
4.21078 1.70257 4.67471
4.96483 1.61962 3.22406
4.96601 1.62397 3.24799
4.9501 1.62216 3.26014
4.95824 1.62842 3.27799
4.95138 1.62971 3.29702
4.93849 1.62994 3.31212
4.93062 1.6312 3.32916
4.91572 1.6304 3.34229
4.90585 1.63066 3.35936
4.8989 1.63075 3.36541
4.88702 1.631 3.3815
4.88016 1.63229 3.40053
4.87129 1.63354 3.41759
4.86443 1.63583 3.43661
4.85255 1.63606 3.45169
4.83564 1.63425 3.46385
4.82667 1.63333 3.46893
4.81679 1.63458 3.48499
4.80894 1.63686 3.50402
4.80611 1.64019 3.52599
4.77812 1.63424 3.52829
4.78033 1.63964 3.5552
4.75636 1.63573 3.56044
4.75243 1.63587 3.56947
4.67435 1.64373 3.69196
4.42612 1.66831 4.05851
4.36481 1.67569 4.14888
4.29645 1.681 4.23433
4.23314 1.68938 4.32469
4.19829 1.6867 4.345
4.19739 1.6899 4.35896
4.17946 1.68905 4.36811
4.16859 1.69031 4.38517
4.16277 1.69466 4.40816
4.14786 1.69486 4.42127
4.12109 1.69732 4.45144
4.11112 1.69639 4.45553
4.09544 1.70302 4.49755
4.06261 1.70237 4.51981
4.04468 1.70153 4.52996
4.04076 1.70268 4.53997
4.89588 1.6238 3.0985
4.88701 1.62406 3.11557
4.89112 1.62826 3.12947
4.87721 1.62647 3.14261
4.87337 1.62978 3.16359
4.85645 1.62794 3.17375
4.8516 1.63024 3.19375
4.84374 1.63151 3.21179
4.83888 1.6348 3.23079
4.82891 1.63286 3.23489
4.82206 1.63515 3.25391
4.81721 1.63745 3.27392
4.8033 1.63664 3.28603
4.79946 1.63995 3.30702
4.79461 1.64225 3.32702
4.77659 1.63723 3.32523
4.78181 1.64464 3.35309
4.75483 1.63871 3.35638
4.7359 1.63586 3.36556
4.71797 1.63402 3.37573
4.71514 1.63735 3.3977
4.70224 1.63755 3.4108
4.69227 1.63561 3.4149
4.69547 1.64201 3.44179
4.69968 1.64841 3.46867
4.68075 1.64555 3.47785
4.67288 1.64783 3.49588
4.65496 1.64499 3.50606
4.63904 1.64416 3.51719
4.6053 1.64369 3.55146
4.41939 1.66091 3.82864
4.32742 1.67099 3.9652
4.27796 1.67708 4.0365
4.2812 1.68453 4.06737
4.26124 1.68164 4.07356
4.2423 1.67977 4.08173
4.2405 1.68516 4.10767
4.22145 1.68008 4.10189
4.21562 1.68441 4.12387
4.20575 1.68567 4.14093
4.1858 1.68379 4.14811
4.17795 1.68608 4.16713
4.17515 1.69146 4.19308
4.16517 1.69051 4.19617
4.14724 1.68966 4.20532
4.14847 1.6961 4.23522
4.12952 1.69422 4.24239
4.11865 1.69648 4.25944
4.10979 1.69877 4.27848
4.08984 1.69689 4.28566
4.08794 1.69907 4.29764
4.08009 1.70237 4.31765
4.05611 1.69843 4.32089
4.04322 1.69965 4.33497
4.02628 1.69779 4.34413
4.00657 1.70335 4.3812
4.01273 1.70967 4.40306
4.00691 1.71402 4.42605
3.98999 1.71318 4.43619
3.98113 1.71647 4.45521
3.95008 1.7084 4.44956
3.92508 1.70442 4.44981
4.76479 1.63472 2.95231
4.75599 1.63713 2.97934
4.74812 1.63838 2.99638
4.69073 1.63962 3.07781
4.69292 1.64498 3.10172
4.63545 1.64507 3.17316
4.63453 1.64722 3.18313
4.60973 1.64664 3.21033
4.6089 1.65096 3.23228
4.59902 1.65121 3.24835
4.58914 1.65245 3.26441
4.5873 1.65576 3.28538
4.55235 1.64889 3.29274
4.5475 1.65218 3.31173
4.53863 1.65344 3.32878
4.53277 1.65572 3.3478
4.51684 1.65388 3.35795
4.51894 1.65707 3.37089
4.498 1.65419 3.37809
4.50321 1.6606 3.40596
4.49535 1.66287 3.42398
4.46532 1.65485 3.42133
4.45343 1.65507 3.43542
4.45563 1.66147 3.46231
4.44465 1.6595 3.46442
4.42671 1.65765 3.47359
4.42791 1.66302 3.4985
4.40594 1.65911 3.50372
4.39203 1.6583 3.51584
4.39021 1.66264 3.5388
4.37126 1.65976 3.54598
4.36733 1.66189 3.55498
4.35947 1.66316 3.57302
4.35361 1.66645 3.59202
4.33366 1.66357 3.59922
4.33586 1.66995 3.62511
4.31188 1.66501 3.62836
4.32407 1.67336 3.65215
4.30714 1.67152 3.66231
4.29121 1.66966 3.67146
4.28133 1.67091 3.68751
4.27448 1.67419 3.70652
4.25452 1.6713 3.71271
4.24766 1.67358 3.73173
4.24072 1.67369 3.73879
4.23788 1.67802 3.76075
4.22398 1.67821 3.77285
4.22216 1.68256 3.7968
4.2022 1.67967 3.803
4.18829 1.67986 3.8151
4.18941 1.68308 3.83005
4.17348 1.68224 3.84018
4.17066 1.68658 3.86314
4.15574 1.68675 3.87425
4.14687 1.68801 3.8913
4.12994 1.68716 3.90044
4.12512 1.6915 3.92342
4.12018 1.69162 3.93146
4.11332 1.69491 3.95046
4.10144 1.69614 3.96553
4.09357 1.69841 3.98356
4.07665 1.69757 3.9937
4.07685 1.70397 4.02061
4.05689 1.70106 4.02581
4.04692 1.70013 4.0299
4.04108 1.70344 4.05089
4.02919 1.70466 4.06497
4.01629 1.70587 4.07905
4.00844 1.70916 4.09806
3.98848 1.70626 4.10425
3.9776 1.70749 4.11932
3.91727 1.71684 4.20765
3.91334 1.71798 4.21666
3.8964 1.71712 4.2258
4.66756 1.63738 2.78998
4.60444 1.64414 2.90637
4.58475 1.64675 2.94648
4.55105 1.64638 2.98775
4.53715 1.64557 2.99987
4.54025 1.64876 3.0128
4.52331 1.6459 3.02197
4.50839 1.64508 3.0331
4.50052 1.64633 3.05014
4.49364 1.64757 3.06617
4.4747 1.64471 3.07436
4.47688 1.65005 3.09727
4.46188 1.64606 3.09744
4.45601 1.64833 3.11545
4.44411 1.64753 3.12856
4.43925 1.6508 3.14655
4.42836 1.65101 3.16063
4.4235 1.6533 3.17963
4.40757 1.65146 3.18978
4.40364 1.65258 3.1978
4.40481 1.65792 3.22071
4.38889 1.65608 3.23086
4.38403 1.65836 3.24987
4.37011 1.65754 3.26098
4.35218 1.65568 3.27015
4.35629 1.65889 3.28407
4.34439 1.6591 3.29816
4.32342 1.65518 3.30238
4.31857 1.65848 3.32237
4.31372 1.66176 3.34136
4.30182 1.66196 3.35445
4.28287 1.65908 3.36163
4.29303 1.66538 3.38247
4.27609 1.66351 3.39062
4.2652 1.66474 3.40569
4.25934 1.66702 3.4237
4.24542 1.66619 3.43482
4.23453 1.6664 3.4489
4.23764 1.67061 3.46282
4.22876 1.67185 3.47887
4.20981 1.66897 3.48605
4.20295 1.67224 3.50406
4.19709 1.67451 3.52207
4.17814 1.67163 3.52926
4.16524 1.67183 3.54236
4.16431 1.67398 3.55233
4.1645 1.67935 3.57725
4.13951 1.67438 3.57852
4.12862 1.67461 3.5936
4.13183 1.68201 3.62047
4.11893 1.68221 3.63356
4.10098 1.68033 3.64073
4.09805 1.68146 3.64973
4.09119 1.68375 3.66875
4.07828 1.68394 3.68085
4.06336 1.6831 3.69098
4.05751 1.6864 3.71097
4.04159 1.68556 3.72111
4.0317 1.68678 3.73617
4.03079 1.68996 3.74813
4.02091 1.69119 3.76319
4.01204 1.69345 3.78022
4.00517 1.69571 3.79724
3.98823 1.69385 3.8064
3.96928 1.69197 3.81357
3.98148 1.70033 3.83836
3.96051 1.69741 3.84256
3.94861 1.69762 3.85665
3.94478 1.70295 3.8786
3.9228 1.69801 3.88184
3.91493 1.70127 3.89885
3.90909 1.70458 3.91985
3.91222 1.70982 3.93575
3.87854 1.71348 3.97896
4.5079 1.64117 2.70211
4.49398 1.63935 2.71324
4.46599 1.63238 2.71456
4.45508 1.63158 2.72765
4.45323 1.63487 2.74662
4.43831 1.63304 2.75776
4.43034 1.63211 2.76184
4.42246 1.63333 2.77688
4.41457 1.63356 2.79194
4.40081 1.63704 2.824
3.8213 1.69112 3.68268
3.82249 1.69751 3.70858
3.80656 1.69665 3.71771
3.7997 1.69892 3.73573
3.80081 1.70313 3.74967
3.78285 1.70023 3.75585
3.77297 1.70246 3.77089
3.75703 1.70061 3.78004
3.74412 1.70078 3.79113
3.74634 1.7092 3.82
3.74149 1.7135 3.83997
3.72848 1.7105 3.83911
3.71557 1.71067 3.85021
4.57332 1.61911 2.22788
4.57346 1.62239 2.24683
4.55151 1.61751 2.25407
4.55661 1.62068 2.26599
4.55675 1.62396 2.28494
4.54283 1.62214 2.29607
4.55102 1.62949 2.31991
4.52303 1.62154 2.32224
4.53121 1.62889 2.34607
4.51629 1.62605 2.35622
4.51435 1.62717 2.36422
4.50245 1.62537 2.37734
4.50259 1.62965 2.39628
4.47762 1.62273 2.40057
4.48983 1.63212 2.42734
4.46384 1.62418 2.43066
4.46801 1.6305 2.45254
4.46206 1.6296 2.45859
4.44713 1.62675 2.46875
4.44427 1.63002 2.48673
4.43235 1.62919 2.49783
4.43049 1.63146 2.51581
4.41758 1.63065 2.52792
4.41464 1.63177 2.53593
4.39771 1.62792 2.54512
4.39886 1.63221 2.56505
4.38996 1.63241 2.57811
4.38509 1.63466 2.59512
4.38122 1.63692 2.61212
4.36228 1.63305 2.62032
4.32074 1.63399 2.68163
4.22993 1.64339 2.84019
4.21516 1.64585 2.87027
4.19443 1.64839 2.90639
4.02942 1.66439 3.16944
4.01851 1.66458 3.18152
3.99972 1.66701 3.20963
3.99084 1.66823 3.22468
3.98698 1.6715 3.24266
3.97397 1.66851 3.2428
3.9671 1.67077 3.25982
3.95519 1.66994 3.27093
3.93942 1.67441 3.30199
3.91065 1.67488 3.3322
3.90579 1.67816 3.35119
3.89388 1.67733 3.36229
3.88298 1.67853 3.37536
3.87207 1.67872 3.38744
3.8652 1.68099 3.40546
3.86226 1.68311 3.41345
3.84147 1.68452 3.44059
3.82754 1.68367 3.44971
3.80775 1.6861 3.47783
3.79786 1.68733 3.49289
3.78403 1.68966 3.51496
3.78422 1.69602 3.53887
3.77532 1.69723 3.55292
3.76543 1.69844 3.56698
3.75957 1.70173 3.58597
3.74857 1.69974 3.58609
3.73364 1.69888 3.59521
3.72779 1.70217 3.61421
3.71991 1.70441 3.63024
3.71204 1.70667 3.64727
4.29349 1.64553 2.51464
4.29054 1.64564 2.52166
4.2746 1.64277 2.52982
4.25464 1.63887 2.53603
4.23871 1.63602 2.54519
4.23585 1.63928 2.56317
4.22594 1.63847 2.57526
4.22408 1.64175 2.59423
4.2141 1.63979 2.59633
4.20419 1.63999 2.6094
4.20032 1.64223 2.6254
4.19544 1.64348 2.64242
4.18454 1.64367 2.6545
4.17362 1.64285 2.6666
4.17068 1.64396 2.67361
4.1638 1.6452 2.68964
4.15707 1.65072 2.72462
4.14012 1.64784 2.73179
4.12921 1.64703 2.74388
4.12534 1.65028 2.76087
4.11938 1.64937 2.76693
4.11149 1.65059 2.78097
4.09857 1.64974 2.79108
4.09385 1.6563 2.82802
4.07992 1.65445 2.83816
4.07103 1.65567 2.85221
4.06507 1.65475 2.85727
4.05214 1.6539 2.86738
4.04425 1.65513 2.88242
4.04542 1.66044 2.90334
4.02947 1.65757 2.9115
4.02661 1.66184 2.92946
4.02267 1.66196 2.93749
4.0178 1.66522 2.95448
4.00085 1.66233 2.96165
4.00504 1.66868 2.98553
3.98709 1.6658 2.99271
3.98222 1.66906 3.0097
3.97634 1.6713 3.02571
3.96233 1.66729 3.02488
3.96049 1.67159 3.04483
3.94555 1.66973 3.05397
3.9437 1.67402 3.07293
3.94185 1.67831 3.09288
3.93094 1.6785 3.10496
3.92306 1.67973 3.12
3.9181 1.67982 3.12604
3.9072 1.68002 3.13912
3.90233 1.68327 3.15611
3.88639 1.68141 3.16426
3.88454 1.6857 3.18422
3.86457 1.68178 3.18842
3.86869 1.686 3.20333
3.85677 1.68617 3.21442
3.84385 1.68534 3.22553
3.83596 1.68655 3.23958
3.82505 1.68674 3.25166
3.81717 1.68898 3.26769
3.81633 1.69429 3.28862
3.80635 1.69233 3.29072
3.79645 1.69354 3.30478
3.79058 1.6958 3.32179
3.7696 1.69184 3.32401
3.76071 1.69307 3.33906
3.74906 1.70176 3.38503
3.69462 1.7079 3.45936
4.40098 1.62858 2.05001
4.38906 1.62675 2.06113
4.36565 1.63391 2.13821
4.35581 1.63523 2.15927
4.34791 1.63544 2.17333
4.28868 1.63698 2.27477
4.26433 1.64627 2.36082
4.22779 1.6482 2.42208
4.21114 1.65289 2.46814
4.20224 1.65309 2.48121
4.1746 1.65582 2.52938
4.16369 1.65501 2.54148
4.15781 1.65624 2.55651
4.14488 1.65439 2.56663
4.14 1.65663 2.58264
4.13404 1.65671 2.58768
4.12313 1.6559 2.59978
4.12529 1.66121 2.62069
4.1003 1.65426 2.62298
4.09844 1.65752 2.64095
4.09557 1.66078 2.65792
4.08962 1.65987 2.66398
4.08273 1.6621 2.679
4.08288 1.66638 2.69794
4.06693 1.66351 2.7061
4.06206 1.66575 2.72211
4.05718 1.66799 2.73812
4.04928 1.6692 2.75216
4.04735 1.67034 2.76116
4.02653 1.66971 2.78533
4.02166 1.67195 2.80133
4.00471 1.66906 2.8085
3.99883 1.6713 2.82452
3.99496 1.67456 2.8415
3.98699 1.67262 2.84559
3.96718 1.67301 2.87074
3.9613 1.67525 2.88675
3.95743 1.6785 2.90373
3.94559 1.67982 2.92481
3.9288 1.68225 2.9529
3.90698 1.68261 2.97606
3.84175 1.69016 3.07846
4.02053 1.65579 2.52054
3.99453 1.64782 2.52186
3.99468 1.6521 2.54079
3.9541 1.65296 2.59709
3.94519 1.65315 2.60916
3.94032 1.65539 2.62517
3.89788 1.66151 2.69941
3.87821 1.66618 2.74349
3.83849 1.66376 2.78083
3.83678 1.67232 2.81872
3.82285 1.67046 2.82786
3.81286 1.6685 2.82996
3.80899 1.67175 2.84694
3.79505 1.66988 2.85508
3.77144 1.67565 2.90618
3.76355 1.67788 2.92121
3.75062 1.67602 2.93033
3.74172 1.67722 2.94338
3.7318 1.67739 2.95446
3.72996 1.68169 2.97441
3.714 1.67879 2.98057
3.72717 1.68811 3.00234
3.70115 1.6811 3.00064
3.6993 1.68538 3.01959
3.70148 1.69172 3.04249
3.69057 1.6919 3.05457
3.67058 1.68695 3.05679
3.66571 1.6902 3.07378
3.6668 1.69338 3.08573
3.65186 1.69151 3.09387
3.648 1.69578 3.11184
3.64011 1.69699 3.12588
3.62029 1.69836 3.15001
3.6244 1.70356 3.16391
3.61147 1.70272 3.17402
3.59854 1.70186 3.18313
4.10387 1.63156 2.03621
4.09998 1.63377 2.0502
4.09 1.63082 2.05332
4.07908 1.62999 2.06442
4.08424 1.63529 2.08431
4.07733 1.63548 2.09736
4.08249 1.64178 2.11723
4.06655 1.63791 2.12541
4.05958 1.63699 2.13047
4.04867 1.63616 2.14157
4.0488 1.63941 2.15852
4.03687 1.63756 2.16864
4.03399 1.63979 2.18363
4.0291 1.64201 2.19864
4.0212 1.64221 2.2117
4.02227 1.64434 2.22066
4.01537 1.64454 2.23371
3.99942 1.64167 2.24187
3.99453 1.64288 2.25589
3.98663 1.64308 2.26895
3.97872 1.64327 2.28101
3.97176 1.64234 2.28608
3.97692 1.64865 2.30695
3.96097 1.64577 2.31411
3.95307 1.64596 2.32717
3.94516 1.64615 2.33923
3.94731 1.65144 2.35914
3.92935 1.64654 2.36534
3.94049 1.65479 2.38214
3.92353 1.64989 2.38834
3.92065 1.65313 2.40432
3.91375 1.65433 2.41735
3.90485 1.65452 2.43042
3.89795 1.65572 2.44346
3.9001 1.66102 2.46336
3.8881 1.65702 2.46351
3.88121 1.65824 2.47755
3.87833 1.66148 2.49353
3.8664 1.65963 2.50364
3.85448 1.65879 2.51375
3.85663 1.66408 2.53366
3.84269 1.66221 2.54179
3.83371 1.65926 2.5449
3.83587 1.66456 2.56481
3.82193 1.66269 2.57294
3.81302 1.66287 2.58501
3.81316 1.66715 2.60395
3.79118 1.66221 2.60719
3.79628 1.6664 2.62009
3.7924 1.66964 2.63607
3.78048 1.6678 2.64619
3.77459 1.67001 2.6602
3.77372 1.67428 2.67815
3.75677 1.67138 2.68432
3.74987 1.67259 2.69836
3.75599 1.67781 2.71324
3.73903 1.67389 2.71842
3.7271 1.67305 2.72853
3.72624 1.67732 2.74647
3.7123 1.67545 2.75461
3.71245 1.68074 2.77453
3.70153 1.67991 2.78562
3.69054 1.67794 2.78674
3.68566 1.68016 2.80174
3.68581 1.68546 2.82167
3.67388 1.68461 2.83177
3.65693 1.68071 2.83796
3.66311 1.68906 2.86179
3.63903 1.67994 2.8521
3.63818 1.68422 2.87105
3.63749 1.69481 2.9109
3.62455 1.69395 2.92002
3.61968 1.69719 2.93601
3.60976 1.69736 2.94708
3.60179 1.69543 2.95117
3.59892 1.69968 2.96813
3.58699 1.69884 2.97823
3.57507 1.69799 2.98834
3.5722 1.70225 3.0053
3.55625 1.69936 3.01246
3.86802 1.66691 2.3195
3.84403 1.65994 2.32078
3.83009 1.65707 2.32893
3.83223 1.66235 2.34784
3.83431 1.66549 2.35778
3.81334 1.65957 2.36203
3.81146 1.66281 2.37799
3.81059 1.66706 2.39494
3.79565 1.66419 2.4031
3.7817 1.6613 2.41024
3.77279 1.66149 2.42231
3.76883 1.66158 2.42834
3.77702 1.66993 2.45216
3.76006 1.66603 2.45834
3.75215 1.66621 2.4704
3.74727 1.66944 2.48539
3.74037 1.66963 2.49844
3.72837 1.66664 2.49858
3.7265 1.66991 2.51655
3.71959 1.67109 2.52858
3.7137 1.67331 2.5426
3.70177 1.67145 2.55172
3.71198 1.68184 2.57849
3.68496 1.67283 2.57683
3.68906 1.67702 2.58973
3.68316 1.67922 2.60275
3.67123 1.67737 2.61287
3.66031 1.67653 2.62296
3.63831 1.67056 2.62422
3.6445 1.67891 2.64805
3.63149 1.67491 2.64721
3.64774 1.68837 2.67889
3.62373 1.68038 2.67919
3.61582 1.68157 2.69123
3.61698 1.68686 2.71115
3.60001 1.68395 2.71632
3.59916 1.68823 2.73527
3.59737 1.69465 2.76319
3.58242 1.69275 2.76933
3.57149 1.6919 2.77943
3.56561 1.69413 2.79444
3.56173 1.69737 2.81042
3.5498 1.69652 2.82053
3.5398 1.69353 2.82065
3.53291 1.69574 2.83467
3.53004 1.699 2.85164
3.97198 1.64291 1.784
3.95001 1.636 1.78927
3.95014 1.63924 1.80522
3.94825 1.64146 1.8202
3.94643 1.6458 1.84315
3.93148 1.64193 1.85133
3.9316 1.64515 1.86628
3.91866 1.6423 1.87542
3.91578 1.64552 1.8904
3.91088 1.64572 1.90343
3.89794 1.64286 1.91257
3.90002 1.64601 1.92251
3.89512 1.6472 1.93553
3.88319 1.64534 1.94465
3.87729 1.64654 1.95768
3.88646 1.65386 1.97951
3.8695 1.64996 1.98569
3.87258 1.65311 1.99562
3.87672 1.65838 2.01452
3.85474 1.65144 2.01779
3.85085 1.65365 2.03178
3.84997 1.65689 2.04775
3.83704 1.65403 2.05689
3.82812 1.6542 2.06795
3.83723 1.6604 2.08179
3.82228 1.65652 2.08897
3.81638 1.65772 2.10199
3.81651 1.66097 2.11895
3.80358 1.65911 2.12807
3.79968 1.66132 2.14207
3.7968 1.66354 2.15706
3.78581 1.66058 2.15919
3.77588 1.65872 2.16829
3.78506 1.66807 2.19209
3.7671 1.66316 2.1973
3.7632 1.66537 2.2113
3.76133 1.66861 2.22726
3.75235 1.66566 2.23038
3.74242 1.66581 2.24045
3.74557 1.67109 2.25935
3.73264 1.66923 2.26848
3.73076 1.67247 2.28445
3.71292 1.67181 2.30659
3.71701 1.67597 2.3175
3.69114 1.67124 2.33477
3.69127 1.67651 2.35269
3.68135 1.67566 2.36278
3.66741 1.67279 2.37093
3.6725 1.67697 2.38283
3.66962 1.6802 2.39881
3.65668 1.67833 2.40693
3.6528 1.68056 2.42193
3.64589 1.68174 2.43397
3.63195 1.67987 2.4421
3.62806 1.68209 2.4571
3.62813 1.68423 2.46607
3.6162 1.68337 2.47517
3.6113 1.68458 2.48919
3.6034 1.68576 2.50124
3.5975 1.68797 2.51525
3.58455 1.68509 2.52239
3.57672 1.68842 2.54441
3.6787 1.66642 2.14391
3.68083 1.67169 2.16182
3.66186 1.66576 2.16605
3.66602 1.67205 2.18593
3.65709 1.67221 2.19599
3.65716 1.67434 2.20496
3.64737 1.67775 2.23199
3.62852 1.67607 2.25316
3.61578 1.68058 2.28719
3.60096 1.68194 2.31029
3.58024 1.6845 2.34741
3.57628 1.68459 2.35344
3.56334 1.68272 2.36157
3.55556 1.68715 2.39056
3.54463 1.68629 2.39966
4.19712 1.58753 0.079885
4.18556 1.5854 0.138012
3.89791 1.64388 1.5085
3.88893 1.64093 1.51161
3.87097 1.63603 1.51782
3.87409 1.64026 1.53374
3.85513 1.63337 1.53998
3.84421 1.63152 1.5501
3.82542 1.63095 1.57825
3.81951 1.63113 1.59029
3.81171 1.63252 1.61633
3.81484 1.63777 1.63324
3.80893 1.63796 1.64528
3.80797 1.63905 1.65127
3.80609 1.64127 1.66625
3.79515 1.63941 1.67537
3.79728 1.64264 1.6913
3.79037 1.64283 1.70336
3.78446 1.64301 1.7154
3.78257 1.64623 1.73037
3.78463 1.64835 1.73832
3.77973 1.64955 1.75134
3.77382 1.64973 1.76339
3.76491 1.6489 1.77447
3.75698 1.64805 1.78454
3.74204 1.64418 1.79271
3.75214 1.65137 1.80553
3.74322 1.65053 1.81661
3.7353 1.64969 1.82669
3.73643 1.65394 1.84362
3.7285 1.65309 1.85369
3.72461 1.6553 1.86769
3.71268 1.65245 1.87682
3.72077 1.65862 1.88867
3.71185 1.65779 1.89975
3.68986 1.64983 1.90204
3.69803 1.65814 1.92285
3.6881 1.65729 1.93294
3.68621 1.6595 1.94693
3.68533 1.66274 1.96289
3.68036 1.6618 1.96694
3.66541 1.65792 1.97411
3.67157 1.66521 1.99396
3.65561 1.66131 2.00014
3.65071 1.6625 2.01316
3.64882 1.66573 2.02813
3.6399 1.66488 2.03821
3.63695 1.66599 2.04522
3.63506 1.6682 2.0592
3.62915 1.66938 2.07123
3.60428 1.66465 2.08849
3.61345 1.67398 2.11128
3.60848 1.67304 2.11533
3.59956 1.6722 2.12542
3.59467 1.67441 2.13942
3.58373 1.67255 2.14853
3.58097 1.67901 2.17946
3.57104 1.67817 2.18955
3.55615 1.67738 2.20368
3.55628 1.68164 2.22062
3.54045 1.68197 2.24273
3.53253 1.68214 2.25379
3.52763 1.68334 2.26681
3.51476 1.6836 2.28391
3.42681 1.69272 2.42345
4.11659 1.5806 -0.256452
4.11268 1.5788 -0.243394
4.11588 1.58118 -0.21745
4.11498 1.58137 -0.204444
4.10512 1.57766 -0.185312
4.10522 1.57785 -0.172314
4.12333 1.58605 -0.15857
4.11141 1.58123 -0.146407
4.10951 1.58043 -0.133379
4.11761 1.58461 -0.1205
4.10865 1.58071 -0.114374
4.10975 1.5819 -0.101398
4.11485 1.58509 -0.0884822
4.10595 1.58129 -0.0753571
4.09104 1.57548 -0.063157
4.09914 1.57966 -0.0502782
4.08417 1.57375 -0.0450772
4.08527 1.57494 -0.0321014
4.09538 1.57914 -0.0182378
4.07946 1.57333 -0.00603018
4.09157 1.57953 0.00778876
4.09267 1.57972 0.0207794
4.09377 1.58091 0.0337553
4.08881 1.58 0.0398069
4.09692 1.5832 0.0537003
4.083 1.57838 0.0648782
4.0861 1.58057 0.0778242
4.08821 1.58177 0.0917925
4.0853 1.58095 0.103828
4.09336 1.58507 0.111708
4.08445 1.58225 0.123818
4.07954 1.58143 0.135869
4.08764 1.58463 0.149762
4.07873 1.58182 0.161873
4.08985 1.58803 0.176699
4.09796 1.59223 0.190578
4.095 1.59132 0.196614
4.10411 1.59652 0.210471
4.10622 1.59773 0.224439
4.10431 1.59791 0.236452
4.09349 1.59529 0.261576
4.0956 1.59749 0.275529
4.08564 1.59357 0.280663
4.08073 1.59175 0.292729
4.067 1.60127 0.461715
4.05508 1.59744 0.472863
4.06019 1.60064 0.486779
4.05428 1.59882 0.498852
4.05138 1.59902 0.511873
4.05944 1.60313 0.519752
4.06155 1.60634 0.533691
4.05263 1.60251 0.544816
4.05884 1.60892 0.572678
4.04792 1.60509 0.583819
4.04802 1.60728 0.596787
4.03304 1.60034 0.600003
4.04717 1.60858 0.616777
3.72821 1.65655 1.68162
3.72325 1.65562 1.68667
3.69926 1.64667 1.68898
3.69636 1.64887 1.70197
3.68643 1.64702 1.71208
3.68554 1.65023 1.72604
3.6937 1.65752 1.74587
3.68176 1.65466 1.75501
3.68081 1.65576 1.762
3.65682 1.6468 1.76331
3.65605 1.65424 1.79321
3.65717 1.65848 1.80914
3.63921 1.65257 1.81436
3.6343 1.65376 1.82739
3.62933 1.65282 1.83144
3.6405 1.66214 1.85322
3.62656 1.65927 1.86137
3.62065 1.65944 1.87241
3.61172 1.65859 1.88249
3.6028 1.65776 1.89357
3.60091 1.66097 1.90754
3.60499 1.66511 1.91745
3.59205 1.66124 1.92561
3.59719 1.66852 1.94446
3.57821 1.66158 1.94771
3.57532 1.66479 1.96169
3.57344 1.66701 1.97667
3.5745 1.66913 1.98463
3.54949 1.66115 1.98494
3.55766 1.66947 2.00676
3.54773 1.66761 2.01586
3.53579 1.66573 2.02398
3.53893 1.671 2.04188
3.52096 1.66607 2.04609
3.519 1.66716 2.05209
3.53019 1.67651 2.07587
3.50819 1.66954 2.07714
3.50429 1.67073 2.09015
3.50744 1.67701 2.10904
3.50555 1.68024 2.12401
3.49254 1.67523 2.12318
3.49266 1.67947 2.13912
3.48072 1.6776 2.14723
3.43152 1.68918 2.25245
3.41374 1.69063 2.28156
3.40382 1.68978 2.29165
4.0075 1.59642 -0.00282946
3.98626 1.60189 0.230282
3.97934 1.60006 0.241363
3.77201 1.64422 1.25641
3.75717 1.64156 1.27857
3.73578 1.64877 1.35963
3.61895 1.66309 1.64634
-3.31954 -0.418246 5.1319
-3.33168 -0.417519 5.11298
-3.34001 -0.41715 5.07003
-3.35439 -0.416895 5.01913
-3.3668 -0.416685 4.96521
-3.37707 -0.416226 4.92828
-3.38129 -0.415652 4.8993
-3.40283 -0.414703 4.82743
-3.42449 -0.413991 4.73957
-3.43068 -0.414356 4.71462
-3.43092 -0.41383 4.68261
-3.45454 -0.413027 4.60077
-3.46368 -0.413302 4.58184
-3.46986 -0.412653 4.55787
0.588678 -0.684826 20.7226
0.551349 -0.681421 20.5458
0.479239 -0.67653 20.2652
0.410446 -0.67202 20.0266
0.134784 -0.527074 18.8624
-1.57653 -0.443031 12.0401
-2.29789 -0.411627 9.20067
-2.31437 -0.410563 9.13677
-2.33081 -0.40941 9.07887
-2.34631 -0.409376 9.01297
-2.34967 -0.409085 8.96499
-2.36609 -0.407902 8.90909
-2.38349 -0.407689 8.85521
-2.39796 -0.406597 8.79329
-2.41338 -0.406415 8.7374
-2.42977 -0.406174 8.68551
-2.44128 -0.405172 8.61757
-2.44655 -0.404702 8.5816
-2.46002 -0.40461 8.51969
-2.47539 -0.40334 8.46978
-2.48883 -0.403189 8.41187
-2.50518 -0.402873 8.36498
-2.51662 -0.401738 8.30605
-2.53296 -0.401393 8.26116
-2.53529 -0.401043 8.21716
-2.56305 -0.400519 8.11635
-2.57838 -0.400159 8.07246
-2.59077 -0.39892 8.02052
-2.60511 -0.398576 7.97562
-2.60741 -0.398167 7.93563
-2.63117 -0.397646 7.83478
-2.64452 -0.397317 7.78887
-2.65591 -0.397079 7.73695
-2.66923 -0.396706 7.69404
-2.68355 -0.396333 7.65113
-2.70951 -0.394195 7.52428
-2.72378 -0.394732 7.48739
-2.74744 -0.394004 7.40055
-2.75878 -0.393662 7.35562
-2.78365 -0.392376 7.23877
-3.2941 -0.377455 5.18611
-3.29819 -0.37763 5.17415
-3.30441 -0.377055 5.14518
-3.32446 -0.377129 5.13933
-3.3188 -0.376814 5.09328
-3.32996 -0.377117 5.07236
-3.34533 -0.376846 5.02247
-3.34448 -0.376143 5.00245
-3.35788 -0.375904 4.95054
-3.36803 -0.376193 4.93062
-3.37225 -0.375634 4.90064
-3.37647 -0.37606 4.87167
-3.38352 -0.376159 4.86472
-3.39689 -0.375875 4.81581
-3.40506 -0.375209 4.79286
-3.40532 -0.375713 4.75887
-3.41151 -0.375093 4.7329
-3.42277 -0.374589 4.69897
-3.42895 -0.37494 4.67502
-3.44008 -0.375183 4.65811
-3.4433 -0.37461 4.62912
-3.45145 -0.374915 4.60818
-3.45974 -0.374472 4.57023
-3.46393 -0.374839 4.54527
0.891381 -0.566058 21.8667
-1.60827 -0.383539 11.9364
-1.54021 -0.289645 12.2016
-1.56796 -0.289106 12.1018
-1.59376 -0.289672 11.9949
-1.62048 -0.290074 11.8991
-2.5914 -0.291324 8.05994
-2.60379 -0.292085 8.00804
-2.63083 -0.292124 7.86922
-2.65851 -0.292437 7.77942
-2.67283 -0.292049 7.73752
-2.69459 -0.292528 7.63668
-2.71212 -0.292567 7.5658
-2.72349 -0.292285 7.51688
-2.73482 -0.292928 7.47296
-2.74617 -0.292616 7.42604
-2.75652 -0.292289 7.38011
-2.76981 -0.292857 7.34121
-2.78142 -0.293048 7.26029
-2.79567 -0.292527 7.22738
-2.80993 -0.293035 7.19249
-3.31002 -0.298378 5.19006
-3.30325 -0.297842 5.159
-3.31045 -0.298237 5.13206
-3.31568 -0.298677 5.1021
-3.32683 -0.298965 5.08218
-3.33798 -0.298253 5.06225
-3.34616 -0.298603 5.03832
-3.35039 -0.299059 5.00735
-3.34657 -0.299402 4.98433
-3.35672 -0.298706 4.96339
-3.3649 -0.299055 4.93945
-3.37208 -0.299405 4.91551
-3.38126 -0.299739 4.89258
-3.38646 -0.299135 4.86561
-3.39364 -0.299485 4.84166
-3.39377 -0.299737 4.82466
-3.40095 -0.300087 4.80072
-3.41432 -0.299818 4.75081
-3.42447 -0.300092 4.73189
-3.42571 -0.300565 4.6999
-3.43783 -0.299793 4.68398
-3.43597 -0.300076 4.66496
-3.44017 -0.300473 4.638
-3.45131 -0.300731 4.62008
-3.45749 -0.301082 4.59613
-3.46169 -0.300479 4.56915
-3.47084 -0.300754 4.55022
-3.47602 -0.301105 4.52626
-3.47415 -0.301373 4.50825
-3.48726 -0.301586 4.49335
-1.56602 -0.225307 12.0878
-1.59558 -0.226396 12.013
-1.62135 -0.226888 11.9112
-3.32644 -0.265243 5.13069
-3.34295 -0.266238 5.06282
-3.35634 -0.266999 5.01092
-3.37594 -0.267154 4.93206
-3.38003 -0.267329 4.92009
-3.38225 -0.267772 4.89011
-3.38252 -0.267305 4.8541
-3.39464 -0.267533 4.8382
-3.39391 -0.268051 4.80319
-3.40703 -0.268279 4.78729
-3.41421 -0.268629 4.76335
-3.4173 -0.268804 4.75137
-3.41953 -0.268262 4.72038
-3.42967 -0.268536 4.70146
-3.43782 -0.268826 4.68152
-3.4361 -0.269361 4.64551
-3.4492 -0.269558 4.63161
-3.44659 -0.26933 4.57958
-3.46908 -0.270276 4.51475
-3.48265 -0.271377 4.43986
-2.36489 -0.175825 8.91264
-2.41356 -0.178077 8.69101
-2.53508 -0.183919 8.22395
-2.54653 -0.184784 8.16504
-2.61666 -0.187924 7.88258
-2.67131 -0.190142 7.66299
-2.68366 -0.190814 7.61709
-2.69501 -0.191502 7.57018
-2.77316 -0.194665 7.28577
-1.63154 -0.0824439 11.8721
-1.63502 -0.00650117 11.8
-2.28825 -0.0628282 9.25244
-2.30279 -0.0638838 9.18055
-2.32024 -0.0657595 9.12071
-2.35315 -0.0685124 9.00098
-2.36958 -0.0693593 8.94311
-2.38838 -0.0719151 8.83727
-2.40285 -0.0728227 8.77538
-2.42021 -0.0735208 8.72752
-2.43563 -0.0753387 8.67165
-2.45007 -0.0761871 8.61377
-2.46546 -0.0779458 8.5619
-2.48223 -0.079444 8.46004
-2.50054 -0.0810377 8.41919
-2.51102 -0.0819778 8.35528
-2.52835 -0.0826167 8.31141
-2.54077 -0.0844368 8.25552
-2.55843 -0.0857122 8.16866
-2.57378 -0.0873969 8.1218
-2.5852 -0.0882178 8.06589
-2.59955 -0.0888886 8.02
-2.61294 -0.0906339 7.96912
-2.62238 -0.0915007 7.9102
-2.65625 -0.0941789 7.79548
-2.67803 -0.0967029 7.69166
-2.69135 -0.09733 7.64877
-2.70467 -0.0979422 7.60687
-2.71242 -0.100417 7.50695
-2.72767 -0.100895 7.47407
-2.74393 -0.101386 7.44019
-2.75624 -0.102999 7.3983
-2.78015 -0.105759 7.27851
-3.30618 -0.1499 5.15383
-3.32029 -0.150112 5.13894
-3.32763 -0.150773 5.094
-3.33384 -0.151183 5.06605
-3.34302 -0.151532 5.04212
-3.35444 -0.153338 4.98722
-3.35162 -0.153696 4.9632
-3.36077 -0.153985 4.94327
-3.365 -0.154441 4.91231
-3.37318 -0.154776 4.88937
-3.37542 -0.156248 4.85741
-3.39446 -0.156323 4.85155
-3.39176 -0.156902 4.81253
-3.40277 -0.156924 4.81062
-3.41119 -0.157747 4.75468
-3.42133 -0.158021 4.73576
-3.42653 -0.158402 4.7098
-3.42679 -0.159905 4.67582
-3.44397 -0.160248 4.65195
-3.44719 -0.160675 4.62298
-3.45337 -0.161026 4.59903
-3.4546 -0.161484 4.56804
-3.46869 -0.161652 4.55615
-3.47091 -0.16208 4.52717
-3.4651 -0.162454 4.50212
-1.57712 0.0761056 12.0454
-1.62769 0.0700479 11.8369
-2.29051 -0.00341067 9.21257
-2.30694 -0.00424277 9.1557
-2.32536 -0.00605849 9.09986
-2.33986 -0.00802515 9.03399
-2.37075 -0.0107647 8.91524
-2.37896 -0.0121584 8.88832
-2.38954 -0.0143056 8.81042
-2.40789 -0.0149734 8.76457
-2.42039 -0.0169416 8.69868
-2.43872 -0.0185797 8.65484
-2.44827 -0.0206536 8.58193
-2.46853 -0.0211571 8.54708
-2.46892 -0.0229267 8.49511
-2.48039 -0.0248364 8.43321
-2.49285 -0.0257306 8.37231
-2.51211 -0.0272347 8.33747
-2.5226 -0.0291747 8.27357
-2.54086 -0.0296797 8.23871
-2.55621 -0.0313495 8.19285
-2.58137 -0.0346115 8.03906
-2.59472 -0.0362977 7.99218
-2.62438 -0.0385643 7.90543
-2.64843 -0.0426197 7.76565
-2.66079 -0.0433214 7.71775
-2.6751 -0.044918 7.67687
-2.68254 -0.0467714 7.61895
-2.69489 -0.0474436 7.57304
-2.74642 -0.0534117 7.37049
-2.76166 -0.0538893 7.33761
-2.77004 -0.0556235 7.28769
-2.77226 -0.0560513 7.25871
-2.7949 -0.0582934 7.1739
-3.33294 -0.112425 5.04946
-3.41348 -0.121357 4.71316
-1.54323 0.166715 12.1548
-1.57189 0.163433 12.0671
-1.59865 0.159957 11.9663
-1.62537 0.156555 11.8706
-1.65204 0.153257 11.7818
-2.5799 0.0282247 8.09513
-2.67177 0.0156505 7.71495
-2.68315 0.0139185 7.66506
-2.73866 0.00698293 7.46455
-2.75 0.00532493 7.41966
-2.76233 0.00469716 7.37675
-3.33464 -0.0678958 5.08482
-3.35847 -0.0705072 4.97503
-3.36679 -0.0721378 4.93211
-3.37891 -0.0723659 4.9162
-3.38611 -0.0737455 4.89027
-3.39849 -0.0744917 4.83937
-3.40271 -0.075918 4.81042
-3.40904 -0.0765501 4.76747
-3.41819 -0.0778543 4.74655
-3.45023 -0.0818595 4.60983
-3.46259 -0.0825612 4.56193
-3.48508 -0.0845073 4.49712
-1.56168 0.227744 12.0881
-1.59127 0.225611 12.0103
-1.64085 0.216553 11.8018
-3.34094 -0.0365166 5.0424
-3.35531 -0.0382465 4.99253
-3.35671 -0.0400302 4.93956
-3.37208 -0.0417296 4.89169
-3.38419 -0.0419429 4.87678
-3.39597 -0.0454742 4.77291
-3.40415 -0.0458088 4.74997
-3.41651 -0.0475253 4.70108
-3.43556 -0.0476003 4.69523
-3.43482 -0.0491042 4.66124
-3.43593 -0.0493255 4.64625
-3.45668 -0.0527909 4.54644
