-3.27984 0.958671 4.84608
-3.29856 0.945294 4.75241
-3.30771 0.943005 4.73251
-3.31292 0.938609 4.70561
-3.31909 0.935273 4.6827
-3.33158 0.926321 4.61792
-3.35805 0.919437 4.55721
-3.36521 0.916117 4.53531
-3.36458 0.908407 4.48741
-3.3767 0.907179 4.47152
-3.37793 0.902736 4.44159
-3.38707 0.900476 4.42369
-3.40016 0.900293 4.41079
-3.4004 0.894835 4.37987
-3.39952 0.892597 4.36389
-3.41186 0.886955 4.32006
-3.42199 0.885711 4.30316
-3.43728 0.881145 4.26433
-3.45269 0.874358 4.21054
-3.47644 0.861925 4.11289
-3.47665 0.857511 4.08495
-3.48677 0.856281 4.06905
-3.49611 0.849622 4.02421
-3.50126 0.84733 4.00428
-3.50851 0.843847 3.97138
-2.45579 1.54566 8.11663
-2.42574 1.64755 8.24492
-2.45158 1.62694 8.1354
-2.56181 1.54878 7.71533
-2.57124 1.53794 7.65855
-2.60213 1.51725 7.54308
-2.61251 1.5075 7.49229
-2.62777 1.50201 7.45848
-2.63718 1.49223 7.40569
-2.64237 1.48787 7.38079
-2.65567 1.48029 7.341
-2.667 1.47266 7.29819
-2.68322 1.46824 7.26938
-2.68671 1.4553 7.20559
-2.7 1.44875 7.16778
-2.71034 1.4411 7.12396
-2.71968 1.43244 7.07915
-2.73323 1.41939 7.00744
-2.75778 1.40734 6.93579
-2.77005 1.40183 6.90096
-2.77546 1.39104 6.84716
-2.78894 1.38012 6.78441
-2.80513 1.37576 6.75959
-2.86214 1.32891 6.49768
-2.87534 1.32552 6.47083
-2.88266 1.3179 6.42899
-2.89194 1.31138 6.39315
-2.92388 1.29057 6.26968
-2.9487 1.27199 6.16213
-2.96938 1.25569 6.07351
-2.99611 1.24029 5.97793
-3.00732 1.2359 5.95108
-3.02204 1.2195 5.85642
-3.03323 1.21614 5.83155
-3.04837 1.21388 5.81369
-3.04774 1.20416 5.76482
-3.05992 1.20083 5.74196
-3.06305 1.19858 5.72502
-3.06734 1.19202 5.68714
-3.07458 1.18655 5.65527
-3.08774 1.18327 5.63542
-3.09728 1.17121 5.56366
-3.10238 1.16903 5.55173
-3.12702 1.15579 5.4671
-3.13851 1.14486 5.40334
-3.16427 1.1294 5.30374
-3.17574 1.1195 5.24297
-3.18591 1.11617 5.22009
-3.22108 1.09192 5.06669
-3.2273 1.08751 5.0388
-3.23139 1.08533 5.02686
-3.24282 1.07651 4.97107
-3.26312 1.07093 4.9313
-3.27058 1.06104 4.8705
-3.29523 1.0488 4.78585
-2.90084 1.52529 6.38505
-2.9111 1.51879 6.35122
-2.92137 1.51228 6.31639
-2.92965 1.50474 6.27956
-2.93281 1.50043 6.25864
-2.94207 1.49394 6.2248
-2.95231 1.48849 6.19395
-2.9606 1.48093 6.15612
-2.9915 1.45821 6.03868
-2.99976 1.45171 6.00483
-3.05868 1.40304 5.75496
-3.0679 1.39862 5.72609
-3.0781 1.39323 5.69924
-3.08025 1.38995 5.68031
-3.09045 1.38456 5.65346
-3.09573 1.37803 5.61759
-3.10493 1.37364 5.59072
-3.11216 1.3672 5.56087
-3.11941 1.36171 5.528
-3.12764 1.35629 5.49914
-3.12779 1.352 5.4792
-3.13403 1.34553 5.44734
-3.14423 1.34115 5.42148
-3.15244 1.33676 5.3946
-3.16064 1.33236 5.36772
-3.16885 1.32697 5.34086
-3.17115 1.31939 5.30198
-3.17525 1.31721 5.28905
-3.18048 1.31175 5.25816
-3.1949 1.30095 5.20342
-3.20805 1.29868 5.18455
-3.21131 1.29218 5.15067
-3.21752 1.28677 5.12279
-3.22161 1.28559 5.11084
-3.22783 1.28017 5.08196
-3.23702 1.27582 5.05809
-3.24321 1.27144 5.0322
-3.24746 1.26497 5.00032
-3.25663 1.26165 4.97844
-3.26678 1.25935 4.95755
-3.26594 1.25505 4.9376
-3.26721 1.24753 4.90272
-3.2823 1.24737 4.89083
-3.28554 1.2409 4.85895
-3.29371 1.23758 4.83705
-3.29892 1.23217 4.80917
-3.29609 1.22784 4.78721
-3.30822 1.2256 4.77033
-3.31343 1.2212 4.74343
-3.3206 1.21787 4.72053
-3.32778 1.21352 4.69665
-3.33694 1.21023 4.67676
-3.34114 1.20583 4.64986
-3.34126 1.20259 4.6339
-3.34845 1.19924 4.61
-3.35661 1.19492 4.58813
-3.35983 1.19051 4.56021
-3.36699 1.18719 4.53831
-3.37614 1.18392 4.51943
-3.37528 1.18065 4.50146
-3.37948 1.17627 4.47556
-3.38564 1.17295 4.45365
-3.41232 1.15865 4.36505
-3.41442 1.15646 4.3521
-3.41564 1.15103 4.32318
-3.41982 1.14668 4.29928
-3.42996 1.14442 4.28138
-3.43612 1.14112 4.26048
-3.44426 1.13884 4.24157
-3.44857 1.13225 4.20169
-3.45472 1.12896 4.18178
-3.47002 1.1234 4.14298
-3.48464 1.11021 4.06227
-3.49398 1.10355 4.01743
-3.50508 1.10235 4.00353
-3.12288 1.40573 5.46136
-3.13407 1.40139 5.43751
-3.14227 1.39699 5.41063
-3.14456 1.38945 5.37376
-3.15276 1.38406 5.34689
-3.15391 1.37976 5.32696
-3.16309 1.37643 5.30408
-3.17229 1.37105 5.27822
-3.17852 1.36561 5.24835
-3.18572 1.36122 5.22146
-3.19589 1.3569 5.1996
-3.2031 1.3525 5.17272
-3.20325 1.34821 5.15278
-3.22485 1.33406 5.07414
-3.23206 1.32866 5.04727
-3.24221 1.32637 5.02738
-3.2384 1.32 5.00244
-3.24561 1.31561 4.97556
-3.2528 1.31124 4.95067
-3.26295 1.30795 4.93079
-3.27113 1.30362 4.90792
-3.27831 1.30027 4.88402
-3.27858 1.29174 4.84814
-3.28069 1.28953 4.83419
-3.28887 1.2852 4.81131
-3.29901 1.28292 4.79242
-3.3052 1.27856 4.76752
-3.30547 1.27104 4.73263
-3.31758 1.26983 4.71774
-3.32193 1.26117 4.67289
-3.3291 1.25683 4.65001
-3.34246 1.24915 4.60322
-3.3516 1.24687 4.58432
-3.35803 1.23605 4.52852
-3.36013 1.23386 4.51557
-3.37818 1.23478 4.50969
-3.37447 1.22622 4.47178
-3.38705 1.2131 4.39606
-3.39816 1.21089 4.38117
-3.40719 1.21183 4.37723
-3.41777 1.19772 4.3015
-3.44573 1.17687 4.17601
-3.4652 1.16697 4.11429
-3.47663 1.15815 4.0585
-3.49211 1.14823 3.99576
-3.50353 1.13843 3.94098
-3.28327 1.35128 4.8843
-3.29046 1.34692 4.85941
-3.30286 1.33716 4.80764
-3.46581 1.22266 4.16048
-3.46999 1.21933 4.13756
-3.18467 1.47916 5.21671
-3.33423 1.36344 4.62247
-3.45909 1.27205 4.11869
-3.27097 1.55059 4.90426
-3.27619 1.54418 4.87639
-3.28338 1.53882 4.85152
-3.28449 1.5356 4.83657
-3.29169 1.53123 4.81169
-3.29492 1.52379 4.78182
-3.31197 1.52468 4.77393
-3.31027 1.51512 4.73606
-3.31646 1.50976 4.71118
-3.31967 1.50334 4.68329
-3.33166 1.50637 4.68434
-3.32895 1.4968 4.64646
-3.34824 1.49026 4.60869
-3.35146 1.48384 4.58081
-3.36877 1.47725 4.54003
-3.36692 1.47197 4.52109
-3.37705 1.46972 4.5042
-3.38026 1.46331 4.47632
-3.3805 1.45586 4.44542
-3.39558 1.4557 4.43454
-3.39803 1.44283 4.37574
-3.40705 1.44381 4.37379
-3.41618 1.44055 4.35591
-3.42137 1.4362 4.33201
-3.42853 1.43189 4.31112
-3.43799 1.42 4.25036
-3.44021 1.41359 4.22247
-3.44835 1.41033 4.20457
-3.45054 1.40494 4.17867
-3.46165 1.40374 4.16477
-3.47497 1.39613 4.12297
-3.47408 1.39292 4.10901
-3.48222 1.39065 4.09011
-3.48541 1.3853 4.06621
-3.4987 1.37873 4.0274
-3.49891 1.37233 4.00049
-3.50596 1.37225 3.99454
-3.51111 1.36894 3.97363
-3.51528 1.36462 3.95172
-3.52044 1.36031 3.93082
5.30708 -0.454111 3.74315
5.2894 -0.379528 3.64616
5.29764 -0.38006 3.67811
5.30388 -0.37959 3.71006
5.31111 -0.380136 3.74102
5.33153 -0.380337 3.79588
5.32972 -0.37995 3.82189
5.33696 -0.380482 3.85385
5.34823 -0.380957 3.88978
5.34844 -0.380542 3.91777
5.36374 -0.380976 3.95667
5.37592 -0.381629 3.98059
5.37511 -0.381244 4.00659
5.38639 -0.381704 4.04352
5.38661 -0.381275 4.07252
5.39789 -0.381735 4.10944
5.40716 -0.381208 4.14537
5.41643 -0.381682 4.18131
5.42157 -0.381404 4.20027
5.43689 -0.381793 4.24217
5.43912 -0.382336 4.27316
5.45969 -0.382225 4.34902
5.48038 -0.382878 4.44088
5.48968 -0.383307 4.47983
5.53301 -0.383717 4.65653
5.54432 -0.384103 4.69846
5.28342 -0.329544 3.64447
5.29066 -0.32909 3.67541
5.29286 -0.328692 3.70239
5.336 -0.328472 3.85409
5.35673 -0.32905 3.95095
5.43511 -0.328428 4.2664
5.28944 -0.295566 3.64292
5.30472 -0.295015 3.6808
5.30995 -0.294574 3.71076
5.30311 -0.295258 3.73182
5.32544 -0.294623 3.77565
5.32553 -0.294431 3.78865
5.33781 -0.293907 3.82456
5.33298 -0.293562 3.84759
5.35833 -0.293885 3.89441
5.35451 -0.293527 3.91844
5.3678 -0.292974 3.95634
5.37002 -0.293546 3.98533
5.38924 -0.293115 4.01518
5.39045 -0.292702 4.04317
5.40195 -0.292733 4.1091
5.41827 -0.292108 4.15197
5.42049 -0.29168 4.18095
5.42877 -0.292138 4.2179
5.43089 -0.291903 4.23388
5.44742 -0.290863 4.30475
5.46778 -0.291167 4.35261
5.46699 -0.290752 4.38061
5.48233 -0.290112 4.42449
5.48747 -0.289834 4.44345
5.50381 -0.290179 4.48834
5.498 -0.289805 4.51338
5.51132 -0.289178 4.55628
5.51457 -0.289692 4.58927
5.52689 -0.289064 4.63217
5.53707 -0.288716 4.65609
5.55342 -0.289046 4.70198
5.55668 -0.28853 4.73695
5.56297 -0.287972 4.7749
5.5763 -0.28833 4.81881
5.59693 -0.287102 4.90265
5.60511 -0.287752 4.9266
5.62047 -0.287052 4.97448
5.62475 -0.286508 5.01145
5.62903 -0.286948 5.04943
5.66406 -0.285959 5.18517
5.66822 -0.285652 5.20614
5.68359 -0.284922 5.25602
5.69897 -0.285178 5.30691
5.70125 -0.284632 5.34389
5.74856 -0.28409 5.51755
5.75992 -0.283387 5.56546
5.78165 -0.282966 5.6623
5.8247 -0.281939 5.80098
5.83004 -0.282277 5.84595
5.84243 -0.281516 5.89786
5.85382 -0.281754 5.94978
5.94455 -0.279444 6.31211
5.46277 -0.206306 4.34239
5.48235 -0.20518 4.41924
5.52039 -0.20315 4.55794
5.52993 -0.202105 4.62886
5.57407 -0.199901 4.77952
5.58664 -0.198785 4.85542
5.60425 -0.197584 4.93728
5.63586 -0.195422 5.01702
5.65349 -0.194191 5.10088
5.66886 -0.193477 5.14976
5.66207 -0.193057 5.17781
5.67542 -0.192371 5.2247
5.69268 -0.19188 5.25857
5.70202 -0.19122 5.3035
5.71034 -0.19059 5.34643
5.73104 -0.189228 5.43927
5.74946 -0.188427 5.49412
5.75967 -0.188005 5.52305
5.77506 -0.187246 5.57492
5.78542 -0.186557 5.62184
5.80083 -0.185754 5.67672
5.80313 -0.185178 5.7157
5.82055 -0.183362 5.77155
5.83193 -0.182615 5.82246
5.85253 -0.181445 5.9023
5.86694 -0.180656 5.95619
5.8743 -0.179951 6.00413
5.88771 -0.179161 6.05802
5.89609 -0.178427 6.10796
5.90849 -0.177636 6.16186
5.92781 -0.177028 6.20371
5.93417 -0.176322 6.25166
5.94961 -0.175459 6.31054
5.95901 -0.174681 6.36346
5.97143 -0.173861 6.41936
5.98285 -0.172055 6.47426
6.0052 -0.171376 6.52109
6.01764 -0.170526 6.57899
6.03007 -0.169676 6.63689
6.04655 -0.168755 6.69976
5.2941 -0.174428 3.7191
5.38688 -0.166017 4.08833
5.41067 -0.164494 4.19214
5.2805 -0.0887159 3.63092
5.28571 -0.0882902 3.65988
5.29396 -0.0868225 3.6918
5.29908 -0.0865745 3.70876
5.30431 -0.0851342 3.73871
5.30149 -0.0847767 3.76273
5.31577 -0.0842392 3.79962
5.3373 -0.0812186 3.86942
5.34967 -0.0794873 3.91931
5.36417 -0.0775206 3.98518
5.37545 -0.0769809 4.02209
5.3817 -0.0754969 4.05502
5.38302 -0.0748611 4.09801
5.41141 -0.0721268 4.14876
5.39954 -0.0718516 4.16685
5.42391 -0.0701439 4.21565
5.43118 -0.0696309 4.25059
5.46919 -0.0646599 4.38525
5.47646 -0.0641469 4.42019
5.47668 -0.0627029 4.45017
5.49202 -0.0610626 4.49404
5.48922 -0.0606608 4.52106
5.49851 -0.0590901 4.55997
5.50366 -0.0587977 4.57993
5.53108 -0.0570034 4.63471
5.53132 -0.0555298 4.66669
5.5386 -0.0549872 4.70363
5.56325 -0.0517319 4.78941
5.56438 -0.0514809 4.8064
5.57972 -0.0498111 4.85226
5.58802 -0.0482249 4.89218
5.60741 -0.0464839 4.94302
5.62402 -0.0442967 5.02387
5.64253 -0.0423033 5.09171
5.66647 -0.0374701 5.21648
5.69092 -0.0356143 5.27527
5.69749 -0.0334938 5.3512
5.71778 -0.0319312 5.39003
5.74177 -0.028009 5.52081
5.76551 -0.0245753 5.6186
5.78076 -0.0230979 5.65146
5.79919 -0.0212674 5.7083
5.80451 -0.0206345 5.75126
5.81891 -0.0188603 5.80413
5.8192 -0.0172979 5.84211
5.8326 -0.0155229 5.89499
5.85407 -0.0136206 5.95681
5.86632 -0.0121409 5.9897
5.86459 -0.0105919 6.0267
5.88405 -0.00870289 6.08753
5.89344 -0.00695462 6.13844
5.90382 -0.00520709 6.18934
5.91825 -0.00337365 6.24622
5.94999 5.4207e-05 6.34394
5.96141 0.00186022 6.39884
5.98221 0.00542931 6.50564
5.9997 0.00736418 6.56949
6.03752 0.0109505 6.67817
6.04592 0.0127291 6.73108
5.28262 -0.0545138 3.6444
5.28785 -0.0530735 3.67435
5.30826 -0.051274 3.72917
5.3165 -0.0508062 3.76111
5.33099 -0.0478692 3.82497
5.3774 -0.0411196 4.01254
5.39514 -0.0376815 4.11037
5.42688 -0.0342537 4.2081
5.44667 -0.0307283 4.31191
5.46299 -0.0291035 4.35477
5.47138 -0.0273397 4.40668
5.48168 -0.025755 4.44659
5.49399 -0.0241569 4.48748
5.49724 -0.0226708 4.52044
5.50351 -0.0221422 4.55639
5.52702 -0.0191674 4.62317
5.53531 -0.0175961 4.66209
5.55065 -0.015941 4.70696
5.5509 -0.0144526 4.73994
5.56323 -0.012825 4.78283
5.58071 -0.0108901 4.84668
5.59909 -0.00914837 4.89752
5.60839 -0.00756294 4.93743
5.61167 -0.00601754 4.97439
5.61998 -0.00441657 5.01531
5.63334 -0.00273043 5.06219
5.64555 -0.00132481 5.09008
5.65992 0.000390209 5.13895
5.66723 0.00199191 5.17988
5.67655 0.00362175 5.22279
5.68287 0.00423909 5.26474
5.70025 0.00698142 5.31558
5.70355 0.00757133 5.35555
5.71981 0.00906286 5.38941
5.74051 0.0124247 5.48222
5.75388 0.0151403 5.53108
5.76626 0.0168716 5.58097
5.77561 0.0185607 5.62788
5.77892 0.0201653 5.66884
5.81059 0.0234599 5.75756
5.82803 0.025306 5.81541
5.83033 0.0268965 5.85538
5.84475 0.0287003 5.91025
5.85412 0.030419 5.95916
5.87776 0.0336602 6.04395
5.89823 0.036578 6.10676
5.9066 0.0382974 6.15568
5.92406 0.0411878 6.21651
5.92539 0.0418235 6.2595
5.9489 0.0448131 6.32728
5.95612 0.0462372 6.35621
5.98702 0.0509913 6.47593
6.00954 0.0529966 6.54474
6.0008 0.0545063 6.57878
6.03644 0.0577388 6.66348
6.02971 0.0592767 6.69951
5.30687 -0.00913729 3.80557
5.31613 -0.00764066 3.83948
5.35427 -0.00141806 3.99113
5.97607 0.105023 6.47721
5.28159 0.028315 3.63218
5.38384 0.0476065 4.06119
5.43635 0.056544 4.26169
5.44765 0.0591131 4.30057
5.45816 0.0621122 4.36845
5.47136 0.0634875 4.39434
5.51177 0.0722265 4.58093
5.52006 0.0737978 4.61985
5.57552 0.0826147 4.81233
5.5798 0.0841594 4.84928
5.65094 0.098312 5.13257
5.69417 0.105694 5.29516
5.70452 0.108367 5.34105
5.71184 0.109998 5.38398
5.85306 0.138171 5.94157
5.86849 0.141004 5.99842
5.9438 0.155479 6.30368
5.95925 0.158341 6.36253
5.27553 0.0661523 3.62067
5.29402 0.0701011 3.68548
5.29724 0.071528 3.71444
5.3087 0.0744228 3.77532
5.30076 0.0745322 3.78238
5.32811 0.077208 3.82914
5.32026 0.0775099 3.84919
5.34381 0.0815734 3.92197
5.36032 0.0845533 3.98881
5.36969 0.0872719 4.0377
5.3993 0.0914494 4.11843
5.3985 0.0928497 4.14542
5.40475 0.0943337 4.17835
5.42108 0.0969584 4.2212
5.43226 0.0983055 4.2451
5.42744 0.0996643 4.26912
5.44679 0.102331 4.31494
5.44197 0.10269 4.33897
5.45628 0.105301 4.38083
5.48 0.109691 4.4756
5.56433 0.126189 4.78276
5.57364 0.128789 4.82366
5.58294 0.130374 4.86357
5.59754 0.134533 4.94241
5.61075 0.135953 4.9713
5.61327 0.139958 5.03923
5.66038 0.148099 5.18577
5.67058 0.149492 5.21268
5.67488 0.151066 5.25163
5.69428 0.153851 5.30545
5.69756 0.156397 5.34239
5.71799 0.159211 5.3982
5.71524 0.160716 5.43221
5.73264 0.163488 5.48504
5.75725 0.168654 5.56479
5.77062 0.17137 5.61366
5.77695 0.173017 5.65759
5.78026 0.175621 5.69853
5.79768 0.178438 5.75437
5.8151 0.181254 5.8102
5.84276 0.186522 5.89693
5.84911 0.189198 5.94285
5.85546 0.190874 5.98878
5.86685 0.193636 6.04066
5.88529 0.197496 6.09947
5.89855 0.19899 6.13335
5.90794 0.201738 6.18425
5.92539 0.205613 6.24407
5.93176 0.207334 6.293
5.94922 0.211224 6.35382
5.95559 0.213945 6.40274
5.96801 0.216765 6.45861
5.99239 0.219487 6.5084
6.02027 0.226199 6.6251
6.03171 0.229049 6.68298
6.0492 0.232999 6.7478
5.26337 0.102787 3.59521
5.26658 0.104199 3.62317
5.27381 0.105653 3.6541
5.28708 0.108176 3.68997
5.30137 0.110728 3.72783
5.29453 0.111044 3.74888
5.30871 0.112389 3.77275
5.30791 0.113774 3.79874
5.32119 0.116312 3.83561
5.32441 0.117739 3.86457
5.34072 0.120334 3.90541
5.34997 0.121831 3.93933
5.34405 0.121983 3.94937
5.3533 0.12448 3.98327
5.36258 0.126006 4.01918
5.37083 0.127504 4.0531
5.38513 0.130085 4.09296
5.38636 0.131529 4.12293
5.40882 0.135415 4.18372
5.40903 0.136829 4.2117
5.41429 0.138329 4.24564
5.42961 0.14094 4.28749
5.45645 0.147578 4.39921
5.45556 0.147786 4.41321
5.4719 0.15044 4.45806
5.4832 0.153024 4.49794
5.50078 0.157151 4.57476
5.50907 0.159708 4.61266
5.51926 0.16107 4.63757
5.52856 0.163656 4.67746
5.54592 0.166339 4.7243
5.53911 0.167729 4.75033
5.55849 0.170455 4.80015
5.55672 0.171915 4.83115
5.58831 0.177046 4.90885
5.60266 0.179717 4.95471
5.60896 0.182304 4.99463
5.6213 0.184962 5.0395
5.62659 0.18652 5.07744
5.62786 0.188052 5.11342
5.6533 0.191892 5.17117
5.65847 0.193229 5.19412
5.67587 0.196986 5.24594
5.67815 0.198532 5.2829
5.69051 0.201234 5.33078
5.69783 0.203865 5.37369
5.70818 0.206538 5.41958
5.73782 0.21176 5.50329
5.75019 0.214491 5.55316
5.75853 0.217152 5.59807
5.77293 0.220926 5.65091
5.7833 0.223629 5.6988
5.80576 0.22753 5.76058
5.81296 0.22891 5.78651
5.82435 0.231656 5.83739
5.82968 0.234304 5.88132
5.83502 0.236966 5.92624
5.84742 0.239742 5.97912
5.86486 0.243587 6.03693
5.87726 0.246378 6.09081
5.89154 0.2489 6.12667
5.89387 0.25155 6.17062
5.91435 0.255468 6.23341
5.92778 0.258302 6.29028
5.9402 0.262122 6.34614
5.96791 0.267493 6.43986
5.98741 0.271456 6.50566
5.99379 0.274191 6.55558
6.00724 0.27807 6.61543
6.03078 0.283118 6.68719
6.03213 0.285798 6.73315
6.04761 0.28872 6.79599
5.42682 0.187292 4.31083
5.4484 0.192416 4.3876
5.4794 0.200347 4.51927
5.49171 0.202945 4.56014
5.53204 0.214521 4.73569
5.55366 0.219734 4.81846
5.57631 0.224976 4.90323
5.58764 0.227619 4.94711
5.59985 0.230024 4.97499
5.61219 0.232682 5.01986
5.62453 0.235339 5.06473
5.63083 0.237926 5.10465
5.63814 0.240528 5.14557
5.64545 0.243129 5.18648
5.66586 0.246914 5.24027
5.67606 0.248306 5.26718
5.68439 0.250937 5.31009
5.69674 0.254623 5.35694
5.70508 0.257283 5.40185
5.71039 0.259886 5.44278
5.72779 0.262658 5.49561
5.74118 0.266403 5.54646
5.76046 0.268937 5.58328
5.77816 0.275286 5.67507
5.78852 0.277989 5.72296
5.80393 0.281792 5.77779
5.80422 0.283354 5.81577
5.82553 0.286946 5.85656
5.83995 0.290749 5.91141
5.85234 0.29351 5.96328
5.85465 0.296115 6.00423
5.87815 0.301075 6.06999
5.87744 0.302653 6.10898
5.89187 0.306471 6.16482
5.91723 0.310163 6.21258
5.92461 0.313898 6.26248
5.93601 0.316689 6.31636
5.95448 0.321593 6.37815
5.96388 0.324371 6.43105
5.97227 0.32812 6.48194
5.99177 0.332083 6.54774
6.01009 0.335691 6.58955
6.02252 0.33954 6.64741
6.03496 0.34239 6.70528
6.04943 0.347297 6.76711
5.2625 0.179957 3.60608
5.27075 0.182439 3.63898
5.26994 0.18381 3.66397
5.27516 0.185236 3.69292
5.29146 0.188801 3.73175
5.29458 0.189035 3.74772
5.2988 0.191476 3.77766
5.32113 0.194097 3.82046
5.3143 0.195427 3.84249
5.34066 0.199119 3.89025
5.34208 0.201947 3.9462
5.34218 0.203139 3.95918
5.36575 0.208232 4.03394
5.38328 0.21227 4.10476
5.39277 0.216211 4.16864
5.41322 0.221084 4.22842
5.42977 0.225152 4.30125
5.45415 0.228875 4.35101
5.46154 0.232639 4.40291
5.4771 0.237723 4.47673
5.55942 0.258207 4.78285
5.70179 0.297645 5.35827
5.72651 0.304048 5.454
5.86478 0.343295 6.01646
5.94111 0.364813 6.32461
5.26466 0.227202 3.62237
5.27783 0.229518 3.64424
5.30477 0.237334 3.76793
5.31503 0.239844 3.80282
5.31323 0.241231 3.82882
5.32862 0.244989 3.88066
5.33888 0.2485 3.91553
5.36969 0.256046 4.0212
5.40888 0.267356 4.17876
5.41815 0.269882 4.21466
5.4697 0.283879 4.41909
5.47295 0.286365 4.45204
5.49242 0.291269 4.51382
5.50798 0.296353 4.58764
5.51728 0.298938 4.62754
5.52456 0.301481 4.66445
5.5389 0.305121 4.7083
5.56267 0.312614 4.81002
5.56593 0.315129 4.84496
5.58028 0.3188 4.89081
5.58958 0.321385 4.9307
5.60092 0.325028 4.97457
5.61539 0.32895 5.03741
5.63479 0.333706 5.0892
5.64311 0.336336 5.13211
5.6484 0.338895 5.17004
5.65773 0.342539 5.21392
5.67398 0.345016 5.24676
5.68231 0.348646 5.28965
5.69265 0.352319 5.33553
5.69796 0.354908 5.37545
5.7083 0.358581 5.42133
5.72168 0.362296 5.47018
5.73505 0.366012 5.51903
5.76167 0.372221 5.60175
5.77001 0.375881 5.64664
5.7834 0.379626 5.69749
5.78772 0.38226 5.74042
5.80213 0.386034 5.79327
5.80544 0.389638 5.83419
5.82978 0.393286 5.87896
5.84217 0.397047 5.93082
5.85154 0.400765 5.9797
5.86496 0.40457 6.03455
5.87635 0.409331 6.0864
5.8827 0.412007 6.13232
5.91846 0.420476 6.23294
5.92987 0.424267 6.28681
5.93926 0.42803 6.33869
5.95773 0.432934 6.40048
5.97319 0.437826 6.4613
5.9826 0.441603 6.51418
5.32441 0.32148 3.84555
5.34848 0.33155 3.98624
5.37002 0.3376 4.058
5.38745 0.342431 4.1148
5.39191 0.34633 4.17572
5.40723 0.350926 4.21654
5.41751 0.353466 4.25343
5.42265 0.354744 4.27238
5.43293 0.358284 4.30925
5.44422 0.361853 4.34812
5.4515 0.36438 4.38403
5.45474 0.366851 4.41598
5.46101 0.36938 4.4519
5.4703 0.372935 4.48978
5.4835 0.375325 4.51665
5.49682 0.378937 4.5585
5.49806 0.38141 4.59046
5.50837 0.383995 4.63035
5.51968 0.387593 4.67122
5.53804 0.39229 4.71901
5.53324 0.393693 4.74603
5.56382 0.400796 4.82171
5.57111 0.403368 4.86062
5.56833 0.405799 4.88961
5.59276 0.41061 4.94536
5.60409 0.414253 4.98923
5.6226 0.420231 5.05601
5.63218 0.426364 5.13286
5.65763 0.432218 5.19159
5.64983 0.433609 5.21763
5.67441 0.440731 5.29435
5.69913 0.448119 5.38907
5.7168 0.455423 5.47784
5.7496 0.464968 5.58346
5.88994 0.514346 6.15475
5.4019 0.38723 4.16904
5.41541 0.393226 4.23686
5.47 0.411295 4.44621
5.52364 0.430467 4.66255
5.6402 0.472338 5.13112
5.64853 0.475968 5.17401
5.65988 0.479641 5.21987
5.79394 0.528476 5.75421
5.82075 0.53804 5.86088
5.98384 0.599867 6.53083
5.2647 0.380081 3.6131
5.28018 0.385003 3.67592
5.28129 0.386209 3.6899
5.29778 0.392159 3.75469
5.30099 0.394571 3.78264
5.31326 0.398095 3.8185
5.3195 0.400564 3.85042
5.32876 0.403061 3.88432
5.3349 0.405322 3.90224
5.36067 0.414813 4.00392
5.37016 0.419754 4.06778
5.48375 0.462701 4.54136
5.52787 0.476844 4.68783
5.53515 0.480401 4.72573
5.55263 0.486321 4.78852
5.56194 0.489921 4.8294
5.58158 0.49815 4.91315
5.6002 0.50535 4.99491
5.64542 0.520699 5.15536
5.65375 0.52533 5.19824
5.67341 0.532618 5.286
5.68981 0.538375 5.33779
5.70734 0.545398 5.40757
5.74573 0.562093 5.59106
5.75998 0.565571 5.6239
5.77265 0.573865 5.7117
5.80044 0.583398 5.81636
5.82624 0.593933 5.92102
5.84887 0.602145 6.00374
5.89144 0.622178 6.21015
5.98398 0.655068 6.54402
5.25964 0.419903 3.60055
5.26084 0.422302 3.62751
5.30721 0.438932 3.80694
5.34837 0.454181 3.96042
5.36389 0.460176 4.02823
5.37115 0.463674 4.06212
5.98663 0.990918 6.59903
5.99706 0.997739 6.65486
5.99639 1.00238 6.6978
6.00985 1.01027 6.75859
6.03862 1.02474 6.85918
6.04703 1.03155 6.91402
5.86401 0.987869 6.11794
5.87843 0.995687 6.17372
5.88784 1.00246 6.22655
5.89823 1.01023 6.27837
5.90461 1.01596 6.32824
5.9283 1.02828 6.41789
5.93972 1.0361 6.4737
6.00481 1.07412 6.74768
6.0213 1.08305 6.81144
6.04082 1.09306 6.88015
6.05027 1.09991 6.93799
5.75362 0.983286 5.66877
5.75895 0.988918 5.71166
5.75622 0.992438 5.74663
5.77163 1.00023 5.8004
5.78488 1.0057 5.83323
5.79526 1.01244 5.88306
5.80161 1.01911 5.92892
5.81501 1.02589 5.98172
5.85713 1.04803 6.1281
5.86852 1.05479 6.17992
5.88497 1.06365 6.23867
5.88831 1.06932 6.28357
5.9429 1.09937 6.49174
5.95737 1.10826 6.55251
5.96879 1.11608 6.60832
5.98427 1.12499 6.67008
5.66379 0.967799 5.29463
5.66204 0.971289 5.32759
5.66232 0.975821 5.36353
5.67469 0.982537 5.41234
5.67886 0.98586 5.43427
5.69425 0.993618 5.48604
5.75933 1.03261 5.75801
5.92643 1.1304 6.4254
6.02953 1.19136 6.83177
5.11606 0.713571 3.09721
5.12821 0.716858 3.11708
5.14163 0.724662 3.17187
5.14583 0.727043 3.1978
5.14619 0.732753 3.24572
5.15734 0.736041 3.26559
5.16173 0.741793 3.31648
5.57726 0.973856 4.95714
5.59477 0.984834 5.02386
5.60006 0.989393 5.06176
5.60635 0.994965 5.10063
5.61366 1.00057 5.1415
5.62199 1.0072 5.18434
5.62528 1.01176 5.22226
5.63952 1.0172 5.25307
5.6549 1.02493 5.30285
5.65618 1.02948 5.33978
5.67586 1.0428 5.42944
5.71889 1.06376 5.56383
5.72926 1.07146 5.61164
5.73458 1.07708 5.65353
5.74494 1.08378 5.70135
5.75532 1.09152 5.75117
5.786 1.10581 5.83974
5.79638 1.11354 5.88955
5.80777 1.12129 5.94036
5.81815 1.12802 5.99019
5.82551 1.13471 6.03704
5.83994 1.14354 6.09381
5.8584 1.15342 6.15353
5.87368 1.15995 6.19033
5.89316 1.16987 6.25304
5.90558 1.17768 6.30784
5.90187 1.18224 6.3458
5.91732 1.19212 6.40555
5.94085 1.20312 6.47422
5.96656 1.21749 6.56783
5.99548 1.23626 6.68835
6.01197 1.2462 6.75208
6.02544 1.25609 6.81284
6.03385 1.2639 6.86767
5.17214 0.855439 3.35973
5.24719 0.893379 3.62864
5.25433 0.89664 3.64654
5.25453 0.899024 3.6725
5.25272 0.902396 3.69747
5.26398 0.90689 3.73133
5.26317 0.910276 3.75728
5.27656 0.91702 3.80809
5.10524 0.880708 3.10482
5.10641 0.883048 3.12778
5.11363 0.887472 3.15667
5.12779 0.891772 3.1775
5.12798 0.894127 3.20147
5.14021 0.899576 3.2323
5.14844 0.904014 3.26217
5.169 0.915094 3.33586
5.16416 0.916408 3.35688
5.16838 0.91982 3.38481
5.1766 0.924257 3.41468
5.20021 0.936409 3.49334
5.35002 1.03166 4.12388
5.40256 1.06261 4.32506
5.52645 1.14308 4.834
5.53375 1.14865 4.87287
5.58323 1.1805 5.06705
5.59987 1.19373 5.15074
5.61223 1.20142 5.19754
5.65447 1.2278 5.35986
5.67088 1.23757 5.4126
5.67821 1.2442 5.45545
5.68453 1.25083 5.49831
5.73087 1.2794 5.67356
5.74326 1.28815 5.72435
5.75565 1.29589 5.77514
5.80509 1.32765 5.96333
5.81648 1.3364 6.01412
5.83695 1.3473 6.07581
5.84633 1.35503 6.12563
5.86984 1.36701 6.19229
5.87319 1.37367 6.23717
5.88258 1.38243 6.28898
5.11006 0.932285 3.07602
5.10412 0.932407 3.08406
5.11636 0.937872 3.11589
5.11855 0.94124 3.14083
5.12074 0.943608 3.16578
5.135 0.950086 3.19858
5.1402 0.953482 3.2255
5.13637 0.95581 3.2475
5.15657 0.96118 3.27327
5.16076 0.965561 3.29917
5.15894 0.967903 3.32216
5.16818 0.97237 3.35403
5.17943 0.977835 3.38586
5.18493 0.986807 3.4517
5.19738 0.995686 3.51148
5.2211 1.01006 3.6051
5.22925 1.01333 3.624
5.24271 1.02323 3.68476
5.24694 1.02667 3.71468
5.26646 1.03866 3.78236
5.27068 1.0421 3.81228
5.27682 1.04536 3.83019
5.29535 1.05637 3.8989
5.30058 1.06182 3.92978
5.30885 1.06634 3.96466
5.33878 1.08612 4.08616
5.38002 1.1125 4.24848
5.3883 1.11904 4.28532
5.40486 1.13011 4.35805
5.41415 1.13666 4.39588
5.45399 1.15628 4.50631
5.45322 1.16072 4.53625
5.4605 1.16626 4.57312
5.47282 1.17387 4.61492
5.47609 1.17839 4.64983
5.50791 1.19696 4.75734
5.51521 1.20354 4.79619
5.52755 1.21118 4.83999
5.53183 1.21672 4.87688
5.54216 1.22335 4.91971
5.55348 1.23098 4.96252
5.56167 1.23534 4.98739
5.57201 1.24299 5.03121
5.58939 1.25171 5.08096
5.58965 1.25622 5.11489
5.60302 1.26492 5.16267
5.61437 1.27259 5.20848
5.64399 1.28778 5.29004
5.65535 1.29547 5.33685
5.65763 1.30101 5.37375
5.67101 1.30974 5.42353
5.6854 1.31848 5.4743
5.68871 1.32507 5.51418
5.70108 1.33379 5.56297
5.72441 1.34241 5.60567
5.7247 1.34797 5.64359
5.73709 1.35672 5.69437
5.75049 1.36549 5.74715
5.7538 1.37209 5.78803
5.7966 1.39262 5.89242
5.79993 1.39925 5.9353
5.8083 1.40695 5.98313
5.82474 1.4178 6.04086
5.84018 1.42765 6.0986
5.84956 1.43638 6.14841
5.87005 1.44731 6.2121
5.10032 0.979731 3.10539
5.11063 0.986345 3.14722
5.13009 0.996218 3.20694
5.13027 0.998558 3.22991
5.14791 1.0118 3.31459
5.16007 1.01609 3.33444
5.16226 1.01946 3.35937
5.24081 1.07236 3.69305
5.2728 1.09326 3.82251
5.30248 1.10957 3.91206
5.30571 1.11401 3.94197
5.30994 1.11845 3.97188
5.32725 1.12604 4.01264
5.35015 1.14477 4.13021
5.35741 1.15027 4.16408
5.37373 1.15888 4.20583
5.38402 1.16542 4.24266
5.38625 1.16987 4.27359
5.39856 1.17646 4.3134
5.39766 1.17766 4.32739
5.40594 1.18419 4.36324
5.41925 1.19179 4.40403
5.42653 1.19733 4.4409
5.43078 1.20281 4.47379
5.4421 1.21041 4.5146
5.45239 1.21698 4.55343
5.46359 1.22136 4.57928
5.48195 1.23104 4.62601
5.48118 1.2345 4.65697
5.48947 1.24105 4.69481
5.50885 1.25077 4.74353
5.50305 1.25417 4.77053
5.51539 1.26181 4.81433
5.53666 1.26931 4.84906
5.53489 1.27377 4.88001
5.54421 1.28037 4.92085
5.5636 1.29013 4.97257
5.56285 1.2946 5.00451
5.57317 1.30223 5.04733
5.59749 1.31182 5.08801
5.59875 1.31634 5.12293
5.59901 1.32184 5.15686
5.62446 1.33369 5.2155
5.61768 1.33711 5.2435
5.63306 1.34584 5.29326
5.65248 1.35664 5.34796
5.66773 1.36312 5.38076
5.67909 1.3718 5.42755
5.69448 1.38055 5.47831
5.6867 1.38398 5.50732
5.69907 1.3927 5.55611
5.72557 1.40564 5.62073
5.72383 1.41016 5.65568
5.74817 1.42079 5.69934
5.77193 1.43825 5.79892
5.78231 1.44698 5.84872
5.7937 1.45573 5.89951
5.80409 1.46446 5.94931
5.81835 1.47197 5.98409
5.83611 1.48842 6.08273
5.85286 1.50587 6.18136
5.10617 1.03238 3.08157
5.12061 1.04121 3.13833
5.12178 1.04455 3.16128
5.13202 1.05 3.19213
5.14655 1.06003 3.26188
5.1588 1.06651 3.29469
5.17023 1.07533 3.35049
5.17142 1.0787 3.37543
5.17353 1.0809 3.38938
5.1717 1.08324 3.41237
5.17894 1.0887 3.44323
5.18315 1.09311 3.47114
5.19139 1.09856 3.502
5.22708 1.11587 3.59149
5.22124 1.1172 3.61352
5.23451 1.1237 3.64833
5.23571 1.1281 3.67526
5.25403 1.13569 3.71601
5.26026 1.14115 3.74689
5.27666 1.15091 3.79863
5.28089 1.15535 3.82853
5.27707 1.1577 3.85253
5.29137 1.16527 3.89132
5.3127 1.17391 3.93503
5.30386 1.17521 3.95508
5.32711 1.18368 3.98779
5.33537 1.18918 4.02165
5.32452 1.19048 4.04171
5.34688 1.20016 4.08841
5.35112 1.20561 4.1193
5.34831 1.208 4.14529
5.37169 1.21871 4.19396
5.37985 1.22301 4.21484
5.37403 1.22537 4.23885
5.40446 1.23718 4.29446
5.40568 1.24161 4.32338
5.40994 1.24711 4.35728
5.4162 1.25262 4.39215
5.43255 1.26127 4.43691
5.44072 1.26659 4.45877
5.44699 1.27212 4.49465
5.46458 1.28625 4.57131
5.47086 1.29179 4.60819
5.48319 1.29942 4.65099
5.48544 1.3049 4.6839
5.50168 1.31135 4.71468
5.51803 1.32103 4.76142
5.51325 1.32445 4.78941
5.52658 1.33209 4.8332
5.54397 1.34282 4.88292
5.54925 1.34836 4.91981
5.54837 1.3506 4.93578
5.58012 1.37002 5.03327
5.59145 1.37767 5.07708
5.59877 1.38527 5.11791
5.61112 1.39395 5.1647
5.7318 1.483 5.64454
5.73612 1.49061 5.6864
5.77719 1.51765 5.82571
5.84124 1.56757 6.09252
5.08304 1.09705 3.05778
5.08623 1.10042 3.08271
5.10349 1.10791 3.11647
5.10459 1.1101 3.12943
5.11482 1.11553 3.15928
5.12806 1.122 3.19109
5.12222 1.1233 3.21112
5.12843 1.12771 3.23901
5.13363 1.1321 3.26591
5.14295 1.13972 3.30773
5.1542 1.14618 3.33956
5.29885 1.2531 3.94697
5.39283 1.3248 4.33525
5.41767 1.34541 4.44477
5.43312 1.35627 4.50351
5.44644 1.36488 4.54528
5.45171 1.37139 4.58015
5.46101 1.37798 4.61999
5.47535 1.38763 4.66475
5.48364 1.39419 4.70259
5.49195 1.40178 4.74242
5.50717 1.40919 4.7712
5.50843 1.4137 4.80513
5.52278 1.42335 4.84988
5.52504 1.42887 4.88479
5.53738 1.43751 4.92858
5.56106 1.45481 5.01715
5.56723 1.45913 5.03905
5.57857 1.46779 5.08384
5.59192 1.47746 5.1296
5.60427 1.48613 5.17539
5.61059 1.49373 5.21623
5.62093 1.50239 5.26103
5.63128 1.51106 5.30683
5.65056 1.51958 5.34257
5.75707 1.6093 5.8005
5.18386 1.22237 3.42022
5.20144 1.23548 3.4959
5.21892 1.2474 3.5586
5.21711 1.25075 3.58257
5.2345 1.26151 3.63428
5.25925 1.27994 3.73184
5.26548 1.28538 3.76172
5.28712 1.30061 3.84534
5.31291 1.32011 3.94787
5.32117 1.32661 3.98172
5.36038 1.35693 4.13999
5.37894 1.371 4.21266
5.39963 1.38833 4.30326
5.40992 1.39588 4.34107
5.41518 1.40238 4.37494
5.42649 1.40997 4.41475
5.43276 1.41648 4.44961
5.45024 1.4294 4.5123
5.47085 1.44557 4.59191
5.04894 1.1778 2.90382
5.17772 1.27003 3.39655
5.18192 1.27442 3.42346
5.2212 1.30586 3.58972
5.22944 1.31233 3.62157
5.24071 1.31983 3.65538
5.2573 1.33397 3.73305
5.26856 1.34146 3.76686
5.27279 1.3459 3.79677
5.27803 1.35236 3.82764
5.29131 1.35989 3.86443
4.87645 1.10221 2.18214
4.87273 1.10576 2.21912
4.89211 1.11547 2.26784
4.89032 1.11889 2.2958
4.96551 1.17008 2.58152
4.96768 1.17342 2.60446
4.97688 1.17879 2.63031
4.99312 1.18624 2.66108
4.99228 1.18855 2.68206
5.00752 1.196 2.71284
5.01681 1.20355 2.75066
5.07972 1.25022 3.00053
5.08811 1.25897 3.05134
5.16552 1.31957 3.36491
5.16781 1.32513 3.40281
5.17001 1.32953 3.42974
5.17523 1.33495 3.45862
5.17945 1.34037 3.48651
5.19894 1.35431 3.55117
5.20417 1.35974 3.58005
5.21955 1.36948 3.6308
5.21975 1.37386 3.65674
5.24007 1.38446 3.69743
5.23524 1.3868 3.72044
5.25656 1.3974 3.76212
5.25577 1.4008 3.78908
5.27096 1.40816 3.81386
5.28525 1.41671 3.85163
5.28848 1.42216 3.88153
5.29271 1.4276 3.91143
5.30097 1.43409 3.94527
5.30219 1.43952 3.97419
5.31538 1.44487 3.99801
5.33191 1.45889 4.06769
5.34521 1.46846 4.10645
5.35046 1.47394 4.13934
5.34666 1.47833 4.1653
5.36097 1.48692 4.20607
5.3792 1.49535 4.23582
5.38245 1.50083 4.26771
5.39475 1.50941 4.3075
5.40101 1.51691 4.34135
5.40225 1.52236 4.37226
5.41154 1.52992 4.41008
5.42285 1.5385 4.44988
5.46722 1.57612 4.62801
5.18926 1.39092 3.45669
5.23276 1.42979 3.65181
5.25639 1.447 3.73439
5.26464 1.45448 3.76722
5.27088 1.45994 3.7981
5.27813 1.4664 3.82995
4.74079 1.11508 1.6949
4.74494 1.11836 1.71383
4.7531 1.12268 1.7357
4.76133 1.12812 1.76557
4.77894 1.14129 1.84525
4.78424 1.14686 1.88413
4.80552 1.15639 1.92084
4.81871 1.16275 1.94565
4.81785 1.16402 1.96364
4.81412 1.16754 1.99862
4.8377 1.18266 2.07523
4.85507 1.19236 2.12296
4.86038 1.19896 2.16383
4.88199 1.21411 2.24245
4.8863 1.21972 2.28334
4.93033 1.24768 2.41761
4.93048 1.25098 2.43757
4.94393 1.26184 2.49631
4.94827 1.26849 2.54019
4.97254 1.27899 2.57485
4.96961 1.27912 2.58387
4.987 1.28988 2.63559
4.98029 1.29445 2.67358
4.99871 1.30625 2.72827
5.00783 1.31047 2.74414
5.01102 1.31483 2.76806
5.02843 1.32661 2.82176
5.04284 1.33739 2.8745
5.06136 1.35139 2.94316
5.07377 1.36217 2.99592
5.08098 1.36756 3.02279
5.08718 1.37296 3.04966
5.08929 1.37516 3.06362
5.09366 1.38388 3.11246
5.12756 1.40859 3.22886
5.13889 1.41823 3.27264
5.14147 1.43034 3.34745
5.1528 1.43998 3.39122
5.17349 1.4583 3.48081
5.19198 1.47223 3.54447
5.2136 1.49041 3.62505
5.23592 1.50202 3.66672
5.22607 1.5033 3.68578
5.2303 1.50875 3.71567
5.2478 1.52371 3.78132
5.25193 1.52696 3.79825
5.26925 1.53755 3.83896
5.27146 1.54196 3.86689
5.27871 1.54945 3.89973
5.28899 1.55797 3.93553
5.29121 1.5624 3.96445
5.30249 1.57194 4.00123
5.31266 1.57725 4.02308
4.55875 1.0454 0.899197
4.56087 1.04664 0.915165
4.56298 1.04886 0.930118
4.5753 1.05547 0.971933
4.57342 1.0557 0.986946
4.58757 1.06098 1.00676
4.57967 1.06018 1.01984
4.5828 1.06243 1.03678
4.59187 1.06557 1.04667
4.59199 1.06681 1.06265
4.5871 1.06702 1.07669
4.60526 1.07331 1.09746
4.59737 1.07253 1.11153
4.6015 1.07578 1.12846
4.6241 1.08793 1.20712
4.62735 1.09241 1.24003
4.63042 1.09354 1.24899
4.63957 1.09783 1.26886
4.79092 1.19717 1.83733
4.8003 1.20589 1.88614
4.80546 1.20919 1.90705
4.81477 1.21679 1.94788
4.84366 1.23749 2.06337
4.91485 1.29269 2.35005
4.93547 1.30888 2.43067
4.93965 1.31321 2.45358
4.95101 1.3229 2.50036
4.96129 1.33044 2.53717
4.95744 1.33173 2.55618
4.96261 1.33606 2.57908
4.97683 1.34348 2.60787
4.98202 1.34885 2.63276
5.06365 1.41887 2.97515
5.07488 1.42529 3.00398
5.07707 1.42966 3.0289
5.08326 1.43504 3.05478
5.0935 1.44248 3.08459
5.13954 1.49541 3.3515
5.14878 1.50286 3.38232
5.16405 1.51137 3.41709
5.18464 1.52949 3.49367
5.1788 1.5318 3.51469
5.23098 1.56804 3.66778
5.22615 1.57137 3.68977
5.23339 1.57784 3.72162
5.24566 1.58735 3.75639
5.2509 1.5938 3.78726
4.45981 1.04269 0.508929
5.23017 1.64432 3.68566
5.22937 1.6487 3.7116
4.42815 1.06839 0.419774
4.43026 1.06959 0.433743
4.43944 1.07393 0.456613
4.43955 1.07415 0.47161
4.452 1.08201 0.530408
4.46207 1.08515 0.540287
4.46629 1.08858 0.569209
4.47843 1.09284 0.587057
4.48065 1.09526 0.616008
4.48477 1.0975 0.631946
4.49084 1.10061 0.639856
4.49796 1.10286 0.656771
4.49518 1.10429 0.685775
4.50131 1.10752 0.701683
4.50543 1.10975 0.717621
4.50453 1.11096 0.731612
4.50259 1.11107 0.738626
4.51673 1.11632 0.756444
4.52698 1.1208 0.789305
4.53628 1.12739 0.829143
4.54853 1.13287 0.861974
4.54464 1.13308 0.876002
4.55177 1.13734 0.893888
4.55 1.13878 0.923884
4.56633 1.14741 0.966639
4.61369 1.17701 1.14387
4.61976 1.17915 1.15379
4.62389 1.1824 1.17072
4.61198 1.17959 1.18285
4.63027 1.18813 1.22059
4.6324 1.19138 1.23753
4.63748 1.19353 1.24746
4.63961 1.19578 1.26441
4.63471 1.19599 1.27845
4.64587 1.20129 1.29929
4.65 1.20454 1.31621
4.65414 1.2068 1.33415
4.65627 1.20905 1.3511
4.66348 1.21445 1.37797
4.67777 1.22201 1.41676
4.67389 1.22324 1.43177
4.67402 1.22449 1.44875
4.68411 1.22866 1.46062
4.68625 1.23092 1.47857
4.68938 1.23419 1.4965
4.69051 1.23644 1.51346
4.71071 1.24479 1.53819
4.70194 1.24626 1.56924
4.71631 1.25496 1.61701
4.77678 1.29477 1.80899
4.7648 1.29182 1.81212
4.77211 1.29941 1.85196
4.78328 1.30474 1.8748
4.79547 1.31109 1.89862
4.7936 1.31334 1.9156
4.80578 1.31968 1.93942
4.81488 1.32387 1.95229
4.81101 1.32512 1.9693
4.81818 1.32944 1.99119
4.82334 1.33375 2.01209
4.82248 1.33602 2.03006
4.82362 1.3393 2.04901
4.83574 1.34453 2.06484
4.84908 1.35317 2.10862
4.85525 1.35749 2.13051
4.85539 1.36077 2.14947
4.86157 1.3651 2.17236
4.86472 1.3694 2.19227
4.87384 1.37361 2.20715
4.88 1.37793 2.22904
4.88217 1.38224 2.24996
4.88633 1.38555 2.27088
4.89552 1.39191 2.29572
4.90269 1.39725 2.31859
4.90586 1.40057 2.34052
4.9193 1.4124 2.39725
4.92046 1.41571 2.4182
4.92363 1.42004 2.44012
4.92479 1.42335 2.46106
4.92695 1.42766 2.48198
4.94108 1.43391 2.49979
4.94326 1.43725 2.52272
4.94844 1.44259 2.54561
4.95563 1.44795 2.57048
4.96884 1.45535 2.59827
4.97403 1.46071 2.62216
4.97728 1.46621 2.65606
4.98548 1.47258 2.6819
4.98364 1.47488 2.70189
4.9848 1.47921 2.72382
4.99703 1.48663 2.75262
5.00925 1.49405 2.78142
5.03815 1.52075 2.89782
5.04736 1.52716 2.92566
5.04753 1.53049 2.94762
5.05364 1.5347 2.96251
5.06789 1.54317 2.99428
5.06806 1.54751 3.01722
5.08668 1.56569 3.09782
5.0939 1.5721 3.12568
5.10404 1.57737 3.14452
4.41368 1.10442 0.353341
4.42402 1.11007 0.398186
4.45994 1.12784 0.518669
4.45427 1.12948 0.561693
4.46756 1.13605 0.600501
4.47591 1.14172 0.64636
4.48721 1.14829 0.685183
4.55931 1.19132 0.960041
4.56462 1.19691 0.999924
4.58101 1.20667 1.05166
4.59016 1.20994 1.07055
4.58733 1.21227 1.09254
4.59659 1.21778 1.12739
4.60385 1.22328 1.16126
4.60498 1.22553 1.17822
4.61306 1.22867 1.18811
4.61619 1.23092 1.20506
4.63349 1.24048 1.24379
4.62558 1.23968 1.25687
4.62972 1.24194 1.2748
4.64394 1.24936 1.30359
4.64206 1.2506 1.31959
4.66225 1.25894 1.34332
4.65736 1.25917 1.35835
4.66451 1.26344 1.37724
4.66583 1.26806 1.41917
4.66896 1.27133 1.4371
4.69575 1.29083 1.53962
4.70592 1.29615 1.56147
4.72858 1.31342 1.64805
4.74531 1.32981 1.7427
4.75039 1.33197 1.75363
4.78419 1.3555 1.85804
4.78032 1.35675 1.87505
4.77738 1.35686 1.88208
4.78254 1.36116 1.90298
4.80518 1.37839 1.98656
4.83193 1.39882 2.08407
4.84227 1.40846 2.12786
4.95757 1.50277 2.55765
4.94969 1.50401 2.57369
4.95379 1.5072 2.58662
4.97304 1.51666 2.61834
4.96934 1.52225 2.65829
4.98257 1.53068 2.68807
5.00108 1.54565 2.75372
5.01263 1.5607 2.82542
5.00978 1.564 2.84539
5.0179 1.56823 2.86127
5.03517 1.57772 2.895
5.03132 1.58102 2.91499
5.03249 1.58536 2.93792
4.5245 1.20573 0.851075
4.53575 1.21221 0.883899
4.55803 1.22173 0.919595
4.78572 1.40247 1.92334
4.79081 1.40564 1.93526
4.79496 1.40893 1.95518
4.81719 1.41935 1.98386
4.82335 1.42465 2.00474
4.82349 1.42693 2.02371
4.82766 1.43124 2.04462
4.83583 1.43658 2.06748
4.90387 1.49446 2.33215
4.90826 1.50422 2.38398
4.92178 1.51822 2.45168
4.94126 1.53312 2.51332
4.95146 1.5395 2.53915
4.95781 1.54917 2.58497
4.95696 1.55247 2.60493
4.97328 1.56307 2.64565
4.97746 1.56842 2.66954
4.98566 1.5748 2.69539
4.98784 1.57913 2.71831
4.99604 1.58551 2.74416
4.9952 1.58882 2.76512
5.00834 1.5951 2.78393
5.00851 1.59942 2.80587
5.0147 1.60479 2.83075
5.02492 1.61219 2.85857
4.97875 1.64388 2.70042
4.99399 1.65333 2.73117
-4.01841 -0.405411 1.84842
-4.01965 -0.404884 1.81642
-4.02276 -0.40509 1.80244
-4.03085 -0.405261 1.79051
-4.02997 -0.405499 1.7745
-4.0411 -0.405757 1.75659
-4.04932 -0.406181 1.72765
-4.04046 -0.405469 1.70857
-4.06151 -0.406542 1.70274
-4.06162 -0.406764 1.68775
-4.05178 -0.406082 1.66666
-4.06379 -0.406103 1.66475
-4.07188 -0.406275 1.65281
-4.06303 -0.406563 1.63375
-4.08009 -0.406669 1.62587
-4.0863 -0.407079 1.59792
-4.07446 -0.406399 1.57682
-4.08659 -0.406656 1.55891
-4.10177 -0.408001 1.53504
-4.0011 -0.37585 1.88686
-4.0136 -0.375818 1.82094
-4.0187 -0.376022 1.80698
-4.01981 -0.376243 1.79199
-4.02796 -0.376533 1.77206
-4.02908 -0.376754 1.75707
-4.03318 -0.375959 1.74308
-4.03629 -0.376164 1.72911
-4.04239 -0.376352 1.71615
-4.05048 -0.376524 1.70422
-4.05153 -0.376627 1.69722
-4.05265 -0.376863 1.68123
-4.05276 -0.377085 1.66624
-4.06284 -0.37724 1.65531
-4.06296 -0.377462 1.64031
-4.07105 -0.377634 1.62838
-4.06712 -0.377785 1.61835
-4.07621 -0.377941 1.60742
-4.07333 -0.378195 1.5904
-4.07943 -0.378383 1.57744
-4.08154 -0.378604 1.56246
-4.08664 -0.378778 1.5505
-4.09579 -0.379067 1.53057
-4.00381 -0.183528 1.90704
-4.00697 -0.183852 1.88506
-4.01208 -0.184055 1.8711
-4.02128 -0.184448 1.84417
-4.02452 -0.184905 1.8132
-4.02563 -0.185126 1.79821
-4.0227 -0.185262 1.78919
-4.03179 -0.185433 1.77726
-4.0329 -0.185654 1.76227
-4.04797 -0.185776 1.75338
-4.0502 -0.186234 1.7224
-4.05629 -0.186407 1.71045
-4.05237 -0.186558 1.70042
-4.04949 -0.187812 1.68341
-4.06456 -0.186934 1.67451
-4.06368 -0.188172 1.65852
-4.0618 -0.18841 1.64251
-4.07487 -0.188534 1.63361
-4.06702 -0.188836 1.61355
-4.07704 -0.188873 1.61063
-4.07218 -0.189143 1.59259
-4.08325 -0.189283 1.58267
-4.08138 -0.189521 1.56666
-4.0805 -0.189759 1.55066
-4.28683 -0.203062 0.711292
-4.00989 -0.151735 1.89261
-4.01699 -0.151922 1.87966
-4.02321 -0.152347 1.85071
-4.02333 -0.152584 1.83471
-4.02937 -0.152653 1.82976
-4.0275 -0.152906 1.81275
-4.03371 -0.153331 1.7838
-4.0438 -0.153487 1.77287
-4.03893 -0.153757 1.75484
-4.04509 -0.154063 1.73389
-4.05318 -0.154235 1.72195
-4.05928 -0.154423 1.709
-4.05951 -0.155882 1.67801
-4.06959 -0.156038 1.66709
-4.06673 -0.156306 1.64907
-4.06978 -0.156393 1.64309
-4.07886 -0.156549 1.63216
-4.08507 -0.156959 1.60421
-4.08232 -0.15745 1.57119
-4.09041 -0.157622 1.55926
-4.09345 -0.157708 1.55328
-4.09656 -0.157913 1.5393
-4.50336 -0.182791 -0.157497
-4.0057 -0.127385 1.91622
-4.00595 -0.127873 1.88322
-4.00712 -0.128213 1.86023
-4.01533 -0.129622 1.83231
-4.02266 -0.130268 1.78837
-4.02677 -0.130472 1.7744
-4.03293 -0.130779 1.75345
-4.04711 -0.131124 1.72956
-4.04934 -0.131581 1.69858
-4.05151 -0.13292 1.67561
-4.07068 -0.132232 1.65374
-4.06693 -0.133723 1.62073
-4.07009 -0.134047 1.59876
-4.08926 -0.134358 1.57691
-4.09348 -0.134785 1.54794
-4.0896 -0.135039 1.53091
-4.24825 -0.14606 0.915185
-4.24831 -0.146179 0.907187
-4.25761 -0.146764 0.86726
-4.26508 -0.147677 0.805321
-4.27339 -0.148278 0.764387
-4.28963 -0.14874 0.732512
-4.29294 -0.149359 0.69054
-4.30114 -0.149738 0.664604
-4.31323 -0.149907 0.652696
-4.3084 -0.150237 0.630661
-4.3105 -0.150442 0.616678
-4.33079 -0.15099 0.578834
-4.32895 -0.151317 0.556822
-4.32806 -0.151525 0.542816
-4.35334 -0.15207 0.50501
-4.3586 -0.152569 0.471052
-4.35171 -0.152797 0.456001
-4.3719 -0.152152 0.43114
-4.36002 -0.153398 0.415067
-4.36812 -0.153584 0.402129
-4.37916 -0.152665 0.396198
-4.38737 -0.153059 0.369262
-4.39146 -0.153248 0.356294
-4.38558 -0.153475 0.341251
-4.39368 -0.153661 0.328313
-4.38479 -0.15389 0.313247
-4.39583 -0.153971 0.307331
-4.40803 -0.154347 0.281424
-4.40325 -0.15478 0.252391
-4.40435 -0.154986 0.2384
-4.4226 -0.155462 0.20554
-4.4318 -0.155855 0.178612
-4.42492 -0.156082 0.163561
-4.43602 -0.156266 0.150646
-4.44311 -0.155454 0.137685
-4.43617 -0.156577 0.129649
-4.44527 -0.155763 0.116703
-4.43638 -0.156992 0.101652
-4.45148 -0.156173 0.0887522
-4.4508 -0.156796 0.0467505
-4.48563 -0.158414 -0.0639784
-4.51054 -0.159173 -0.183796
-4.47448 -0.131159 -0.0464634
-3.98551 -0.0691097 1.93521
-4.01483 -0.0697103 1.89343
-4.01326 -0.0715554 1.83644
-4.03043 -0.0718834 1.81357
-4.03888 -0.0737657 1.75365
-4.0489 -0.0728029 1.75071
-4.05002 -0.0740241 1.73574
-4.06022 -0.0744165 1.70882
-4.07582 -0.0765748 1.62996
-4.07704 -0.0770182 1.59997
-4.08314 -0.0772063 1.58702
-4.07828 -0.0774763 1.56898
-4.0904 -0.0777192 1.55207
-4.30395 -0.0934464 0.683794
-4.31604 -0.0936153 0.671886
-4.3398 -0.0950936 0.571073
-4.34806 -0.095591 0.537138
-4.41716 -0.0986722 0.258666
-4.41727 -0.0988795 0.244668
-4.53788 -0.101915 -0.235445
-4.00664 -0.0423786 1.91597
-4.01174 -0.0425822 1.90201
-4.00196 -0.0440186 1.87295
-4.00918 -0.0444428 1.84401
-4.02723 -0.0435186 1.83813
-4.01838 -0.0448359 1.81708
-4.02847 -0.0449915 1.80616
-4.02566 -0.0463636 1.78115
-4.03773 -0.045503 1.77123
-4.04383 -0.0456911 1.75828
-4.04295 -0.0469285 1.74229
-4.05327 -0.0475578 1.69937
-4.05433 -0.0476606 1.69238
-4.05744 -0.0478805 1.6774
-4.05954 -0.0490862 1.66343
-4.06266 -0.049306 1.64846
-4.07572 -0.0484299 1.63954
-4.07385 -0.0496829 1.62254
-4.07192 -0.0498176 1.61353
-4.07614 -0.0502439 1.58456
-4.09032 -0.050589 1.56067
-4.09243 -0.0508096 1.54569
-4.09554 -0.0520145 1.53173
-4.0936 -0.0521344 1.52371
-4.10269 -0.0523055 1.51178
-4.11177 -0.0514618 1.50084
-4.11388 -0.0526823 1.48587
-4.1191 -0.0530931 1.45791
-4.11722 -0.0533314 1.4419
-4.12137 -0.0536394 1.42093
-4.12548 -0.0538437 1.40696
-4.13755 -0.053983 1.39706
-4.13368 -0.0552226 1.38104
-4.14089 -0.055632 1.3531
-4.13906 -0.0559739 1.33009
-4.15313 -0.0561118 1.32019
-4.16133 -0.0564908 1.29426
-4.15259 -0.0580005 1.26021
-4.17469 -0.0571918 1.24636
-4.17181 -0.0574309 1.23034
-4.17203 -0.05886 1.20136
-4.18921 -0.058203 1.17748
-4.19126 -0.0583052 1.17049
-4.18638 -0.0595456 1.15447
-4.18849 -0.0597513 1.14049
-4.20489 -0.0605242 1.08762
-4.20893 -0.0606101 1.08165
-4.21702 -0.0607819 1.06971
-4.22113 -0.0609863 1.05574
-4.21037 -0.0624678 1.02368
-4.22145 -0.0616228 1.01275
-4.22755 -0.0618108 0.999794
-4.22361 -0.062932 0.99178
-4.24201 -0.0627036 0.938908
-4.24511 -0.0628938 0.925932
-4.24328 -0.0642208 0.903935
-4.24538 -0.0644266 0.889952
-4.25846 -0.0635801 0.879037
-4.26356 -0.0637689 0.866076
-4.26178 -0.0651995 0.83708
-4.27281 -0.0642508 0.833148
-4.27391 -0.0644573 0.819158
-4.27004 -0.065697 0.803145
-4.28511 -0.0648342 0.793244
-4.28233 -0.0662655 0.76424
-4.29342 -0.0654352 0.75231
-4.29247 -0.0655396 0.745303
-4.30299 -0.0675536 0.676403
-4.30825 -0.0680532 0.642445
-4.31434 -0.0682413 0.629492
-4.32943 -0.0673933 0.618592
-4.32255 -0.0686351 0.602556
-4.32481 -0.0691518 0.567576
-4.33202 -0.0695463 0.540632
-4.33511 -0.0697366 0.527657
-4.34321 -0.0689233 0.514704
-4.34831 -0.0691121 0.501743
-4.3604 -0.069281 0.489835
-4.35756 -0.0696088 0.467816
-4.35467 -0.0698182 0.453795
-4.36277 -0.0700048 0.440857
-4.36886 -0.0701929 0.427904
-4.36697 -0.0704016 0.413891
-4.37108 -0.0706059 0.399923
-4.37812 -0.0706896 0.393976
-4.38422 -0.0708777 0.381023
-4.38764 -0.0717045 0.325054
-4.39868 -0.0707706 0.320122
-4.40477 -0.0709586 0.307169
-4.3949 -0.0722026 0.291111
-4.394 -0.0724106 0.277105
-4.41409 -0.0715738 0.265243
-4.4102 -0.0717839 0.251214
-4.41035 -0.0720948 0.230217
-4.42755 -0.0724673 0.204349
-4.42466 -0.0726915 0.189328
-4.43576 -0.071876 0.176398
-4.42787 -0.073089 0.162355
-4.43497 -0.0732911 0.148409
-4.42803 -0.0734146 0.140358
-4.44512 -0.07258 0.128472
-4.44223 -0.0727894 0.114452
-4.46043 -0.073176 0.0875909
-4.44754 -0.0734075 0.0724952
-4.4537 -0.073714 0.0515432
-4.4698 -0.0728948 0.0386506
-4.4729 -0.0730851 0.0256749
-4.474 -0.0732916 0.0116844
-4.47622 -0.0737194 -0.0172966
-4.48137 -0.0740118 -0.0372562
-4.47748 -0.0742368 -0.0522842
-4.48658 -0.0744227 -0.0652147
-4.49579 -0.0748306 -0.0931431
-4.501 -0.0742415 -0.121116
-4.51105 -0.0743379 -0.12804
-4.49717 -0.07557 -0.143129
-4.51238 -0.0749736 -0.171027
-4.52448 -0.0741722 -0.184949
-4.52059 -0.0753823 -0.198963
-4.52175 -0.0756924 -0.219952
-3.99826 0.0152754 1.96006
-3.99235 0.0151082 1.94901
-4.00355 0.0137167 1.92212
-4.01176 0.013308 1.89418
-4.01687 0.0131044 1.88022
-4.015 0.0118515 1.86322
-4.01506 0.011733 1.85522
-4.02514 0.0115775 1.8443
-4.02439 0.0100884 1.81131
-4.03049 0.00990032 1.79836
-4.02861 0.00964722 1.78135
-4.04367 0.00953973 1.77346
-4.04286 0.00916893 1.74846
-4.04298 0.00794701 1.73347
-4.04808 0.00774341 1.71951
-4.05916 0.00860329 1.70958
-4.06637 0.00719402 1.68165
-4.07464 0.00666696 1.64572
-4.07376 0.0054295 1.62973
-4.07586 0.00522372 1.61574
-4.07798 0.00500314 1.60076
-4.08806 0.00484759 1.58984
-4.07815 0.00366279 1.57778
-4.08723 0.00450641 1.56683
-4.09134 0.0033022 1.55288
-4.09345 0.00308162 1.5379
-4.10253 0.00292534 1.52697
-4.10476 0.00248272 1.49699
-4.1098 0.00241235 1.49202
-4.1149 0.00222356 1.47906
-4.11314 0.000748529 1.44707
-4.12233 0.000370218 1.42114
-4.12445 0.000149636 1.40616
-4.12649 6.22781e-05 1.40017
-4.12461 -0.00117591 1.38417
-4.13569 -0.000330838 1.37324
-4.1388 -0.000535887 1.35927
-4.14788 -0.000692163 1.34834
-4.145 -0.00193108 1.33233
-4.1521 -0.00111852 1.31937
-4.14717 -0.00225527 1.31035
-4.14828 -0.00247658 1.29536
-4.15537 -0.00264912 1.28341
-4.15648 -0.00285562 1.26942
-4.1556 -0.00409308 1.25343
-4.16767 -0.00323248 1.24351
-4.16784 -0.00455803 1.22153
-4.17992 -0.00371222 1.2106
-4.18103 -0.00391873 1.19661
-4.18114 -0.00514066 1.18163
-4.18624 -0.00532945 1.16867
-4.17937 -0.00558619 1.15162
-4.19139 -0.00562186 1.14871
-4.19349 -0.00582764 1.13473
-4.19062 -0.00606667 1.11871
-4.2007 -0.00622221 1.10778
-4.19383 -0.00747884 1.09075
-4.19792 -0.00766836 1.07778
-4.20203 -0.00787268 1.06381
-4.20607 -0.0069587 1.05783
-4.21616 -0.00711424 1.04691
