-2.55418 -0.446458 7.58164
-2.56849 -0.446055 7.54074
-2.57885 -0.445758 7.49281
-2.59119 -0.44543 7.44689
-2.60449 -0.444013 7.40696
-2.61484 -0.443687 7.36103
-2.6252 -0.44339 7.3131
-2.6245 -0.441983 7.27307
-2.6368 -0.441567 7.23315
-2.65106 -0.441075 7.19824
-2.66238 -0.440704 7.15532
-2.67271 -0.440348 7.11138
-2.68303 -0.438962 7.06943
-2.69237 -0.438637 7.02349
-2.69753 -0.438944 7.00253
-2.70883 -0.437528 6.96259
-2.72749 -0.436803 6.87571
-2.7471 -0.436003 6.79383
-2.75861 -0.434987 6.7269
-2.764 -0.433754 6.67491
-2.77525 -0.433249 6.64099
-2.78946 -0.432654 6.61308
-2.79481 -0.432346 6.56611
-2.80115 -0.431993 6.52215
-2.80432 -0.431331 6.49916
-2.81065 -0.430978 6.45519
-2.82485 -0.430368 6.42829
-2.83805 -0.429743 6.40237
-2.8424 -0.429436 6.3554
-2.84871 -0.429054 6.31343
-2.85385 -0.428317 6.29546
-2.86409 -0.427783 6.26352
-2.8704 -0.427386 6.22256
-2.88064 -0.426852 6.19062
-2.89285 -0.427258 6.16272
-2.90307 -0.42668 6.13378
-3.37687 -0.404497 4.03273
-3.38202 -0.404789 4.01277
-3.39135 -0.404419 3.96983
-3.39651 -0.403741 3.94786
-3.40166 -0.404034 3.9279
-3.42217 -0.404026 3.86004
-3.42752 -0.402703 3.81406
-3.43664 -0.402934 3.79813
-3.43871 -0.40308 3.78814
-3.43989 -0.402435 3.76414
-3.45515 -0.402927 3.73026
-3.46525 -0.403127 3.71633
-3.46643 -0.402467 3.69333
-3.4686 -0.402806 3.67035
-3.46572 -0.402045 3.65431
-3.47681 -0.402215 3.6424
-3.48194 -0.402478 3.62444
-3.47916 -0.401894 3.5964
-3.48529 -0.402157 3.57845
-3.49953 -0.40162 3.54655
-3.49665 -0.401859 3.53053
-3.50791 -0.401369 3.4956
-3.52358 -0.400676 3.40669
-3.38037 -0.36955 4.09625
-3.37859 -0.369981 4.06724
-3.38177 -0.369349 4.04225
-3.40012 -0.370017 3.99639
-3.41242 -0.3696 3.95647
-3.41362 -0.368985 3.93047
-3.42392 -0.369569 3.89055
-3.43007 -0.368876 3.86958
-3.43037 -0.369453 3.83059
-3.44146 -0.369623 3.81867
-3.44562 -0.368946 3.79669
-3.45295 -0.368577 3.75374
-3.46216 -0.369 3.72481
-3.4673 -0.369263 3.70685
-3.47543 -0.368509 3.68989
-3.47382 -0.36828 3.63787
-3.48401 -0.368643 3.61295
-3.4951 -0.368827 3.60003
-3.49726 -0.369137 3.57905
-3.50439 -0.368383 3.56209
-3.51792 -0.36841 3.49219
-3.52224 -0.368044 3.44921
-2.43087 -0.358175 8.14549
-2.45568 -0.357757 8.03765
-2.51045 -0.356212 7.80201
-2.52087 -0.356034 7.74608
-2.57253 -0.354269 7.52541
-2.58193 -0.354047 7.47247
-2.59426 -0.353675 7.42955
-2.61793 -0.353991 7.33972
-2.62925 -0.353605 7.2978
-2.63442 -0.352942 7.27482
-2.64086 -0.352796 7.21686
-2.65414 -0.352349 7.17895
-2.69374 -0.351475 6.96621
-2.706 -0.351969 6.9323
-2.71925 -0.351448 6.89939
-2.72955 -0.351048 6.85845
-2.7597 -0.350292 6.70565
-2.77292 -0.350712 6.67675
-2.77928 -0.350418 6.62879
-2.78758 -0.350005 6.58884
-2.81009 -0.349995 6.521
-2.82352 -0.34983 6.46409
-2.82985 -0.349477 6.42013
-2.84109 -0.348928 6.3892
-2.8754 -0.348494 6.21443
-3.51272 -0.344061 3.51579
-3.51786 -0.344339 3.49683
-3.52417 -0.343941 3.45587
-1.71944 -0.289598 11.1175
-2.42399 -0.291513 8.12245
-2.43835 -0.291214 8.07454
-2.44166 -0.290819 8.03356
-2.45504 -0.291549 7.98366
-2.46647 -0.291385 7.92674
-2.48082 -0.291071 7.87983
-2.49515 -0.291712 7.83594
-2.50557 -0.291534 7.78001
-2.50687 -0.291125 7.74001
-2.53062 -0.291589 7.64018
-2.54103 -0.291381 7.58625
-2.55338 -0.292053 7.54035
-2.56671 -0.291695 7.49644
-2.5761 -0.292458 7.44451
-2.62371 -0.292608 7.22984
-2.64386 -0.291889 7.20998
-2.65251 -0.292156 7.12404
-2.77351 -0.292947 6.59289
-2.81481 -0.293479 6.42018
-2.82606 -0.293959 6.38727
-2.88186 -0.294458 6.14867
-3.37252 -0.300949 4.06917
-3.37966 -0.30121 4.05123
-3.38879 -0.301455 4.0343
-3.389 -0.301869 4.0063
-3.39712 -0.302115 3.98936
-3.40327 -0.301407 3.9694
-3.40436 -0.301584 3.95741
-3.41151 -0.30186 3.93846
-3.40576 -0.302368 3.90442
-3.41389 -0.302614 3.88748
-3.42697 -0.302752 3.87758
-3.42618 -0.302167 3.84956
-3.42539 -0.302583 3.82156
-3.43342 -0.302636 3.81762
-3.43658 -0.302945 3.79665
-3.43579 -0.30236 3.76863
-3.44193 -0.302637 3.74968
-3.44806 -0.302899 3.73172
-3.45718 -0.303114 3.71679
-3.45925 -0.303261 3.70681
-3.47568 -0.303093 3.64992
-3.47605 -0.303819 3.60093
-3.48515 -0.304019 3.587
-3.49156 -0.303814 3.53304
-3.52049 -0.30463 3.40925
-3.52563 -0.304892 3.39129
-3.53176 -0.30514 3.37434
-2.42391 -0.246415 8.12878
-2.43827 -0.246115 8.08088
-2.44971 -0.246966 8.02297
-2.46405 -0.246636 7.97706
-2.50351 -0.248481 7.78336
-2.5149 -0.248242 7.73144
-2.52824 -0.248884 7.68754
-2.54155 -0.248497 7.64563
-2.55293 -0.249229 7.59572
-2.57791 -0.25015 7.4649
-2.5922 -0.249703 7.427
-2.60354 -0.250376 7.38109
-2.61195 -0.251169 7.32715
-2.62425 -0.250753 7.28724
-2.63656 -0.251351 7.24633
-2.63586 -0.250944 7.20631
-2.65012 -0.251437 7.17242
-2.65946 -0.252111 7.1265
-2.67274 -0.25165 7.08959
-2.69364 -0.252397 6.97074
-2.70395 -0.253011 6.92882
-2.71622 -0.25352 6.89391
-2.72555 -0.253165 6.84997
-2.73583 -0.253721 6.81205
-2.74516 -0.254351 6.76913
-2.75544 -0.253906 6.73119
-2.7547 -0.25441 6.69719
-2.76792 -0.25483 6.66829
-2.77526 -0.254506 6.62234
-2.78653 -0.255016 6.58742
-2.79777 -0.255496 6.55451
-2.8051 -0.255142 6.51056
-2.81437 -0.255669 6.47463
-2.81755 -0.256007 6.45165
-2.82583 -0.256564 6.41372
-2.83215 -0.256181 6.37176
-2.84536 -0.256586 6.34386
-2.85365 -0.257143 6.30592
-2.86389 -0.257624 6.273
-2.87434 -0.25749 6.21407
-2.88556 -0.257912 6.18516
-2.90307 -0.257906 6.11728
-3.37377 -0.273469 4.03377
-3.39648 -0.273859 3.93893
-3.43245 -0.274729 3.8112
-3.43264 -0.275114 3.7852
-3.43779 -0.275406 3.76524
-3.51635 -0.278384 3.42583
-3.5195 -0.278678 3.40586
-1.72452 -0.0960151 11.0877
-1.74719 -0.0973165 10.9989
-1.77081 -0.0985284 10.9161
-1.81316 -0.101148 10.7374
-2.43509 -0.0879718 8.08951
-2.44654 -0.089837 8.03062
-2.45929 -0.0913085 7.93072
-2.47462 -0.0929488 7.88685
-2.48798 -0.0936499 7.83896
-2.50036 -0.0943813 7.78906
-2.51078 -0.0962028 7.73315
-2.52413 -0.0968743 7.68726
-2.52347 -0.0975559 7.64126
-2.53584 -0.0992576 7.59337
-2.56054 -0.100617 7.50056
-2.57093 -0.102379 7.44866
-2.58716 -0.102826 7.41778
-2.59362 -0.103725 7.35684
-2.59978 -0.105031 7.3359
-2.61503 -0.105509 7.30302
-2.62246 -0.106347 7.24608
-2.63476 -0.106946 7.20517
-2.65643 -0.109233 7.11736
-2.65768 -0.109721 7.08437
-2.6803 -0.111933 7.00156
-2.6867 -0.112713 6.94862
-2.71615 -0.11458 6.88886
-2.73503 -0.116299 6.77201
-2.74337 -0.117944 6.72809
-2.75759 -0.118378 6.6982
-2.76004 -0.11925 6.63922
-2.77619 -0.119549 6.61835
-2.77545 -0.121053 6.58436
-2.80824 -0.122584 6.47961
-2.81654 -0.12417 6.43969
-2.82582 -0.124711 6.40277
-2.83707 -0.125192 6.36985
-2.84556 -0.126148 6.30492
-2.84893 -0.127871 6.25597
-2.86606 -0.128125 6.2381
-2.87729 -0.128561 6.20818
-2.89186 -0.130676 6.13231
-2.89895 -0.130849 6.12037
-2.9023 -0.131527 6.0744
-3.39401 -0.174072 3.99144
-3.39917 -0.174365 3.97148
-3.39541 -0.174856 3.93846
-3.40443 -0.174879 3.93653
-3.40979 -0.176586 3.88859
-3.40999 -0.176971 3.86259
-3.42406 -0.177109 3.8527
-3.43635 -0.177662 3.81479
-3.42753 -0.178024 3.79073
-3.43862 -0.178194 3.77881
-3.44675 -0.17844 3.76187
-3.44694 -0.17881 3.73688
-3.4612 -0.179318 3.70199
-3.46149 -0.18088 3.66401
-3.46266 -0.18122 3.64102
-3.47375 -0.181389 3.6291
-3.47196 -0.181805 3.60109
-3.489 -0.181867 3.59622
-3.48522 -0.182299 3.56719
-3.49027 -0.182399 3.56023
-3.49261 -0.183064 3.51525
-3.50686 -0.183542 3.48236
-3.51938 -0.185555 3.41348
-3.53163 -0.186049 3.37957
-3.53495 -0.186669 3.3376
-1.72068 0.0474777 11.0525
-2.42078 -0.0334402 8.1256
-2.44075 -0.0373209 7.99779
-2.49354 -0.0438064 7.76025
-3.37675 -0.1396 4.02381
-3.38903 -0.140154 3.9859
-3.41392 -0.142883 3.86812
-3.41719 -0.144413 3.83216
-3.44076 -0.145507 3.75734
-3.47795 -0.149819 3.59966
-3.5266 -0.154041 3.38006
-1.71949 0.128734 11.0693
-1.74028 0.12521 10.9655
-2.45268 0.0237255 7.99998
-2.4579 0.0223 7.97103
-2.48464 0.0198684 7.87326
-2.51983 0.0145547 7.71558
-2.53318 0.0128834 7.6697
-2.5335 0.0112618 7.62772
-2.54781 0.00965037 7.58585
-2.56015 0.00799311 7.54096
-2.5725 0.00732093 7.49505
-2.58485 0.00564886 7.44917
-2.60783 0.000740884 7.31939
-2.61918 5.31766e-05 7.27248
-2.62953 -0.00162035 7.22658
-2.63987 -0.00329387 7.18068
-2.65511 -0.00474172 7.14981
-2.6635 -0.00650551 7.09789
-2.67604 -0.00856244 7.026
-2.68735 -0.0101612 6.98511
-2.69865 -0.0107453 6.9452
-2.71731 -0.0140198 6.85837
-2.73302 -0.0174001 6.76453
-2.74308 -0.0175112 6.7566
-2.74944 -0.0192173 6.70867
-2.76463 -0.0195764 6.68379
-2.76609 -0.0214785 6.62282
-2.78227 -0.022822 6.59896
-2.79057 -0.0234083 6.55902
-2.79473 -0.0247161 6.53807
-2.81572 -0.0286553 6.40627
-2.83426 -0.0306931 6.33543
-2.84375 -0.0326485 6.27052
-2.8599 -0.0339328 6.25066
-2.86916 -0.0344444 6.21573
-2.8794 -0.0358959 6.18482
-2.89909 -0.0382437 6.093
-3.51303 -0.116974 3.45242
-3.52132 -0.117531 3.41449
-3.52636 -0.117616 3.40853
-3.52554 -0.118972 3.38454
-3.53366 -0.119188 3.3696
-3.53383 -0.119529 3.3466
-3.54094 -0.119746 3.33166
-1.73378 0.186102 11.0256
-1.74133 0.183041 10.9537
-1.78466 0.175452 10.7771
-2.47229 0.0654912 7.9155
-2.48174 0.0626247 7.8566
-2.49508 0.0609533 7.81072
-2.54876 0.0526908 7.58822
-2.5611 0.0510483 7.54433
-2.61813 0.0410924 7.27487
-2.63141 0.0395542 7.23799
-2.64079 0.0378208 7.18807
-2.65211 0.0362072 7.14618
-2.6644 0.0346387 7.10729
-2.67497 0.0315213 7.0314
-2.6853 0.0298773 6.9875
-2.69464 0.0282327 6.94359
-2.70887 0.027784 6.9127
-2.71918 0.0261845 6.87179
-2.7285 0.0245694 6.82988
-2.73168 0.0232017 6.80492
-2.74199 0.021617 6.76502
-2.75129 0.0210314 6.72509
-2.76257 0.0194918 6.68819
-2.7699 0.0178457 6.64427
-2.7792 0.0162603 6.60436
-2.78848 0.0147193 6.56744
-2.79264 0.0144113 6.54648
-2.79702 0.0116595 6.49554
-2.81219 0.0113448 6.47366
-2.8495 0.00479583 6.30001
-2.85876 0.0032844 6.2651
-3.40316 -0.0744912 3.96204
-3.4223 -0.0796982 3.81224
-3.44081 -0.0816915 3.7444
-3.44695 -0.0819684 3.72544
-3.44614 -0.0833391 3.70045
-3.45526 -0.0835694 3.68452
-3.45436 -0.0837625 3.67152
-3.46464 -0.0853176 3.63361
-3.4678 -0.0856263 3.61264
-3.4761 -0.0872125 3.57272
-3.48728 -0.0875597 3.54881
-3.49657 -0.0881156 3.51088
-3.50685 -0.089656 3.47397
-3.51099 -0.0899195 3.45601
-3.51323 -0.0913916 3.42404
-3.51837 -0.0916692 3.40508
-3.53045 -0.0918233 3.39417
-3.53161 -0.0921334 3.37318
-3.54171 -0.0923186 3.36026
-3.54792 -0.0937286 3.33232
-1.75349 0.249628 10.9248
-2.42622 0.121495 8.05234
-2.43863 0.119705 7.99845
-2.45006 0.116854 7.94057
-2.46344 0.115124 7.89069
-2.47876 0.113513 7.84882
-2.49113 0.110782 7.79895
-2.5058 0.10749 7.7111
-2.51818 0.104759 7.66123
-2.53052 0.103087 7.61534
-2.54385 0.101445 7.57146
-2.55621 0.0997581 7.52457
-2.55554 0.0971062 7.4806
-2.5669 0.0954038 7.4327
-2.59058 0.0910887 7.34293
-2.6029 0.0894758 7.30104
-2.61325 0.0878023 7.25514
-2.63913 0.0830889 7.13839
-2.65882 0.0787561 7.04759
-2.67946 0.0754979 6.96178
-2.71557 0.0693626 6.81612
-2.72391 0.0676876 6.7702
-2.73421 0.0661177 6.7313
-2.74744 0.0646684 6.70041
-2.76726 0.0600691 6.59162
-2.78586 0.056913 6.51279
-2.79613 0.0553875 6.47689
-2.80443 0.0538162 6.43797
-2.81687 0.0509518 6.3791
-2.83542 0.0478845 6.30627
-2.84567 0.0464034 6.27336
-2.85495 0.0448624 6.23645
-2.86518 0.0444108 6.20553
-2.86539 0.0429965 6.17755
-3.40863 -0.0444383 3.89762
-3.41279 -0.0447611 3.87566
-3.4109 -0.0459697 3.86166
-3.42735 -0.0478461 3.8018
-3.43152 -0.0481688 3.77983
-3.4327 -0.0495232 3.75586
-3.43775 -0.0496232 3.7489
-3.43992 -0.0499622 3.72592
-3.45735 -0.0517786 3.67007
-3.45952 -0.0531175 3.6471
-3.46565 -0.0533796 3.62915
-3.46575 -0.0535573 3.61715
-3.49227 -0.0565595 3.54838
-3.50155 -0.0571154 3.51046
-3.49668 -0.0583706 3.49344
-3.50776 -0.0585254 3.48252
-3.51722 -0.0604217 3.42161
-3.51641 -0.0617924 3.39662
-3.52552 -0.0619931 3.38269
-3.53255 -0.0620472 3.37875
-3.53271 -0.0623728 3.35675
-3.5448 -0.0625417 3.34484
-3.54596 -0.0638517 3.32387
-1.74616 0.326177 10.9616
-1.76882 0.321906 10.8748
-1.7924 0.317783 10.798
-2.42267 0.182493 8.11942
-2.49185 0.168265 7.83111
-2.56436 0.152403 7.49985
-2.57864 0.150865 7.46297
-2.59938 0.145415 7.36419
-2.6243 0.139642 7.24345
-2.63169 0.136877 7.19154
-2.65727 0.133756 7.11477
-2.69144 0.126486 6.96011
-2.70273 0.124917 6.92122
-2.71304 0.122332 6.88133
-2.7503 0.114872 6.71369
-2.75741 0.11367 6.69976
-2.76083 0.110859 6.64482
-2.77307 0.109379 6.61193
-2.79067 0.106222 6.5331
-2.80193 0.104727 6.4992
-2.80412 0.103358 6.47424
-2.81436 0.101877 6.44133
-2.82463 0.100367 6.40643
-2.83489 0.0988708 6.37252
-2.84022 0.0962234 6.32859
-2.8495 0.0946823 6.29168
-2.85559 0.0944943 6.27873
-2.85798 0.091741 6.22778
-2.88239 0.0899445 6.17298
-2.88908 0.0846022 6.0821
-2.90639 0.0830078 6.04125
-2.91663 0.0815563 6.01034
-2.95786 0.0741584 5.84674
-2.95411 0.0726671 5.81373
-2.9653 0.0713052 5.78883
-2.97452 0.0708825 5.7599
-2.98078 0.0693688 5.72497
-3.00547 0.0650396 5.6342
-3.01189 0.0622301 5.57929
-3.02931 0.0594137 5.52345
-1.73795 0.395504 10.9835
-1.75777 0.388905 10.8747
-1.78037 0.384737 10.795
-1.79918 0.378167 10.6882
-2.42078 0.234205 8.09964
-2.43711 0.23158 8.05679
-2.57973 0.198609 7.44527
-2.5956 0.191933 7.33147
-2.60694 0.190275 7.28658
-2.66872 0.177826 7.05119
-2.72743 0.165509 6.82479
-2.74313 0.160158 6.73297
-2.75856 0.157311 6.67512
-2.76198 0.154499 6.62018
-2.80603 0.147474 6.4816
-2.81532 0.145918 6.44369
-2.839 0.140588 6.35293
-2.84729 0.139031 6.31501
-2.92509 0.119596 5.94483
-2.94551 0.117781 5.88901
-3.02294 0.101071 5.56779
-3.10666 0.0838024 5.20863
-3.11287 0.0823924 5.18069
-3.19035 0.066593 4.85347
-3.22961 0.0591492 4.68685
-3.31435 0.042822 4.32368
-3.36188 0.033866 4.12214
-3.54779 0.00139423 3.33992
-3.5521 -0.000209652 3.29897
-2.41394 0.282824 8.07386
-2.42635 0.279019 8.019
-2.43973 0.276289 7.96914
-2.45214 0.272498 7.91528
-2.46453 0.269738 7.86341
-2.48275 0.268322 7.83456
-2.49026 0.264335 7.76767
-2.52765 0.253639 7.58408
-2.54586 0.252237 7.55624
-2.56692 0.24318 7.41651
-2.60488 0.236328 7.28988
-2.65781 0.221577 7.03446
-2.66814 0.218948 6.99157
-2.68361 0.215027 6.92874
-2.70226 0.209767 6.84294
-2.71258 0.208153 6.80104
-2.72581 0.205704 6.77017
-2.75495 0.197489 6.61949
-2.79309 0.189297 6.46988
-2.85721 0.173184 6.18956
-2.86428 0.173041 6.17962
-2.89637 0.164932 6.03596
-2.95823 0.151336 5.79059
-2.98014 0.144575 5.67084
-2.98935 0.143153 5.64193
-2.99757 0.141729 5.61301
-3.00597 0.138966 5.5611
-3.03981 0.132332 5.44944
-3.05394 0.132091 5.43255
-3.05343 0.128128 5.3676
-3.05868 0.126644 5.33465
-3.07409 0.123855 5.2808
-3.08032 0.122401 5.24987
-3.09246 0.121143 5.23197
-3.08867 0.119726 5.20396
-3.09686 0.118362 5.17904
-3.11196 0.11818 5.16616
-3.11621 0.115695 5.13322
-3.12961 0.112905 5.07935
-3.13102 0.110107 5.0254
-3.16375 0.10571 4.9297
-3.16402 0.103177 4.89373
-3.17206 0.103109 4.88879
-3.18939 0.10147 4.84494
-3.19163 0.0999979 4.81298
-3.19486 0.0975562 4.78303
-3.19907 0.0961448 4.75508
-3.21317 0.0959477 4.74119
-3.21626 0.0957723 4.72921
-3.21355 0.0932078 4.69123
-3.23803 0.0902781 4.62744
-3.2384 0.087553 4.57848
-3.25646 0.0874625 4.57162
-3.25669 0.0860038 4.54064
-3.25793 0.0845309 4.50866
-3.26707 0.0832563 4.48975
-3.27126 0.0818893 4.4648
-3.27546 0.0805074 4.43884
-3.2825 0.0804237 4.4329
-3.27878 0.078888 4.39689
-3.29484 0.0787665 4.38801
-3.29926 0.0759555 4.33308
-3.30443 0.0746187 4.31013
-3.31467 0.0731525 4.27823
-3.32479 0.0719378 4.26332
-3.32105 0.0704169 4.22831
-3.33711 0.0703102 4.22043
-3.34645 0.0676508 4.17553
-3.34272 0.0661299 4.14052
-3.34678 0.0660144 4.13255
-3.35888 0.0658159 4.11865
-3.35811 0.0633713 4.08867
-3.37874 0.0601427 4.00486
-3.38677 0.0600893 4.00093
-3.39214 0.0573827 3.953
-3.40522 0.0572293 3.9421
-3.40563 0.0544302 3.88814
-3.4087 0.0542843 3.87816
-3.41088 0.0529454 3.85519
-3.41603 0.0516532 3.83525
-3.42316 0.0513918 3.8173
-3.43346 0.0498071 3.7774
-3.43662 0.0484985 3.75644
-3.4387 0.048352 3.74645
-3.43989 0.0469827 3.72148
-3.45593 0.0469056 3.7156
-3.46207 0.0456288 3.69666
-3.45532 0.0441353 3.66363
-3.45948 0.0428423 3.64368
-3.46867 0.042464 3.61775
-3.4823 0.0382452 3.5349
-3.48644 0.036967 3.51595
-3.49662 0.036619 3.49203
-3.51735 0.0322128 3.39624
-3.5214 0.0321121 3.38927
-3.52157 0.0307866 3.36729
-1.7142 0.53976 11.0682
-2.4364 0.333872 8.00827
-2.4488 0.330082 7.95441
-2.46414 0.327442 7.91056
-2.4775 0.324741 7.86269
-2.50357 0.314658 7.72102
-2.51694 0.311957 7.67315
-2.52733 0.308195 7.62128
-2.54458 0.306719 7.58842
-2.57476 0.296417 7.43178
-2.57703 0.293901 7.39683
-2.58838 0.291213 7.34995
-2.60071 0.288586 7.30708
-2.60909 0.284837 7.25619
-2.62239 0.282269 7.21732
-2.6308 0.279476 7.16342
-2.64407 0.276953 7.12755
-2.64727 0.275555 7.10059
-2.67381 0.270524 7.02986
-2.67436 0.266444 6.95691
-2.68662 0.263949 6.92304
-2.694 0.261214 6.87313
-2.7102 0.258827 6.84628
-2.73302 0.252245 6.73853
-2.7487 0.246924 6.64872
-2.76192 0.245504 6.61983
-3.1 0.157034 5.15649
-3.12994 0.15022 5.0328
-3.14434 0.147446 4.97994
-3.16704 0.142086 4.88718
-3.17647 0.138249 4.8303
-3.18873 0.136755 4.79641
-3.19393 0.135359 4.76946
-3.2011 0.134024 4.74653
-3.20829 0.132674 4.72261
-3.21447 0.131308 4.69767
-3.22599 0.12731 4.62981
-3.23514 0.12702 4.60988
-3.24033 0.125654 4.58493
-3.25146 0.12441 4.56803
-3.2616 0.124136 4.54911
-3.25887 0.121602 4.51312
-3.26492 0.121502 4.50617
-3.27209 0.120182 4.48424
-3.28544 0.117511 4.43837
-3.28863 0.116128 4.41241
-3.30098 0.113456 4.36654
-3.30306 0.113295 4.35556
-3.31122 0.11199 4.33463
-3.31243 0.110576 4.30666
-3.32256 0.110332 4.28974
-3.33907 0.106352 4.22291
-3.34138 0.103747 4.18196
-3.35051 0.103502 4.16503
-3.35271 0.102104 4.13807
-3.35688 0.100766 4.11511
-3.36216 0.0982224 4.07819
-3.37228 0.0980076 4.06326
-3.38458 0.0964244 4.02337
-3.38876 0.0950721 3.99942
-3.39422 0.0911731 3.93851
-3.40631 0.0910043 3.9266
-3.41761 0.0894203 3.88671
-3.41682 0.0880052 3.85872
-3.42614 0.0853903 3.81682
-3.42426 0.0841521 3.80082
-3.43634 0.083998 3.78992
-3.43853 0.0826443 3.76595
-3.44268 0.0823511 3.74598
-3.44684 0.0810285 3.72403
-3.45 0.07972 3.70307
-3.45407 0.0795896 3.6941
-3.4612 0.0783432 3.67717
-3.46436 0.0780345 3.6562
-3.47148 0.0767881 3.63927
-3.47564 0.0754951 3.61931
-3.47384 0.0740941 3.59232
-3.48294 0.0738934 3.57839
-3.48502 0.0737468 3.5684
-3.49215 0.0725004 3.55147
-3.49035 0.0711142 3.52548
-3.49647 0.0708669 3.50852
-3.49665 0.0695117 3.48454
-3.50576 0.0683112 3.47063
-3.51487 0.0681105 3.4567
-3.51396 0.0679173 3.44369
-3.51314 0.0665615 3.4197
-3.52225 0.0653609 3.40579
-3.52242 0.0640205 3.3828
-3.52855 0.0637733 3.36585
-3.53071 0.062464 3.34488
-3.54279 0.0623247 3.33498
-3.53808 0.0607439 3.29596
-1.73208 0.591975 10.9465
-1.75851 0.587151 10.8898
-1.78115 0.581924 10.806
-2.42594 0.383703 8.06446
-2.49508 0.364565 7.78222
-2.52079 0.358192 7.6885
-2.57049 0.342898 7.46407
-2.58282 0.339255 7.42021
-2.63237 0.325257 7.21576
-2.65108 0.318879 7.12198
-2.66337 0.316326 7.08411
-2.66781 0.312456 7.02519
-2.67815 0.308812 6.98132
-2.68037 0.307384 6.95235
-2.69068 0.30477 6.91046
-2.70196 0.302245 6.87458
-2.71129 0.298601 6.8307
-2.72697 0.29328 6.74088
-2.74414 0.291967 6.71903
-2.75125 0.29075 6.7041
-2.76933 0.280647 6.56136
-2.78987 0.276611 6.49057
-2.80603 0.275297 6.4687
-2.81455 0.270296 6.40083
-2.81988 0.267649 6.35691
-2.83843 0.262582 6.28411
-2.84375 0.259964 6.24218
-2.87526 0.25598 6.17447
-2.8912 0.247157 6.05071
-2.90143 0.245705 6.0198
-2.91165 0.243283 5.99091
-2.91185 0.241899 5.96493
-2.93561 0.235436 5.86519
-2.94913 0.230424 5.79635
-3.04388 0.208105 5.43335
-3.19817 0.164855 4.73505
-3.23935 0.156576 4.57947
-3.24466 0.153958 4.53754
-3.25183 0.152637 4.51561
-3.259 0.151317 4.49368
-3.26319 0.149935 4.46773
-3.27035 0.14863 4.4468
-3.26949 0.147363 4.42881
-3.27565 0.146056 4.40787
-3.30009 0.1432 4.34909
-3.30428 0.141833 4.32414
-3.30549 0.14042 4.29616
-3.31079 0.137846 4.25724
-3.31794 0.136556 4.23731
-3.32211 0.135218 4.21436
-3.33124 0.134973 4.19743
-3.34158 0.132314 4.15254
-3.34366 0.131153 4.14157
-3.35081 0.130862 4.12162
-3.35004 0.128418 4.09165
-3.35915 0.128202 4.07672
-3.3663 0.126911 4.05679
-3.37245 0.12562 4.03685
-3.37662 0.124297 4.0149
-3.37673 0.124075 3.9999
-3.37693 0.12169 3.97394
-3.38308 0.121399 3.95398
-3.39022 0.120137 3.93605
-3.39934 0.119907 3.92012
-3.4035 0.118599 3.89917
-3.40162 0.117361 3.88317
-3.40876 0.116085 3.86424
-3.41985 0.115915 3.85233
-3.41906 0.1145 3.82434
-3.4252 0.113238 3.8064
-3.43333 0.112993 3.78946
-3.43451 0.111638 3.76549
-3.43956 0.111538 3.75853
-3.44173 0.110199 3.73556
-3.44986 0.108968 3.71964
-3.45599 0.108706 3.70169
-3.44924 0.106213 3.66867
-3.46232 0.106074 3.65877
-3.45944 0.104836 3.64276
-3.47053 0.104666 3.63085
-3.4717 0.103326 3.60787
-3.47883 0.10208 3.59094
-3.48694 0.101864 3.576
-3.49109 0.100571 3.55605
-3.49623 0.100308 3.53809
-3.49037 0.0990223 3.51906
-3.50246 0.0988682 3.50815
-3.50263 0.0975278 3.48517
-3.50976 0.0962814 3.46824
-3.51687 0.0960645 3.4533
-3.52615 0.0935235 3.4164
-3.52524 0.0933452 3.40439
-3.53435 0.0931445 3.39046
-3.5246 0.090649 3.35742
-3.5337 0.0904483 3.34349
-3.53784 0.0891849 3.32554
-1.70937 0.678252 11.0331
-1.75471 0.663666 10.8566
-1.77636 0.657394 10.7699
-1.79709 0.648988 10.6742
-2.42781 0.445876 8.07555
-2.43863 0.43727 7.96675
-2.45301 0.433541 7.9169
-2.46831 0.43096 7.87705
-2.48363 0.427349 7.83521
-2.49505 0.423529 7.77935
-2.50742 0.419827 7.73149
-2.5058 0.416086 7.68153
-2.52207 0.413565 7.64568
-2.53542 0.409894 7.59983
-2.54776 0.406222 7.55397
-2.55913 0.40252 7.5061
-2.57051 0.398788 7.45624
-2.57179 0.396241 7.41928
-2.58117 0.392493 7.3684
-2.59155 0.388761 7.31853
-2.61072 0.387449 7.29669
-2.62108 0.383746 7.24881
-2.63143 0.380073 7.20294
-2.64276 0.37643 7.15907
-2.644 0.373957 7.12711
-2.6524 0.370193 7.07523
-2.66468 0.36764 7.03735
-2.675 0.365026 6.99546
-2.68044 0.360171 6.93757
-2.6927 0.357677 6.90369
-2.70693 0.355228 6.87283
-2.7175 0.350126 6.79798
-2.72977 0.347602 6.7621
-2.73418 0.343806 6.70818
-2.75035 0.341477 6.68534
-2.76163 0.338938 6.64845
-2.768 0.335232 6.60055
-2.76625 0.332728 6.56657
-2.77949 0.331278 6.53569
-2.78779 0.327692 6.4958
-2.80198 0.326333 6.47092
-2.81226 0.323792 6.43403
-2.81761 0.320115 6.38812
-2.82688 0.317589 6.35222
-2.833 0.316357 6.33628
-2.83442 0.312544 6.28134
-2.84662 0.311153 6.25445
-2.86179 0.309838 6.23258
-2.86514 0.306145 6.18565
-2.87736 0.303725 6.15678
-2.87756 0.302325 6.1298
-2.88387 0.298738 6.08989
-2.88919 0.29612 6.04797
-2.90629 0.294925 6.03411
-2.90865 0.291217 5.98618
-2.92084 0.289855 5.96128
-2.92103 0.288485 5.9363
-2.92732 0.285928 5.89838
-2.93852 0.283536 5.8715
-2.94774 0.282113 5.84259
-2.95599 0.279631 5.80968
-2.96226 0.277103 5.77376
-2.97642 0.275802 5.75288
-2.96871 0.272234 5.71487
-2.98089 0.270888 5.69098
-2.99011 0.269465 5.66207
-2.99144 0.26583 5.61912
-3.00853 0.26565 5.60625
-3.01182 0.26309 5.56831
-3.01611 0.25953 5.53039
-3.0212 0.259356 5.51843
-3.02449 0.256796 5.48049
-3.03698 0.251843 5.41565
-3.05111 0.251602 5.39875
-3.05536 0.249102 5.36482
-3.05964 0.246572 5.32888
-3.06078 0.245292 5.30991
-3.06898 0.242898 5.283
-3.0752 0.241473 5.25407
-3.08735 0.240186 5.23417
-3.09062 0.23767 5.19923
-3.09979 0.236336 5.17632
-3.11292 0.235094 5.15943
-3.10913 0.232692 5.13243
-3.1114 0.230161 5.09648
-3.12946 0.231055 5.08861
-3.13271 0.228569 5.05566
-3.13596 0.226068 5.02172
-3.14315 0.224704 4.99679
-3.15965 0.219739 4.93098
-3.17404 0.216994 4.88012
-3.18643 0.213233 4.82826
-3.19178 0.210556 4.78234
-3.19501 0.208115 4.75239
-3.20416 0.206825 4.73248
-3.20739 0.205369 4.70152
-3.22186 0.201462 4.63968
-3.23299 0.200218 4.62278
-3.23918 0.198852 4.59784
-3.24536 0.197502 4.5739
-3.24857 0.19509 4.54596
-3.25277 0.193693 4.51901
-3.25685 0.192548 4.50906
-3.26698 0.192304 4.49213
-3.26524 0.189784 4.45715
-3.27637 0.188541 4.44025
-3.27561 0.187066 4.40826
-3.29191 0.184486 4.36842
-3.29599 0.183341 4.35847
-3.29819 0.181943 4.3315
-3.30855 0.179255 4.28461
-3.31372 0.177918 4.26167
-3.32583 0.17772 4.24776
-3.32209 0.174214 4.21378
-3.32518 0.174038 4.2018
-3.33727 0.173869 4.18989
-3.33947 0.171471 4.16294
-3.35058 0.171257 4.14803
-3.35179 0.169859 4.12105
-3.35497 0.167506 4.09711
-3.36202 0.167422 4.09116
-3.35826 0.164946 4.05917
-3.3763 0.16587 4.05329
-3.37453 0.163425 4.02331
-3.38366 0.163179 4.00638
-3.38683 0.161841 3.98342
-3.39507 0.159374 3.95151
-3.4032 0.159128 3.93457
-3.4034 0.156743 3.90861
-3.4145 0.156544 3.89469
-3.41371 0.155129 3.8667
-3.41896 0.152644 3.83377
-3.42312 0.151336 3.81282
-3.4263 0.149998 3.78986
-3.44136 0.149891 3.78198
-3.43759 0.147429 3.75098
-3.45285 0.145937 3.71711
-3.45591 0.145821 3.70914
-3.45015 0.143343 3.67713
-3.46125 0.143158 3.66421
-3.46738 0.141896 3.64627
-3.47649 0.141696 3.63234
-3.47469 0.140295 3.60535
-3.48507 0.136562 3.55547
-3.49535 0.135022 3.51857
-3.49968 0.132374 3.47463
-3.51104 0.129686 3.42775
-3.52411 0.129563 3.41885
-1.7697 0.719611 10.8519
-2.93831 0.319917 5.89696
-3.00536 0.299955 5.62673
-3.02623 0.291253 5.511
-3.06942 0.27996 5.35447
-3.07565 0.278506 5.32353
-3.08287 0.276082 5.29462
-3.0963 0.272248 5.23777
-3.11087 0.266149 5.16296
-3.11905 0.264799 5.13904
-3.13148 0.260965 5.08218
-3.14405 0.255864 5.00734
-3.15843 0.252134 4.95749
-3.17915 0.245743 4.86273
-3.23472 0.231705 4.65533
-3.24833 0.226515 4.5745
-3.27513 0.219981 4.46978
-1.745 0.801858 10.9365
-1.76576 0.792393 10.8368
-1.78552 0.782928 10.7371
-2.53951 0.50359 7.57847
-2.56322 0.495216 7.48476
-2.57555 0.491574 7.4409
-2.58496 0.486782 7.38704
-2.60247 0.481803 7.32023
-2.61089 0.476995 7.26536
-2.62222 0.473352 7.22149
-2.63451 0.469784 7.18263
-2.64389 0.466065 7.13375
-2.65423 0.461392 7.08789
-2.65744 0.459995 7.06093
-2.67908 0.452753 6.97619
-2.69972 0.445524 6.89244
-2.72351 0.436988 6.78773
-2.73285 0.433343 6.74385
-2.74411 0.430833 6.70897
-2.75244 0.427188 6.66508
-2.774 0.421123 6.59232
-2.76834 0.416453 6.54734
-2.77862 0.413913 6.51045
-2.79282 0.411524 6.48359
-2.79818 0.407817 6.43568
-2.80943 0.405352 6.4038
-2.82068 0.402872 6.37091
-2.82699 0.399255 6.32901
-2.83017 0.396917 6.30606
-2.84042 0.394436 6.27317
-2.84477 0.390743 6.22625
-2.86289 0.389534 6.21141
-2.86723 0.385871 6.16649
-2.87746 0.38342 6.1356
-2.88574 0.380878 6.09869
-2.88298 0.377403 6.06672
-2.89715 0.376088 6.04484
-2.90345 0.3735 6.00492
-2.9117 0.370032 5.97303
-2.91996 0.36752 5.93813
-2.92722 0.365022 5.90421
-2.93941 0.363646 5.87832
-2.93369 0.360095 5.84132
-2.94293 0.357643 5.81043
-2.95805 0.356417 5.79456
-2.96235 0.352828 5.75464
-2.97453 0.351482 5.73074
-2.98375 0.349059 5.70185
-2.98922 0.34416 5.64095
-2.99547 0.341661 5.60703
-3.00172 0.339178 5.57411
-3.01191 0.336815 5.54922
-3.0162 0.334256 5.51128
-3.0244 0.331862 5.48438
-3.02556 0.330552 5.4634
-3.03082 0.328053 5.42947
-3.04297 0.326765 5.40958
-3.04824 0.323251 5.37467
-3.05446 0.320812 5.34475
-3.0607 0.319357 5.31381
-3.06776 0.318244 5.30588
-3.07004 0.315683 5.26793
-3.07626 0.313259 5.23901
-3.10085 0.307122 5.16127
-3.10806 0.305728 5.13435
-3.12685 0.297187 5.0296
-3.13602 0.295868 5.00768
-3.14322 0.294474 4.98076
-3.14844 0.292048 4.95183
-3.14859 0.290767 4.93284
-3.15972 0.289509 4.91494
-3.16592 0.287129 4.88902
-3.17015 0.284688 4.85909
-3.18326 0.284475 4.84419
-3.18057 0.280866 4.80321
-3.18874 0.279547 4.78129
-3.19085 0.278326 4.76632
-3.19605 0.27593 4.7394
-3.21014 0.275763 4.7275
-3.21732 0.274428 4.70457
-3.21858 0.271925 4.67061
-3.22785 0.269384 4.63372
-3.23107 0.266972 4.60577
-3.24417 0.265775 4.59189
-3.24936 0.264408 4.56694
-3.24863 0.26189 4.53197
-3.26469 0.261768 4.52309
-3.2679 0.259371 4.49615
-3.26506 0.258058 4.47514
-3.27222 0.255738 4.45323
-3.27543 0.25434 4.42627
-3.395 0.222426 3.95458
-3.40938 0.219696 3.90472
-3.41891 0.214667 3.83486
-3.43427 0.211982 3.78801
-3.44239 0.210737 3.77108
-3.4507 0.208136 3.73018
-3.46941 0.202773 3.63739
-3.49205 0.197531 3.55262
-3.50134 0.194975 3.51472
-3.51377 0.191126 3.45687
-3.51793 0.189833 3.43691
-3.52017 0.188346 3.40395
-3.52928 0.187145 3.39003
-3.53673 0.183263 3.33014
-3.54377 0.183194 3.32519
-1.71646 0.872822 11.0023
-1.72684 0.868089 10.9524
-1.74852 0.859773 10.8627
-1.76921 0.850427 10.771
-2.44659 0.585156 7.95762
-2.47234 0.57671 7.85892
-2.50849 0.562501 7.70838
-2.51078 0.558941 7.67045
-2.52607 0.556374 7.6316
-2.53549 0.550567 7.57675
-2.5449 0.545775 7.52288
-2.56115 0.543298 7.49003
-2.57349 0.539641 7.44517
-2.57084 0.534959 7.39922
-2.58612 0.531422 7.36238
-2.59256 0.526554 7.30349
-2.60487 0.522971 7.26363
-2.63145 0.515851 7.18693
-2.63885 0.511072 7.13405
-2.64302 0.508734 7.11111
-2.65531 0.506181 7.07324
-2.66271 0.501417 7.02135
-2.67304 0.496773 6.97749
-2.68727 0.494324 6.94663
-2.69955 0.491801 6.91076
-2.70717 0.483593 6.82893
-2.71844 0.481068 6.79304
-2.73167 0.478619 6.76218
-2.74198 0.475034 6.7223
-2.74933 0.470359 6.67642
-2.76156 0.467909 6.64554
-2.76891 0.464233 6.59965
-2.76914 0.46179 6.56968
-2.7794 0.458279 6.5348
-2.79459 0.45692 6.50994
-2.79896 0.452198 6.46103
-2.81118 0.449778 6.43216
-2.8185 0.446162 6.39026
-2.82582 0.442545 6.34836
-2.82896 0.440266 6.32942
-2.83628 0.43665 6.28752
-2.84653 0.434169 6.25463
-2.85775 0.431748 6.22575
-2.87351 0.423265 6.12498
-2.88768 0.421949 6.1031
-2.89497 0.418392 6.0652
-2.90853 0.412307 5.99138
-2.91875 0.409885 5.96249
-2.92897 0.407463 5.9336
-2.93211 0.406184 5.91464
-2.93445 0.40152 5.86972
-2.94959 0.40025 5.85085
-2.95488 0.396692 5.81294
-2.96509 0.395299 5.78603
-2.97447 0.390551 5.73517
-2.98074 0.388038 5.70025
-2.98208 0.383373 5.65532
-3.00147 0.379617 5.60351
-3.01265 0.37827 5.57961
-3.01596 0.374681 5.53969
-3.02203 0.373537 5.52975
-3.02926 0.371098 5.49983
-3.03748 0.368675 5.47093
-3.04273 0.36619 5.438
-3.04995 0.363752 5.40809
-3.0552 0.361267 5.37516
-3.06554 0.357623 5.33128
-3.07473 0.35526 5.30639
-3.07404 0.351653 5.26543
-3.0862 0.350351 5.24454
-3.09438 0.348987 5.21961
-3.09764 0.345486 5.18569
-3.10682 0.344137 5.16177
-3.105 0.341796 5.13879
-3.11122 0.339371 5.10987
-3.11348 0.336869 5.07592
-3.1266 0.335627 5.05903
-3.13478 0.334293 5.03611
-3.1441 0.330663 4.99323
-3.15031 0.328268 4.96631
-3.16144 0.32701 4.94841
-3.16989 0.323142 4.88952
-3.18934 0.318283 4.83073
-3.19454 0.315888 4.8038
-3.2141 0.310806 4.73001
-3.22239 0.308235 4.69111
-3.23008 0.299909 4.60128
-3.25034 0.298405 4.56645
-3.25268 0.294741 4.52151
-3.26479 0.293528 4.50662
-3.26701 0.2911 4.47767
-3.27814 0.290857 4.46075
-3.28949 0.287184 4.41489
-3.31847 0.277296 4.28623
-3.44351 0.240468 3.75265
-3.45587 0.236766 3.70479
-3.46121 0.234119 3.66086
-3.46735 0.232842 3.64193
-3.47077 0.229016 3.586
-3.48999 0.227615 3.55816
-3.49513 0.226338 3.53922
-3.50558 0.222457 3.47934
-3.51163 0.222373 3.47339
-3.51081 0.220017 3.44942
-3.51991 0.219816 3.43549
-3.52323 0.217197 3.39354
-3.52936 0.21595 3.37661
-3.53459 0.21351 3.34668
-3.53773 0.212231 3.32772
-3.54584 0.212029 3.31378
-1.73797 0.933749 10.9285
-1.74551 0.92569 10.8567
-1.77004 0.918671 10.787
-2.41971 0.647803 8.0695
-2.43016 0.641923 8.00966
-2.44452 0.637223 7.96183
-2.44587 0.632543 7.9159
-2.45826 0.627798 7.86506
-2.46871 0.621917 7.80522
-2.48597 0.618427 7.77139
-2.49738 0.613636 7.71754
-2.50778 0.608859 7.66469
-2.52015 0.604158 7.61684
-2.52537 0.600732 7.58793
-2.53478 0.595925 7.53306
-2.54516 0.591193 7.4832
-2.56046 0.587627 7.44437
-2.57768 0.58521 7.41553
-2.58316 0.578267 7.35166
-2.59479 0.571047 7.26885
-2.61493 0.568781 7.25003
-2.61747 0.561732 7.17914
-2.62781 0.558073 7.13427
-2.64206 0.554595 7.10142
-2.65436 0.551027 7.06256
-2.65784 0.545082 6.99867
-2.66299 0.543805 6.97972
-2.67431 0.539177 6.93687
-2.68365 0.535532 6.89299
-2.69298 0.530888 6.84912
-2.70722 0.52844 6.81826
-2.7175 0.524885 6.78039
-2.72978 0.521361 6.74453
-2.75991 0.508163 6.59493
-2.76823 0.503547 6.55305
-2.77555 0.499931 6.51116
-2.81585 0.484415 6.33967
-2.82807 0.481995 6.31079
-2.83243 0.477287 6.26289
-2.8624 0.465415 6.13527
-2.87459 0.464054 6.11038
-2.88189 0.460482 6.07148
-2.91709 0.446154 5.91294
-2.92437 0.442627 5.87704
-2.93261 0.440159 5.84513
-2.96574 0.426963 5.69556
-2.97398 0.424511 5.66465
-2.98221 0.421058 5.63376
-3.03171 0.404163 5.43636
-3.05354 0.394566 5.32765
-3.06699 0.389688 5.26781
-3.08848 0.384756 5.20404
-3.09993 0.379877 5.14419
-3.10812 0.377513 5.11928
-3.11532 0.375118 5.09237
-3.12662 0.372549 5.05349
-3.13086 0.369079 5.02156
-3.13806 0.367699 4.99564
-3.14228 0.365258 4.9657
-3.15047 0.362909 4.94179
-3.15356 0.361719 4.92883
-3.15878 0.359293 4.8999
-3.16597 0.356928 4.87499
-3.17019 0.354502 4.84605
-3.18034 0.353214 4.82615
-3.18062 0.350681 4.79018
-3.19669 0.350545 4.7803
-3.19682 0.348293 4.76333
-3.205 0.346959 4.74041
-3.21218 0.344609 4.7165
-3.21638 0.343212 4.68955
-3.21862 0.33974 4.65761
-3.23172 0.339557 4.64471
-3.23593 0.337161 4.61777
-3.23506 0.335894 4.59978
-3.2373 0.332437 4.56885
-3.25139 0.332269 4.55695
-3.25955 0.330964 4.53603
-3.25979 0.328491 4.50406
-3.26893 0.327216 4.48515
-3.27511 0.32488 4.46223
-3.27523 0.323629 4.44524
-3.2814 0.322308 4.42331
-3.29054 0.321048 4.40539
-3.29176 0.317605 4.37545
-3.30929 0.312596 4.30665
-3.31039 0.311405 4.29367
-3.31061 0.308961 4.2637
-3.32272 0.308762 4.2498
-3.32888 0.306456 4.22887
-3.3301 0.304028 4.19991
-3.33725 0.302737 4.17999
-3.34032 0.302591 4.17001
-3.34153 0.300177 4.14205
-3.3467 0.298856 4.12011
-3.36418 0.293936 4.0573
-3.37143 0.291453 4.02439
-3.37659 0.290131 4.00244
-3.38691 0.286517 3.96057
-3.40316 0.28504 3.92771
-3.4004 0.281579 3.89673
-3.39852 0.280341 3.88074
-3.41557 0.28125 3.87385
-3.4118 0.277803 3.84387
-3.41497 0.276465 3.82091
-3.42409 0.275235 3.80499
-3.42527 0.27388 3.78102
-3.42239 0.271641 3.76503
-3.43151 0.271411 3.7491
-3.4428 0.268857 3.71122
-3.44695 0.267564 3.69126
-3.44814 0.265195 3.66631
-3.45923 0.265025 3.65439
-3.45734 0.263817 3.64039
-3.45853 0.261447 3.61543
-3.47079 0.258938 3.58056
-3.48522 0.255105 3.52371
-3.5009 0.248784 3.43391
-3.50919 0.246228 3.39601
-3.5174 0.244834 3.36909
-3.52468 0.242277 3.33117
-1.71297 1.01959 11.0531
-2.42183 0.701488 8.04772
-2.43229 0.694593 7.98689
-2.46198 0.685283 7.89724
-2.46036 0.680527 7.84629
-2.47176 0.674766 7.79446
-2.48706 0.671185 7.75462
-2.50042 0.666484 7.70678
-2.5167 0.662948 7.66995
-2.52808 0.657232 7.62112
-2.53651 0.651394 7.56426
-2.53976 0.647908 7.53133
-2.54818 0.642101 7.47647
-2.55759 0.637293 7.42161
-2.56796 0.631591 7.37376
-2.58811 0.630309 7.35393
-2.59651 0.625531 7.30106
-2.60686 0.620858 7.2552
-2.60715 0.616296 7.21726
-2.61945 0.612713 7.1774
-2.63077 0.6081 7.13555
-2.63719 0.60229 7.08068
-2.64948 0.598722 7.04182
-2.66372 0.596259 7.00996
-2.66596 0.592802 6.97902
-2.67725 0.589248 6.94115
-2.6905 0.585769 6.9083
-2.69493 0.579929 6.85141
-2.7062 0.576404 6.81554
-2.71749 0.57285 6.77768
-2.71773 0.569377 6.74572
-2.74323 0.563418 6.68
-2.75252 0.559863 6.64211
-2.75692 0.554082 6.58922
-2.76819 0.551572 6.55434
-2.77747 0.548016 6.51646
-2.7992 0.538611 6.42075
-2.80554 0.53395 6.37586
-2.81482 0.530424 6.33998
-2.82998 0.528109 6.31812
-2.83729 0.524523 6.27822
-2.83553 0.521048 6.24626
-2.84478 0.518566 6.21336
-2.85208 0.51398 6.17348
-2.86429 0.511589 6.1466
-2.87353 0.509122 6.1147
-2.88278 0.50564 6.08182
-2.89124 0.499744 6.02096
-2.90873 0.493795 5.95617
-2.91502 0.490237 5.91827
-2.92524 0.487815 5.88938
-2.93742 0.485469 5.8655
-2.94271 0.48191 5.82759
-2.95113 0.477102 5.77271
-2.95641 0.473544 5.7348
-2.96366 0.470076 5.7029
-2.97681 0.468789 5.68302
-2.98208 0.46526 5.64711
-2.98226 0.46292 5.62414
-2.9895 0.459452 5.59224
-3.0089 0.455681 5.53943
-3.01514 0.452212 5.50753
-3.01941 0.448683 5.47161
-3.06996 0.4307 5.26823
-3.0975 0.424655 5.19651
-3.11616 0.417381 5.10975
-3.13394 0.407869 5.00701
-3.1424 0.401988 4.94715
-3.15269 0.398418 4.90828
-3.17103 0.39578 4.86445
-3.18887 0.385135 4.75273
-3.23081 0.375331 4.62917
-3.23118 0.370606 4.58024
-3.25368 0.36566 4.51547
-3.535 0.271615 3.28581
-1.7289 1.0757 10.9244
-1.75158 1.06538 10.8347
-1.77707 1.05844 10.77
-2.4097 0.755666 8.05983
-2.42506 0.750967 8.01201
-2.43746 0.745206 7.96018
-2.45279 0.740566 7.91636
-2.46618 0.734821 7.86554
-2.47759 0.72903 7.8117
-2.48932 0.718604 7.71493
-2.50464 0.714008 7.67411
-2.51798 0.709337 7.62827
-2.52839 0.70356 7.57543
-2.53878 0.697798 7.52358
-2.55016 0.693067 7.47373
-2.5534 0.689596 7.4418
-2.56475 0.684923 7.39595
-2.57805 0.680341 7.35611
-2.58647 0.674533 7.30126
-2.60075 0.670996 7.26441
-2.60915 0.665218 7.21155
-2.63501 0.653564 7.0989
-2.64633 0.648951 7.05705
-2.65765 0.644338 7.0152
-2.66994 0.64077 6.97634
-2.68025 0.636185 6.93648
-2.6815 0.632683 6.90254
-2.69181 0.628099 6.86268
-2.70114 0.623454 6.81881
-2.71046 0.61984 6.77693
-2.72468 0.616421 6.74808
-2.73107 0.611656 6.69619
-2.74233 0.608161 6.66232
-2.74355 0.604733 6.63338
-2.77146 0.591977 6.51376
-2.7837 0.589527 6.48289
-2.79102 0.584911 6.441
-2.8062 0.583567 6.41714
-2.82105 0.570921 6.30542
-2.82933 0.567364 6.26753
-2.85179 0.561493 6.20778
-2.86006 0.557966 6.17189
-2.86954 0.55204 6.10904
-2.8778 0.548528 6.07415
-2.88509 0.543971 6.03626
-2.8963 0.54158 6.00938
-2.90455 0.538083 5.97549
-2.913 0.532216 5.91663
-2.92127 0.528704 5.88174
-2.94796 0.520362 5.79005
-2.9554 0.514524 5.73319
-3.02665 0.486166 5.4361
-3.04012 0.480273 5.37528
-3.07833 0.464933 5.21578
-3.26535 0.393303 4.42314
-3.27252 0.390983 4.40122
-3.35617 0.361863 4.05223
-3.37274 0.355751 3.97644
-3.39337 0.349537 3.89368
-3.40794 0.342423 3.81788
-3.41507 0.342176 3.80094
-3.42618 0.340977 3.78703
-3.42835 0.338638 3.76408
-3.42855 0.336254 3.73812
-3.43975 0.334877 3.71222
-3.43993 0.332522 3.68825
-3.44508 0.33123 3.6683
-3.44923 0.329937 3.64835
-3.46745 0.328521 3.61951
-3.46675 0.324943 3.58055
-3.48018 0.320094 3.52271
-3.4883 0.318878 3.50779
-3.48947 0.317539 3.48482
-3.48955 0.316376 3.47383
-3.49768 0.315145 3.45791
-3.49983 0.313836 3.43694
-3.50695 0.312619 3.42201
-3.51507 0.312388 3.40607
-3.5192 0.311124 3.38812
-3.52145 0.307638 3.35519
-3.53849 0.308576 3.3503
-3.52775 0.305065 3.31627
-3.54082 0.304926 3.30637
-1.73996 1.14848 10.9084
-1.76069 1.13707 10.8127
-1.78141 1.12569 10.719
-2.41547 0.816034 8.08398
-2.46934 0.788433 7.83876
-2.49409 0.776986 7.7401
-2.53116 0.760926 7.5996
-2.54286 0.750573 7.50783
-2.56753 0.741289 7.42014
-2.62003 0.719398 7.22283
-2.62546 0.712558 7.16597
-2.68718 0.688259 6.94076
-2.69358 0.681479 6.8879
-2.71615 0.674386 6.81317
-2.75167 0.651452 6.61375
-2.7781 0.646613 6.55601
-2.7967 0.637472 6.47827
-2.79592 0.634028 6.44832
-2.8062 0.630503 6.41244
-2.81645 0.627022 6.37956
-2.82671 0.623511 6.34469
-2.835 0.618955 6.30681
-2.84131 0.615353 6.26591
-2.84643 0.61312 6.24998
-2.85767 0.610669 6.2191
-2.86201 0.605007 6.17421
-2.87521 0.602631 6.14834
-2.87756 0.597938 6.10142
-2.89901 0.59108 6.04267
-2.89527 0.587574 6.00869
-2.90746 0.585213 5.98381
-2.922 0.578173 5.91302
-2.92827 0.573645 5.87713
-2.93947 0.571254 5.85024
-2.9418 0.566619 5.80732
-2.94987 0.565492 5.7984
-2.95318 0.560887 5.75749
-2.96733 0.559602 5.73761
-2.9667 0.553876 5.68868
-2.98379 0.553726 5.67781
-2.98708 0.549151 5.6389
-2.9963 0.546728 5.61
-3.00075 0.539859 5.55113
-3.00699 0.53639 5.51922
-3.02014 0.535103 5.49934
-3.02639 0.531634 5.46743
-3.03066 0.528105 5.43151
-3.03886 0.525711 5.40461
-3.04593 0.524583 5.39567
-3.05019 0.521083 5.36175
-3.05445 0.517583 5.32783
-3.06462 0.51525 5.30494
-3.06888 0.51175 5.27102
-3.07806 0.510401 5.24711
-3.08019 0.508151 5.23015
-3.08443 0.504681 5.19823
-3.09264 0.502287 5.17132
-3.09787 0.498832 5.14041
-3.10408 0.496437 5.11349
-3.11523 0.495149 5.09359
-3.12145 0.491725 5.06468
-3.11961 0.489398 5.0427
-3.12779 0.487063 5.01979
-3.13993 0.485791 5.0009
-3.13824 0.481198 4.96095
-3.15036 0.479955 4.94406
-3.15558 0.477545 4.91613
-3.16685 0.47402 4.88026
-3.16713 0.470473 4.84331
-3.19064 0.464483 4.77557
-3.19585 0.462088 4.74864
-3.19302 0.45876 4.72666
-3.20217 0.457471 4.70675
-3.22789 0.449069 4.61105
-3.23408 0.446703 4.58613
-3.23321 0.444466 4.57016
-3.23741 0.442069 4.54322
-3.24358 0.439733 4.5203
-3.24779 0.437337 4.49336
-3.26484 0.437246 4.48649
-3.26113 0.433681 4.44851
-3.27422 0.433512 4.43661
-3.27038 0.430199 4.41563
-3.27556 0.428847 4.39168
-3.2847 0.426588 4.37378
-3.29901 0.423976 4.33192
-3.31123 0.421556 4.30305
-3.31047 0.418097 4.27209
-3.32158 0.416883 4.25719
-3.32576 0.415546 4.23424
-3.33016 0.409764 4.18135
-3.34127 0.408551 4.16645
-3.34238 0.407344 4.15247
-3.33862 0.403868 4.12049
-3.35073 0.403669 4.10658
-3.35192 0.401285 4.08062
-3.36007 0.40001 4.0617
-3.37028 0.397603 4.03381
-3.37247 0.395235 4.00886
-3.37367 0.392851 3.9829
-3.38378 0.391636 3.96799
-3.39191 0.390391 3.95107
-3.40123 0.386761 3.90819
-3.4055 0.383246 3.87327
-3.41064 0.381969 3.85432
-3.41579 0.380676 3.83438
-3.42094 0.378384 3.81445
-3.43828 0.375731 3.76961
-3.4365 0.372315 3.74164
-3.44561 0.372099 3.72671
-3.44878 0.369776 3.70477
-3.4559 0.368545 3.68884
-3.45113 0.365082 3.65785
-3.46422 0.364929 3.64695
-3.46331 0.363751 3.63496
-3.46945 0.362474 3.61602
-3.4736 0.361181 3.59607
-3.47179 0.35881 3.57108
-3.48108 0.355254 3.5332
-3.48622 0.353977 3.51426
-3.49226 0.353907 3.5093
-3.48847 0.35049 3.48132
-3.49758 0.350289 3.46739
-3.50668 0.350088 3.45346
-3.5019 0.346656 3.42447
-3.51299 0.346501 3.41356
-3.51407 0.345339 3.40258
-3.51523 0.343029 3.38162
-3.52334 0.342813 3.36668
-3.52847 0.341565 3.34974
-3.53179 0.337946 3.30781
-3.54189 0.337761 3.29489
-3.53916 0.334226 3.25891
-1.7331 1.21512 10.8843
-1.75673 1.2049 10.8006
-1.77554 1.19134 10.695
-2.41473 0.865465 8.04524
-2.42519 0.85757 7.98443
-2.43954 0.8519 7.93861
-2.45586 0.84729 7.8968
-2.46532 0.840394 7.83596
-2.48064 0.834784 7.79415
-2.49399 0.830113 7.74832
-2.49824 0.825628 7.71541
-2.50963 0.819882 7.66458
-2.52296 0.81524 7.62074
-2.53534 0.80851 7.57092
-2.54476 0.802702 7.51607
-2.55807 0.798105 7.47524
-2.56975 0.786797 7.38648
-2.58011 0.781094 7.33864
-2.59636 0.777618 7.30581
-2.6028 0.770779 7.24895
-2.61708 0.766227 7.21112
-2.62939 0.762644 7.17126
-2.63875 0.756941 7.12341
-2.63902 0.752409 7.08747
-2.65524 0.748991 7.05864
-2.66066 0.742181 7.00377
-2.67394 0.738643 6.96692
-2.68426 0.734029 6.92506
-2.69556 0.729446 6.88521
-2.69777 0.726048 6.85827
-2.71004 0.721524 6.82243
-2.71643 0.715774 6.77155
-2.72868 0.712295 6.73869
-2.74193 0.708816 6.70584
-2.7483 0.703096 6.65696
-2.74658 0.698562 6.62101
-2.76373 0.697278 6.60116
-2.76813 0.690497 6.54828
-2.78037 0.687047 6.51742
-2.7926 0.683598 6.48656
-2.80189 0.680042 6.44868
-2.81216 0.675517 6.41282
-2.8104 0.672042 6.38085
-2.81772 0.667426 6.33897
-2.82503 0.662839 6.29909
-2.84751 0.655909 6.23535
-2.85873 0.652488 6.20648
-2.86821 0.645562 6.14365
-2.87745 0.642096 6.11176
-2.89792 0.635193 6.05001
-2.90521 0.631636 6.01211
-2.91348 0.627124 5.97724
-2.9168 0.62249 5.93433
-2.91405 0.618015 5.90237
-2.93017 0.61779 5.88649
-2.93547 0.613202 5.84659
-2.94371 0.609749 5.8157
-2.9559 0.607388 5.79082
-2.95822 0.601753 5.74792
-2.96942 0.599377 5.72204
-2.96763 0.595961 5.69407
-2.9729 0.592432 5.65816
-2.98212 0.58901 5.62927
-2.99231 0.586647 5.60438
-2.99858 0.583134 5.56947
-3.00581 0.579695 5.53958
-3.00795 0.577416 5.52062
-3.01815 0.575038 5.49473
-3.02439 0.571569 5.46283
-3.03457 0.569221 5.43893
-3.0418 0.565783 5.40904
-3.04803 0.563329 5.37811
-3.05626 0.559905 5.34922
-3.05542 0.557579 5.32725
-3.07282 0.551808 5.27446
-3.07707 0.548337 5.24254
-3.08429 0.545913 5.21362
-3.09248 0.543549 5.18872
-3.09362 0.541269 5.16975
-3.10379 0.538951 5.14786
-3.11523 0.533086 5.08903
-3.12145 0.529661 5.06012
-3.12766 0.527266 5.0332
-3.13585 0.524902 5.00829
-3.13698 0.522652 4.99133
-3.13924 0.51915 4.9574
-3.15434 0.517954 4.94353
-3.16153 0.515589 4.91861
-3.16377 0.512117 4.88668
-3.17392 0.510829 4.86677
-3.18309 0.50851 4.84487
-3.17828 0.506136 4.81986
-3.18449 0.502741 4.79296
-3.19095 0.496843 4.73209
-3.20504 0.495676 4.72021
-3.2132 0.494371 4.69929
-3.21544 0.490899 4.66735
-3.22051 0.48977 4.6584
-3.22275 0.486298 4.62647
-3.23289 0.485039 4.60856
-3.24524 0.480352 4.56172
-3.25341 0.479032 4.53979
-3.24957 0.475719 4.51881
-3.26366 0.475552 4.50692
-3.26292 0.472048 4.47296
-3.27503 0.470835 4.45807
-3.27626 0.467392 4.42812
-3.28343 0.466071 4.40619
-3.29588 0.460192 4.34637
-3.30722 0.455535 4.30151
-3.31043 0.453137 4.27457
-3.31658 0.450831 4.25365
-3.32187 0.447273 4.21573
-3.33497 0.44709 4.20283
-3.33815 0.444737 4.17889
-3.33937 0.441309 4.14995
-3.34949 0.441094 4.13502
-3.35674 0.437611 4.10212
-3.36389 0.43632 4.08219
-3.36112 0.432859 4.05122
-3.3764 0.429323 4.01438
-3.38584 0.424471 3.95652
-3.39397 0.423226 3.9396
-3.40944 0.417319 3.87779
-3.42382 0.41359 3.82795
-3.44362 0.404035 3.72222
-3.45273 0.40282 3.70731
-3.45481 0.402673 3.69732
-3.45301 0.399273 3.67036
-3.46845 0.394425 3.61254
-3.47982 0.390708 3.56367
-3.48298 0.3884 3.54273
-3.49227 0.385844 3.50483
-3.50264 0.381141 3.45697
-3.50579 0.379833 3.43601
-3.52202 0.378401 3.40615
-3.52021 0.375029 3.38118
-3.53047 0.372519 3.34629
-3.53057 0.371341 3.33431
-3.53686 0.367769 3.2954
-1.72847 1.29025 10.9602
-1.74921 1.27782 10.8625
-1.77284 1.26662 10.7808
-1.79064 1.25307 10.6752
-2.41962 0.916611 8.05452
-2.48781 0.880399 7.76753
-2.55187 0.847436 7.49746
-2.58592 0.830404 7.35895
-2.61184 0.815648 7.23935
-2.65418 0.795059 7.06295
-2.67901 0.781465 6.95432
-2.68933 0.776851 6.91246
-2.74106 0.7495 6.68423
-2.75234 0.744976 6.64837
-2.76994 0.735805 6.56863
-2.80393 0.720906 6.43909
-2.8132 0.71638 6.40322
-2.85977 0.692366 6.1979
-2.90622 0.670573 6.00754
-2.92273 0.663594 5.94076
-2.94783 0.646466 5.79619
-2.95589 0.646354 5.78825
-2.96314 0.641856 5.75436
-2.97138 0.638403 5.72347
-2.98917 0.626877 5.61976
-2.99722 0.62578 5.61284
-3.00348 0.622281 5.57893
-3.01268 0.619888 5.55203
-3.02814 0.613012 5.49224
-3.0334 0.609512 5.45833
-3.04175 0.603823 5.41147
-3.04997 0.6004 5.38258
-3.06966 0.591082 5.29285
-3.08718 0.583074 5.2241
-3.10585 0.573786 5.13636
-3.14002 0.557532 4.98284
-3.15017 0.556243 4.96293
-3.17286 0.545913 4.87224
-3.17905 0.543533 4.84632
-3.20593 0.531836 4.73068
-3.21114 0.52844 4.70377
-3.22449 0.523754 4.65693
-3.25133 0.513146 4.54727
-3.27812 0.502611 4.44262
-3.46931 0.426674 3.62907
-3.49727 0.415815 3.50242
-3.50853 0.412305 3.46756
-3.52196 0.407486 3.41172
-3.52303 0.407339 3.40173
-2.40963 0.960525 8.04879
-2.42597 0.954886 8.00499
-2.42437 0.9471 7.95209
-2.43874 0.941401 7.90428
-2.45211 0.934685 7.85547
-2.46644 0.929045 7.81166
-2.47982 0.923315 7.76183
-2.49024 0.916509 7.70701
-2.49251 0.910978 7.6711
-2.50781 0.906412 7.63228
-2.51628 0.898501 7.57045
-2.5296 0.892889 7.52863
-2.54 0.886127 7.4768
-2.55527 0.882605 7.44096
-2.56369 0.874783 7.38513
-2.56694 0.870312 7.35322
-2.59061 0.860027 7.26554
-2.60195 0.85437 7.2207
-2.6123 0.848697 7.17485
-2.62166 0.841993 7.12702
-2.63397 0.83741 7.08717
-2.65981 0.823787 6.97655
-2.67013 0.818173 6.93471
-2.68045 0.813559 6.89285
-2.69272 0.809035 6.857
-2.70107 0.803361 6.81114
-2.71359 0.794364 6.74336
-2.73614 0.7863 6.67064
-2.75082 0.774994 6.58191
-2.76111 0.770424 6.54305
-2.77358 0.762516 6.48125
-2.80241 0.748924 6.37265
-2.81268 0.745414 6.33778
-2.82414 0.73752 6.27697
-2.86021 0.721459 6.13646
-2.89643 0.702104 5.976
-2.9037 0.697576 5.94012
-2.93984 0.680398 5.79162
-2.94611 0.67587 5.75573
-2.95434 0.672417 5.72484
-2.96258 0.668964 5.69395
-2.98217 0.659824 5.61622
-2.98942 0.656341 5.58332
-2.99568 0.651843 5.54943
-3.00588 0.649465 5.52354
-3.01015 0.644936 5.48764
-3.02773 0.635824 5.41189
-3.05039 0.626553 5.32519
-3.05563 0.623084 5.29327
-3.08759 0.609227 5.1667
-3.09283 0.605773 5.13579
-3.09791 0.604613 5.12484
-3.10413 0.601189 5.09594
-3.16507 0.573445 4.84077
-3.17227 0.570066 4.81487
-3.20435 0.554988 4.67332
-3.22278 0.549158 4.61654
-3.23936 0.542045 4.54076
-3.24974 0.536313 4.49091
-1.79052 1.38812 10.6782
-3.18533 0.611908 4.80335
-3.20588 0.603842 4.73061
-3.22234 0.597952 4.66982
-3.23891 0.588854 4.59507
-3.24941 0.581885 4.52924
-3.26276 0.577214 4.4834
-3.27843 0.566923 4.39566
-3.28879 0.562221 4.3478
-3.3031 0.557639 4.30797
-3.30739 0.553065 4.26907
