-2.85027 0.441852 5.89634
-2.94025 0.407087 5.50347
-2.98148 0.392704 5.34097
-2.98576 0.390174 5.30504
-2.991 0.386705 5.27313
-3.00755 0.380636 5.20033
-3.02098 0.375802 5.1435
-3.02819 0.373408 5.11658
-3.03934 0.37212 5.09668
-3.0467 0.368415 5.04879
-3.04895 0.364928 5.01585
-3.05616 0.362534 4.98893
-3.06532 0.361215 4.96702
-3.07154 0.35879 4.9381
-3.08409 0.352734 4.86627
-3.09127 0.350384 4.84236
-3.10241 0.350125 4.82444
-3.11058 0.347791 4.80154
-3.11381 0.345335 4.77059
-3.11494 0.344099 4.75462
-3.12112 0.341733 4.7297
-3.12732 0.339353 4.70377
-3.13153 0.336942 4.67584
-3.14068 0.335652 4.65592
-3.14589 0.333256 4.62899
-3.15404 0.331966 4.60907
-3.15121 0.329639 4.58708
-3.15937 0.328334 4.56616
-3.16752 0.327044 4.54624
-3.17568 0.325724 4.52432
-3.17791 0.323281 4.49436
-3.19125 0.319625 4.44951
-3.19038 0.318373 4.43252
-3.20249 0.31716 4.41763
-3.20668 0.314793 4.39269
-3.21086 0.313441 4.36874
-3.21332 0.307554 4.30884
-3.22542 0.307356 4.29493
-3.23048 0.307241 4.28697
-3.22873 0.303751 4.254
-3.23489 0.302445 4.23307
-3.24204 0.301154 4.21314
-3.24821 0.298833 4.19121
-3.25041 0.29745 4.16525
-3.26141 0.297443 4.16433
-3.25965 0.294983 4.13335
-3.26284 0.292615 4.10841
-3.27394 0.292431 4.09549
-3.26822 0.288864 4.05749
-3.28228 0.288756 4.0496
-3.28547 0.286388 4.02466
-3.28261 0.28512 4.00665
-3.28876 0.283828 3.98671
-3.30284 0.283691 3.97682
-3.29314 0.279092 3.93681
-3.30127 0.277846 3.91989
-3.31435 0.277693 3.90899
-3.30752 0.275362 3.88697
-3.31565 0.275116 3.87003
-3.31981 0.272808 3.84909
-3.32694 0.271547 3.83116
-3.32813 0.270178 3.80619
-3.34121 0.270039 3.79629
-3.34042 0.267624 3.76831
-3.34765 0.265186 3.7384
-3.35614 0.260215 3.67253
-3.35931 0.258892 3.65057
-3.36446 0.256614 3.63164
-3.37446 0.257607 3.6307
-3.37998 0.252604 3.5628
-3.40135 0.249894 3.514
-3.3935 0.247593 3.49397
-3.40792 0.243774 3.43813
-3.42134 0.239955 3.38228
-3.42755 0.23756 3.35536
-3.4566 0.228524 3.21669
-3.47595 0.225842 3.16987
-3.49074 0.219313 3.06606
-3.55285 0.202228 2.78775
-2.50529 0.639919 7.46702
-2.51861 0.636307 7.42517
-2.52703 0.6305 7.37031
-2.52927 0.627028 7.33837
-2.54357 0.623461 7.29953
-2.55 0.617622 7.24266
-2.56232 0.61301 7.20081
-2.57561 0.609457 7.16296
-2.58398 0.604738 7.11409
-2.59628 0.601155 7.07423
-2.59949 0.597758 7.0473
-2.60786 0.593039 6.99842
-2.61721 0.588365 6.95256
-2.62752 0.583751 6.9107
-2.6349 0.579031 6.86181
-2.65108 0.577687 6.83795
-2.66801 0.56488 6.71525
-2.67733 0.560265 6.67339
-2.68958 0.557785 6.64051
-2.70281 0.554351 6.61066
-2.7121 0.550781 6.57177
-2.71967 0.543676 6.49693
-2.72896 0.539121 6.45906
-2.73432 0.534414 6.41116
-2.74555 0.531978 6.38128
-2.75483 0.528438 6.3444
-2.77162 0.517911 6.24066
-2.78285 0.51546 6.20978
-2.7931 0.511994 6.17791
-2.80433 0.509543 6.14702
-2.80669 0.50485 6.1001
-2.81181 0.503602 6.08316
-2.81909 0.500074 6.04726
-2.82441 0.495457 6.00536
-2.83956 0.494172 5.98549
-2.84288 0.489538 5.94258
-2.85016 0.48601 5.90668
-2.86136 0.483619 5.8798
-2.88296 0.476465 5.80106
-2.88958 0.468257 5.71922
-2.90471 0.467016 5.70235
-2.91 0.463457 5.66443
-2.91938 0.45871 5.61357
-2.92466 0.455181 5.57765
-2.93485 0.453818 5.55275
-2.95473 0.442101 5.43605
-2.96098 0.439617 5.40313
-2.9846 0.432421 5.32141
-3.00413 0.425414 5.25265
-3.01885 0.417019 5.15787
-3.04312 0.414489 5.12109
-3.05698 0.403826 5.00833
-3.12219 0.378552 4.71716
-3.442 0.265649 3.29304
-3.45226 0.263139 3.25815
-3.4597 0.259286 3.20026
-3.47003 0.255642 3.15638
-3.48243 0.252881 3.10451
-3.48556 0.251617 3.08655
-3.52386 0.240114 2.91598
-3.56904 0.230822 2.75944
-2.49719 0.691056 7.4762
-2.51149 0.687474 7.43636
-2.52089 0.681697 7.38351
-2.53224 0.677024 7.33766
-2.54458 0.672382 7.29381
-2.54388 0.66779 7.25387
-2.55523 0.663117 7.20802
-2.56753 0.658534 7.16817
-2.57789 0.653847 7.12131
-2.58824 0.649173 7.07545
-2.59956 0.64456 7.0336
-2.6089 0.639886 6.98774
-2.62244 0.63186 6.91795
-2.6308 0.627156 6.87007
-2.64112 0.622542 6.82821
-2.65144 0.617928 6.78635
-2.66174 0.614343 6.74648
-2.68258 0.602716 6.63579
-2.69089 0.598115 6.59492
-2.70314 0.595636 6.56204
-2.71049 0.589961 6.51617
-2.72175 0.586466 6.48231
-2.72296 0.584052 6.45435
-2.76108 0.56889 6.30684
-2.76937 0.565333 6.26895
-2.77863 0.561837 6.23507
-2.79934 0.552461 6.14135
-2.80368 0.547798 6.09644
-2.82514 0.541926 6.03668
-2.83045 0.537323 5.99579
-2.8399 0.531457 5.93694
-2.86465 0.521995 5.83725
-2.87193 0.518467 5.80135
-2.90506 0.503272 5.6518
-2.91956 0.496321 5.58701
-2.92465 0.496147 5.57505
-2.94538 0.486726 5.47833
-2.96509 0.477349 5.3846
-3.18447 0.387109 4.41446
-3.33339 0.332583 3.7653
-3.3705 0.321449 3.61972
-3.40568 0.309165 3.46415
-3.40684 0.30784 3.44217
-3.41793 0.307686 3.43126
-3.42325 0.304068 3.38935
-3.4264 0.302774 3.36939
-3.42856 0.300465 3.34843
-3.43791 0.296776 3.30155
-3.45015 0.295311 3.26966
-3.45429 0.294048 3.25171
-3.45545 0.291738 3.23075
-3.45752 0.291591 3.22076
-3.47191 0.287847 3.16992
-3.47208 0.285522 3.14795
-3.47521 0.284257 3.12999
-3.48439 0.282924 3.10708
-3.4986 0.281505 3.0782
-3.51001 0.277729 3.02534
-3.50512 0.276503 3.01032
-3.52132 0.27513 2.98446
-3.52873 0.271321 2.92956
-3.53293 0.268939 2.90362
-3.54133 0.265161 2.85074
-3.54446 0.263912 2.83378
-3.55774 0.262359 2.79589
-3.56896 0.260938 2.767
-3.57408 0.259719 2.75205
-3.57422 0.258438 2.73307
-3.57338 0.256127 2.71209
-3.57345 0.255994 2.70309
-3.58155 0.255807 2.69016
-2.51328 0.74381 7.45854
-2.56287 0.720753 7.25023
-2.60158 0.694438 7.02488
-2.6168 0.692019 6.99602
-2.63451 0.681656 6.9033
-2.67206 0.658665 6.69989
-2.69657 0.651691 6.63317
-2.7296 0.636688 6.49662
-2.73301 0.630906 6.44373
-2.74915 0.629637 6.42487
-2.75548 0.62499 6.38098
-2.77208 0.615848 6.30323
-2.78451 0.610014 6.2464
-2.78885 0.605351 6.20149
-2.80303 0.603006 6.17763
-2.80639 0.597313 6.13074
-2.82055 0.596013 6.10986
-2.82685 0.591425 6.06997
-2.82608 0.587981 6.04001
-2.83827 0.58562 6.01513
-2.83964 0.579896 5.96622
-2.85516 0.572901 5.89843
-2.86834 0.570555 5.87456
-2.8687 0.564845 5.82664
-2.87874 0.564778 5.82172
-2.87812 0.559038 5.77179
-2.8962 0.558888 5.76093
-2.8946 0.553118 5.709
-2.90382 0.549695 5.68011
-2.91993 0.549485 5.66523
-2.91928 0.543804 5.61931
-2.91946 0.541449 5.59534
-2.9336 0.539178 5.57648
-2.93492 0.535572 5.53554
-2.94412 0.532179 5.50865
-2.95431 0.529817 5.48376
-2.95761 0.526242 5.44483
-2.95973 0.523992 5.42788
-2.96795 0.521569 5.39897
-2.97714 0.519206 5.37407
-2.98239 0.515736 5.34216
-2.98467 0.511175 5.30424
-2.99781 0.509918 5.28635
-3.00108 0.506388 5.25043
-3.00321 0.504138 5.23347
-3.01041 0.501758 5.20756
-3.01763 0.499334 5.17865
-3.02089 0.495834 5.14472
-3.03727 0.491106 5.0949
-3.0456 0.486461 5.05103
-3.05083 0.483021 5.02112
-3.06394 0.482808 5.00622
-3.07016 0.479383 4.97731
-3.07044 0.475836 4.94036
-3.08651 0.475714 4.93148
-3.08397 0.46881 4.87055
-3.10327 0.465232 4.83075
-3.10354 0.461714 4.7958
-3.11593 0.455954 4.74397
-3.12693 0.456962 4.74404
-3.12224 0.452352 4.70306
-3.12745 0.449956 4.67613
-3.13364 0.44759 4.65121
-3.14798 0.442935 4.60638
-3.16219 0.441531 4.57851
-3.16047 0.436982 4.54156
-3.18789 0.433173 4.48581
-3.18022 0.427531 4.44283
-3.19937 0.427249 4.42298
-3.20502 0.417981 4.33715
-3.22462 0.410826 4.25839
-3.2387 0.410688 4.2485
-3.25256 0.400011 4.13474
-3.26466 0.398827 4.12185
-3.26586 0.396443 4.09589
-3.27301 0.395152 4.07596
-3.28014 0.393891 4.05803
-3.28235 0.391493 4.03108
-3.2765 0.388193 4.01108
-3.28979 0.38564 3.97321
-3.29693 0.384364 3.95428
-3.29714 0.380965 3.92733
-3.30625 0.380749 3.9124
-3.31339 0.379473 3.89347
-3.31548 0.378312 3.8825
-3.31865 0.375974 3.85956
-3.32479 0.374712 3.84162
-3.32796 0.372374 3.81868
-3.33311 0.371097 3.79973
-3.34223 0.369866 3.78382
-3.34639 0.368559 3.76286
-3.34945 0.367442 3.7549
-3.35063 0.365088 3.73094
-3.34984 0.362673 3.70297
-3.36093 0.362503 3.69105
-3.35914 0.359103 3.66409
-3.37122 0.358949 3.65318
-3.36645 0.355501 3.62319
-3.37942 0.356555 3.62627
-3.37764 0.354139 3.59829
-3.38476 0.352908 3.58236
-3.38891 0.351615 3.56241
-3.39702 0.350399 3.54748
-3.39125 0.34695 3.51749
-3.39539 0.345672 3.49853
-3.39548 0.344495 3.48655
-3.40972 0.342046 3.45569
-3.41882 0.341846 3.44176
-3.41701 0.339474 3.41678
-3.42314 0.338227 3.39984
-3.42026 0.336003 3.38485
-3.42754 0.333446 3.34694
-3.43664 0.33326 3.33401
-3.4378 0.33095 3.31305
-3.44393 0.329703 3.29611
-3.44913 0.327307 3.26918
-3.45129 0.325998 3.24821
-3.46039 0.325812 3.23528
-3.45758 0.32244 3.21031
-3.46171 0.321191 3.19335
-3.47081 0.321006 3.18042
-3.48081 0.321998 3.17948
-3.47303 0.318563 3.15047
-3.48412 0.318408 3.13956
-3.47931 0.31502 3.11357
-3.48841 0.314834 3.10064
-3.48758 0.312508 3.07866
-3.49468 0.312321 3.06572
-3.50103 0.30863 3.01881
-3.51409 0.308521 3.01091
-3.5144 0.304914 2.96996
-3.52854 0.304658 2.95207
-3.52586 0.301034 2.9101
-3.53709 0.298584 2.87921
-3.54632 0.297132 2.8483
-3.54754 0.294718 2.82034
-3.55379 0.292219 2.78642
-3.567 0.290814 2.75854
-2.48982 0.800631 7.51453
-2.50022 0.793869 7.4627
-2.51256 0.789212 7.41786
-2.52394 0.782481 7.36804
-2.53821 0.778958 7.33219
-2.54956 0.773286 7.28636
-2.56286 0.768704 7.24652
-2.55924 0.762961 7.19657
-2.57156 0.758349 7.15472
-2.58483 0.753826 7.11889
-2.59421 0.748108 7.07003
-2.60944 0.74466 7.0392
-2.61977 0.740016 6.99534
-2.62519 0.733206 6.94047
-2.62644 0.728734 6.90854
-2.63872 0.725181 6.87068
-2.6461 0.719446 6.82082
-2.65641 0.714862 6.78096
-2.66966 0.711383 6.7481
-2.67898 0.705754 6.70525
-2.67726 0.70122 6.6693
-2.69051 0.697741 6.63645
-2.69686 0.69205 6.58957
-2.70911 0.688571 6.55671
-2.7184 0.685015 6.51883
-2.72476 0.679324 6.47195
-2.73798 0.675905 6.4431
-2.73821 0.672461 6.41315
-2.74651 0.667875 6.37327
-2.75776 0.664395 6.3404
-2.77095 0.662035 6.31554
-2.77728 0.656388 6.27166
-2.78557 0.652832 6.23377
-2.79583 0.648336 6.19991
-2.7921 0.644801 6.16393
-2.80628 0.642471 6.14107
-2.8126 0.636854 6.09919
-2.82185 0.633373 6.06631
-2.82914 0.629816 6.02841
-2.84329 0.627515 6.00755
-2.8496 0.622928 5.96766
-2.84486 0.618407 5.93269
-2.85018 0.613789 5.89079
-2.86137 0.611427 5.8659
-2.86569 0.606809 5.824
-2.87885 0.604508 5.80313
-2.88119 0.598843 5.75822
-2.88728 0.59867 5.74627
-2.89553 0.595188 5.71338
-2.90376 0.59175 5.68349
-2.91003 0.587222 5.6476
-2.91629 0.583723 5.61369
-2.92747 0.581376 5.58981
-2.93472 0.577908 5.55791
-2.94081 0.576735 5.54597
-2.94016 0.571039 5.49905
-2.94838 0.568631 5.47114
-2.95956 0.566283 5.44725
-2.9658 0.562814 5.41535
-2.96909 0.558255 5.37744
-2.98139 0.554672 5.33758
-2.99682 0.548854 5.28177
-3.00601 0.546491 5.25687
-3.00435 0.540824 5.21194
-3.02909 0.530392 5.11426
-3.03925 0.529088 5.09336
-3.04349 0.525618 5.06144
-3.0507 0.522223 5.03454
-3.05593 0.519768 5.00361
-3.05903 0.518578 4.99065
-3.06948 0.511713 4.93182
-3.09795 0.506801 4.8691
-3.09627 0.501193 4.82816
-3.0964 0.499942 4.81118
-3.11174 0.495272 4.76536
-3.12809 0.490603 4.71954
-3.12934 0.487116 4.6866
-3.12848 0.484849 4.66862
-3.14555 0.485728 4.65974
-3.14777 0.482286 4.6298
-3.15297 0.478905 4.60389
-3.15816 0.476539 4.57896
-3.17027 0.476325 4.56405
-3.16856 0.471777 4.5271
-3.17584 0.46822 4.4892
-3.18005 0.464823 4.46228
-3.1882 0.463533 4.44236
-3.19635 0.462243 4.42244
-3.20352 0.459923 4.40052
-3.2077 0.457571 4.37659
-3.21178 0.456426 4.36663
-3.20906 0.451876 4.32967
-3.22017 0.451662 4.31476
-3.22237 0.448279 4.28882
-3.22656 0.445912 4.26388
-3.23778 0.443476 4.234
-3.24 0.441063 4.20605
-3.24912 0.439818 4.18913
-3.25034 0.436405 4.16119
-3.25748 0.435129 4.14226
-3.26067 0.432761 4.11732
-3.26484 0.430424 4.09438
-3.27606 0.428003 4.0655
-3.27925 0.42565 4.04155
-3.29035 0.424451 4.02765
-3.28561 0.420944 3.99366
-3.30068 0.420822 3.98478
-3.30385 0.418484 3.96183
-3.29603 0.416123 3.9378
-3.30515 0.414893 3.92189
-3.31031 0.412601 3.90196
-3.3115 0.410217 3.876
-3.32359 0.410048 3.86409
-3.3329 0.406448 3.82321
-3.33004 0.40418 3.80522
-3.33935 0.40058 3.76434
-3.34549 0.399318 3.7464
-3.35559 0.398118 3.73249
-3.35182 0.394671 3.70251
-3.3639 0.394517 3.6916
-3.36896 0.394417 3.68464
-3.36915 0.392032 3.65867
-3.37627 0.390801 3.64274
-3.38141 0.388538 3.62481
-3.37863 0.386107 3.59582
-3.38477 0.384845 3.57789
-3.38684 0.383698 3.56792
-3.389 0.381389 3.54696
-3.39216 0.380081 3.526
-3.39929 0.378834 3.50907
-3.4064 0.377617 3.49414
-3.41452 0.376401 3.47922
-3.41082 0.372807 3.43924
-3.41795 0.37156 3.42231
-3.42605 0.370359 3.40839
-3.42027 0.366926 3.37939
-3.43236 0.366772 3.36848
-3.43064 0.363223 3.33152
-3.4447 0.363115 3.32362
-3.4528 0.362928 3.31069
-3.44602 0.359479 3.28068
-3.45214 0.358247 3.26474
-3.45727 0.356999 3.2478
-3.46051 0.354542 3.21685
-3.47159 0.354388 3.20594
-3.4658 0.350984 3.17894
-3.47688 0.350829 3.16803
-3.47903 0.348535 3.14807
-3.48514 0.348317 3.13312
-3.48928 0.347053 3.11517
-3.48639 0.344844 3.10118
-3.48952 0.34358 3.08322
-3.50473 0.342192 3.05635
-3.50389 0.339865 3.03437
-3.50703 0.338601 3.01641
-3.51216 0.337353 2.99947
-3.51949 0.333707 2.95557
-3.5256 0.33349 2.94062
-3.52575 0.331194 2.92065
-3.53385 0.331007 2.90771
-3.534 0.328712 2.88775
-3.53309 0.327548 2.87675
-3.54134 0.325066 2.84385
-3.55455 0.323661 2.81597
-3.55867 0.323427 2.8
-3.56179 0.322192 2.78404
-3.56287 0.321045 2.77406
-3.56599 0.319811 2.7581
-3.56812 0.318546 2.74013
-3.57423 0.317343 2.72619
-3.57338 0.316046 2.7062
-2.54236 0.822616 7.30857
-2.5537 0.816944 7.26274
-2.56699 0.812391 7.2249
-2.57733 0.806733 7.18005
-2.61156 0.787361 7.01858
-2.62929 0.775968 6.92387
-2.65089 0.7658 6.84417
-2.6612 0.761216 6.80431
-2.6737 0.753248 6.73851
-2.68302 0.748633 6.69664
-2.70359 0.739524 6.62092
-2.72952 0.724738 6.49932
-2.73269 0.7224 6.47638
-2.74297 0.717874 6.44052
-2.75224 0.713348 6.40465
-2.7708 0.705267 6.3309
-2.7803 0.697312 6.26608
-2.78857 0.692785 6.2302
-2.7998 0.690335 6.19932
-2.8071 0.684763 6.16045
-2.81537 0.681251 6.12556
-2.83407 0.669889 6.03286
-2.83938 0.665286 5.99196
-2.85059 0.662894 5.96508
-2.85491 0.657276 5.92318
-2.87651 0.648108 5.84347
-2.88673 0.645687 5.81458
-2.89239 0.635418 5.72876
-2.90849 0.634223 5.7149
-2.92102 0.626211 5.6461
-2.92415 0.623962 5.62916
-2.9337 0.615888 5.55634
-2.95309 0.610133 5.50456
-2.95934 0.606649 5.47166
-2.97265 0.602067 5.43182
-2.971 0.596385 5.38589
-2.99957 0.589281 5.3102
-3.01217 0.580121 5.23142
-3.02136 0.577758 5.20652
-3.03479 0.570939 5.15071
-3.04299 0.568546 5.1238
-3.04442 0.561718 5.06791
-3.05161 0.559339 5.042
-3.06473 0.558126 5.02711
-3.06799 0.554625 4.99318
-3.08561 0.545425 4.91144
-3.09068 0.54428 4.90149
-3.10012 0.538444 4.84464
-3.12068 0.530349 4.76991
-3.13616 0.524428 4.7071
-3.16721 0.510408 4.56952
-3.23237 0.481238 4.28541
-3.26648 0.467088 4.13885
-3.27164 0.464781 4.11792
-3.31621 0.44475 3.91153
-3.32246 0.442266 3.87861
-3.43849 0.394477 3.34812
-3.4476 0.393276 3.3342
-3.47863 0.382286 3.19858
-3.48713 0.376301 3.13172
-3.50135 0.374882 3.10285
-3.50762 0.371353 3.06694
-3.51275 0.37012 3.051
-3.50885 0.36891 3.03698
-3.51512 0.365382 3.00108
-3.53781 0.359052 2.91033
-3.54293 0.357833 2.89538
-3.54705 0.356585 2.87843
-3.55514 0.356413 2.86649
-3.55629 0.354133 2.84753
-3.55354 0.350642 2.81456
-3.56461 0.351502 2.80463
-3.57498 0.347784 2.75575
-2.49711 0.883961 7.46835
-2.55515 0.849023 7.20026
-2.56747 0.84441 7.15842
-2.59138 0.828652 7.03882
-2.60074 0.822964 6.99196
-2.62139 0.812706 6.90626
-2.63073 0.807047 6.86141
-2.67515 0.783313 6.67507
-2.68349 0.778668 6.63119
-2.89147 0.667221 5.71528
-2.91636 0.653494 5.59766
-3.15845 0.534896 4.53509
-3.17477 0.531286 4.49326
-3.17909 0.526653 4.45036
-3.06059 0.634292 5.03795
-3.08965 0.617257 4.8994
-3.09571 0.617143 4.89145
-3.10317 0.610246 4.8306
-3.12175 0.601135 4.75486
-3.1319 0.598846 4.73497
-3.13526 0.593153 4.68808
-3.15998 0.582751 4.5924
-3.16333 0.577087 4.54751
-3.17569 0.572386 4.49966
-3.19001 0.56776 4.45683
-3.19433 0.563156 4.41593
-3.20347 0.561882 4.39701
-3.20469 0.557454 4.36808
-3.21383 0.556194 4.35017
-3.21307 0.55272 4.31821
-3.22936 0.549169 4.28038
-3.23244 0.548009 4.26942
-3.23465 0.544611 4.24248
-3.24399 0.539937 4.19661
-3.25829 0.53537 4.15778
-3.2595 0.531957 4.12984
-3.26916 0.522677 4.04304
-3.29444 0.520147 4.00626
-3.28772 0.514595 3.96929
-3.30178 0.515487 3.96138
-3.29606 0.50995 3.92541
-3.31726 0.508566 3.89859
-3.31647 0.505166 3.87163
-3.32252 0.505066 3.86468
-3.3237 0.502712 3.84072
-3.33183 0.501466 3.82379
-3.335 0.499128 3.80085
-3.33916 0.496821 3.77991
-3.34927 0.495621 3.766
-3.34846 0.49325 3.74103
-3.35154 0.492105 3.73107
-3.35885 0.487488 3.68919
-3.36697 0.486272 3.67426
-3.37835 0.481541 3.62441
-3.38547 0.480309 3.60848
-3.38466 0.476924 3.58252
-3.39476 0.476738 3.5696
-3.40405 0.473183 3.53172
-3.40035 0.468588 3.49175
-3.41856 0.467202 3.46491
-3.42784 0.463661 3.42802
-3.43621 0.458942 3.37915
-3.43936 0.456648 3.3592
-3.44962 0.454153 3.32531
-3.46005 0.448317 3.26847
-3.47353 0.442394 3.20565
-3.4818 0.439867 3.16975
-3.49527 0.43396 3.10793
-3.50552 0.431479 3.07504
-3.51683 0.42788 3.03417
-3.51302 0.425507 3.00917
-3.53556 0.419473 2.93842
-3.53572 0.417162 2.91745
-3.538 0.413601 2.87952
-3.55144 0.408768 2.82268
-3.55869 0.406284 2.78977
-2.50207 0.995893 7.46273
-2.51147 0.988116 7.4099
-2.52674 0.983594 7.37408
-2.53811 0.976892 7.32626
-2.5514 0.97134 7.28844
-2.56274 0.965682 7.2436
-2.57115 0.957889 7.18977
-2.57145 0.952313 7.15085
-2.58864 0.948955 7.12603
-2.59604 0.942177 7.07318
-2.60639 0.935504 7.02735
-2.64351 0.915356 6.8809
-2.65285 0.909697 6.83605
-2.6715 0.897438 6.75036
-2.69627 0.883962 6.64973
-2.70361 0.878301 6.60487
-2.75523 0.849188 6.39266
-2.76257 0.843542 6.34879
-2.81109 0.816604 6.14853
-2.83492 0.803008 6.03989
-2.86286 0.787194 5.91632
-2.87014 0.781667 5.88045
-2.88467 0.772641 5.81069
-2.89094 0.768113 5.7748
-2.92802 0.750054 5.63432
-2.9509 0.735355 5.5187
-2.95222 0.729719 5.47578
-3.03462 0.691104 5.16093
-3.05228 0.679829 5.07422
-3.08222 0.665031 4.95165
-3.10618 0.650169 4.82503
-3.12154 0.644485 4.77822
-3.14967 0.627301 4.62967
-3.21787 0.59406 4.34064
-3.25718 0.574543 4.1692
-2.60516 0.974898 7.05376
-2.63935 0.952615 6.89832
-2.65801 0.940342 6.81163
-2.69014 0.920176 6.66415
-2.70775 0.90799 6.58346
-2.71903 0.903466 6.5476
-2.73685 0.888881 6.43994
-2.75837 0.878876 6.37124
-2.80392 0.851891 6.16795
-2.8122 0.846349 6.13109
-2.82579 0.83622 6.05433
-2.83799 0.832829 6.02747
-2.8494 0.825054 5.97467
-2.87749 0.805944 5.83114
-2.8981 0.795775 5.75144
-2.9447 0.767702 5.54217
-2.98003 0.745138 5.36775
-2.99119 0.742836 5.34687
-3.01185 0.731549 5.25918
-3.02217 0.726935 5.21732
-3.09785 0.682782 4.86649
-3.47454 0.4983 3.19883
-2.51737 1.08418 7.41353
-2.52776 1.07644 7.36271
-2.5401 1.06979 7.3189
-2.54557 1.05988 7.25708
-2.56279 1.05646 7.22826
-2.57511 1.05085 7.18643
-2.58251 1.04207 7.1336
-2.58769 1.03874 7.11069
-2.60001 1.03313 7.06886
-2.60544 1.02429 7.01202
-2.6197 1.01979 6.97819
-2.631 1.01421 6.93835
-2.63936 1.00652 6.89153
-2.63669 0.999882 6.8486
-2.65091 0.996464 6.81975
-2.66026 0.98879 6.77393
-2.67546 0.985402 6.74709
-2.68381 0.978742 6.70224
-2.6941 0.974187 6.66438
-2.70267 0.962069 6.58862
-2.71198 0.956484 6.54877
-2.72127 0.950929 6.51091
-2.72959 0.945299 6.46805
-2.73887 0.939773 6.4322
-2.75013 0.935263 6.39735
-2.75669 0.924188 6.32455
-2.76891 0.919768 6.2957
-2.78115 0.916318 6.26484
-2.7855 0.908626 6.21798
-2.79672 0.90522 6.19011
-2.81526 0.895183 6.11939
-2.81742 0.891859 6.09745
-2.82471 0.886303 6.05959
-2.83298 0.881791 6.02471
-2.84124 0.877294 5.99083
-2.85344 0.873903 5.96397
-2.85875 0.868315 5.92409
-2.85697 0.863885 5.89514
-2.8672 0.859434 5.86428
-2.87545 0.854966 5.8324
-2.88271 0.850469 5.79852
-2.89194 0.846017 5.76765
-2.89822 0.841489 5.73176
-2.90842 0.837097 5.7049
-2.90663 0.833681 5.67693
-2.91486 0.829243 5.64705
-2.92605 0.825882 5.62218
-2.93527 0.822459 5.5933
-2.94252 0.817976 5.56042
-2.95074 0.814568 5.53252
-2.94697 0.809107 5.50157
-2.95519 0.805684 5.47268
-2.96537 0.802336 5.4488
-2.97163 0.797837 5.41491
-2.97984 0.794444 5.38802
-2.9841 0.788929 5.35313
-2.99329 0.786566 5.32823
-2.98952 0.782119 5.29826
-2.99477 0.77765 5.26637
-3.00593 0.774347 5.2455
-3.01315 0.770923 5.2166
-3.02331 0.768605 5.19471
-3.03152 0.765212 5.16781
-3.03773 0.761802 5.13991
-3.0369 0.758476 5.11795
-3.03819 0.752915 5.08003
-3.04736 0.749581 5.05715
-3.05457 0.746187 5.03025
-3.06276 0.743823 5.00534
-3.06797 0.739413 4.97744
-3.07729 0.733798 4.93559
-3.08448 0.731433 4.91068
-3.09463 0.729145 4.89078
-3.10083 0.72575 4.86388
-3.10309 0.721248 4.82996
-3.10942 0.714617 4.7871
-3.1176 0.712282 4.76419
-3.12774 0.710009 4.7453
-3.12997 0.706552 4.71436
-3.14632 0.700898 4.66956
-3.14954 0.697471 4.64063
-3.15362 0.695311 4.62969
-3.1608 0.692961 4.60578
-3.16204 0.688504 4.57485
-3.16822 0.686153 4.55093
-3.18886 0.675925 4.46722
-3.19924 0.669193 4.41739
-3.20441 0.666856 4.39447
-3.21688 0.658963 4.33367
-3.22304 0.656642 4.31175
-3.25091 0.642975 4.19814
-3.25497 0.64286 4.19017
-3.25618 0.638446 4.16224
-3.26333 0.636156 4.14233
-3.27466 0.631528 4.09948
-3.29224 0.622401 4.02273
-3.34838 0.590284 3.74259
-3.36779 0.585499 3.6888
-3.38035 0.576413 3.61502
-3.39261 0.573904 3.58015
-3.40813 0.565909 3.51237
-3.44021 0.550816 3.36982
-3.45263 0.546011 3.31498
-3.46298 0.541338 3.26912
-3.47779 0.529766 3.16238
-3.4849 0.528549 3.14745
-3.50349 0.520408 3.0697
-3.51887 0.516694 3.02087
-3.52299 0.51546 3.00491
-3.53759 0.507287 2.92513
-3.57264 0.49527 2.78756
-2.52131 1.20216 7.41081
-2.55439 1.18008 7.26937
-2.56473 1.17342 7.22454
-2.57412 1.16468 7.17373
-2.57537 1.1602 7.1418
-2.58475 1.15247 7.09198
-2.59507 1.14584 7.04915
-2.60738 1.13926 7.00934
-2.61671 1.13362 6.96548
-2.62801 1.12705 6.92666
-2.63931 1.12146 6.88682
-2.63762 1.11487 6.8469
-2.64989 1.10935 6.81107
-2.66117 1.10382 6.77523
-2.67246 1.09827 6.73739
-2.68471 1.09377 6.70355
-2.70332 1.0816 6.62386
-2.70259 1.07609 6.58893
-2.71384 1.07161 6.55608
-2.72118 1.06495 6.51122
-2.7344 1.06053 6.48238
-2.751 1.04937 6.40366
-2.76126 1.04387 6.36982
-2.76247 1.03948 6.34289
-2.76978 1.03387 6.30202
-2.7761 1.02726 6.26016
-2.79562 1.01727 6.19245
-2.80684 1.01385 6.16358
-2.80999 1.01055 6.14365
-2.81729 1.00497 6.10378
-2.82555 0.999469 6.06992
-2.84306 0.99049 6.00317
-2.85134 0.984964 5.96731
-2.85978 0.976112 5.9095
-2.86901 0.97266 5.87862
-2.87726 0.967192 5.84676
-2.88058 0.961559 5.80386
-2.89177 0.958197 5.77899
-2.90629 0.948202 5.71124
-2.90844 0.944922 5.6923
-2.91175 0.939318 5.6514
-2.91998 0.93488 5.62152
-2.9282 0.931457 5.59263
-2.9384 0.927065 5.56577
-2.94662 0.923642 5.53688
-2.94992 0.918067 5.49798
-2.95303 0.915848 5.48304
-2.95829 0.910349 5.44915
-2.96947 0.908016 5.42627
-2.97669 0.903593 5.39738
-2.97997 0.898048 5.36049
-2.99015 0.8957 5.33659
-2.99721 0.894587 5.32866
-3.08625 0.840748 4.93108
-2.50702 1.28661 7.44146
-2.51935 1.27997 7.39764
-2.53364 1.27342 7.35984
-2.53717 1.26139 7.29004
-2.55469 1.25039 7.22232
-2.56211 1.24159 7.1675
-2.58477 1.22731 7.08087
-2.59316 1.21957 7.03004
-2.60447 1.21298 6.99022
-2.64158 1.18985 6.84482
-2.647 1.18104 6.78998
-2.65829 1.17449 6.75216
-2.69238 1.15238 6.60873
-2.69874 1.14469 6.56188
-2.72028 1.13367 6.4922
-2.73811 1.11606 6.38258
-2.74839 1.11053 6.34673
-2.75667 1.10499 6.30987
-2.76891 1.10054 6.27902
-2.77818 1.09502 6.24317
-2.78668 1.08405 6.17739
-2.79397 1.07849 6.13952
-2.80226 1.07293 6.10166
-2.8174 1.07066 6.08281
-2.81978 1.06194 6.03395
-2.83001 1.05749 6.00308
-2.86619 1.03422 5.84868
-2.87364 1.02537 5.79086
-2.88091 1.01984 5.75499
-2.95648 0.969896 5.41825
-3.09825 0.879724 4.79357
-3.10543 0.876374 4.76967
-3.11459 0.87407 4.74877
-3.12473 0.871811 4.73088
-3.12388 0.868515 4.71092
-3.136 0.867301 4.69602
-3.13922 0.86286 4.66611
-3.14838 0.860571 4.64621
-3.15457 0.857205 4.6213
-3.16076 0.85384 4.5964
-3.16298 0.849398 4.56647
-3.1641 0.847177 4.55151
-3.17127 0.844842 4.5286
-3.17942 0.842552 4.50869
-3.18264 0.83814 4.48078
-3.19178 0.835865 4.46188
-3.19499 0.832453 4.43395
-3.20623 0.828003 4.40309
-3.21462 0.821254 4.35225
-3.22794 0.815628 4.30943
-3.22829 0.808948 4.26352
-3.24161 0.804336 4.22169
-3.25295 0.798693 4.17785
-3.26527 0.794081 4.136
-3.26737 0.79189 4.12305
-3.26659 0.78746 4.09411
-3.30044 0.773828 3.98255
-3.30679 0.768137 3.93567
-3.33564 0.754501 3.82408
-3.38336 0.727192 3.59881
-3.44339 0.69627 3.33168
-3.44986 0.689372 3.27083
-3.48055 0.680047 3.18018
-3.48691 0.674342 3.13231
-3.49502 0.67414 3.11837
-3.49931 0.669566 3.07947
-3.50741 0.66838 3.06654
-3.5127 0.663822 3.02864
-3.51178 0.662673 3.01865
-3.52087 0.662487 3.00572
-3.51706 0.658129 2.98175
-3.52515 0.657943 2.96882
-3.5354 0.655476 2.93693
-3.53853 0.653227 2.91998
-3.54059 0.652096 2.91101
-3.53875 0.649783 2.89003
-3.54288 0.647535 2.87309
-3.547 0.646301 2.85714
-3.55709 0.646146 2.84622
-3.55525 0.642819 2.82425
-3.56236 0.642617 2.8103
-3.56243 0.641484 2.80132
-3.56953 0.640282 2.78739
-3.57167 0.638017 2.76943
-3.57082 0.63572 2.74946
-3.57395 0.634471 2.7325
-2.50657 1.36839 7.49325
-2.51795 1.35966 7.44346
-2.52568 1.34224 7.34776
-2.54094 1.33675 7.31395
-2.55326 1.33014 7.27214
-2.55972 1.31926 7.21234
-2.57301 1.3137 7.17452
-2.58335 1.30605 7.1297
-2.58977 1.29624 7.07489
-2.59005 1.28969 7.03798
-2.60331 1.2842 7.00416
-2.62397 1.26992 6.91751
-2.63625 1.2634 6.8817
-2.64655 1.25682 6.84187
-2.65393 1.2491 6.79303
-2.65614 1.24369 6.76512
-2.66447 1.23606 6.72229
-2.67772 1.23158 6.68945
-2.68702 1.22501 6.65062
-2.69634 1.21839 6.60878
-2.70663 1.21184 6.57095
-2.71176 1.20959 6.55402
-2.7132 1.19873 6.49618
-2.72446 1.19324 6.46234
-2.73768 1.18982 6.43349
-2.74304 1.18113 6.38665
-2.75623 1.17775 6.3608
-2.76454 1.17117 6.32095
-2.76278 1.16469 6.28903
-2.77106 1.15915 6.25217
-2.78232 1.15367 6.21933
-2.79256 1.14921 6.18747
-2.8018 1.14374 6.15562
-2.80713 1.13711 6.11275
-2.80832 1.13274 6.08782
-2.81953 1.12833 6.05996
-2.82682 1.12177 6.02211
-2.83903 1.11838 5.99525
-2.84433 1.11181 5.95638
-2.85456 1.10736 5.92552
-2.86478 1.10295 5.89766
-2.86202 1.09748 5.86571
-2.87026 1.09201 5.83385
-2.87555 1.08647 5.79697
-2.88478 1.08102 5.76612
-2.89303 1.07655 5.73424
-2.90422 1.07319 5.70937
-2.91047 1.06769 5.67549
-2.90869 1.06227 5.64756
-2.91395 1.05676 5.61267
-2.92711 1.05447 5.5928
-2.93337 1.04897 5.55893
-2.94159 1.04455 5.53005
-2.94685 1.03904 5.49517
-2.95803 1.03569 5.4713
-2.95326 1.03024 5.44134
-2.96739 1.028 5.42448
-2.97067 1.02246 5.38758
-2.97986 1.01909 5.36269
-2.98709 1.01466 5.33281
-2.99826 1.01134 5.31094
-2.99447 1.00694 5.28397
-3.00366 1.00257 5.2591
-3.01088 0.999149 5.2302
-3.01808 0.994769 5.20432
-3.02727 0.991406 5.17943
-3.03052 0.985906 5.14554
-3.03971 0.982542 5.12065
-3.03294 0.977094 5.09068
-3.0441 0.974806 5.07079
-3.05229 0.970442 5.04591
-3.06344 0.968154 5.02603
-3.06964 0.964759 4.99912
-3.06893 0.958197 4.96121
-3.08319 0.953704 4.92738
-3.08446 0.948187 4.89247
-3.09263 0.944853 4.86957
-3.10278 0.942564 4.84968
-3.10404 0.937077 4.81677
-3.11419 0.934789 4.79687
-3.11729 0.932599 4.78393
-3.11953 0.928127 4.75201
-3.12473 0.923746 4.72611
-3.13191 0.920396 4.70221
-3.14007 0.918092 4.6813
-3.14231 0.91262 4.64939
-3.15245 0.911361 4.63149
-3.15455 0.90917 4.61853
-3.1548 0.903682 4.58561
-3.16494 0.901423 4.56772
-3.1773 0.894722 4.51991
-3.18447 0.892402 4.49799
-3.18867 0.88802 4.47208
-3.1868 0.885752 4.4541
-3.19496 0.882463 4.43421
-3.20311 0.880173 4.4143
-3.11163 0.967865 4.73436
-3.14765 0.948909 4.60089
-3.16522 0.937812 4.52618
-3.19721 0.918912 4.39668
-3.20968 0.910019 4.3359
-3.22621 0.899995 4.26616
-3.23667 0.891115 4.20636
-3.25021 0.881075 4.1356
-3.26164 0.87324 4.0788
-3.28208 0.866397 4.02104
-3.32147 0.841718 3.83868
-3.33585 0.834989 3.78888
-3.34238 0.824973 3.72007
-3.34653 0.822665 3.69913
-3.35376 0.818226 3.66925
-3.39104 0.796768 3.50182
-2.52455 1.47432 7.3518
-2.5408 1.46886 7.32
-2.54529 1.45691 7.2562
-2.56055 1.45042 7.22241
-2.56796 1.44063 7.1686
-2.57412 1.43632 7.14771
-2.58154 1.42651 7.0929
-2.59578 1.42105 7.06108
-2.60121 1.41023 7.00528
-2.61449 1.4037 6.96947
-2.63219 1.38736 6.87783
-2.65403 1.36673 6.76729
-2.66532 1.36018 6.72946
-2.67856 1.35573 6.69862
-2.68199 1.3449 6.6428
-2.69915 1.3416 6.62198
-2.69741 1.33508 6.58706
-2.70672 1.3275 6.54723
-2.71701 1.32094 6.5094
-2.72335 1.31228 6.46457
-2.7346 1.30682 6.43273
-2.74389 1.30025 6.3939
-2.74609 1.29588 6.36897
-2.75633 1.29041 6.33713
-2.76364 1.28281 6.29629
-2.77586 1.27839 6.26744
-2.78808 1.27397 6.2386
-2.7944 1.26637 6.19775
-2.80169 1.2588 6.15891
-2.80191 1.25339 6.13099
-2.80821 1.24681 6.09213
-2.81844 1.24136 6.06128
-2.82966 1.23694 6.03243
-2.84088 1.23254 6.00457
-2.84717 1.22598 5.96671
-2.84835 1.22162 5.94278
-2.85758 1.21619 5.91293
-2.86092 1.20852 5.86806
-2.87211 1.20416 5.84321
-2.88861 1.1932 5.77749
-2.89487 1.1877 5.74361
-2.899 1.18445 5.72669
-2.9033 1.17788 5.68781
-2.91448 1.17355 5.66496
-2.91779 1.16694 5.62407
-2.92799 1.16255 5.59721
-2.93424 1.15708 5.56533
-2.94641 1.15376 5.54347
-2.94067 1.14726 5.50952
-2.94888 1.14285 5.48164
-2.96499 1.14064 5.4668
-2.96631 1.13403 5.4259
-2.96564 1.12538 5.38202
-2.97976 1.12316 5.36615
-2.98798 1.11873 5.33728
-2.98321 1.11329 5.30732
-3.00978 1.1012 5.23269
-3.01997 1.09785 5.20881
-3.02026 1.09129 5.1709
-3.02337 1.08907 5.15596
-3.02565 1.08152 5.11908
-3.03384 1.07816 5.09419
-3.045 1.07587 5.0743
-3.0512 1.07147 5.04741
-3.0656 1.0627 4.99464
-3.06081 1.0573 4.96768
-3.06997 1.05499 4.94678
-3.08014 1.05168 4.92491
-3.08634 1.0473 4.89901
-3.0876 1.04178 4.8641
-3.09577 1.03846 4.84221
-3.1 1.03302 4.81232
-3.09915 1.02972 4.79236
-3.1083 1.02745 4.77346
-3.1145 1.02305 4.74656
-3.12168 1.01972 4.72366
-3.12392 1.01425 4.69176
-3.14098 1.01414 4.68389
-3.13432 1.00549 4.63996
-3.14261 0.999929 4.6021
-3.15374 0.997686 4.58521
-3.15991 0.99435 4.56231
-3.16411 0.990968 4.53638
-3.1703 0.986603 4.51149
-3.17734 0.986534 4.50654
-3.18055 0.982122 4.47863
-3.18672 0.978787 4.45572
-3.19709 0.971084 4.40791
-3.19931 0.966657 4.37899
-3.20548 0.963336 4.35708
-3.21054 0.962221 4.34913
-3.21275 0.957809 4.32121
-3.21595 0.954426 4.29528
-3.2241 0.951136 4.27539
-3.23125 0.94886 4.25647
-3.23544 0.945494 4.23155
-3.24369 0.940012 4.19869
-3.25326 0.928909 4.12392
-3.26765 0.92115 4.07213
-3.27281 0.918843 4.0512
-3.28236 0.907785 3.97943
-3.29863 0.903279 3.94461
-3.29773 0.901071 3.93064
-3.30508 0.894411 3.88579
-3.31221 0.89215 3.86787
-3.33559 0.886427 3.81812
-3.3351 0.87645 3.75226
-3.35431 0.87405 3.72443
-3.35847 0.870727 3.70251
-3.35559 0.867504 3.68754
-3.35776 0.864165 3.6646
-3.36786 0.86398 3.65168
-3.36706 0.859595 3.62573
-3.3732 0.857333 3.60781
-3.37338 0.852978 3.58387
-3.39069 0.849384 3.54305
-3.39403 0.842721 3.49817
-3.4071 0.842597 3.48927
-3.41224 0.840334 3.47134
-3.42035 0.839118 3.45641
-3.41647 0.835879 3.44043
-3.41566 0.831508 3.41548
-3.42675 0.831353 3.40457
-3.43404 0.826797 3.36669
-3.44214 0.825595 3.35276
-3.43727 0.82234 3.33577
-3.44241 0.820078 3.31784
-3.44158 0.816737 3.29488
-3.45366 0.816598 3.28497
-3.4568 0.814319 3.26603
-3.45796 0.811009 3.24508
-3.46508 0.809792 3.23015
-3.46516 0.808629 3.21917
-3.46631 0.805334 3.19922
-3.47442 0.804133 3.1853
-3.48451 0.803963 3.17338
-3.48567 0.800653 3.15243
-3.48484 0.797327 3.13047
-3.49592 0.797172 3.11956
-3.48904 0.79393 3.10355
-3.49318 0.791667 3.08561
-3.50227 0.791496 3.07368
-3.5074 0.789248 3.05675
-3.51152 0.788014 3.0408
-3.51763 0.785797 3.02588
-3.51886 0.782354 2.99593
-3.52215 0.776794 2.95803
-3.52728 0.775546 2.94109
-3.53736 0.775391 2.93016
-3.53254 0.771032 2.90619
-3.53766 0.769814 2.89124
-3.54866 0.770807 2.89031
-3.55095 0.766247 2.85239
-3.55622 0.761733 2.81749
-3.56729 0.761593 2.80758
-3.56339 0.759397 2.79458
-3.57362 0.756961 2.76469
-3.57973 0.755758 2.75075
-2.59088 1.50774 7.03976
-2.6354 1.46983 6.84163
-2.65408 1.45253 6.75301
-2.69943 1.41994 6.57681
-2.7048 1.41022 6.52799
-2.74614 1.37766 6.35376
-2.75345 1.36906 6.31294
-2.76274 1.36251 6.2751
-2.80002 1.33107 6.10882
-2.82148 1.32119 6.04912
-2.84018 1.30485 5.95749
-2.86693 1.28642 5.85995
-2.87025 1.27878 5.81709
-2.88066 1.26901 5.7643
-2.90341 1.25157 5.66672
-3.38574 0.906211 3.53117
-3.40539 0.894953 3.44547
-3.42395 0.884872 3.37175
-3.42917 0.881446 3.34284
-3.43845 0.87692 3.30697
-3.44258 0.874657 3.28903
-3.45367 0.874502 3.27812
-3.45186 0.870131 3.25316
-3.46203 0.867798 3.23027
-3.46947 0.858946 3.17245
-3.47063 0.856636 3.15149
-3.48081 0.854303 3.1286
-3.48295 0.851023 3.10966
-3.49121 0.847526 3.07577
-3.50964 0.840696 3.019
-3.51393 0.835137 2.98111
-3.53578 0.821496 2.86946
-3.53892 0.819232 2.85152
-3.55496 0.821155 2.84561
-3.5532 0.816695 2.81466
-3.56626 0.816586 2.80676
-3.56556 0.810993 2.76683
-3.57182 0.807495 2.73292
-3.57785 0.80744 2.72897
-2.89032 1.39652 5.79749
-2.92248 1.36629 5.64616
-2.93304 1.35222 5.57344
-2.97005 1.32728 5.44107
-2.8324 1.50511 6.04148
-2.83968 1.49758 6.00564
-2.84893 1.49108 5.9718
-2.85522 1.48354 5.93496
-2.86348 1.47704 5.90111
-2.89665 1.44581 5.7488
-2.90587 1.44038 5.71995
-2.91411 1.43392 5.6881
-2.91724 1.43067 5.67117
-2.91956 1.42105 5.62933
-2.92878 1.41564 5.60147
-2.93601 1.41019 5.5706
-2.94424 1.40375 5.54076
-2.94951 1.39724 5.50589
-2.95264 1.39299 5.48897
-2.95691 1.38647 5.45409
-2.96808 1.38214 5.43124
-2.97334 1.37564 5.39737
-2.97957 1.3692 5.36751
-2.99796 1.36046 5.31677
-2.9932 1.353 5.28584
-3.00436 1.3497 5.26497
-3.01257 1.3443 5.23811
-3.01976 1.33993 5.21222
-3.03322 1.32806 5.15349
-3.04451 1.32151 5.11567
-3.06739 1.29881 5.00016
-3.0777 1.29223 4.96033
-3.1097 1.2673 4.82892
-3.11702 1.2597 4.78809
-3.15528 1.22928 4.6238
-3.15949 1.22387 4.59591
-3.16667 1.22054 4.57301
-3.19372 1.19552 4.43556
-3.21125 1.18249 4.36588
-3.22666 1.17371 4.31212
-3.25365 1.15082 4.18364
-3.25684 1.14645 4.15873
-3.26398 1.14417 4.13981
-3.26618 1.13879 4.11391
-3.26936 1.13444 4.08999
-3.28267 1.12886 4.05017
-3.28475 1.1267 4.03921
-3.29211 1.11801 3.99239
-3.30265 1.10598 3.92264
-3.31264 1.10699 3.9227
-3.31305 1.0972 3.86984
-3.32416 1.096 3.85594
-3.33228 1.09377 3.84003
-3.33247 1.08939 3.8141
-3.33466 1.08503 3.79017
-3.34089 1.07958 3.7593
-3.35001 1.07837 3.74438
-3.35833 1.07075 3.70255
-3.36149 1.06744 3.68162
-3.3706 1.06623 3.6667
-3.36078 1.05988 3.64372
-3.36692 1.05762 3.6258
-3.38117 1.05414 3.59295
-3.39028 1.05192 3.57805
-3.39064 1.04323 3.53118
-3.39569 1.04313 3.52422
-3.40578 1.04196 3.51231
-3.402 1.03654 3.48436
-3.41011 1.03433 3.46945
-3.41641 1.02874 3.42957
-3.42354 1.02649 3.41266
-3.4266 1.02538 3.4047
-3.42876 1.02207 3.38376
-3.43191 1.01879 3.36483
-3.44019 1.01325 3.32797
-3.44433 1.01098 3.31003
-3.44955 1.00656 3.28113
-3.44972 1.00223 3.25919
-3.45981 1.00206 3.24727
-3.457 0.996692 3.22232
-3.46014 0.993413 3.20339
-3.46626 0.992195 3.18846
-3.46643 0.98787 3.16652
-3.47957 0.987598 3.14762
-3.48387 0.98101 3.10774
-3.48999 0.978792 3.09282
-3.49213 0.976513 3.07387
-3.49122 0.974349 3.06289
-3.50162 0.966573 3.01008
-3.5127 0.966418 2.99916
-3.51584 0.964154 2.98122
-3.51698 0.960874 2.96227
-3.52103 0.960788 2.9563
-3.52943 0.95301 2.90347
-3.53356 0.950762 2.88653
-3.54677 0.948357 2.85867
-3.546 0.942913 2.82874
-3.54715 0.940632 2.80978
-3.5605 0.934947 2.76295
-2.98804 1.47315 5.29502
-3.00429 1.46767 5.26222
-3.01083 1.45164 5.1925
-3.02199 1.44834 5.17163
-3.03117 1.44399 5.14776
-3.03247 1.43543 5.10989
-3.03262 1.43113 5.08995
-3.03785 1.42469 5.06008
-3.06408 1.42025 5.02934
-3.06974 1.40099 4.94366
-3.07989 1.39771 4.92478
-3.09203 1.39544 4.9059
-3.11399 1.36959 4.78044
-3.1358 1.34804 4.6749
-3.14298 1.34371 4.65202
-3.15277 1.32219 4.5494
-3.16191 1.31892 4.53051
-3.1844 1.30799 4.46683
-3.17859 1.30163 4.44288
-3.19761 1.30358 4.43899
-3.2013 1.28425 4.3493
-3.20857 1.27774 4.31444
-3.21968 1.27553 4.29956
-3.21992 1.26907 4.26865
-3.23819 1.26456 4.23385
-3.25678 1.25042 4.15619
-3.25799 1.24403 4.12929
-3.26139 1.23324 4.07647
-3.27745 1.23414 4.06857
-3.27855 1.23196 4.05661
-3.27579 1.22449 4.0247
-3.28788 1.22332 4.0128
-3.29346 1.2082 3.93706
-3.30258 1.20597 3.92116
-3.3118 1.20155 3.89229
-3.314 1.19618 3.86738
-3.32212 1.19495 3.85146
-3.33044 1.18733 3.80963
-3.33757 1.18407 3.79173
-3.34361 1.184 3.78677
-3.34619 1.16889 3.71201
-3.35331 1.16665 3.69509
-3.37054 1.16322 3.66527
-3.38211 1.15013 3.59154
-3.38328 1.14579 3.56861
-3.39536 1.14564 3.5577
-3.38969 1.13601 3.51579
-3.40294 1.13153 3.48296
-3.41917 1.1281 3.45313
-3.41636 1.12271 3.42718
-3.41663 1.1162 3.39227
-3.42672 1.11503 3.38037
-3.44312 1.10727 3.3286
-3.44627 1.10498 3.30865
-3.44734 1.10284 3.29969
-3.46844 1.07871 3.15519
-3.48863 1.07737 3.13136
-3.50653 1.05863 3.01275
-3.51479 1.05313 2.97889
-3.52296 1.05079 2.95598
-3.52525 1.04423 2.91809
-3.54466 1.03846 2.86532
-3.5458 1.03518 2.84637
-3.54695 1.0319 2.82743
-3.55221 1.02639 2.79254
-3.56251 1.02182 2.75368
-3.57572 1.01942 2.72581
-3.04397 1.48338 5.03826
-3.05428 1.47478 4.99746
-3.06868 1.46402 4.94572
-3.07292 1.45757 4.91484
-3.10406 1.42637 4.76552
-3.20536 1.34007 4.3365
-3.20757 1.33366 4.30861
-3.21473 1.33035 4.28771
-3.22289 1.32706 4.26781
-3.22102 1.3228 4.24986
-3.23236 1.31415 4.20607
-3.24545 1.31399 4.19417
-3.2427 1.3055 4.16127
-3.25183 1.30325 4.14437
-3.25404 1.29785 4.11746
-3.26427 1.29242 4.08761
-3.26547 1.28702 4.0607
-3.27261 1.28376 4.0428
-3.27779 1.27942 4.0199
-3.2879 1.27721 4.00501
-3.2891 1.27182 3.97909
-3.28822 1.26859 3.96313
-3.29338 1.26428 3.94223
-3.29656 1.25994 3.91931
-3.30786 1.25336 3.87949
-3.31202 1.24905 3.85858
-3.31728 1.24255 3.82471
-3.33274 1.23268 3.76497
-3.34899 1.2282 3.73215
-3.35146 1.2153 3.67135
-3.35958 1.21307 3.65545
-3.36373 1.20978 3.63552
-3.36987 1.20651 3.61762
-3.37997 1.20531 3.60371
-3.37312 1.20003 3.58473
-3.38224 1.1988 3.56882
-3.38936 1.19657 3.5529
-3.39053 1.19224 3.53097
-3.39667 1.18898 3.51306
-3.40478 1.18776 3.49814
-3.39991 1.18351 3.48116
-3.40605 1.18025 3.46326
-3.41614 1.18008 3.45133
-3.42128 1.17682 3.43342
-3.42146 1.17246 3.40948
-3.43057 1.17126 3.39556
-3.43174 1.16694 3.37363
-3.43083 1.16376 3.36167
-3.43696 1.16151 3.34475
-3.43912 1.1582 3.32381
-3.45019 1.15806 3.3139
-3.44938 1.15271 3.28997
-3.45947 1.15254 3.27804
-3.46163 1.14823 3.25712
-3.45477 1.14296 3.23914
-3.46486 1.14279 3.22722
-3.46502 1.13846 3.20528
-3.47015 1.13621 3.18835
-3.48124 1.13606 3.17744
-3.47247 1.12759 3.14649
-3.48455 1.12845 3.13657
-3.48959 1.12838 3.13161
-3.48379 1.12198 3.10466
-3.48793 1.11872 3.08673
-3.501 1.11959 3.07782
-3.49718 1.11423 3.05386
-3.50132 1.11197 3.03593
-3.51339 1.11185 3.02702
-3.50668 1.10328 2.98909
-3.51676 1.10312 2.97816
-3.5179 1.09984 2.95922
-3.52899 1.09968 2.9473
-3.53609 1.09849 2.93437
-3.52426 1.09215 2.91237
-3.53136 1.09097 2.89944
-3.53251 1.08769 2.8805
-3.53976 1.08319 2.84662
-3.55481 1.08511 2.8407
-3.55298 1.08078 2.81875
-3.55008 1.07759 2.80577
-3.55221 1.07434 2.78883
-3.56756 1.06867 2.74303
-3.57587 1.06307 2.70217
-3.07346 1.53836 4.96766
-3.2876 1.34572 4.03899
-3.358 1.28611 3.72536
-3.27876 1.47721 4.00398
-3.29853 1.45574 3.90443
-3.30468 1.45145 3.88454
-3.46165 1.49371 3.22
-4.046 -0.409416 0.702227
-4.06263 -0.410648 0.618359
-4.06782 -0.411014 0.5934
-4.07396 -0.411291 0.574448
-4.08115 -0.411656 0.549504
-4.09469 -0.412698 0.478612
-4.09778 -0.412888 0.465636
-4.1214 -0.414085 0.383821
-4.1176 -0.414487 0.356794
-4.02271 -0.381888 0.738649
-4.03089 -0.382252 0.713713
-4.03399 -0.382443 0.700737
-4.04307 -0.382599 0.689807
-4.04512 -0.382686 0.683823
-4.04023 -0.382912 0.668787
-4.04632 -0.383085 0.656834
-4.0574 -0.38324 0.645918
-4.04852 -0.383469 0.630852
-4.05162 -0.383659 0.617877
-4.05571 -0.383834 0.605909
-4.05576 -0.383937 0.59891
-4.05786 -0.384128 0.585926
-4.06894 -0.384283 0.575011
-4.06604 -0.384492 0.56099
-4.07613 -0.384648 0.550067
-4.07423 -0.384857 0.536054
-4.07533 -0.385048 0.523063
-4.07438 -0.385153 0.516056
-4.08367 -0.385709 0.478129
-4.08976 -0.385882 0.466176
-4.09286 -0.386072 0.453201
-4.09496 -0.386263 0.440217
-4.10399 -0.386331 0.435286
-4.09411 -0.38656 0.420213
-4.10029 -0.386926 0.395261
-4.10848 -0.38729 0.370325
-4.11058 -0.387481 0.357342
-4.11763 -0.387564 0.351395
-4.11882 -0.387949 0.325406
-4.03157 -0.32968 0.751945
-4.03466 -0.329855 0.739969
-4.0407 -0.32994 0.734015
-4.04379 -0.330115 0.72204
-4.04091 -0.33034 0.707019
-4.042 -0.330531 0.694028
-4.04709 -0.330705 0.682068
-4.04021 -0.330932 0.667017
-4.04635 -0.331209 0.648065
-4.05343 -0.331367 0.637119
-4.05454 -0.331573 0.623129
-4.06163 -0.331746 0.611183
-4.05773 -0.331956 0.597155
-4.0748 -0.332077 0.588284
-4.06791 -0.332304 0.573233
-4.07096 -0.332391 0.567257
-4.07107 -0.332598 0.553259
-4.07416 -0.332773 0.541283
-4.07425 -0.332966 0.528285
-4.08534 -0.333136 0.516369
-4.07945 -0.333347 0.502326
-4.09448 -0.333395 0.498439
-4.09658 -0.333586 0.485456
-4.09567 -0.33378 0.47245
-4.09378 -0.333988 0.458437
-4.10187 -0.33416 0.446499
-4.09997 -0.334354 0.433486
-4.10407 -0.334543 0.420518
-4.10911 -0.334629 0.414556
-4.11121 -0.33482 0.401573
-4.11031 -0.335013 0.388567
-4.12549 -0.335357 0.364683
-4.11959 -0.335569 0.35064
-4.03089 -0.308349 0.706618
-4.03299 -0.30854 0.693635
-4.05051 -0.309549 0.624772
-4.09185 -0.312155 0.447098
-4.03236 -0.205441 0.767114
-4.03751 -0.205719 0.748155
-4.02862 -0.205947 0.733089
-4.02972 -0.206139 0.720098
-4.039 -0.206695 0.682171
-4.04106 -0.206797 0.675187
-4.04934 -0.207354 0.637253
-4.05553 -0.20772 0.612301
-4.0736 -0.207855 0.602438
-4.06167 -0.207996 0.593349
-4.07086 -0.20836 0.56842
-4.06697 -0.20857 0.554392
-4.07006 -0.20876 0.541416
-4.07725 -0.209125 0.516472
-4.08429 -0.209194 0.511526
-4.08439 -0.209387 0.498528
-4.09647 -0.209541 0.487619
-4.08559 -0.209786 0.471539
-4.08968 -0.20996 0.459571
-4.09682 -0.210237 0.440626
-4.09802 -0.210621 0.414637
-4.10611 -0.210792 0.402699
-4.02729 -0.176344 0.773646
-4.04467 -0.177072 0.723781
-4.04377 -0.17728 0.709776
-4.04881 -0.177351 0.704814
-4.04093 -0.177593 0.688756
-4.057 -0.177715 0.679877
-4.05211 -0.17794 0.664842
-4.0612 -0.178097 0.653911
-4.06629 -0.178286 0.640951
-4.07153 -0.178756 0.608993
-4.08282 -0.17931 0.571081
-4.07793 -0.179521 0.557045
-4.08496 -0.17959 0.552098
-4.08606 -0.179782 0.539108
-4.08617 -0.179989 0.525109
-4.08926 -0.180179 0.512134
-4.09545 -0.180545 0.487182
-4.09455 -0.180738 0.474177
-4.1016 -0.180822 0.46823
-4.10569 -0.180996 0.456262
-4.10579 -0.181204 0.442264
-4.11188 -0.181377 0.430311
-4.10998 -0.181571 0.417297
-4.12007 -0.181741 0.405374
-4.11917 -0.181949 0.391369
-4.12521 -0.182019 0.386415
-4.03836 -0.154502 0.762405
-4.03752 -0.154813 0.7414
-4.03672 -0.155214 0.714396
-4.0519 -0.155543 0.691512
-4.04601 -0.15577 0.676469
-4.05105 -0.155855 0.670508
-4.05126 -0.157254 0.643526
-4.06643 -0.156584 0.620628
-4.05954 -0.157811 0.605592
-4.06264 -0.158001 0.592616
-4.07567 -0.157051 0.5887
-4.07078 -0.157262 0.574664
-4.07287 -0.157453 0.561681
-4.07796 -0.157627 0.54972
-4.08806 -0.157797 0.537797
-4.08316 -0.158008 0.523761
-4.09524 -0.158162 0.512853
-4.0874 -0.158479 0.491796
-4.09549 -0.158651 0.479858
-4.0896 -0.158862 0.465814
-4.09369 -0.159052 0.452846
-4.10992 -0.159484 0.422971
-4.10203 -0.159712 0.407913
-4.10812 -0.159885 0.395959
-4.03481 -0.131425 0.700028
-4.04285 -0.130493 0.695074
-4.04605 -0.130876 0.6691
-4.08649 -0.13369 0.47742
-4.06626 -0.103323 0.63784
-4.08998 -0.104713 0.543026
-4.08908 -0.104921 0.529021
-4.10341 -0.105562 0.485132
-4.13053 -0.107734 0.337348
-4.14906 -0.108772 0.266493
-4.16239 -0.108414 0.222583
-4.17393 -0.109471 0.150675
-4.17603 -0.109662 0.137692
-4.18513 -0.109848 0.124762
-4.18933 -0.11023 0.0987952
-4.20997 -0.110474 0.0139426
-4.20106 -0.111673 0.000891508
-4.21311 -0.110753 -0.00503218
-4.21241 -0.111346 -0.0450342
-4.22161 -0.111724 -0.0709629
-4.23285 -0.112205 -0.103876
-4.24015 -0.112792 -0.143817
-4.2555 -0.112462 -0.189713
-4.0364 -0.0766893 0.749236
-4.0406 -0.0780712 0.723285
-4.04679 -0.0784369 0.698334
-4.05588 -0.0776081 0.686388
-4.04994 -0.0787307 0.678359
-4.05902 -0.0778871 0.667413
-4.05912 -0.0780796 0.654415
-4.06023 -0.0792859 0.640439
-4.06132 -0.0794777 0.627449
-4.0704 -0.078634 0.616503
-4.0725 -0.078825 0.60352
-4.06766 -0.0801394 0.5825
-4.06976 -0.0803304 0.569517
-4.06886 -0.0805383 0.555511
-4.08494 -0.0796748 0.545618
-4.08404 -0.0808679 0.532627
-4.08614 -0.0810589 0.519644
-4.08918 -0.0801456 0.513653
-4.09438 -0.0805268 0.487694
-4.10047 -0.0807001 0.475741
-4.09158 -0.0819286 0.46069
-4.09778 -0.0823091 0.434739
-4.10491 -0.0825704 0.416794
-4.12109 -0.0819141 0.392903
-4.12519 -0.0821036 0.379934
-4.11929 -0.0823152 0.365891
-4.12938 -0.0824856 0.353968
-4.12044 -0.0826106 0.345902
-4.13253 -0.0827647 0.334993
-4.13463 -0.0829556 0.32201
-4.13383 -0.083356 0.295006
-4.14192 -0.0835278 0.283068
-4.13807 -0.0838268 0.263041
-4.14816 -0.0839971 0.251118
-4.15126 -0.0841874 0.238142
-4.15245 -0.0845715 0.212153
-4.15855 -0.0847596 0.1992
-4.1586 -0.0848484 0.193201
-4.16469 -0.0840366 0.180233
-4.16979 -0.0842254 0.167273
-4.16689 -0.08442 0.154252
-4.17299 -0.0846081 0.141299
-4.17209 -0.0848012 0.128293
-4.18717 -0.0849679 0.116408
-4.17224 -0.0850973 0.108296
-4.17933 -0.0852846 0.0953502
-4.18642 -0.0854571 0.0834045
-4.18463 -0.0858583 0.0563932
-4.18973 -0.0860471 0.0434326
-4.19882 -0.0862181 0.031502
-4.20886 -0.0852998 0.0255633
-4.20306 -0.0857038 -0.00147817
-4.20316 -0.0858962 -0.0144764
-4.21826 -0.0860777 -0.0273617
-4.21945 -0.0864619 -0.0533506
-4.21851 -0.0865662 -0.0603572
-4.22461 -0.0867543 -0.0733102
-4.21981 -0.0871576 -0.100344
-4.23091 -0.0863421 -0.113274
-4.239 -0.0865287 -0.126212
-4.22815 -0.0878327 -0.146278
-4.24625 -0.0870121 -0.159155
-4.24045 -0.0874014 -0.185197
-4.24575 -0.0879898 -0.225154
-4.2678 -0.0870775 -0.232002
-4.2639 -0.0872729 -0.24503
-4.03028 -0.0265216 0.760449
-4.02739 -0.026731 0.746429
-4.03248 -0.026905 0.734468
-4.04351 -0.0259563 0.730536
-4.03363 -0.0272003 0.714478
-4.03982 -0.027566 0.689527
-4.04491 -0.0277548 0.676566
-4.04801 -0.0279302 0.66459
-4.0561 -0.028102 0.652652
-4.05924 -0.0283811 0.633677
-4.05634 -0.0285905 0.619657
-4.06243 -0.0287638 0.607704
-4.07162 -0.0291273 0.582775
-4.06674 -0.029353 0.567739
-4.08285 -0.0285783 0.551847
-4.07896 -0.0297883 0.537834
-4.08406 -0.0299771 0.524873
-4.08631 -0.0304641 0.491893
-4.0884 -0.0306403 0.479909
-4.09359 -0.0310215 0.453951
-4.10378 -0.0313843 0.429029
-4.10987 -0.0305577 0.417061
-4.11292 -0.0306443 0.411085
-4.11102 -0.030853 0.397071
-4.11122 -0.0322377 0.37109
-4.11732 -0.0314259 0.358122
-4.11941 -0.0316169 0.345139
-4.1235 -0.0317916 0.333171
-4.12855 -0.0318768 0.327209
-4.12765 -0.0320699 0.314203
-4.13374 -0.032258 0.30125
-4.13584 -0.032449 0.288267
-4.14303 -0.032814 0.263323
-4.16446 -0.0326425 0.206474
-4.16166 -0.0330444 0.179455
-4.16381 -0.033339 0.159473
-4.174 -0.0337017 0.134552
-4.19744 -0.0335437 0.0767181
-4.19653 -0.0337368 0.0637124
-4.19563 -0.03393 0.0507067
-4.20503 -0.034708 -0.00221831
-4.21717 -0.0339806 -0.0211402
-4.22147 -0.034555 -0.0601047
-4.22667 -0.034951 -0.0870634
-4.22792 -0.0354387 -0.120051
-4.25336 -0.035294 -0.17887
-4.04149 -0.00396016 0.730196
-4.04355 -0.00406232 0.723212
-4.06511 -0.00515721 0.64838
-4.06626 -0.00545254 0.62839
-4.07435 -0.00562434 0.616452
-4.08054 -0.00599003 0.591501
-4.0748 -0.00651249 0.55646
-4.08389 -0.00666877 0.54553
-4.09607 -0.00703009 0.520623
-4.09517 -0.00722325 0.507618
-4.09942 -0.00770882 0.474652
-4.10362 -0.00809077 0.448686
-4.09872 -0.00830165 0.43465
-4.10681 -0.00847345 0.422712
-4.1129 -0.00864672 0.410759
-4.11395 -0.0087348 0.404767
-4.12404 -0.00790526 0.392829
-4.11615 -0.00913301 0.377786
-4.12623 -0.00828867 0.366848
-4.12933 -0.00847892 0.353872
-4.12943 -0.00867135 0.340874
-4.12554 -0.00988139 0.326861
-4.13857 -0.00894604 0.321944
-4.14467 -0.00913411 0.308991
-4.14787 -0.00951679 0.283017
-4.14396 -0.00971213 0.269989
-4.15516 -0.010089 0.244076
-4.1562 -0.0101771 0.238084
-4.1614 -0.0105583 0.212125
-4.15451 -0.0107706 0.198074
