-3.07251 0.0550923 4.6798
-3.09626 0.0506292 4.58003
-3.10281 0.0465533 4.50713
-3.12111 0.0449892 4.46829
-3.14382 0.0406141 4.37451
-3.15208 0.039102 4.33959
-3.18005 0.0332125 4.21087
-3.21634 0.0257221 4.04123
-3.23292 0.0225942 3.96439
-3.26613 0.0152497 3.80473
-3.28574 0.0120647 3.72391
-3.288 0.0105482 3.68894
-3.31688 0.00485193 3.57323
-3.3231 0.00441223 3.54328
-3.32743 0.00177885 3.50035
-3.33969 0.0012695 3.46544
-3.34275 0.000153374 3.45748
-3.34392 -0.000186355 3.43449
-3.34807 -0.00146458 3.41554
-3.35419 -0.00169705 3.39958
-3.36048 -0.00326987 3.36065
-3.36967 -0.00463327 3.33574
-3.37282 -0.00492713 3.31576
-3.37795 -0.00617503 3.29882
-3.38226 -0.00777891 3.25787
-3.38664 -0.00953081 3.20692
-3.39987 -0.0109653 3.17704
-3.40499 -0.0111985 3.16108
-3.4121 -0.0124153 3.14614
-3.41524 -0.0126796 3.12817
-3.41632 -0.0128269 3.11818
-3.41747 -0.0141221 3.0982
-3.41663 -0.0154484 3.07621
-3.42871 -0.0155877 3.06631
-3.42588 -0.0159303 3.04329
-3.42207 -0.0173032 3.01827
-3.43521 -0.017575 2.99938
-3.43933 -0.0188088 2.98342
-3.44561 -0.0203372 2.94749
-3.44973 -0.0205711 2.93152
-3.4608 -0.0207111 2.9216
-3.45798 -0.0220537 2.8986
-3.45706 -0.0222172 2.88759
-3.46615 -0.0223883 2.87566
-3.4653 -0.023685 2.85567
-3.47041 -0.0239034 2.84071
-3.47454 -0.0241521 2.82374
-3.48164 -0.0253393 2.81081
-3.47582 -0.0256989 2.78677
-3.48499 -0.0270179 2.76486
-3.48215 -0.0283457 2.74285
-3.49039 -0.0287987 2.71192
-3.49563 -0.0302835 2.67897
-3.50962 -0.0292438 2.68106
-3.50791 -0.0318223 2.64208
-3.51529 -0.0335572 2.59216
-3.52331 -0.0335958 2.58922
-3.52146 -0.0338933 2.56921
-3.52855 -0.0340658 2.55726
-3.54202 -0.0369739 2.4954
-3.54507 -0.0370753 2.48842
-3.55316 -0.0372323 2.47748
-3.54832 -0.0375616 2.45545
-3.56284 -0.0405726 2.38659
-3.5769 -0.0396661 2.37968
-3.57517 -0.0412004 2.34369
-3.57841 -0.0426718 2.31173
-3.58742 -0.0426948 2.3098
-3.59365 -0.0431345 2.27985
-3.59191 -0.0446539 2.24485
-3.60796 -0.0447311 2.23897
-3.60019 -0.0461957 2.20793
-3.60853 -0.0478411 2.16401
-3.62171 -0.0481869 2.14011
-2.0057 0.370404 9.53776
-2.5898 0.210438 6.88317
-2.60207 0.208929 6.84828
-2.60944 0.206209 6.79937
-2.61166 0.203781 6.77041
-2.62196 0.202197 6.73051
-2.63323 0.199672 6.69463
-2.63961 0.196937 6.64471
-2.64498 0.194215 6.59578
-2.6582 0.192795 6.5669
-2.66358 0.189044 6.51599
-2.67998 0.186287 6.46415
-2.69069 0.180903 6.37029
-2.69996 0.179362 6.33338
-2.71317 0.177972 6.3065
-2.72244 0.175446 6.2706
-2.72755 0.174227 6.25565
-2.74019 0.169993 6.1718
-2.75436 0.168663 6.14892
-2.75576 0.165879 6.09597
-2.76206 0.163306 6.05705
-2.78015 0.163127 6.04419
-2.77877 0.157912 5.96224
-2.79294 0.156597 5.94036
-2.80451 0.15248 5.8645
-2.8167 0.151119 5.83961
-2.84196 0.141665 5.67292
-2.86352 0.137586 5.59913
-2.87174 0.136162 5.57021
-2.88523 0.13221 5.50536
-2.88951 0.130665 5.46841
-2.90495 0.127818 5.41056
-2.93073 0.122312 5.30782
-2.93794 0.119903 5.27991
-2.93825 0.118296 5.23893
-2.94236 0.117092 5.22498
-2.95844 0.11694 5.2141
-2.95776 0.114318 5.17213
-2.96792 0.113 5.15022
-2.97118 0.111499 5.11626
-2.97344 0.109982 5.0813
-2.98262 0.108634 5.05738
-2.99194 0.106019 5.01548
-3.00704 0.105837 5.0026
-3.00534 0.103244 4.96262
-3.01451 0.101925 4.9407
-3.01676 0.100423 4.90674
-3.02296 0.099043 4.8808
-3.02607 0.0988379 4.86683
-3.03819 0.0976099 4.85093
-3.0345 0.0949855 4.80894
-3.0469 0.0922248 4.75707
-3.05309 0.0908592 4.73213
-3.06817 0.0907073 4.72124
-3.05841 0.0892264 4.68919
-3.06558 0.0878912 4.66626
-3.07079 0.0864953 4.63932
-3.0792 0.0836872 4.58441
-3.08736 0.0823823 4.56349
-3.10454 0.0820542 4.54062
-3.10922 0.0767105 4.44972
-3.11935 0.0764661 4.4328
-3.12366 0.0738624 4.39187
-3.12883 0.0725257 4.36892
-3.13501 0.0711897 4.34598
-3.14757 0.0681033 4.27212
-3.15978 0.0666976 4.24422
-3.17331 0.0626565 4.17338
-3.1876 0.0611043 4.1355
-3.18793 0.0584532 4.09154
-3.21353 0.0553022 4.01277
-3.21285 0.05268 3.97079
-3.23822 0.050973 3.922
-3.23862 0.0481739 3.86804
-3.25913 0.0451969 3.80123
-3.26844 0.0435966 3.76032
-3.27901 0.0394792 3.68445
-3.28416 0.0382018 3.6655
-3.29868 0.035176 3.59565
-3.30698 0.0336046 3.55673
-3.37224 0.0202255 3.25838
-2.58224 0.264464 6.95232
-2.59061 0.260759 6.90443
-2.59798 0.258039 6.85552
-2.61664 0.25175 6.76774
-2.62696 0.249136 6.72585
-2.63432 0.246431 6.67794
-2.63749 0.245107 6.65598
-2.64584 0.242433 6.61008
-2.65514 0.239847 6.57018
-2.66836 0.237428 6.54131
-2.66884 0.233481 6.47737
-2.67616 0.230864 6.43545
-2.68841 0.229385 6.40256
-2.70622 0.221814 6.29579
-2.72771 0.217867 6.23101
-2.73303 0.215235 6.18808
-2.74111 0.215092 6.17814
-2.77854 0.203322 5.98957
-2.78288 0.200659 5.94464
-2.95796 0.15187 5.14157
-2.9951 0.143662 4.99095
-3.00427 0.142328 4.96803
-3.01879 0.138317 4.89919
-3.02528 0.134374 4.83529
-3.03444 0.133055 4.81338
-3.03557 0.132804 4.79639
-3.04077 0.131423 4.77044
-3.04697 0.129028 4.74352
-3.05316 0.127663 4.71858
-3.06133 0.127343 4.69665
-3.0685 0.126008 4.67372
-3.06567 0.12468 4.65171
-3.07582 0.123391 4.63181
-3.07804 0.121949 4.60184
-3.08226 0.119537 4.5739
-3.09041 0.119247 4.55397
-3.10548 0.11911 4.54408
-3.10178 0.116515 4.50409
-3.10388 0.115324 4.49112
-3.11698 0.115141 4.47822
-3.11722 0.112668 4.44625
-3.12537 0.112378 4.42631
-3.12364 0.109858 4.39133
-3.13871 0.109721 4.38145
-3.14389 0.108385 4.3585
-3.14401 0.107148 4.34252
-3.15414 0.106904 4.3256
-3.14843 0.104322 4.28659
-3.1546 0.103001 4.26465
-3.16273 0.10174 4.24673
-3.16692 0.100373 4.22178
-3.1721 0.0990366 4.19883
-3.17716 0.0989219 4.19087
-3.17936 0.0975237 4.1639
-3.19244 0.0973704 4.153
-3.19265 0.095956 4.12502
-3.19882 0.0946349 4.10309
-3.20299 0.0932974 4.08013
-3.21014 0.0920214 4.0612
-3.20727 0.0917527 4.04318
-3.21145 0.0904153 4.02023
-3.22255 0.0892162 4.00633
-3.22276 0.0878166 3.97935
-3.22792 0.0864947 3.95741
-3.23902 0.0863103 3.94449
-3.2312 0.0849493 3.92045
-3.23537 0.0836267 3.8985
-3.23953 0.0823189 3.87754
-3.25281 0.080766 3.83966
-3.26193 0.0805505 3.82473
-3.26311 0.0791961 3.80076
-3.26916 0.0780969 3.79382
-3.27232 0.0777882 3.77284
-3.27152 0.0753881 3.74587
-3.27271 0.0740188 3.72089
-3.28678 0.0748957 3.71199
-3.28399 0.0724793 3.684
-3.28311 0.0722565 3.66899
-3.29122 0.0710404 3.65407
-3.2924 0.069686 3.63009
-3.29952 0.0694542 3.61415
-3.30683 0.0668526 3.57324
-3.30999 0.0655441 3.55228
-3.31522 0.064089 3.52133
-3.32748 0.0625945 3.48744
-3.32982 0.0599301 3.44249
-3.33595 0.0596828 3.42554
-3.34846 0.0566852 3.35767
-3.36071 0.0552056 3.32478
-3.36195 0.0537327 3.29281
-3.38577 0.0481512 3.18506
-3.38784 0.0480047 3.17507
-3.41782 0.0421019 3.04537
-2.6704 0.276292 6.53175
-2.68799 0.27115 6.45395
-2.69728 0.268594 6.41605
-2.71388 0.263422 6.33624
-2.72337 0.259481 6.27236
-2.74092 0.254414 6.19956
-2.75214 0.252993 6.17066
-2.76042 0.250436 6.13276
-2.76771 0.247879 6.09484
-2.77498 0.245351 6.05893
-2.77715 0.243027 6.03698
-2.78247 0.24041 5.99505
-2.78876 0.237852 5.95713
-2.79996 0.23646 5.93023
-2.8033 0.233796 5.88529
-2.81547 0.232465 5.8624
-2.81979 0.228846 5.82048
-2.82195 0.227537 5.79951
-2.83449 0.22348 5.72766
-2.84075 0.220982 5.69374
-2.84702 0.218453 5.65782
-2.85525 0.216015 5.62791
-2.89555 0.205499 5.45635
-2.92527 0.200099 5.36064
-2.92165 0.196356 5.31066
-2.92887 0.193947 5.28274
-2.97029 0.18218 5.0942
-2.9878 0.178201 5.02739
-2.99105 0.176714 4.99443
-3.0084 0.174031 4.94759
-3.01066 0.17153 4.91364
-3.01785 0.170165 4.88871
-3.03136 0.166168 4.82086
-3.0425 0.16491 4.80296
-3.04573 0.162468 4.77302
-3.05391 0.162119 4.74908
-3.05514 0.159661 4.71813
-3.05627 0.15841 4.70115
-3.0778 0.154389 4.63136
-3.07903 0.151931 4.6004
-3.08818 0.151642 4.58047
-3.09324 0.150527 4.57253
-3.09251 0.149008 4.53754
-3.10165 0.147749 4.51962
-3.10486 0.146322 4.49067
-3.10708 0.143894 4.46171
-3.11524 0.142604 4.44179
-3.1224 0.142283 4.41985
-3.12152 0.141046 4.40386
-3.12967 0.139756 4.38394
-3.13881 0.138496 4.36602
-3.14004 0.137053 4.33605
-3.14422 0.135701 4.3121
-3.15137 0.13441 4.29217
-3.16347 0.134226 4.27926
-3.17789 0.130408 4.22341
-3.17415 0.128887 4.1884
-3.17437 0.126458 4.15944
-3.18646 0.126289 4.14753
-3.18064 0.124944 4.1245
-3.19273 0.123761 4.11161
-3.20108 0.121086 4.06571
-3.20228 0.119702 4.03973
-3.21338 0.119517 4.02682
-3.21359 0.118103 3.99883
-3.21369 0.116896 3.98485
-3.22578 0.116727 3.97294
-3.23292 0.115466 3.95501
-3.23016 0.113005 3.92402
-3.23729 0.112743 3.90608
-3.24839 0.112559 3.89316
-3.24363 0.110082 3.86116
-3.24671 0.108936 3.8512
-3.25681 0.108736 3.83728
-3.25503 0.107306 3.80828
-3.26315 0.106075 3.79236
-3.27028 0.105828 3.77541
-3.26948 0.103428 3.74844
-3.27076 0.101881 3.71147
-3.2769 0.100619 3.69353
-3.28006 0.0993106 3.67257
-3.28917 0.0990951 3.65764
-3.29134 0.097771 3.63567
-3.30243 0.0976014 3.62376
-3.29559 0.0952856 3.60274
-3.30568 0.0951153 3.59081
-3.30784 0.0937912 3.56885
-3.30901 0.0924664 3.54687
-3.31712 0.0922502 3.53193
-3.32028 0.0909416 3.51097
-3.32352 0.0894702 3.47902
-3.33361 0.0892999 3.46709
-3.34173 0.0880838 3.45217
-3.3429 0.0867442 3.42919
-3.34604 0.0864651 3.41022
-3.34721 0.0851403 3.38825
-3.35424 0.0850862 3.3843
-3.36135 0.0838693 3.36937
-3.36152 0.0825438 3.34739
-3.37162 0.0823586 3.33446
-3.37278 0.0810338 3.31249
-3.38105 0.0795217 3.27757
-3.37717 0.078282 3.26155
-3.38229 0.0780488 3.24559
-3.38246 0.0767233 3.22361
-3.39652 0.0766151 3.21572
-3.45783 0.0611148 2.90937
-3.46608 0.0596471 2.87745
-3.46538 0.0580396 2.83646
-3.47354 0.0567347 2.81554
-3.47866 0.0565163 2.80058
-3.48576 0.0563141 2.78663
-3.47994 0.0539547 2.76262
-3.49003 0.0537992 2.7517
-3.49606 0.0537443 2.74774
-3.49521 0.0534476 2.72774
-3.49336 0.0521502 2.70774
-3.50046 0.0509481 2.69381
-3.50755 0.0507756 2.68186
-3.51067 0.0505409 2.66589
-3.51976 0.0503847 2.65496
-3.50791 0.04908 2.63489
-3.51103 0.0478454 2.61893
-3.52607 0.0487674 2.61302
-3.51926 0.0464073 2.589
-3.52138 0.0461571 2.57202
-3.53941 0.046111 2.56816
-3.53259 0.0447656 2.54512
-3.53776 0.0444288 2.52216
-3.54512 0.0417236 2.47425
-3.54924 0.0415044 2.45928
-3.55633 0.0413319 2.44734
-3.55441 0.0401677 2.43634
-3.56163 0.0387437 2.40741
-3.56176 0.038492 2.39041
-3.56587 0.037273 2.37546
-3.56898 0.0370531 2.36049
-3.58025 0.0355432 2.32559
-3.58038 0.0352915 2.30859
-3.58846 0.0351345 2.29765
-3.58461 0.0338357 2.27764
-3.59767 0.0337267 2.26974
-3.59581 0.0324589 2.25174
-3.59687 0.0323412 2.24375
-3.60594 0.0321998 2.23382
-3.60408 0.0319319 2.21581
-3.60533 0.0294443 2.18285
-2.02471 0.557145 9.51814
-2.59865 0.354547 6.8891
-2.6372 0.339556 6.68559
-2.64945 0.337062 6.65171
-2.6568 0.333386 6.60581
-2.66709 0.330831 6.56792
-2.67639 0.327246 6.52804
-2.68374 0.32457 6.48213
-2.70156 0.315985 6.37438
-2.71575 0.31461 6.3485
-2.72404 0.312054 6.3106
-2.72841 0.308332 6.26168
-2.74063 0.305911 6.2328
-2.74421 0.300774 6.15589
-2.76035 0.29952 6.13803
-2.77297 0.293315 6.05621
-2.7897 0.285892 5.95943
-2.79501 0.283288 5.9185
-2.80719 0.281942 5.89461
-2.81644 0.279475 5.86271
-2.82075 0.276857 5.82078
-2.83392 0.27554 5.79889
-2.83725 0.271906 5.75597
-2.83546 0.269491 5.72798
-2.84665 0.268129 5.70308
-2.84996 0.26551 5.66114
-2.85624 0.261981 5.62524
-2.87432 0.261832 5.61437
-2.87663 0.259226 5.57342
-2.87976 0.257977 5.55646
-2.88896 0.256584 5.52955
-2.88734 0.251843 5.4796
-2.89852 0.250496 5.4557
-2.90773 0.249103 5.42879
-2.91002 0.246527 5.38984
-2.9202 0.244179 5.36595
-2.92037 0.242854 5.34396
-2.9266 0.2404 5.31304
-2.93284 0.23893 5.28111
-2.943 0.237627 5.2602
-2.94531 0.234037 5.22027
-2.96087 0.228953 5.14645
-2.98968 0.222375 5.03875
-2.99195 0.219858 5.0038
-2.99817 0.217434 4.97488
-3.00747 0.214848 4.93498
-3.0189 0.211013 4.87811
-3.02707 0.209678 4.85519
-3.03624 0.208359 4.83328
-3.03538 0.207078 4.81429
-3.04257 0.205713 4.78936
-3.05173 0.204409 4.76844
-3.06339 0.198129 4.68161
-3.06859 0.196733 4.65467
-3.06971 0.195512 4.63969
-3.09123 0.191492 4.56991
-3.09247 0.189034 4.53895
-3.09667 0.187637 4.512
-3.11113 0.183759 4.45215
-3.12249 0.180057 4.40429
-3.12569 0.178675 4.37833
-3.13482 0.177415 4.36041
-3.1638 0.169526 4.23173
-3.18679 0.161589 4.1
-3.1991 0.158991 4.05913
-3.24158 0.147136 3.8646
-3.24771 0.145874 3.84666
-3.25406 0.143197 3.80074
-3.26644 0.140466 3.75087
-3.28051 0.140343 3.74197
-3.27674 0.137882 3.71098
-3.28386 0.13765 3.69503
-3.28613 0.135119 3.65908
-3.29227 0.133857 3.64115
-3.29859 0.131239 3.59923
-3.30075 0.129915 3.57726
-3.30589 0.129653 3.5593
-3.30698 0.128476 3.54732
-3.3141 0.127244 3.53139
-3.32339 0.125688 3.49348
-3.32969 0.123101 3.45356
-3.33789 0.121722 3.42764
-3.34933 0.118857 3.36876
-3.36968 0.116191 3.32295
-3.36911 0.112346 3.26599
-3.39045 0.110696 3.22117
-3.394 0.106618 3.14825
-3.4112 0.105245 3.12239
-3.41656 0.102539 3.07447
-3.43093 0.100824 3.02559
-3.43124 0.098217 2.98463
-3.45095 0.0928398 2.89084
-3.46736 0.0910522 2.83699
-3.49542 0.0839853 2.69628
-2.88676 0.289934 5.55304
-2.96258 0.262468 5.18097
-2.97897 0.259711 5.12913
-2.98716 0.257347 5.10422
-2.99141 0.254876 5.07228
-2.9948 0.251109 5.02036
-3.00299 0.249745 4.99544
-3.01836 0.246031 4.9466
-3.03908 0.239639 4.85184
-3.03638 0.236046 4.81187
-3.04949 0.235833 4.79697
-3.05174 0.233361 4.76502
-3.05398 0.230889 4.73306
-3.07142 0.227028 4.67424
-3.07959 0.225709 4.65232
-3.08874 0.224419 4.63241
-3.09591 0.223084 4.60948
-3.09839 0.218153 4.54656
-3.10741 0.21813 4.54463
-3.1037 0.21555 4.50563
-3.12397 0.213047 4.47082
-3.12815 0.21168 4.44587
-3.1327 0.206617 4.37397
-3.14679 0.20645 4.36207
-3.15196 0.204113 4.33914
-3.15516 0.202731 4.31319
-3.16034 0.201379 4.28924
-3.16883 0.196438 4.22537
-3.17696 0.196178 4.20743
-3.18214 0.193841 4.1845
-3.19148 0.191167 4.13861
-3.19676 0.188638 4.10268
-3.2029 0.187361 4.08374
-3.2051 0.185978 4.05777
-3.2162 0.184779 4.04387
-3.22762 0.181973 3.98899
-3.231 0.17822 3.93807
-3.24527 0.175698 3.90221
-3.25756 0.174144 3.86432
-3.25568 0.172906 3.84832
-3.26498 0.170321 3.80842
-3.26915 0.168998 3.78647
-3.28568 0.164974 3.71665
-3.29696 0.162434 3.67976
-3.31068 0.156023 3.58395
-3.32177 0.155854 3.57203
-3.32312 0.153174 3.52608
-3.33736 0.151725 3.4952
-3.35601 0.146466 3.40941
-3.3614 0.1427 3.3575
-3.37166 0.141204 3.32359
-3.37679 0.139941 3.30565
-3.39119 0.137182 3.25379
-3.40085 0.131886 3.16593
-3.42456 0.126512 3.07217
-3.43801 0.123634 3.01231
-3.45436 0.121965 2.96645
-3.46168 0.119333 2.92354
-3.47307 0.116587 2.87266
-3.48443 0.113884 2.82478
-3.47855 0.112658 2.80975
-3.49587 0.111034 2.7669
-3.49601 0.109753 2.74791
-3.50723 0.108332 2.71902
-3.5083 0.108199 2.71002
-3.50844 0.106918 2.69104
-3.51568 0.105465 2.66011
-3.52079 0.105246 2.64515
-3.52809 0.102659 2.60524
-3.53519 0.102472 2.59229
-3.53745 0.0999704 2.55834
-3.54767 0.0995484 2.52942
-3.55072 0.099447 2.52245
-3.55284 0.0982117 2.50648
-3.55098 0.0969291 2.48748
-3.55111 0.0956776 2.4705
-3.55523 0.0954584 2.45553
-3.56232 0.0952711 2.44259
-3.56644 0.0940521 2.42763
-3.57247 0.0939973 2.42368
-3.5706 0.0927295 2.40568
-3.57684 0.0912751 2.37474
-3.58194 0.0910715 2.36078
-3.58008 0.0898037 2.34279
-3.59215 0.0906791 2.33386
-3.58922 0.089529 2.32386
-3.58637 0.0882309 2.30385
-3.59545 0.0880894 2.29392
-3.60254 0.0879169 2.28198
-3.60677 0.086461 2.25102
-3.60584 0.0853272 2.24203
-3.60597 0.0850755 2.22503
-3.61008 0.0838713 2.21108
-3.61617 0.083698 2.19913
-3.61729 0.0834619 2.18314
-3.62556 0.081935 2.14722
-2.64861 0.419637 6.62248
-2.6961 0.403756 6.42604
-2.69632 0.401342 6.39808
-2.70954 0.398922 6.36921
-2.71292 0.39417 6.3183
-2.72219 0.391644 6.2824
-2.75316 0.381772 6.15476
-2.75751 0.377094 6.10886
-2.76382 0.374492 6.06794
-2.77799 0.372177 6.04607
-2.78429 0.369589 6.00616
-2.79158 0.366032 5.96826
-2.80377 0.364671 5.94337
-2.80298 0.362256 5.91539
-2.81124 0.358759 5.8815
-2.81752 0.356201 5.84358
-2.82281 0.352642 5.80567
-2.83205 0.35019 5.77477
-2.83733 0.347632 5.73684
-2.84558 0.345164 5.70494
-2.85068 0.343961 5.69099
-2.85794 0.341463 5.65708
-2.86518 0.338994 5.62516
-2.86554 0.334299 5.57823
-2.8777 0.332982 5.55634
-2.88396 0.330483 5.52242
-2.89333 0.326765 5.47354
-2.90582 0.321812 5.4087
-2.91207 0.318343 5.37679
-2.92423 0.317026 5.3549
-2.93391 0.309716 5.26607
-2.95358 0.303413 5.1773
-2.9598 0.300988 5.14837
-2.98877 0.291115 5.02072
-2.99696 0.289751 4.9958
-3.02488 0.279965 4.87414
-3.03954 0.273688 4.78733
-3.06616 0.267494 4.70561
-3.06444 0.264945 4.66863
-3.07457 0.263686 4.65072
-3.07682 0.261214 4.61877
-3.10266 0.25359 4.50806
-3.11279 0.252331 4.49016
-3.11204 0.249842 4.45718
-3.13737 0.247224 4.41441
-3.14255 0.244857 4.38948
-3.14872 0.243536 4.36754
-3.15391 0.24217 4.3426
-3.15205 0.240902 4.3246
-3.18188 0.233296 4.21492
-3.20805 0.22202 4.06026
-3.21156 0.217031 3.99335
-3.22484 0.214478 3.95549
-3.23813 0.211926 3.91762
-3.23843 0.209334 3.87765
-3.24874 0.206734 3.83677
-3.25192 0.204396 3.81382
-3.25707 0.203104 3.79388
-3.26519 0.202873 3.77794
-3.27242 0.200419 3.74702
-3.28253 0.20022 3.7331
-3.27677 0.196742 3.70111
-3.29202 0.195264 3.66824
-3.29419 0.19394 3.64627
-3.29626 0.192794 3.6363
-3.29745 0.191439 3.61233
-3.30556 0.191223 3.59739
-3.30476 0.188838 3.57142
-3.31585 0.188668 3.5595
-3.31405 0.186267 3.53252
-3.31927 0.184842 3.50357
-3.32342 0.183549 3.48362
-3.33054 0.182317 3.46769
-3.33568 0.181054 3.44975
-3.34874 0.180931 3.44085
-3.34297 0.178482 3.41083
-3.34505 0.178336 3.40085
-3.35333 0.175794 3.36395
-3.35647 0.174515 3.34499
-3.36358 0.174298 3.33004
-3.36476 0.171959 3.30708
-3.3698 0.171888 3.30212
-3.37907 0.170362 3.26621
-3.38551 0.166494 3.2073
-3.3956 0.165323 3.1954
-3.3937 0.165129 3.18238
-3.39685 0.16385 3.16342
-3.39998 0.162586 3.14546
-3.41106 0.162431 3.13455
-3.40527 0.160028 3.10754
-3.41535 0.159872 3.09661
-3.41254 0.1575 3.07162
-3.41559 0.157399 3.06465
-3.42599 0.154622 3.01176
-3.43524 0.15314 2.97885
-3.43845 0.150743 2.9519
-3.44868 0.149291 2.921
-3.4528 0.149057 2.90503
-3.46304 0.146591 2.87314
-3.47014 0.146404 2.86019
-3.47037 0.14396 2.83023
-3.46952 0.142663 2.81024
-3.47563 0.14246 2.79628
-3.48685 0.141024 2.76638
-3.487 0.139743 2.7474
-3.48607 0.138594 2.73741
-3.4892 0.138345 2.72044
-3.49232 0.13711 2.70447
-3.50041 0.136939 2.69254
-3.49956 0.135642 2.67255
-3.53687 0.127108 2.49993
-3.60107 0.112832 2.20859
-2.58928 0.490103 6.92603
-2.64106 0.468663 6.6917
-2.65967 0.461478 6.61094
-2.66897 0.458893 6.57104
-2.68365 0.450586 6.48226
-2.70004 0.445828 6.43045
-2.70834 0.442243 6.39056
-2.71171 0.43852 6.34163
-2.74704 0.422955 6.16711
-2.75926 0.420535 6.13823
-2.76555 0.416963 6.09933
-2.79252 0.406088 5.97167
-2.80175 0.40365 5.94177
-2.8163 0.397595 5.86996
-2.82749 0.395219 5.84408
-2.83476 0.392691 5.80817
-2.84201 0.389223 5.77627
-2.84614 0.387974 5.75931
-2.84649 0.384279 5.71237
-2.85178 0.38072 5.67445
-2.86001 0.378282 5.64455
-2.86923 0.37586 5.61565
-2.87745 0.373437 5.58674
-2.88469 0.370968 5.55483
-2.88485 0.368643 5.53286
-2.89406 0.36625 5.50596
-2.89736 0.36366 5.46602
-2.90951 0.362388 5.44713
-2.9197 0.36001 5.42124
-2.92397 0.356496 5.38632
-2.92413 0.355185 5.36533
-2.93135 0.352746 5.33542
-2.93561 0.349246 5.3015
-2.93789 0.3467 5.26455
-2.94807 0.344352 5.24066
-2.95628 0.342959 5.21374
-2.96249 0.340549 5.18581
-2.96067 0.338192 5.16183
-2.9659 0.335752 5.1319
-2.98199 0.335586 5.12003
-2.98228 0.332009 5.08108
-2.98356 0.328462 5.04413
-2.98978 0.326053 5.01621
-3.0019 0.32481 4.99932
-3.00008 0.322468 4.97634
-3.00727 0.321103 4.95141
-3.02334 0.320967 4.94153
-3.02165 0.317374 4.90156
-3.02983 0.315024 4.87766
-3.03504 0.313614 4.84971
-3.0363 0.310097 4.81477
-3.0394 0.308921 4.80281
-3.04855 0.307617 4.78189
-3.0508 0.305145 4.74994
-3.05699 0.30278 4.72502
-3.06317 0.301414 4.70008
-3.07133 0.300109 4.67916
-3.07148 0.297828 4.66019
-3.07469 0.295416 4.63225
-3.0789 0.293005 4.60431
-3.09324 0.290349 4.55946
-3.10548 0.287899 4.52858
-3.10374 0.28538 4.4936
-3.10992 0.283044 4.47068
-3.11708 0.281723 4.44875
-3.12128 0.279342 4.42281
-3.12547 0.277975 4.39786
-3.13263 0.276669 4.37693
-3.13176 0.274417 4.35995
-3.13891 0.273111 4.33902
-3.15916 0.271637 4.30619
-3.15939 0.269194 4.27623
-3.16555 0.267887 4.25529
-3.16577 0.265458 4.22632
-3.1649 0.263206 4.20935
-3.18392 0.264175 4.20648
-3.18733 0.259379 4.15257
-3.19943 0.25918 4.13866
-3.20778 0.255505 4.09277
-3.21404 0.253007 4.05885
-3.21722 0.251654 4.03489
-3.22436 0.250378 4.01596
-3.22478 0.245564 3.96103
-3.23588 0.245379 3.94811
-3.23102 0.243095 3.92911
-3.23222 0.241711 3.90313
-3.24431 0.240542 3.89124
-3.25342 0.240327 3.87631
-3.2566 0.237988 3.85336
-3.25878 0.236635 3.8294
-3.26185 0.235489 3.81944
-3.26402 0.234165 3.79747
-3.27828 0.231657 3.76261
-3.27749 0.230257 3.73562
-3.28759 0.229057 3.72171
-3.28878 0.227703 3.69774
-3.28193 0.225402 3.67772
-3.29401 0.225248 3.66681
-3.29519 0.222893 3.64285
-3.30529 0.222708 3.62993
-3.30845 0.2214 3.60897
-3.30863 0.219045 3.585
-3.30575 0.217806 3.56899
-3.31485 0.21762 3.55606
-3.33027 0.213802 3.50023
-3.33541 0.212539 3.48228
-3.33062 0.210122 3.45428
-3.34063 0.211114 3.45334
-3.33882 0.208743 3.42836
-3.34198 0.207434 3.4074
-3.34909 0.206217 3.39247
-3.35439 0.203629 3.35254
-3.36051 0.202397 3.3366
-3.3606 0.202234 3.3256
-3.38326 0.196948 3.23784
-3.38244 0.194607 3.21487
-3.38748 0.194522 3.2089
-3.39856 0.194382 3.19899
-3.39575 0.192009 3.174
-3.4093 0.187939 3.10115
-3.43283 0.18392 3.03138
-3.43734 0.178916 2.96348
-3.44048 0.177652 2.94552
-3.4446 0.177418 2.92955
-3.44872 0.176184 2.9136
-3.45285 0.174936 2.89664
-3.46727 0.172117 2.84079
-3.47949 0.170697 2.8119
-3.47566 0.169354 2.78888
-3.48297 0.166752 2.74797
-3.49433 0.164065 2.70109
-3.50561 0.16151 2.66321
-3.52825 0.157283 2.57943
-3.54172 0.154375 2.51757
-3.53986 0.153093 2.49857
-3.54503 0.151756 2.47562
-3.55127 0.150301 2.44469
-3.57723 0.143426 2.31697
-3.58439 0.14212 2.29604
-3.60106 0.137814 2.20721
-2.58834 0.53392 6.91337
-2.59963 0.531366 6.87549
-2.60087 0.527893 6.84355
-2.61315 0.524355 6.80669
-2.62151 0.519665 6.75981
-2.63181 0.516081 6.71994
-2.63917 0.511376 6.67205
-2.65339 0.508957 6.64319
-2.6627 0.505372 6.60331
-2.65705 0.500672 6.55633
-2.66635 0.497087 6.51645
-2.67566 0.493502 6.47657
-2.68495 0.489946 6.43868
-2.69522 0.486421 6.40281
-2.70449 0.482895 6.36693
-2.73789 0.466181 6.1824
-2.75248 0.459037 6.10461
-2.84468 0.420859 5.68381
-2.97625 0.368016 5.0815
-2.98557 0.364401 5.03961
-3.00618 0.358232 4.95985
-3.00944 0.354731 4.92592
-3.04255 0.342579 4.77933
-3.04987 0.338963 4.73743
-3.07365 0.330456 4.63472
-3.09529 0.324213 4.54997
-3.09751 0.321786 4.52102
-3.10369 0.319435 4.4971
-3.11283 0.318161 4.47818
-3.11308 0.315687 4.44621
-3.12926 0.314329 4.42135
-3.13246 0.311946 4.39541
-3.14482 0.30826 4.34855
-3.14505 0.304801 4.3176
-3.15023 0.303465 4.29465
-3.15132 0.302273 4.28168
-3.15551 0.299906 4.25674
-3.17082 0.297325 4.21689
-3.17005 0.294866 4.18592
-3.1772 0.293575 4.16599
-3.18534 0.292314 4.14806
-3.19798 0.285065 4.06325
-3.21523 0.283589 4.0304
-3.24561 0.268918 3.84882
-3.38141 0.223618 3.21543
-3.39067 0.222121 3.18152
-3.39695 0.219578 3.1446
-3.40314 0.217198 3.11867
-3.4114 0.2157 3.08475
-3.42264 0.213235 3.05287
-3.42073 0.212056 3.04087
-3.43411 0.209325 2.99101
-3.43922 0.209107 2.97605
-3.4487 0.204181 2.91318
-3.46221 0.200185 2.84533
-3.46634 0.198951 2.82938
-3.488 0.193664 2.74161
-3.49844 0.190813 2.68372
-3.52321 0.184321 2.58199
-3.60394 0.165021 2.22084
-2.02233 0.856496 9.53969
-2.59792 0.574738 6.83283
-2.62735 0.569901 6.77511
-2.63374 0.564151 6.72424
-2.64403 0.560596 6.68636
-2.65236 0.556951 6.64248
-2.66288 0.549952 6.57465
-2.67415 0.546428 6.53878
-2.67657 0.540615 6.48388
-2.69176 0.538257 6.45902
-2.69908 0.53464 6.41713
-2.70443 0.528949 6.37024
-2.70368 0.526475 6.33827
-2.7159 0.523054 6.30941
-2.72222 0.519423 6.26651
-2.72952 0.514836 6.22662
-2.74076 0.512385 6.19574
-2.75002 0.508889 6.16186
-2.76025 0.506438 6.13097
-2.76145 0.504054 6.10501
-2.76481 0.498361 6.05811
-2.77502 0.495939 6.02922
-2.78821 0.494578 6.00433
-2.78762 0.488779 5.95041
-2.8008 0.486448 5.92754
-2.81003 0.483996 5.89664
-2.8165 0.477083 5.83478
-2.82179 0.473525 5.79687
-2.83102 0.471087 5.76697
-2.8432 0.468741 5.74309
-2.84848 0.465197 5.70618
-2.85573 0.462714 5.67327
-2.85394 0.459299 5.6453
-2.88915 0.444971 5.48676
-2.91593 0.435466 5.38409
-2.94055 0.428271 5.30237
-2.95415 0.421097 5.22256
-2.98441 0.405662 5.057
-2.99584 0.399827 5.00016
-3.00727 0.394991 4.94331
-3.07568 0.367335 4.62619
-2.02543 0.91621 9.51983
-2.59455 0.626396 6.87704
-2.60389 0.621722 6.83118
-2.61617 0.618198 6.79532
-2.61641 0.614725 6.76337
-2.62379 0.608991 6.7135
-2.63409 0.605406 6.67362
-2.64143 0.600746 6.62874
-2.65172 0.596191 6.59088
-2.66201 0.592636 6.55301
-2.67231 0.589066 6.51413
-2.67255 0.585593 6.48218
-2.68282 0.582068 6.44631
-2.69112 0.577482 6.40643
-2.69845 0.572851 6.36355
-2.70675 0.569265 6.32366
-2.71603 0.564724 6.28679
-2.72531 0.561198 6.25091
-2.7606 0.543693 6.08041
-2.8041 0.52381 5.884
-2.86628 0.495593 5.59685
-2.88291 0.487377 5.51409
-3.38133 0.2857 3.22051
-2.62847 0.663551 6.75073
-2.6471 0.654336 6.668
-2.68553 0.633582 6.48057
-2.69776 0.630132 6.44971
-2.70213 0.624411 6.40082
-2.71535 0.621991 6.37195
-2.72364 0.617435 6.33407
-2.72385 0.615021 6.30611
-2.73116 0.610419 6.26523
-2.7424 0.606969 6.23436
-2.74773 0.602321 6.19046
-2.75601 0.59778 6.15358
-2.7574 0.592026 6.10267
-2.77906 0.582755 6.01596
-2.78535 0.579197 5.97806
-2.80246 0.577987 5.9632
-2.80187 0.572188 5.90928
-2.81701 0.569932 5.89142
-2.83505 0.554918 5.75476
-2.83935 0.551329 5.71484
-2.85251 0.549028 5.69397
-2.85877 0.54553 5.66006
-2.8652 0.539691 5.60319
-2.88067 0.532785 5.5414
-2.89382 0.531498 5.52152
-2.89416 0.526833 5.47658
-2.90631 0.52456 5.4577
-2.90352 0.521144 5.42973
-2.92717 0.512888 5.34402
-2.92847 0.508312 5.30509
-2.93569 0.505888 5.27618
-2.94488 0.503525 5.25128
-2.95718 0.499942 5.21142
-2.95946 0.495396 5.1745
-2.97554 0.495245 5.16362
-2.97387 0.490608 5.12067
-2.98798 0.489411 5.10679
-2.99238 0.48363 5.0539
-3.00183 0.477749 4.99405
-3.02342 0.470625 4.91731
-3.0275 0.469465 4.90636
-3.03074 0.465994 4.87443
-3.04214 0.461218 4.82158
-3.04637 0.457777 4.79166
-3.05283 0.451894 4.73178
-3.05988 0.450795 4.72485
-3.0693 0.445988 4.66999
-3.08858 0.44244 4.63218
-3.09477 0.440089 4.60826
-3.09712 0.435395 4.56134
-3.10428 0.43409 4.54041
-3.10453 0.430601 4.50746
-3.1248 0.428098 4.47264
-3.12702 0.424656 4.44271
-3.12614 0.422418 4.42673
-3.12836 0.420006 4.39878
-3.13749 0.418746 4.38086
-3.14268 0.41638 4.35593
-3.15932 0.408149 4.27217
-3.17065 0.404506 4.2283
-3.17978 0.403261 4.21139
-3.18396 0.400909 4.18745
-3.19627 0.397311 4.14659
-3.20354 0.394798 4.11168
-3.22023 0.386463 4.02092
-3.22748 0.38298 3.98802
-3.23086 0.378243 3.93811
-3.26722 0.362605 3.75859
-3.29522 0.350672 3.62696
-3.31903 0.342106 3.52025
-2.59118 0.728975 6.91551
-2.59856 0.72324 6.86564
-2.61279 0.719807 6.83579
-2.62212 0.714163 6.79194
-2.63049 0.709458 6.74407
-2.63172 0.705016 6.71414
-2.642 0.701461 6.67626
-2.65132 0.695846 6.63441
-2.66161 0.692291 6.59654
-2.667 0.68554 6.54567
-2.6812 0.683151 6.51881
-2.69051 0.678566 6.47894
-2.69708 0.669461 6.40411
-2.70441 0.664815 6.36023
-2.7137 0.66026 6.32236
-2.72592 0.65684 6.2935
-2.73616 0.653374 6.26163
-2.73147 0.648764 6.22065
-2.74904 0.640667 6.1459
-2.75828 0.6372 6.11401
-2.76952 0.633749 6.08314
-2.78269 0.631418 6.06027
-2.78212 0.624589 6.00436
-2.79058 0.617693 5.94352
-2.80611 0.609668 5.87375
-2.8289 0.598146 5.77008
-2.83203 0.595897 5.75313
-2.8607 0.587601 5.66446
-2.86105 0.58192 5.61854
-2.87555 0.574969 5.55374
-2.87868 0.57272 5.53679
-2.89315 0.565798 5.474
-2.90038 0.562359 5.4441
-2.95932 0.535629 5.1899
-3.02894 0.499559 4.84491
-3.06697 0.486574 4.70937
-3.09805 0.472495 4.5678
-3.10349 0.465641 4.50993
-3.13153 0.452634 4.37332
-3.1573 0.442143 4.27165
-3.16568 0.43741 4.22178
-3.19362 0.425595 4.09815
-3.21954 0.414808 3.97648
-3.22371 0.412486 3.95455
-3.23512 0.407695 3.9007
-3.25574 0.400496 3.81895
-3.26495 0.398088 3.79105
-3.27029 0.393426 3.74615
-3.28376 0.387519 3.68433
-3.29415 0.383771 3.63346
-3.30344 0.380201 3.59458
-2.02298 1.10685 9.562
-2.6149 0.761537 6.81719
-2.6252 0.756953 6.77733
-2.64579 0.746814 6.69962
-2.67274 0.731984 6.57503
-2.67297 0.72854 6.54508
-2.68227 0.723955 6.50521
-2.69059 0.718355 6.46435
-2.70087 0.714814 6.42747
-2.71209 0.711379 6.39761
-2.7287 0.702207 6.31786
-2.72794 0.697733 6.28591
-2.73524 0.693161 6.24703
-2.74451 0.68865 6.21216
-2.7577 0.68629 6.18729
-2.76302 0.680658 6.14441
-2.7837 0.670356 6.05571
-2.78902 0.665738 6.01381
-2.79827 0.662242 5.97992
-2.80555 0.657714 5.94404
-2.81379 0.654247 5.91215
-2.81713 0.648583 5.86725
-2.82125 0.647364 5.8523
-2.82359 0.6417 5.8074
-2.83479 0.638309 5.78053
-2.84598 0.635947 5.75564
-2.85423 0.632465 5.72275
-2.85656 0.62683 5.67985
-2.86495 0.621067 5.62799
-2.87221 0.617584 5.59509
-2.88241 0.614192 5.56821
-2.89195 0.606148 5.49739
-2.90905 0.604968 5.48454
-2.91134 0.600393 5.44562
-2.9207 0.595704 5.39875
-2.92793 0.592251 5.36785
-2.92727 0.586599 5.32393
-2.95058 0.583009 5.28315
-2.955 0.576199 5.22828
-2.96121 0.572789 5.20037
-2.96448 0.569259 5.16444
-2.98579 0.565667 5.12365
-2.98413 0.560015 5.07971
-2.99117 0.558931 5.07378
-2.99641 0.556476 5.04285
-3.00361 0.553097 5.01695
-3.01475 0.551824 4.99805
-3.018 0.547338 4.96514
-3.0163 0.542745 4.92519
-3.03336 0.542639 4.91732
-3.0266 0.539175 4.88632
-3.04196 0.534476 4.83849
-3.04716 0.531095 4.81258
-3.05435 0.52873 4.78767
-3.05996 0.519551 4.70783
-3.07207 0.518338 4.69294
-3.07924 0.516002 4.67003
-3.0884 0.514713 4.65011
-3.0936 0.511317 4.6232
-3.10176 0.510012 4.60227
-3.092 0.505532 4.57026
-3.10905 0.505455 4.56439
-3.1093 0.501967 4.53144
-3.11745 0.499677 4.51153
-3.12462 0.497342 4.48862
-3.12782 0.49496 4.46267
-3.12499 0.491632 4.4407
-3.13807 0.491479 4.4298
-3.13436 0.486914 4.39183
-3.1435 0.485654 4.37392
-3.1588 0.482073 4.33408
-3.16399 0.479707 4.30915
-3.16013 0.477423 4.29015
-3.16828 0.475133 4.27025
-3.17444 0.472827 4.24932
-3.1816 0.471536 4.22939
-3.18798 0.465786 4.17852
-3.19524 0.462288 4.14462
-3.20437 0.461043 4.12771
-3.20755 0.45869 4.10376
-3.20776 0.456276 4.0758
-3.21688 0.455046 4.05988
-3.22404 0.452755 4.03997
-3.22929 0.449256 4.00605
-3.23347 0.446918 3.98312
-3.23863 0.444611 3.96219
-3.23685 0.442181 3.9332
-3.24598 0.440936 3.91629
-3.25013 0.438628 3.89535
-3.25925 0.437413 3.88044
-3.26035 0.436221 3.86746
-3.26054 0.433837 3.84149
-3.26371 0.431513 3.81955
-3.26688 0.429175 3.7966
-3.27698 0.42799 3.7837
-3.27826 0.424444 3.74675
-3.28144 0.422106 3.72381
-3.28757 0.420844 3.70587
-3.2929 0.416211 3.66297
-3.30399 0.416042 3.65106
-3.29724 0.411548 3.61807
-3.31023 0.412587 3.62015
-3.30942 0.410202 3.59418
-3.3215 0.410063 3.58427
-3.31673 0.406615 3.55428
-3.32979 0.406492 3.54538
-3.32709 0.401913 3.50642
-3.33322 0.400665 3.48948
-3.34232 0.39948 3.47657
-3.35458 0.396971 3.44169
-3.34582 0.393491 3.40967
-3.35592 0.39232 3.39777
-3.35799 0.392174 3.38778
-3.35932 0.387524 3.34385
-3.36644 0.386307 3.32892
-3.37653 0.386136 3.317
-3.37985 0.381517 3.27509
-3.38688 0.382463 3.27113
-3.38307 0.379076 3.24514
-3.39531 0.376626 3.21427
-3.39349 0.374269 3.19029
-3.40358 0.374099 3.17836
-3.39878 0.370711 3.15237
-3.40978 0.371719 3.15244
-3.40894 0.369393 3.13047
-3.41803 0.369221 3.11854
-3.41323 0.365833 3.09255
-3.42744 0.364429 3.06467
-3.4286 0.362119 3.04371
-3.43761 0.363111 3.04276
-3.43678 0.360785 3.02079
-3.43991 0.359535 3.00383
-3.4361 0.356163 2.97885
-3.44419 0.355991 2.96691
-3.45129 0.355789 2.95296
-3.44847 0.352446 2.92999
-3.46443 0.354517 2.93408
-3.45465 0.351096 2.90605
-3.47382 0.350769 2.8832
-3.47611 0.347208 2.84526
-3.48328 0.345873 2.82233
-3.48457 0.342312 2.78439
-3.49792 0.33864 2.73854
-3.49202 0.337429 2.72451
-3.50225 0.334992 2.69462
-3.51446 0.333602 2.66773
-3.51361 0.331305 2.64775
-3.5207 0.331133 2.63581
-3.5168 0.329937 2.62279
-3.52403 0.327484 2.59188
-3.52615 0.326248 2.57591
-3.53425 0.326062 2.56297
-3.55049 0.3246 2.53111
-3.54665 0.322286 2.51012
-3.54579 0.320005 2.49114
-3.56594 0.320723 2.47128
-3.56018 0.31726 2.44028
-3.56343 0.314774 2.40734
-3.58159 0.314476 2.38648
-3.57178 0.311099 2.36145
-3.58086 0.310943 2.35052
-3.58218 0.307322 2.30858
-3.5935 0.304694 2.2657
-3.59668 0.303356 2.24274
-3.60774 0.304231 2.23381
-3.60489 0.301947 2.21482
-3.62006 0.301618 2.19193
-3.61639 0.297979 2.14895
-2.00588 1.15997 9.57008
-2.62568 0.785973 6.71089
-2.69302 0.748464 6.40391
-2.92967 0.673658 5.39466
-2.94412 0.665795 5.33588
-2.96298 0.652137 5.22321
-2.97444 0.645243 5.16239
-2.99606 0.63506 5.08169
-3.00666 0.625899 5.0029
-3.01484 0.62355 4.97899
-3.02627 0.616729 4.92317
-3.03543 0.61441 4.90127
-3.03755 0.61219 4.88632
-3.03287 0.60655 4.84336
-3.03908 0.603155 4.81645
-3.05246 0.598425 4.76662
-3.06556 0.597228 4.75273
-3.07275 0.594878 4.72882
-3.06497 0.590428 4.69882
-3.08006 0.589276 4.68795
-3.07636 0.584682 4.64798
-3.08576 0.577904 4.59515
-3.10517 0.57212 4.54137
-3.10642 0.568647 4.50943
-3.11851 0.567463 4.49654
-3.11679 0.562929 4.46059
-3.12098 0.560562 4.43565
-3.12814 0.558257 4.41473
-3.14013 0.55928 4.41581
-3.13839 0.554776 4.38186
-3.13862 0.550318 4.35092
-3.15469 0.551196 4.34203
-3.15515 0.543309 4.28214
-3.16328 0.542048 4.26422
-3.17549 0.539643 4.23634
-3.18584 0.533969 4.1905
-3.19321 0.52825 4.14163
-3.21278 0.521169 4.06787
-3.22211 0.516525 4.024
-3.22879 0.506213 3.9352
-3.24088 0.506044 3.92329
-3.24306 0.50269 3.89935
-3.25118 0.501459 3.88343
-3.25337 0.499091 3.85848
-3.25366 0.494529 3.82054
-3.26911 0.488652 3.76074
-3.27327 0.486344 3.7398
-3.27941 0.484083 3.72188
-3.2805 0.482906 3.7099
-3.28267 0.480582 3.68795
-3.30107 0.475796 3.63415
-3.30333 0.472294 3.60021
-3.31263 0.468724 3.56133
-3.34371 0.45463 3.41875
-3.34587 0.452321 3.3978
-3.35894 0.453197 3.38889
-3.36946 0.446184 3.32006
-3.37674 0.442642 3.28316
-3.37691 0.440316 3.26119
-3.38295 0.440232 3.25524
-3.38411 0.437937 3.23528
-3.38923 0.436689 3.21833
-3.40345 0.43427 3.18947
-3.40676 0.43068 3.14955
-3.4118 0.430595 3.14358
-3.41709 0.426037 3.10569
-3.41923 0.424757 3.08672
-3.43229 0.424648 3.07882
-3.42153 0.420182 3.0478
-3.43856 0.422135 3.0439
-3.43284 0.417583 3.00692
-3.44193 0.416412 2.995
-3.4391 0.41407 2.97201
-3.44224 0.412806 2.95405
-3.46126 0.413775 2.95118
-3.46561 0.409097 2.90528
-3.46691 0.405521 2.86633
-3.47699 0.405365 2.85541
-3.4782 0.402952 2.82745
-3.47935 0.400672 2.80849
-3.49056 0.399265 2.78059
-3.48971 0.396969 2.76062
-3.49682 0.395767 2.74669
-3.49092 0.393555 2.73267
-3.49404 0.392321 2.71671
-3.50526 0.3909 2.68781
-3.50838 0.389665 2.67185
-3.52704 0.382391 2.58509
-3.53839 0.379718 2.53921
-3.55065 0.377209 2.50433
-3.57877 0.366054 2.35769
-3.60559 0.35846 2.24899
-3.61001 0.354634 2.19307
-2.59205 0.917984 6.91471
-2.60726 0.914581 6.88688
-2.61563 0.907877 6.83903
-2.63233 0.895513 6.74633
-2.64459 0.891019 6.71248
-2.64778 0.887652 6.68755
-2.65809 0.882068 6.64771
-2.66053 0.873211 6.58985
-2.67279 0.868717 6.556
-2.68502 0.865267 6.52514
-2.69531 0.860713 6.48728
-2.70361 0.855127 6.44742
-2.71607 0.847248 6.38762
-2.72341 0.840603 6.34377
-2.73269 0.836047 6.3059
-2.74927 0.825935 6.23017
-2.75854 0.821409 6.1943
-2.75777 0.816965 6.16435
-2.7631 0.810332 6.12149
-2.77334 0.806866 6.08961
-2.78261 0.802355 6.05474
-2.79816 0.792301 5.983
-2.79835 0.788917 5.95705
-2.80563 0.784389 5.92116
-2.81979 0.782089 5.9003
-2.82215 0.775395 5.85341
-2.83275 0.764234 5.77465
-2.84806 0.759639 5.73382
-2.86023 0.757307 5.71095
-2.86749 0.75281 5.67706
-2.86589 0.745039 5.62516
-2.88002 0.743783 5.60728
-2.88646 0.735944 5.55044
-2.88977 0.73034 5.50954
-2.90191 0.728068 5.49066
-2.90422 0.722463 5.44976
-2.91935 0.721223 5.43289
-2.92756 0.717814 5.405
-2.93478 0.71439 5.3761
-2.9251 0.707762 5.33412
-2.93922 0.706535 5.31824
-2.9425 0.702005 5.28233
-2.95169 0.698642 5.25744
-2.96186 0.696309 5.23455
-2.96612 0.691809 5.20064
-2.97531 0.689446 5.17575
-2.97842 0.687226 5.1608
-2.97872 0.681649 5.12188
-2.9889 0.679317 5.09899
-2.99709 0.675953 5.07409
-3.00133 0.672482 5.04217
-3.0115 0.670164 5.02028
-3.01588 0.663427 4.97041
-3.02011 0.659972 4.93949
-3.03323 0.657745 4.92362
-3.02957 0.652091 4.87967
-3.03774 0.649757 4.85676
-3.05085 0.648544 4.84187
-3.04508 0.644111 4.81289
-3.05521 0.641852 4.795
-3.06635 0.640594 4.7771
-3.0738 0.632711 4.71726
-3.07841 0.622531 4.63744
-3.09547 0.622425 4.62957
-3.10264 0.620105 4.60765
-3.10784 0.617724 4.58172
-3.11428 0.60987 4.52388
-3.12341 0.60861 4.50596
-3.1265 0.607435 4.494
-3.12898 0.598505 4.43115
-3.13638 0.592741 4.37928
-3.14453 0.590451 4.35937
-3.15652 0.591474 4.36045
-3.15972 0.588092 4.33452
-3.16489 0.585755 4.31159
-3.16316 0.581236 4.27664
-3.16636 0.577854 4.25071
-3.18043 0.577716 4.24082
-3.17978 0.572035 4.19489
-3.18298 0.568653 4.16896
-3.19705 0.568515 4.15907
-3.20739 0.563871 4.11521
-3.21058 0.560504 4.09028
-3.21278 0.557121 4.06434
-3.21486 0.555959 4.05337
-3.21805 0.553592 4.02843
-3.22222 0.551254 4.00549
-3.23332 0.55007 3.99259
-3.24285 0.542041 3.92277
-3.24494 0.540865 3.9108
-3.24713 0.537512 3.88686
-3.25525 0.536266 3.86994
-3.26537 0.535051 3.85503
-3.26685 0.527105 3.79115
-3.27994 0.526952 3.78025
-3.2924 0.521058 3.71943
-3.29567 0.516528 3.68351
-3.31507 0.511758 3.63072
-3.32238 0.508171 3.59082
-3.32266 0.503624 3.55389
-3.32582 0.501315 3.53294
-3.326 0.49796 3.50899
-3.3361 0.497775 3.49607
-3.34123 0.495513 3.47814
-3.35548 0.49305 3.44628
-3.35358 0.491841 3.43228
-3.35989 0.487254 3.39239
-3.38042 0.481233 3.32262
-3.38779 0.475513 3.27376
-3.38796 0.473187 3.25179
-3.40119 0.470738 3.22092
-3.40739 0.468358 3.195
-3.40855 0.466048 3.17404
-3.41483 0.462505 3.13713
-3.42194 0.461288 3.1222
-3.42417 0.457846 3.09227
-3.4293 0.456598 3.07532
-3.44152 0.455163 3.04543
-3.44895 0.44934 2.98957
-3.45199 0.449253 2.98359
-3.44818 0.44588 2.95861
-3.46223 0.446787 2.9517
-3.45842 0.443429 2.92772
-3.4685 0.443273 2.91679
-3.46964 0.440993 2.89783
-3.46277 0.438751 2.88181
-3.47285 0.438596 2.87089
-3.46803 0.435237 2.8469
-3.47713 0.435051 2.83397
-3.48224 0.433833 2.81902
-3.48736 0.432615 2.80408
-3.48651 0.430318 2.7841
-3.49453 0.43128 2.78115
-3.49071 0.427936 2.75816
-3.49581 0.426733 2.74422
-3.5059 0.426563 2.7323
-3.50008 0.424218 2.70928
-3.50618 0.423015 2.69535
-3.51925 0.423891 2.68643
-3.51136 0.420664 2.67142
-3.51449 0.419415 2.65446
-3.52258 0.419243 2.64252
-3.52386 0.415711 2.60657
-3.53592 0.415586 2.59767
-3.53308 0.413274 2.57668
-3.53315 0.41214 2.56769
-3.53726 0.411921 2.55272
-3.53641 0.40964 2.53375
-3.54151 0.408436 2.5198
-3.54662 0.407233 2.50586
-3.55982 0.406857 2.47996
-3.56002 0.403458 2.45301
-3.55817 0.401175 2.43402
-3.56824 0.402035 2.42409
-3.57335 0.400831 2.41014
-3.56751 0.398501 2.38813
-3.58057 0.398392 2.38023
-3.57964 0.398258 2.37122
-3.57792 0.39371 2.33427
-3.58103 0.392505 2.32031
-3.58613 0.392301 2.30635
-3.59422 0.392144 2.29541
-3.59528 0.391026 2.28743
-3.59342 0.389744 2.26844
-3.60163 0.387336 2.24053
-3.61071 0.387194 2.2306
-3.60786 0.384896 2.21061
-3.60997 0.38469 2.19663
-3.62209 0.384447 2.17972
-3.62321 0.383211 2.16374
-2.68083 0.901601 6.54757
-2.69231 0.892663 6.48379
-2.69769 0.885942 6.43492
-2.72947 0.872441 6.33234
-2.73677 0.866854 6.29248
-2.74527 0.856899 6.22768
-2.75257 0.851312 6.18781
-2.76281 0.847846 6.15593
-2.76617 0.840154 6.10907
-2.77739 0.836733 6.0802
-2.78488 0.827791 6.01638
-2.79217 0.823234 5.9785
-2.80633 0.820934 5.95763
-2.81163 0.815346 5.91775
-2.81693 0.809773 5.87887
-2.8242 0.804246 5.843
-2.83343 0.800808 5.81312
-2.83361 0.797454 5.78916
-2.84285 0.793002 5.75829
-2.85404 0.79064 5.73341
-2.86326 0.786218 5.70454
-2.87776 0.778252 5.63876
-2.88402 0.773753 5.60487
-2.88551 0.763793 5.54002
-2.9151 0.754675 5.46337
-2.92233 0.751236 5.43347
-2.92479 0.742336 5.37261
-2.93203 0.737882 5.34172
-2.9504 0.732156 5.29194
-2.95565 0.727686 5.26004
-2.96006 0.72089 5.20617
-2.97516 0.719709 5.1933
-2.98138 0.71627 5.16339
-2.97674 0.708571 5.11646
-2.99411 0.702859 5.06767
-3.00033 0.699449 5.03977
-3.00837 0.699366 5.03383
-3.01684 0.691455 4.972
-3.01811 0.685938 4.93709
-3.02629 0.683589 4.91318
-3.03883 0.674547 4.8424
-3.04898 0.672259 4.82251
-3.07488 0.658532 4.70489
-3.08304 0.656227 4.68398
-3.08528 0.651755 4.65206
-3.11311 0.639162 4.54344
-3.11731 0.635781 4.51752
-3.12966 0.630109 4.47169
-3.14731 0.61985 4.38596
-3.15546 0.617559 4.36605
-3.17518 0.606168 4.27136
-3.18145 0.60264 4.23545
-3.36589 0.510226 3.39009
-3.38253 0.50098 3.30534
-3.38171 0.498624 3.28137
-3.40214 0.49381 3.22559
-3.4157 0.486725 3.15178
-3.44353 0.476118 3.04214
-3.46546 0.464313 2.91946
-3.47257 0.464111 2.90551
-3.48324 0.454802 2.81672
-3.47637 0.45256 2.8007
-3.48659 0.450124 2.77081
-3.50789 0.448562 2.73199
-3.513 0.447343 2.71704
-3.51307 0.44621 2.70806
-3.51535 0.442664 2.67112
-3.51364 0.438101 2.63317
-3.51676 0.436866 2.61721
-3.52584 0.43671 2.60628
-3.52904 0.434328 2.58033
-3.54371 0.426036 2.49256
-3.56498 0.425504 2.45572
-3.57307 0.425346 2.44478
-3.56624 0.422001 2.42178
-3.6021 0.414355 2.30914
-3.60665 0.407278 2.23627
-3.61374 0.407105 2.22433
-3.62381 0.407964 2.21439
-3.62805 0.405509 2.18345
-3.62121 0.402193 2.16245
-2.01524 1.42688 9.62921
-2.03183 1.41474 9.55151
-2.59698 1.00801 6.91542
-2.60437 1.00026 6.86458
-2.6137 0.994615 6.82073
-2.62596 0.989121 6.7869
-2.63726 0.983537 6.74706
-2.64462 0.976847 6.70021
-2.65688 0.972353 6.66636
-2.65124 0.964654 6.61943
-2.65958 0.957994 6.57458
-2.67182 0.953544 6.54374
-2.67622 0.945764 6.49088
-2.6924 0.942435 6.46805
-2.70463 0.938985 6.43719
-2.69897 0.93133 6.39325
-2.71316 0.927971 6.3684
-2.72636 0.924581 6.34155
-2.7278 0.915724 6.28368
-2.73805 0.911243 6.25082
-2.74831 0.906748 6.21696
-2.75364 0.900115 6.17409
-2.7519 0.894611 6.14016
-2.7641 0.891221 6.1133
-2.76845 0.884543 6.06742
-2.77967 0.881122 6.03855
-2.78892 0.876641 6.00568
-2.79227 0.869978 5.9608
-2.80153 0.864481 5.92695
-2.80662 0.863293 5.914
-2.81095 0.85666 5.87113
-2.82019 0.853208 5.84024
-2.82845 0.847711 5.80638
-2.84062 0.845379 5.78351
-2.84593 0.839791 5.74362
-2.85318 0.834294 5.70975
-2.85864 0.82641 5.6499
-2.87081 0.823079 5.62704
-2.87511 0.817505 5.58815
-2.88333 0.814082 5.55926
-2.89255 0.809659 5.53039
-2.89075 0.806273 5.50442
-2.897 0.80079 5.47155
-2.9187 0.789444 5.37987
-2.92494 0.784976 5.34797
-2.93316 0.780567 5.3201
-2.93529 0.778317 5.30315
-2.94776 0.770394 5.24035
-2.96841 0.759152 5.15566
-2.97464 0.754713 5.12577
-2.982 0.748023 5.07891
-2.99019 0.744659 5.05402
-3.00162 0.737824 4.9972
-3.00981 0.73446 4.97231
-3.03055 0.72204 4.87564
-3.03477 0.717599 4.84573
-3.04591 0.716341 4.82783
-3.05212 0.712946 4.80092
-3.04831 0.708573 4.77596
-3.05351 0.705177 4.74904
-3.0607 0.701813 4.72414
-3.0711 0.695036 4.67131
-3.0763 0.691655 4.6454
-3.08348 0.68932 4.62249
-3.09078 0.683734 4.58262
-3.09895 0.681414 4.56071
-3.10216 0.678002 4.53278
-3.10637 0.673591 4.50487
-3.11353 0.671285 4.48396
-3.12601 0.663362 4.42116
-3.13416 0.662072 4.40124
-3.13836 0.658691 4.37532
-3.14353 0.655354 4.3524
-3.14873 0.651988 4.32749
-3.16019 0.645094 4.26667
-3.16733 0.642818 4.24775
-3.17251 0.639481 4.22484
-3.17472 0.636069 4.1969
-3.1778 0.634923 4.18694
-3.18595 0.632633 4.16703
-3.1921 0.631341 4.1471
-3.1943 0.626944 4.12017
-3.19848 0.624606 4.09724
-3.20068 0.621223 4.0713
-3.20981 0.619978 4.05439
-3.20793 0.61674 4.03842
-3.21706 0.615495 4.0215
-3.22024 0.613142 3.99756
-3.23727 0.613081 3.99269
-3.22957 0.607498 3.9537
-3.23373 0.60519 3.93277
-3.23988 0.602899 3.91284
-3.24692 0.60283 3.9079
-3.24932 0.596063 3.85601
-3.26338 0.595939 3.84712
-3.2715 0.594709 3.83119
-3.27468 0.592371 3.80825
-3.27488 0.588986 3.7823
-3.27596 0.586824 3.77134
-3.27319 0.583378 3.74136
-3.28329 0.582178 3.72745
-3.28943 0.579916 3.70953
-3.29359 0.577609 3.68859
-3.3017 0.576393 3.67367
-3.30614 0.569538 3.6158
-3.31624 0.568353 3.60289
-3.3194 0.566044 3.58194
-3.31958 0.563689 3.55798
-3.3287 0.562474 3.54306
-3.32185 0.559173 3.52306
-3.326 0.55688 3.50312
-3.33312 0.555663 3.48819
-3.33726 0.553385 3.46925
-3.34042 0.551077 3.44831
-3.35546 0.551999 3.4424
-3.35078 0.546389 3.40145
-3.36087 0.545218 3.38954
-3.36105 0.542863 3.36557
-3.36816 0.541646 3.35064
-3.37428 0.540414 3.3347
-3.38364 0.534726 3.28785
-3.38597 0.530091 3.24493
-3.39803 0.529966 3.23602
-3.39027 0.525502 3.20503
-3.39936 0.525331 3.1931
-3.39846 0.523138 3.18012
-3.39961 0.520843 3.16016
-3.414 0.516099 3.10933
-3.42011 0.514881 3.09439
-3.42126 0.512586 3.07443
-3.42547 0.51019 3.0475
-3.43158 0.508972 3.03256
-3.43984 0.505475 2.99867
-3.44992 0.505319 2.98774
-3.45115 0.501876 2.9578
-3.45726 0.500659 2.94286
-3.46551 0.498176 2.90996
-3.46566 0.494881 2.89
-3.46284 0.492538 2.86701
-3.47093 0.491366 2.85509
-3.47498 0.491266 2.84812
-3.4801 0.490047 2.83318
-3.47826 0.487721 2.81119
-3.48665 0.481972 2.76033
-3.49176 0.481754 2.74537
-3.49794 0.479418 2.72245
-3.50206 0.478184 2.7065
-3.50717 0.476966 2.69155
-3.51029 0.475731 2.67559
-3.51441 0.474512 2.66064
-3.5105 0.472317 2.64764
-3.51661 0.471114 2.6337
-3.52172 0.469896 2.61876
-3.52385 0.468661 2.60279
-3.52697 0.467426 2.58683
-3.53009 0.466192 2.57087
-3.53427 0.463839 2.54693
-3.53838 0.46262 2.53198
-3.53951 0.46137 2.515
-3.54562 0.460167 2.50107
-3.54774 0.458932 2.4851
-3.55484 0.457744 2.47217
-3.55597 0.456494 2.45519
-3.55404 0.455344 2.44519
-3.56922 0.454 2.42132
-3.56439 0.451671 2.39932
-3.57447 0.45153 2.3894
-3.57864 0.450193 2.36644
-3.58387 0.446738 2.33553
-3.58301 0.445471 2.31754
-3.59321 0.443079 2.29065
-3.6013 0.442907 2.27871
-3.59639 0.44174 2.26769
-3.60659 0.440348 2.24078
-3.60971 0.439128 2.22582
-3.60883 0.436876 2.20885
-3.62488 0.438799 2.20294
-2.60627 1.11631 6.86688
-2.61854 1.11078 6.83105
-2.62394 1.10302 6.7792
-2.63522 1.09746 6.74136
-2.64553 1.09188 6.70151
-2.65485 1.08527 6.65968
-2.65902 1.08194 6.63775
-2.66342 1.07316 6.58491
-2.67369 1.06864 6.54905
-2.68692 1.0642 6.51921
-2.69033 1.05542 6.46636
-2.70452 1.05206 6.44151
-2.7138 1.04651 6.40366
-2.71207 1.04099 6.36872
-2.71643 1.0333 6.32186
-2.73259 1.031 6.30102
-2.73891 1.02538 6.25914
-2.74328 1.01766 6.21028
-2.75548 1.01428 6.18442
-2.75274 1.00878 6.15048
-2.76397 1.00434 6.12062
-2.7742 0.99989 6.08976
-2.77854 0.993228 6.04489
-2.79074 0.989852 6.01902
-2.79999 0.98537 5.98616
-2.80627 0.979828 5.94928
-2.80549 0.974413 5.92135
-2.81669 0.971022 5.89448
-2.83123 0.960997 5.82473
-2.83947 0.956529 5.79285
-2.8428 0.949896 5.74997
-2.85417 0.943179 5.70115
-2.86143 0.937681 5.66728
-2.87063 0.934289 5.6404
-2.87789 0.929791 5.60651
-2.88415 0.925292 5.57262
-2.89138 0.920854 5.54274
-2.89451 0.918605 5.52579
-2.89977 0.913091 5.49091
-2.90306 0.907531 5.45301
-2.91424 0.904199 5.43014
-2.91752 0.898654 5.39324
-2.92671 0.896291 5.36834
-2.93985 0.894034 5.35047
-2.93607 0.889602 5.32151
-2.94231 0.884133 5.28963
-2.95248 0.881815 5.26774
-2.95674 0.877315 5.23383
-2.96296 0.872876 5.20394
-2.97116 0.869497 5.17805
-2.97541 0.865027 5.14614
-2.97951 0.862823 5.1322
-2.98474 0.859383 5.10229
-2.98701 0.853867 5.06738
-3.0021 0.852685 5.05451
-3.00931 0.849291 5.02761
-3.0206 0.844737 4.98976
-3.02285 0.83925 4.95686
-3.02808 0.83581 4.92694
-3.03724 0.832492 4.90506
-3.04344 0.829111 4.87915
-3.05063 0.825747 4.85425
-3.05289 0.821245 4.82033
-3.05301 0.819009 4.80436
-3.06119 0.815674 4.78147
-3.06343 0.811203 4.74955
-3.07259 0.808899 4.72865
-3.0778 0.805503 4.70173
-3.08201 0.801092 4.67383
-3.09214 0.799833 4.65592
-3.09326 0.797612 4.64096
-3.09747 0.7942 4.61304
-3.10069 0.789788 4.58512
-3.10786 0.787453 4.56221
-3.1222 0.781798 4.51739
-3.11638 0.777439 4.49341
-3.1285 0.776226 4.47852
-3.13566 0.773905 4.4566
-3.14085 0.770554 4.43269
-3.1522 0.764882 4.38685
-3.15948 0.760339 4.34997
-3.16466 0.756988 4.32605
-3.17402 0.751285 4.2782
-3.18117 0.749009 4.25929
-3.19163 0.741114 4.19847
-3.19878 0.738823 4.17856
-3.19999 0.735425 4.15162
-3.20714 0.733134 4.1317
