-3.04896 0.31766 4.50977
-3.05217 0.315248 4.48182
-3.06033 0.313958 4.4619
-3.0665 0.312622 4.43896
-3.07366 0.310316 4.41805
-3.08082 0.308996 4.39612
-3.08886 0.308927 4.39118
-3.08415 0.305362 4.35319
-3.09032 0.304026 4.33026
-3.09352 0.301643 4.30431
-3.09376 0.298185 4.27336
-3.10585 0.298001 4.26045
-3.10807 0.295588 4.2325
-3.10522 0.29329 4.21251
-3.11929 0.293152 4.20262
-3.12545 0.291846 4.18168
-3.12469 0.289387 4.15071
-3.13184 0.288096 4.13078
-3.14195 0.286881 4.11587
-3.13227 0.282252 4.07386
-3.14646 0.280893 4.04898
-3.1437 0.278417 4.01699
-3.1548 0.277233 4.00409
-3.16194 0.275972 3.98616
-3.15819 0.273466 3.95217
-3.16533 0.272204 3.93424
-3.16543 0.271012 3.92125
-3.16762 0.268629 3.8953
-3.17278 0.267337 3.87536
-3.17991 0.266075 3.85743
-3.1811 0.263706 3.83247
-3.18428 0.262368 3.80951
-3.18536 0.261206 3.79853
-3.19983 0.256299 3.73671
-3.21626 0.252467 3.67988
-3.22367 0.248658 3.62498
-3.22801 0.24501 3.58106
-3.24252 0.240014 3.51324
-3.26235 0.232415 3.40448
-3.29107 0.226015 3.30878
-3.29521 0.224752 3.29083
-3.30331 0.223565 3.27791
-3.3015 0.222194 3.25291
-3.31671 0.220791 3.22504
-3.31687 0.218465 3.20307
-3.31398 0.217256 3.18907
-3.32407 0.217085 3.17714
-3.32621 0.215806 3.15818
-3.32836 0.214526 3.13921
-3.33547 0.213309 3.12428
-3.33976 0.21075 3.08634
-3.33686 0.209541 3.07234
-3.34298 0.208323 3.0574
-3.34512 0.207043 3.03843
-3.34925 0.205795 3.02148
-3.35536 0.205577 3.00653
-3.3585 0.204313 2.98857
-3.36262 0.203079 2.97261
-3.36667 0.202993 2.96664
-3.36483 0.201666 2.94465
-3.36498 0.19937 2.92468
-3.3691 0.199136 2.90871
-3.37423 0.197889 2.89177
-3.38133 0.196701 2.87884
-3.38545 0.196467 2.86287
-3.38453 0.195304 2.85188
-3.39377 0.193852 2.82096
-3.38994 0.191523 2.79897
-3.3952 0.189009 2.76404
-3.39825 0.188908 2.75706
-3.40337 0.187689 2.74212
-3.40946 0.187501 2.72916
-3.41359 0.186268 2.71321
-3.41671 0.186033 2.69724
-3.41883 0.184783 2.68027
-3.41997 0.183517 2.66229
-3.41905 0.182369 2.6523
-3.42316 0.182149 2.63733
-3.42926 0.180961 2.6244
-3.43451 0.179462 2.59045
-3.43976 0.176992 2.55852
-3.45414 0.174248 2.50767
-3.53285 0.146037 2.01761
-3.53993 0.145879 2.00666
-3.55991 0.139984 1.87788
-3.5681 0.138619 1.85296
-3.58238 0.138082 1.81607
-3.58443 0.13698 1.8091
-3.58166 0.135519 1.7781
-3.58477 0.134314 1.76414
-3.58787 0.134124 1.75116
-3.60103 0.133808 1.72926
-3.59113 0.132608 1.71621
-3.60618 0.13353 1.7103
-3.59733 0.131228 1.69027
-3.60143 0.131038 1.6773
-3.61448 0.130944 1.6704
-3.61359 0.130721 1.65539
-3.61271 0.129484 1.6394
-3.61885 0.129207 1.62045
-3.62095 0.128016 1.60748
-3.62515 0.127634 1.58152
-3.63821 0.127525 1.57362
-3.63533 0.126286 1.55761
-3.63439 0.126167 1.5496
-2.69521 0.523215 6.31631
-2.72104 0.512606 6.20665
-2.72933 0.509049 6.16875
-2.73958 0.506568 6.13586
-2.7378 0.503138 6.1069
-2.75336 0.496054 6.03311
-2.7577 0.491391 5.9882
-2.76595 0.487909 5.95531
-2.77913 0.486578 5.93243
-2.78936 0.483127 5.90155
-2.7962 0.472504 5.79175
-2.80642 0.470082 5.76286
-2.81958 0.467781 5.74199
-2.81896 0.463026 5.69105
-2.82522 0.459527 5.65714
-2.85239 0.445253 5.50253
-2.86554 0.442981 5.48366
-2.87524 0.434627 5.39185
-2.88674 0.427659 5.32603
-2.89593 0.426295 5.30112
-2.92592 0.414378 5.1705
-2.95814 0.399019 5.00995
-2.96266 0.393001 4.94106
-2.98536 0.384641 4.84834
-3.25393 0.26719 3.45691
-3.29962 0.250908 3.23347
-3.31226 0.244659 3.14864
-3.31738 0.243426 3.1327
-3.32787 0.238486 3.06884
-3.33794 0.238346 3.05892
-3.34009 0.237066 3.03995
-3.33826 0.234724 3.01697
-3.34438 0.234507 3.00202
-3.35285 0.22958 2.93914
-3.3601 0.227097 2.90623
-3.36422 0.226863 2.89026
-3.37041 0.224498 2.86534
-3.39008 0.219195 2.77656
-3.40776 0.21289 2.68777
-3.40989 0.21264 2.67079
-3.41613 0.210171 2.63887
-3.44226 0.200969 2.48918
-3.45479 0.195942 2.41934
-3.48914 0.185333 2.24173
-3.63937 0.152168 1.54926
-3.64672 0.150492 1.50333
-2.71706 0.555524 6.20098
-2.73993 0.543824 6.08531
-3.23839 0.303182 3.52427
-3.28396 0.287152 3.31782
-3.28926 0.284563 3.2779
-3.2943 0.284493 3.27294
-3.29646 0.282184 3.25198
-3.29977 0.278579 3.21106
-3.30886 0.278408 3.19913
-3.31622 0.274703 3.15123
-3.31837 0.273424 3.13226
-3.3225 0.272175 3.11531
-3.32265 0.269864 3.09434
-3.33587 0.268445 3.06546
-3.33504 0.266118 3.04348
-3.34734 0.263535 3.00361
-3.3546 0.261037 2.9697
-3.35972 0.260804 2.95373
-3.35988 0.258493 2.93277
-3.36492 0.258423 2.92781
-3.36209 0.256081 2.90482
-3.36422 0.254831 2.88785
-3.37133 0.254628 2.8739
-3.37148 0.252333 2.85394
-3.37461 0.251083 2.83697
-3.37766 0.250982 2.83
-3.38292 0.248468 2.79507
-3.38505 0.247218 2.7781
-3.39314 0.247046 2.76616
-3.39442 0.243499 2.72922
-3.40656 0.243241 2.71131
-3.40472 0.240929 2.69033
-3.40798 0.238414 2.65539
-3.4111 0.238179 2.63941
-3.42039 0.235623 2.60152
-3.43571 0.232998 2.55866
-3.43187 0.230684 2.53767
-3.43804 0.229363 2.51573
-3.4454 0.226658 2.46782
-3.45468 0.224117 2.43092
-3.47237 0.218783 2.34012
-3.47978 0.214989 2.28623
-3.49395 0.214659 2.26333
-3.49216 0.212258 2.23635
-3.50136 0.210865 2.20944
-3.50981 0.206983 2.14955
-3.51684 0.207943 2.14659
-3.52006 0.205502 2.11665
-3.51932 0.202998 2.08267
-3.52342 0.202808 2.0697
-3.52752 0.201619 2.05675
-3.52758 0.201501 2.04875
-3.53999 0.198695 1.99388
-3.54509 0.198507 1.98092
-3.55358 0.194551 1.91603
-3.56763 0.195457 1.90912
-3.56692 0.191894 1.87117
-3.57424 0.190278 1.82924
-3.57237 0.189025 1.81224
-3.57845 0.188866 1.80129
-3.59102 0.184765 1.72643
-3.60108 0.185639 1.7175
-3.60723 0.184362 1.69856
-3.60634 0.18314 1.68357
-3.60546 0.181902 1.66758
-3.61475 0.180346 1.62966
-3.61392 0.179005 1.60667
-3.63107 0.179721 1.58679
-3.63118 0.178514 1.57281
-3.63727 0.178341 1.56085
-3.6284 0.176068 1.54282
-3.62847 0.17595 1.53482
-2.70731 0.612903 6.29407
-2.71441 0.611715 6.28114
-2.71975 0.606068 6.23726
-2.72214 0.600301 6.18535
-2.73632 0.597956 6.16149
-2.73575 0.592127 6.10556
-2.75581 0.592008 6.09672
-2.75741 0.582855 6.01885
-2.7637 0.578297 5.98096
-2.77588 0.575936 5.95609
-2.77923 0.571273 5.91117
-2.78552 0.566715 5.87328
-2.79081 0.562142 5.83439
-2.80023 0.556335 5.77953
-2.80749 0.552837 5.74564
-2.82396 0.546917 5.68284
-2.82826 0.542343 5.64393
-2.83353 0.538814 5.60802
-2.84194 0.533021 5.55416
-2.86134 0.527265 5.50239
-2.86659 0.523766 5.46847
-2.87481 0.521343 5.43957
-2.87729 0.514412 5.37668
-2.8845 0.511003 5.34878
-2.89174 0.50855 5.31787
-2.89895 0.505141 5.28997
-2.91405 0.504959 5.27708
-2.91338 0.499308 5.23316
-2.91453 0.498027 5.21418
-2.93289 0.49333 5.16638
-2.93911 0.489906 5.13748
-2.94534 0.487466 5.10756
-2.95198 0.478213 5.02273
-2.95722 0.474758 4.99182
-2.96638 0.473454 4.9709
-2.97851 0.472197 4.95301
-2.97682 0.467604 4.91306
-2.98598 0.465285 4.89116
-2.98316 0.462942 4.86817
-3.00148 0.459319 4.82536
-2.99386 0.453589 4.77638
-3.01289 0.453543 4.77252
-3.00526 0.447813 4.72354
-3.02245 0.446455 4.69869
-3.01974 0.441876 4.65973
-3.03383 0.441709 4.64784
-3.03805 0.438297 4.61991
-3.0472 0.437008 4.6
-3.05672 0.429994 4.53117
-3.05301 0.425429 4.4932
-3.06413 0.4242 4.4773
-3.0919 0.415711 4.37562
-3.12111 0.400379 4.21705
-3.13507 0.38751 4.09032
-3.14627 0.385118 4.06344
-3.15067 0.380352 4.01154
-3.159 0.376707 3.96765
-3.16724 0.373254 3.93676
-3.16864 0.368471 3.88383
-3.17775 0.367255 3.86891
-3.17796 0.364856 3.84195
-3.19211 0.363555 3.82107
-3.19034 0.360125 3.7921
-3.20577 0.355278 3.73428
-3.20498 0.352877 3.70731
-3.21013 0.351585 3.68737
-3.21853 0.346807 3.63449
-3.22565 0.345575 3.61856
-3.23079 0.344313 3.60062
-3.24188 0.343143 3.58872
-3.23611 0.33968 3.55772
-3.24611 0.340687 3.55778
-3.25045 0.337039 3.51386
-3.24666 0.333622 3.48588
-3.25775 0.333453 3.47396
-3.25495 0.330066 3.44799
-3.26107 0.328833 3.43205
-3.2653 0.326378 3.40111
-3.27341 0.326176 3.38718
-3.27259 0.323821 3.3632
-3.27475 0.321511 3.34225
-3.28385 0.321325 3.32932
-3.28401 0.319 3.30735
-3.2841 0.317837 3.29637
-3.30048 0.314109 3.24654
-3.30064 0.311784 3.22457
-3.30494 0.30821 3.18565
-3.30601 0.308062 3.17566
-3.31114 0.306829 3.15972
-3.31328 0.30555 3.14075
-3.32337 0.304379 3.12884
-3.32253 0.303068 3.10785
-3.33964 0.302858 3.09298
-3.33087 0.299408 3.06296
-3.34294 0.299283 3.05405
-3.33912 0.296925 3.03006
-3.34623 0.295723 3.01612
-3.34538 0.294412 2.99514
-3.35547 0.294256 2.98421
-3.3557 0.290798 2.95326
-3.35982 0.289564 2.93731
-3.36394 0.28833 2.92135
-3.3621 0.287018 2.90036
-3.37815 0.287941 2.89446
-3.38036 0.285528 2.86651
-3.38448 0.284294 2.85056
-3.38661 0.283044 2.83359
-3.3798 0.279669 2.80859
-3.39286 0.28056 2.80067
-3.39103 0.278233 2.77869
-3.39421 0.275866 2.75374
-3.40727 0.276757 2.74583
-3.40146 0.273397 2.72183
-3.40955 0.273225 2.70989
-3.40571 0.270897 2.6879
-3.40792 0.269499 2.66093
-3.41998 0.269389 2.65302
-3.42011 0.268123 2.63504
-3.42622 0.26692 2.6211
-3.42139 0.264591 2.59909
-3.43359 0.2632 2.5722
-3.44359 0.264208 2.57226
-3.43479 0.261816 2.54623
-3.44287 0.261659 2.53529
-3.44101 0.259377 2.51631
-3.45507 0.260283 2.5094
-3.45123 0.25797 2.4884
-3.45938 0.25668 2.46848
-3.46263 0.254194 2.43554
-3.46772 0.254005 2.42258
-3.47409 0.250299 2.37467
-3.47441 0.246678 2.33272
-3.48747 0.247569 2.32481
-3.50096 0.243601 2.25896
-3.5042 0.241145 2.22801
-3.51228 0.240988 2.21708
-3.51048 0.238602 2.19109
-3.51159 0.237381 2.17612
-3.51967 0.237224 2.16518
-3.52689 0.235814 2.13725
-3.52801 0.234578 2.12128
-3.5341 0.234405 2.10932
-3.53626 0.233081 2.08736
-3.5344 0.231813 2.06936
-3.54558 0.230466 2.04546
-3.54389 0.227858 2.00448
-3.54699 0.226668 1.99152
-3.5532 0.225258 1.96358
-3.5573 0.225068 1.95061
-3.56754 0.223602 1.91871
-3.57076 0.222175 1.88975
-3.57287 0.220969 1.87578
-3.58094 0.220827 1.86584
-3.58305 0.219607 1.85088
-3.58222 0.21828 1.82889
-3.58533 0.218075 1.81491
-3.58942 0.216886 1.80196
-3.59252 0.216696 1.78898
-3.59773 0.2153 1.76204
-3.59784 0.214078 1.74705
-3.60387 0.215023 1.74308
-3.60608 0.21261 1.71513
-3.61117 0.212436 1.70317
-3.61029 0.211199 1.68718
-3.61239 0.211008 1.6742
-3.61748 0.209834 1.66225
-3.61156 0.208681 1.65222
-3.62063 0.20954 1.64228
-3.62982 0.208177 1.61736
-3.63192 0.207986 1.60438
-3.62505 0.205729 1.58736
-3.63618 0.206485 1.57043
-3.6313 0.204245 1.55443
-3.62842 0.203006 1.53842
-3.63749 0.203864 1.52847
-2.69201 0.66042 6.32926
-2.71254 0.652413 6.26052
-2.72082 0.648857 6.22263
-2.72105 0.644413 6.19269
-2.72933 0.640887 6.1568
-2.73467 0.635225 6.11192
-2.74294 0.631698 6.07603
-2.75219 0.628217 6.04315
-2.75752 0.622584 6.00026
-2.76578 0.619087 5.96637
-2.77719 0.613281 5.91154
-2.78348 0.608724 5.87365
-2.82626 0.582292 5.64033
-2.85094 0.572978 5.55064
-2.89599 0.543016 5.28138
-2.90421 0.540593 5.25248
-2.91765 0.533744 5.19467
-2.94073 0.51866 5.05305
-2.96726 0.511643 4.98335
-2.97193 0.50233 4.89451
-2.98433 0.496554 4.84168
-3.00068 0.491886 4.79586
-3.00109 0.486087 4.74194
-3.0142 0.484874 4.72706
-3.03402 0.474305 4.62035
-3.02921 0.470917 4.59436
-3.0443 0.470765 4.58348
-3.04356 0.466247 4.54853
-3.04578 0.462819 4.5196
-3.06111 0.459194 4.47676
-3.05939 0.454645 4.43981
-3.06445 0.454531 4.43185
-3.06964 0.452164 4.40692
-3.0768 0.449859 4.386
-3.08297 0.447523 4.36308
-3.08913 0.446217 4.34214
-3.0963 0.443896 4.32023
-3.08851 0.440476 4.29222
-3.09269 0.438124 4.26828
-3.09984 0.435833 4.24836
-3.11218 0.432191 4.20451
-3.11437 0.429808 4.17855
-3.12153 0.427517 4.15864
-3.11966 0.42525 4.14066
-3.12978 0.425035 4.12573
-3.13098 0.421636 4.09879
-3.13517 0.419269 4.07385
-3.13737 0.416886 4.0479
-3.15044 0.416747 4.038
-3.14879 0.41108 3.99306
-3.15494 0.409789 3.97313
-3.16504 0.408589 3.95922
-3.17119 0.407297 3.93928
-3.16943 0.403838 3.90832
-3.17161 0.401484 3.88436
-3.17567 0.400368 3.87641
-3.17983 0.399061 3.85546
-3.184 0.396723 3.83252
-3.18717 0.3944 3.81058
-3.19232 0.392108 3.79065
-3.20242 0.391923 3.77772
-3.2046 0.389569 3.75377
-3.20372 0.387347 3.73879
-3.20391 0.384977 3.71383
-3.20906 0.383684 3.69388
-3.22113 0.383545 3.68397
-3.21736 0.380099 3.65399
-3.22251 0.377806 3.63406
-3.23062 0.377605 3.62013
-3.22874 0.375367 3.60414
-3.23091 0.373028 3.58119
-3.24299 0.372889 3.57128
-3.23822 0.369441 3.54129
-3.24335 0.368179 3.52335
-3.25147 0.366963 3.50842
-3.25066 0.364592 3.48345
-3.25075 0.3634 3.47047
-3.26381 0.363291 3.46257
-3.26201 0.360905 3.43658
-3.26831 0.357317 3.39668
-3.27246 0.355039 3.37774
-3.2756 0.35376 3.35878
-3.27866 0.352644 3.35082
-3.2838 0.351381 3.33287
-3.28794 0.350118 3.31492
-3.29406 0.348886 3.29898
-3.29125 0.346499 3.27299
-3.29441 0.344205 3.25305
-3.29449 0.343042 3.24207
-3.29961 0.341809 3.22612
-3.30176 0.340515 3.20615
-3.31482 0.340406 3.19825
-3.31499 0.33808 3.17628
-3.32011 0.336847 3.16034
-3.32425 0.335584 3.14239
-3.31738 0.333313 3.12437
-3.31953 0.332033 3.1054
-3.32762 0.330846 3.09248
-3.33489 0.328334 3.05756
-3.33703 0.327054 3.03859
-3.33918 0.324774 3.01964
-3.34025 0.323627 3.00967
-3.34735 0.32344 2.99672
-3.35889 0.317397 2.92589
-3.36003 0.316117 2.90691
-3.3753 0.313595 2.87106
-3.37674 0.308738 2.81313
-3.38818 0.303903 2.75628
-3.40123 0.304794 2.74837
-3.40848 0.302325 2.71645
-3.40998 0.296349 2.65055
-3.42317 0.294989 2.62566
-3.41933 0.292661 2.60366
-3.43188 0.287604 2.53182
-3.43897 0.287432 2.51988
-3.4391 0.285165 2.50191
-3.45747 0.282468 2.45408
-3.45363 0.281154 2.43307
-3.45972 0.279981 2.42113
-3.45885 0.278714 2.40314
-3.47965 0.27116 2.29739
-3.48574 0.270987 2.28544
-3.48898 0.268531 2.2545
-3.49328 0.265942 2.21456
-3.50161 0.263311 2.17166
-3.5077 0.263138 2.15971
-3.51192 0.260697 2.12977
-3.53237 0.257838 2.07096
-3.5336 0.255381 2.04
-3.53689 0.25282 2.00206
-3.54521 0.250205 1.96015
-3.56189 0.244885 1.87034
-3.56699 0.244696 1.85738
-3.56505 0.243576 1.84938
-3.57833 0.242023 1.8115
-3.57945 0.241802 1.79651
-3.58482 0.238081 1.7476
-3.59511 0.236511 1.7087
-3.59932 0.235114 1.68174
-3.61254 0.234679 1.65185
-3.61984 0.233107 1.61292
-3.63018 0.230434 1.56703
-3.63228 0.230243 1.55405
-3.6294 0.228004 1.53806
-3.63255 0.22771 1.51808
-3.63874 0.226345 1.49315
-2.70168 0.707029 6.36964
-2.70703 0.701337 6.32276
-2.70725 0.697923 6.29481
-2.71455 0.693336 6.25493
-2.72283 0.688795 6.21805
-2.73308 0.685314 6.18518
-2.75061 0.677291 6.11542
-2.7589 0.672735 6.07754
-2.75811 0.66932 6.04958
-2.76637 0.664823 6.01571
-2.77168 0.66022 5.97481
-2.78389 0.65683 5.94795
-2.79018 0.652272 5.91006
-2.79548 0.647684 5.87016
-2.79997 0.639725 5.8053
-2.80921 0.636273 5.77442
-2.81941 0.633896 5.74853
-2.82901 0.624734 5.66972
-2.84234 0.619093 5.6259
-2.84367 0.614457 5.58298
-2.85189 0.611019 5.55308
-2.8611 0.607627 5.5262
-2.86736 0.604128 5.49229
-2.87902 0.593834 5.40452
-2.89643 0.588048 5.35073
-2.89478 0.582366 5.3048
-2.91612 0.577716 5.26002
-2.92334 0.575307 5.23211
-2.91659 0.570814 5.19912
-2.92806 0.563904 5.1373
-2.95361 0.555843 5.0646
-2.95603 0.549031 5.00971
-2.9642 0.547696 4.98679
-2.97239 0.544332 4.9619
-2.97662 0.540892 4.93198
-2.98381 0.538527 4.90706
-2.99523 0.532721 4.85223
-2.99438 0.530425 4.83225
-3.00453 0.528136 4.81236
-3.01099 0.521238 4.7515
-3.0245 0.514257 4.6847
-3.04306 0.507175 4.61093
-3.05962 0.499092 4.53717
-3.34992 0.356238 3.05026
-3.36467 0.347798 2.95248
-3.5333 0.28294 2.07759
-3.6335 0.272765 1.52142
-3.63959 0.272592 1.50947
-2.81819 0.717212 5.76929
-2.9295 0.647889 5.20307
-2.93999 0.639949 5.13926
-2.96499 0.624014 5.00767
-2.97446 0.616104 4.94585
-2.99011 0.605858 4.86111
-2.99419 0.604698 4.85015
-3.00265 0.597816 4.79031
-3.01503 0.592071 4.73948
-3.0284 0.58637 4.69166
-3.03076 0.580661 4.64375
-3.04413 0.574961 4.59593
-3.05229 0.572656 4.57503
-3.06081 0.564641 4.5062
-3.07317 0.55994 4.45836
-3.07761 0.5521 4.4015
-3.10142 0.540534 4.29483
-3.10385 0.533692 4.23795
-3.10716 0.529103 4.19803
-3.12025 0.528935 4.18613
-3.13376 0.520938 4.11834
-3.13894 0.518602 4.09541
-3.1441 0.516295 4.07448
-3.14421 0.515073 4.0595
-3.15235 0.512812 4.04159
-3.1587 0.508121 3.9947
-3.16782 0.506891 3.97879
-3.17199 0.504569 3.95685
-3.17319 0.501185 3.93091
-3.17824 0.501085 3.92394
-3.17547 0.496639 3.89399
-3.18756 0.49647 3.88208
-3.19073 0.494132 3.85913
-3.19608 0.488456 3.81325
-3.20024 0.486148 3.79231
-3.19243 0.482787 3.7683
-3.20846 0.483725 3.76341
-3.21262 0.481417 3.74247
-3.21183 0.478017 3.71551
-3.22013 0.474431 3.67562
-3.22816 0.474377 3.67168
-3.22735 0.471007 3.64672
-3.23646 0.469792 3.63181
-3.23368 0.466361 3.60283
-3.24495 0.463851 3.56795
-3.25117 0.460426 3.53904
-3.25749 0.455809 3.49715
-3.26775 0.453299 3.46226
-3.27289 0.451036 3.44433
-3.27397 0.449874 3.43336
-3.29583 0.439218 3.32066
-3.30931 0.43328 3.25684
-3.44889 0.368474 2.52175
-3.47388 0.357568 2.39209
-3.49977 0.349841 2.27438
-3.51133 0.343754 2.20055
-3.51848 0.342463 2.18062
-3.63605 0.305593 1.57696
-2.69584 0.838536 6.33565
-2.71635 0.829545 6.26793
-2.7276 0.825065 6.23507
-2.73196 0.818373 6.1882
-2.73511 0.816079 6.16825
-2.73849 0.809357 6.11937
-2.75071 0.805936 6.09051
-2.76528 0.795823 6.01476
-2.7828 0.786829 5.94701
-2.783 0.782445 5.92108
-2.78536 0.775751 5.87419
-2.80049 0.774496 5.85632
-2.80382 0.768862 5.81342
-2.81208 0.764365 5.77955
-2.8223 0.760943 5.75067
-2.8205 0.756543 5.72372
-2.8189 0.748772 5.67181
-2.83403 0.747517 5.65394
-2.84326 0.744094 5.62506
-2.8446 0.73743 5.58016
-2.86007 0.729524 5.51839
-2.86418 0.728305 5.50343
-2.87043 0.723821 5.47054
-2.87865 0.720413 5.44265
-2.88392 0.715884 5.40675
-2.89837 0.708022 5.34797
-2.9056 0.704583 5.31807
-2.90772 0.702333 5.30112
-2.91101 0.696788 5.26422
-2.91526 0.692288 5.23031
-2.92445 0.689925 5.20541
-2.93364 0.686562 5.18053
-2.93805 0.679766 5.12666
-2.94526 0.676372 5.09976
-2.94951 0.671886 5.06685
-2.96392 0.666098 5.01304
-2.96717 0.661612 4.98012
-2.97254 0.654891 4.93126
-2.9827 0.652602 4.91137
-2.98623 0.643569 4.84152
-3.00553 0.639991 4.80171
-3.02228 0.627539 4.70301
-3.0317 0.620732 4.64817
-3.05855 0.607094 4.53656
-3.07745 0.593347 4.41789
-3.09918 0.581957 4.32321
-3.10239 0.578545 4.29528
-3.1025 0.576324 4.28031
-3.11262 0.575094 4.2644
-3.15782 0.541836 3.97519
-3.2522 0.494319 3.53155
-2.7068 0.87157 6.33724
-2.72164 0.855939 6.22657
-2.73189 0.851473 6.19471
-2.75475 0.835818 6.0821
-2.77149 0.82238 5.98441
-2.78702 0.813356 5.91465
-2.81824 0.791011 5.75519
-2.8298 0.780925 5.68142
-2.84 0.777548 5.65554
-2.85252 0.768551 5.58776
-2.85894 0.760727 5.53192
-2.90348 0.734771 5.33061
-2.94821 0.70543 5.10335
-2.95768 0.696519 5.04154
-2.98366 0.680644 4.91396
-3.03672 0.646659 4.64282
-3.41146 0.43418 2.70552
-3.48726 0.403759 2.33649
-3.49573 0.398862 2.27562
-3.52054 0.390296 2.16892
-3.5393 0.382815 2.06816
-3.54575 0.377932 2.00827
-3.63085 0.352924 1.59923
-2.70711 0.915899 6.29158
-2.71834 0.912463 6.26171
-2.72707 0.89705 6.16599
-2.73536 0.892493 6.12812
-2.73654 0.888139 6.10419
-2.74385 0.882553 6.06432
-2.75113 0.877011 6.02745
-2.7594 0.872484 5.99158
-2.76964 0.868033 5.96072
-2.77592 0.86249 5.92384
-2.78006 0.860212 5.9049
-2.78339 0.853578 5.86202
-2.78871 0.847961 5.82014
-2.79695 0.843494 5.78826
-2.80914 0.840132 5.7634
-2.81247 0.833499 5.72052
-2.82169 0.830076 5.69163
-2.83012 0.822254 5.6358
-2.83638 0.816756 5.60193
-2.84067 0.811182 5.56304
-2.85086 0.808819 5.53815
-2.85811 0.804351 5.50626
-2.86239 0.798792 5.46837
-2.86256 0.795467 5.44642
-2.86979 0.791028 5.41654
-2.87605 0.78653 5.38264
-2.88721 0.784227 5.36176
-2.89148 0.778698 5.32587
-2.90067 0.775335 5.30098
-2.90215 0.766404 5.23812
-2.91036 0.76301 5.21123
-2.91658 0.758571 5.18134
-2.92378 0.755191 5.15544
-2.93593 0.752904 5.13556
-2.94116 0.749464 5.10565
-2.94557 0.741669 5.05179
-2.94883 0.737168 5.01787
-2.95504 0.732758 4.98998
-2.96618 0.7315 4.97208
-2.97141 0.72706 4.94218
-2.97763 0.723635 4.91328
-2.9748 0.719293 4.89032
-2.98002 0.715883 4.8624
-2.99017 0.713594 4.84251
-2.9944 0.710153 4.81259
-3.00159 0.706789 4.78769
-3.0068 0.703378 4.75977
-3.01003 0.698937 4.72986
-3.01313 0.696747 4.71691
-3.01833 0.693351 4.69
-3.02354 0.68994 4.66209
-3.03072 0.687605 4.63917
-3.03395 0.683164 4.60926
-3.04507 0.681935 4.59336
-3.04927 0.678539 4.56644
-3.04545 0.674196 4.54347
-3.05459 0.672921 4.52455
-3.0588 0.669525 4.49763
-3.064 0.666144 4.47172
-3.07215 0.663854 4.45181
-3.07832 0.660518 4.4289
-3.07351 0.657145 4.40391
-3.08166 0.65487 4.385
-3.08585 0.651503 4.36008
-3.09103 0.648151 4.33617
-3.09622 0.645785 4.31124
-3.10337 0.643494 4.29132
-3.10955 0.640159 4.26842
-3.10075 0.635753 4.24141
-3.1168 0.636661 4.23452
-3.12221 0.628866 4.18067
-3.13563 0.623062 4.12585
-3.13487 0.618603 4.0949
-3.14399 0.617372 4.07899
-3.15212 0.615112 4.06108
-3.1563 0.612775 4.03814
-3.1585 0.609392 4.0122
-3.17607 0.600295 3.93746
-3.1844 0.59565 3.89359
-3.196 0.585489 3.81481
-3.20948 0.578567 3.75201
-3.22403 0.569512 3.68024
-3.23134 0.564896 3.63836
-3.24281 0.558002 3.57754
-3.27499 0.540717 3.42202
-3.28013 0.539454 3.40407
-3.31557 0.518668 3.21462
-3.34672 0.503442 3.06306
-3.3543 0.494323 2.98724
-3.37484 0.488272 2.91548
-3.37798 0.486008 2.89753
-3.38729 0.482408 2.85665
-3.39355 0.478909 2.82274
-3.40087 0.475278 2.77985
-3.51845 0.422425 2.17743
-2.7119 1.03117 6.30891
-2.71626 1.02346 6.26105
-2.7216 1.01682 6.21719
-2.73284 1.01235 6.18533
-2.7421 1.00786 6.15146
-2.7423 1.00347 6.12553
-2.75254 0.999005 6.09367
-2.7559 0.992313 6.04678
-2.76121 0.98571 6.00592
-2.77439 0.982379 5.98306
-2.77871 0.975746 5.94019
-2.77303 0.969136 5.89924
-2.7852 0.966804 5.87636
-2.7905 0.960231 5.83749
-2.80072 0.95681 5.80862
-2.80898 0.951313 5.77475
-2.81229 0.945709 5.73386
-2.8225 0.941302 5.70599
-2.82268 0.937962 5.68304
-2.82403 0.931282 5.63714
-2.84113 0.930102 5.62429
-2.84837 0.925634 5.59241
-2.85561 0.921166 5.56052
-2.86186 0.916697 5.52863
-2.86811 0.911213 5.49575
-2.8663 0.907828 5.46979
-2.87059 0.902283 5.4329
-2.88175 0.898966 5.41103
-2.88701 0.894467 5.37713
-2.89819 0.891135 5.35426
-2.90441 0.887695 5.32435
-2.90064 0.882264 5.2954
-2.90686 0.878824 5.26549
-2.91605 0.875461 5.24061
-2.92426 0.872068 5.21372
-2.92555 0.865506 5.17582
-2.98247 0.830805 4.92373
-3.58707 0.49221 1.82187
-2.69585 1.10115 6.30776
-2.70219 1.09351 6.26391
-2.70536 1.09018 6.24198
-2.73022 1.07253 6.12942
-2.74481 1.06039 6.05169
-2.75407 1.05489 6.01784
-2.78967 1.02181 5.80857
-2.89062 0.943205 5.29142
-2.89686 0.938736 5.25953
-2.93537 0.909835 5.06222
-2.94158 0.905426 5.03433
-2.98915 0.876413 4.82909
-3.00394 0.8609 4.72642
-3.02054 0.849743 4.6477
-3.02165 0.847522 4.63273
-3.02586 0.843111 4.60483
-3.0449 0.844051 4.59996
-3.04614 0.839593 4.56903
-3.05233 0.836227 4.54412
-3.05752 0.832847 4.51821
-3.06087 0.826183 4.47332
-3.06704 0.822848 4.45042
-3.07026 0.818436 4.4225
-3.08038 0.817206 4.40659
-3.08457 0.813825 4.38067
-3.08691 0.807175 4.33678
-3.09605 0.804916 4.31888
-3.10025 0.801519 4.29196
-3.10739 0.799243 4.27305
-3.10763 0.794785 4.24211
-3.11996 0.789158 4.19928
-3.12008 0.786921 4.18331
-3.12425 0.783584 4.16039
-3.1314 0.781308 4.14147
-3.1346 0.777926 4.11554
-3.13998 0.770175 4.06469
-3.14504 0.77006 4.05673
-3.14724 0.765677 4.03081
-3.15657 0.760048 3.98796
-3.16987 0.755466 3.94812
-3.17414 0.750951 3.91321
-3.1805 0.74426 3.86635
-3.19575 0.740768 3.83252
-3.20616 0.733992 3.77969
-3.20834 0.730638 3.75575
-3.23021 0.716953 3.6411
-3.23852 0.711367 3.60124
-3.27818 0.685155 3.3829
-3.29673 0.677089 3.31015
-3.29897 0.672632 3.27923
-3.30608 0.671415 3.2643
-3.31022 0.669151 3.24636
-3.31237 0.666857 3.22641
-3.31552 0.664578 3.20746
-3.32379 0.661052 3.17157
-3.32486 0.659919 3.16259
-3.33114 0.655376 3.1257
-3.33229 0.653081 3.10574
-3.35302 0.642676 3.01004
-3.35432 0.637085 2.97013
-3.36364 0.63247 2.92826
-3.36379 0.630174 2.90829
-3.37006 0.626661 2.87339
-3.38014 0.626505 2.86246
-3.37639 0.621014 2.82951
-3.3886 0.619609 2.80162
-3.39073 0.617359 2.78467
-3.40181 0.618219 2.77474
-3.39798 0.614891 2.75275
-3.40309 0.613672 2.73781
-3.39919 0.611477 2.72481
-3.40331 0.609243 2.70887
-3.40942 0.609041 2.69492
-3.41751 0.607869 2.683
-3.41963 0.606619 2.66603
-3.42276 0.604384 2.65008
-3.42686 0.60318 2.63613
-3.42395 0.602 2.62412
-3.42608 0.59975 2.60717
-3.4302 0.598531 2.59222
-3.43629 0.597344 2.57928
-3.43644 0.595062 2.56031
-3.44254 0.594874 2.54736
-3.44665 0.593655 2.5324
-3.44672 0.592522 2.52342
-3.44785 0.590272 2.50646
-3.45693 0.590115 2.49553
-3.45309 0.586802 2.47455
-3.4572 0.585598 2.46059
-3.46244 0.583128 2.42867
-3.46449 0.582026 2.4217
-3.46476 0.578508 2.38675
-3.47483 0.578367 2.37682
-3.47198 0.576084 2.35783
-3.48404 0.57596 2.34892
-3.47516 0.573731 2.33389
-3.48238 0.571307 2.30497
-3.49655 0.569977 2.2821
-3.49668 0.568726 2.26511
-3.50178 0.567537 2.25217
-3.50085 0.566403 2.24318
-3.52249 0.560161 2.15842
-3.51957 0.558011 2.14843
-3.51969 0.556774 2.13245
-3.52678 0.556601 2.1205
-3.52292 0.553332 2.10252
-3.5351 0.552971 2.07761
-3.53721 0.551765 2.06364
-3.53727 0.550647 2.05566
-3.53541 0.548379 2.03768
-3.54747 0.54927 2.02975
-3.5446 0.547016 2.01276
-3.54373 0.544764 1.99579
-3.54782 0.544574 1.98282
-3.55789 0.544448 1.97389
-3.54999 0.54225 1.96087
-3.55509 0.542062 1.9479
-3.55919 0.540872 1.93495
-3.56627 0.540714 1.92401
-3.56638 0.539492 1.90902
-3.56451 0.53724 1.89204
-3.5716 0.537082 1.88109
-3.57166 0.535964 1.87311
-3.57475 0.535773 1.86013
-3.57686 0.534568 1.84617
-3.57698 0.532331 1.8302
-3.58207 0.532157 1.81824
-3.58815 0.531999 1.80728
-3.58628 0.529746 1.7903
-3.59131 0.53069 1.78632
-3.59641 0.529501 1.77338
-3.59553 0.528279 1.75839
-3.59862 0.527089 1.74543
-3.59874 0.525867 1.73044
-3.59984 0.52466 1.71647
-3.60793 0.524503 1.70553
-3.60399 0.523367 1.69652
-3.6061 0.522162 1.68255
-3.61528 0.521813 1.65862
-3.61938 0.520623 1.64566
-3.62447 0.520449 1.6337
-3.6196 0.518194 1.6167
-3.62464 0.518124 1.61174
-3.63072 0.517966 1.60078
-3.63282 0.517775 1.5878
-3.62822 0.511987 1.53484
-3.6363 0.511845 1.52491
-2.69999 1.15981 6.28392
-2.70533 1.15215 6.23906
-2.71755 1.14774 6.21122
-2.72682 1.14222 6.17536
-2.73116 1.13455 6.1305
-2.74339 1.13013 6.10166
-2.73965 1.12361 6.06672
-2.74792 1.1181 6.03186
-2.75717 1.11362 5.99899
-2.77271 1.10158 5.92828
-2.77899 1.09604 5.8914
-2.77919 1.09065 5.86548
-2.78548 1.0851 5.8276
-2.79275 1.07958 5.79274
-2.80099 1.07412 5.76087
-2.80923 1.06966 5.73
-2.81255 1.06204 5.68813
-2.82374 1.05868 5.66326
-2.82392 1.05433 5.63932
-2.8292 1.0488 5.60344
-2.84039 1.04544 5.57857
-2.84664 1.03995 5.54569
-2.85782 1.03661 5.52182
-2.86506 1.03214 5.48994
-2.86933 1.02562 5.45506
-2.86557 1.02016 5.42411
-2.87673 1.01786 5.40323
-2.88593 1.01347 5.37636
-2.89512 1.0101 5.35147
-2.90037 1.00462 5.31859
-2.90465 0.999091 5.2827
-2.91482 0.995758 5.25982
-2.913 0.991417 5.23687
-2.91726 0.985917 5.20298
-2.92349 0.981477 5.17309
-2.92774 0.975992 5.1402
-2.93692 0.972644 5.11631
-2.94609 0.97031 5.09341
-2.95132 0.96487 5.06353
-2.95048 0.961559 5.04257
-2.95867 0.958195 5.01767
-2.96489 0.953786 4.98978
-2.97208 0.950421 4.96488
-2.9773 0.945981 4.93499
-2.98055 0.94051 4.90309
-2.97871 0.937198 4.88212
-2.98888 0.93388 4.86024
-2.99409 0.92947 4.83234
-2.99929 0.926089 4.80643
-3.00549 0.921694 4.77954
-3.01788 0.914948 4.72872
-3.01999 0.912728 4.71377
-3.02125 0.907241 4.68085
-3.02941 0.903936 4.65996
-3.03263 0.899509 4.63105
-3.04079 0.89719 4.60914
-3.04797 0.893855 4.58624
-3.04513 0.889542 4.56528
-3.0513 0.887206 4.54236
-3.05552 0.882795 4.51445
-3.06268 0.87949 4.49355
-3.07107 0.871727 4.44172
-3.07725 0.868391 4.41882
-3.07738 0.866139 4.40185
-3.08454 0.863834 4.38093
-3.08773 0.859452 4.35502
-3.09489 0.857146 4.3341
-3.10525 0.850458 4.28727
-3.10659 0.842809 4.24339
-3.11472 0.841548 4.22547
-3.11426 0.869449 4.15104
-3.14021 0.851618 4.02648
-3.60852 0.583253 1.62065
-3.62207 0.578197 1.54882
-2.7087 1.28222 6.31017
-2.70916 1.27034 6.25135
-2.71743 1.26382 6.2155
-2.72573 1.25725 6.17665
-2.72494 1.25183 6.14872
-2.73519 1.24637 6.11688
-2.73855 1.23666 6.06904
-2.74683 1.23113 6.03318
-2.75804 1.22673 6.00532
-2.76925 1.22233 5.97847
-2.76965 1.21155 5.92563
-2.78007 1.20275 5.87083
-2.79324 1.19941 5.84797
-2.79792 1.1821 5.75925
-2.816 1.18197 5.74939
-2.8205 1.17001 5.68459
-2.82381 1.1624 5.64372
-2.84949 1.14811 5.55512
-2.85179 1.14052 5.51524
-2.86414 1.13285 5.46944
-2.86643 1.12629 5.43155
-2.87268 1.12082 5.39967
-2.88385 1.11748 5.3768
-2.88813 1.11096 5.34093
-2.89634 1.10655 5.31305
-2.90242 1.1054 5.30311
-2.90995 1.09237 5.23335
-2.91716 1.08796 5.20547
-2.92142 1.08246 5.17158
-2.92862 1.07809 5.14569
-2.9378 1.07475 5.12281
-2.93007 1.06721 5.08686
-2.93826 1.06385 5.06196
-2.9504 1.06159 5.04409
-2.95463 1.05614 5.01319
-2.96283 1.05177 4.98832
-2.97198 1.04947 4.96742
-2.96128 1.04088 4.92846
-2.96946 1.03755 4.90557
-2.97862 1.03425 4.88468
-2.97891 1.02768 4.84678
-2.98808 1.02437 4.82489
-2.99623 1.02206 4.80398
-3.00145 1.01665 4.7761
-3.00159 1.01338 4.75815
-3.01371 1.01216 4.74225
-3.01003 1.00453 4.70033
-3.01424 0.999122 4.67244
-3.02142 0.995787 4.64954
-3.02885 0.986949 4.59272
-3.03687 0.986911 4.58978
-3.03812 0.981423 4.55687
-3.04331 0.977072 4.53297
-3.05048 0.973737 4.51007
-3.06099 0.963768 4.44428
-3.06642 0.953929 4.38746
-3.07852 0.952746 4.37457
-3.07776 0.947272 4.34264
-3.09481 0.948181 4.33575
-3.09307 0.941677 4.30183
-3.09022 0.938393 4.28286
-3.09441 0.934027 4.25795
-3.10749 0.933873 4.24705
-3.10871 0.928445 4.21814
-3.11685 0.926185 4.20023
-3.11609 0.920726 4.1693
-3.12225 0.91842 4.14838
-3.13269 0.909569 4.09058
-3.13786 0.906233 4.06766
-3.13928 0.896435 4.01381
-3.14235 0.895289 4.00385
-3.1731 0.881862 3.90627
-3.17658 0.871933 3.84343
-3.1847 0.870702 3.82751
-3.18709 0.861949 3.77665
-3.19322 0.859687 3.75873
-3.19837 0.85741 3.7398
-3.20163 0.851894 3.7049
-3.21192 0.84634 3.66705
-3.22239 0.83743 3.60525
-3.22745 0.83733 3.59829
-3.24187 0.830512 3.5425
-3.24404 0.827188 3.52056
-3.24323 0.822818 3.49561
-3.25134 0.821602 3.48069
-3.26648 0.820346 3.46282
-3.26386 0.811605 3.41292
-3.26998 0.810373 3.39698
-3.28007 0.809202 3.38508
-3.26827 0.803809 3.35906
-3.28034 0.803685 3.35016
-3.28845 0.802484 3.33623
-3.28366 0.798066 3.30826
-3.29375 0.796896 3.29635
-3.304 0.793415 3.26347
-3.3031 0.791222 3.2505
-3.30624 0.788943 3.23155
-3.30442 0.784601 3.2086
-3.30855 0.782353 3.19166
-3.31468 0.781106 3.17472
-3.31384 0.777795 3.15376
-3.32384 0.778787 3.15282
-3.32798 0.776524 3.13489
-3.32416 0.772166 3.11092
-3.33525 0.772011 3.1
-3.33739 0.769732 3.08105
-3.33457 0.765374 3.05709
-3.34473 0.764071 3.03618
-3.34688 0.760792 3.01725
-3.35398 0.760604 3.0043
-3.3591 0.758371 2.98837
-3.36223 0.756107 2.97042
-3.37071 0.748196 2.9086
-3.37582 0.746978 2.89365
-3.38621 0.741231 2.84281
-3.38742 0.736817 2.81488
-3.39153 0.735598 2.79993
-3.38984 0.729005 2.76
-3.40389 0.729912 2.7531
-3.4122 0.725311 2.71222
-3.42156 0.720608 2.66435
-3.42085 0.715045 2.62643
-3.43511 0.711552 2.59258
-3.44991 0.700009 2.48785
-3.45614 0.696555 2.45694
-3.4684 0.694061 2.42307
-3.47152 0.691826 2.40712
-3.48185 0.688197 2.36425
-3.48118 0.682546 2.32032
-3.49139 0.680154 2.29343
-3.50314 0.669683 2.19366
-3.5152 0.670588 2.18673
-3.52142 0.667163 2.15783
-3.51774 0.661524 2.11488
-3.52893 0.660162 2.08998
-3.53403 0.659973 2.07702
-3.53912 0.6588 2.06507
-3.5362 0.657649 2.05507
-3.53434 0.654382 2.0371
-3.5547 0.652671 1.98827
-3.54886 0.648371 1.96829
-3.55886 0.650364 1.96733
-3.55401 0.647079 1.94834
-3.5591 0.646905 1.93638
-3.5704 0.644321 1.8965
-3.57555 0.643029 1.87655
-3.57567 0.640807 1.86159
-3.57578 0.638585 1.84662
-3.58087 0.638411 1.83466
-3.58497 0.638222 1.82169
-3.58907 0.637032 1.80874
-3.59217 0.635842 1.79577
-3.58526 0.63366 1.78375
-3.59432 0.634533 1.77481
-3.59754 0.631121 1.74688
-3.60064 0.630916 1.7329
-3.60679 0.629639 1.71397
-3.60701 0.62621 1.68501
-3.60612 0.624987 1.67002
-3.62029 0.624672 1.64813
-3.61542 0.622417 1.63113
-3.62244 0.623378 1.62816
-3.62454 0.622172 1.6142
-3.62863 0.620997 1.60224
-3.63704 0.617204 1.54835
-3.6341 0.616084 1.54035
-3.62723 0.612827 1.52334
-2.71043 1.34471 6.20825
-2.74257 1.31652 6.05889
-2.75695 1.30781 6.01012
-2.77978 1.28821 5.90156
-2.78942 1.27197 5.81787
-2.81632 1.25025 5.70037
-2.82493 1.23507 5.62065
-2.83414 1.23066 5.59278
-2.87052 1.19803 5.41352
-2.89565 1.17084 5.26509
-2.90386 1.16645 5.23821
-2.92043 1.15335 5.16352
-2.92173 1.14578 5.12464
-2.93812 1.13803 5.07387
-2.9394 1.13049 5.03698
-2.94956 1.12719 5.0161
-2.95169 1.12394 4.99917
-2.96835 1.10968 4.91349
-2.9716 1.10319 4.88061
-2.97681 1.09878 4.85271
-3.00599 1.07252 4.6993
-3.03607 1.04844 4.55786
-3.04027 1.04405 4.53095
-3.04646 1.0397 4.50706
-3.06117 1.02433 4.41439
-3.10052 0.995728 4.23708
-3.12772 0.970426 4.08064
-3.161 0.943965 3.91326
-3.194 0.925036 3.78177
-3.19847 0.914137 3.72096
-3.20777 0.908552 3.6811
-3.21489 0.90732 3.66517
-3.21915 0.901821 3.63128
-3.22132 0.898497 3.60934
-3.22646 0.89522 3.59043
-3.23359 0.893988 3.5745
-3.23972 0.891726 3.55657
-3.23991 0.887371 3.53264
-3.23901 0.885163 3.51866
-3.24316 0.881885 3.49974
-3.2473 0.879607 3.4808
-3.25145 0.876329 3.46188
-3.25262 0.87299 3.43893
-3.2637 0.872835 3.42802
-3.2628 0.870642 3.41504
-3.26595 0.867349 3.39511
-3.27704 0.867194 3.3842
-3.27523 0.862823 3.35924
-3.28235 0.860591 3.34333
-3.28153 0.85725 3.32037
-3.28765 0.855003 3.30344
-3.28179 0.850733 3.28546
-3.29386 0.851608 3.27654
-3.29899 0.849361 3.25961
-3.30015 0.846051 3.23866
-3.30329 0.843772 3.21972
-3.30941 0.84154 3.20379
-3.31057 0.838245 3.18385
-3.31479 0.833819 3.15494
-3.31991 0.832586 3.139
-3.33198 0.832461 3.13009
-3.32718 0.827058 3.10313
-3.32635 0.823732 3.08117
-3.3385 0.822445 3.06128
-3.33767 0.819119 3.03932
-3.35072 0.820025 3.0324
-3.34394 0.813591 3.00344
-3.35104 0.813404 2.99049
-3.36112 0.813248 2.97957
-3.36327 0.809969 2.96063
-3.36234 0.80882 2.95064
-3.55583 0.699356 1.96658
-3.59119 0.683732 1.78806
-3.63518 0.661872 1.52568
-2.77887 1.46179 5.87198
-2.79303 1.4585 5.85214
-2.80029 1.45199 5.81728
-2.80756 1.44448 5.78244
-2.81286 1.43591 5.74361
-2.84633 1.39608 5.55142
-2.85259 1.38958 5.51756
-2.85984 1.38311 5.48571
-2.871 1.37981 5.46484
-2.86822 1.37338 5.43591
-2.8784 1.36903 5.41204
-2.88859 1.36367 5.3872
-2.89911 1.35069 5.32046
-2.91469 1.33557 5.24479
-2.92092 1.32913 5.21493
-3.00958 1.2361 4.73691
-3.01776 1.23177 4.71403
-3.02914 1.22303 4.66424
-3.04685 1.20467 4.57163
-3.04809 1.19821 4.54073
-3.05625 1.19491 4.51984
-3.05946 1.1895 4.49194
-3.06861 1.18721 4.47204
-3.07514 1.17319 4.40329
-3.08429 1.1699 4.3834
-3.09169 1.16014 4.33159
-3.10426 1.14706 4.25787
-3.11031 1.14596 4.25093
-3.11372 1.13516 4.19711
-3.12286 1.1329 4.17921
-3.13122 1.12421 4.1324
-3.14188 1.10793 4.0457
-3.15419 1.10235 4.00588
-3.15638 1.09698 3.98097
-3.15867 1.08941 3.94209
-3.1668 1.08718 3.92618
-3.17909 1.08162 3.88835
-3.18028 1.07724 3.86242
-3.18455 1.07072 3.82755
-3.18673 1.06637 3.80362
-3.2 1.06086 3.7688
-3.20911 1.05965 3.75389
-3.20762 1.04667 3.68806
-3.22188 1.04118 3.65424
-3.22405 1.03785 3.6323
-3.23533 1.03231 3.59547
-3.24146 1.03007 3.57854
-3.23777 1.02146 3.53764
-3.25084 1.02133 3.52874
-3.25517 1.01369 3.48488
-3.25932 1.01141 3.46594
-3.26157 1.00492 3.43305
-3.2667 1.00267 3.41612
-3.2758 1.00147 3.4022
-3.27796 0.99818 3.38226
-3.27641 0.986307 3.32342
-3.28551 0.985121 3.3105
-3.29163 0.983888 3.29457
-3.29477 0.98061 3.27564
-3.29792 0.977331 3.2567
-3.30801 0.977161 3.24478
-3.30221 0.970757 3.21783
-3.30032 0.968549 3.20385
-3.31338 0.96944 3.19593
-3.31256 0.965099 3.17298
-3.31569 0.961835 3.15505
-3.3238 0.960634 3.14113
-3.31503 0.954184 3.11116
-3.3261 0.954044 3.10124
-3.32717 0.951911 3.09228
-3.32336 0.947539 3.06731
-3.33047 0.945337 3.0534
-3.33971 0.94187 3.02151
-3.34484 0.939637 3.00558
-3.35492 0.939482 2.99466
-3.34805 0.935225 2.97767
-3.35515 0.934023 2.96374
-3.36126 0.932821 2.9498
-3.35844 0.928478 2.92684
-3.36454 0.926276 2.91291
-3.36866 0.924042 2.89698
-3.3718 0.921778 2.87903
-3.3679 0.918583 2.86605
-3.38096 0.919474 2.85813
-3.37515 0.9141 2.83316
-3.38523 0.913944 2.82224
-3.39233 0.913757 2.8093
-3.39446 0.910507 2.79236
-3.39155 0.908328 2.78037
-3.39269 0.905062 2.76242
-3.39482 0.902812 2.74547
-3.40193 0.90161 2.73154
-3.40505 0.899376 2.71559
-3.40419 0.896094 2.69663
-3.41428 0.895939 2.68571
-3.42045 0.893603 2.66279
-3.42059 0.890337 2.64483
-3.42782 0.886883 2.61393
-3.43506 0.88243 2.58305
-3.43214 0.880265 2.57206
-3.43825 0.879062 2.55812
-3.44235 0.877858 2.54417
-3.44461 0.872357 2.51026
-3.44893 0.866739 2.46837
-3.46311 0.865394 2.44449
-3.46424 0.863143 2.42753
-3.46934 0.861954 2.41459
-3.46649 0.858671 2.39561
-3.47259 0.857468 2.38167
-3.46669 0.854287 2.36968
-3.47378 0.854114 2.35773
-3.4759 0.851879 2.34178
-3.48398 0.851722 2.33084
-3.48908 0.850533 2.31789
-3.49132 0.846062 2.28597
-3.49238 0.844944 2.27799
-3.49749 0.843741 2.26405
-3.49761 0.841504 2.24808
-3.49873 0.839268 2.23212
-3.50085 0.837048 2.21717
-3.50893 0.836891 2.20623
-3.50613 0.832489 2.17927
-3.51632 0.831127 2.15436
-3.52143 0.829923 2.14042
-3.52354 0.828717 2.12645
-3.52664 0.826513 2.1125
-3.52976 0.825293 2.09754
-3.52981 0.824189 2.09056
-3.53192 0.822969 2.07559
-3.53304 0.820748 2.06063
-3.53714 0.819558 2.04768
-3.53328 0.816275 2.02869
-3.54435 0.817149 2.01976
-3.54645 0.814944 2.00581
-3.54154 0.812777 1.9948
-3.54763 0.812604 1.98285
-3.55272 0.81143 1.9709
-3.54986 0.808162 1.95293
-3.55893 0.80902 1.94298
-3.55208 0.804734 1.92399
-3.55922 0.803458 1.90506
-3.56332 0.802269 1.89211
-3.5714 0.803112 1.88115
-3.56853 0.799858 1.86418
-3.57461 0.7997 1.85322
-3.57374 0.797463 1.83725
-3.57479 0.79736 1.83026
-3.58187 0.797202 1.81931
-3.578 0.793948 1.80233
-3.58309 0.792774 1.79038
-3.58421 0.791553 1.77541
-3.5873 0.790363 1.76245
-3.5904 0.789172 1.74949
-3.58647 0.787036 1.74049
-3.58858 0.785831 1.72652
-3.59068 0.784625 1.71255
-3.59378 0.783435 1.69959
-3.60385 0.784309 1.69065
-3.60695 0.783119 1.67769
-3.61304 0.782946 1.66574
-3.60911 0.78081 1.65674
-3.6112 0.780619 1.64375
-3.61231 0.778412 1.62979
-3.61342 0.777206 1.61582
-3.61752 0.776017 1.60286
-3.61862 0.77481 1.58889
-3.63068 0.7767 1.58095
-3.62377 0.773533 1.56994
-3.63394 0.773199 1.54702
-2.98854 1.37195 4.86175
-2.98712 1.35484 4.78699
-3.00051 1.3441 4.73624
-2.99965 1.34083 4.71828
-3.01105 1.33007 4.66652
-3.02936 1.32348 4.62575
-3.03752 1.31917 4.60487
-3.0379 1.30743 4.55504
-3.05001 1.30622 4.54015
-3.05026 1.29875 4.50825
-3.05471 1.28688 4.44946
-3.0857 1.26199 4.32104
-3.09286 1.25769 4.30015
-3.09914 1.25114 4.26329
-3.1053 1.24684 4.2424
-3.11169 1.23609 4.1916
-3.12105 1.2274 4.14479
-3.13413 1.22725 4.13389
-3.12754 1.21446 4.08102
-3.13688 1.2058 4.03622
-3.15017 1.19925 3.99841
-3.1495 1.19061 3.95553
-3.16753 1.19256 3.95163
-3.16377 1.18509 3.91971
-3.1729 1.18286 3.90381
-3.17529 1.17211 3.85298
-3.18589 1.15695 3.77427
-3.20094 1.15785 3.76737
-3.19322 1.14931 3.73144
-3.21322 1.15231 3.73054
-3.22003 1.13075 3.6249
-3.23311 1.13061 3.615
-3.22338 1.12209 3.58004
-3.22744 1.12097 3.57209
-3.2306 1.11767 3.55116
-3.24484 1.1132 3.51933
-3.25295 1.11099 3.50442
-3.24916 1.10558 3.47747
-3.26367 1.0936 3.41075
-3.26682 1.09031 3.39082
-3.28817 1.08465 3.34506
-3.28826 1.08248 3.33409
-3.29059 1.07385 3.29123
-3.29968 1.07368 3.27929
-3.30183 1.07038 3.25936
-3.31433 1.05943 3.1946
-3.31747 1.05615 3.17567
-3.33086 1.04841 3.12488
-3.34645 1.03626 3.04717
-3.34463 1.03192 3.02422
-3.34471 1.02976 3.01325
-3.3538 1.02859 3.00133
-3.35792 1.02636 2.98539
-3.36236 1.01652 2.92857
-3.39236 0.9976 2.79805
-3.40074 0.989866 2.74822
-3.41011 0.983148 2.69939
-3.41827 0.980843 2.67848
-3.42139 0.978609 2.66253
-3.44855 0.95738 2.51103
-3.45484 0.951808 2.47216
-3.46439 0.94075 2.40038
-3.48008 0.929415 2.30966
-3.4967 0.919228 2.22892
-3.51305 0.915544 2.18209
-3.51031 0.90904 2.14816
-3.5136 0.90348 2.11026
-3.52169 0.903323 2.09933
-3.52989 0.901929 2.07241
-3.53598 0.900756 2.06047
-3.53516 0.8974 2.03651
-3.54747 0.893817 1.99665
-3.55156 0.892628 1.98369
-3.54384 0.88509 1.94774
-3.56094 0.88691 1.93484
-3.56216 0.883467 1.9049
-3.57434 0.88212 1.88101
-3.57047 0.878866 1.86402
-3.57053 0.877762 1.85704
-3.57463 0.876558 1.84309
-3.57972 0.876384 1.83113
-3.58791 0.87402 1.80622
-3.57409 0.86767 1.78321
-3.58632 0.866235 1.75331
-3.59141 0.866061 1.74135
-3.59949 0.865904 1.73042
-3.58864 0.8616 1.71039
-3.60978 0.863349 1.69253
-3.61393 0.862056 1.67257
-3.61006 0.858802 1.65559
-3.60917 0.856579 1.64061
-3.62334 0.856264 1.61872
-3.6214 0.855144 1.61072
-3.61852 0.851905 1.59475
-3.63091 0.848159 1.54389
-2.98398 1.41804 4.80003
-2.99314 1.41472 4.77814
-3.00921 1.4146 4.76927
-3.01172 1.39861 4.70251
-3.02385 1.39637 4.68563
-3.01905 1.38898 4.6597
-3.02425 1.3836 4.63382
-3.03143 1.37926 4.61093
-3.03267 1.37179 4.57905
-3.03787 1.36641 4.55316
-3.04505 1.36208 4.53028
-3.05222 1.35774 4.5074
-3.05334 1.35452 4.49245
-3.06544 1.35332 4.47856
-3.06076 1.34271 4.43767
-3.06496 1.33733 4.41178
-3.07606 1.33513 4.39789
-3.08125 1.33077 4.37299
-3.08545 1.32538 4.3471
-3.08064 1.31903 4.32316
-3.0878 1.31472 4.30227
-3.091 1.30934 4.27637
-3.09618 1.30499 4.25247
-3.10333 1.30171 4.23357
-3.10554 1.2953 4.20568
-3.11182 1.28776 4.16883
-3.11798 1.28445 4.14793
-3.12734 1.27478 4.10213
-3.12953 1.26939 4.07623
-3.13074 1.263 4.04933
-3.13778 1.26293 4.04438
-3.15228 1.25096 3.97866
-3.15447 1.24559 3.95375
-3.15667 1.24021 3.92784
-3.16381 1.23695 3.90994
-3.16787 1.23583 3.90199
-3.16708 1.22942 3.87407
-3.17422 1.22716 3.85616
-3.18334 1.22493 3.84026
-3.18057 1.21748 3.81034
-3.18969 1.21627 3.79543
-3.19583 1.21199 3.77653
-3.19098 1.20771 3.75756
-3.20307 1.20654 3.74566
-3.20722 1.20325 3.72574
-3.21138 1.19894 3.70483
-3.21554 1.19563 3.68391
-3.22167 1.19238 3.667
-3.22187 1.187 3.64108
-3.21999 1.18378 3.62611
-3.22415 1.17947 3.60521
-3.23127 1.17724 3.58929
-3.23839 1.17501 3.57337
-3.24551 1.17277 3.55746
-3.24372 1.16737 3.53052
-3.24579 1.16524 3.52157
-3.25192 1.16298 3.50364
-3.25607 1.1597 3.48472
-3.25923 1.15539 3.46381
-3.26635 1.15316 3.44789
-3.26752 1.14884 3.42596
-3.27166 1.14556 3.40704
-3.2749 1.1391 3.37615
-3.28401 1.1379 3.36224
-3.28319 1.13255 3.33831
-3.2913 1.13135 3.32438
-3.29544 1.12807 3.30546
-3.29552 1.12591 3.29449
-3.2947 1.12156 3.27155
-3.29983 1.11832 3.25463
-3.30595 1.11608 3.23871
-3.30711 1.11277 3.21776
-3.31323 1.11054 3.20184
-3.32042 1.10618 3.17696
-3.31762 1.10081 3.15201
-3.32473 1.09959 3.13708
-3.32588 1.09529 3.11715
-3.33299 1.09409 3.10322
-3.33927 1.08755 3.06636
-3.33935 1.0854 3.05639
-3.34447 1.08317 3.04046
-3.34578 1.07556 2.99958
-3.3509 1.07333 2.98365
-3.36015 1.06886 2.95178
-3.35427 1.06462 2.93579
-3.36947 1.06225 2.90994
-3.37061 1.05897 2.89099
-3.37673 1.05675 2.87607
-3.3719 1.05141 2.85311
-3.37504 1.04914 2.83516
-3.38305 1.05012 2.83321
-3.38321 1.04582 2.81327
-3.38733 1.04359 2.79733
-3.3906 1.03806 2.76144
-3.39174 1.0348 2.74349
-3.39196 1.02937 2.71457
-3.40204 1.02923 2.70464
-3.40913 1.02804 2.69171
-3.40829 1.02474 2.67175
-3.40842 1.02148 2.6538
-3.42048 1.02237 2.64588
-3.41062 1.01709 2.62788
-3.4217 1.01695 2.61796
-3.42184 1.01369 2.60001
-3.42893 1.01351 2.58806
-3.42808 1.00922 2.56812
-3.43815 1.00909 2.55919
-3.43431 1.00476 2.53723
-3.43737 1.00366 2.53027
-3.44148 1.00244 2.51531
-3.43863 0.998146 2.49535
-3.44275 0.995927 2.48041
-3.45282 0.996801 2.47148
-3.44599 0.991456 2.4485
-3.45308 0.990284 2.43657
-3.45912 0.991214 2.4316
-3.45926 0.987948 2.41365
-3.46137 0.985728 2.39869
-3.46945 0.985571 2.38776
-3.46462 0.980242 2.36579
-3.47568 0.981131 2.35786
-3.48079 0.979928 2.34392
-3.47091 0.975684 2.3279
-3.48211 0.973307 2.30202
-3.47925 0.969025 2.28306
-3.48436 0.967821 2.26911
-3.49045 0.967648 2.25716
-3.48853 0.965499 2.24718
-3.48964 0.963277 2.23222
-3.49674 0.96209 2.21929
-3.49785 0.959869 2.20432
-3.50097 0.958649 2.18936
-3.50607 0.957461 2.17642
-3.5042 0.954193 2.15845
-3.50936 0.951886 2.13752
-3.51545 0.950713 2.12558
-3.51756 0.949507 2.11161
-3.52067 0.947288 2.09667
-3.52179 0.945067 2.08171
-3.52489 0.943862 2.06775
-3.52296 0.941727 2.05876
-3.52607 0.939522 2.04482
-3.53427 0.937129 2.01791
-3.54248 0.934735 1.991
-3.53662 0.93045 1.97202
-3.53868 0.930348 1.96504
-3.54177 0.929158 1.95207
-3.54587 0.927968 1.93912
-3.54599 0.925746 1.92415
-3.55209 0.924559 1.91122
-3.55419 0.923353 1.89725
-3.55735 0.921044 1.8763
-3.56045 0.919854 1.86334
-3.56156 0.917633 1.84838
-3.56777 0.915238 1.82146
-3.57092 0.912944 1.80151
-3.58122 0.90936 1.76164
-3.58432 0.90817 1.74868
-3.58853 0.904759 1.72076
-3.59689 0.900069 1.67388
-3.598 0.898863 1.65991
-3.60319 0.896482 1.63398
-3.61675 0.889411 1.56117
-3.62089 0.888133 1.54222
-3.16218 1.31308 3.98581
-3.17282 1.29586 3.90314
-3.18343 1.27869 3.82346
-3.19254 1.27747 3.80854
-3.23471 1.26425 3.52202
-3.25454 1.24265 3.41347
-3.26184 1.23508 3.37463
-3.26589 1.23498 3.36766
-3.27418 1.22743 3.32983
-3.29199 1.20789 3.22524
-3.30654 1.19483 3.15354
-3.10778 1.44763 4.15944
-3.22836 1.32186 3.56312
-3.26468 1.28833 3.39087
-3.1303 1.47258 4.08723
-3.13679 1.45665 4.0245
-3.17125 1.41485 3.83435
-3.19463 1.40713 3.78464
-3.19186 1.39869 3.75474
-3.18998 1.39445 3.73878
-3.20306 1.39431 3.72888
-3.20444 1.38257 3.67906
-3.21256 1.38034 3.66315
-3.21492 1.36865 3.61634
-3.218 1.3675 3.60638
-3.17896 1.48834 3.86633
5.13608 -0.445084 1.76701
5.17212 -0.446052 1.90578
5.17141 -0.446489 1.94379
5.1953 -0.446759 2.06163
5.2115 -0.44737 2.08853
5.2118 -0.446778 2.12852
5.21496 -0.44747 2.14951
5.21805 -0.447294 2.16148
5.23341 -0.447594 2.20938
5.23256 -0.447298 2.22938
5.24475 -0.447921 2.25531
5.25293 -0.448572 2.27926
5.25819 -0.448072 2.31321
5.25232 -0.448816 2.33027
5.26352 -0.448424 2.35719
5.26267 -0.449127 2.37721
5.27488 -0.448722 2.40511
5.28014 -0.449222 2.43908
5.2823 -0.448898 2.46107
5.28648 -0.44956 2.48405
5.29181 -0.449898 2.52902
5.30628 -0.44999 2.59092
5.31147 -0.450623 2.61589
5.31782 -0.450932 2.66286
5.33422 -0.451159 2.71574
5.33438 -0.450833 2.73774
5.34585 -0.451923 2.79968
5.37432 -0.453011 2.86249
5.37165 -0.452357 2.9065
5.38598 -0.453731 2.94942
5.39637 -0.453968 3.00136
5.40074 -0.454231 3.05133
5.41005 -0.454631 3.09227
5.42247 -0.45481 3.14819
5.43791 -0.455962 3.2061
5.4422 -0.455388 3.24507
5.4785 -0.457852 3.41785
5.48582 -0.458235 3.45981
5.49525 -0.458383 3.51775
5.51574 -0.459435 3.58262
5.52509 -0.459761 3.62856
5.53252 -0.459907 3.68651
5.56381 -0.462397 3.85734
5.63756 -0.466016 4.22389
5.77978 -0.47484 4.91704
5.82549 -0.477497 5.14477
5.10181 -0.409611 1.59472
5.10395 -0.409331 1.61371
5.1091 -0.410038 1.63368
5.12328 -0.409693 1.65757
5.12464 -0.409998 1.70457
5.12578 -0.409718 1.72356
5.15041 -0.409492 1.80739
5.15148 -0.410344 1.81739
5.15478 -0.409769 1.85636
5.16509 -0.410154 1.8983
5.16724 -0.40986 1.91828
5.17348 -0.41039 1.95024
5.18912 -0.410158 2.03414
5.21903 -0.410373 2.15593
5.30898 -0.382666 2.5449
5.31819 -0.383272 2.57184
5.32654 -0.382583 2.61877
5.34001 -0.382659 2.68168
5.35055 -0.382601 2.75361
5.35976 -0.383193 2.78155
5.36805 -0.382636 2.81949
5.37224 -0.383269 2.84447
5.38162 -0.38352 2.89541
5.38883 -0.383111 2.92335
5.38901 -0.38277 2.94635
5.39712 -0.383539 2.9623
5.39931 -0.383171 2.98728
5.39849 -0.38283 3.01029
5.40871 -0.383393 3.04022
5.41089 -0.383039 3.06421
5.42012 -0.383601 3.09415
5.41828 -0.383274 3.11616
5.42842 -0.383015 3.13408
5.4318 -0.383262 3.18507
5.44103 -0.383824 3.21501
5.44825 -0.3834 3.24395
5.44943 -0.383031 3.26894
5.46159 -0.383729 3.28986
5.46379 -0.383345 3.31585
5.46397 -0.38399 3.33986
5.47622 -0.38351 3.37276
5.48646 -0.384044 3.4047
5.47961 -0.383728 3.42575
5.48876 -0.383453 3.44468
5.50302 -0.383945 3.47958
5.50321 -0.383575 3.50458
5.50743 -0.384148 3.53356
5.50862 -0.383764 3.55955
5.51385 -0.384309 3.59052
5.51505 -0.383925 3.61651
5.53224 -0.384567 3.64139
5.53043 -0.384181 3.6674
5.53666 -0.384741 3.69737
5.53787 -0.384327 3.72536
5.5431 -0.383887 3.75532
5.54732 -0.384445 3.7853
5.55457 -0.384962 3.81826
5.56573 -0.384644 3.84017
5.56594 -0.384245 3.86717
5.57822 -0.384706 3.90409
5.59091 -0.385352 3.99601
5.59716 -0.384868 4.02896
5.61235 -0.385494 4.05486
