5.55818 0.126557 3.85522
5.55135 0.126887 3.87727
5.58004 0.132214 3.96799
5.58427 0.133669 3.99894
5.58046 0.135042 4.02395
5.58973 0.136569 4.05986
5.598 0.139081 4.09477
5.59419 0.139454 4.11979
5.60537 0.141801 4.14368
5.62168 0.143396 4.18454
5.61989 0.144812 4.21253
5.62011 0.146241 4.24151
5.63341 0.148823 4.28138
5.62659 0.149184 4.30543
5.64795 0.152864 4.35222
5.64001 0.153003 4.36128
5.65332 0.1556 4.40215
5.66764 0.157211 4.44402
5.67391 0.15974 4.47994
5.67918 0.161254 4.51488
5.67941 0.162713 4.54587
5.70642 0.170662 4.67856
5.77195 0.188588 5.01385
5.78127 0.191203 5.05575
5.82502 0.204591 5.28625
5.84081 0.210134 5.39106
5.85244 0.214354 5.47393
5.86783 0.217113 5.52578
5.87516 0.219759 5.56969
5.88135 0.221124 5.59462
5.90437 0.229106 5.72935
5.91272 0.231795 5.77625
5.91302 0.233373 5.81523
5.92037 0.236048 5.86115
5.93462 0.238541 5.89501
5.95539 0.244021 5.99578
5.95367 0.246585 6.03376
5.96809 0.249389 6.08862
5.96941 0.252009 6.13058
5.97981 0.254786 6.18346
6.00346 0.260057 6.27022
6.01286 0.26282 6.32212
6.02528 0.26664 6.37797
6.02964 0.269332 6.42491
6.033 0.272041 6.47285
5.05344 0.035193 1.10899
5.0537 0.0356963 1.14299
5.05998 0.0372395 1.17992
5.06311 0.0385037 1.19788
5.0722 0.0386599 1.20882
5.06832 0.0388997 1.22484
5.06845 0.040166 1.24283
5.07159 0.0404303 1.2608
5.07486 0.0419609 1.29676
5.078 0.0422251 1.31473
5.08107 0.0433709 1.32469
5.08922 0.0436611 1.34463
5.09136 0.044926 1.3626
5.09864 0.0464833 1.40053
5.09878 0.0467497 1.41852
5.11014 0.049452 1.46641
5.11543 0.0510108 1.50435
5.12573 0.0525955 1.54425
5.13289 0.0539011 1.56518
5.13195 0.0540202 1.57319
5.13109 0.0543022 1.59219
5.13638 0.055861 1.63014
5.14669 0.0584604 1.67102
5.14977 0.0586062 1.681
5.15392 0.0598992 1.70095
5.16022 0.0614869 1.74089
5.16337 0.0617807 1.76086
5.17075 0.0645155 1.81077
5.19892 0.0717897 1.96547
5.20939 0.0747148 2.02836
5.23099 0.0788686 2.10715
5.2756 0.0889894 2.31969
5.27776 0.0903135 2.34166
5.27297 0.0907316 2.36969
5.28618 0.0921217 2.39658
5.29035 0.0934591 2.41953
5.28449 0.0937447 2.43857
5.29369 0.0961228 2.46447
5.29485 0.096433 2.48546
5.30597 0.0976617 2.50136
5.30413 0.0989739 2.52236
5.31835 0.100393 2.55123
5.30746 0.100623 2.56631
5.31984 0.103354 2.61619
5.31992 0.103517 2.62718
5.32828 0.106221 2.67509
5.33247 0.107588 2.70004
5.35214 0.111877 2.78784
5.62133 0.19362 4.26681
5.64012 0.200146 4.37058
5.68388 0.213563 4.60309
5.68814 0.216078 4.63802
5.70135 0.217468 4.66491
5.71467 0.220095 4.70777
5.71592 0.222582 4.74073
5.72119 0.224111 4.77667
5.72245 0.226614 4.81063
5.72874 0.228172 4.84857
5.73502 0.23073 4.88649
5.74924 0.233149 4.91535
5.75956 0.235763 4.95724
5.76283 0.237293 4.99319
5.77417 0.239936 5.03708
5.77945 0.242495 5.075
5.77568 0.243942 5.10501
5.79091 0.24639 5.13587
5.79722 0.248977 5.17579
5.80151 0.250551 5.21474
5.80984 0.253182 5.25764
5.82319 0.256868 5.30449
5.82447 0.258415 5.34146
5.82474 0.260947 5.37743
5.84401 0.263466 5.41325
5.85235 0.266111 5.45716
5.86068 0.268757 5.50106
5.86902 0.271417 5.54597
5.87635 0.274063 5.58988
5.87159 0.27554 5.6219
5.887 0.279313 5.67473
5.90024 0.281777 5.7066
5.90254 0.283368 5.74656
5.91189 0.287057 5.79345
5.92327 0.289789 5.84333
5.92962 0.292465 5.88924
5.93294 0.295084 5.93119
5.94936 0.298901 5.98701
5.96191 0.303972 6.05985
5.97633 0.306776 6.11471
5.97966 0.309425 6.15865
5.98905 0.313173 6.20953
6.00548 0.31702 6.26736
6.02008 0.322178 6.34619
6.03182 0.327606 6.44303
6.04525 0.331455 6.50088
5.23826 0.111363 2.14062
5.25193 0.115656 2.22846
5.25818 0.11714 2.2614
5.26853 0.119828 2.30829
5.27889 0.122516 2.35517
5.28723 0.124191 2.40109
5.28747 0.12565 2.43207
5.3037 0.128082 2.46192
5.29783 0.128353 2.47996
5.302 0.129691 2.50291
5.30217 0.131016 2.5249
5.30944 0.132544 2.56082
5.32567 0.134976 2.59067
5.31981 0.135262 2.60971
5.33303 0.137681 2.63858
5.33119 0.137994 2.65959
5.33537 0.139346 2.68355
5.33864 0.141862 2.71849
5.34383 0.143228 2.74343
5.35103 0.144622 2.77036
5.36024 0.14603 2.79827
5.36844 0.147424 2.8252
5.36888 0.150267 2.88216
5.39216 0.153798 2.91894
5.39752 0.15552 2.96788
5.40893 0.159311 3.02174
5.40501 0.159462 3.03177
5.41221 0.160856 3.0587
5.41541 0.162239 3.08466
5.41659 0.163593 3.10863
5.42582 0.16503 3.13855
5.43806 0.167495 3.17042
5.43724 0.168851 3.19441
5.44235 0.170069 3.20936
5.4387 0.171753 3.25537
5.48033 0.184905 3.46989
5.50082 0.188853 3.53468
5.50896 0.190128 3.55361
5.50735 0.192884 3.60458
5.51659 0.194366 3.6375
5.53187 0.196902 3.67435
5.519 0.197164 3.69145
5.52936 0.200852 3.73832
5.55089 0.204872 3.80811
5.55331 0.207699 3.86405
5.57718 0.215384 3.97878
5.59247 0.21795 4.01763
5.58989 0.220767 4.07261
5.60922 0.224404 4.11642
5.62788 0.229678 4.20321
5.6414 0.23369 4.27206
5.64263 0.235133 4.30204
5.6489 0.237661 4.33796
5.95661 0.34732 6.01525
5.96397 0.350025 6.06316
5.96126 0.35259 6.10115
6.03188 0.376675 6.4473
5.05956 0.10033 1.11799
5.05969 0.101581 1.13497
5.07097 0.103135 1.17287
5.06309 0.103363 1.18792
5.07925 0.104677 1.20978
5.0753 0.104784 1.21681
5.07357 0.106303 1.25181
5.08198 0.108097 1.30573
5.09935 0.111824 1.35555
5.09047 0.111053 1.37063
5.10978 0.11466 1.41244
5.11012 0.116311 1.45641
5.11226 0.116591 1.4754
5.11955 0.118163 1.51432
5.13874 0.120519 1.53915
5.13286 0.120761 1.55519
5.13708 0.122187 1.58414
5.13521 0.12344 1.60114
5.15139 0.124783 1.625
5.14752 0.125038 1.64203
5.15067 0.126332 1.66199
5.16593 0.128824 1.69584
5.17309 0.130129 1.71677
5.17437 0.131691 1.75474
5.17352 0.131973 1.77375
5.18977 0.134464 1.80759
5.18691 0.134733 1.82561
5.18204 0.135988 1.84263
5.19637 0.138629 1.88649
5.19351 0.138898 1.90451
5.20168 0.140232 1.92744
5.20591 0.141673 1.95739
5.20405 0.142956 1.97638
5.22426 0.145356 2.0042
5.2204 0.145625 2.02223
5.22857 0.146959 2.04515
5.23683 0.148457 2.07907
5.23698 0.149753 2.09905
5.2433 0.15237 2.14097
5.25048 0.15372 2.1649
5.25673 0.155204 2.19784
5.25789 0.156514 2.21881
5.26506 0.157849 2.24174
5.26838 0.159483 2.2847
5.26251 0.160739 2.30173
5.27572 0.162129 2.32861
5.28784 0.163372 2.3455
5.28298 0.164642 2.36352
5.28932 0.166304 2.40846
5.30052 0.16868 2.43434
5.29868 0.169993 2.45534
5.30787 0.171356 2.48025
5.31096 0.171546 2.49323
5.32015 0.17391 2.51813
5.31831 0.174222 2.53914
5.31646 0.175519 2.55914
5.33169 0.177952 2.58899
5.33186 0.179278 2.61097
5.33913 0.180805 2.6469
5.34532 0.182186 2.67283
5.34347 0.183483 2.69283
5.34264 0.18481 2.71482
5.35386 0.186231 2.74372
5.36005 0.188596 2.76864
5.36415 0.1888 2.78261
5.36432 0.190126 2.80459
5.37772 0.193901 2.85744
5.37689 0.194227 2.87945
5.38409 0.196621 2.90636
5.37924 0.196921 2.9264
5.3944 0.199221 2.94725
5.40361 0.200629 2.97516
5.39977 0.201942 2.99618
5.40798 0.203351 3.0241
5.41838 0.207128 3.07697
5.4266 0.208551 3.10589
5.43391 0.211138 3.1458
5.43509 0.212507 3.17078
5.4445 0.2163 3.22466
5.47668 0.226585 3.38029
5.47185 0.226915 3.40232
5.4851 0.229408 3.43619
5.50588 0.235918 3.53895
5.52356 0.242237 3.62874
5.55181 0.252659 3.79339
5.57507 0.263114 3.96008
5.59339 0.266722 4.0019
5.60499 0.271883 4.08075
5.61649 0.275852 4.14661
5.61871 0.278294 4.17656
5.63101 0.280863 4.21544
5.63514 0.282111 4.23239
5.65291 0.288608 4.33417
5.66018 0.291136 4.37008
5.6594 0.293566 4.39906
5.67058 0.294913 4.42296
5.68235 0.301399 4.52379
5.69265 0.304984 4.56366
5.71123 0.31011 4.64046
5.72593 0.316461 4.73226
5.73648 0.321534 4.80512
5.74579 0.324134 4.84602
5.74302 0.32558 4.87602
5.76755 0.331613 4.94676
5.77913 0.33673 5.0226
5.78241 0.339275 5.05955
5.7877 0.341848 5.09847
5.794 0.344436 5.13839
5.80319 0.346799 5.16329
5.80648 0.349359 5.20124
5.81278 0.351947 5.24115
5.87298 0.373195 5.53043
5.89398 0.382134 5.66215
5.90318 0.384527 5.68905
5.90951 0.388174 5.73296
5.91283 0.390793 5.7749
5.92018 0.393468 5.82081
5.93356 0.397214 5.87166
5.93487 0.400805 5.9116
5.95649 0.407003 5.99336
5.96283 0.409679 6.03928
5.97423 0.41344 6.09115
5.98159 0.417145 6.13904
6.03641 0.444612 6.51027
5.95712 0.455182 6.07265
5.99887 0.47257 6.30311
5.09898 0.171003 1.29967
5.10212 0.172282 1.31863
5.22421 0.210171 1.99124
5.22838 0.211493 2.01319
5.25258 0.22083 2.17189
5.26378 0.223206 2.19778
5.26902 0.224676 2.22972
5.27435 0.227324 2.27365
5.28586 0.231307 2.34051
5.2993 0.23617 2.39934
5.30665 0.238846 2.44526
5.31801 0.241548 2.49314
5.31315 0.242818 2.51116
5.32227 0.244048 2.52707
5.32243 0.245359 2.54805
5.32963 0.246739 2.57398
5.33916 0.251768 2.64385
5.35262 0.255676 2.7057
5.363 0.259409 2.75557
5.37339 0.262156 2.80646
5.37565 0.264672 2.84141
5.37901 0.267366 2.88835
5.39844 0.272195 2.94514
5.40172 0.273741 2.9821
5.40609 0.277463 3.03102
5.4195 0.281267 3.08587
5.43074 0.283718 3.11675
5.42882 0.283882 3.12776
5.4322 0.28762 3.17769
5.45266 0.292507 3.23847
5.45988 0.294931 3.26739
5.44599 0.294164 3.2825
5.46034 0.297834 3.32835
5.46877 0.301657 3.38423
5.47699 0.304095 3.41414
5.47919 0.306478 3.44009
5.47838 0.307849 3.46508
5.48872 0.310507 3.50997
5.49997 0.313988 3.54284
5.49917 0.315373 3.56883
5.51775 0.321499 3.64561
5.527 0.323981 3.67851
5.52519 0.325352 3.7035
5.53786 0.33166 3.79233
5.5441 0.334115 3.82325
5.54922 0.335363 3.84019
5.56251 0.337915 3.87806
5.56472 0.340328 3.90601
5.57299 0.34284 3.94092
5.57621 0.345267 3.96986
5.57541 0.346667 3.99685
5.58568 0.349193 4.03274
5.59484 0.351497 4.05364
5.61115 0.355092 4.09447
5.60634 0.356465 4.11949
5.60857 0.358908 4.14944
5.61583 0.361421 4.18435
5.62209 0.363919 4.21827
5.63248 0.367667 4.26915
5.64076 0.371208 4.30604
5.64701 0.373707 4.33996
5.65126 0.376192 4.37289
5.66055 0.378748 4.41079
5.65675 0.380136 4.4368
5.66918 0.38497 4.49364
5.74215 0.415734 4.88569
5.76242 0.419237 4.92049
5.7536 0.420599 4.94454
5.76594 0.424256 4.9894
5.05789 0.192854 1.15263
5.06503 0.19413 1.17156
5.07218 0.195421 1.19149
5.07526 0.196566 1.20145
5.08554 0.199107 1.23834
5.08466 0.199359 1.25535
5.07778 0.199601 1.2714
5.08794 0.200904 1.29231
5.09302 0.202049 1.30225
5.09515 0.202314 1.32024
5.08627 0.202542 1.3353
5.10244 0.204871 1.35815
5.10659 0.206149 1.3771
5.11074 0.207442 1.39705
5.11395 0.208854 1.42501
5.10706 0.209081 1.44006
5.11221 0.210374 1.46001
5.12752 0.212969 1.50086
5.12064 0.213211 1.51691
5.13582 0.215541 1.53976
5.14191 0.216714 1.5517
5.14004 0.216967 1.56871
5.14519 0.218274 1.58966
5.14834 0.219553 1.60862
5.1575 0.220872 1.63053
5.16066 0.222166 1.65049
5.15478 0.222407 1.66654
5.15886 0.223567 1.67749
5.16 0.223847 1.69648
5.15915 0.225129 1.71547
5.17534 0.227487 1.74032
5.16344 0.226703 1.75442
5.17963 0.230062 1.77925
5.17468 0.229169 1.7863
5.18586 0.231516 1.81019
5.19404 0.23285 1.83311
5.19518 0.234131 1.85208
5.19031 0.234386 1.86912
5.19447 0.235694 1.89007
5.19663 0.237003 1.91104
5.20573 0.238189 1.92395
5.21189 0.24051 1.94588
5.21204 0.240806 1.96587
5.21721 0.242128 1.98782
5.21033 0.24237 2.00387
5.22653 0.245758 2.0307
5.22468 0.24604 2.04971
5.22275 0.246175 2.05873
5.23795 0.248564 2.08558
5.24312 0.250885 2.10751
5.24428 0.251195 2.1285
5.24944 0.253517 2.15043
5.24859 0.253814 2.17043
5.25878 0.256177 2.19533
5.24782 0.255259 2.20042
5.26202 0.257648 2.22728
5.26619 0.25997 2.24922
5.27839 0.262361 2.2761
5.28273 0.265009 2.32003
5.27879 0.265131 2.32806
5.28613 0.267792 2.37297
5.28126 0.268062 2.39101
5.29749 0.271494 2.42084
5.29966 0.272818 2.44281
5.30283 0.274156 2.46576
5.31512 0.276709 2.50364
5.32465 0.281739 2.5735
5.32281 0.282051 2.59452
5.33209 0.285592 2.6314
5.34029 0.286986 2.65832
5.33946 0.288312 2.68031
5.34966 0.290704 2.7072
5.35686 0.293098 2.73411
5.36205 0.294465 2.75906
5.36414 0.295641 2.77103
5.36767 0.299674 2.84095
5.38191 0.303123 2.8718
5.38711 0.304504 2.89774
5.38728 0.305844 2.92072
5.39039 0.307049 2.93468
5.41922 0.315671 3.04535
5.42241 0.317039 3.07031
5.4236 0.319393 3.09427
5.43091 0.321995 3.13518
5.45356 0.329266 3.22192
5.45275 0.330622 3.24591
5.46929 0.335675 3.31772
5.46345 0.336991 3.33875
5.47287 0.340813 3.39463
5.48815 0.344334 3.43046
5.50572 0.350446 3.50625
5.50892 0.351844 3.53321
5.50208 0.353159 3.55424
5.50731 0.3556 3.58417
5.51454 0.358053 3.61509
5.51666 0.359274 3.63005
5.53395 0.362824 3.66788
5.53114 0.364196 3.69288
5.54139 0.366677 3.72577
5.5426 0.369105 3.75473
5.54582 0.371532 3.78367
5.54804 0.372945 3.81164
5.56625 0.376346 3.83946
5.56445 0.377732 3.86545
5.5566 0.379049 3.8865
5.57794 0.382684 3.93029
5.58116 0.385126 3.96023
5.58138 0.38754 3.9882
5.59053 0.388844 4.00911
5.60281 0.392383 4.04597
5.6113 0.397324 4.10985
5.61152 0.399753 4.13881
5.62985 0.403391 4.18263
5.62403 0.404736 4.20565
5.6332 0.407069 4.22855
5.64449 0.410624 4.26642
5.63868 0.411998 4.29145
5.64595 0.414525 4.32736
5.65624 0.41808 4.36523
5.65746 0.419524 4.39521
5.6719 0.425371 4.45302
5.67818 0.4279 4.48894
5.06267 0.223388 1.12114
5.07188 0.225796 1.14904
5.07729 0.228591 1.20296
5.08864 0.231264 1.24885
5.09592 0.233821 1.28676
5.0992 0.235352 1.32272
5.11256 0.238052 1.37058
5.11784 0.240596 1.40751
5.11998 0.241876 1.42648
5.12226 0.243422 1.46344
5.13049 0.24586 1.49335
5.14179 0.248444 1.53323
5.15223 0.252295 1.5911
5.1513 0.252429 1.60011
5.16161 0.255028 1.641
5.16991 0.257614 1.6809
5.17929 0.260348 1.7308
5.18974 0.264228 1.79067
5.19806 0.266844 1.83258
5.2116 0.2719 1.90441
5.21792 0.274517 1.94633
5.22932 0.278293 1.99919
5.2388 0.282219 2.06207
5.24713 0.284864 2.10598
5.25122 0.286039 2.11793
5.25755 0.28867 2.16085
5.26271 0.290992 2.18278
5.26688 0.292315 2.20473
5.26502 0.293597 2.22373
5.27321 0.294962 2.24865
5.28163 0.29877 2.30354
5.28696 0.301417 2.34747
5.2841 0.3027 2.36647
5.29832 0.305104 2.39433
5.29438 0.305241 2.40336
5.30057 0.307591 2.42728
5.30775 0.308941 2.45121
5.30791 0.310267 2.47319
5.31109 0.312605 2.49614
5.31828 0.31397 2.52107
5.31634 0.314104 2.53008
5.32454 0.316483 2.55599
5.32671 0.317807 2.57795
5.33993 0.321227 2.60681
5.33106 0.321485 2.62387
5.34428 0.323905 2.65274
5.34243 0.325217 2.67374
5.34955 0.326434 2.68867
5.34887 0.329071 2.73164
5.35608 0.331465 2.75856
5.36027 0.332832 2.78351
5.36345 0.334185 2.80747
5.36562 0.336524 2.83042
5.38078 0.338823 2.85127
5.38195 0.340163 2.87425
5.38715 0.342544 2.90018
5.39436 0.344938 2.92709
5.39252 0.345266 2.9491
5.40283 0.348865 2.98998
5.40301 0.350205 3.01296
5.4082 0.352586 3.03889
5.4114 0.353969 3.06485
5.41359 0.356337 3.0898
5.41477 0.357692 3.11377
5.42601 0.361142 3.14464
5.43112 0.36236 3.15959
5.43834 0.364784 3.1885
5.43751 0.366125 3.21149
5.44071 0.367508 3.23745
5.44592 0.369919 3.26538
5.45232 0.373698 3.31828
5.46146 0.375958 3.33618
5.46266 0.377342 3.36216
5.47491 0.380822 3.39502
5.47309 0.382178 3.41901
5.47931 0.384603 3.44794
5.48252 0.387015 3.47588
5.48673 0.388426 3.50383
5.49587 0.390701 3.52273
5.49908 0.393098 3.54968
5.50129 0.394511 3.57764
5.50752 0.39695 3.60756
5.5231 0.404079 3.68435
5.56312 0.416048 3.81889
5.56735 0.418488 3.84883
5.56555 0.419875 3.87482
5.62279 0.445214 4.17006
5.61395 0.445531 4.19112
5.64133 0.451266 4.24184
5.64491 0.457388 4.31773
5.64714 0.459845 4.34868
5.07865 0.264253 1.24743
5.22267 0.31693 2.04168
5.24025 0.322057 2.11848
5.35937 0.372991 2.79392
5.36156 0.375345 2.81787
5.37268 0.376588 2.83477
5.37303 0.380269 2.88072
5.39247 0.385113 2.93851
5.39265 0.386453 2.96149
5.39073 0.387618 2.97249
5.40597 0.39108 3.00433
5.40514 0.392421 3.02732
5.41975 0.398595 3.10713
5.42404 0.401154 3.14507
5.42925 0.403565 3.17299
5.43848 0.407002 3.20288
5.45292 0.411864 3.26171
5.4543 0.415589 3.31065
5.46143 0.41685 3.32858
5.46363 0.419233 3.35453
5.47387 0.421699 3.38642
5.48311 0.425151 3.4173
5.48129 0.426508 3.4413
5.48148 0.428878 3.46627
5.50389 0.433675 3.52103
5.50811 0.436102 3.54997
5.51735 0.439568 3.58185
5.50749 0.439842 3.59993
5.52277 0.443379 3.63677
5.51996 0.445751 3.66175
5.52509 0.446998 3.6787
5.53635 0.450508 3.71357
5.54661 0.454004 3.74744
5.54279 0.455362 3.77146
5.54199 0.456747 3.79744
5.55426 0.460271 3.8333
5.56151 0.463754 3.8662
5.56966 0.466044 3.88611
5.57591 0.468513 3.91803
5.57612 0.470928 3.946
5.59746 0.475578 3.99077
5.59063 0.476909 4.01281
5.59486 0.479364 4.04375
5.60716 0.482933 4.08261
5.61329 0.485195 4.10053
5.6115 0.48661 4.12852
5.61977 0.490122 4.16341
5.62704 0.493635 4.19831
5.63028 0.496106 4.23026
5.64056 0.499646 4.26713
5.63061 0.499757 4.27421
5.05667 0.289296 1.11421
5.06381 0.290572 1.13314
5.06407 0.29209 1.16812
5.06714 0.293221 1.17708
5.07141 0.294751 1.21303
5.07856 0.296027 1.23196
5.07368 0.296267 1.248
5.08097 0.298825 1.28591
5.10034 0.303551 1.3357
5.09747 0.30379 1.35172
5.0976 0.305056 1.3697
5.10375 0.306347 1.38964
5.10489 0.307613 1.40762
5.10896 0.307758 1.41758
5.12113 0.310075 1.43946
5.13392 0.316605 1.54328
5.13305 0.317872 1.56127
5.15774 0.324201 1.65201
5.15086 0.324443 1.66806
5.16117 0.328042 1.70893
5.17686 0.334378 1.79973
5.18302 0.335684 1.82067
5.18919 0.338005 1.84259
5.19449 0.340594 1.88252
5.20503 0.345652 1.95437
5.21852 0.350589 2.01821
5.21859 0.350737 2.02821
5.22577 0.353072 2.05112
5.23223 0.356985 2.11302
5.2374 0.358307 2.13497
5.24049 0.359483 2.14693
5.24365 0.361791 2.16787
5.24883 0.363128 2.19082
5.2672 0.367839 2.23962
5.26434 0.369123 2.25862
5.26349 0.36942 2.27863
5.27963 0.372674 2.29646
5.27677 0.372957 2.31548
5.27793 0.374267 2.33645
5.2801 0.376591 2.35841
5.28729 0.377956 2.38333
5.28844 0.379266 2.40431
5.29864 0.382644 2.43019
5.30173 0.383819 2.44215
5.29988 0.384116 2.46216
5.31109 0.387508 2.48903
5.31627 0.388859 2.51297
5.31141 0.390144 2.53199
5.3186 0.392509 2.55691
5.3309 0.396077 2.59577
5.33207 0.397417 2.61874
5.33525 0.398755 2.6417
5.34244 0.40112 2.66662
5.34863 0.4035 2.69254
5.34579 0.404813 2.71354
5.36395 0.40811 2.73436
5.36613 0.409449 2.75733
5.36747 0.413129 2.80327
5.36664 0.414455 2.82526
5.37083 0.415822 2.85021
5.37501 0.418174 2.87415
5.38816 0.420461 2.89402
5.38733 0.421787 2.91601
5.39453 0.424181 2.94292
5.39973 0.426562 2.96885
5.40292 0.42893 2.99379
5.40109 0.430272 3.01679
5.40931 0.43268 3.0447
5.41241 0.433885 3.05866
5.42062 0.437294 3.08655
5.43186 0.439744 3.11743
5.43304 0.442098 3.14139
5.43925 0.444508 3.16931
5.44145 0.445892 3.19528
5.44263 0.448246 3.21924
5.45378 0.450534 3.23912
5.46201 0.453972 3.26902
5.45616 0.454272 3.28906
5.46137 0.456683 3.31699
5.47664 0.461189 3.35181
5.47683 0.462559 3.37679
5.47793 0.463751 3.38977
5.48918 0.467231 3.42264
5.48433 0.468546 3.44366
5.49056 0.470985 3.47358
5.4998 0.474452 3.50546
5.50502 0.476862 3.53339
5.50622 0.478261 3.56036
5.52059 0.482976 3.60919
5.52783 0.486429 3.64009
5.53828 0.49131 3.69995
5.53346 0.493654 3.72295
5.54874 0.49719 3.75979
5.55387 0.499438 3.77672
5.56011 0.501907 3.80864
5.56433 0.504348 3.83858
5.56756 0.50679 3.86852
5.5738 0.510244 3.89943
5.5891 0.514825 3.93925
5.5892 0.515017 3.95225
5.60371 0.521998 4.01904
5.60694 0.524454 4.04999
5.61218 0.527924 4.0819
5.06466 0.324242 1.11063
5.06894 0.326772 1.14657
5.08229 0.330458 1.19342
5.08142 0.33071 1.21042
5.08369 0.332241 1.24639
5.09077 0.334384 1.2563
5.09605 0.335928 1.29325
5.10019 0.337206 1.3122
5.10434 0.339484 1.33114
5.10547 0.33975 1.34913
5.10762 0.34103 1.36809
5.11283 0.34344 1.39602
5.11898 0.344732 1.41596
5.11511 0.344987 1.43299
5.13229 0.348329 1.45681
5.12942 0.348583 1.47383
5.13056 0.349863 1.49281
5.13163 0.349996 1.5018
5.13778 0.352287 1.52172
5.13892 0.353568 1.5407
5.14107 0.353848 1.55968
5.14622 0.35614 1.57961
5.15939 0.35847 1.60248
5.15445 0.358593 1.61052
5.16161 0.359898 1.63144
5.16276 0.361179 1.65042
5.16991 0.363484 1.67133
5.16705 0.363753 1.68935
5.17722 0.366086 1.71225
5.18038 0.367379 1.73221
5.17944 0.367499 1.74021
5.19177 0.372141 1.78406
5.1889 0.372395 1.80108
5.19907 0.374728 1.82397
5.19421 0.374998 1.842
5.20431 0.377183 1.8549
5.20862 0.379786 1.89583
5.21077 0.381081 1.9158
5.21307 0.383671 1.95575
5.22827 0.387045 1.98159
5.22634 0.38718 1.9906
5.246 0.394468 2.07836
5.25958 0.400583 2.15418
5.26274 0.401906 2.17614
5.26691 0.404229 2.19807
5.27525 0.406889 2.24298
5.2744 0.408185 2.26297
5.28885 0.414048 2.32178
5.29202 0.415371 2.34374
5.2992 0.417736 2.36865
5.30137 0.41906 2.39062
5.31382 0.424924 2.44945
5.31916 0.427586 2.49437
5.32836 0.430964 2.52026
5.34533 0.440861 2.649
5.35973 0.44562 2.70083
5.36801 0.449177 2.73872
5.37137 0.45287 2.78565
5.37992 0.458944 2.8585
5.39525 0.463569 2.90133
5.40766 0.46836 2.95517
5.40701 0.472041 3.00112
5.42034 0.475682 3.04498
5.42472 0.480419 3.09488
5.4281 0.484157 3.14481
5.4641 0.497084 3.27636
5.47654 0.502933 3.33419
5.47902 0.507879 3.39811
5.56404 0.546722 3.79595
5.57451 0.552631 3.85779
5.58176 0.556115 3.89069
5.57795 0.557487 3.9157
5.59336 0.56326 3.9685
5.60083 0.569173 4.03037
5.59701 0.570545 4.05538
5.0655 0.355883 1.08615
5.07178 0.358411 1.12207
5.18862 0.404799 1.76059
5.36915 0.488394 2.75313
5.39939 0.503799 2.9167
5.4191 0.512161 3.00944
5.42229 0.514529 3.03439
5.47655 0.542914 3.3326
5.50474 0.558217 3.48918
5.52443 0.567534 3.57891
5.52764 0.569947 3.60685
5.55589 0.586368 3.77142
5.56726 0.592084 3.82025
5.0625 0.385837 1.08273
5.05762 0.386078 1.09877
5.08126 0.393304 1.18249
5.0844 0.394583 1.20145
5.07951 0.394808 1.21649
5.08867 0.396112 1.2374
5.09281 0.398376 1.25534
5.09903 0.3998 1.28428
5.10517 0.402077 1.3032
5.10931 0.403355 1.32215
5.10244 0.403597 1.3382
5.1126 0.405901 1.3591
5.11767 0.407045 1.36904
5.11981 0.408325 1.38801
5.13225 0.412174 1.44587
5.1344 0.413454 1.46483
5.13754 0.414733 1.48379
5.13661 0.415867 1.49279
5.13674 0.416133 1.51078
5.14806 0.419732 1.55165
5.14819 0.420998 1.56963
5.15836 0.423316 1.59152
5.15649 0.424584 1.60952
5.16258 0.425742 1.62046
5.16774 0.427049 1.64141
5.17203 0.430623 1.68033
5.17432 0.433184 1.71828
5.17747 0.434478 1.73824
5.19617 0.441841 1.831
5.20843 0.445335 1.86486
5.21776 0.448965 1.90774
5.21489 0.450218 1.92475
5.21704 0.451528 1.94571
5.22622 0.453861 1.96861
5.22637 0.455157 1.9886
5.23046 0.456332 2.00055
5.25013 0.46462 2.08829
5.25653 0.4684 2.14119
5.26587 0.472059 2.18608
5.27838 0.478041 2.2529
5.27753 0.479338 2.27289
5.28764 0.481553 2.28779
5.28479 0.482836 2.30679
5.29398 0.485214 2.33269
5.28811 0.48647 2.34972
5.29932 0.488861 2.3766
5.30651 0.492226 2.4015
5.31061 0.493415 2.41445
5.31277 0.49474 2.43642
5.30992 0.496023 2.45543
5.3151 0.498374 2.47936
5.32429 0.500752 2.50525
5.32346 0.503079 2.52723
5.32362 0.504389 2.54821
5.33173 0.506605 2.56312
5.33692 0.507972 2.58806
5.34512 0.51135 2.61396
5.34931 0.513717 2.63889
5.34947 0.515028 2.65988
5.35566 0.517408 2.6858
5.35583 0.519734 2.70776
5.37014 0.52433 2.74859
5.3673 0.525643 2.7696
5.37468 0.529378 2.81949
5.37887 0.531744 2.84443
5.38901 0.535003 2.86231
5.3932 0.53737 2.88725
5.39639 0.539738 2.91219
5.39555 0.541064 2.93418
5.39573 0.542405 2.95716
5.40495 0.545827 2.98605
5.40814 0.548209 3.01199
5.40823 0.549372 3.02297
5.42046 0.552822 3.05384
5.42266 0.555205 3.07979
5.42585 0.557573 3.10473
5.42805 0.559956 3.13068
5.43123 0.562324 3.15563
5.43544 0.56472 3.18256
5.45262 0.568063 3.20639
5.44878 0.569376 3.2274
5.45399 0.572787 3.25531
5.45921 0.575197 3.28324
5.47346 0.57969 3.31707
5.46662 0.581006 3.33811
5.48078 0.584306 3.35896
5.48299 0.585704 3.38592
5.48619 0.589102 3.41285
5.4884 0.5915 3.4398
5.49462 0.594939 3.46971
5.49783 0.597336 3.49665
5.49702 0.598722 3.52264
5.50918 0.602023 3.54351
5.5134 0.605449 3.57243
5.51863 0.60789 3.60236
5.52184 0.610287 3.6293
5.52808 0.613756 3.66121
5.5323 0.617182 3.69013
5.53853 0.620636 3.72103
5.5497 0.622954 3.74292
5.55292 0.62638 3.77185
5.55614 0.628807 3.80079
5.55836 0.631235 3.82974
5.56783 0.638145 3.89158
5.14237 0.450325 1.59125
5.2311 0.491542 2.08203
5.25918 0.504638 2.22465
5.37067 0.561318 2.81505
5.39172 0.574345 2.95272
5.43544 0.597672 3.17908
5.45838 0.61049 3.30273
5.48957 0.627791 3.45926
5.4978 0.631244 3.49015
5.499 0.633628 3.51611
5.51046 0.639507 3.57595
5.51889 0.645344 3.6328
5.53006 0.648662 3.65467
5.53226 0.65106 3.68163
5.54051 0.655542 3.7145
5.11657 0.470772 1.3501
5.13236 0.4793 1.45387
5.14066 0.481871 1.49278
5.15532 0.489148 1.57957
5.16068 0.492855 1.62748
5.17414 0.498748 1.6883
5.18346 0.502362 1.73019
5.18661 0.503656 1.75014
5.196 0.508404 1.80101
5.20531 0.512019 1.84289
5.20947 0.514327 1.86383
5.21363 0.515635 1.88478
5.21385 0.518064 1.91375
5.22203 0.520398 1.93666
5.22935 0.524014 1.97855
5.24693 0.532141 2.05531
5.24406 0.53241 2.07333
5.25225 0.535759 2.09722
5.25356 0.538365 2.13818
5.25865 0.539539 2.15013
5.35864 0.59125 2.67468
5.38568 0.606272 2.81227
5.39306 0.611007 2.86215
5.41395 0.622723 2.97884
5.42115 0.626117 3.00574
5.42234 0.628472 3.0297
5.43467 0.634114 3.07353
5.43484 0.635454 3.09651
5.44124 0.641219 3.14838
5.44946 0.644642 3.17727
5.45668 0.648066 3.20617
5.46079 0.649285 3.22113
5.46299 0.651668 3.24708
5.46519 0.654051 3.27303
5.47341 0.658489 3.30291
5.4726 0.659845 3.3269
5.48786 0.665352 3.3617
5.48203 0.666681 3.38373
5.50883 0.67923 3.48936
5.51607 0.682684 3.52026
5.51526 0.685069 3.54623
5.52542 0.687358 3.56612
5.53184 0.693182 3.622
5.53305 0.69658 3.64894
5.15621 0.525892 1.56202
5.45874 0.692119 3.20951
5.53378 0.738998 3.6093
5.09359 0.520784 1.21452
5.09272 0.522036 1.23151
5.08985 0.52229 1.24853
5.08497 0.522531 1.26456
5.10515 0.526871 1.28835
5.10622 0.527003 1.29734
5.10535 0.528256 1.31433
5.11351 0.530561 1.33524
5.11291 0.533346 1.38821
5.11304 0.534612 1.40619
5.12514 0.537795 1.41906
5.13143 0.540353 1.45698
5.12969 0.542873 1.49196
5.14588 0.546231 1.51679
5.14709 0.547629 1.54376
5.15425 0.550935 1.56466
5.14135 0.549152 1.57879
5.1465 0.551444 1.59872
5.1657 0.555815 1.62451
5.15782 0.556042 1.63957
5.17508 0.560548 1.67438
5.17623 0.561828 1.69335
5.17938 0.563122 1.71331
5.17364 0.565644 1.74832
5.18876 0.56887 1.76417
5.19191 0.570163 1.78412
5.18905 0.571432 1.80213
5.1912 0.572726 1.8221
5.19235 0.574007 1.84107
5.19952 0.576342 1.86399
5.19866 0.577609 1.88198
5.20375 0.579783 1.89391
5.20991 0.582104 1.91583
5.20806 0.583386 1.93483
5.21623 0.585721 1.95774
5.21838 0.587015 1.9777
5.22757 0.590364 2.00159
5.23976 0.593725 2.02645
5.23582 0.593846 2.03448
5.23195 0.595115 2.05249
5.24314 0.598477 2.07736
5.24631 0.5998 2.09932
5.24947 0.602109 2.12027
5.24761 0.603391 2.13926
5.25078 0.605715 2.16121
5.25386 0.606875 2.17217
5.25804 0.609213 2.19511
5.2632 0.611534 2.21704
5.26738 0.613872 2.23997
5.27556 0.617221 2.26386
5.27672 0.618531 2.28484
5.2738 0.618681 2.29486
5.29603 0.624123 2.32562
5.30855 0.631135 2.39443
5.31298 0.636961 2.45032
5.31731 0.640609 2.49424
5.33254 0.645042 2.52406
5.32885 0.647651 2.56505
5.33412 0.652165 2.59995
5.34232 0.655559 2.62684
5.34951 0.657923 2.65176
5.34466 0.659223 2.67178
5.36232 0.668498 2.75852
5.38158 0.673986 2.7923
5.3831 0.681006 2.86119
5.38328 0.682347 2.88417
5.40564 0.690041 2.9319
5.39678 0.690314 2.94996
5.41321 0.697145 3.00675
5.41339 0.699485 3.02971
5.42772 0.705126 3.07353
5.43009 0.709849 3.12245
5.43932 0.714286 3.15232
5.4427 0.719024 3.20223
5.46144 0.73046 3.29993
5.4801 0.740734 3.38665
5.47719 0.741899 3.39766
5.49266 0.749805 3.45943
5.51536 0.76115 3.55111
5.07173 0.549064 1.09725
5.33351 0.687932 2.51642
5.05337 0.645238 1.03995
5.05851 0.646515 1.0589
5.06378 0.650029 1.09381
5.07687 0.652212 1.10668
5.08027 0.655979 1.15861
5.09043 0.658283 1.1795
5.08655 0.658522 1.19553
5.07966 0.65875 1.21058
5.09089 0.662185 1.24045
5.09804 0.664476 1.26036
5.10532 0.668018 1.29726
5.10145 0.668273 1.31429
5.11655 0.671454 1.32713
5.11268 0.671709 1.34416
5.12083 0.674999 1.36405
5.12498 0.676292 1.384
5.1211 0.677531 1.40002
5.12846 0.681236 1.44791
5.14364 0.684565 1.47075
5.14578 0.686845 1.4897
5.1359 0.686074 1.50479
5.15321 0.691683 1.54658
5.15035 0.691952 1.56461
5.15844 0.694123 1.57651
5.16259 0.696402 1.59545
5.15972 0.69667 1.61347
5.16187 0.69895 1.63242
5.159 0.699218 1.65044
5.16717 0.702538 1.67234
5.17526 0.70471 1.68425
5.1764 0.70599 1.70322
5.18357 0.70831 1.72513
5.18471 0.709591 1.74411
5.18486 0.711872 1.76308
5.19002 0.714179 1.78401
5.19418 0.715487 1.80496
5.20528 0.718685 1.81883
5.20041 0.718941 1.83587
5.21259 0.722287 1.85973
5.20572 0.722529 1.87578
5.20587 0.724825 1.89575
5.21003 0.727132 1.91668
5.22415 0.730359 1.93253
5.22329 0.731641 1.95152
5.23347 0.734988 1.9754
5.23061 0.735257 1.99342
5.23377 0.737565 2.01436
5.22991 0.738835 2.03238
5.23407 0.741157 2.05431
5.23916 0.742331 2.06626
5.24634 0.745666 2.08916
5.24549 0.746963 2.10915
5.25267 0.750298 2.13205
5.26401 0.75497 2.1779
5.26718 0.757293 2.19985
5.26425 0.758429 2.20885
5.27243 0.760778 2.23276
5.27861 0.764128 2.25667
5.2851 0.770071 2.32054
5.30133 0.775503 2.35034
5.29337 0.774598 2.35641
5.29755 0.776935 2.37935
5.30172 0.779272 2.40229
5.3069 0.782623 2.4262
5.31209 0.784975 2.45013
5.32631 0.789394 2.47896
5.32538 0.790542 2.48895
5.32755 0.792866 2.51091
5.33273 0.796217 2.53482
5.33591 0.79857 2.55877
5.3401 0.800922 2.5827
5.34328 0.803275 2.60665
5.34645 0.806613 2.62958
5.35357 0.80883 2.64449
5.35876 0.811196 2.66942
5.36495 0.814562 2.69433
5.36914 0.817928 2.71925
5.36629 0.819241 2.74026
5.37249 0.822621 2.76616
5.37768 0.825988 2.79108
5.38983 0.82926 2.80994
5.38699 0.830573 2.83095
5.39419 0.833967 2.85784
5.4014 0.837361 2.88474
5.39655 0.838661 2.90476
5.40175 0.842042 2.93068
5.40393 0.844395 2.95463
5.4221 0.849722 2.97742
5.41826 0.851036 2.99843
5.43351 0.856513 3.03124
5.4367 0.85888 3.05618
5.43789 0.861249 3.08114
5.43506 0.863577 3.10313
5.4462 0.86685 3.122
5.43935 0.868136 3.14104
5.44657 0.87156 3.16994
5.45882 0.876039 3.20278
5.45096 0.877326 3.22182
5.45517 0.880723 3.24875
5.13004 0.731326 1.38615
5.42864 0.919687 3.04234
5.43576 0.921904 3.05726
5.44298 0.926327 3.08614
5.42909 0.92556 3.10126
5.45457 0.935473 3.16393
5.35236 0.919286 2.60686
5.35455 0.921639 2.63081
5.3507 0.922938 2.65083
5.34977 0.924087 2.66082
5.35898 0.928479 2.68769
5.04812 0.778575 0.994014
5.04423 0.7788 1.00904
5.06453 0.784377 1.04881
5.0626 0.784497 1.05683
5.06573 0.786761 1.07477
5.06686 0.788012 1.09175
5.06298 0.788252 1.10777
5.07213 0.790526 1.12667
5.08028 0.793816 1.14657
5.08849 0.797225 1.17446
5.08461 0.797464 1.19049
5.09276 0.799754 1.21039
5.08588 0.799996 1.22644
5.10406 0.804323 1.24925
5.09931 0.805815 1.28227
5.10338 0.80696 1.29222
5.11154 0.81025 1.31211
5.10566 0.810491 1.32815
5.12484 0.815832 1.35193
5.12197 0.816086 1.36895
5.13012 0.819376 1.38885
5.1332 0.820522 1.39881
5.13333 0.821788 1.41679
5.12545 0.821016 1.43186
5.14263 0.826358 1.45566
5.14276 0.827624 1.47364
5.14792 0.829917 1.49357
5.15006 0.832196 1.51252
5.15614 0.833355 1.52346
5.15227 0.834609 1.54048
5.16358 0.839208 1.58133
5.17074 0.842513 1.60223
5.17188 0.843779 1.6202
5.17503 0.846072 1.64015
5.16808 0.845181 1.64721
5.18943 0.852831 1.69195
5.19359 0.855139 1.71288
5.18885 0.85666 1.7479
5.19702 0.85998 1.76979
5.19925 0.863422 1.79973
5.21142 0.866754 1.82259
5.21558 0.870061 1.84352
5.21688 0.873637 1.88246
5.22412 0.877106 1.91436
5.23776 0.887339 1.99811
5.25002 0.891848 2.03296
5.2572 0.895183 2.05586
5.26452 0.900799 2.09773
5.26568 0.902109 2.1187
5.26598 0.9067 2.15864
5.27709 0.909914 2.17351
5.26837 0.911468 2.21056
5.27656 0.914817 2.23445
5.27872 0.917141 2.2564
5.28297 0.921612 2.28831
5.28513 0.923936 2.31026
5.05872 0.831687 1.06916
5.05779 0.831821 1.07816
5.07234 0.838891 1.15096
5.08262 0.843431 1.18782
5.08771 0.84559 1.19875
5.09499 0.849132 1.23565
5.09412 0.850385 1.25264
5.10441 0.854939 1.2905
5.11491 0.861908 1.35633
5.11932 0.866719 1.41123
5.14259 0.87322 1.44596
5.13771 0.87346 1.462
5.13985 0.87574 1.48095
5.143 0.878019 1.4999
5.13913 0.878273 1.51693
5.14228 0.880567 1.53687
5.15839 0.884777 1.55169
5.15051 0.885005 1.56675
5.15265 0.886284 1.58571
5.16483 0.890616 1.60856
5.17299 0.893935 1.63045
5.16912 0.89419 1.64748
5.17628 0.897495 1.66838
5.18453 0.901963 1.70026
5.18968 0.904255 1.72019
5.19297 0.90783 1.75912
5.20028 0.913431 1.79998
5.19634 0.913552 1.80801
5.20653 0.9169 1.83189
5.04999 0.884177 0.966433
5.02958 0.925344 0.90897
4.84823 1.54321 -0.259971
4.84035 1.54044 -0.244869
4.84746 1.54366 -0.229968
4.85858 1.54789 -0.214112
4.85275 1.54622 -0.19204
4.86098 1.54967 -0.161149
4.8591 1.54889 -0.146122
4.86333 1.55135 -0.115186
4.86239 1.55147 -0.107179
4.87551 1.5567 -0.0913532
4.88286 1.56037 -0.0454566
4.8791 1.56083 -0.0144308
4.90117 1.56895 -0.00571604
4.90404 1.57466 0.110194
-2.82699 -0.41785 5.64369
-2.85841 -0.415626 5.45487
-2.86663 -0.41505 5.42592
-2.89173 -0.413194 5.28006
-2.89894 -0.412603 5.25211
-2.90023 -0.41218 5.2131
-2.90844 -0.411574 5.18615
-2.91268 -0.411045 5.15417
-2.92088 -0.411439 5.12724
-2.93246 -0.410571 5.0503
-2.94292 -0.409467 4.98935
-2.95109 -0.408801 4.9664
-2.95334 -0.409303 4.93242
-2.95857 -0.408744 4.90245
-2.9587 -0.40801 4.88444
-2.96588 -0.408346 4.86149
-2.96912 -0.407817 4.8295
-2.98249 -0.407548 4.77959
-2.98474 -0.407035 4.7466
-2.98191 -0.406363 4.72457
-2.98908 -0.405699 4.70161
-2.99923 -0.405987 4.68168
-3.0064 -0.405323 4.65873
-3.00764 -0.405781 4.62774
-3.01482 -0.405131 4.60378
-3.01605 -0.40459 4.57277
-3.01321 -0.403917 4.55074
-3.02037 -0.404223 4.5298
-3.02062 -0.403712 4.49679
-3.02977 -0.404001 4.47686
-3.03594 -0.403338 4.45389
-3.03815 -0.402751 4.42589
-3.04433 -0.403087 4.40294
-3.04148 -0.402385 4.38291
-3.04962 -0.40266 4.36397
-3.05502 -0.401456 4.30999
-3.0612 -0.401792 4.28703
-3.07253 -0.401436 4.24311
-3.07066 -0.400704 4.22508
-3.07682 -0.40101 4.20413
-3.08299 -0.400332 4.18216
-3.08222 -0.399792 4.15114
-3.09232 -0.399991 4.13722
-3.09551 -0.400359 4.11225
-3.10265 -0.399636 4.09329
-3.11386 -0.400042 4.06537
-3.12142 -0.399133 3.99141
-3.13253 -0.399332 3.97749
-3.11975 -0.398785 3.94738
-3.13679 -0.398847 3.94251
-3.13303 -0.398324 3.91047
-3.14016 -0.397585 3.89251
-3.14334 -0.397923 3.86954
-3.1475 -0.397232 3.84856
-3.14462 -0.397485 3.83154
-3.15691 -0.397039 3.79362
-3.16205 -0.397317 3.77466
-3.16522 -0.39664 3.75267
-2.79515 -0.376263 5.75185
-2.80928 -0.37652 5.73396
-2.81457 -0.376079 5.69599
-2.81788 -0.375683 5.655
-2.82808 -0.375076 5.62807
-2.82236 -0.374628 5.59101
-2.83059 -0.375081 5.56008
-2.84373 -0.374353 5.54116
-2.8421 -0.37408 5.49214
-2.85624 -0.374336 5.47425
-2.86889 -0.373615 5.38732
-2.87119 -0.373191 5.34833
-2.87743 -0.372676 5.31536
-2.88366 -0.373115 5.28541
-2.88694 -0.372661 5.24842
-2.89612 -0.37201 5.22448
-2.90827 -0.372297 5.20457
-2.89857 -0.371897 5.16449
-2.90873 -0.3722 5.14357
-2.91593 -0.371595 5.11661
-2.92018 -0.371095 5.08263
-2.92739 -0.37149 5.05568
-2.93458 -0.37087 5.02973
-2.93374 -0.371181 5.00872
-2.93403 -0.370759 4.96971
-2.95109 -0.37085 4.96284
-2.96576 -0.370157 4.87393
-2.97309 -0.369804 4.82997
-2.97731 -0.369245 4.79999
-2.98548 -0.36958 4.77706
-2.99069 -0.368976 4.75008
-3.00544 -0.368446 4.65017
-3.01781 -0.368178 4.60025
-3.0376 -0.367703 4.49638
-3.04069 -0.367879 4.48441
-3.0439 -0.367291 4.45642
-3.04908 -0.367643 4.43246
-3.05747 -0.367407 4.38051
-3.06364 -0.366743 4.35754
-3.06818 -0.366806 4.28557
-3.07434 -0.366113 4.2646
-3.08986 -0.366123 4.19571
-3.09811 -0.365606 4.16276
-3.10548 -0.365326 4.1138
-3.11263 -0.365617 4.09386
-3.11592 -0.365192 4.05487
-3.13041 -0.365145 3.98997
-3.13458 -0.365482 3.96701
-3.14401 -0.36432 3.91005
-2.79296 -0.294007 5.76862
-2.79728 -0.293626 5.72664
-2.8065 -0.294049 5.69772
-2.81474 -0.294517 5.66578
-2.81804 -0.294107 5.62579
-2.8312 -0.294408 5.60489
-2.83253 -0.294059 5.56089
-2.83172 -0.294445 5.53489
-2.84487 -0.294716 5.51599
-2.84227 -0.294503 5.46296
-2.8554 -0.29476 5.44506
-2.85672 -0.294396 5.40206
-2.8669 -0.294729 5.37914
-2.87314 -0.295198 5.34719
-2.87462 -0.295145 5.28319
-2.88478 -0.295449 5.26227
-2.89201 -0.294903 5.23131
-2.89725 -0.295373 5.19935
-2.9084 -0.295661 5.17944
-2.91364 -0.295131 5.14746
-2.91182 -0.295488 5.12345
-2.9131 -0.296035 5.08646
-2.92129 -0.295399 5.06151
-2.93244 -0.295687 5.0416
-2.93175 -0.296295 5.0006
-2.9429 -0.295583 4.98067
-2.94811 -0.295994 4.95271
-2.94826 -0.29629 4.93271
-2.94953 -0.295822 4.89671
-2.95573 -0.296217 4.86976
-2.96094 -0.296628 4.8418
-2.96715 -0.296023 4.81483
-2.97828 -0.296282 4.79692
-2.97349 -0.296685 4.76988
-2.97967 -0.296051 4.74492
-2.98587 -0.296432 4.71897
-2.99502 -0.296721 4.69904
-2.99824 -0.297163 4.66906
-2.99752 -0.296711 4.63205
-2.99666 -0.296979 4.61404
-3.00581 -0.297268 4.59411
-3.01594 -0.297527 4.57619
-3.01915 -0.29694 4.5482
-3.02634 -0.29729 4.52426
-3.03769 -0.296978 4.47733
-3.03387 -0.297336 4.45331
-3.03806 -0.297718 4.42734
-3.04918 -0.297932 4.41242
-3.05437 -0.297298 4.38745
-3.06054 -0.297634 4.3645
-3.06077 -0.298093 4.3335
-3.07002 -0.298575 4.30057
-3.07223 -0.297988 4.27258
-3.07839 -0.298295 4.25163
-3.08379 -0.298091 4.19766
-3.09193 -0.298351 4.17972
-3.09424 -0.298957 4.13874
-3.10337 -0.299202 4.12181
-3.1137 -0.298846 4.07788
-3.11392 -0.299275 4.04888
-3.12226 -0.29895 4.00293
-3.12533 -0.299081 3.99396
-3.1307 -0.299803 3.945
-3.13983 -0.299048 3.92806
-3.14597 -0.299325 3.9091
-3.14815 -0.299679 3.88512
-3.15262 -0.299594 3.82315
-3.16074 -0.299825 3.80721
-3.17103 -0.300395 3.76829
-3.17024 -0.30081 3.74029
-3.1743 -0.299926 3.7323
-2.9176 -0.264087 5.15003
-2.93343 -0.264719 5.03915
-2.94486 -0.264555 4.98222
-2.95207 -0.26495 4.95528
-2.96249 -0.265771 4.89936
-2.97207 -0.265905 4.82243
-2.97826 -0.26627 4.79747
-2.98347 -0.266696 4.76852
-2.98571 -0.266154 4.73752
-2.99387 -0.266473 4.71558
-2.99599 -0.266694 4.7006
-2.99822 -0.267151 4.66962
-3.00638 -0.267471 4.64768
-3.00762 -0.266929 4.61668
-3.01479 -0.267265 4.59374
-3.01899 -0.267662 4.56677
-3.0232 -0.268073 4.5388
-3.02234 -0.26834 4.5208
-3.02258 -0.267814 4.48879
-3.02678 -0.268196 4.46282
-3.03393 -0.268502 4.44188
-3.03715 -0.268914 4.4139
-3.04628 -0.269174 4.39597
-3.04751 -0.268617 4.36597
-3.04763 -0.268854 4.34997
-3.05996 -0.269497 4.30607
-3.06216 -0.269895 4.27909
-3.0735 -0.269553 4.23416
-3.06965 -0.269852 4.21414
-3.08 -0.270526 4.16822
-3.09308 -0.270679 4.15732
-3.09648 -0.270477 4.10333
-3.10362 -0.270738 4.08539
-3.10294 -0.271375 4.04239
-3.11306 -0.27159 4.02746
-3.11645 -0.272357 3.97549
-3.14747 -0.273349 3.83972
-3.15282 -0.273041 3.79275
-3.15292 -0.273219 3.78075
-3.17171 -0.27376 3.67589
-2.78694 -0.21308 5.76338
-2.80727 -0.139814 5.71244
-2.80763 -0.140509 5.66545
-2.81489 -0.141022 5.6305
-2.82608 -0.142384 5.60561
-2.83234 -0.142883 5.57166
-2.83563 -0.143458 5.53268
-2.84368 -0.143556 5.52574
-2.84304 -0.144267 5.47774
-2.85816 -0.144478 5.46286
-2.86047 -0.146084 5.42189
-2.86506 -0.14725 5.34293
-2.87722 -0.147552 5.32203
-2.87836 -0.148833 5.30305
-2.88953 -0.14915 5.28114
-2.89509 -0.150257 5.20619
-2.9023 -0.150651 5.17924
-2.90473 -0.152508 5.12128
-2.91292 -0.152873 5.09634
-2.92141 -0.153829 5.03141
-2.92467 -0.15433 4.99744
-2.93285 -0.155679 4.97352
-2.9392 -0.156371 4.92657
-2.95162 -0.157176 4.87167
-2.97443 -0.159759 4.76386
-2.9778 -0.160482 4.71489
-3.00158 -0.16299 4.6121
-3.02247 -0.164737 4.49326
-3.02766 -0.166103 4.46832
-3.06836 -0.170405 4.24366
-3.07893 -0.171523 4.16774
-3.11003 -0.174677 4.021
-3.12682 -0.177204 3.91715
-3.13811 -0.177774 3.87824
-3.1394 -0.178335 3.84025
-3.15069 -0.178905 3.80134
-3.1509 -0.180319 3.77336
-3.15605 -0.180597 3.7544
-3.17624 -0.180967 3.72856
-2.80878 -0.100853 5.64187
-2.81503 -0.101352 5.60792
-2.85893 -0.108052 5.35631
-2.89024 -0.112605 5.18259
-2.99442 -0.126732 4.62951
-3.04455 -0.133886 4.34695
-3.10879 -0.141237 4.0505
-3.13786 -0.144318 3.90875
-3.13905 -0.145702 3.88277
-3.14153 -0.146634 3.8198
-3.14866 -0.146895 3.80185
-3.154 -0.148557 3.75691
-3.16756 -0.150643 3.68303
-3.55222 -0.195147 1.60731
-3.56382 -0.197309 1.52841
-3.56686 -0.197395 1.52244
-3.57316 -0.197968 1.48349
-3.58149 -0.198614 1.43955
-3.59177 -0.199154 1.40263
-3.59506 -0.199729 1.36366
-3.61047 -0.200518 1.30978
-3.61869 -0.200956 1.27985
-3.62732 -0.203178 1.19693
-3.63351 -0.203544 1.17198
-3.6356 -0.20372 1.16
-3.63679 -0.204104 1.13401
-3.64192 -0.204352 1.11705
-3.64302 -0.204544 1.10406
-3.64721 -0.204911 1.07909
-3.65129 -0.205071 1.06812
-3.65851 -0.20551 1.03818
-3.6608 -0.206071 1.0002
-2.81761 -0.0535707 5.66023
-2.84612 -0.0605259 5.45952
-2.85729 -0.0608436 5.43761
-2.86353 -0.0623128 5.40567
-2.86781 -0.0628575 5.36871
-2.877 -0.0642357 5.3428
-2.88127 -0.0647509 5.30783
-2.88849 -0.066175 5.2789
-2.88864 -0.0664858 5.25791
-2.89192 -0.0680312 5.22095
-2.89716 -0.0685013 5.18899
-2.90535 -0.0698654 5.16407
-2.9178 -0.0717299 5.10518
-2.92516 -0.0734352 5.05726
-2.93956 -0.0742095 5.00437
-2.94704 -0.0761517 4.94044
-2.95439 -0.0778274 4.89452
-2.96284 -0.0797096 4.8346
-2.97101 -0.0810442 4.81168
-2.97524 -0.0814853 4.78171
-2.98143 -0.081851 4.75676
-2.98256 -0.0831018 4.73979
-2.9838 -0.0835896 4.7068
-2.98901 -0.0849855 4.67986
-2.99817 -0.0853046 4.65793
-3.00337 -0.0856858 4.63197
-3.00757 -0.0870825 4.60502
-3.00981 -0.0875399 4.57404
-3.00994 -0.0887914 4.55705
-3.01612 -0.0891571 4.5321
-3.02526 -0.089417 4.51417
-3.03243 -0.0907522 4.49124
-3.03267 -0.0912111 4.46025
-3.04379 -0.0914548 4.44333
-3.04898 -0.0928211 4.41839
-3.0402 -0.0932569 4.38932
-3.05033 -0.0945011 4.37242
-3.06144 -0.0947152 4.3575
-3.06365 -0.0951282 4.32952
-3.0629 -0.0966173 4.29653
-3.0661 -0.097 4.27056
-3.0782 -0.0971837 4.25765
-3.07633 -0.0984515 4.23965
-3.07458 -0.0989414 4.20664
-3.08272 -0.0992168 4.1877
-3.09086 -0.100477 4.16978
-3.09703 -0.100799 4.14783
-3.10218 -0.101106 4.12687
-3.1034 -0.102519 4.0989
-3.10153 -0.102787 4.08088
-3.10867 -0.103064 4.06194
-3.11581 -0.103325 4.04399
-3.119 -0.104693 4.01904
-3.12713 -0.104953 4.0011
-3.12833 -0.105337 3.97511
-3.1325 -0.106675 3.95216
-3.13359 -0.106852 3.94017
-3.14073 -0.107113 3.92222
-3.13698 -0.108604 3.88921
-3.14332 -0.109266 3.84426
-3.15343 -0.110481 3.82935
-3.15353 -0.110673 3.81636
-3.15372 -0.111058 3.79036
-3.15987 -0.111335 3.77141
-3.16898 -0.11255 3.75649
-3.17412 -0.112828 3.73753
-3.17531 -0.113182 3.71354
-3.55493 -0.165615 1.64289
-3.56096 -0.16567 1.63894
-3.56406 -0.16586 1.62596
-3.56417 -0.167068 1.61198
-3.5583 -0.167338 1.59394
-3.56737 -0.167465 1.58501
-3.56748 -0.167672 1.57101
-3.57555 -0.167814 1.56107
-3.57163 -0.167965 1.55104
-3.57472 -0.168141 1.53907
-3.57383 -0.168364 1.52406
-3.57891 -0.168523 1.5131
-3.58002 -0.168729 1.49911
-3.58919 -0.169063 1.47618
-3.57928 -0.170248 1.46412
-3.59344 -0.170549 1.44323
-3.59355 -0.170756 1.42923
-3.60073 -0.171106 1.40529
-3.59779 -0.171242 1.39627
-3.60099 -0.171624 1.37029
-3.61006 -0.171751 1.36136
-3.60328 -0.1722 1.33131
-3.60738 -0.17239 1.31834
-3.61944 -0.172499 1.31044
-3.61052 -0.173654 1.30038
-3.61561 -0.173828 1.28842
-3.62767 -0.172937 1.2805
-3.62289 -0.17437 1.25148
-3.62996 -0.174513 1.24154
-3.6201 -0.174787 1.22346
-3.62912 -0.174825 1.22053
-3.63022 -0.175016 1.20754
-3.62932 -0.17521 1.19453
-3.6364 -0.175367 1.18359
-3.64048 -0.175527 1.17262
-3.64358 -0.175718 1.15964
-3.63665 -0.175856 1.15059
-3.65369 -0.175932 1.14472
-3.63784 -0.17624 1.1246
-3.64393 -0.176398 1.11365
-3.65 -0.176542 1.1037
-3.65409 -0.176717 1.09173
-3.64721 -0.177959 1.07569
-3.66122 -0.176963 1.07478
-3.6655 -0.178508 1.03783
-3.66261 -0.178732 1.02281
-3.67268 -0.178858 1.01389
-3.67677 -0.179033 1.00192
-3.66693 -0.179366 0.979849
-3.67502 -0.179523 0.968911
-2.82267 -0.0207483 5.64779
-2.8352 -0.0227756 5.5779
-2.86463 -0.0295525 5.3892
-2.88023 -0.0327256 5.30935
-2.89368 -0.0345893 5.25047
-2.89398 -0.0361813 5.21049
-2.9084 -0.0379999 5.15462
-2.90885 -0.0398732 5.09564
-2.92424 -0.0416319 5.04378
-2.93539 -0.0429198 5.02388
-2.94258 -0.0432848 4.99893
-2.94682 -0.0447554 4.96698
-2.95104 -0.0451966 4.93702
-2.95217 -0.0464326 4.92104
-2.95937 -0.0468272 4.8941
-2.95372 -0.0485124 4.84807
-2.96809 -0.0502274 4.7992
-2.97824 -0.051516 4.77929
-2.9785 -0.053034 4.74431
-2.98358 -0.0531784 4.73435
-2.97988 -0.0547733 4.69434
-2.99891 -0.0538336 4.68947
-2.99028 -0.0565504 4.64144
-3.00239 -0.0567637 4.62653
-3.00364 -0.0582514 4.59356
-3.00377 -0.058503 4.57656
-3.02008 -0.0600982 4.5357
-3.01736 -0.0606628 4.49768
-3.02847 -0.061862 4.48378
-3.03069 -0.0623046 4.4538
-3.03292 -0.0637471 4.42384
-3.0466 -0.0670696 4.33398
-3.05079 -0.0674368 4.30901
-3.06213 -0.0690948 4.26411
-3.10468 -0.0761138 4.05851
-3.10291 -0.0765593 4.0285
-3.10906 -0.0778509 4.00856
-3.11224 -0.078204 3.98459
-3.11334 -0.0783957 3.9716
-3.12146 -0.0796266 3.95567
-3.13652 -0.0797489 3.94679
-3.13812 -0.0819174 3.86782
-3.1404 -0.0834636 3.83086
-3.1608 -0.0852334 3.77803
-3.15604 -0.0857107 3.746
-3.16534 -0.0872962 3.70608
-3.55308 -0.14593 1.62159
-3.56514 -0.14604 1.61368
-3.5632 -0.146159 1.60566
-3.55833 -0.146415 1.58863
-3.56939 -0.146525 1.58071
-3.56651 -0.146764 1.56469
-3.57259 -0.146923 1.55374
-3.56982 -0.148369 1.52373
-3.56887 -0.148473 1.51673
-3.58193 -0.147582 1.50881
-3.57107 -0.148871 1.48975
-3.58712 -0.148948 1.48387
-3.58733 -0.149363 1.45587
-3.58544 -0.149586 1.44086
-3.5845 -0.149691 1.43385
-3.59567 -0.150023 1.41094
-3.59178 -0.151248 1.39592
-3.60285 -0.150373 1.38699
-3.59697 -0.151614 1.37097
-3.60505 -0.151757 1.36103
-3.60211 -0.151877 1.35301
-3.61118 -0.152019 1.34307
-3.60729 -0.152244 1.32805
-3.60839 -0.152435 1.31506
-3.61547 -0.152593 1.30411
-3.61856 -0.152769 1.29213
-3.61468 -0.152994 1.27711
-3.61672 -0.153081 1.27112
-3.62679 -0.153207 1.2622
-3.62988 -0.153382 1.25022
-3.6251 -0.154815 1.2212
-3.63627 -0.155133 1.19929
-3.63542 -0.15543 1.17929
-3.6386 -0.155797 1.15431
-3.63571 -0.156007 1.14029
-3.65291 -0.156394 1.11342
-3.6561 -0.156762 1.08845
-3.65221 -0.156972 1.07442
-3.6553 -0.157148 1.06244
-3.65939 -0.157322 1.05048
-3.6704 -0.157344 1.04856
-3.66152 -0.157587 1.03249
-3.67459 -0.157711 1.02359
-3.6697 -0.157922 1.00956
-3.67379 -0.158097 0.997588
-3.67588 -0.158273 0.985605
-3.67997 -0.158448 0.973637
-3.67004 -0.159588 0.964578
-3.67612 -0.159746 0.953624
-2.80503 0.0224485 5.72902
-2.81327 0.0209807 5.6971
-2.81776 0.0180365 5.63317
-2.825 0.016568 5.60124
-2.83519 0.0161905 5.57532
-2.83947 0.0146458 5.53837
-2.84869 0.0132232 5.50946
-2.8602 0.0102248 5.44158
-2.8584 0.00983853 5.41557
-2.86169 0.00827832 5.37761
-2.87188 0.00691565 5.35271
-2.87615 0.00538579 5.31676
-2.88665 0.00241632 5.25087
-2.89303 0.000665873 5.19994
-2.89729 -0.000834389 5.16599
-2.90745 -0.00115277 5.14406
-2.91072 -0.00266856 5.10911
-2.91694 -0.00409335 5.08017
-2.92216 -0.00553368 5.05023
-2.92443 -0.007065 5.01426
-2.92952 -0.00722419 5.0033
-2.93572 -0.00861937 4.97636
-2.94391 -0.00898361 4.95143
-2.94814 -0.0104247 4.92148
-2.95632 -0.0117888 4.89656
-2.95872 -0.013557 4.84459
-2.96196 -0.0150283 4.81263
-2.97704 -0.0151803 4.80175
-2.97337 -0.0168196 4.75874
-2.98154 -0.0181541 4.73582
-2.99069 -0.0184436 4.71589
-2.99689 -0.019824 4.68995
-2.99109 -0.0212279 4.66293
-2.99826 -0.0215633 4.63998
-3.00149 -0.023005 4.61002
-3.01064 -0.0232945 4.59009
-3.00892 -0.0248436 4.5531
-3.01806 -0.0261182 4.53418
-3.02621 -0.0264084 4.51425
-3.02338 -0.0277361 4.49224
-3.02758 -0.0281181 4.46627
-3.04067 -0.028301 4.45337
-3.03696 -0.0298663 4.41536
-3.0461 -0.0311261 4.39745
-3.0503 -0.0315229 4.37048
-3.04942 -0.0327603 4.35449
-3.05362 -0.034157 4.32754
-3.05682 -0.0345396 4.30157
-3.06199 -0.0358764 4.27862
-3.06618 -0.0362435 4.25366
-3.06839 -0.0376564 4.22569
-3.07753 -0.0379163 4.20776
-3.07885 -0.0395372 4.16579
-3.08303 -0.0409042 4.14084
-3.09117 -0.0411648 4.1229
-3.10029 -0.042395 4.10698
-3.10051 -0.0428243 4.07799
-3.11161 -0.0430087 4.06507
-3.11172 -0.0442306 4.05009
-3.11193 -0.0446451 4.02209
-3.11413 -0.0460284 3.99613
-3.12423 -0.0462284 3.9822
-3.1195 -0.04775 3.94719
-3.13257 -0.0478737 3.93829
-3.1407 -0.0491342 3.92036
-3.13684 -0.0494036 3.90234
-3.14793 -0.049588 3.88942
-3.15012 -0.0509565 3.86445
-3.14735 -0.0524027 3.83445
-3.15052 -0.0527409 3.81148
-3.15864 -0.052972 3.79554
-3.16083 -0.0543256 3.77157
-3.59923 -0.128149 1.33463
-3.60651 -0.129691 1.2977
-3.61793 -0.130512 1.24179
-3.63767 -0.131949 1.14395
-3.64276 -0.132123 1.13199
-3.65536 -0.134298 1.0521
-3.65655 -0.134682 1.02612
-3.65864 -0.134858 1.01413
-3.66273 -0.135018 1.00316
-3.66905 -0.13665 0.96023
-3.67513 -0.135809 0.949262
-3.02636 0.0102619 4.4917
