-3.64488 1.25546 0.697193
-3.64797 1.2553 0.686217
-3.64801 1.25421 0.680233
-3.64711 1.25302 0.667242
-3.66317 1.25791 0.659289
-3.65128 1.25168 0.64429
-3.65237 1.2515 0.632299
-3.66444 1.25438 0.623346
-3.65855 1.25117 0.609347
-3.66967 1.25294 0.593403
-3.66177 1.24872 0.579404
-3.66886 1.25057 0.568428
-3.66505 1.24619 0.543461
-3.66913 1.24703 0.532478
-3.67916 1.24998 0.528509
-3.67127 1.24577 0.51451
-3.67335 1.24561 0.503527
-3.68941 1.25049 0.494574
-3.67852 1.24527 0.480567
-3.6826 1.24611 0.469584
-3.69268 1.24895 0.458616
-3.68184 1.24265 0.438625
-3.6949 1.24653 0.429665
-3.68801 1.24332 0.415659
-3.69009 1.24315 0.404675
-3.70117 1.24601 0.394715
-3.68928 1.24078 0.379701
-3.69232 1.24071 0.374724
-3.70339 1.24457 0.364749
-3.70158 1.24221 0.340767
-3.71265 1.24507 0.330807
-3.475 1.40766 1.7298
-3.48009 1.40649 1.71786
-3.49115 1.40938 1.7099
-3.48429 1.40311 1.69193
-3.50033 1.40703 1.686
-3.50044 1.40382 1.67204
-3.50348 1.40373 1.66607
-3.5016 1.40051 1.6511
-3.49075 1.39221 1.63114
-3.50879 1.39715 1.6262
-3.51188 1.39596 1.61324
-3.49606 1.38562 1.59127
-3.4991 1.38553 1.58529
-3.50817 1.38741 1.57633
-3.51127 1.38522 1.56339
-3.52243 1.3849 1.54147
-3.52868 1.38143 1.50956
-3.5238 1.37619 1.4936
-3.52988 1.37603 1.48265
-3.527 1.37281 1.46767
-3.53607 1.37367 1.45773
-3.53319 1.37044 1.44275
-3.53932 1.3692 1.42581
-3.53643 1.36497 1.41085
-3.54063 1.36159 1.38493
-3.55079 1.36127 1.36301
-3.55394 1.35899 1.34406
-3.55524 1.3524 1.30417
-3.55335 1.34919 1.2902
-3.57802 1.34289 1.20146
-3.5712 1.33755 1.17849
-3.62424 1.31559 0.909177
-3.62144 1.31121 0.883217
-3.64423 1.30567 0.778456
-3.64362 1.29893 0.728544
-3.66323 1.29774 0.647698
-3.68089 1.29445 0.559868
-3.67798 1.29227 0.547877
-3.67526 1.28772 0.510919
-3.69882 1.28964 0.437057
-3.70613 1.28904 0.396116
-3.70622 1.28786 0.384132
-3.70831 1.28769 0.372149
-3.7054 1.28551 0.360158
-3.70549 1.28433 0.348174
-3.71053 1.28526 0.343198
-3.71462 1.28609 0.331214
-3.70672 1.28189 0.318215
-3.49265 1.44534 1.63937
-3.49674 1.44416 1.62741
-3.4988 1.44306 1.62044
-3.50299 1.43868 1.59454
-3.50211 1.43546 1.57957
-3.50619 1.4353 1.56861
-3.51726 1.43717 1.55966
-3.51936 1.43498 1.54671
-3.51742 1.43286 1.53872
-3.51553 1.42864 1.52377
-3.51066 1.4244 1.50779
-3.51973 1.42526 1.49785
-3.51586 1.42102 1.48188
-3.52592 1.42289 1.47293
-3.533 1.42375 1.46296
-3.53007 1.42061 1.45399
-3.53515 1.42045 1.44303
-3.52928 1.4152 1.42606
-3.52938 1.41301 1.41309
-3.53646 1.41285 1.40214
-3.53855 1.41167 1.39018
-3.5417 1.40939 1.37123
-3.54778 1.40923 1.36028
-3.55386 1.40908 1.34932
-3.54998 1.40585 1.33434
-3.55208 1.40366 1.32139
-3.55517 1.40249 1.30943
-3.56025 1.40233 1.29846
-3.56239 1.40005 1.27951
-3.56449 1.39886 1.26654
-3.57277 1.39533 1.23065
-3.57093 1.39102 1.2097
-3.57601 1.39086 1.19874
-3.58244 1.38402 1.14188
-3.58752 1.38386 1.13092
-3.58971 1.38049 1.10598
-3.59898 1.37798 1.07109
-3.59903 1.37788 1.06409
-3.60321 1.37452 1.04016
-3.6053 1.37435 1.02818
-3.6045 1.36996 1.00224
-3.61059 1.3708 0.991268
-3.61472 1.36954 0.973315
-3.616 1.36399 0.936402
-3.62009 1.36382 0.924434
-3.62651 1.35901 0.869546
-3.63059 1.35885 0.858577
-3.63577 1.35751 0.835633
-3.637 1.35406 0.804689
-3.64227 1.35153 0.768761
-3.6455 1.34909 0.738818
-3.65177 1.34656 0.702897
-3.65985 1.34842 0.692929
-3.654 1.34412 0.672946
-3.66407 1.34697 0.662978
-3.66435 1.34244 0.627042
-3.66454 1.34007 0.602075
-3.66957 1.342 0.597084
-3.67475 1.34166 0.574125
-3.67783 1.3415 0.563149
-3.67901 1.33915 0.53919
-3.67811 1.33796 0.526199
-3.68424 1.33771 0.509246
-3.68333 1.33653 0.497255
-3.6914 1.33839 0.487287
-3.68651 1.33518 0.473296
-3.69258 1.33703 0.463313
-3.69173 1.33475 0.444337
-3.69282 1.33358 0.432361
-3.69091 1.3324 0.420363
-3.692 1.33122 0.408387
-3.70108 1.33408 0.398411
-3.69922 1.3318 0.379429
-3.70829 1.33465 0.369453
-3.70638 1.33247 0.357469
-3.70548 1.3313 0.345478
-3.71065 1.33196 0.322504
-3.51097 1.48366 1.59293
-3.50107 1.47648 1.58096
-3.51013 1.47835 1.572
-3.50527 1.4731 1.55504
-3.50537 1.46989 1.54108
-3.51843 1.47278 1.53314
-3.51853 1.47059 1.52017
-3.51764 1.46738 1.50621
-3.52179 1.46509 1.48627
-3.51801 1.45766 1.45735
-3.52709 1.45852 1.4474
-3.52519 1.45531 1.43343
-3.52823 1.45524 1.42846
-3.53232 1.45506 1.41649
-3.53541 1.45389 1.40453
-3.53751 1.4517 1.39158
-3.53264 1.44746 1.3756
-3.5417 1.44833 1.36665
-3.53787 1.443 1.3447
-3.54296 1.44283 1.33274
-3.54605 1.44167 1.32178
-3.55014 1.44049 1.30982
-3.55821 1.44235 1.29986
-3.55133 1.43711 1.28388
-3.56439 1.44 1.27593
-3.55348 1.43383 1.26494
-3.55468 1.42945 1.23901
-3.56873 1.43334 1.23106
-3.57701 1.43081 1.19515
-3.56719 1.42245 1.1712
-3.57925 1.42534 1.16325
-3.58144 1.42197 1.13831
-3.57556 1.41773 1.12233
-3.57965 1.41757 1.11136
-3.58568 1.41851 1.10739
-3.59475 1.42137 1.09741
-3.58687 1.41515 1.08245
-3.58298 1.41092 1.06748
-3.58906 1.41178 1.05751
-3.60311 1.41667 1.04954
-3.59922 1.41246 1.03557
-3.60127 1.41237 1.02959
-3.60237 1.41018 1.01663
-3.59249 1.40394 1.00064
-3.60655 1.40883 0.992675
-3.60864 1.40765 0.980706
-3.60574 1.40446 0.96773
-3.61381 1.40631 0.957762
-3.61187 1.40421 0.950777
-3.61396 1.40303 0.938809
-3.61106 1.39982 0.924833
-3.61615 1.40067 0.913857
-3.61325 1.39747 0.900881
-3.62431 1.40035 0.89192
-3.62939 1.40119 0.880945
-3.61747 1.39503 0.870944
-3.62056 1.39485 0.858969
-3.63363 1.39773 0.850023
-3.61776 1.38947 0.833024
-3.63391 1.39318 0.813088
-3.63201 1.39099 0.800104
-3.62806 1.38788 0.793119
-3.64213 1.39276 0.784152
-3.63823 1.38956 0.771168
-3.64232 1.38939 0.7592
-3.63842 1.3862 0.746216
-3.64848 1.38907 0.737248
-3.65561 1.38982 0.720288
-3.64274 1.38258 0.704296
-3.6548 1.38645 0.695328
-3.65389 1.38427 0.683352
-3.65299 1.38308 0.670361
-3.6471 1.37887 0.656377
-3.65114 1.3788 0.651408
-3.65522 1.37964 0.640425
-3.65531 1.37846 0.628441
-3.65939 1.3783 0.617473
-3.65749 1.37611 0.604489
-3.65658 1.37493 0.592498
-3.6657 1.3767 0.576539
-3.67179 1.37754 0.56557
-3.67088 1.37635 0.55258
-3.67397 1.37619 0.541604
-3.66907 1.37299 0.528612
-3.67914 1.37585 0.518644
-3.67624 1.37365 0.505653
-3.68328 1.37559 0.500677
-3.67638 1.37139 0.487685
-3.67847 1.37121 0.475702
-3.68155 1.37105 0.464726
-3.68963 1.37289 0.453758
-3.68273 1.3697 0.440752
-3.68881 1.37054 0.429784
-3.69185 1.37147 0.424792
-3.69594 1.37229 0.412809
-3.69521 1.36876 0.376851
-3.69539 1.3664 0.352884
-3.70052 1.36716 0.335909
-3.70061 1.36598 0.323925
-3.71477 1.37068 0.30296
-3.72498 1.37225 0.274009
-3.72517 1.3699 0.250042
-3.73565 1.36996 0.186111
-3.73101 1.36525 0.13814
-3.73614 1.366 0.121165
-3.74132 1.36665 0.0971909
-3.7454 1.36749 0.0862077
-3.52833 1.48701 1.41299
-3.54337 1.49093 1.40704
-3.53352 1.48365 1.38807
-3.53461 1.48145 1.37511
-3.54164 1.48341 1.37213
-3.54384 1.47902 1.34521
-3.54295 1.47581 1.33125
-3.54813 1.47346 1.30732
-3.55337 1.47 1.27641
-3.55347 1.4668 1.26245
-3.55955 1.46765 1.25249
-3.56464 1.46748 1.24053
-3.56275 1.46427 1.22656
-3.56489 1.46199 1.2076
-3.5631 1.45559 1.18068
-3.57117 1.45745 1.17071
-3.57326 1.45627 1.15874
-3.56938 1.45205 1.14378
-3.58144 1.45494 1.13582
-3.58069 1.44945 1.10289
-3.58278 1.44827 1.09093
-3.58796 1.44692 1.06698
-3.58906 1.44473 1.05402
-3.58412 1.44161 1.04603
-3.5922 1.44246 1.03607
-3.5913 1.44027 1.0231
-3.60355 1.43978 0.989193
-3.60189 1.43211 0.944288
-3.61097 1.43497 0.934313
-3.61819 1.43354 0.905384
-3.61439 1.42714 0.878447
-3.61448 1.42597 0.866463
-3.61976 1.42244 0.83055
-3.62289 1.42219 0.813575
-3.62498 1.42101 0.801607
-3.62707 1.41983 0.789638
-3.63723 1.42152 0.767687
-3.63647 1.41706 0.736743
-3.64691 1.41319 0.677871
-3.66011 1.4158 0.650928
-3.65441 1.40922 0.611977
-3.6575 1.40906 0.601001
-3.6688 1.40848 0.561089
-3.6639 1.40528 0.548098
-3.67397 1.40814 0.53813
-3.69385 1.40442 0.421319
-3.69426 1.39962 0.367386
-3.69834 1.40046 0.356402
-3.70343 1.4013 0.345427
-3.70252 1.40012 0.333436
-3.71659 1.40499 0.323468
-3.70769 1.40079 0.310462
-3.71477 1.40263 0.299486
-3.70692 1.39734 0.280503
-3.71101 1.39817 0.26852
-3.72308 1.40303 0.258537
-3.71618 1.39883 0.245546
-3.71827 1.39865 0.233562
-3.72031 1.39958 0.228563
-3.7224 1.39941 0.21658
-3.72748 1.40025 0.205604
-3.73256 1.40209 0.194614
-3.73765 1.40291 0.182638
-3.73174 1.39973 0.170639
-3.74082 1.40257 0.159664
-3.73188 1.39846 0.152656
-3.73896 1.40131 0.141666
-3.73705 1.39913 0.129682
-3.74123 1.39978 0.105701
-3.75539 1.40446 0.0837353
-3.76488 1.4045 0.0187972
-3.75698 1.40032 0.00679788
-3.77136 1.40456 -0.0451636
-3.59919 1.48244 1.03354
-3.59923 1.48135 1.02755
-3.59634 1.47814 1.01357
-3.6094 1.48203 1.00561
-3.60949 1.48085 0.993631
-3.60979 1.47427 0.954725
-3.61182 1.4742 0.949741
-3.61092 1.47201 0.936765
-3.616 1.47185 0.925804
-3.62009 1.47168 0.913836
-3.62219 1.4715 0.901852
-3.62029 1.46831 0.888883
-3.62437 1.46815 0.877915
-3.61952 1.46385 0.857939
-3.6246 1.46369 0.846979
-3.6247 1.46249 0.833995
-3.62479 1.46032 0.822026
-3.62489 1.45913 0.809043
-3.62997 1.45898 0.799082
-3.62812 1.45568 0.779114
-3.63021 1.45451 0.767146
-3.63329 1.45435 0.75617
-3.64735 1.45924 0.748202
-3.64654 1.45587 0.723243
-3.64659 1.45476 0.716258
-3.64768 1.4536 0.705282
-3.64778 1.45241 0.692299
-3.65186 1.45325 0.681316
-3.65494 1.45309 0.67034
-3.66501 1.45595 0.660372
-3.65214 1.4487 0.64438
-3.65717 1.44965 0.640403
-3.66924 1.45351 0.630436
-3.65935 1.44829 0.616436
-3.66044 1.44712 0.60446
-3.67051 1.44998 0.594493
-3.67859 1.45183 0.584525
-3.66068 1.44366 0.573509
-3.66875 1.44552 0.563541
-3.66694 1.44214 0.538574
-3.67302 1.443 0.528606
-3.67321 1.44063 0.503639
-3.69049 1.44408 0.465713
-3.68868 1.44071 0.440745
-3.69975 1.44457 0.43077
-3.6919 1.43928 0.411787
-3.69798 1.44112 0.400804
-3.70815 1.44279 0.377853
-3.71323 1.44463 0.366862
-3.72911 1.44091 0.250021
-3.7322 1.44173 0.23803
-3.74387 1.44044 0.150125
-3.74895 1.44128 0.139149
-3.75535 1.4405 0.0862018
-3.75644 1.44032 0.074211
-3.75162 1.43696 0.0502211
-3.75984 1.43954 0.0212409
-3.76393 1.44037 0.00925785
-3.7661 1.44003 -0.0137239
-3.76519 1.43885 -0.025715
-3.77732 1.44361 -0.0426964
-3.77841 1.44343 -0.0546872
-3.78359 1.44508 -0.0786759
-3.78568 1.4459 -0.090674
-3.78181 1.44263 -0.108657
-3.79089 1.44647 -0.119647
-3.79398 1.4473 -0.131638
-3.79825 1.44877 -0.167632
-3.80139 1.4485 -0.185607
-3.80157 1.44815 -0.209604
-3.80165 1.44799 -0.220602
-3.66398 1.50694 0.659609
-3.67348 1.50197 0.593745
-3.67257 1.50079 0.581754
5.04515 -0.448031 0.700941
5.04227 -0.447792 0.716961
5.03739 -0.447552 0.732997
5.04152 -0.447303 0.749964
5.05066 -0.448043 0.767909
5.05686 -0.447648 0.79486
5.05999 -0.447398 0.811835
5.06412 -0.448135 0.829817
5.05824 -0.446908 0.844846
5.05936 -0.447657 0.86185
5.06751 -0.447382 0.880788
5.07258 -0.447237 0.890749
5.0697 -0.447013 0.905769
5.06782 -0.44676 0.922782
5.08498 -0.447461 0.943666
5.08511 -0.44721 0.960664
5.08136 -0.446718 0.993689
5.09645 -0.447537 1.00659
5.09771 -0.447034 1.04058
5.09784 -0.446783 1.05757
5.09509 -0.447277 1.09161
5.10624 -0.446989 1.11152
5.10858 -0.447339 1.15552
5.11485 -0.446796 1.19247
5.11799 -0.446531 1.21044
5.11712 -0.447279 1.22746
5.13135 -0.44683 1.25835
5.12647 -0.44659 1.27439
5.13175 -0.447046 1.31136
5.14097 -0.446608 1.34129
5.14853 -0.447518 1.41525
5.16083 -0.446934 1.45516
5.16432 -0.446974 1.52014
5.21979 -0.448142 1.84879
5.23413 -0.448486 1.89369
5.2543 -0.449205 2.04857
5.27319 -0.449457 2.16745
5.28879 -0.449298 2.24634
5.28593 -0.450014 2.26537
5.30964 -0.45064 2.35922
5.31976 -0.45041 2.37514
5.31521 -0.450503 2.43618
5.31939 -0.451166 2.45916
5.32155 -0.450841 2.48115
5.33501 -0.450948 2.54205
5.34337 -0.451243 2.59
5.35081 -0.451389 2.64796
5.357 -0.452009 2.67392
5.36219 -0.452642 2.6989
5.38806 -0.452958 2.81372
5.40145 -0.454183 2.86665
5.40617 -0.453779 2.96162
5.42687 -0.455402 3.0555
5.43729 -0.455595 3.11043
5.42933 -0.4555 3.11649
5.44559 -0.456009 3.15038
5.43974 -0.455708 3.17042
5.45098 -0.456243 3.20235
5.44814 -0.455915 3.22437
5.45235 -0.456518 3.25135
5.45254 -0.456148 3.27635
5.47172 -0.456791 3.30122
5.46085 -0.456532 3.3183
5.47411 -0.457038 3.35221
5.46927 -0.457708 3.37426
5.4785 -0.457256 3.40519
5.49597 -0.458351 3.46708
5.48803 -0.458226 3.47514
5.50832 -0.458663 3.514
5.49444 -0.458416 3.5301
5.51474 -0.459839 3.56997
5.52318 -0.459986 3.62792
5.52448 -0.460394 3.66792
5.52166 -0.460037 3.69194
5.52991 -0.460554 3.72489
5.53011 -0.461154 3.7519
5.54841 -0.461575 3.79178
5.55174 -0.461941 3.83476
5.55495 -0.461514 3.86374
5.56723 -0.462975 3.90067
5.57067 -0.463118 3.95865
5.59121 -0.464067 4.03052
5.57824 -0.463998 4.03462
5.59455 -0.464403 4.07551
5.59878 -0.464947 4.10649
5.59296 -0.464587 4.13053
5.60525 -0.465018 4.16945
5.61151 -0.465519 4.20342
5.61273 -0.466076 4.23342
5.61485 -0.46584 4.2494
5.61809 -0.466369 4.28139
5.63139 -0.466786 4.3213
5.62961 -0.46737 4.34933
5.63486 -0.46687 4.38329
5.64415 -0.468299 4.42224
5.6513 -0.468008 4.44219
5.65254 -0.468535 4.47419
5.66384 -0.468951 4.51412
5.66106 -0.469534 4.54215
5.67159 -0.469491 4.61308
5.67988 -0.469919 4.65203
5.69611 -0.471486 4.68193
5.70037 -0.470971 4.7169
5.6996 -0.471511 4.74792
5.71797 -0.472799 4.7968
5.70916 -0.472422 4.82187
5.71242 -0.472906 4.85686
5.71871 -0.473348 4.89482
5.73595 -0.473887 4.9267
5.74023 -0.474342 4.96368
5.75156 -0.474698 5.00761
5.7498 -0.475223 5.03963
5.75307 -0.475678 5.07662
5.75938 -0.47609 5.11658
5.76656 -0.476739 5.14054
5.77286 -0.477152 5.18051
5.77312 -0.477633 5.21552
5.78345 -0.477989 5.25945
5.7948 -0.478301 5.30638
5.79607 -0.478769 5.34238
5.80239 -0.479152 5.38434
5.81663 -0.479688 5.41625
5.82093 -0.480099 5.45623
5.82725 -0.481467 5.49921
5.83257 -0.481848 5.54118
5.84091 -0.482188 5.58613
5.84723 -0.482556 5.62909
5.85356 -0.482909 5.67305
5.87011 -0.484825 5.74697
5.87847 -0.485135 5.79391
5.88884 -0.485416 5.84285
5.89014 -0.485825 5.88285
5.8985 -0.48712 5.93081
5.90989 -0.487358 5.98274
5.91407 -0.488006 6.00672
5.92577 -0.488637 6.09965
5.93313 -0.489931 6.14762
5.94251 -0.490183 6.19856
5.94585 -0.491519 6.24356
5.97588 -0.493497 6.38139
5.98326 -0.493761 6.43134
5.98661 -0.494068 6.47833
5.98896 -0.495388 6.52433
5.99837 -0.495595 6.57827
6.01366 -0.496029 6.61717
6.01904 -0.497277 6.66816
6.03047 -0.498441 6.7251
6.03181 -0.498761 6.7711
6.0463 -0.499824 6.83501
6.04866 -0.500114 6.88301
5.03092 -0.414528 0.666547
5.03204 -0.414292 0.682538
5.04819 -0.415007 0.702429
5.03729 -0.414792 0.71651
5.04136 -0.414662 0.725479
5.0545 -0.41439 0.744378
5.05576 -0.414887 0.778381
5.06302 -0.414374 0.813324
5.06515 -0.414124 0.830306
5.06722 -0.413992 0.83929
5.06333 -0.413767 0.854318
5.06747 -0.414504 0.8723
5.0716 -0.41424 0.890268
5.06872 -0.414001 0.906288
5.07486 -0.413739 0.92424
5.07599 -0.413488 0.94123
5.08407 -0.413331 0.952169
5.07618 -0.413103 0.967227
5.08632 -0.413829 0.986164
5.09547 -0.413555 1.00509
5.08357 -0.413339 1.01918
5.08571 -0.413074 1.03716
5.09485 -0.412799 1.05609
5.09091 -0.412678 1.06412
5.09304 -0.413427 1.08112
5.10219 -0.413138 1.10105
5.10132 -0.412885 1.11806
5.11448 -0.413584 1.13897
5.1096 -0.413343 1.155
5.12081 -0.412922 1.18392
5.11393 -0.412695 1.19897
5.12609 -0.412378 1.22088
5.12221 -0.412138 1.2369
5.12234 -0.412887 1.25392
5.12748 -0.412609 1.27288
5.12655 -0.412475 1.28188
5.13497 -0.412667 1.33683
5.13711 -0.412387 1.35581
5.14639 -0.411831 1.39374
5.14947 -0.412685 1.40373
5.15362 -0.412392 1.4237
5.15576 -0.412127 1.44168
5.20518 -0.411394 1.76334
5.85815 -0.430822 5.74626
5.89186 -0.43247 5.97406
5.9034 -0.432426 6.04498
5.91276 -0.432708 6.09392
5.92416 -0.433931 6.14686
5.95162 -0.435078 6.3407
5.96085 -0.435625 6.37164
5.96924 -0.435861 6.42359
5.9736 -0.436168 6.47057
5.983 -0.43739 6.52352
5.99039 -0.437625 6.57548
5.99879 -0.437832 6.62942
6.00803 -0.438365 6.66137
6.01745 -0.438557 6.71631
6.02181 -0.438834 6.76528
6.03224 -0.439998 6.82223
5.27777 -0.38437 2.10544
5.29768 -0.384608 2.22531
5.32495 -0.384125 2.39412
5.33956 -0.383921 2.47602
5.3449 -0.384259 2.52099
5.36589 -0.384334 2.65185
5.37008 -0.383967 2.67682
5.39929 -0.383589 2.83861
5.41295 -0.384295 2.92653
5.41414 -0.383941 2.95052
5.42252 -0.384192 3.00147
5.43402 -0.384223 3.06739
5.4342 -0.383867 3.09139
5.44543 -0.384416 3.12232
5.43958 -0.384116 3.14236
5.44971 -0.383857 3.16028
5.46013 -0.38405 3.21521
5.46433 -0.383653 3.24218
5.46653 -0.384269 3.26818
5.46872 -0.383886 3.29416
5.47695 -0.384448 3.32411
5.48226 -0.383844 3.36507
5.48847 -0.384419 3.39403
5.4981 -0.384197 3.47697
5.5013 -0.3838 3.50394
5.51044 -0.384525 3.52288
5.52008 -0.384288 3.60682
5.52229 -0.383875 3.6348
5.5245 -0.384462 3.6628
5.53686 -0.38476 3.71072
5.54209 -0.384305 3.74167
5.54832 -0.38485 3.77264
5.55456 -0.384381 3.80459
5.5598 -0.384925 3.83556
5.55698 -0.384568 3.85958
5.56916 -0.385221 3.8835
5.57963 -0.385296 3.94643
5.57884 -0.384896 3.97344
5.58408 -0.385425 4.00541
5.59032 -0.384956 4.03736
5.59053 -0.385527 4.06637
5.60272 -0.38518 4.09028
5.60617 -0.385294 4.15026
5.61544 -0.385768 4.1862
5.61766 -0.385325 4.21618
5.62392 -0.385826 4.25015
5.64461 -0.385479 4.342
5.64886 -0.385993 4.37498
5.64908 -0.385549 4.40498
5.65032 -0.386091 4.43598
5.6596 -0.386535 4.47392
5.66878 -0.386201 4.49685
5.67404 -0.386686 4.53182
5.6783 -0.386171 4.56679
5.67954 -0.386698 4.59879
5.68683 -0.386141 4.63673
5.69612 -0.38657 4.67568
5.69636 -0.387096 4.70769
5.70554 -0.386747 4.73162
5.71384 -0.387176 4.77056
5.71207 -0.386715 4.80157
5.71633 -0.3872 4.83656
5.72363 -0.387613 4.87651
5.73395 -0.387998 4.91845
5.7352 -0.387496 4.95243
5.74641 -0.388104 4.97936
5.76102 -0.387915 5.06026
5.76228 -0.388398 5.09526
5.76556 -0.387852 5.13223
5.76985 -0.388278 5.17121
5.78508 -0.38883 5.20211
5.81235 -0.389361 5.36994
5.81966 -0.389745 5.41189
5.82598 -0.389127 5.45384
5.8461 -0.389935 5.60272
5.85847 -0.390204 5.65264
5.8638 -0.390571 5.69561
5.86912 -0.390938 5.73858
5.91206 -0.392148 5.99631
5.95812 -0.393124 6.27002
5.9675 -0.393375 6.32096
6.00225 -0.393965 6.55274
6.01266 -0.394158 6.60767
6.02106 -0.395379 6.66063
6.03368 -0.395174 6.74255
6.0441 -0.395337 6.79948
6.04546 -0.395627 6.84748
5.04817 -0.351118 0.694483
5.05256 -0.350366 0.745445
5.06727 -0.349985 0.839342
5.07673 -0.349088 0.900266
5.088 -0.348563 0.936178
5.08425 -0.348072 0.969204
5.09245 -0.348678 0.996155
5.09384 -0.347909 1.04814
5.1186 -0.347431 1.14896
5.11886 -0.346913 1.18396
5.1375 -0.345683 1.26781
5.15768 -0.344358 1.42566
5.19716 -0.343484 1.62138
5.29276 -0.339505 2.23168
5.30927 -0.339496 2.30057
5.31654 -0.338983 2.33551
5.31986 -0.338348 2.37848
5.3262 -0.338686 2.42344
5.32837 -0.338362 2.44542
5.33864 -0.337822 2.48234
5.35118 -0.337779 2.55326
5.35134 -0.337469 2.57426
5.35251 -0.337129 2.59725
5.35359 -0.336967 2.60824
5.35877 -0.337615 2.63221
5.36898 -0.337208 2.66013
5.37015 -0.336883 2.68212
5.37333 -0.33653 2.70609
5.37751 -0.336177 2.73006
5.37668 -0.336851 2.75208
5.38496 -0.336294 2.79002
5.38814 -0.335941 2.81399
5.38631 -0.335614 2.836
5.39552 -0.336206 2.86394
5.38966 -0.335921 2.88299
5.3998 -0.335661 2.90091
5.40198 -0.335308 2.92489
5.40918 -0.335913 2.95185
5.40935 -0.335572 2.97485
5.41856 -0.335164 3.00277
5.41674 -0.334823 3.02579
5.42805 -0.335209 3.06771
5.42723 -0.334868 3.09072
5.4274 -0.334527 3.11371
5.43663 -0.33409 3.14364
5.4348 -0.334748 3.16667
5.44603 -0.334297 3.19758
5.45333 -0.33371 3.23752
5.45251 -0.334354 3.26154
5.45572 -0.333956 3.28852
5.45791 -0.333573 3.3145
5.46212 -0.333176 3.34146
5.46733 -0.333765 3.36944
5.47666 -0.33312 3.41336
5.48488 -0.333682 3.44331
5.49451 -0.33246 3.52623
5.50284 -0.332814 3.57018
5.52675 -0.33204 3.69101
5.54253 -0.331511 3.7949
5.554 -0.331601 3.85682
5.5688 -0.331028 3.96371
5.58531 -0.331032 4.0316
5.7168 -0.328348 4.89369
5.78684 -0.327431 5.2962
5.7871 -0.326913 5.3312
5.81539 -0.326401 5.502
5.81954 -0.327093 5.52298
5.8309 -0.32639 5.57089
5.83925 -0.326715 5.61684
5.83852 -0.326181 5.65284
5.85493 -0.326394 5.70673
5.85421 -0.325845 5.74373
5.86357 -0.326141 5.79167
5.88185 -0.326592 5.82955
5.88618 -0.325958 5.87251
5.88748 -0.326367 5.91251
5.89079 -0.325762 5.95349
5.90853 -0.325309 6.05236
5.9169 -0.325589 6.10131
5.93822 -0.325968 6.14416
5.93348 -0.325446 6.17919
5.94185 -0.325726 6.22814
5.94218 -0.32509 6.27113
5.95055 -0.32537 6.32008
5.96599 -0.325508 6.37897
5.9643 -0.324899 6.41998
5.98664 -0.325234 6.46583
5.99504 -0.325456 6.51877
5.99839 -0.324777 6.56474
6.01082 -0.324927 6.62266
6.0162 -0.32519 6.67263
6.01149 -0.324609 6.71166
6.02982 -0.324986 6.75454
6.04428 -0.324093 6.81542
6.04261 -0.32444 6.85945
6.048 -0.324674 6.91142
5.02869 -0.325099 0.627235
5.02893 -0.324625 0.659231
5.03006 -0.324374 0.676221
5.0432 -0.324103 0.69512
5.04326 -0.323984 0.703119
5.04439 -0.323733 0.720109
5.04652 -0.323483 0.737092
5.04564 -0.323245 0.753097
5.04776 -0.322995 0.77008
5.04689 -0.322743 0.787085
5.05703 -0.323469 0.806022
5.05909 -0.323352 0.814006
5.07125 -0.323065 0.833913
5.06737 -0.322825 0.849941
5.0755 -0.322564 0.867878
5.07463 -0.322312 0.884883
5.07676 -0.322062 0.901866
5.07282 -0.32194 0.909895
5.08096 -0.321665 0.928832
5.09236 -0.320888 0.981742
5.08247 -0.320659 0.996815
5.08661 -0.320395 1.01478
5.10096 -0.32071 1.06169
5.10937 -0.319916 1.11562
5.11858 -0.319508 1.14355
5.11571 -0.319255 1.16057
5.12599 -0.318699 1.19849
5.12712 -0.318448 1.21548
5.13528 -0.318143 1.23641
5.13247 -0.317771 1.26143
5.14677 -0.318189 1.30134
5.14717 -0.317405 1.35433
5.14623 -0.317271 1.36334
5.15753 -0.316701 1.40225
5.16168 -0.316408 1.42221
5.16596 -0.315863 1.45918
5.16409 -0.315596 1.47719
5.1782 -0.316398 1.4911
5.18034 -0.316119 1.51008
5.18349 -0.315825 1.53006
5.18763 -0.315546 1.54902
5.19078 -0.315253 1.569
5.18391 -0.315011 1.58505
5.19507 -0.314693 1.60696
5.19915 -0.314533 1.61793
5.18726 -0.314317 1.63202
5.19843 -0.313985 1.65493
5.2076 -0.314665 1.67688
5.20273 -0.31441 1.69391
5.20989 -0.31409 1.71586
5.22228 -0.313329 1.76776
5.21855 -0.312793 1.80378
5.22486 -0.31219 1.84473
5.22594 -0.312043 1.85473
5.22809 -0.311748 1.87471
5.24028 -0.312387 1.89963
5.2344 -0.312131 1.91667
5.24658 -0.311784 1.94058
5.24674 -0.311488 1.96057
5.24488 -0.311206 1.97959
5.26 -0.31098 1.99547
5.2451 -0.310776 2.00858
5.25428 -0.310428 2.03251
5.26747 -0.311052 2.05843
5.25859 -0.310824 2.07349
5.26175 -0.3105 2.09547
5.26692 -0.310178 2.11743
5.27603 -0.309963 2.13236
5.27417 -0.30968 2.15137
5.28738 -0.30929 2.17827
5.28552 -0.309007 2.19728
5.29285 -0.309361 2.24123
5.30196 -0.309145 2.25616
5.29911 -0.308862 2.27518
5.30529 -0.308511 2.29914
5.30243 -0.308227 2.31816
5.31262 -0.30785 2.34408
5.30575 -0.307593 2.36113
5.31394 -0.307229 2.38606
5.31502 -0.307067 2.39706
5.33125 -0.307634 2.42695
5.32137 -0.30739 2.44302
5.32856 -0.307025 2.46796
5.33374 -0.306674 2.49192
5.33992 -0.306323 2.51587
5.34009 -0.305997 2.53787
5.3472 -0.30578 2.55282
5.35957 -0.306063 2.60173
5.35371 -0.305778 2.62078
5.3589 -0.305411 2.64573
5.36509 -0.305046 2.67069
5.36935 -0.30453 2.70565
5.38476 -0.304742 2.75955
5.39212 -0.304022 2.80849
5.39439 -0.303505 2.84347
5.39876 -0.303783 2.89244
5.40312 -0.303075 2.94041
5.41644 -0.302448 2.9833
5.43322 -0.30192 3.08718
5.44364 -0.301113 3.1421
5.45295 -0.301513 3.18304
5.45313 -0.301143 3.20804
5.46656 -0.300308 3.26493
5.48229 -0.299883 3.36182
5.49713 -0.29925 3.47272
5.50947 -0.298578 3.51862
5.51791 -0.297725 3.57655
5.52213 -0.298299 3.60553
5.52434 -0.297886 3.63351
5.53469 -0.297197 3.68043
5.55058 -0.296462 3.79832
5.55703 -0.295593 3.85726
5.58391 -0.29488 3.97407
5.65013 -0.291575 4.40258
5.02085 -0.288831 0.64476
5.02391 -0.2887 0.653736
5.02503 -0.288463 0.669726
5.05213 -0.286321 0.81551
5.06384 -0.284938 0.909415
5.08897 -0.282735 1.05921
5.13083 -0.280108 1.30589
5.86371 -0.22299 5.80115
5.02293 -0.231735 0.6509
5.04502 -0.228619 0.794707
5.06073 -0.227223 0.889581
5.22949 -0.208094 1.91817
5.25683 -0.204478 2.09593
5.33848 -0.195356 2.58025
5.37898 -0.191454 2.77791
5.40118 -0.188101 2.93772
5.40354 -0.187407 2.9847
5.42525 -0.186016 3.07953
5.42762 -0.184292 3.12849
5.45374 -0.182105 3.27728
5.5093 -0.175125 3.61581
5.53673 -0.171317 3.80657
5.55424 -0.169338 3.87342
5.57386 -0.168123 3.95626
5.56905 -0.167764 3.9803
5.58233 -0.166211 4.01818
5.58901 -0.164883 4.10812
5.6014 -0.164122 4.16003
5.60162 -0.162693 4.18901
5.60787 -0.162209 4.22196
5.6091 -0.161751 4.25294
5.61837 -0.161225 4.28887
5.62363 -0.160725 4.32283
5.64656 -0.15792 4.44563
5.64779 -0.157462 4.47662
5.65808 -0.155892 4.51553
5.65832 -0.155433 4.54652
5.66346 -0.155156 4.56548
5.67075 -0.154598 4.60342
5.67199 -0.154126 4.63541
5.67927 -0.153583 4.67235
5.69259 -0.151956 4.71523
5.69284 -0.151468 4.74823
5.70415 -0.150869 4.78914
5.7083 -0.150575 4.80911
5.71659 -0.149004 4.84803
5.7108 -0.148585 4.87607
5.72539 -0.147441 4.95395
5.7337 -0.14684 4.99489
5.78713 -0.139096 5.31741
5.79143 -0.138522 5.35638
5.79976 -0.137876 5.40031
5.81038 -0.135655 5.48321
5.82489 -0.134659 5.5511
5.83323 -0.133998 5.59603
5.84489 -0.131719 5.68292
5.87411 -0.128341 5.84467
5.89082 -0.125961 5.93853
5.90453 -0.124579 6.03241
5.91521 -0.12224 6.12331
5.92878 -0.121139 6.1982
5.95393 -0.117892 6.35099
5.8209 -0.0837057 5.54737
5.83557 -0.0813986 5.63624
5.8563 -0.0789922 5.73206
5.86178 -0.0770486 5.796
5.87748 -0.074683 5.88886
5.90026 -0.0721745 5.99167
5.91816 -0.0684107 6.11149
5.92149 -0.0677764 6.15446
5.98238 -0.0571351 6.5379
5.04213 -0.16246 0.669732
5.03517 -0.163366 0.675799
5.04243 -0.161853 0.710727
5.04356 -0.161617 0.726717
5.04681 -0.161116 0.76069
5.04293 -0.160876 0.776717
5.05301 -0.160735 0.786641
5.06014 -0.160474 0.804586
5.05827 -0.159221 0.821584
5.07041 -0.158949 0.840491
5.06152 -0.158735 0.854557
5.07166 -0.158461 0.873479
5.06979 -0.158208 0.890491
5.07186 -0.158076 0.899475
5.07399 -0.157826 0.916458
5.07211 -0.157587 0.932471
5.07725 -0.15631 0.951415
5.07938 -0.15606 0.968398
5.08551 -0.155798 0.98635
5.09666 -0.15551 1.00626
5.09473 -0.15539 1.01428
5.10087 -0.155113 1.03323
5.09799 -0.154874 1.04925
5.09812 -0.153622 1.06623
5.10928 -0.15332 1.08715
5.1054 -0.15308 1.10318
5.11047 -0.152935 1.11314
5.11875 -0.152394 1.15007
5.11286 -0.152167 1.16512
5.12001 -0.150891 1.18405
5.12816 -0.150601 1.20398
5.12528 -0.150347 1.221
5.13237 -0.150189 1.23195
5.12649 -0.149948 1.24799
5.12361 -0.149709 1.26401
5.13377 -0.148406 1.28492
5.1349 -0.14814 1.30291
5.14305 -0.14785 1.32285
5.14118 -0.147597 1.33986
5.15228 -0.147412 1.35277
5.15642 -0.146134 1.37173
5.14666 -0.145653 1.4038
5.15984 -0.145322 1.4267
5.15997 -0.145056 1.44469
5.16305 -0.14491 1.45467
5.16519 -0.14463 1.47365
5.16733 -0.143365 1.49162
5.1785 -0.143033 1.51453
5.18064 -0.142768 1.53252
5.17476 -0.142512 1.54956
5.18091 -0.14222 1.56951
5.185 -0.14206 1.58048
5.18313 -0.140807 1.59748
5.19229 -0.140488 1.61941
5.18441 -0.140245 1.63546
5.20059 -0.139902 1.65934
5.19672 -0.139647 1.67637
5.1978 -0.1395 1.68636
5.20195 -0.138192 1.70731
5.21427 -0.137579 1.74922
5.20739 -0.137337 1.76527
5.20853 -0.137056 1.78426
5.21369 -0.135749 1.8052
5.2228 -0.135549 1.81913
5.22996 -0.135243 1.84008
5.22609 -0.134974 1.8581
5.23627 -0.133641 1.88101
5.2314 -0.13337 1.89905
5.23756 -0.133064 1.92
5.24373 -0.132743 1.94195
5.24179 -0.132608 1.95096
5.25097 -0.131259 1.97488
5.25012 -0.130977 1.99388
5.25026 -0.130696 2.01288
5.25543 -0.130374 2.03484
5.26461 -0.129026 2.05875
5.25573 -0.128782 2.07482
5.26283 -0.128595 2.08776
5.26413 -0.127989 2.12875
5.27447 -0.126345 2.17265
5.27562 -0.126035 2.19364
5.2879 -0.124511 2.22953
5.28504 -0.124227 2.24855
5.30226 -0.12381 2.27742
5.29238 -0.123566 2.2935
5.3116 -0.122136 2.32333
5.30682 -0.121718 2.35137
5.30914 -0.120083 2.39433
5.32937 -0.119639 2.42518
5.33371 -0.117976 2.47013
5.32484 -0.117717 2.48719
5.33696 -0.117489 2.5031
5.34231 -0.115812 2.54904
5.35267 -0.115109 2.59696
5.352 -0.113457 2.64094
5.36011 -0.113241 2.65588
5.35023 -0.112997 2.67196
5.36948 -0.111522 2.70479
5.37166 -0.111183 2.72777
5.36279 -0.110925 2.74484
5.37601 -0.10949 2.77472
5.38112 -0.109287 2.78868
5.37828 -0.108974 2.8097
5.39452 -0.107512 2.84156
5.39368 -0.107185 2.86357
5.40307 -0.105437 2.91448
5.41774 -0.10313 3.00335
5.42395 -0.10272 3.0313
5.42211 -0.102393 3.05331
5.42229 -0.101052 3.07629
5.43151 -0.100615 3.10622
5.42356 -0.10052 3.11228
5.44685 -0.0989599 3.15109
5.43699 -0.0986861 3.16916
5.44767 -0.0963465 3.26006
5.45608 -0.0945531 3.31397
5.47738 -0.0929912 3.3528
5.48224 -0.0902919 3.46773
5.51438 -0.0850797 3.61844
5.51146 -0.0849146 3.62946
5.54463 -0.0806438 3.78417
5.54514 -0.0786521 3.85114
5.55361 -0.0767403 3.91306
5.61051 -0.0690358 4.16555
5.6314 -0.0653038 4.28335
5.64292 -0.0632906 4.35225
5.64538 -0.0613892 4.41321
5.66384 -0.0594995 4.47405
5.67382 -0.0555819 4.60393
5.6933 -0.0536485 4.66777
5.70586 -0.051562 4.74165
5.70812 -0.0500602 4.77562
5.72371 -0.0479167 4.85348
5.73414 -0.0460655 4.91138
5.74371 -0.043962 4.98629
5.74697 -0.0424462 5.02125
5.75454 -0.0403412 5.09617
5.78036 -0.0367462 5.20494
5.78768 -0.0351297 5.24686
5.79425 -0.0330092 5.32279
5.94701 -0.00385418 6.21733
5.99009 0.0052157 6.49391
6.0195 0.0109482 6.67963
6.03093 0.0127839 6.73653
6.03227 0.014464 6.7825
6.03867 0.016244 6.83543
5.04117 -0.136403 0.673354
5.03028 -0.136188 0.687435
5.03141 -0.135937 0.704425
5.03453 -0.135687 0.7214
5.04067 -0.135425 0.739353
5.05513 -0.133533 0.800224
5.04724 -0.133305 0.815282
5.05938 -0.133032 0.834189
5.05351 -0.132791 0.850232
5.05663 -0.131542 0.867192
5.06985 -0.131122 0.896091
5.08212 -0.129598 0.931981
5.07837 -0.129106 0.965006
5.07844 -0.128973 0.974005
5.08558 -0.128697 0.99295
5.08985 -0.128182 1.02791
5.09511 -0.126668 1.06286
5.09625 -0.126402 1.08085
5.09631 -0.126283 1.08885
5.11047 -0.125968 1.11074
5.10859 -0.12473 1.12674
5.10071 -0.125502 1.14181
5.10686 -0.12421 1.16175
5.12002 -0.123909 1.18265
5.11914 -0.123656 1.19965
5.12222 -0.123511 1.20963
5.12449 -0.121979 1.24559
5.12161 -0.12174 1.26161
5.13979 -0.121398 1.28547
5.1289 -0.121183 1.29955
5.13999 -0.120013 1.31146
5.13912 -0.119746 1.32946
5.14327 -0.119468 1.34843
5.15142 -0.119178 1.36836
5.14854 -0.118924 1.38538
5.14467 -0.118669 1.40241
5.15082 -0.117378 1.42235
5.16694 -0.117167 1.43723
5.15203 -0.116979 1.44934
5.1652 -0.115648 1.47222
5.17135 -0.115356 1.49217
5.16548 -0.1151 1.50922
5.16962 -0.114822 1.52819
5.17678 -0.113516 1.54911
5.17786 -0.113369 1.55911
5.18 -0.113089 1.57809
5.17713 -0.112835 1.59511
5.18242 -0.112262 1.63407
5.20263 -0.110877 1.6609
5.21229 -0.108581 1.7488
5.21558 -0.107006 1.78776
5.20663 -0.10791 1.79384
5.22784 -0.106511 1.82166
5.23114 -0.104921 1.86162
5.23243 -0.104345 1.90061
5.24098 -0.102285 1.97252
5.26048 -0.100307 2.03936
5.26172 -0.098849 2.07033
5.25484 -0.0986071 2.08638
5.26302 -0.0982577 2.11032
5.27853 -0.0962621 2.17818
5.29111 -0.0941312 2.25506
5.29929 -0.0927819 2.27899
5.31474 -0.0909047 2.33885
5.31005 -0.090309 2.37888
5.32341 -0.0885933 2.42776
5.32072 -0.0869991 2.46776
5.32883 -0.0867829 2.4827
5.33301 -0.0864305 2.50667
5.34973 -0.0830361 2.60151
5.36303 -0.0814536 2.64139
5.3575 -0.0805167 2.70442
5.37776 -0.0790281 2.73825
5.36487 -0.0787966 2.75335
5.38019 -0.0771859 2.79522
5.39678 -0.0750431 2.87307
5.3921 -0.073403 2.91609
5.40158 -0.0714771 2.979
5.42486 -0.0699315 3.0168
5.43335 -0.0679901 3.08072
5.4317 -0.066293 3.12771
5.44997 -0.0657732 3.16357
5.43827 -0.0641725 3.20364
5.45253 -0.0626795 3.23752
5.46285 -0.0620503 3.28044
5.47109 -0.0605974 3.31136
5.47831 -0.0591733 3.34029
5.48692 -0.0569802 3.4212
5.52135 -0.0511921 3.61088
5.54859 -0.0447691 3.7756
5.56541 -0.0411823 3.88344
5.57588 -0.0392571 3.94634
5.60523 -0.033643 4.12406
5.60846 -0.0321864 4.15502
5.65037 -0.0234562 4.40861
6.04686 0.0645438 6.85566
5.03309 -0.105608 0.658957
5.04222 -0.105348 0.676887
5.03333 -0.105119 0.691953
5.04548 -0.104847 0.71086
5.05067 -0.10348 0.735804
5.05179 -0.10323 0.752794
5.06207 -0.102704 0.788714
5.05518 -0.102477 0.803764
5.06525 -0.101336 0.813673
5.06939 -0.101073 0.83164
5.06751 -0.100834 0.847653
5.07165 -0.100571 0.865621
5.07077 -0.100333 0.881626
5.08091 -0.0990594 0.900533
5.08223 -0.0984236 0.94352
5.09038 -0.0981482 0.962457
5.0865 -0.0979084 0.978485
5.09063 -0.096645 0.996438
5.09189 -0.0961425 1.03043
5.10197 -0.0959869 1.04135
5.10824 -0.0944585 1.07728
5.11238 -0.094195 1.09525
5.11551 -0.0939307 1.11323
5.09961 -0.0937266 1.12634
5.11471 -0.0925452 1.13922
5.11785 -0.092281 1.15719
5.12099 -0.0920019 1.17616
5.12413 -0.0917376 1.19414
5.12125 -0.0914838 1.21116
5.1284 -0.0902078 1.23009
5.12953 -0.0899421 1.24808
5.14076 -0.0885061 1.27798
5.13387 -0.088279 1.29303
5.14303 -0.0879747 1.31396
5.13214 -0.0877594 1.32804
5.13829 -0.0874677 1.34799
5.15747 -0.0861264 1.37183
5.14551 -0.0860437 1.37692
5.14764 -0.0857787 1.3949
5.15379 -0.085487 1.41485
5.15306 -0.0839535 1.45084
5.16623 -0.0836373 1.47274
5.16945 -0.0822103 1.5017
5.17359 -0.081932 1.52067
5.16571 -0.0816893 1.53673
5.17487 -0.0803851 1.55764
5.18103 -0.0800787 1.57859
5.17816 -0.0798248 1.59561
5.18324 -0.0796656 1.60657
5.19641 -0.0783348 1.62946
5.18653 -0.0781054 1.64453
5.20071 -0.0767605 1.66841
5.19683 -0.0765059 1.68543
5.19511 -0.0759568 1.72244
5.21625 -0.0747057 1.74027
5.21166 -0.073888 1.7953
5.2108 -0.0736208 1.8133
5.21897 -0.0723011 1.83523
5.22212 -0.0719924 1.8562
5.22219 -0.0718592 1.8652
5.22435 -0.0705499 1.88617
5.24485 -0.0685876 1.95199
5.24299 -0.0683049 1.971
5.23812 -0.0680496 1.98804
5.2412 -0.0668891 1.999
5.24737 -0.0665678 2.02095
5.24953 -0.0662584 2.04193
5.25068 -0.0649632 2.06191
5.25484 -0.0646404 2.08388
5.26008 -0.0631705 2.11582
5.26827 -0.0628211 2.13976
5.26842 -0.0615251 2.15974
5.27158 -0.0612017 2.18171
5.28609 -0.0592202 2.24858
5.29119 -0.0580315 2.26153
5.28949 -0.057438 2.30154
5.30617 -0.0541028 2.39238
5.30625 -0.0539548 2.40238
5.31344 -0.0525899 2.4273
5.31978 -0.0519134 2.47325
5.35841 -0.0437583 2.68787
5.36811 -0.0403885 2.78076
5.38058 -0.0384648 2.84365
5.38578 -0.0380835 2.86961
5.39516 -0.0353354 2.9205
5.40966 -0.0333687 2.98637
5.41102 -0.031659 3.03434
5.42243 -0.0298678 3.08824
5.42562 -0.0285001 3.1132
5.43685 -0.0280492 3.14411
5.42791 -0.027939 3.15118
5.43612 -0.0265305 3.1791
5.43831 -0.0261471 3.20508
5.45092 -0.022957 3.28595
5.46226 -0.0213138 3.32984
5.46546 -0.0199165 3.3568
5.47086 -0.0181357 3.40974
5.47809 -0.0166968 3.43967
5.48661 -0.0146814 3.50859
5.5097 -0.00955136 3.65336
5.51985 -0.0082627 3.67327
5.52226 -0.00646493 3.72723
5.52749 -0.00500981 3.75817
5.54218 -0.00167319 3.84902
5.55134 -0.000369004 3.86994
5.55455 5.80885e-05 3.89891
5.55879 0.00151394 3.92986
5.58086 0.00660028 4.07164
5.58811 0.00808355 4.10457
5.59336 0.00956828 4.13751
5.5976 0.0110389 4.16946
5.60586 0.0125511 4.20438
5.61526 0.0143142 4.25629
5.62151 0.015813 4.29023
5.61972 0.0162141 4.31724
5.62699 0.0177418 4.35317
5.63526 0.0192687 4.38909
5.65998 0.023672 4.48485
5.65619 0.0240745 4.51188
5.66649 0.0256593 4.55178
5.66773 0.0271321 4.58375
5.67524 0.0291335 4.65168
5.68252 0.0306759 4.6886
5.68667 0.031969 4.70856
5.699 0.0335966 4.75144
5.70326 0.0351117 4.7864
5.7025 0.0365712 4.81738
5.7118 0.0381714 4.8583
5.71709 0.0397302 4.89624
5.72123 0.0400085 4.9152
5.73156 0.0416376 4.95811
5.73584 0.0431823 4.99506
5.74313 0.0447544 5.03399
5.74238 0.0462435 5.06697
5.75574 0.0479296 5.11386
5.75499 0.0494187 5.14684
5.7672 0.0508244 5.17473
5.77754 0.0524831 5.21964
5.77276 0.0539307 5.24966
5.77906 0.0555183 5.28959
5.7884 0.0571778 5.3345
5.79902 0.0603693 5.41539
5.81527 0.0618608 5.44925
5.82058 0.0634639 5.49019
5.82791 0.06511 5.53412
5.83222 0.0667139 5.57506
5.83249 0.0682467 5.61104
5.84286 0.0699646 5.65995
5.85811 0.072442 5.6928
5.85941 0.0730333 5.73279
5.86575 0.0756801 5.77671
5.87309 0.0773558 5.82263
5.8754 0.0789463 5.8626
5.88375 0.0806361 5.90952
5.9022 0.0834961 5.96834
5.9094 0.0848906 5.99527
5.91575 0.086567 6.04121
5.92745 0.0899354 6.13408
5.93683 0.0926836 6.18498
5.93714 0.0942904 6.22596
5.94754 0.0960675 6.27886
5.95678 0.0975197 6.30977
5.97121 0.100368 6.36763
5.97153 0.101989 6.40961
5.98395 0.10381 6.4655
5.97621 0.105319 6.49954
5.99167 0.10821 6.56038
5.99099 0.109847 6.60337
6.0194 0.112626 6.65712
6.01166 0.113135 6.69118
6.03218 0.117142 6.75997
6.02747 0.117723 6.79901
6.04599 0.120716 6.86683
6.0433 0.12234 6.90883
5.40916 0.00559071 2.91579
5.44931 0.016781 3.20036
5.49312 0.0273022 3.43991
5.5151 0.0332108 3.56967
5.52976 0.036503 3.65753
5.55702 0.0439556 3.82423
5.07599 -0.0339889 0.904608
5.09572 -0.0305671 1.00142
5.10419 -0.0286553 1.06334
5.12948 -0.023127 1.23509
5.15768 -0.0167935 1.39381
5.15889 -0.0163798 1.42179
5.16718 -0.0148232 1.45971
5.17582 -0.0115711 1.54461
5.18499 -0.011252 1.56654
5.1844 -0.00943722 1.62153
5.18949 -0.00827814 1.63247
5.20367 -0.00693318 1.65635
5.20294 -0.00639956 1.69235
5.20609 -0.00510581 1.71231
5.2215 -0.00331751 1.76618
5.21075 -0.00282101 1.79925
5.23239 0.000421689 1.88406
5.24149 0.00162226 1.89797
5.24364 0.00291675 1.91794
5.25412 0.00484191 1.98084
5.25226 0.00512462 1.99985
5.25434 0.00627108 2.00982
5.26582 0.00821031 2.07371
5.25996 0.00848113 2.09176
5.2814 0.011339 2.15056
5.28372 0.0129591 2.19253
5.29128 0.0160492 2.26643
5.30448 0.0174393 2.29332
5.31901 0.020465 2.36317
5.31329 0.0210319 2.40121
5.37264 0.034593 2.71161
5.37725 0.0377888 2.79254
5.38345 0.0391692 2.81847
5.41672 0.0466322 2.98613
5.42191 0.0480133 3.01208
5.4408 0.0527466 3.12988
5.45432 0.0557435 3.19775
5.44847 0.0570438 3.21777
5.4619 0.0588779 3.27465
5.46648 0.0630145 3.35157
5.48065 0.0643298 3.37344
5.48907 0.0661528 3.42936
5.49227 0.0675502 3.45632
5.49567 0.0703175 3.50826
5.50783 0.0706345 3.53017
5.50702 0.0720051 3.55516
5.51847 0.0748851 3.61504
5.52168 0.0762824 3.642
5.5269 0.0777228 3.67194
5.52711 0.0791223 3.69892
5.5272 0.0793147 3.71192
5.56474 0.0892927 3.91452
5.56293 0.0896642 3.93953
5.57621 0.092217 3.9774
5.5724 0.09259 4.00242
5.58669 0.0951421 4.04028
5.61583 0.102356 4.19098
5.6317 0.108047 4.30579
5.64221 0.111046 4.37367
5.65419 0.116962 4.50351
5.65857 0.119699 4.55345
5.70239 0.131235 4.79398
5.71698 0.135379 4.87182
5.77729 0.150865 5.17718
5.78157 0.152425 5.21513
5.82463 0.16642 5.48663
5.90941 0.192775 5.98667
5.02413 -0.0116411 0.655633
5.03627 -0.0113686 0.67454
5.03245 -0.0110105 0.698567
5.03859 -0.0097485 0.716505
5.04772 -0.0094886 0.734435
5.04109 -0.00775829 0.783466
5.07103 -0.00394412 0.907201
5.08469 -0.000651186 0.995061
5.08802 0.000983029 1.03802
5.09956 0.00304069 1.10991
5.13396 0.0107546 1.29456
5.13723 0.0113001 1.33153
5.17196 0.0206504 1.55917
5.17632 0.0223579 1.60711
5.18348 0.0226636 1.62806
5.20797 0.0266228 1.69383
5.20732 0.0273044 1.73983
5.21692 0.0304819 1.81972
5.21406 0.0317504 1.83772
5.22317 0.031951 1.85165
5.22732 0.0332589 1.87261
5.23263 0.0348472 1.91255
5.22876 0.0351166 1.93058
5.24596 0.0365038 1.95743
5.24103 0.0366258 1.96547
5.2482 0.0379611 1.98839
5.24834 0.0382423 2.00739
5.24849 0.0395383 2.02737
5.24864 0.0398343 2.04737
5.2518 0.0411429 2.06833
5.25898 0.0424781 2.09126
5.25905 0.0426261 2.10126
5.27055 0.0455949 2.16714
5.27372 0.0459184 2.18911
5.27888 0.0472403 2.21106
5.28707 0.0486044 2.23598
5.29217 0.0487932 2.24894
5.28429 0.0490358 2.265
5.30167 0.0517634 2.31483
5.31186 0.0531408 2.34074
5.30198 0.053385 2.35681
5.32145 0.0572886 2.41862
5.31675 0.0578843 2.45865
5.31892 0.0592084 2.48062
5.33012 0.0605999 2.50751
5.33423 0.0608043 2.52148
5.34946 0.0632372 2.55134
5.34058 0.0634806 2.5674
5.34074 0.0638062 2.5894
5.35295 0.0662118 2.61727
5.3491 0.0665107 2.6373
5.34827 0.0668371 2.65931
5.3594 0.0680806 2.67621
5.37061 0.069487 2.7041
5.36994 0.0711389 2.74809
5.37413 0.0725059 2.77304
5.37129 0.0738189 2.79405
5.38352 0.0752541 2.82394
5.38779 0.076784 2.85989
5.39398 0.0781644 2.88583
5.39014 0.0784781 2.90685
5.39735 0.0798874 2.93478
5.40775 0.0826496 2.98667
5.40482 0.0827998 2.99669
5.42509 0.0853179 3.03251
5.42828 0.0866857 3.05746
5.42746 0.0880416 3.08145
5.42362 0.0883553 3.10248
5.44389 0.0908734 3.1383
5.42992 0.089943 3.14242
5.4492 0.0924618 3.17824
5.44838 0.0938177 3.20223
5.44554 0.0941455 3.22425
5.44975 0.0955422 3.2512
5.45496 0.0969529 3.27914
5.45414 0.0983088 3.30313
5.4663 0.0996108 3.32402
5.47251 0.101021 3.35196
5.47673 0.102447 3.38091
5.47591 0.102803 3.40492
5.48716 0.105283 3.4378
5.48333 0.105627 3.46083
5.49487 0.109669 3.53169
5.5021 0.111123 3.56262
5.51336 0.112618 3.59651
5.5045 0.113906 3.61556
5.51577 0.115416 3.65046
5.5219 0.116663 3.6674
5.51506 0.116994 3.68945
5.52532 0.119489 3.72334
5.53357 0.120972 3.75626
5.55207 0.12495 3.82307
5.5544 0.126585 3.86604
5.57514 0.132021 3.96381
5.58796 0.13761 4.07165
5.58817 0.13904 4.10063
5.60751 0.141677 4.14445
5.61096 0.144563 4.20439
5.60313 0.144909 4.22745
5.61431 0.146256 4.25135
5.61554 0.147699 4.28132
5.63108 0.151754 4.35315
5.63859 0.15574 4.42005
5.64184 0.157226 4.453
5.66409 0.159699 4.4858
5.65829 0.160088 4.51185
5.66859 0.162672 4.55174
5.67285 0.164187 4.58669
5.67912 0.166716 4.62261
5.6844 0.168245 4.65855
5.68565 0.169733 4.69152
5.70187 0.172165 4.72137
5.70011 0.173625 4.75236
5.7167 0.177782 4.83119
5.72199 0.179341 4.86913
5.73331 0.181955 4.91101
5.72853 0.183387 4.94003
5.74199 0.187295 5.00188
5.7503 0.188896 5.0428
5.75762 0.191513 5.08471
5.76921 0.195659 5.16257
5.78371 0.199625 5.22842
5.78499 0.201172 5.26539
5.78626 0.203704 5.30135
5.80265 0.206462 5.35319
5.8009 0.207952 5.38618
5.81126 0.21064 5.43307
5.82046 0.212033 5.45999
5.82779 0.214679 5.5039
5.83814 0.217353 5.54979
5.84375 0.221533 5.62969
5.8531 0.224222 5.67659
5.85238 0.22677 5.71356
5.87802 0.230995 5.79732
5.88898 0.238882 5.92514
5.89735 0.241601 5.97404
5.91061 0.243095 6.00792
5.91696 0.245771 6.05384
5.92836 0.249547 6.10671
5.92161 0.251041 6.13974
5.93503 0.25386 6.19561
5.9424 0.25658 6.24452
5.94373 0.259215 6.28747
5.96507 0.261866 6.33228
5.97346 0.26463 6.38418
5.97175 0.267208 6.42316
5.9741 0.269887 6.46911
5.98452 0.272694 6.524
5.98686 0.275373 6.56995
6.01763 0.281861 6.67163
6.01899 0.284556 6.71859
6.02538 0.287321 6.77051
6.03481 0.290143 6.8264
6.0402 0.292909 6.87833
6.04256 0.295618 6.92628
5.03539 0.0218209 0.687057
5.03063 0.0222982 0.719091
5.03977 0.023558 0.737006
5.04709 0.0251893 0.779932
5.04634 0.0256785 0.812935
5.05047 0.0269271 0.829888
5.09139 0.0356728 1.08449
5.28298 0.0853812 2.22046
5.28846 0.0883247 2.28439
5.29356 0.0885135 2.29735
5.3094 0.0941452 2.40816
5.3368 0.102864 2.59285
5.34833 0.106907 2.66371
5.62829 0.199091 4.37548
5.64607 0.205618 4.47926
5.66601 0.212439 4.60302
5.68158 0.217553 4.67884
5.69829 0.222932 4.77265
5.70257 0.225462 4.80859
5.70809 0.228479 4.87751
5.7247 0.233666 4.95832
5.731 0.236239 4.99724
5.74321 0.238644 5.02511
5.74749 0.240189 5.06206
5.75632 0.246811 5.17191
5.78115 0.253421 5.28165
5.79149 0.25608 5.32653
5.80486 0.259795 5.37538
5.80311 0.261285 5.40838
5.80641 0.263875 5.44832
5.80971 0.26545 5.48728
5.81891 0.267843 5.51418
5.82927 0.270531 5.56107
5.84063 0.273233 5.60895
5.84292 0.275809 5.6479
5.84926 0.278456 5.69182
5.86366 0.28223 5.74466
5.86193 0.283764 5.78066
5.87316 0.286214 5.81154
5.88454 0.288946 5.86142
5.88685 0.291552 5.90237
5.8942 0.294227 5.94828
5.90055 0.297903 5.99418
5.90388 0.299552 6.03814
5.91527 0.303314 6.09001
5.92853 0.305807 6.12388
5.94125 0.311204 6.21871
5.95568 0.315038 6.27556
5.95397 0.317616 6.31454
5.95228 0.320224 6.35552
5.9657 0.323044 6.41138
5.97999 0.326596 6.44922
5.98233 0.32926 6.49417
5.99679 0.333138 6.55402
5.99913 0.335817 6.59997
6.00551 0.338552 6.64988
6.01594 0.342389 6.70676
6.02821 0.344912 6.74263
6.03966 0.348777 6.8015
6.04605 0.351543 6.85341
6.04337 0.354166 6.8954
6.04675 0.356904 6.94534
5.05597 0.0528984 0.760453
5.13633 0.0754122 1.33859
5.2466 0.106666 2.0354
5.2611 0.110632 2.10124
5.27337 0.113156 2.13711
5.28874 0.115855 2.18496
5.27483 0.115058 2.19808
5.27908 0.116544 2.23103
5.30032 0.118987 2.26184
5.28742 0.119204 2.27594
5.28959 0.120528 2.2979
5.30519 0.124701 2.37774
5.30937 0.126038 2.40069
5.30953 0.126364 2.42268
5.31371 0.127701 2.44564
5.31889 0.129053 2.46958
5.32949 0.133229 2.54945
5.33769 0.134608 2.57537
5.34806 0.137326 2.62426
5.34722 0.138652 2.64625
5.34831 0.138814 2.65724
5.35785 0.142873 2.72912
5.37452 0.148164 2.81693
5.39077 0.149641 2.84979
5.39513 0.152348 2.89772
5.39329 0.153675 2.91972
5.40552 0.15511 2.94961
5.39556 0.155191 2.95468
5.41081 0.157669 2.98754
5.41619 0.160405 3.03746
5.42559 0.163183 3.09036
5.42174 0.163497 3.11138
5.43591 0.165812 3.13325
5.43408 0.166139 3.15526
5.4433 0.168576 3.18516
5.45253 0.170014 3.21507
5.45473 0.171397 3.24104
5.4896 0.186043 3.48859
5.49502 0.188853 3.54352
5.5117 0.194173 3.63332
5.52688 0.196517 3.65718
5.52024 0.198233 3.70521
5.54578 0.20328 3.77695
5.54117 0.205038 3.82797
5.55556 0.208783 3.87881
5.56805 0.212736 3.94367
5.57429 0.215205 3.97559
5.58456 0.21673 4.01149
5.57572 0.218048 4.03254
5.58891 0.219408 4.05743
5.59839 0.223349 4.12131
5.60566 0.225861 4.15622
5.61392 0.228374 4.19113
5.60833 0.231177 4.24513
5.65587 0.244162 4.44861
5.02004 0.0830553 0.63426
5.02211 0.0841869 0.643228
5.04138 0.0857059 0.679066
5.04163 0.0871943 0.712046
5.03875 0.0874333 0.728067
5.04481 0.0875621 0.73702
5.05496 0.088836 0.755928
5.04206 0.0890527 0.770023
5.06021 0.0903355 0.789871
5.0656 0.0920867 0.840811
5.05364 0.0911844 0.846915
5.0738 0.0934804 0.867732
5.06792 0.0937217 0.883775
5.07218 0.0952219 0.917726
5.07632 0.0954854 0.935693
5.07776 0.097358 0.994663
5.09192 0.0996584 1.01552
5.09305 0.0999093 1.03251
5.08717 0.100151 1.04856
5.09625 0.101307 1.05947
5.09838 0.101557 1.07646
5.0915 0.101799 1.09251
5.10265 0.103087 1.11241
5.10579 0.104351 1.13037
5.10392 0.104604 1.14738
5.10504 0.104855 1.16437
5.12416 0.107063 1.17919
5.11039 0.106532 1.21031
5.11954 0.107821 1.23023
5.11666 0.10906 1.24623
5.12281 0.109352 1.26618
5.13597 0.111653 1.28705
5.1472 0.113089 1.31695
5.13631 0.113319 1.33203
5.14246 0.113596 1.35098
5.13958 0.11485 1.36799
5.14573 0.115141 1.38794
5.15309 0.117832 1.43485
5.15336 0.119365 1.47083
5.15751 0.119658 1.4908
5.16273 0.121083 1.51974
5.17189 0.122388 1.54066
5.1832 0.124986 1.58154
5.17833 0.125241 1.59858
5.18562 0.127813 1.63749
5.18971 0.127973 1.64846
5.19815 0.130841 1.70736
5.21297 0.136444 1.81618
5.22415 0.137791 1.84008
5.21628 0.138033 1.85614
5.23162 0.140688 1.90099
5.22667 0.140796 1.90802
5.24202 0.143465 1.95387
5.25048 0.146377 2.01578
5.24654 0.146498 2.02381
5.25186 0.149116 2.06573
5.25703 0.150438 2.08768
5.26636 0.153083 2.13157
5.2635 0.153366 2.15059
5.26959 0.154539 2.16253
5.27578 0.15589 2.18647
5.27492 0.156172 2.20547
5.28512 0.158549 2.23137
5.28442 0.160142 2.27135
5.28967 0.161627 2.3043
5.29786 0.163991 2.3292
5.29901 0.164301 2.35019
5.3082 0.166664 2.37509
5.31655 0.169339 2.42099
5.31563 0.169503 2.432
5.31278 0.169786 2.45102
5.329 0.172203 2.47987
5.32213 0.172475 2.49792
5.33434 0.174881 2.52579
5.3325 0.175178 2.54581
5.33367 0.176518 2.56878
5.34379 0.177747 2.58469
5.35199 0.180126 2.61059
5.34111 0.180371 2.62668
5.35131 0.181763 2.65358
5.3565 0.183129 2.67853
5.35566 0.184441 2.69952
5.35977 0.185645 2.71347
5.37098 0.187051 2.74137
5.36311 0.187324 2.75942
5.3673 0.189691 2.78436
5.38052 0.19111 2.81324
5.37567 0.19241 2.83327
5.38187 0.19379 2.8592
5.39401 0.195063 2.87809
5.39419 0.196403 2.90108
5.39938 0.197784 2.92702
5.40156 0.199138 2.95099
5.40374 0.200492 2.97495
5.40493 0.201846 2.99893
5.41716 0.204296 3.0298
5.4335 0.20795 3.07463
5.42464 0.208223 3.0927
5.42984 0.209619 3.11964
5.43907 0.212056 3.14954
5.44025 0.213411 3.17351
5.4344 0.213711 3.19356
5.44254 0.214972 3.21148
5.45176 0.217409 3.24138
5.45999 0.218847 3.2713
5.47443 0.222695 3.32914
5.4716 0.224038 3.35215
5.48312 0.228051 3.42101
5.48231 0.229421 3.446
5.49758 0.232943 3.48184
5.48672 0.233217 3.49992
5.49295 0.234657 3.52985
5.51334 0.238412 3.58165
5.52499 0.244676 3.66748
5.55527 0.255156 3.83612
5.55849 0.256583 3.86508
5.56293 0.260438 3.923
5.56906 0.2617 3.94094
5.57833 0.264211 3.97583
5.57552 0.265598 4.00184
5.5878 0.268137 4.03871
5.59304 0.270607 4.07064
5.59326 0.272036 4.09962
