-3.25007 -0.0489451 3.06105
-3.24939 -0.0515673 3.01908
-3.25748 -0.0517539 3.00614
-3.25886 -0.0534932 2.95617
-3.26 -0.0537589 2.93818
-3.26709 -0.0549461 2.92525
-3.27748 -0.0566936 2.87435
-3.27862 -0.0569594 2.85635
-3.28365 -0.0570297 2.85139
-3.28877 -0.0572481 2.83643
-3.29104 -0.0587942 2.79947
-3.28934 -0.0603729 2.76047
-3.29346 -0.0616067 2.74452
-3.30346 -0.0605995 2.74458
-3.30559 -0.0618496 2.72761
-3.30175 -0.0621782 2.70559
-3.30403 -0.0637095 2.66962
-3.3043 -0.0652423 2.63364
-3.31629 -0.0652187 2.63473
-3.31941 -0.0654534 2.61876
-3.3167 -0.0670328 2.57975
-3.61681 -0.125456 0.445584
-3.62498 -0.125776 0.423647
-3.63536 -0.126523 0.37273
-3.64044 -0.126683 0.361769
-3.64784 -0.127447 0.309829
-3.6431 -0.127969 0.274796
-3.65657 -0.128892 0.211902
-3.65884 -0.129409 0.176922
-3.65992 -0.129571 0.165931
-3.6734 -0.130494 0.103038
-3.69752 -0.131698 -0.0467834
-3.70174 -0.132124 -0.0757493
-3.69583 -0.132291 -0.0867929
-3.70209 -0.132805 -0.121743
-3.70213 -0.132894 -0.127742
-3.71422 -0.133048 -0.13865
-3.70531 -0.133232 -0.150716
-3.71757 -0.133741 -0.185621
-3.7167 -0.133994 -0.202626
-3.03096 0.0456403 4.5272
-3.04295 0.0466786 4.52928
-3.04542 0.0427478 4.46634
-3.05678 0.0410454 4.41845
-3.06098 0.0396636 4.3925
-3.06628 0.0370753 4.35257
-3.06652 0.0356166 4.32159
-3.07368 0.035296 4.29964
-3.08083 0.03402 4.28071
-3.08304 0.0326071 4.25275
-3.08624 0.0312097 4.22579
-3.08734 0.031018 4.2128
-3.08955 0.0296051 4.18483
-3.09416 0.0254093 4.10392
-3.11143 0.0239037 4.06907
-3.10659 0.0225893 4.04805
-3.11593 0.0209299 4.00313
-3.12327 0.0182543 3.95722
-3.13261 0.0166096 3.91331
-3.13568 0.0164638 3.90334
-3.14004 0.0137564 3.8554
-3.14738 0.0121103 3.81148
-3.14669 0.00948809 3.7695
-3.15996 0.00897947 3.73461
-3.16213 0.00764058 3.71164
-3.17289 0.00315314 3.61077
-3.17903 0.00189117 3.59284
-3.18119 0.00156697 3.57085
-3.18435 0.000258413 3.54989
-3.19373 -0.00247494 3.5
-3.1939 -0.00281539 3.477
-3.19805 -0.00410842 3.45705
-3.19427 -0.00552569 3.42904
-3.20355 -0.00706672 3.39212
-3.20975 -0.00846191 3.36519
-3.20993 -0.00881717 3.34119
-3.22018 -0.0102983 3.30829
-3.21936 -0.0116541 3.2843
-3.21772 -0.0143511 3.23732
-3.22772 -0.0133587 3.23638
-3.23284 -0.0145918 3.22043
-3.23913 -0.0161498 3.1825
-3.23235 -0.0175841 3.15346
-3.2454 -0.0176782 3.14656
-3.23854 -0.0189497 3.12853
-3.24565 -0.0191666 3.11358
-3.24878 -0.0194161 3.09661
-3.24895 -0.0207416 3.07463
-3.25323 -0.0223011 3.03668
-3.26041 -0.0236511 3.01275
-3.25659 -0.0240093 2.98872
-3.26271 -0.0252269 2.97378
-3.26981 -0.0254142 2.96084
-3.2721 -0.0269899 2.92187
-3.27133 -0.0284494 2.89088
-3.27149 -0.0297454 2.8709
-3.28255 -0.0298706 2.86198
-3.2817 -0.0301674 2.84198
-3.28781 -0.0303702 2.82803
-3.28994 -0.0316203 2.81106
-3.29314 -0.0330177 2.7841
-3.29527 -0.0332679 2.76712
-3.29939 -0.0335018 2.75115
-3.29655 -0.0348147 2.73014
-3.29868 -0.0360648 2.71318
-3.30578 -0.0362521 2.70023
-3.30691 -0.0365179 2.68224
-3.31195 -0.0365882 2.67728
-3.3111 -0.0378849 2.65729
-3.31521 -0.0380892 2.64332
-3.31833 -0.0383239 2.62735
-3.31747 -0.0396057 2.60836
-3.31562 -0.0409031 2.58836
-3.62871 -0.102272 0.457332
-3.6268 -0.102451 0.445319
-3.62889 -0.102627 0.433335
-3.62099 -0.103826 0.420292
-3.63905 -0.102931 0.412414
-3.63011 -0.103056 0.404347
-3.6272 -0.104236 0.392341
-3.63627 -0.103377 0.382395
-3.63836 -0.103553 0.370412
-3.63346 -0.104749 0.357391
-3.64054 -0.103892 0.34743
-3.64063 -0.10507 0.335447
-3.63967 -0.105159 0.32944
-3.64176 -0.105321 0.318456
-3.64984 -0.104478 0.307503
-3.64493 -0.105659 0.295482
-3.65301 -0.104816 0.284529
-3.6511 -0.105995 0.27253
-3.65019 -0.106174 0.260525
-3.65123 -0.106247 0.255533
-3.65731 -0.105405 0.244565
-3.6544 -0.106585 0.232559
-3.66049 -0.105744 0.22159
-3.65358 -0.106941 0.208554
-3.66766 -0.106079 0.198646
-3.66674 -0.106243 0.18764
-3.66979 -0.106329 0.181664
-3.66488 -0.10751 0.169643
-3.66896 -0.10667 0.158659
-3.67405 -0.106844 0.146699
-3.66623 -0.108205 0.122657
-3.68126 -0.107254 0.118755
-3.66636 -0.108457 0.105659
-3.66745 -0.108634 0.093668
-3.67852 -0.107774 0.0837374
-3.67961 -0.107951 0.0717466
-3.6787 -0.108129 0.0597407
-3.68978 -0.108269 0.0498248
-3.68887 -0.108448 0.037819
-3.68892 -0.108536 0.0318198
-3.692 -0.108697 0.0208439
-3.6831 -0.108896 0.00777795
-3.68618 -0.109057 -0.00319795
-3.69926 -0.10921 -0.0140986
-3.68935 -0.109395 -0.0261722
-3.6884 -0.109485 -0.0321789
-3.70048 -0.109639 -0.0430871
-3.70356 -0.109799 -0.054063
-3.70665 -0.109975 -0.0660388
-3.71074 -0.109135 -0.077022
-3.70183 -0.110319 -0.0890732
-3.71391 -0.109473 -0.0999962
-3.70895 -0.110565 -0.106018
-3.71105 -0.110742 -0.118002
-3.71713 -0.1099 -0.12897
-3.72231 -0.110252 -0.152929
-3.72348 -0.110591 -0.175918
-3.72362 -0.110858 -0.193916
-3.13571 0.0394028 3.76398
-3.02487 0.115732 4.53312
-3.04499 0.106541 4.38439
-3.04919 0.105159 4.35843
-3.05867 0.101219 4.29455
-3.06607 0.0984394 4.24164
-3.07223 0.097133 4.22071
-3.07839 0.0958267 4.19977
-3.0796 0.094413 4.1718
-3.09105 0.0915479 4.11292
-3.1006 0.0874742 4.04004
-3.10181 0.0860606 4.01207
-3.11005 0.0836077 3.98116
-3.11442 0.0808708 3.93123
-3.11562 0.0794867 3.90525
-3.1188 0.0781338 3.88129
-3.12197 0.0767956 3.85833
-3.13119 0.075373 3.82942
-3.13237 0.0740186 3.80545
-3.13853 0.0737269 3.78549
-3.13991 0.069973 3.73455
-3.14605 0.0697109 3.7166
-3.16393 0.062992 3.59982
-3.35541 0.00255197 2.34698
-3.34951 0.00135528 2.33395
-3.3566 0.00118275 2.32201
-3.35871 0.000962163 2.30703
-3.35884 -0.000289371 2.29004
-3.36691 -0.000431571 2.2801
-3.36704 -0.000683213 2.26311
-3.36722 -0.00203836 2.23912
-3.36735 -0.00328989 2.22214
-3.37742 -0.00341583 2.21322
-3.37058 -0.00474648 2.19118
-3.37965 -0.00487315 2.18225
-3.37978 -0.00512479 2.16525
-3.38388 -0.00531431 2.15229
-3.38891 -0.00536988 2.14832
-3.39002 -0.00659108 2.13335
-3.38517 -0.00789066 2.11333
-3.38728 -0.00809644 2.09935
-3.38741 -0.00934797 2.08236
-3.39454 -0.00960932 2.06442
-3.39864 -0.00979884 2.05145
-3.39677 -0.0110518 2.03445
-3.39987 -0.0112421 2.02148
-3.40596 -0.0114153 2.00952
-3.40607 -0.0116374 1.99453
-3.40321 -0.0129059 1.97652
-3.40924 -0.0129607 1.97257
-3.41233 -0.013151 1.95959
-3.41146 -0.0143884 1.9436
-3.41455 -0.0145787 1.93062
-3.42164 -0.0147364 1.91968
-3.42076 -0.0159739 1.90369
-3.42198 -0.0164024 1.8747
-3.429 -0.0164417 1.87175
-3.42713 -0.0176947 1.85475
-3.43221 -0.0178539 1.84379
-3.43232 -0.0180759 1.8288
-3.44587 -0.0211468 1.75593
-3.44421 -0.0228143 1.71094
-3.45224 -0.0228529 1.708
-3.4384 -0.0241886 1.68591
-3.45624 -0.0278191 1.57509
-3.62073 -0.0573865 0.449607
-3.622 -0.0589038 0.414634
-3.63148 -0.0598446 0.35071
-3.63474 -0.0603457 0.316738
-3.64104 -0.0609334 0.276788
-3.65677 -0.0623583 0.179914
-3.66424 -0.0632858 0.116976
-3.66733 -0.0634612 0.105
-3.67041 -0.062622 0.0940093
-3.67745 -0.0626909 0.0890627
-3.67363 -0.0630491 0.0650359
-3.67381 -0.0643894 0.0420539
-3.68089 -0.0635472 0.0310933
-3.68398 -0.0637227 0.0191175
-3.69202 -0.0637909 0.0141784
-3.68311 -0.0639751 0.0021123
-3.69619 -0.0641284 -0.00878836
-3.68628 -0.0643133 -0.020862
-3.69336 -0.0644711 -0.0318078
-3.70444 -0.063626 -0.0427383
-3.69654 -0.0648093 -0.054782
-3.69558 -0.0648989 -0.0607887
-3.69767 -0.0650751 -0.072772
-3.70075 -0.0652357 -0.0837479
-3.69684 -0.0654162 -0.0957764
-3.70193 -0.0655902 -0.107737
-3.70402 -0.0647517 -0.118735
-3.70911 -0.0649257 -0.130696
-3.70714 -0.0650012 -0.13571
-3.71124 -0.0651759 -0.147679
-3.71641 -0.0655127 -0.170638
-3.7145 -0.0656918 -0.182651
-3.71658 -0.0658532 -0.193635
-3.02645 0.149499 4.58464
-3.02967 0.148087 4.55668
-3.02695 0.144523 4.51871
-3.03708 0.144279 4.50178
-3.04226 0.142927 4.47784
-3.04153 0.140408 4.44287
-3.04276 0.137965 4.41291
-3.05079 0.137897 4.40797
-3.05894 0.137622 4.38903
-3.06237 0.133766 4.33111
-3.05963 0.13126 4.29712
-3.06778 0.12997 4.2772
-3.06394 0.128657 4.25618
-3.06912 0.12732 4.23324
-3.08121 0.127136 4.22033
-3.07451 0.124554 4.18131
-3.08363 0.123324 4.1654
-3.08583 0.121941 4.13943
-3.08704 0.120527 4.11146
-3.08715 0.119305 4.09647
-3.09649 0.116646 4.05158
-3.09967 0.115293 4.02762
-3.10385 0.113955 4.00467
-3.11296 0.11274 3.98975
-3.11218 0.11131 3.96076
-3.1103 0.110072 3.94476
-3.1214 0.109887 3.93185
-3.12062 0.107458 3.90288
-3.12874 0.107227 3.88694
-3.12596 0.104781 3.85695
-3.13212 0.103489 3.83701
-3.12934 0.102043 3.80701
-3.13558 0.100589 3.77607
-3.13677 0.0982194 3.75111
-3.14389 0.0979728 3.73417
-3.15399 0.0977877 3.72124
-3.14824 0.0952951 3.68823
-3.15438 0.0940331 3.6703
-3.15248 0.0928245 3.6563
-3.16097 0.0898684 3.5914
-3.16611 0.0886057 3.57345
-3.17719 0.0884509 3.56254
-3.17035 0.087135 3.5415
-3.17468 0.0845017 3.49857
-3.17783 0.0832079 3.47861
-3.18594 0.0819918 3.46368
-3.18711 0.0816669 3.44169
-3.23633 0.0653505 3.14827
-3.24162 0.0637918 3.11032
-3.24598 0.0610844 3.06239
-3.24926 0.0585391 3.02545
-3.2514 0.0572594 3.00648
-3.26347 0.0571349 2.99757
-3.26064 0.0557924 2.97457
-3.26881 0.0554725 2.95263
-3.26201 0.053068 2.92561
-3.26613 0.0528341 2.90964
-3.27935 0.0514292 2.88176
-3.28048 0.0501636 2.86378
-3.28666 0.0498127 2.83983
-3.28879 0.0485626 2.82287
-3.29092 0.0473125 2.8059
-3.28511 0.0459382 2.78087
-3.29419 0.0457819 2.76994
-3.29746 0.0442661 2.73498
-3.30051 0.0441647 2.72801
-3.30476 0.0416646 2.69407
-3.3049 0.0413981 2.67607
-3.31001 0.0401798 2.66113
-3.31015 0.0399134 2.64313
-3.30426 0.0387019 2.6291
-3.31334 0.0385456 2.61817
-3.31944 0.0373577 2.60523
-3.3146 0.0360285 2.58321
-3.32368 0.035887 2.57328
-3.31288 0.0344794 2.54622
-3.32296 0.0343387 2.53629
-3.32899 0.0342838 2.53234
-3.32216 0.0329384 2.5093
-3.33323 0.0328132 2.50039
-3.33647 0.0313418 2.46843
-3.33561 0.0300747 2.45044
-3.34071 0.029886 2.43748
-3.35292 0.0215114 2.27667
-3.35901 0.0213381 2.26472
-3.36312 0.0211338 2.25075
-3.37218 0.0210072 2.24182
-3.3633 0.0197787 2.22677
-3.3684 0.0195899 2.21381
-3.37361 0.0181792 2.18587
-3.37472 0.016958 2.17089
-3.37286 0.0166901 2.15288
-3.38597 0.0164775 2.13798
-3.38211 0.0152082 2.11996
-3.3862 0.0150187 2.107
-3.38235 0.0137347 2.08798
-3.38942 0.0135918 2.07804
-3.38955 0.0123402 2.06106
-3.39265 0.01215 2.04808
-3.3978 0.0108577 2.02813
-3.39095 0.00955663 2.0081
-3.39703 0.00939818 1.99715
-3.41109 0.0103046 1.99024
-3.40822 0.00905093 1.97323
-3.40429 0.00889999 1.9632
-3.40043 0.00763074 1.94519
-3.41347 0.00755139 1.93929
-3.40862 0.00626661 1.92027
-3.41768 0.00613994 1.91134
-3.40884 0.00482264 1.89029
-3.42388 0.00575945 1.88539
-3.41896 0.00459309 1.87437
-3.42107 0.00438731 1.86038
-3.4162 0.00311733 1.84236
-3.41742 0.0017037 1.81439
-3.43544 0.00265749 1.81051
-3.43357 0.0014193 1.79451
-3.43163 0.00129943 1.7865
-3.42776 4.49808e-05 1.76948
-3.44003 -0.000493975 1.73258
-3.44612 -0.000652435 1.72163
-3.44423 -0.00187582 1.70663
-3.43632 -0.00305916 1.69458
-3.44439 -0.00218667 1.68563
-3.4435 -0.00340933 1.67064
-3.44958 -0.00356779 1.65969
-3.44771 -0.00480597 1.64369
-3.45877 -0.00391649 1.63576
-3.44891 -0.00520491 1.6167
-3.45394 -0.00526048 1.61274
-3.45803 -0.0054352 1.60077
-3.45814 -0.00664232 1.58679
-3.46223 -0.00681704 1.57482
-3.47449 -0.00732639 1.53991
-3.46259 -0.00852745 1.52684
-3.46867 -0.00868591 1.51589
-3.46578 -0.00991002 1.50088
-3.47506 -0.0104512 1.46395
-3.47317 -0.0116597 1.44996
-3.48119 -0.0106984 1.447
-3.48528 -0.0108732 1.43503
-3.49245 -0.0122084 1.4121
-3.49355 -0.0124001 1.39911
-3.49764 -0.0125748 1.38715
-3.48673 -0.0137456 1.37608
-3.48882 -0.0139365 1.3631
-3.50726 -0.0157819 1.30525
-3.51658 -0.016397 1.26333
-3.51768 -0.0165887 1.25034
-3.5232 -0.0196062 1.18141
-3.52947 -0.0201347 1.14546
-3.53051 -0.0202228 1.13947
-3.53579 -0.0217668 1.10253
-3.5451 -0.0223671 1.0616
-3.54619 -0.0235439 1.04963
-3.5517 -0.0255467 0.981689
-3.55887 -0.0258673 0.959744
-3.56105 -0.0262211 0.935763
-3.56115 -0.0264135 0.922765
-3.56328 -0.0266785 0.904782
-3.56447 -0.0280329 0.880808
-3.57353 -0.0271597 0.871862
-3.59691 -0.0318523 0.689082
-3.598 -0.0320292 0.677091
-3.60526 -0.0335273 0.643164
-3.61166 -0.0343075 0.590216
-3.61075 -0.0344858 0.57821
-3.62014 -0.035249 0.526285
-3.61923 -0.0364273 0.514294
-3.62962 -0.0371749 0.463376
-3.6308 -0.0375294 0.439387
-3.62889 -0.0377085 0.427374
-3.63297 -0.0378684 0.416405
-3.63905 -0.0380269 0.405452
-3.63714 -0.038206 0.393439
-3.63219 -0.0382984 0.387402
-3.64062 -0.0391512 0.32947
-3.64774 -0.0393829 0.313525
-3.65084 -0.0395584 0.301549
-3.65092 -0.0397212 0.290551
-3.659 -0.0398782 0.279612
-3.6491 -0.0410778 0.266554
-3.66017 -0.0402179 0.256623
-3.65532 -0.0405028 0.237588
-3.6584 -0.0406634 0.226612
-3.66048 -0.0408248 0.215629
-3.66866 -0.0411594 0.192692
-3.67274 -0.0413194 0.181724
-3.66384 -0.0415183 0.168658
-3.65888 -0.0426107 0.162636
-3.67396 -0.0417479 0.152735
-3.67114 -0.0421054 0.128716
-3.66823 -0.0432851 0.11671
-3.67331 -0.0424444 0.105734
-3.68039 -0.0426021 0.0947883
-3.67961 -0.0430321 0.0657848
-3.6847 -0.0431913 0.0548239
-3.68987 -0.0435281 0.0318647
-3.68896 -0.0437064 0.0198588
-3.688 -0.043796 0.0138521
-3.69309 -0.0439552 0.00289127
-3.69717 -0.0431152 -0.00809193
-3.69735 -0.0444703 -0.0320738
-3.69843 -0.0446324 -0.0430648
-3.69852 -0.0448101 -0.0550631
-3.69457 -0.0449018 -0.0610924
-3.69166 -0.0450816 -0.0731133
-3.70474 -0.0442351 -0.0840288
-3.70283 -0.0444142 -0.0960422
-3.71191 -0.0445705 -0.106973
-3.708 -0.044751 -0.119001
-3.71409 -0.0449095 -0.129955
-3.71522 -0.0451752 -0.147945
-3.71531 -0.045338 -0.158943
-3.7204 -0.045512 -0.170904
-3.72449 -0.0446868 -0.182887
-3.20855 0.103807 3.2475
-3.69069 -0.019174 -0.079505
-3.01949 0.217339 4.57358
-3.02381 0.213706 4.53066
-3.03691 0.213523 4.51776
-3.0416 0.206179 4.42689
-3.05493 0.203538 4.38302
-3.05528 0.199857 4.33708
-3.06442 0.199597 4.31915
-3.06465 0.197138 4.28818
-3.07379 0.195879 4.27026
-3.06708 0.192297 4.23126
-3.07622 0.192037 4.21333
-3.07237 0.189738 4.19333
-3.08941 0.190661 4.18745
-3.08567 0.187156 4.15347
-3.09381 0.186895 4.13553
-3.09007 0.183389 4.10155
-3.09919 0.183144 4.08462
-3.09535 0.18083 4.06362
-3.10567 0.178216 4.02173
-3.10489 0.176786 3.99274
-3.11521 0.173172 3.95087
-3.12037 0.171865 3.92992
-3.11353 0.170534 3.90789
-3.12562 0.170366 3.89598
-3.12583 0.167966 3.86901
-3.12503 0.165566 3.84204
-3.13415 0.16535 3.82711
-3.14227 0.16412 3.81119
-3.14049 0.162689 3.78219
-3.14077 0.159127 3.74424
-3.14889 0.158896 3.7283
-3.15602 0.157649 3.71137
-3.15523 0.156249 3.68438
-3.16759 0.152548 3.63652
-3.17075 0.151239 3.61557
-3.16994 0.149868 3.59058
-3.1721 0.148544 3.56861
-3.17725 0.147267 3.54966
-3.17644 0.144881 3.52369
-3.1795 0.144765 3.51571
-3.18662 0.144533 3.49977
-3.18284 0.142116 3.47177
-3.19293 0.141946 3.45985
-3.20047 0.136886 3.38797
-3.20363 0.135577 3.36701
-3.21173 0.135391 3.35407
-3.20711 0.131632 3.30309
-3.21125 0.130369 3.28513
-3.22133 0.130213 3.27421
-3.22043 0.12902 3.26122
-3.22654 0.128817 3.24727
-3.23001 0.123887 3.18436
-3.23629 0.122359 3.14842
-3.23836 0.121213 3.13845
-3.24264 0.118668 3.10152
-3.25288 0.117202 3.06961
-3.25839 0.113214 3.0027
-3.26549 0.113027 2.98976
-3.26763 0.111747 2.97079
-3.27076 0.110498 2.95383
-3.2719 0.109217 2.93486
-3.26915 0.106727 2.90187
-3.26731 0.105415 2.88087
-3.28449 0.105072 2.857
-3.28364 0.103775 2.83701
-3.28776 0.102541 2.82106
-3.29437 0.0983616 2.74116
-3.29749 0.0971271 2.7252
-3.29572 0.0946818 2.69522
-3.30678 0.0955565 2.68629
-3.30394 0.0932436 2.6653
-3.31302 0.0931022 2.65537
-3.3072 0.0917427 2.63134
-3.31031 0.0905229 2.61638
-3.3184 0.0903511 2.60444
-3.31151 0.0891389 2.5904
-3.30768 0.0878104 2.56839
-3.31576 0.0876534 2.55745
-3.31789 0.0864034 2.54049
-3.32199 0.086199 2.52652
-3.32113 0.084932 2.50853
-3.33319 0.0848223 2.50062
-3.33624 0.0847208 2.49364
-3.32444 0.0823275 2.46758
-3.32855 0.0821083 2.45262
-3.33862 0.0819824 2.44369
-3.33776 0.0807153 2.4257
-3.34696 0.0793223 2.39879
-3.33907 0.0780946 2.38375
-3.34516 0.0779213 2.37179
-3.35139 0.0764817 2.34186
-3.3535 0.0752613 2.32689
-3.35363 0.0740097 2.30991
-3.35767 0.0739386 2.30494
-3.36078 0.0737336 2.29096
-3.35891 0.0724658 2.27296
-3.366 0.0722932 2.26102
-3.36413 0.0710403 2.24402
-3.3604 0.0685047 2.20802
-3.36146 0.0684018 2.20103
-3.36456 0.0681967 2.18706
-3.37364 0.0680553 2.17713
-3.36977 0.066786 2.15911
-3.37289 0.0655663 2.14415
-3.38494 0.0664713 2.13723
-3.38108 0.065202 2.11922
-3.3881 0.0651627 2.11627
-3.38225 0.0638624 2.09624
-3.39033 0.0637054 2.0853
-3.38945 0.0624679 2.06931
-3.39057 0.0612468 2.05434
-3.38571 0.059962 2.03532
-3.38782 0.0597562 2.02133
-3.39484 0.0597169 2.01839
-3.40093 0.0595436 2.00643
-3.39806 0.0582899 1.98943
-3.40215 0.0581004 1.97646
-3.40028 0.0568622 1.96046
-3.40935 0.0567207 1.95053
-3.41245 0.0565305 1.93756
-3.40454 0.0553471 1.92551
-3.40963 0.0551731 1.91355
-3.40974 0.0539512 1.89857
-3.41185 0.0537454 1.88459
-3.41495 0.0535552 1.87161
-3.42004 0.0523813 1.85966
-3.42314 0.0521911 1.84669
-3.41833 0.0508175 1.82167
-3.42441 0.050659 1.81072
-3.42651 0.0494533 1.79675
-3.42363 0.0492291 1.78173
-3.43369 0.0491032 1.7728
-3.4348 0.0478968 1.75883
-3.42988 0.0477451 1.74879
-3.42899 0.0465225 1.7338
-3.43507 0.046364 1.72285
-3.44912 0.0472705 1.71594
-3.44326 0.0459998 1.69791
-3.44237 0.0447919 1.68392
-3.45039 0.0457532 1.68097
-3.44053 0.0434649 1.66192
-3.44861 0.0433227 1.65199
-3.45668 0.0431805 1.64205
-3.45181 0.0429252 1.62501
-3.45291 0.0417336 1.61204
-3.457 0.0415589 1.60007
-3.46005 0.0414723 1.59409
-3.45317 0.0402157 1.57706
-3.45926 0.0400572 1.5661
-3.45936 0.03985 1.5521
-3.46345 0.0386902 1.54115
-3.47152 0.0395478 1.5312
-3.46466 0.0382764 1.51316
-3.47775 0.0380934 1.50026
-3.47996 0.0366953 1.47329
-3.47508 0.035455 1.45727
-3.47917 0.0352803 1.44531
-3.47927 0.0350878 1.43231
-3.4834 0.0338244 1.41435
-3.48152 0.0336009 1.39934
-3.49556 0.0345222 1.39343
-3.48471 0.0322331 1.37438
-3.49677 0.0331233 1.36646
-3.50185 0.0329642 1.3555
-3.5009 0.0328598 1.34849
-3.49403 0.0316032 1.33146
-3.5001 0.0314595 1.3215
-3.5032 0.0312841 1.30953
-3.5013 0.0300755 1.29553
-3.50239 0.0298986 1.28354
-3.51147 0.0297571 1.27361
-3.50853 0.0296365 1.26559
-3.51162 0.0284612 1.25362
-3.51072 0.028268 1.24062
-3.51988 0.0279489 1.21869
-3.52297 0.0277735 1.20671
-3.52207 0.0265804 1.19372
-3.52721 0.0263176 1.17576
-3.5263 0.0261245 1.16276
-3.53058 0.0245798 1.12581
-3.53073 0.0242985 1.10681
-3.53998 0.0228019 1.0729
-3.5311 0.0215586 1.05685
-3.53832 0.0211345 1.0279
-3.55148 0.0208331 1.007
-3.54459 0.0206059 0.991953
-3.55067 0.0204623 0.982
-3.55081 0.0191812 0.963017
-3.56007 0.0186844 0.92909
-3.56415 0.0185245 0.918121
-3.56225 0.0183306 0.905108
-3.55237 0.0170866 0.88905
-3.57147 0.0179079 0.87618
-3.55958 0.0156773 0.861121
-3.57673 0.0163936 0.841237
-3.57283 0.0161982 0.828209
-3.57706 0.0147572 0.798258
-3.58213 0.0146128 0.788297
-3.58622 0.0144381 0.776329
-3.57534 0.0132081 0.761263
-3.59149 0.0139236 0.741371
-3.57855 0.012781 0.732289
-3.59262 0.0136579 0.723381
-3.58981 0.0122858 0.698377
-3.59788 0.0131434 0.688423
-3.59698 0.0119652 0.676432
-3.58708 0.0107508 0.662374
-3.59811 0.0116995 0.658442
-3.60319 0.0115403 0.647482
-3.58831 0.0103075 0.632386
-3.60437 0.0112006 0.624492
-3.60346 0.0110222 0.612486
-3.61267 0.0106143 0.584558
-3.60178 0.00938436 0.569492
-3.61385 0.00925987 0.560584
-3.60695 0.00906234 0.547533
-3.60605 0.00786929 0.534542
-3.61811 0.0087447 0.525618
-3.6222 0.00858478 0.51465
-3.62124 0.00849524 0.508643
-3.61634 0.00829917 0.495608
-3.61343 0.00711946 0.483601
-3.61352 0.00694183 0.471603
-3.6216 0.00679963 0.461665
-3.61769 0.00660429 0.448636
-3.63176 0.00748115 0.439728
-3.61783 0.00633784 0.430639
-3.62599 0.00601801 0.408702
-3.63207 0.00587435 0.398749
-3.63225 0.0055191 0.374752
-3.63633 0.00535918 0.363783
-3.63147 0.0050891 0.345748
-3.63356 0.00491292 0.333765
-3.64889 0.00427253 0.289884
-3.64503 0.00400318 0.271856
-3.65711 0.00384909 0.260948
-3.64829 0.00348727 0.236884
-3.65237 0.00332736 0.225915
-3.65251 0.00306091 0.207918
-3.65359 0.00289881 0.196927
-3.65767 0.0027389 0.185959
-3.65785 0.00238364 0.161962
-3.66207 0.00197208 0.133996
-3.66424 0.00163308 0.111014
-3.67041 0.00129699 0.0880624
-3.67749 0.00113926 0.0771165
-3.66855 0.00102909 0.0700498
-3.67363 0.000869903 0.0590889
-3.67871 0.000710716 0.048128
-3.6818 0.000535271 0.0361523
-3.68115 -0.000146372 -0.0098489
-3.68628 -0.000394374 -0.0268089
-3.69654 9.4712e-05 -0.0617437
-3.69362 -7.02998e-05 -0.0727647
-3.69367 -0.000159115 -0.0787639
-3.69975 -0.000317573 -0.0897172
-3.70684 -0.000490107 -0.101663
-3.71001 0.000171505 -0.124652
-3.71123 -0.000257039 -0.15364
-3.7135 -0.00077367 -0.188621
-3.01831 0.25663 4.59299
-3.04564 0.24306 4.41837
-3.05181 0.241724 4.39544
-3.05996 0.240434 4.37552
-3.05921 0.237945 4.34254
-3.06439 0.235608 4.31961
-3.06649 0.234417 4.30664
-3.07166 0.23308 4.2837
-3.07288 0.230652 4.25474
-3.08201 0.229392 4.23683
-3.07433 0.22578 4.19582
-3.08346 0.22552 4.17789
-3.09061 0.224229 4.15796
-3.08577 0.221915 4.13695
-3.09095 0.220578 4.11401
-3.09512 0.218241 4.09107
-3.10029 0.216904 4.06812
-3.10743 0.215643 4.05019
-3.11359 0.214336 4.02926
-3.11281 0.211907 4.00028
-3.1151 0.209331 3.96133
-3.12344 0.205671 3.91644
-3.13178 0.203026 3.87254
-3.15988 0.182931 3.59501
-3.1979 0.164007 3.32854
-3.4322 0.0710778 1.70346
-3.44274 0.0680195 1.63157
-3.48232 0.059954 1.42296
-3.49174 0.0581318 1.36705
-3.49015 0.0553312 1.31307
-3.49025 0.0551388 1.30008
-3.49538 0.054876 1.28212
-3.49748 0.0536999 1.27015
-3.50156 0.05354 1.25918
-3.50864 0.0533822 1.24823
-3.50275 0.052156 1.2332
-3.50684 0.051996 1.22224
-3.50794 0.0518043 1.20925
-3.505 0.0516837 1.20122
-3.50809 0.0515083 1.18925
-3.51018 0.0503322 1.17728
-3.51127 0.0501553 1.16529
-3.51934 0.0500131 1.15535
-3.52841 0.0508863 1.1464
-3.52352 0.0496608 1.13138
-3.52557 0.0495734 1.1254
-3.52267 0.0483641 1.11139
-3.53074 0.0492366 1.10244
-3.53393 0.0478688 1.07748
-3.52804 0.0466573 1.06345
-3.53207 0.0465862 1.05848
-3.52918 0.0463768 1.04446
-3.54224 0.0472677 1.03655
-3.53236 0.0450238 1.0205
-3.53944 0.0458808 1.01054
-3.54352 0.0457209 0.999575
-3.54062 0.0445116 0.985569
-3.54366 0.0444398 0.980592
-3.54974 0.0442813 0.969639
-3.55193 0.0439275 0.945657
-3.55202 0.0437499 0.933659
-3.55211 0.0425575 0.920675
-3.5542 0.0423814 0.908692
-3.56522 0.0433597 0.90676
-3.55932 0.0421482 0.892732
-3.5674 0.042006 0.882793
-3.56151 0.0417796 0.86775
-3.57058 0.0416529 0.858819
-3.56269 0.0404251 0.843776
-3.57575 0.0413161 0.83586
-3.56991 0.040001 0.814833
-3.57898 0.0398743 0.805902
-3.57409 0.0396634 0.791866
-3.57018 0.0384682 0.778852
-3.57926 0.0393266 0.768907
-3.57949 0.0378826 0.738926
-3.58058 0.0377057 0.726935
-3.58267 0.0375296 0.714952
-3.58774 0.0373852 0.70499
-3.58883 0.0372083 0.693
-3.58593 0.0360138 0.679994
-3.58897 0.0359419 0.675017
-3.58806 0.0357636 0.663011
-3.59024 0.0354098 0.639029
-3.59731 0.0352669 0.629083
-3.59641 0.0350737 0.616078
-3.60049 0.0349286 0.606109
-3.59564 0.033629 0.586089
-3.59772 0.0334676 0.575106
-3.59881 0.0332907 0.563115
-3.6029 0.0331308 0.552146
-3.61006 0.0328102 0.530202
-3.6082 0.0325423 0.51219
-3.61827 0.0324016 0.502266
-3.61337 0.0322055 0.48923
-3.61255 0.0308497 0.465241
-3.62662 0.0317265 0.456333
-3.62167 0.0316193 0.449296
-3.61976 0.0304403 0.437298
-3.61785 0.0302612 0.425284
-3.62802 0.0309427 0.403348
-3.62919 0.0296031 0.380373
-3.64122 0.0305525 0.376449
-3.64131 0.0303749 0.364451
-3.64148 0.0300344 0.341454
-3.64357 0.0298582 0.329471
-3.64965 0.0297146 0.319517
-3.64175 0.0285164 0.306474
-3.64079 0.0284269 0.300467
-3.64988 0.0292705 0.289521
-3.64797 0.0280915 0.277523
-3.65205 0.0289315 0.26654
-3.65513 0.0287709 0.255564
-3.65322 0.0275919 0.243565
-3.6623 0.0284355 0.232619
-3.66334 0.0283622 0.227628
-3.65944 0.0281669 0.214599
-3.65653 0.0269872 0.202593
-3.66061 0.0268273 0.191625
-3.6557 0.026646 0.179589
-3.66678 0.0275059 0.169658
-3.66582 0.0274163 0.163652
-3.66691 0.0272394 0.151661
-3.673 0.027081 0.140707
-3.67608 0.0269203 0.129732
-3.67517 0.026742 0.117726
-3.68225 0.0265842 0.10678
-3.67843 0.0262261 0.082753
-3.67947 0.0261528 0.0777612
-3.68456 0.0259788 0.0658005
-3.68364 0.0258152 0.0547945
-3.68491 0.0252979 0.0198069
-3.68895 0.025212 0.0138378
-3.69712 0.025892 -0.00811379
-3.70229 0.0255552 -0.031073
-3.70338 0.0253783 -0.0430638
-3.70052 0.0251097 -0.0610839
-3.70769 0.0247743 -0.0840281
-3.71086 0.024436 -0.107002
-3.71495 0.025276 -0.117986
-3.71608 0.0250103 -0.135976
-3.71816 0.0248489 -0.146959
-3.71935 0.0244944 -0.170948
-3.01434 0.288535 4.58649
-3.0215 0.287229 4.56556
-3.02571 0.284818 4.53762
-3.03288 0.283497 4.51569
-3.02707 0.281108 4.48968
-3.03447 0.276329 4.4368
-3.04607 0.270168 4.35797
-3.0605 0.266335 4.30113
-3.06986 0.262646 4.25424
-3.07108 0.260218 4.22529
-3.07625 0.257881 4.20236
-3.07735 0.25769 4.18937
-3.07659 0.25423 4.15841
-3.08472 0.25297 4.14048
-3.09902 0.250403 4.10162
-3.10021 0.249019 4.07565
-3.10055 0.245368 4.0317
-3.09977 0.242938 4.00273
-3.10987 0.241738 3.98882
-3.10909 0.239309 3.95984
-3.11128 0.23694 3.93489
-3.12436 0.236802 3.92499
-3.11961 0.23431 3.89199
-3.11773 0.233072 3.87599
-3.12883 0.231887 3.86309
-3.13398 0.230595 3.84315
-3.13219 0.228179 3.81516
-3.13834 0.226888 3.79523
-3.13755 0.224488 3.76825
-3.14071 0.223164 3.74629
-3.14279 0.222018 3.73632
-3.14298 0.220648 3.71134
-3.15346 0.215708 3.64749
-3.15563 0.214369 3.62452
-3.16204 0.209575 3.57063
-3.17313 0.20942 3.55971
-3.18087 0.201975 3.46187
-3.20059 0.195568 3.3661
-3.31829 0.136539 2.48174
-3.49842 0.0767869 1.27581
-3.51021 0.072241 1.17095
-3.50926 0.0721366 1.16395
-3.02479 0.317606 4.52313
-3.02604 0.315133 4.49117
-3.03221 0.312798 4.46825
-3.03851 0.309225 4.42934
-3.04395 0.30437 4.37145
-3.05012 0.303034 4.34851
-3.05751 0.298285 4.29763
-3.06269 0.296934 4.27368
-3.05984 0.294636 4.2537
-3.0692 0.290932 4.20581
-3.0746 0.286166 4.15392
-3.08076 0.28486 4.13298
-3.09976 0.273905 4.00027
-3.11993 0.261641 3.84658
-3.13023 0.258056 3.8067
-3.15259 0.244408 3.62705
-3.20322 0.217309 3.28079
-3.21174 0.212294 3.21191
-3.21489 0.211015 3.19295
-3.222 0.210798 3.17801
-3.22315 0.208503 3.15805
-3.25481 0.19327 2.93848
-3.28241 0.178166 2.72789
-3.46702 0.106471 1.45816
-3.51546 0.0937241 1.13567
-3.67583 0.0683902 0.0261014
-3.69048 0.0681273 -0.0597962
-3.69157 0.0679504 -0.071787
-3.69569 0.0677017 -0.0887545
-3.69805 0.0670074 -0.135733
-3.69913 0.0668453 -0.146724
-3.71535 0.0674276 -0.175614
-3.70744 0.0672441 -0.187673
-3.71652 0.0670878 -0.198604
-3.71461 0.0669087 -0.210617
-3.1914 0.256866 3.38613
-3.22523 0.267276 3.14219
-3.26649 0.24388 2.84381
-3.48911 0.149291 1.30967
-3.49528 0.147955 1.28674
-3.49339 0.147731 1.27172
-3.50689 0.144764 1.20586
-3.51341 0.141762 1.13795
-3.52058 0.141426 1.115
-3.525 0.138601 1.05907
-3.52809 0.138425 1.04709
-3.52818 0.138248 1.03509
-3.53825 0.138122 1.02617
-3.53032 0.136983 1.01713
-3.54076 0.135117 0.958225
-3.54485 0.134957 0.947256
-3.55097 0.13471 0.930304
-3.55106 0.134532 0.918306
-3.54717 0.133322 0.904292
-3.55225 0.133163 0.893331
-3.55035 0.131969 0.880333
-3.55444 0.131809 0.869365
-3.55249 0.131704 0.86235
-3.56555 0.132595 0.854434
-3.56564 0.132417 0.842436
-3.56074 0.131206 0.828415
-3.56882 0.131064 0.818477
-3.56392 0.129868 0.805456
-3.56601 0.129692 0.793473
-3.56505 0.129603 0.787466
-3.57314 0.129446 0.776528
-3.57731 0.129108 0.753561
-3.57341 0.127913 0.740547
-3.58148 0.12877 0.730594
-3.58951 0.129717 0.72664
-3.58062 0.127503 0.712604
-3.59478 0.128203 0.691697
-3.5789 0.125954 0.675609
-3.58398 0.125795 0.664648
-3.59006 0.126651 0.65468
-3.58412 0.125529 0.64665
-3.59518 0.126403 0.63772
-3.59527 0.126226 0.625721
-3.59037 0.12503 0.6127
-3.60752 0.125746 0.592816
-3.59863 0.124532 0.578765
-3.60076 0.124282 0.561782
-3.60385 0.124107 0.549807
-3.60294 0.122928 0.537816
-3.615 0.123804 0.528892
-3.60611 0.12259 0.514841
-3.61219 0.122432 0.503888
-3.61523 0.12336 0.498896
-3.60842 0.120985 0.473877
-3.61776 0.120325 0.428951
-3.62089 0.120076 0.411976
-3.62497 0.119916 0.401007
-3.62315 0.119559 0.376996
-3.63844 0.119993 0.338099
-3.63771 0.118474 0.303111
-3.64692 0.118066 0.275183
-3.64618 0.117547 0.24018
-3.65136 0.11721 0.217221
-3.65644 0.117051 0.20626
-3.64749 0.115941 0.199208
-3.66391 0.116124 0.143321
-3.66205 0.115856 0.125309
-3.66014 0.115677 0.113295
-3.67321 0.116538 0.10338
-3.67139 0.115182 0.0793828
-3.6816 0.115774 0.0514471
-3.67778 0.115431 0.0284202
-3.67487 0.114251 0.016414
-3.68395 0.115095 0.00546846
-3.68712 0.114757 -0.0175058
-3.68217 0.114664 -0.0235426
-3.69534 0.115333 -0.0464564
-3.69642 0.115171 -0.0574474
-3.69561 0.114815 -0.0814516
-3.69882 0.114388 -0.110425
-3.69791 0.114224 -0.121431
-3.70808 0.114891 -0.144367
-3.70517 0.113711 -0.156374
-3.70921 0.114625 -0.162357
-3.7093 0.114462 -0.173356
-3.01427 0.432489 4.58236
-3.0234 0.431229 4.56444
-3.02861 0.428834 4.53751
-3.03774 0.427574 4.5196
-3.03898 0.424116 4.48865
-3.0412 0.420674 4.45872
-3.04836 0.419368 4.43779
-3.04849 0.417132 4.42182
-3.05367 0.414765 4.39689
-3.05293 0.411276 4.36393
-3.06206 0.410017 4.34602
-3.06944 0.405282 4.29614
-3.07067 0.401839 4.26619
-3.06781 0.399556 4.2472
-3.07794 0.398312 4.23029
-3.0841 0.397005 4.20936
-3.0863 0.393622 4.18342
-3.08652 0.391193 4.15445
-3.09268 0.388887 4.13353
-3.08795 0.385351 4.09754
-3.09499 0.385282 4.0926
-3.09223 0.381806 4.06062
-3.10949 0.379315 4.02678
-3.10969 0.375916 3.99983
-3.10793 0.372456 3.96887
-3.11595 0.373417 3.96591
-3.1122 0.369926 3.93293
-3.11834 0.36765 3.91401
-3.11756 0.36522 3.88503
-3.12667 0.364019 3.87112
-3.1249 0.360559 3.84015
-3.13203 0.359328 3.82422
-3.12817 0.357044 3.80522
-3.13827 0.356859 3.7923
-3.14163 0.352151 3.74439
-3.14202 0.346396 3.69347
-3.14726 0.343927 3.66154
-3.24482 0.292088 3.06096
-3.25064 0.282494 2.95313
-3.26635 0.275114 2.85935
-3.29821 0.255496 2.61384
-3.34146 0.234131 2.31745
-3.01124 0.468498 4.5828
-3.03151 0.46498 4.547
-3.0288 0.460416 4.50904
-3.02399 0.457042 4.48405
-3.03337 0.452294 4.43319
-3.04671 0.448653 4.38933
-3.04893 0.445211 4.3594
-3.05906 0.443981 4.34349
-3.05447 0.437179 4.28955
-3.05866 0.434812 4.26461
-3.07075 0.434628 4.2517
-3.06505 0.430047 4.21272
-3.06726 0.426634 4.18479
-3.07033 0.425503 4.17583
-3.07353 0.423121 4.14988
-3.08684 0.419524 4.10903
-3.08706 0.416095 4.08008
-3.1009 0.405462 3.96932
-3.10308 0.403109 3.94537
-3.10726 0.400771 3.92244
-3.1134 0.398495 3.90351
-3.11856 0.397188 3.88257
-3.1272 0.387951 3.79876
-3.12938 0.385597 3.77481
-3.13255 0.383274 3.75286
-3.13878 0.38082 3.72194
-3.14096 0.378466 3.69799
-3.15559 0.371248 3.61519
-3.1547 0.369041 3.60122
-3.16002 0.365408 3.55831
-3.16634 0.360791 3.51642
-3.16851 0.359467 3.49445
-3.20018 0.339234 3.27496
-3.21258 0.334444 3.22111
-3.2234 0.323854 3.11334
-3.5019 0.192681 1.20011
-3.51307 0.192363 1.1782
-3.51331 0.19089 1.14622
-3.5155 0.189521 1.12125
-3.52068 0.18917 1.09729
-3.52077 0.187992 1.08531
-3.5279 0.187745 1.06836
-3.53739 0.185775 1.00246
-3.53967 0.183229 0.965505
-3.54608 0.181434 0.911573
-3.55016 0.181274 0.900604
-3.56383 0.177981 0.812744
-3.56691 0.177821 0.801768
-3.56809 0.177466 0.777779
-3.56833 0.176007 0.746798
-3.57957 0.175527 0.713885
-3.58466 0.175368 0.702924
-3.59028 0.172143 0.620003
-3.61359 0.168598 0.447207
-3.62633 0.166157 0.349326
-3.62641 0.165994 0.338327
-3.63149 0.165835 0.327367
-3.64397 0.164911 0.264466
-3.64618 0.164483 0.235485
-3.64327 0.164303 0.223464
-3.64536 0.164142 0.21248
-3.65044 0.163983 0.201519
-3.65452 0.163823 0.190551
-3.65266 0.163555 0.172538
-3.65691 0.163054 0.138573
-3.658 0.162877 0.126582
-3.66109 0.162717 0.115606
-3.66413 0.16263 0.10963
-3.66522 0.162468 0.0986389
-3.66939 0.16313 0.0756574
-3.66848 0.161952 0.0636663
-3.66956 0.16179 0.0526753
-3.67265 0.162615 0.0406848
-3.67373 0.162452 0.0296938
-3.67686 0.162203 0.0127187
-3.67995 0.162028 0.000742955
-3.68103 0.161865 -0.010248
-3.68113 0.161688 -0.0222464
-3.68221 0.161526 -0.0332373
-3.68534 0.161261 -0.0512123
-3.68643 0.161099 -0.0622032
-3.6976 0.161767 -0.0851321
-3.69768 0.161604 -0.0961306
-3.69877 0.161427 -0.108121
-3.69682 0.161337 -0.114136
-3.7009 0.162177 -0.125119
-3.69999 0.160999 -0.13711
-3.70807 0.161841 -0.148063
-3.71216 0.162667 -0.160046
-3.70934 0.161324 -0.183051
-3.71138 0.162237 -0.18905
-3.71955 0.161902 -0.211986
-3.02447 0.498001 4.54846
-3.02966 0.495635 4.52353
-3.03881 0.49336 4.50463
-3.04325 0.487505 4.44674
-3.04646 0.484093 4.41881
-3.04856 0.482902 4.40584
-3.04781 0.478413 4.3729
-3.06311 0.474833 4.33306
-3.06631 0.47245 4.30712
-3.08119 0.459744 4.1914
-3.08735 0.457438 4.17048
-3.0968 0.451557 4.11063
-3.09998 0.449204 4.08669
-3.09646 0.44127 4.02377
-3.11371 0.438794 3.99093
-3.11304 0.434157 3.94799
-3.12533 0.430589 3.90913
-3.12256 0.427143 3.87915
-3.13168 0.425927 3.86424
-3.13902 0.421267 3.81936
-3.13733 0.416659 3.77841
-3.1405 0.414321 3.75546
-3.14069 0.411951 3.7305
-3.15594 0.409474 3.69764
-3.14928 0.403803 3.65267
-3.16057 0.400264 3.6158
-3.16806 0.393307 3.55095
-3.18013 0.393168 3.54104
-3.17824 0.391959 3.52705
-3.18456 0.388342 3.48514
-3.18969 0.386095 3.46821
-3.19004 0.381399 3.42128
-3.1931 0.380283 3.41332
-3.19824 0.37902 3.39537
-3.20651 0.376494 3.35946
-3.19975 0.37203 3.32848
-3.21199 0.369565 3.2966
-3.21719 0.36717 3.26967
-3.22563 0.362317 3.2118
-3.22695 0.357697 3.16987
-3.23613 0.356363 3.14696
-3.2343 0.354021 3.12397
-3.24141 0.352819 3.11004
-3.24569 0.34926 3.07212
-3.23791 0.34584 3.04411
-3.25304 0.344599 3.02724
-3.24723 0.34221 3.00123
-3.25334 0.341008 2.98729
-3.25548 0.339728 2.96832
-3.2596 0.338509 2.95337
-3.26174 0.336229 2.93442
-3.26678 0.336159 2.92946
-3.26296 0.333801 2.90546
-3.26807 0.332583 2.89051
-3.2712 0.331333 2.87355
-3.27631 0.33013 2.85961
-3.27447 0.327818 2.83863
-3.28157 0.327616 2.82468
-3.27072 0.324327 2.80564
-3.2808 0.324171 2.79472
-3.28293 0.322921 2.77775
-3.28506 0.320671 2.7608
-3.28322 0.319359 2.7398
-3.29429 0.319234 2.73089
-3.2845 0.315812 2.70286
-3.29648 0.316851 2.70494
-3.29662 0.314584 2.68697
-3.29974 0.31335 2.67101
-3.30783 0.313178 2.65907
-3.30513 0.309599 2.6201
-3.31329 0.308294 2.59917
-3.30845 0.305965 2.57717
-3.31455 0.304777 2.56423
-3.31866 0.303573 2.55028
-3.31879 0.302306 2.53229
-3.3229 0.301102 2.51834
-3.32098 0.299938 2.50734
-3.32509 0.298734 2.49339
-3.32919 0.298529 2.47942
-3.32436 0.2962 2.45742
-3.32847 0.294996 2.44346
-3.34363 0.294681 2.42158
-3.33873 0.292486 2.40857
-3.3329 0.290156 2.38656
-3.34893 0.291108 2.38267
-3.33912 0.287731 2.35764
-3.34222 0.286526 2.34368
-3.34931 0.286354 2.33173
-3.34553 0.283936 2.30374
-3.36156 0.284874 2.29884
-3.35386 0.280291 2.25985
-3.36691 0.281197 2.25293
-3.36721 0.277605 2.21298
-3.37231 0.277416 2.20002
-3.37268 0.272706 2.15209
-3.37578 0.272501 2.13811
-3.37988 0.271312 2.12516
-3.37198 0.269114 2.11213
-3.39112 0.269846 2.09326
-3.39124 0.26861 2.07728
-3.39435 0.267405 2.06332
-3.39757 0.264978 2.03437
-3.39476 0.262606 2.00938
-3.40383 0.263479 2.00044
-3.40394 0.262257 1.98545
-3.40306 0.26102 1.96946
-3.40517 0.259814 1.95549
-3.40435 0.257458 1.93152
-3.41265 0.254872 1.89162
-3.40779 0.253602 1.8736
-3.41692 0.252357 1.85668
-3.41802 0.252151 1.84269
-3.42808 0.25204 1.83477
-3.42432 0.249563 1.80277
-3.44705 0.244159 1.70701
-3.4544 0.241483 1.6611
-3.45262 0.239052 1.63212
-3.46117 0.234978 1.55923
-3.45839 0.232547 1.53024
-3.49574 0.223924 1.35163
-3.53781 0.211883 1.07708
-3.5718 0.201014 0.814463
-3.57407 0.199483 0.778498
-3.58945 0.198739 0.727618
-3.58364 0.197365 0.702591
-3.59894 0.196798 0.663709
-3.59939 0.19391 0.603747
-3.60687 0.191968 0.539824
-3.64455 0.188693 0.317125
-3.65068 0.188446 0.300173
-3.65212 0.186588 0.242203
-3.6473 0.18523 0.218184
-3.65851 0.185823 0.190255
-3.66476 0.185324 0.156305
-3.66298 0.184894 0.127294
-3.67915 0.185579 0.105403
-3.68132 0.18524 0.0824209
-3.68863 0.185638 0.0414645
-3.68571 0.184474 0.0304582
-3.69188 0.185137 0.0074917
-3.68102 0.182863 -0.010559
-3.69119 0.18353 -0.0334954
-3.21682 0.382924 3.18542
-3.70625 0.202436 -0.175681
-3.02627 0.570305 4.56841
-3.01762 0.563618 4.52243
-3.03097 0.558947 4.4766
-3.03616 0.555581 4.45168
-3.04159 0.548742 4.39482
-3.04368 0.547566 4.38285
-3.06639 0.537206 4.29016
-3.05672 0.531548 4.24616
-3.06673 0.531541 4.24524
-3.06718 0.524668 4.18634
-3.0884 0.522254 4.15753
-3.0827 0.516673 4.11856
-3.09082 0.515427 4.10164
-3.08202 0.511036 4.07563
-3.0872 0.5087 4.0527
-3.09433 0.507439 4.03477
-3.09554 0.50404 4.00783
-3.10487 0.499396 3.96396
-3.10508 0.495996 3.93701
-3.10934 0.492481 3.90209
-3.12362 0.488959 3.86625
-3.126 0.483206 3.81534
-3.13164 0.472967 3.73152
-3.14194 0.469398 3.69265
-3.15321 0.465873 3.65678
-3.15151 0.46128 3.61683
-3.15486 0.455602 3.57093
-3.16513 0.452077 3.53506
-3.17631 0.450744 3.51216
-3.17866 0.445065 3.46625
-3.18397 0.440462 3.42536
-3.18314 0.438121 3.40238
-3.18639 0.43465 3.37045
-3.19466 0.431124 3.33456
-3.19681 0.428829 3.31461
-3.19897 0.42652 3.29366
-3.2041 0.425272 3.27671
-3.20336 0.421768 3.24275
-3.21162 0.418257 3.20786
-3.21179 0.415931 3.1859
-3.21989 0.414745 3.17297
-3.21699 0.413535 3.15897
-3.22112 0.411287 3.14203
-3.2322 0.411147 3.13211
-3.23037 0.408805 3.10913
-3.22855 0.406463 3.08615
-3.23367 0.40423 3.07022
-3.24672 0.405136 3.0633
-3.23589 0.401803 3.04127
-3.23903 0.399539 3.02332
-3.24215 0.398289 3.00636
-3.25422 0.398165 2.99745
-3.2504 0.395807 2.97346
-3.26048 0.395666 2.96353
-3.25765 0.392324 2.94056
-3.25788 0.38888 2.91061
-3.25605 0.386553 2.88862
-3.26131 0.384054 2.8547
-3.27657 0.381547 2.81984
-3.28098 0.375751 2.76596
-3.27715 0.373423 2.74396
-3.2912 0.374329 2.73705
-3.29431 0.37211 2.7221
-3.28446 0.369821 2.70306
-3.29056 0.368633 2.69012
-3.30362 0.369524 2.68221
-3.29779 0.36618 2.65921
-3.29793 0.364913 2.64123
-3.30906 0.363655 2.62333
-3.30622 0.361342 2.60234
-3.30636 0.359076 2.58437
-3.30451 0.356779 2.56439
-3.30564 0.355528 2.54741
-3.31968 0.356449 2.5415
-3.31485 0.35312 2.51951
-3.31293 0.351971 2.50951
-3.32499 0.352861 2.50159
-3.31929 0.348265 2.46161
-3.3234 0.347061 2.44766
-3.33068 0.344504 2.40974
-3.33293 0.341032 2.37781
-3.34001 0.340874 2.36686
-3.33928 0.337355 2.3319
-3.3394 0.336119 2.31592
-3.35202 0.328914 2.23411
-3.3689 0.320195 2.11735
-3.38255 0.313947 2.03253
-3.40525 0.307587 1.93979
-3.40383 0.301461 1.86386
-3.42373 0.293699 1.7441
-3.42594 0.291286 1.71615
-3.43014 0.289904 1.6902
-3.44446 0.288293 1.64833
-3.45165 0.286928 1.6234
-3.45332 0.279612 1.53451
-3.46286 0.275568 1.46363
-3.46804 0.274216 1.43968
-3.47118 0.272937 1.42072
-3.4817 0.269924 1.35184
-3.4818 0.268731 1.33886
-3.49241 0.26454 1.25799
-3.50377 0.262852 1.21109
-3.50193 0.26054 1.19011
-3.50611 0.259188 1.16616
-3.5197 0.256043 1.08829
-3.52088 0.254689 1.06432
-3.52497 0.254514 1.05235
-3.5281 0.25425 1.03438
-3.54125 0.253963 1.01448
-3.53247 0.251542 0.986443
-3.54078 0.249941 0.945523
-3.54305 0.24841 0.909558
-3.54813 0.248251 0.898597
-3.54518 0.247145 0.891591
-3.56123 0.249053 0.884682
-3.56342 0.247699 0.860715
-3.55952 0.246489 0.846702
-3.56061 0.246312 0.834711
-3.57581 0.246938 0.808813
-3.5749 0.24576 0.796822
-3.58207 0.245425 0.773878
-3.56819 0.243178 0.757804
-3.57727 0.244036 0.747859
-3.58031 0.243964 0.742882
-3.5774 0.242785 0.730876
-3.58865 0.243289 0.696948
-3.58475 0.241094 0.68395
-3.59686 0.242881 0.669012
-3.59196 0.240685 0.656006
-3.59015 0.239313 0.631009
-3.60122 0.240188 0.622079
-3.59845 0.238727 0.591075
-3.60961 0.239424 0.570146
-3.61287 0.237908 0.535188
-3.615 0.237658 0.518206
-3.6141 0.237465 0.5052
-3.61137 0.23493 0.469212
-3.60946 0.234751 0.457198
-3.62648 0.236734 0.455297
-3.61958 0.235521 0.441261
-3.61567 0.234341 0.429247
-3.63174 0.236219 0.420339
-3.62184 0.23402 0.407296
-3.62193 0.233842 0.395297
-3.62107 0.232575 0.377307
-3.63713 0.234453 0.368399
-3.63921 0.234292 0.357416
-3.62532 0.232075 0.343342
-3.6334 0.232918 0.332389
-3.64148 0.233775 0.322435
-3.63957 0.232596 0.310437
-3.63662 0.231491 0.30343
-3.64969 0.233367 0.294499
-3.64179 0.232168 0.281456
-3.64188 0.230991 0.269472
-3.65095 0.232849 0.259512
-3.64314 0.230474 0.234485
-3.65517 0.232423 0.230546
-3.65126 0.231242 0.218532
-3.64635 0.230061 0.206511
-3.65644 0.230906 0.195573
-3.64753 0.229707 0.182522
-3.65661 0.230565 0.172576
-3.66269 0.230407 0.161623
-3.65674 0.229299 0.154594
-3.66083 0.230139 0.14361
-3.66991 0.230982 0.132665
-3.66808 0.229641 0.109668
-3.66317 0.228459 0.0976466
-3.6673 0.229211 0.0806642
-3.67238 0.229051 0.0697033
-3.66748 0.22787 0.0576822
-3.67456 0.228712 0.0467215
-3.67765 0.229537 0.034731
-3.67474 0.228357 0.0227249
-3.67582 0.228195 0.0117339
-3.67787 0.228108 0.0057498
-3.68113 0.227592 -0.0292228
-3.68121 0.227429 -0.0402213
-3.69438 0.229098 -0.0631499
-3.69742 0.229026 -0.0681267
-3.68751 0.227841 -0.0801855
-3.6926 0.227667 -0.0921462
-3.69778 0.22833 -0.11512
-3.69387 0.22715 -0.127134
-3.69695 0.227989 -0.138125
-3.70699 0.228907 -0.144063
-3.70117 0.227563 -0.16709
-3.70834 0.228227 -0.190049
-3.02524 0.609315 4.56882
-3.02649 0.604828 4.53589
-3.03501 0.595813 4.46708
-3.04219 0.593478 4.44416
-3.05897 0.580966 4.34146
-3.05612 0.578668 4.32147
-3.06526 0.576408 4.30357
-3.0655 0.57195 4.27264
-3.08136 0.558275 4.15894
-3.09072 0.553586 4.11207
-3.10742 0.542222 4.01936
-3.11171 0.537678 3.98245
-3.10597 0.533156 3.94747
-3.13067 0.523812 3.85578
-3.13483 0.521505 3.83484
-3.13504 0.51809 3.80689
-3.14434 0.513505 3.76702
-3.14653 0.510152 3.74309
-3.1496 0.510006 3.73311
-3.16048 0.496312 3.61838
-3.17636 0.483607 3.50267
-3.20248 0.467436 3.35509
-3.22269 0.450098 3.19647
-3.24887 0.434809 3.04088
-3.26063 0.424323 2.94011
-3.28596 0.406751 2.76553
-3.28809 0.405501 2.74857
-3.29732 0.403064 2.71867
-3.30277 0.39718 2.65879
-3.30405 0.392633 2.62186
-3.31412 0.393507 2.61292
-3.31426 0.391241 2.59495
-3.31639 0.389991 2.57799
-3.31454 0.387694 2.558
-3.31871 0.385356 2.53507
-3.32296 0.381871 2.50214
-3.31714 0.379527 2.47913
-3.3282 0.379416 2.47122
-3.32442 0.375984 2.44223
-3.33847 0.376891 2.43533
-3.33761 0.374624 2.41735
-3.34184 0.372168 2.38641
-3.34694 0.371979 2.37345
-3.34807 0.369729 2.35649
-3.34714 0.368595 2.3475
-3.34627 0.367328 2.32951
-3.35435 0.367186 2.31957
-3.35149 0.364902 2.30058
-3.35373 0.36143 2.26865
-3.36381 0.36129 2.25872
-3.35989 0.360124 2.24771
-3.36611 0.357714 2.21979
-3.37455 0.352847 2.16092
-3.38059 0.353777 2.15595
-3.37473 0.350492 2.13695
-3.37598 0.348019 2.10499
-3.38803 0.348924 2.09807
-3.38318 0.345625 2.07808
-3.3892 0.346585 2.07511
-3.38037 0.343253 2.05309
-3.38944 0.344111 2.04314
-3.39056 0.34189 2.02818
-3.39887 0.339289 1.98728
-3.39097 0.337091 1.97425
-3.407 0.339029 1.96934
-3.40513 0.336791 1.95335
-3.40723 0.335585 1.93939
-3.40934 0.335379 1.9254
-3.40659 0.331889 1.89243
-3.41361 0.33185 1.88948
-3.41671 0.331659 1.87651
-3.42179 0.3305 1.86556
-3.42131 0.324494 1.79764
-3.4264 0.32432 1.78568
-3.4265 0.323112 1.77169
-3.43768 0.32278 1.74878
-3.44177 0.321605 1.73683
-3.43994 0.319264 1.71384
-3.43607 0.318009 1.69683
-3.43518 0.316787 1.68184
-3.45233 0.316518 1.66297
-3.45558 0.315017 1.62901
-3.46077 0.312651 1.60408
-3.46287 0.312459 1.5911
-3.45899 0.31022 1.5751
-3.46319 0.308838 1.54915
-3.46633 0.307559 1.53019
-3.47242 0.307401 1.51924
-3.47451 0.30721 1.50625
-3.47661 0.306019 1.49329
-3.46276 0.302713 1.47323
-3.47976 0.30474 1.47433
-3.48525 0.300782 1.40942
-3.48262 0.297055 1.36045
-3.49876 0.296785 1.34157
-3.50305 0.295225 1.30362
-3.50938 0.292579 1.2597
-3.50848 0.291386 1.24671
-3.51361 0.291123 1.22875
-3.52307 0.288227 1.16785
-3.53149 0.285419 1.11295
-3.54237 0.278709 0.997117
-3.62034 0.261963 0.470879
-3.16911 0.509058 3.53325
-3.18543 0.505449 3.49142
-3.19389 0.498552 3.43057
-3.21501 0.481378 3.28297
-3.26477 0.443042 2.92086
-3.26529 0.435022 2.85197
-3.27765 0.431335 2.80511
-3.29843 0.421811 2.7014
-3.29156 0.418569 2.68539
-3.30262 0.419444 2.67646
-3.29708 0.411552 2.61653
-3.30338 0.407965 2.57662
-3.31856 0.406621 2.55275
-3.32267 0.406416 2.53878
-3.31797 0.400821 2.49883
-3.3285 0.394808 2.42998
-3.32876 0.39129 2.39503
-3.34479 0.392242 2.39114
-3.3369 0.390014 2.37611
-3.34127 0.385307 2.32821
-3.35712 0.375661 2.21645
-3.36824 0.375418 2.19954
-3.36936 0.374196 2.18456
-3.37201 0.365926 2.09869
-3.38419 0.364579 2.0748
-3.39635 0.351324 1.92207
-3.41057 0.350905 1.89318
-3.41577 0.348509 1.86625
-3.42921 0.34466 1.8084
-3.42954 0.341009 1.76445
-3.42904 0.335047 1.69953
-3.43822 0.334698 1.6756
-3.43429 0.332562 1.6666
-3.45143 0.333293 1.64771
-3.45684 0.329498 1.5938
-3.44792 0.327329 1.58277
-3.45741 0.323373 1.51789
-3.45751 0.322181 1.5049
-3.47156 0.324087 1.49798
-3.47701 0.319218 1.43909
-3.48334 0.316571 1.39517
-3.47746 0.31533 1.37914
-3.49052 0.316221 1.37122
-3.48773 0.313819 1.34423
-3.50313 0.312046 1.29137
-3.51892 0.306503 1.18655
-3.51736 0.301644 1.12861
-3.52453 0.301308 1.10566
-3.52786 0.298674 1.06272
-3.52914 0.296127 1.02576
-3.53427 0.295865 1.0078
-3.53636 0.295688 0.99582
-3.54752 0.295386 0.974906
-3.54485 0.292732 0.930919
-3.56 0.293447 0.91102
-3.55725 0.290971 0.879031
-3.56583 0.287838 0.802131
-3.56502 0.286467 0.777142
-3.57717 0.287165 0.756221
-3.5774 0.284721 0.726254
-3.57567 0.283187 0.690259
-3.58883 0.283885 0.669345
-3.61636 0.277899 0.466613
-3.62465 0.277328 0.427679
-3.62393 0.275794 0.391691
-3.63118 0.275296 0.357748
-3.63848 0.274709 0.317806
-3.64965 0.275392 0.295877
-3.63376 0.273173 0.281788
-3.65395 0.274802 0.255913
-3.64405 0.272603 0.242869
-3.65213 0.273446 0.231916
-3.64735 0.272013 0.202897
-3.65343 0.271854 0.191944
-3.65492 0.270908 0.12796
-3.67334 0.271077 0.0710887
-3.6889 0.271992 -0.00281789
-3.68512 0.27056 -0.0318292
-3.68821 0.270385 -0.0438049
-3.68338 0.269041 -0.0668246
-3.70051 0.271801 -0.0837388
-3.70885 0.271126 -0.129672
-3.71207 0.271699 -0.15866
-3.01215 0.676402 4.57473
-3.01733 0.673036 4.54981
-3.02352 0.669685 4.52591
-3.02575 0.666243 4.49597
-3.03194 0.662878 4.47106
-3.03515 0.659466 4.44313
-3.03032 0.655122 4.42016
-3.04342 0.654939 4.40726
-3.04466 0.650481 4.37633
-3.04884 0.647129 4.35241
-3.05601 0.644809 4.33049
-3.06217 0.641488 4.30859
-3.0524 0.637037 4.27857
-3.06055 0.634762 4.25967
-3.06078 0.630303 4.22873
-3.06991 0.629058 4.21181
-3.07707 0.626753 4.1909
-3.08225 0.623416 4.16799
-3.08444 0.620033 4.14205
-3.08554 0.618842 4.12907
-3.0828 0.613337 4.09513
-3.08995 0.611061 4.07621
-3.08918 0.607602 4.04525
-3.09335 0.604279 4.02333
-3.09851 0.601972 4.0024
-3.10764 0.600727 3.98549
-3.09784 0.596321 3.95847
-3.10598 0.59406 3.94057
-3.11508 0.59286 3.92665
-3.11827 0.589492 3.90172
-3.11749 0.586077 3.87376
-3.12364 0.583786 3.85384
-3.12374 0.581594 3.84087
-3.12691 0.57927 3.81893
-3.13108 0.576933 3.79599
-3.1382 0.574701 3.78007
-3.13841 0.571302 3.75312
-3.1386 0.567932 3.72817
-3.14583 0.564479 3.69727
-3.148 0.562155 3.67532
-3.15711 0.56094 3.6604
-3.15235 0.555478 3.62944
-3.15849 0.554216 3.61151
-3.1666 0.553 3.59658
-3.15787 0.547461 3.5606
-3.15796 0.545283 3.54863
-3.16509 0.544052 3.5327
-3.16329 0.540651 3.50573
-3.17834 0.541573 3.49983
-3.17951 0.538233 3.47688
-3.18167 0.535924 3.45593
-3.18879 0.534693 3.44
-3.19087 0.533546 3.43003
-3.18609 0.529114 3.40106
-3.18726 0.525789 3.37911
-3.19058 0.521155 3.3362
-3.20066 0.52 3.32529
-3.20876 0.519813 3.31235
-3.20588 0.517574 3.29636
-3.21201 0.516342 3.28043
-3.21613 0.514094 3.26349
-3.20738 0.508614 3.2315
-3.21845 0.508474 3.22158
-3.21077 0.502847 3.1796
-3.22185 0.502707 3.16969
-3.22995 0.50152 3.15676
-3.22516 0.498103 3.12877
-3.23326 0.496916 3.11585
-3.23357 0.49231 3.07492
-3.24358 0.493302 3.07398
-3.23794 0.486588 3.02603
-3.25001 0.486463 3.01712
-3.25611 0.48526 3.00318
-3.24734 0.48081 2.97318
-3.2565 0.479506 2.95226
-3.25269 0.476148 2.92828
-3.26078 0.474962 2.91535
-3.26887 0.47479 2.90342
-3.26109 0.47037 2.87542
-3.2662 0.469152 2.86047
-3.26245 0.464661 2.82751
-3.27352 0.464536 2.81859
-3.28261 0.464365 2.80666
-3.27878 0.461036 2.78468
-3.28885 0.460896 2.77476
