-5.89668 0.134574 7.10164
-5.88865 0.129658 6.97264
-5.88801 0.126962 6.92567
-5.88935 0.125297 6.8807
-5.89365 0.123708 6.84075
-5.89498 0.122057 6.79677
-5.88988 0.117292 6.67779
-5.89121 0.115656 6.63482
-5.89351 0.114051 6.59385
-5.90078 0.113538 6.55891
-5.90012 0.111871 6.51392
-5.89861 0.108908 6.44895
-5.89398 0.107179 6.39993
-5.89825 0.105649 6.36398
-5.89956 0.104043 6.32301
-5.90186 0.102452 6.28305
-5.90515 0.100892 6.24509
-5.89736 0.0994719 6.21705
-5.90462 0.0989737 6.1831
-5.90096 0.0973048 6.13809
-5.89927 0.0956817 6.0961
-5.90454 0.0941674 6.06116
-5.90384 0.0925747 6.02117
-5.90711 0.0910441 5.98521
-5.90428 0.0907014 5.96219
-5.89664 0.0880001 5.91517
-5.89693 0.0864229 5.87619
-5.90516 0.0859847 5.84625
-5.89751 0.084298 5.80021
-5.90773 0.0828762 5.77131
-5.91098 0.0823751 5.73734
-5.8995 0.07936 5.66928
-5.90078 0.0778131 5.63231
-5.90458 0.0742465 5.52638
-5.90328 0.0698687 5.43342
-5.9065 0.0595034 5.13856
-5.90826 0.056024 5.03861
-5.91062 0.049346 4.8577
-5.90996 0.0427249 4.68077
-5.91241 0.0269604 4.22396
-5.91612 0.0106786 3.73216
-5.81501 0.646959 16.3117
-5.82034 0.610526 15.6072
-5.93579 0.0414328 3.24178
-5.93246 0.0381127 3.1528
-5.93166 0.0377271 3.12679
-5.93682 0.0364052 3.10485
-5.9352 0.0346638 3.05485
-5.93656 0.033954 3.00687
-5.93247 0.0162816 2.48903
-5.94536 0.00958927 2.23919
-5.94699 0.00337746 2.02226
-5.94192 -0.00440183 1.76731
-5.94653 -0.00661261 1.68536
-5.94094 -0.00840141 1.63234
-5.79483 0.737246 16.0612
-5.79798 0.728998 15.9093
-5.80308 0.720841 15.7635
-5.8111 0.712848 15.6286
-5.8142 0.704689 15.4827
-5.80524 0.681732 15.081
-5.81121 0.674841 14.9531
-5.81719 0.667936 14.8242
-5.82215 0.660045 14.6964
-5.82711 0.653183 14.5705
-5.81193 0.639605 14.3295
-5.81783 0.632847 14.2107
-5.82175 0.626044 14.0888
-5.82173 0.61912 13.9589
-5.83153 0.613572 13.854
-5.81818 0.600321 13.6351
-5.82104 0.594635 13.5211
-5.8308 0.589162 13.4213
-5.83168 0.582445 13.3054
-5.84129 0.571299 13.0926
-5.83748 0.555003 12.8028
-5.83239 0.548208 12.6818
-5.84599 0.544049 12.603
-5.84581 0.537435 12.494
-5.84857 0.531957 12.3941
-5.84088 0.52239 12.2212
-5.83869 0.516805 12.1142
-5.85024 0.512717 12.0404
-5.84607 0.507101 11.9314
-5.84976 0.501742 11.8395
-5.85047 0.496351 11.7456
-5.84071 0.487916 11.5816
-5.85027 0.483827 11.5077
-5.84802 0.47836 11.4088
-5.86634 0.398212 9.9129
-5.86295 0.393011 9.83194
-5.86942 0.390097 9.77002
-5.87391 0.387138 9.70509
-5.85766 0.381661 9.60604
-5.86935 0.369354 9.38228
-5.87381 0.366454 9.32135
-5.87234 0.362416 9.25138
-5.8768 0.359517 9.19045
-5.87927 0.356601 9.12851
-5.86766 0.353822 9.07645
-5.86913 0.349906 9.01451
-5.87357 0.34705 8.95658
-5.87107 0.344056 8.8896
-5.87946 0.341308 8.83869
-5.87598 0.337284 8.76972
-5.88336 0.335549 8.71979
-5.87074 0.331785 8.66875
-5.87911 0.330065 8.61983
-5.87264 0.326024 8.54983
-5.88495 0.324426 8.50894
-5.88046 0.320431 8.44196
-5.88189 0.317588 8.385
-5.8776 0.313194 8.29102
-5.87804 0.310335 8.23306
-5.88142 0.307583 8.18212
-5.88185 0.304754 8.12615
-5.88622 0.302017 8.07622
-5.88763 0.299219 8.02227
-5.87637 0.29376 7.92425
-5.88965 0.292222 7.88737
-5.88708 0.289376 7.83038
-5.88649 0.286576 7.77641
-5.8859 0.283776 7.72244
-5.89164 0.27933 7.62454
-5.88589 0.277837 7.59151
-5.88331 0.275006 7.53552
-5.89062 0.272404 7.49461
-5.89198 0.270695 7.44664
-5.89435 0.267986 7.39869
-5.88538 0.260966 7.26271
-5.88772 0.258301 7.21776
-5.89402 0.256699 7.17683
-5.88944 0.253882 7.12183
-5.89312 0.249552 7.03191
-5.89544 0.247917 6.98894
-5.88968 0.245454 6.95793
-5.892 0.243819 6.91497
-5.89037 0.241107 6.86699
-5.89368 0.239488 6.82503
-5.897 0.237868 6.78307
-5.89238 0.235125 6.73307
-5.89668 0.233536 6.69312
-5.88792 0.231056 6.66109
-5.88925 0.22942 6.61812
-5.88859 0.226753 6.57315
-5.89388 0.225195 6.5352
-5.90014 0.223681 6.50027
-5.90245 0.222076 6.4593
-5.90475 0.220485 6.41934
-5.894 0.217989 6.38629
-5.89829 0.216429 6.34834
-5.90157 0.214869 6.31038
-5.89595 0.21214 6.26137
-5.89755 0.207957 6.18144
-5.90281 0.207457 6.14748
-5.90396 0.206162 6.1275
-5.89533 0.20343 6.07847
-5.89663 0.201839 6.0385
-5.89692 0.200262 5.99952
-5.90714 0.198855 5.97162
-5.90048 0.196169 5.9256
-5.90475 0.194654 5.89065
-5.89597 0.193218 5.8616
-5.89526 0.19164 5.82261
-5.90349 0.190202 5.79269
-5.89783 0.187532 5.74768
-5.90207 0.187061 5.71572
-5.90336 0.184499 5.67776
-5.90264 0.182936 5.63977
-5.90306 0.180122 5.58481
-5.90035 0.178543 5.54581
-5.89963 0.176995 5.50882
-5.90388 0.175509 5.47587
-5.91209 0.174101 5.44795
-5.90443 0.172444 5.40391
-5.8986 0.171099 5.38088
-5.90112 0.168079 5.31193
-5.90535 0.166623 5.28098
-5.91257 0.166214 5.25304
-5.90389 0.163571 5.21001
-5.9111 0.162162 5.18208
-5.89931 0.160739 5.15401
-5.90156 0.159267 5.12204
-5.91274 0.158905 5.09713
-5.91399 0.157432 5.06516
-5.90133 0.154756 5.02009
-5.90754 0.154346 4.99214
-5.90593 0.151575 4.94016
-5.91611 0.151227 4.91624
-5.91934 0.149786 4.88628
-5.91561 0.14825 4.85027
-5.91708 0.145318 4.78732
-5.91868 0.14215 4.70837
-5.91922 0.13313 4.50448
-5.90974 0.130116 4.43644
-5.905 0.127595 4.40144
-5.91417 0.127276 4.37951
-5.91838 0.126864 4.35154
-5.91562 0.125389 4.31954
-5.91044 0.119786 4.21157
-5.90821 0.116259 4.10859
-5.90964 0.113431 4.05263
-5.91404 0.111635 3.99869
-5.91824 0.110253 3.97273
-5.92342 0.109902 3.94878
-5.92473 0.108295 3.9078
-5.91201 0.106738 3.87073
-5.91222 0.105324 3.84274
-5.92656 0.103668 3.79787
-5.91791 0.101966 3.75082
-5.91912 0.100567 3.72385
-5.9233 0.100215 3.69988
-5.92172 0.0973996 3.64491
-5.91893 0.095983 3.6169
-5.91714 0.0955671 3.58889
-5.93057 0.0937329 3.53201
-5.92082 0.0922373 3.49896
-5.91902 0.0908362 3.47196
-5.91922 0.0894515 3.44598
-5.92648 0.0889385 3.41103
-5.92269 0.0875212 3.38302
-5.9209 0.0861202 3.35603
-5.92029 0.0843499 3.30404
-5.92744 0.0840589 3.2841
-5.92991 0.0821427 3.22214
-5.93209 0.080789 3.19817
-5.93128 0.0804034 3.17216
-5.92469 0.077614 3.11915
-5.9199 0.076196 3.09113
-5.93212 0.0757607 3.06122
-5.92352 0.0739697 3.00818
-5.92371 0.0725998 2.9832
-5.93122 0.0705984 2.91527
-5.92534 0.0693721 2.90025
-5.92769 0.067678 2.85328
-5.93784 0.067404 2.83436
-5.93221 0.0656596 2.78434
-5.92967 0.0637694 2.72434
-5.93418 0.0617658 2.65639
-5.92266 0.0588248 2.59334
-5.9353 0.0565606 2.50746
-5.93149 0.0551877 2.48244
-5.94071 0.054765 2.45352
-5.93291 0.0533744 2.42747
-5.93641 0.0513998 2.36152
-5.92959 0.0510246 2.33647
-5.94205 0.0451761 2.14362
-5.94238 0.0435249 2.09965
-5.9406 0.038125 1.93769
-5.94192 0.037504 1.8957
-5.94215 0.0360453 1.86472
-5.94447 0.035425 1.82274
-5.94279 0.033802 1.78075
-5.94434 0.0317222 1.70778
-5.94449 0.0314262 1.68778
-5.93766 0.0300807 1.66475
-5.79094 0.851815 16.3015
-5.79531 0.807293 15.5911
-5.80036 0.799239 15.4522
-5.80541 0.7912 15.3144
-5.80633 0.74261 14.532
-5.81911 0.736095 14.4292
-5.81265 0.699194 13.8286
-5.82046 0.692616 13.7217
-5.82235 0.685885 13.6048
-5.82433 0.654085 13.0782
-5.82419 0.646412 12.9653
-5.82797 0.640876 12.8614
-5.82883 0.617281 12.4837
-5.82863 0.611726 12.3788
-5.83235 0.605308 12.2829
-5.83804 0.599965 12.192
-5.83079 0.578586 11.8292
-5.83741 0.573362 11.7463
-5.8401 0.568017 11.6554
-5.84375 0.562747 11.5695
-5.85819 0.427606 9.26431
-5.85721 0.419607 9.12941
-5.86083 0.400488 8.78367
-5.86228 0.396601 8.72373
-5.86373 0.393728 8.66477
-5.86892 0.354562 7.9783
-5.87823 0.352962 7.93739
-5.87172 0.342041 7.74047
-5.8824 0.336716 7.65062
-5.87346 0.329637 7.51064
-5.88053 0.32154 7.36879
-5.87991 0.3188 7.31882
-5.88027 0.316089 7.27086
-5.88352 0.307649 7.10598
-5.87863 0.29947 6.95905
-5.8846 0.271702 6.43443
-5.88804 0.268831 6.37549
-5.88692 0.256159 6.12764
-5.89153 0.245009 5.91481
-5.89211 0.233915 5.70595
-5.8976 0.224988 5.50809
-5.89887 0.222471 5.47313
-5.89536 0.212537 5.27523
-5.8964 0.20651 5.13831
-5.91712 0.130594 3.45535
-5.91718 0.124506 3.31442
-5.91915 0.108689 2.92162
-5.91625 0.10848 2.9076
-5.91714 0.103733 2.78966
-5.92239 0.103248 2.7567
-5.93206 0.0999378 2.66781
-5.92643 0.0982231 2.61979
-5.92461 0.0968665 2.59579
-5.9237 0.0966881 2.58378
-5.92387 0.0953477 2.5608
-5.92205 0.094991 2.53679
-5.93435 0.0944225 2.49789
-5.9268 0.0915287 2.43786
-5.92797 0.0912038 2.41587
-5.93113 0.0898952 2.39492
-5.93229 0.0895703 2.37293
-5.93844 0.0892786 2.35297
-5.93562 0.0879361 2.32997
-5.92382 0.0865278 2.3029
-5.9279 0.0863827 2.29293
-5.92507 0.0850402 2.26992
-5.93736 0.0844716 2.23102
-5.9347 0.0828034 2.18602
-5.92589 0.0814269 2.16097
-5.92597 0.0812641 2.14997
-5.92431 0.0796114 2.10598
-5.92945 0.0793338 2.08702
-5.93277 0.0787143 2.04504
-5.92902 0.077223 2.01203
-5.94015 0.0769646 1.99412
-5.92436 0.0755534 1.96702
-5.92766 0.0739488 1.92606
-5.92722 0.0718528 1.85208
-5.93037 0.0715589 1.8321
-5.93851 0.0712983 1.81417
-5.93084 0.0696412 1.77013
-5.931 0.0683305 1.74914
-5.93722 0.0679056 1.72019
-5.79122 0.969076 16.3858
-5.78365 0.956258 16.1959
-5.79271 0.947207 16.0571
-5.79321 0.888478 15.1978
-5.79724 0.879467 15.062
-5.80591 0.829387 14.3137
-5.81082 0.820614 14.1938
-5.80824 0.781968 13.6103
-5.81797 0.775539 13.5134
-5.81789 0.767733 13.3915
-5.81586 0.73196 12.867
-5.8226 0.72553 12.7701
-5.8244 0.718962 12.6642
-5.82598 0.687961 12.1916
-5.8297 0.681543 12.0957
-5.83341 0.675169 12.0028
-5.82807 0.651955 11.6511
-5.83371 0.646701 11.5662
-5.83736 0.64143 11.4803
-5.83903 0.635129 11.3924
-5.85044 0.538815 9.8857
-5.85396 0.533796 9.81679
-5.85181 0.527137 9.70485
-5.85642 0.505033 9.36017
-5.8562 0.490539 9.12435
-5.85916 0.482662 8.99747
-5.86261 0.478791 8.93855
-5.85832 0.464428 8.71169
-5.85978 0.46054 8.65175
-5.86419 0.457744 8.59782
-5.8686 0.453933 8.5429
-5.86137 0.447433 8.44193
-5.8618 0.444575 8.38397
-5.86323 0.440747 8.32803
-5.86564 0.437934 8.27308
-5.87004 0.434168 8.22116
-5.86948 0.431309 8.16319
-5.86416 0.424958 8.07223
-5.86599 0.418346 7.96333
-5.87332 0.4157 7.91942
-5.87076 0.412839 7.86143
-5.87809 0.410193 7.81752
-5.86741 0.407564 7.77548
-5.8763 0.392869 7.52573
-5.87866 0.390175 7.47878
-5.87266 0.381202 7.34585
-5.87305 0.378448 7.29488
-5.87539 0.375783 7.24993
-5.87674 0.373088 7.20298
-5.87612 0.370348 7.15301
-5.87467 0.366266 7.08005
-5.87741 0.352863 6.85023
-5.88125 0.338269 6.60744
-5.88157 0.335633 6.56448
-5.88041 0.330003 6.45454
-5.88136 0.322139 6.32865
-5.88267 0.320533 6.28767
-5.88882 0.282456 5.60719
-5.93515 0.107989 1.72559
-5.93747 0.102399 1.55066
-5.93563 0.102087 1.52965
-5.92673 0.100888 1.5166
-5.93087 0.10061 1.49763
-5.93601 0.100332 1.47867
-5.92818 0.0990007 1.45663
-5.93332 0.0987231 1.43767
-5.93148 0.0984108 1.41666
-5.93086 0.09667 1.36667
-5.81009 0.939783 14.6771
-5.82914 0.825233 13.0867
-5.84393 0.724151 11.6631
-5.85186 0.578998 9.56007
-5.87753 0.503054 8.41523
-5.90946 0.307226 5.25293
-5.90741 0.292405 4.9951
-5.91274 0.282818 4.82026
-5.91445 0.278413 4.72532
-5.91376 0.268852 4.55243
-5.91499 0.267408 4.52246
-5.91468 0.262046 4.43052
-5.89912 0.258191 4.37346
-5.90929 0.257858 4.35053
-5.90653 0.255383 4.31855
-5.90476 0.253937 4.28855
-5.90498 0.252493 4.25857
-5.91912 0.252237 4.24068
-5.90354 0.248397 4.18461
-5.90972 0.248046 4.16066
-5.90099 0.245521 4.12562
-5.91812 0.245282 4.10875
-5.90275 0.240042 4.0257
-5.91787 0.239801 4.00882
-5.90636 0.236846 3.94477
-5.90997 0.232649 3.86385
-5.90651 0.228596 3.79287
-5.9112 0.218268 3.56803
-5.90643 0.21582 3.53802
-5.91458 0.21553 3.51809
-5.92384 0.215034 3.48416
-5.91926 0.211216 3.42917
-5.91964 0.209461 3.37819
-5.91893 0.206883 3.33922
-5.92231 0.20516 3.29027
-5.92567 0.203452 3.24231
-5.92931 0.199196 3.15739
-5.91674 0.196343 3.10033
-5.92345 0.191957 3.00643
-5.91774 0.190375 2.96741
-5.92644 0.187019 2.87551
-5.93069 0.185534 2.84256
-5.91853 0.168959 2.46666
-5.91903 0.165967 2.3997
-5.92037 0.159347 2.22278
-5.92501 0.156092 2.13785
-5.92889 0.152363 2.02092
-5.92822 0.150726 1.97794
-5.92746 0.149251 1.94595
-5.92112 0.145959 1.85894
-5.83428 0.843196 12.0034
-5.83208 0.83464 11.8985
-5.82396 0.825917 11.7825
-5.82565 0.818557 11.6906
-5.82539 0.811121 11.5937
-5.83501 0.79496 11.38
-5.84597 0.676582 9.80161
-5.84454 0.671456 9.72567
-5.85989 0.667787 9.67983
-5.85154 0.661522 9.59485
-5.85139 0.643896 9.35007
-5.85684 0.639027 9.29118
-5.85932 0.635081 9.22725
-5.86278 0.630181 9.16634
-5.86131 0.625143 9.09639
-5.85117 0.616463 8.98343
-5.85265 0.611532 8.9205
-5.85114 0.607569 8.85554
-5.86051 0.60385 8.80666
-5.85802 0.598857 8.73971
-5.86441 0.595092 8.6878
-5.85423 0.587486 8.57982
-5.86303 0.579923 8.47399
-5.85755 0.574898 8.40501
-5.86294 0.571147 8.3541
-5.86733 0.56738 8.30218
-5.86049 0.557111 8.14926
-5.85894 0.552236 8.09031
-5.86331 0.548514 8.0414
-5.86571 0.545731 7.98845
-5.87206 0.542055 7.94254
-5.86137 0.539426 7.9005
-5.8608 0.534597 7.84455
-5.86615 0.531919 7.79863
-5.86555 0.52812 7.74467
-5.86693 0.524381 7.69473
-5.8703 0.521658 7.64579
-5.87367 0.51795 7.59786
-5.86594 0.515411 7.56184
-5.87226 0.512779 7.51892
-5.86769 0.507947 7.46295
-5.8661 0.504147 7.40899
-5.87141 0.501529 7.36706
-5.87872 0.498927 7.32615
-5.87711 0.496171 7.27517
-5.8674 0.492602 7.23714
-5.87011 0.486212 7.14324
-5.87541 0.483624 7.10332
-5.87577 0.480914 7.05535
-5.87216 0.477156 7.00437
-5.87747 0.474553 6.96345
-5.87304 0.46944 6.88848
-5.8714 0.465728 6.84052
-5.87837 0.457838 6.71267
-5.8797 0.454203 6.66972
-5.87523 0.449149 6.59876
-5.87854 0.446559 6.55881
-5.87985 0.443953 6.51786
-5.88216 0.441333 6.47591
-5.87852 0.438635 6.42891
-5.87983 0.436029 6.38796
-5.87863 0.428459 6.28204
-5.87795 0.425837 6.24007
-5.88124 0.423277 6.20213
-5.88154 0.420685 6.16217
-5.88284 0.418094 6.12221
-5.88399 0.416813 6.10323
-5.88092 0.40899 5.98031
-5.88576 0.402336 5.86843
-5.8855 0.3959 5.77151
-5.88634 0.388243 5.65961
-5.89283 0.376331 5.46281
-5.89013 0.357844 5.16002
-5.89275 0.352617 5.07711
-5.88953 0.34609 4.97417
-5.89249 0.330258 4.71539
-5.89619 0.325899 4.62347
-5.8949 0.319492 4.52854
-5.90014 0.311083 4.36568
-5.89639 0.308591 4.33268
-5.90103 0.296382 4.11587
-5.90022 0.288043 3.95797
-5.90415 0.281225 3.83508
-5.90357 0.27841 3.78011
-5.90378 0.276996 3.75213
-5.90487 0.275819 3.74015
-5.90449 0.271605 3.6582
-5.90369 0.270205 3.63121
-5.90887 0.268868 3.60827
-5.91454 0.264554 3.51936
-5.91195 0.261738 3.46437
-5.90617 0.260305 3.43535
-5.90585 0.255972 3.3454
-5.90771 0.250286 3.23148
-5.92582 0.196445 2.02625
-5.92307 0.194954 1.99324
-5.9184 0.193299 1.94923
-5.92204 0.190058 1.86529
-5.92426 0.189616 1.83531
-5.92044 0.188272 1.8123
-5.92306 0.18506 1.73035
-5.93212 0.184948 1.72242
-5.83048 0.822083 10.9155
-5.83702 0.817036 10.8446
-5.84061 0.810885 10.7667
-5.8418 0.724871 9.68585
-5.85311 0.797175 9.63786
-5.84574 0.789941 9.5549
-5.84611 0.75337 9.11138
-5.86042 0.750759 9.06952
-5.85176 0.735148 8.89366
-5.85717 0.731338 8.83875
-5.85764 0.72642 8.77682
-5.86009 0.721549 8.7179
-5.86299 0.71179 8.59905
-5.85971 0.703381 8.50414
-5.86214 0.699539 8.44721
-5.86061 0.69462 8.38526
-5.86354 0.673848 8.13055
-5.8692 0.645672 7.78096
-5.88336 0.572681 6.83602
-5.87676 0.567892 6.78304
-5.88571 0.559048 6.65822
-5.88752 0.551465 6.55133
-5.8852 0.544132 6.46141
-5.88448 0.53163 6.29256
-5.88594 0.526728 6.23164
-5.88854 0.521546 6.15172
-5.88717 0.515331 6.06979
-5.87968 0.509319 6.00182
-5.89148 0.502758 5.89599
-5.88582 0.499103 5.85199
-5.89348 0.492806 5.76413
-5.88782 0.489136 5.71914
-5.88398 0.477869 5.56626
-5.88836 0.475132 5.51632
-5.88566 0.471538 5.47635
-5.8889 0.470066 5.44439
-5.88421 0.466456 5.4034
-5.88647 0.463954 5.36945
-5.88872 0.462467 5.33649
-5.89594 0.461043 5.30756
-5.88713 0.458667 5.28252
-5.88343 0.455087 5.24354
-5.88567 0.4536 5.21058
-5.8899 0.451159 5.18064
-5.88744 0.446107 5.10969
-5.89267 0.444666 5.07974
-5.88683 0.442336 5.05773
-5.89901 0.442005 5.03483
-5.89329 0.438438 4.99683
-5.8866 0.435841 4.95681
-5.89976 0.43554 4.93591
-5.89528 0.4305 4.86594
-5.89951 0.42806 4.83601
-5.89888 0.425348 4.78804
-5.90035 0.420417 4.72511
-5.89662 0.417881 4.68912
-5.89487 0.416406 4.65712
-5.89113 0.413886 4.62213
-5.89745 0.411269 4.58021
-5.89394 0.406304 4.51524
-5.89517 0.404861 4.48527
-5.89662 0.400974 4.42533
-5.89664 0.391975 4.29045
-5.89609 0.380148 4.09959
-5.8973 0.378734 4.07162
-5.89851 0.37632 4.04366
-5.89706 0.372254 3.9717
-5.89528 0.369823 3.94272
-5.89789 0.365611 3.86079
-5.89721 0.362989 3.81881
-5.91532 0.36278 3.80395
-5.91276 0.359934 3.74697
-5.89804 0.356376 3.7099
-5.91714 0.357182 3.69603
-5.91546 0.354559 3.65405
-5.91685 0.350791 3.60211
-5.90153 0.344447 3.51208
-5.91258 0.345366 3.50615
-5.91795 0.342645 3.45722
-5.90678 0.336009 3.34722
-5.91185 0.335879 3.33826
-5.9184 0.331803 3.26536
-5.91461 0.330386 3.23735
-5.92176 0.329095 3.21742
-5.91598 0.327661 3.18839
-5.91816 0.326308 3.16442
-5.91128 0.325066 3.14839
-5.91745 0.323745 3.12645
-5.92261 0.323438 3.10549
-5.918 0.320664 3.05349
-5.90624 0.317197 3.02245
-5.91746 0.316761 2.99254
-5.92281 0.315084 2.9466
-5.91403 0.312648 2.91756
-5.92317 0.312374 2.89863
-5.91937 0.310986 2.87262
-5.92363 0.309486 2.83867
-5.92082 0.308114 2.81367
-5.92452 0.30274 2.72076
-5.92469 0.302399 2.69776
-5.92378 0.301221 2.68577
-5.92565 0.29552 2.57085
-5.91287 0.293081 2.54179
-5.92608 0.292676 2.51389
-5.92841 0.291026 2.46993
-5.9266 0.28967 2.44593
-5.93159 0.277765 2.18211
-5.92893 0.275097 2.13712
-5.93033 0.273313 2.08415
-5.9333 0.26742 1.95624
-5.92105 0.262931 1.8562
-5.93218 0.262687 1.83929
-5.91738 0.260292 1.81321
-5.92843 0.261196 1.80628
-5.93557 0.26092 1.78733
-5.85288 0.795831 8.87177
-5.85876 0.786118 8.75594
-5.8612 0.781262 8.69802
-5.85869 0.775298 8.63308
-5.86355 0.766629 8.52023
-5.85388 0.761971 8.47622
-5.85333 0.757082 8.41628
-5.85675 0.752271 8.36137
-5.85967 0.730528 8.10868
-5.86008 0.72573 8.05475
-5.86544 0.722023 8.00684
-5.86232 0.70135 7.75909
-5.87003 0.693965 7.66524
-5.87142 0.689211 7.61431
-5.87411 0.670897 7.39057
-5.87053 0.666081 7.33561
-5.86821 0.647808 7.11483
-5.86955 0.644128 7.06889
-5.87422 0.636829 6.98102
-5.87754 0.63421 6.93908
-5.87887 0.63056 6.89514
-5.88021 0.626895 6.8502
-5.86849 0.623339 6.81316
-5.87676 0.620826 6.77825
-5.87313 0.616099 6.72929
-5.87148 0.612417 6.68332
-5.87908 0.606253 6.60446
-5.88139 0.603648 6.56351
-5.88056 0.601307 6.54054
-5.87196 0.596516 6.48753
-5.87823 0.595002 6.4526
-5.88251 0.591443 6.41468
-5.88382 0.588837 6.37372
-5.87223 0.58403 6.3197
-5.87948 0.581546 6.28679
-5.87171 0.579097 6.25676
-5.87302 0.575506 6.21682
-5.88026 0.573023 6.1839
-5.87858 0.5704 6.14192
-5.8779 0.566778 6.09997
-5.88117 0.564247 6.06402
-5.87948 0.560639 6.02306
-5.87497 0.555689 5.95909
-5.8808 0.547065 5.84925
-5.88307 0.544533 5.8133
-5.88038 0.541924 5.77231
-5.87557 0.539566 5.7483
-5.87613 0.533456 5.67339
-5.88237 0.532002 5.64245
-5.88066 0.528438 5.60449
-5.87796 0.525844 5.5645
-5.88122 0.523343 5.53056
-5.87837 0.521045 5.51057
-5.88063 0.519544 5.4766
-5.88018 0.513463 5.40368
-5.88044 0.510945 5.36871
-5.88369 0.508474 5.33677
-5.88494 0.505971 5.30281
-5.88719 0.504484 5.26984
-5.88236 0.502155 5.24784
-5.88784 0.498212 5.18393
-5.88115 0.494615 5.14393
-5.88339 0.492143 5.11198
-5.88166 0.489609 5.076
-5.88787 0.488199 5.04806
-5.88204 0.485869 5.02605
-5.88825 0.484459 4.99811
-5.88477 0.479435 4.92915
-5.88601 0.476977 4.89819
-5.89023 0.475551 4.86924
-5.89644 0.473141 4.84132
-5.88985 0.469337 4.78732
-5.89208 0.466895 4.75737
-5.88834 0.464374 4.72237
-5.89355 0.462963 4.69443
-5.88782 0.460426 4.65842
-5.89192 0.459252 4.64646
-5.88818 0.456731 4.61147
-5.89537 0.455366 4.58654
-5.89087 0.450386 4.52057
-5.89607 0.449005 4.49463
-5.89828 0.447592 4.46666
-5.8995 0.445149 4.4367
-5.89686 0.442451 4.38971
-5.90129 0.43861 4.3328
-5.89798 0.432261 4.24185
-5.89212 0.429976 4.22284
-5.89355 0.427133 4.16588
-5.89797 0.423322 4.11097
-5.8952 0.420876 4.08098
-5.89641 0.419462 4.053
-5.89751 0.418271 4.04003
-5.89893 0.415443 3.98407
-5.90333 0.411661 3.93115
-5.90972 0.408911 3.88024
-5.89532 0.402731 3.80121
-5.90269 0.399996 3.7513
-5.91106 0.398292 3.70338
-5.89843 0.393558 3.65435
-5.90002 0.389404 3.57641
-5.90519 0.388067 3.55347
-5.90738 0.386699 3.5285
-5.9037 0.384074 3.4865
-5.90329 0.37892 3.40857
-5.90647 0.377567 3.38461
-5.91063 0.377244 3.36264
-5.90485 0.37481 3.33363
-5.90434 0.370863 3.26968
-5.90509 0.365398 3.17075
-5.90718 0.364222 3.15878
-5.90656 0.361481 3.10881
-5.91868 0.361238 3.0919
-5.90493 0.35874 3.05883
-5.91009 0.357432 3.03789
-5.91027 0.356077 3.0139
-5.91037 0.355885 3.00091
-5.90856 0.354513 2.97591
-5.91173 0.35319 2.95395
-5.90792 0.351802 2.92794
-5.92105 0.35156 2.91104
-5.9053 0.34806 2.87797
-5.91054 0.34759 2.84601
-5.90873 0.345219 2.82103
-5.91588 0.344928 2.80108
-5.91307 0.343556 2.77608
-5.91823 0.343249 2.75512
-5.91858 0.340568 2.70915
-5.91685 0.338034 2.67317
-5.90806 0.336628 2.64612
-5.91421 0.335322 2.62519
-5.91737 0.335013 2.60421
-5.91057 0.332623 2.57819
-5.9217 0.332365 2.56028
-5.91797 0.330844 2.52527
-5.91416 0.329471 2.50026
-5.91632 0.328147 2.47829
-5.92264 0.32653 2.43635
-5.92298 0.323864 2.39139
-5.9234 0.32105 2.33643
-5.92772 0.319416 2.29348
-5.92091 0.318041 2.26844
-5.92514 0.316585 2.23749
-5.9175 0.313884 2.19047
-5.91766 0.312573 2.16949
-5.91383 0.31123 2.14647
-5.92397 0.310971 2.12855
-5.92214 0.310629 2.10554
-5.91225 0.308415 2.0915
-5.92537 0.309187 2.07558
-5.91972 0.306502 2.02957
-5.91928 0.303406 1.9556
-5.91644 0.302079 1.9336
-5.9176 0.300769 1.91263
-5.92474 0.300492 1.89368
-5.93304 0.299921 1.85475
-5.92031 0.297379 1.81868
-5.92561 0.29579 1.77874
-5.92608 0.292873 1.71678
-5.84122 0.856075 8.82078
-5.85257 0.852403 8.77492
-5.84292 0.847715 8.72891
-5.85029 0.84298 8.67903
-5.85373 0.838139 8.62212
-5.8522 0.832206 8.55918
-5.85652 0.816649 8.38642
-5.84882 0.813051 8.34641
-5.85804 0.798675 8.18567
-5.85394 0.787911 8.06678
-5.86524 0.784342 8.02792
-5.85202 0.774808 7.92494
-5.86429 0.772284 7.88907
-5.86371 0.767455 7.83313
-5.8556 0.756717 7.71621
-5.85323 0.748487 7.6333
-5.86193 0.741132 7.54146
-5.86567 0.732684 7.4436
-5.86047 0.723112 7.33769
-5.87353 0.723003 7.32979
-5.86103 0.717017 7.26378
-5.87131 0.714491 7.22789
-5.86275 0.708612 7.1689
-5.86645 0.700253 7.07704
-5.86833 0.690538 6.96118
-5.85976 0.685688 6.90418
-5.86045 0.677342 6.8133
-5.8697 0.67486 6.7804
-5.876 0.672287 6.74148
-5.87616 0.670976 6.7205
-5.87287 0.662583 6.62658
-5.8656 0.654157 6.53064
-5.88079 0.652783 6.50477
-5.86938 0.645635 6.42778
-5.86803 0.638361 6.34187
-5.8766 0.632257 6.26701
-5.86699 0.627481 6.215
-5.87424 0.624998 6.18209
-5.8756 0.610335 6.00229
-5.87292 0.606711 5.96032
-5.87223 0.603118 5.92036
-5.88218 0.594261 5.79455
-5.87736 0.580948 5.63869
-5.87862 0.54757 5.20813
-5.88923 0.492625 4.46892
-5.89168 0.487738 4.40901
-5.90008 0.48496 4.3561
-5.88948 0.480168 4.30309
-5.89291 0.476327 4.24616
-5.84058 0.868469 8.23952
-5.84695 0.864763 8.19161
-5.84737 0.858935 8.13569
-5.84842 0.845893 7.99787
-5.85715 0.837464 7.90105
-5.85993 0.827942 7.7982
-5.85874 0.805419 7.56049
-5.86544 0.797047 7.46765
-5.85709 0.788768 7.3817
-5.85388 0.778242 7.27882
-5.85424 0.774532 7.23087
-5.86451 0.771021 7.19599
-5.86378 0.756534 7.02818
-5.87241 0.749312 6.94534
-5.86913 0.739904 6.85044
-5.86238 0.724457 6.6856
-5.86999 0.718278 6.60573
-5.86319 0.70392 6.44687
-5.87008 0.693179 6.32907
-5.87158 0.63145 5.60489
-5.88327 0.613143 5.38122
-5.87678 0.596208 5.1834
-5.87754 0.587714 5.08251
-5.88389 0.574084 4.90474
-5.83863 0.931298 8.22757
-5.84442 0.920748 8.12275
-5.84485 0.91492 8.06684
-5.85417 0.91129 8.02395
-5.84886 0.90194 7.93304
-5.8473 0.89608 7.87511
-5.85364 0.892434 7.8312
-5.85009 0.885558 7.77227
-5.85444 0.881866 7.72535
-5.8489 0.874974 7.6654
-5.84812 0.872544 7.63643
-5.84652 0.866759 7.58349
-5.85581 0.864188 7.5446
-5.85225 0.858342 7.48765
-5.85956 0.854741 7.44675
-5.854 0.848878 7.38879
-5.85932 0.84426 7.34689
-5.85592 0.837074 7.26696
-5.85233 0.831287 7.21401
-5.86259 0.828777 7.17912
-5.85207 0.821837 7.11614
-5.8653 0.819387 7.08527
-5.85476 0.813492 7.02527
-5.85593 0.811167 7.00331
-5.86555 0.803961 6.92148
-5.85995 0.798172 6.86851
-5.85534 0.793414 6.81754
-5.86163 0.789841 6.77864
-5.86692 0.786283 6.74072
-5.86313 0.770912 6.5809
-5.86148 0.76723 6.53494
-5.86181 0.762594 6.492
-5.8651 0.759019 6.45307
-5.86293 0.749405 6.34418
-5.86225 0.744783 6.30224
-5.86753 0.742239 6.26531
-5.87082 0.738679 6.22739
-5.86617 0.733995 6.18141
-5.86266 0.72803 6.11647
-5.87378 0.714848 5.96873
-5.86713 0.710162 5.92274
-5.86629 0.708851 5.90175
-5.86559 0.705258 5.86179
-5.8734 0.69568 5.75498
-5.87099 0.688524 5.67705
-5.86999 0.676585 5.54621
-5.86954 0.670504 5.47328
-5.8718 0.668003 5.43933
-5.87923 0.652211 5.25059
-5.88309 0.597712 4.60934
-5.85047 0.973614 7.978
-5.85187 0.967846 7.92609
-5.85624 0.963124 7.87718
-5.85605 0.937602 7.63953
-5.85842 0.932878 7.59061
-5.85187 0.926986 7.53064
-5.86446 0.905902 7.32201
-5.86186 0.900116 7.26907
-5.88479 0.686101 5.04011
-5.88205 0.683581 5.00512
-5.88739 0.679919 4.96021
-5.88665 0.676415 4.92625
-5.88714 0.670453 4.86133
-5.89037 0.668012 4.83139
-5.88167 0.664428 4.79237
-5.89173 0.664317 4.78445
-5.89121 0.659369 4.72051
-5.87737 0.644095 4.56761
-5.89252 0.643825 4.54872
-5.89544 0.612114 4.16316
-5.89532 0.602397 4.04729
-5.90203 0.596011 3.95342
-5.90517 0.584793 3.80359
-5.90498 0.576194 3.6957
-5.90529 0.562634 3.52288
-5.90736 0.552548 3.38202
-5.90476 0.548762 3.32905
-5.89149 0.540331 3.23306
-5.89485 0.537623 3.18512
-5.89722 0.533914 3.13719
-5.89949 0.531383 3.10124
-5.90484 0.528706 3.05531
-5.89751 0.522383 2.96634
-5.89887 0.518689 2.9194
-5.91018 0.517075 2.8775
-5.90158 0.513299 2.82548
-5.89886 0.51075 2.7885
-5.90021 0.50707 2.74256
-5.90355 0.504406 2.69761
-5.90389 0.501725 2.65165
-5.90017 0.499175 2.61465
-5.91047 0.49759 2.57475
-5.91282 0.494926 2.5298
-5.90012 0.491325 2.48975
-5.9174 0.490789 2.45289
-5.92065 0.481334 2.28703
-5.92188 0.471922 2.12415
-5.83938 1.03572 7.98499
-5.84474 1.03101 7.9371
-5.84417 1.02418 7.88119
-5.83924 1.00909 7.74035
-5.83963 1.00332 7.68844
-5.84002 0.997554 7.63652
-5.84636 0.992908 7.59263
-5.84873 0.988184 7.54371
-5.84397 0.984722 7.51272
-5.84672 0.974259 7.41388
-5.8471 0.968519 7.36396
-5.85044 0.963856 7.31905
-5.8518 0.959147 7.27112
-5.8492 0.953375 7.21918
-5.84641 0.949959 7.19121
-5.84776 0.945279 7.14528
-5.84714 0.939539 7.09535
-5.84948 0.934875 7.05043
-5.84983 0.930194 7.0045
-5.86208 0.927715 6.97162
-5.85549 0.920911 6.91767
-5.84873 0.917432 6.88566
-5.85601 0.91389 6.84877
-5.84942 0.908086 6.7948
-5.85471 0.904528 6.75688
-5.86199 0.900985 6.71999
-5.85639 0.895212 6.66802
-5.8587 0.890607 6.6271
-5.85193 0.887158 6.5971
-5.85489 0.874281 6.47029
-5.85819 0.870706 6.43136
-5.85355 0.864992 6.38341
-5.86378 0.862541 6.35252
-5.85732 0.855486 6.28156
-5.8606 0.85194 6.24464
-5.8619 0.847364 6.20571
-5.85824 0.842696 6.16074
-5.8655 0.840198 6.12683
-5.85787 0.834467 6.07785
-5.85833 0.82858 6.01793
-5.85991 0.820441 5.94105
-5.86516 0.817957 5.90813
-5.86378 0.796803 5.6954
-5.86335 0.789693 5.62049
-5.86959 0.787224 5.58857
-5.86812 0.767234 5.38683
-5.87124 0.728153 4.97637
-5.87806 0.706607 4.73671
-5.87936 0.692062 4.56491
-5.87609 0.682639 4.46901
-5.88154 0.666801 4.27726
-5.87933 0.65726 4.17337
-5.88275 0.653449 4.11845
-5.88315 0.637711 3.93366
-5.88388 0.629276 3.83677
-5.88708 0.627893 3.81082
-5.88542 0.613272 3.63399
-5.8896 0.61192 3.61004
-5.89179 0.609552 3.58509
-5.88603 0.607089 3.55408
-5.88929 0.594619 3.38727
-5.89196 0.588319 3.29937
-5.89499 0.578293 3.16252
-5.89219 0.575906 3.13653
-5.89275 0.570811 3.0626
-5.89973 0.561892 2.93277
-5.89792 0.559521 2.90778
-5.89312 0.557132 2.88178
-5.89321 0.556955 2.86978
-5.89855 0.554293 2.82486
-5.90172 0.552969 2.8029
-5.9009 0.550613 2.77892
-5.90008 0.549258 2.75493
-5.90425 0.547935 2.73298
-5.89771 0.543027 2.67199
-5.90005 0.540363 2.62705
-5.89823 0.539006 2.60305
-5.9004 0.537682 2.58108
-5.8965 0.536472 2.56707
-5.90083 0.533839 2.52413
-5.90698 0.533547 2.50418
-5.90815 0.532222 2.48221
-5.90732 0.530881 2.45922
-5.90151 0.528507 2.43421
-5.90177 0.526004 2.40024
-5.89994 0.524662 2.37724
-5.90609 0.52437 2.35729
-5.90925 0.523062 2.33633
-5.91141 0.521753 2.31536
-5.91058 0.520426 2.29337
-5.90975 0.519085 2.27038
-5.91182 0.518939 2.2604
-5.91598 0.517646 2.24045
-5.90817 0.515255 2.21442
-5.91232 0.514962 2.19445
-5.9085 0.512619 2.17146
-5.9168 0.511033 2.13154
-5.91688 0.51087 2.12054
-5.91522 0.508217 2.07656
-5.91937 0.506924 2.05661
-5.91753 0.505597 2.03461
-5.9147 0.50427 2.01261
-5.91087 0.501926 1.98961
-5.91993 0.502814 1.98166
-5.91312 0.500454 1.95764
-5.91427 0.500159 1.93765
-5.92141 0.499883 1.91871
-5.90961 0.49649 1.89267
-5.91574 0.496227 1.87471
-5.92289 0.495951 1.85577
-5.91498 0.494753 1.84272
-5.91215 0.493425 1.82072
-5.92129 0.493166 1.80279
-5.91247 0.490804 1.77876
-5.91861 0.490527 1.7598
-5.91777 0.489216 1.73881
-5.90895 0.486869 1.71578
-5.86034 1.00604 7.19548
-5.87121 0.907653 6.2919
-5.87092 0.884323 6.06721
-5.87379 0.872623 5.95239
-5.86956 0.862111 5.8505
-5.8758 0.858657 5.81959
-5.8751 0.855064 5.77963
-5.87439 0.850501 5.74169
-5.87368 0.846938 5.70373
-5.87722 0.83989 5.63285
-5.87962 0.835108 5.57994
-5.8799 0.83056 5.543
-5.87819 0.826997 5.50503
-5.87616 0.814101 5.37719
-5.87543 0.810568 5.34123
-5.87967 0.807112 5.31031
-5.87993 0.804594 5.27535
-5.88317 0.801123 5.24342
-5.88145 0.797589 5.20745
-5.88494 0.79163 5.14256
-5.87812 0.78827 5.11855
-5.88334 0.785844 5.08963
-5.88062 0.78231 5.05365
-5.88609 0.776396 4.99177
-5.88758 0.770435 4.92686
-5.88372 0.768151 4.90787
-5.88497 0.765678 4.87591
-5.88744 0.759748 4.813
-5.88594 0.753785 4.74807
-5.88531 0.749059 4.69913
-5.89122 0.738273 4.57832
-5.89057 0.733591 4.53238
-5.89303 0.728705 4.47246
-5.8903 0.713217 4.30464
-5.89351 0.71082 4.2777
-5.88577 0.706296 4.2427
-5.89615 0.703564 4.19282
-5.89638 0.70112 4.16285
-5.89173 0.696436 4.11688
-5.89095 0.693006 4.08792
-5.89856 0.686813 4.00706
-5.89778 0.684383 3.97808
-5.89898 0.681999 3.95212
-5.88814 0.679665 3.93007
-5.89872 0.673548 3.85423
-5.89745 0.666112 3.75732
-5.89367 0.66268 3.72834
-5.89886 0.661328 3.70439
-5.90225 0.657561 3.65247
-5.89946 0.654145 3.62449
-5.89966 0.65276 3.59851
-5.89977 0.651553 3.58453
-5.89797 0.649152 3.55755
-5.89817 0.646767 3.53158
-5.90055 0.643014 3.48065
-5.90413 0.636892 3.40475
-5.90422 0.636714 3.39276
-5.90043 0.633297 3.36477
-5.89068 0.629817 3.33275
-5.90399 0.628204 3.29087
-5.89821 0.625771 3.26185
-5.89949 0.622224 3.22491
-5.89868 0.620854 3.19992
-5.90684 0.619549 3.179
-5.90404 0.617162 3.15301
-5.89726 0.614728 3.12399
-5.9064 0.614453 3.10506
-5.90858 0.6121 3.08111
-5.89473 0.609794 3.06104
-5.89989 0.608486 3.04009
-5.90506 0.607165 3.01815
-5.90524 0.605809 2.99417
-5.9094 0.604502 2.97321
-5.90959 0.603132 2.94823
-5.90778 0.60076 2.92325
-5.91003 0.598259 2.8893
-5.90126 0.594823 2.86028
-5.90541 0.594515 2.83931
-5.91157 0.593209 2.81838
-5.90079 0.589772 2.78934
-5.90205 0.588269 2.75537
-5.90522 0.586946 2.73341
-5.91237 0.585655 2.71348
-5.90956 0.584283 2.68848
-5.91333 0.577776 2.58659
-5.90852 0.575403 2.56158
-5.9047 0.573045 2.53758
-5.91384 0.57277 2.51865
-5.91102 0.570413 2.49466
-5.91435 0.568778 2.45171
-5.90746 0.566552 2.43669
-5.90763 0.565226 2.41471
-5.91495 0.563609 2.37278
-5.91611 0.562299 2.3518
-5.91528 0.559959 2.32883
-5.91154 0.557438 2.29383
-5.91686 0.55582 2.25189
-5.91619 0.553168 2.20792
-5.91635 0.551857 2.18694
-5.91652 0.550532 2.16495
-5.91676 0.548058 2.13299
-5.91159 0.541426 2.02303
-5.90968 0.540262 2.01203
-5.911 0.537641 1.97008
-5.92013 0.537381 1.95215
-5.91064 0.532383 1.88514
-5.90589 0.530891 1.85212
-5.91534 0.528009 1.79223
-5.91549 0.526713 1.77225
-5.92064 0.526421 1.75229
-5.91573 0.525255 1.74126
-5.8475 0.975916 6.51274
-5.85223 0.951531 6.2841
-5.85354 0.94694 6.24418
-5.8436 1.21117 7.40635
-5.85024 1.185 7.19176
-5.84962 1.17825 7.14185
-5.84463 1.14433 6.87727
-5.85092 1.14077 6.83937
-5.84928 1.13406 6.79145
-5.85459 1.12947 6.75155
-5.85526 1.11917 6.6637
-5.84783 1.10906 6.58878
-5.8541 1.10553 6.55287
-5.85937 1.08506 6.38619
-5.85192 1.07599 6.31426
-5.86214 1.07355 6.28437
-5.85651 1.06684 6.23642
-5.85712 1.05764 6.15555
-5.85988 1.04618 6.05673
-5.86514 1.04266 6.02182
-5.85452 1.03492 5.97184
-5.85582 1.03134 5.9329
-5.86478 1.01648 5.80717
-5.85416 1.00974 5.75718
-5.85642 1.00622 5.72225
-5.86465 1.00378 5.69234
-5.86394 0.999219 5.6544
-5.86662 0.988889 5.56456
-5.85996 0.983233 5.52059
-5.86023 0.978701 5.48465
-5.86646 0.976261 5.45473
-5.87269 0.973807 5.42381
-5.86303 0.967149 5.37983
-5.86826 0.964694 5.3489
-5.87138 0.963474 5.33394
-5.86568 0.957878 5.29397
-5.86794 0.954377 5.26004
-5.87515 0.951968 5.23212
-5.86945 0.947372 5.19214
-5.87369 0.943916 5.16122
-5.87295 0.940412 5.12726
-5.87606 0.939192 5.1123
-5.8654 0.932534 5.06832
-5.87609 0.924195 4.97751
-5.87771 0.914983 4.89564
-5.87398 0.911447 4.85966
-5.8782 0.908021 4.83074
-5.87547 0.904501 4.79577
-5.88375 0.887006 4.62707
-5.881 0.883516 4.59409
-5.88594 0.857731 4.33848
-5.88628 0.853065 4.29354
-5.88673 0.847193 4.23462
-5.88894 0.84378 4.20669
-5.88794 0.830841 4.07585
-5.88716 0.828411 4.04688
-5.89057 0.822599 3.99198
-5.88979 0.82017 3.96301
-5.88933 0.813119 3.8921
-5.89215 0.803522 3.78425
-5.89465 0.797547 3.71835
-5.89378 0.783342 3.56953
-5.89597 0.780973 3.54458
-5.89537 0.776188 3.49164
-5.9002 0.754625 3.25096
-5.8965 0.75103 3.21098
-5.89943 0.741212 3.08813
-5.8999 0.73531 3.02721
-5.90207 0.733971 3.00425
-5.90325 0.721663 2.84842
-5.90225 0.710723 2.71755
-5.86277 1.08634 6.06716
-5.88052 0.868616 4.12825
-5.88272 0.866218 4.10129
-5.88681 0.865043 4.08934
-5.88105 0.861566 4.05734
-5.88227 0.859152 4.02939
-5.88447 0.856754 4.00243
-5.88866 0.854387 3.9775
-5.88589 0.850941 3.94752
-5.88103 0.848671 3.92952
-5.8882 0.847336 3.90659
-5.88641 0.843921 3.87862
-5.88463 0.84149 3.84964
-5.88683 0.839107 3.82369
-5.89003 0.836724 3.79774
-5.89122 0.834341 3.77179
-5.8776 0.827591 3.72178
-5.88975 0.827318 3.70287
-5.8802 0.820424 3.64289
-5.88736 0.819118 3.62196
-5.89055 0.81675 3.59702
-5.89373 0.815397 3.57306
-5.88488 0.81211 3.55404
-5.88209 0.809693 3.52605
-5.88229 0.807309 3.50008
-5.88149 0.803909 3.47312
-5.88268 0.802539 3.44815
-5.88985 0.801219 3.42622
-5.89401 0.799896 3.40427
-5.89511 0.798705 3.39129
-5.88137 0.793192 3.35726
-5.89151 0.792918 3.33834
-5.8927 0.790549 3.31338
-5.88991 0.788147 3.28639
-5.89806 0.786857 3.26647
-5.89327 0.784439 3.23847
-5.89038 0.78223 3.22447
-5.89157 0.780861 3.1995
-5.89374 0.778522 3.17655
-5.89014 0.77375 3.12458
-5.89947 0.771105 3.08069
-5.88761 0.767816 3.06164
-5.89576 0.767525 3.04171
-5.90092 0.766218 3.02076
-5.89911 0.763847 2.99578
-5.88536 0.759363 2.96374
-5.88852 0.75804 2.94178
-5.88871 0.755685 2.91781
-5.89686 0.755395 2.89788
-5.88916 0.750797 2.85788
-5.89531 0.749506 2.83794
-5.90147 0.749199 2.81699
-5.89367 0.745794 2.78998
-5.90183 0.744504 2.77006
-5.89901 0.742147 2.74607
-5.8981 0.741968 2.73406
-5.8933 0.73858 2.70807
-5.88849 0.736192 2.68207
-5.88567 0.733835 2.65808
-5.88784 0.732511 2.63611
-5.90114 0.730928 2.59623
-5.90539 0.728458 2.56429
-5.90357 0.727101 2.5403
-5.89593 0.722385 2.4923
-5.90707 0.722127 2.47439
-5.90425 0.719769 2.4504
-5.90134 0.71859 2.43839
-5.89952 0.716233 2.41441
-5.8957 0.713875 2.39041
-5.90385 0.7136 2.37147
-5.90102 0.712257 2.34847
-5.90019 0.709931 2.32649
-5.90833 0.709656 2.30756
-5.90343 0.70846 2.29454
-5.90376 0.704809 2.25059
-5.89695 0.702434 2.22557
-5.90127 0.699815 2.18363
-5.90044 0.698489 2.16164
-5.90815 0.693103 2.06777
-5.90631 0.690776 2.04579
-5.91146 0.690499 2.02683
-5.90763 0.688155 2.00383
-5.90771 0.687993 1.99283
-5.90006 0.683321 1.94784
-5.90122 0.682011 1.92686
-5.91035 0.681751 1.90893
-5.90751 0.680438 1.88793
-5.91066 0.679145 1.86797
-5.9119 0.677672 1.83599
-5.90707 0.675343 1.81399
-5.91221 0.675065 1.79503
-5.89657 0.670358 1.74797
-5.91468 0.671149 1.7331
-5.91492 0.66969 1.70212
-5.8368 1.30068 7.23795
-5.84311 1.2961 7.19806
-5.84384 1.28368 7.10224
-5.83412 1.27712 7.06525
-5.84537 1.27364 7.03239
-5.83879 1.26582 6.97745
-5.84608 1.26125 6.93856
-5.83984 1.24778 6.8397
-5.85128 1.22398 6.65011
-5.84666 1.21624 6.60019
-5.84996 1.21166 6.56127
-5.85029 1.20601 6.51735
-5.83757 1.19947 6.48135
-5.84681 1.197 6.44945
-5.8521 1.19244 6.41155
-5.84647 1.18573 6.3636
-5.85075 1.18117 6.3257
-5.85139 1.16994 6.24286
-5.8446 1.16552 6.21487
-5.84887 1.16199 6.17895
-5.8472 1.15636 6.13601
-5.85147 1.15183 6.10011
-5.85277 1.14725 6.06118
-5.84712 1.14057 6.01523
-5.85239 1.13705 5.98032
-5.85253 1.13477 5.96135
-5.8439 1.12704 5.91239
-5.85114 1.12359 5.88149
-5.85739 1.1201 5.84859
-5.84775 1.11339 5.80061
-5.853 1.1099 5.76769
-5.86222 1.10749 5.73979
-5.84946 1.10201 5.70778
-5.85372 1.09851 5.67385
-5.84932 1.08834 5.59496
-5.85754 1.08592 5.56605
-5.86476 1.08249 5.53716
-5.85511 1.0758 5.49118
-5.85327 1.07349 5.47019
-5.86148 1.07108 5.44229
-5.85679 1.06547 5.40133
-5.85904 1.06099 5.36841
-5.86031 1.05747 5.33347
-5.86752 1.05506 5.30555
-5.86382 1.04948 5.2666
-5.85502 1.04509 5.2406
-5.85653 1.03709 5.17272
-5.85977 1.03363 5.14179
-5.86598 1.03122 5.11387
-5.86625 1.0277 5.07892
-5.87246 1.02529 5.05099
-5.85471 1.01879 5.01795
-5.8639 1.01743 4.99304
-5.86316 1.01292 4.95909
-5.86043 1.00839 4.92314
-5.87061 1.00704 4.89923
-5.87111 0.99908 4.83434
-5.86937 0.995576 4.80038
-5.87247 0.994371 4.78641
-5.86178 0.987756 4.74543
-5.87097 0.986408 4.72151
-5.86922 0.981904 4.68756
-5.87542 0.979523 4.66164
-5.87268 0.976018 4.62767
-5.87005 0.970291 4.57872
-5.8693 0.965817 4.54678
-5.86853 0.962358 4.51582
-5.87473 0.960978 4.48989
-5.87496 0.956519 4.45895
-5.87221 0.953044 4.42698
-5.87454 0.948394 4.38306
-5.86582 0.94384 4.34605
-5.87798 0.942538 4.32516
-5.86826 0.937984 4.28815
-5.87644 0.935649 4.26524
-5.87666 0.933206 4.23528
-5.86882 0.929889 4.21426
-5.87302 0.927507 4.18833
-5.87125 0.924062 4.15836
-5.88561 0.920362 4.11052
-5.8719 0.91479 4.07249
-5.87809 0.912425 4.04757
-5.88029 0.910041 4.02162
-5.86946 0.906693 3.99858
-5.87565 0.904343 3.97466
-5.87784 0.901959 3.94871
-5.87606 0.899529 3.91973
-5.88821 0.898242 3.89983
-5.87251 0.892653 3.86079
-5.88167 0.891349 3.83988
-5.87381 0.888062 3.82087
-5.879 0.886696 3.79592
-5.87323 0.883248 3.76592
-5.87941 0.880912 3.743
-5.8826 0.87953 3.71704
-5.87882 0.876098 3.68806
-5.88997 0.87481 3.66816
-5.88112 0.871522 3.64914
-5.87535 0.868059 3.61815
-5.88251 0.866754 3.59722
-5.88372 0.864355 3.57026
-5.88192 0.861954 3.54327
-5.88909 0.860634 3.52135
-5.88829 0.857234 3.49439
-5.88242 0.854993 3.47837
-5.88062 0.852592 3.45139
-5.88281 0.850223 3.42644
-5.88301 0.847839 3.40047
-5.87922 0.844422 3.37249
-5.88539 0.8431 3.35055
-5.89154 0.841794 3.32962
-5.88767 0.840554 3.3136
-5.87989 0.836105 3.28361
-5.88008 0.833735 3.25864
-5.88027 0.831365 3.23367
-5.87947 0.82898 3.2077
-5.88563 0.827673 3.18676
-5.88084 0.825256 3.15876
-5.887 0.823949 3.13782
-5.8851 0.821756 3.12484
-5.89127 0.820434 3.1029
-5.89642 0.820127 3.08194
-5.88964 0.816693 3.05294
-5.8958 0.815387 3.032
-5.89201 0.811985 3.00502
-5.89029 0.808436 2.96805
-5.89844 0.808146 2.94811
-5.89663 0.805774 2.92313
-5.894 0.801047 2.87418
-5.89635 0.797368 2.82824
-5.89844 0.796192 2.81627
-5.89563 0.79382 2.79128
-5.89979 0.792512 2.77033
-5.90096 0.791172 2.74736
-5.89534 0.785429 2.69739
-5.89361 0.782909 2.66241
-5.90076 0.781618 2.64248
-5.90292 0.780294 2.62051
-5.89929 0.776581 2.57254
-5.90371 0.77177 2.51763
-5.90455 0.763113 2.40575
-5.90315 0.756943 2.32682
-5.90033 0.754586 2.30283
-5.90648 0.754309 2.28388
-5.90698 0.749332 2.21795
-5.90407 0.748153 2.20594
-5.9034 0.744501 2.16198
-5.90588 0.740555 2.09805
-5.89832 0.735706 2.04106
-5.90247 0.734413 2.02111
-5.89979 0.730775 1.97814
-5.9012 0.726991 1.92519
-5.90235 0.726681 1.9042
-5.90466 0.724076 1.86326
-5.90084 0.721733 1.84026
-5.90622 0.718997 1.79033
-5.90952 0.717407 1.75037
-5.83944 1.3415 6.61728
-5.84175 1.33589 6.57638
-5.84307 1.33027 6.53446
-5.8353 1.32582 6.50447
-5.84158 1.3213 6.46858
-5.84587 1.31674 6.43067
-5.84484 1.29884 6.30291
-5.84714 1.29427 6.26399
-5.84233 1.29089 6.239
-5.84462 1.28532 6.20009
-5.84592 1.28074 6.16117
-5.85317 1.27726 6.12827
-5.8495 1.27061 6.08433
-5.85477 1.26609 6.04943
-5.85407 1.2615 6.00949
-5.84133 1.255 5.97649
-5.84758 1.25152 5.94358
-5.85184 1.24802 5.90966
-5.84916 1.24239 5.86772
-5.85144 1.23785 5.8308
-5.85498 1.22879 5.75895
-5.84223 1.2233 5.72693
-5.84279 1.21321 5.65307
-5.84903 1.21076 5.62215
-5.85923 1.20836 5.59526
-5.85752 1.2028 5.55732
-5.85893 1.196 5.50343
-5.85027 1.18933 5.45845
-5.85252 1.18584 5.42552
-5.85875 1.1824 5.39561
-5.861 1.17892 5.36268
-5.86028 1.17438 5.32673
-5.85274 1.16548 5.2658
-5.86391 1.16414 5.2429
-5.86319 1.15961 5.20696
-5.85848 1.15403 5.168
-5.86073 1.15056 5.13606
-5.85938 1.14028 5.05019
-5.86162 1.13683 5.01926
-5.86485 1.13337 4.98833
-5.85815 1.12779 4.94935
-5.86535 1.12541 4.92344
-5.86163 1.12086 4.88647
-5.85392 1.11528 4.84749
-5.85702 1.11409 4.83453
-5.85453 1.10509 4.76764
-5.8667 1.10378 4.74575
-5.857 1.09818 4.70575
-5.85724 1.09472 4.6748
-5.86841 1.09339 4.6519
-5.85982 1.08558 4.59794
-5.86105 1.08314 4.56798
-5.86426 1.07973 4.54006
-5.86748 1.0773 4.51111
-5.86075 1.07178 4.47614
-5.86794 1.07041 4.45121
-5.85712 1.06605 4.42719
-5.86232 1.06367 4.40126
-5.86575 1.05783 4.34436
-5.86819 1.05097 4.28648
-5.86046 1.04645 4.25148
-5.86962 1.04513 4.22957
-5.86719 1.03602 4.15467
-5.86343 1.03256 4.12369
-5.86863 1.03017 4.09776
-5.86785 1.02675 4.0688
-5.86707 1.02332 4.03984
-5.86561 1.01625 3.96793
-5.86781 1.01287 3.94199
-5.87022 1.00807 3.88807
-5.88038 1.00677 3.86716
-5.87016 0.994234 3.76426
-5.86837 0.991818 3.73628
-5.87455 0.989482 3.71336
-5.86988 0.984842 3.67038
-5.87107 0.982458 3.64442
-5.86829 0.979027 3.61545
-5.87048 0.976674 3.5915
-5.87117 0.967313 3.49963
-5.87356 0.96256 3.44871
-5.87395 0.957805 3.39778
-5.87514 0.955436 3.37282
-5.87135 0.952019 3.34483
-5.87164 0.948457 3.30688
-5.8778 0.947151 3.28595
-5.876 0.94375 3.25898
-5.8732 0.941363 3.23299
-5.87439 0.938994 3.20803
-5.87955 0.937687 3.18709
-5.87466 0.935461 3.17208
-5.88381 0.935172 3.15215
-5.87821 0.929383 3.09919
-5.87541 0.925997 3.07321
-5.87577 0.922286 3.02526
-5.87542 0.914028 2.94037
-5.87859 0.912705 2.91841
-5.87795 0.907994 2.87047
-5.8774 0.903121 2.81153
-5.88192 0.897103 2.74264
-5.8791 0.894745 2.71865
-5.87906 0.883866 2.5918
-5.88621 0.883575 2.57185
-5.88439 0.881233 2.54887
-5.87966 0.876697 2.5129
-5.87984 0.875357 2.48992
-5.88416 0.872723 2.44698
-5.88433 0.870398 2.42501
-5.89247 0.870122 2.40608
-5.88459 0.867895 2.39105
-5.88176 0.865552 2.36806
-5.88492 0.864244 2.3471
-5.88609 0.862919 2.32512
-5.88326 0.860577 2.30213
-5.88459 0.856941 2.25919
-5.88567 0.856779 2.2482
-5.89397 0.855193 2.20828
-5.88516 0.851817 2.18326
-5.89131 0.850525 2.16332
-5.89347 0.850216 2.14234
-5.9026 0.84997 2.12541
-5.8987 0.848775 2.1124
-5.89586 0.846448 2.09041
-5.88506 0.843055 2.06437
-5.88622 0.841745 2.0434
-5.89053 0.839141 2.00246
-5.89169 0.837831 1.98149
-5.88986 0.835504 1.95951
-5.89093 0.835357 1.94952
-5.90007 0.835097 1.93159
-5.89424 0.832753 1.90857
-5.89539 0.831457 1.8886
-5.89272 0.827819 1.84563
-5.89687 0.827526 1.82566
-5.89611 0.825066 1.79469
-5.88729 0.822705 1.77065
-5.9054 0.823496 1.75577
-5.82991 1.40052 6.41631
-5.82972 1.38596 6.31051
-5.83066 1.36814 6.18776
-5.83432 1.3379 5.96921
-5.83719 1.32321 5.85543
-5.83977 1.29514 5.64784
-5.84037 1.45159 6.2176
-5.83077 1.44282 6.16565
-5.83603 1.43832 6.13175
-5.83718 1.43502 6.11181
-5.83252 1.42835 6.06687
-5.83282 1.42278 6.02795
-5.83709 1.41825 5.99204
-5.83243 1.41059 5.94811
-5.83471 1.40605 5.91119
-5.84492 1.40264 5.88332
-5.83019 1.39611 5.8483
-5.83147 1.39057 5.81138
-5.83671 1.3871 5.77947
-5.84097 1.3826 5.74556
-5.83728 1.37699 5.70461
-5.84551 1.37355 5.67472
-5.84083 1.36692 5.63278
-5.84125 1.35911 5.57789
-5.83557 1.35249 5.53594
-5.83982 1.348 5.50303
-5.84406 1.34453 5.47111
-5.84235 1.33898 5.43418
-5.84659 1.33551 5.40226
-5.84983 1.33104 5.37034
-5.84501 1.3277 5.34735
-5.83931 1.3211 5.3074
-5.84653 1.31769 5.2795
-5.8458 1.31316 5.24356
-5.85004 1.3097 5.21264
-5.85029 1.3052 5.1787
-5.84758 1.29965 5.14176
-5.84671 1.29738 5.12378
-5.85293 1.29396 5.09488
-5.84424 1.28736 5.0549
-5.84946 1.28394 5.02599
-5.85468 1.28051 4.99707
-5.84897 1.27494 4.95911
-5.85816 1.27258 4.93421
-5.84736 1.26817 4.90719
-5.85059 1.26473 4.87726
-5.85083 1.26026 4.84532
-5.85505 1.25683 4.8164
-5.85629 1.25238 4.78547
-5.85852 1.24893 4.75554
-5.85169 1.2456 4.73353
-5.84819 1.23662 4.66763
-5.85638 1.23426 4.64272
-5.85364 1.22975 4.60876
-5.85387 1.22531 4.57883
-5.86006 1.22293 4.55291
-5.85533 1.21841 4.51793
-5.85544 1.21619 4.50296
-5.85965 1.21378 4.47503
-5.85591 1.20829 4.44208
-5.85216 1.20379 4.40911
-5.85338 1.20037 4.38017
-5.85361 1.19692 4.35021
-5.8598 1.19456 4.32529
-5.85394 1.19127 4.30629
-5.85417 1.18783 4.27634
-5.85936 1.18546 4.25141
-5.8566 1.18099 4.21945
-5.85682 1.17756 4.1905
-5.86003 1.17416 4.16357
-5.85925 1.17073 4.13461
-5.86157 1.16611 4.09269
-5.85581 1.16163 4.06071
-5.86 1.15927 4.03578
-5.86121 1.15585 4.00783
-5.86242 1.15244 3.97989
-5.86279 1.13178 3.80017
-5.86083 1.10081 3.53258
-5.86479 1.08693 3.4058
-5.86291 1.08471 3.39081
-5.86409 1.08235 3.36685
-5.86528 1.07999 3.34189
-5.86647 1.07762 3.31693
-5.86666 1.07525 3.29197
-5.86585 1.07186 3.26601
-5.86903 1.06952 3.24306
-5.86713 1.06833 3.23007
-5.86751 1.06259 3.18015
-5.87267 1.06127 3.1582
-5.87684 1.05995 3.13625
-5.87205 1.05654 3.10926
-5.87821 1.05522 3.08732
-5.87631 1.05303 3.07434
-5.87351 1.05064 3.04835
-5.87568 1.0483 3.0254
-5.87686 1.04595 3.00144
-5.87705 1.04359 2.97747
-5.87822 1.04125 2.95451
-5.88239 1.03993 2.93256
-5.8765 1.0377 2.91755
-5.86972 1.03329 2.88956
-5.88085 1.03403 2.87163
-5.87704 1.03065 2.84664
-5.88519 1.03036 2.82671
-5.8774 1.02596 2.79971
-5.87857 1.02362 2.77675
-5.87576 1.02125 2.75176
-5.87485 1.02007 2.73977
-5.87603 1.01773 2.71681
-5.88317 1.01745 2.69787
-5.87737 1.01405 2.67087
-5.88153 1.01274 2.64992
-5.89067 1.01248 2.63199
-5.88188 1.00808 2.60498
-5.88794 1.00795 2.59603
-5.87816 1.00453 2.568
-5.88828 1.00428 2.55108
-5.88148 1.00089 2.52507
-5.88664 0.999585 2.50413
-5.88481 0.997243 2.48115
-5.88208 0.993723 2.44617
-5.88125 0.991382 2.4232
-5.88358 0.987748 2.38026
-5.88475 0.986423 2.35829
-5.89289 0.986147 2.33935
-5.8821 0.98174 2.31233
-5.88616 0.98161 2.30336
-5.89231 0.981333 2.28441
-5.8855 0.977958 2.25941
-5.88866 0.97665 2.23845
-5.89097 0.97303 2.19651
-5.89014 0.971703 2.17452
-5.89222 0.970557 2.16455
-5.88341 0.967166 2.13853
-5.87959 0.964823 2.11554
-5.89188 0.963269 2.07765
-5.89319 0.960648 2.03569
-5.88247 0.956108 1.99967
-5.89858 0.956897 1.98478
-5.88179 0.952471 1.95671
-5.89093 0.952211 1.93879
-5.89408 0.951917 1.91881
-5.88825 0.948573 1.89581
-5.88733 0.947424 1.88582
-5.89447 0.947148 1.86688
-5.88865 0.944803 1.84386
-5.88182 0.942458 1.82084
-5.89793 0.943247 1.80595
-5.88413 0.938853 1.77991
-5.88828 0.938574 1.76094
-5.89035 0.938428 1.75096
-5.88568 0.934788 1.70797
-5.88882 0.933509 1.68901
-5.8265 1.54526 5.92507
-5.83275 1.54078 5.89218
-5.82809 1.53413 5.84824
-5.83432 1.52967 5.81735
-5.82484 1.51767 5.75044
-5.8281 1.51316 5.71553
-5.83831 1.51077 5.68864
-5.83363 1.50314 5.64671
-5.84383 1.50075 5.61982
-5.83617 1.49309 5.57587
-5.83036 1.48772 5.5509
-5.83163 1.4832 5.51597
-5.83289 1.47769 5.48106
-5.83019 1.47211 5.44212
-5.8384 1.4687 5.41422
-5.83569 1.46213 5.3763
-5.83113 1.45327 5.31838
-5.84132 1.45091 5.29349
-5.84457 1.44644 5.26158
-5.84384 1.44091 5.22565
-5.84211 1.43539 5.19071
-5.85256 1.42851 5.13089
-5.83779 1.42205 5.10087
-5.84551 1.40967 5.00709
-5.84502 1.39968 4.94023
-5.84539 1.39295 4.89133
-5.84961 1.38953 4.8624
-5.84787 1.38402 4.82847
-5.8573 1.3772 4.77263
-5.84959 1.37062 4.73367
-5.85679 1.36824 4.70775
-5.84498 1.36286 4.68274
-5.85118 1.36048 4.65682
-5.85686 1.34815 4.56703
