-3.43064 0.10062 1.39773
-3.42675 0.0993949 1.38272
-3.43478 0.100356 1.37977
-3.4289 0.0981153 1.36375
-3.42402 0.0968749 1.34773
-3.43906 0.0977969 1.34183
-3.4282 0.0965225 1.32376
-3.43129 0.0963471 1.31179
-3.43742 0.0950999 1.29485
-3.43353 0.094875 1.27982
-3.44858 0.095797 1.27392
-3.43771 0.0935227 1.25587
-3.4408 0.0933473 1.2439
-3.44488 0.0932022 1.23393
-3.44598 0.0920106 1.22095
-3.44503 0.0919062 1.21394
-3.44523 0.0905215 1.18796
-3.44831 0.0903609 1.17699
-3.45838 0.0912348 1.16805
-3.45149 0.0890079 1.15303
-3.46359 0.0898093 1.13911
-3.45572 0.0885667 1.12306
-3.4609 0.0872152 1.09912
-3.4711 0.0868228 1.0722
-3.45724 0.0855463 1.05411
-3.47437 0.0852922 1.03624
-3.47148 0.0850828 1.02222
-3.46459 0.0838558 1.00718
-3.47964 0.084763 1.00028
-3.47071 0.0836233 0.99123
-3.46881 0.0824295 0.978232
-3.47689 0.0822873 0.968293
-3.47498 0.0820934 0.95528
-3.48206 0.0819505 0.945334
-3.48016 0.0817566 0.932321
-3.48025 0.0805791 0.920337
-3.4773 0.0804733 0.913316
-3.48238 0.0803289 0.903355
-3.48456 0.0789752 0.879388
-3.48764 0.0788146 0.868412
-3.47975 0.0775868 0.853369
-3.48583 0.0774432 0.843415
-3.49685 0.0784067 0.840484
-3.48497 0.0771612 0.82441
-3.48107 0.075966 0.811397
-3.49014 0.0768392 0.802451
-3.49023 0.0756617 0.790467
-3.49531 0.0765024 0.779492
-3.4944 0.0753241 0.767501
-3.49844 0.075253 0.762531
-3.49753 0.0750747 0.750526
-3.5086 0.0759493 0.741595
-3.49671 0.0737188 0.726536
-3.50288 0.0733975 0.704584
-3.50596 0.0732369 0.693608
-3.50002 0.0731141 0.685564
-3.51208 0.0730044 0.677656
-3.50918 0.0728098 0.664635
-3.50736 0.0714532 0.640638
-3.51243 0.0713088 0.630677
-3.51552 0.0711481 0.619701
-3.51456 0.0710586 0.613694
-3.50966 0.0698626 0.600673
-3.51883 0.0705434 0.578729
-3.5239 0.070399 0.568768
-3.52299 0.0702207 0.556762
-3.52113 0.0689529 0.538765
-3.52321 0.0687915 0.527781
-3.52829 0.0686323 0.51682
-3.52438 0.0684518 0.504792
-3.53446 0.068311 0.494869
-3.53155 0.0681312 0.482848
-3.53667 0.067898 0.466887
-3.53875 0.0677366 0.455904
-3.53385 0.0665407 0.442883
-3.53993 0.0673969 0.432915
-3.54002 0.0672193 0.420916
-3.5441 0.0670594 0.409948
-3.54514 0.0669861 0.404956
-3.53224 0.0647696 0.39089
-3.54739 0.0654844 0.370991
-3.54249 0.0652883 0.357955
-3.54957 0.0651454 0.348009
-3.55165 0.064984 0.337026
-3.5487 0.0648782 0.330004
-3.55087 0.064554 0.308022
-3.55803 0.0642334 0.286078
-3.5655 0.0633208 0.224139
-3.56758 0.0631594 0.213155
-3.56667 0.0629959 0.202149
-3.56984 0.0626576 0.179175
-3.21351 0.247095 3.26119
-3.21979 0.244552 3.22427
-3.2273 0.239551 3.15639
-3.48275 0.101572 0.852036
-3.48506 0.0999514 0.810072
-3.48515 0.0997738 0.798073
-3.49163 0.0968458 0.735157
-3.49789 0.0963469 0.701207
-3.50097 0.0961863 0.690231
-3.51017 0.0957932 0.663302
-3.50527 0.0945972 0.650281
-3.50436 0.0944188 0.638275
-3.50653 0.0940798 0.615293
-3.52164 0.0948834 0.601393
-3.51074 0.0936683 0.587327
-3.5219 0.0933654 0.566413
-3.517 0.0921695 0.553392
-3.51617 0.0918283 0.530388
-3.51926 0.0916676 0.519412
-3.52638 0.0914359 0.503467
-3.52348 0.0912413 0.490446
-3.52464 0.0899165 0.468471
-3.52673 0.0897403 0.456488
-3.53081 0.0895952 0.446519
-3.52586 0.0894879 0.439483
-3.5391 0.0890237 0.407585
-3.53528 0.0886655 0.383558
-3.54431 0.0886129 0.379626
-3.53449 0.0872504 0.355569
-3.55256 0.0891301 0.346676
-3.54865 0.0879497 0.334663
-3.54487 0.0865176 0.305651
-3.54496 0.08634 0.293653
-3.55013 0.086018 0.271694
-3.54821 0.0858537 0.26068
-3.5483 0.085676 0.248682
-3.54851 0.0842617 0.2207
-3.55559 0.0851038 0.20974
-3.56796 0.0843873 0.160837
-3.56405 0.0842067 0.148808
-3.56622 0.0838825 0.126827
-3.56331 0.0827028 0.11482
-3.56439 0.0825407 0.103829
-3.57047 0.0833821 0.0928613
-3.57451 0.083311 0.0878921
-3.56669 0.0819501 0.06385
-3.56778 0.081788 0.0528591
-3.56994 0.0814638 0.0308771
-3.57923 0.0818929 -0.00806456
-3.5857 0.0809795 -0.0700109
-3.59087 0.0806575 -0.0919702
-3.58896 0.0804784 -0.103984
-3.59404 0.0813191 -0.114959
-3.59012 0.0801535 -0.125973
-3.59325 0.079904 -0.142948
-3.59733 0.080744 -0.153931
-3.59542 0.0805797 -0.164945
-3.59451 0.0794015 -0.176936
-3.60659 0.0812472 -0.187874
-3.60067 0.0800801 -0.198903
-3.60072 0.0799913 -0.204902
-3.60089 0.0796508 -0.227899
-3.60597 0.0794916 -0.238859
-3.23635 0.256468 3.01519
-3.27698 0.229361 2.66884
-3.28966 0.223038 2.57902
-3.29523 0.216917 2.50314
-3.30193 0.209561 2.41129
-3.30504 0.209356 2.39731
-3.31557 0.204327 2.32746
-3.31569 0.20309 2.31148
-3.3178 0.20187 2.29651
-3.31904 0.199397 2.26455
-3.32334 0.196823 2.22561
-3.32856 0.195398 2.19667
-3.33775 0.194019 2.17076
-3.33594 0.191648 2.14578
-3.34426 0.189032 2.10387
-3.3404 0.187748 2.08486
-3.34859 0.186384 2.05994
-3.34468 0.185219 2.04892
-3.34678 0.185013 2.03494
-3.35586 0.184871 2.02501
-3.35908 0.182444 1.99607
-3.36416 0.182285 1.9851
-3.35825 0.181103 1.97308
-3.36334 0.180929 1.96111
-3.36755 0.178518 1.93318
-3.36468 0.177264 1.91617
-3.3648 0.176042 1.90119
-3.36496 0.174717 1.87921
-3.37204 0.174559 1.86826
-3.36519 0.172273 1.84924
-3.37824 0.173179 1.84233
-3.38332 0.17302 1.83136
-3.37846 0.17175 1.81334
-3.38156 0.170559 1.80038
-3.38161 0.170456 1.79338
-3.37785 0.167979 1.76139
-3.38394 0.167821 1.75043
-3.38902 0.166662 1.73949
-3.39212 0.166472 1.72651
-3.39422 0.166281 1.71353
-3.39228 0.165161 1.70553
-3.39239 0.163939 1.69055
-3.39847 0.163781 1.67959
-3.39359 0.16254 1.66357
-3.39371 0.161318 1.64859
-3.39282 0.160096 1.6336
-3.4099 0.160945 1.62271
-3.40602 0.159705 1.6067
-3.40514 0.158483 1.59171
-3.40524 0.158276 1.57771
-3.40435 0.157068 1.56372
-3.40645 0.155877 1.55075
-3.41252 0.155733 1.5408
-3.41158 0.155614 1.53279
-3.41766 0.15547 1.52284
-3.41378 0.154231 1.50683
-3.41986 0.154072 1.49587
-3.42195 0.152896 1.48391
-3.42007 0.152673 1.46889
-3.41718 0.151449 1.45389
-3.42022 0.151377 1.44891
-3.4253 0.151218 1.43795
-3.41644 0.148945 1.41991
-3.4275 0.149834 1.41198
-3.4256 0.148626 1.39798
-3.4267 0.147434 1.38501
-3.42088 0.146089 1.36198
-3.42894 0.145962 1.35304
-3.43801 0.146835 1.3441
-3.44309 0.146676 1.33314
-3.43522 0.144419 1.31611
-3.43936 0.144155 1.29814
-3.44244 0.142995 1.28718
-3.44255 0.142787 1.27318
-3.44364 0.141611 1.26121
-3.44274 0.141417 1.2482
-3.45081 0.141275 1.23826
-3.44094 0.140016 1.2212
-3.45095 0.139994 1.21928
-3.45604 0.139835 1.20832
-3.44916 0.138593 1.19228
-3.45922 0.139482 1.18434
-3.45832 0.138289 1.17135
-3.45642 0.13708 1.15735
-3.46051 0.13692 1.14639
-3.46454 0.136849 1.14142
-3.46563 0.136672 1.12943
-3.46891 0.135127 1.09247
-3.47009 0.133773 1.06849
-3.48119 0.127634 0.923648
-3.53111 0.11594 0.537144
-3.5579 0.110436 0.299395
-3.13207 0.374581 3.97178
-3.13435 0.37102 3.93385
-3.13853 0.368683 3.91091
-3.14289 0.363976 3.86301
-3.14804 0.362684 3.84306
-3.14825 0.360284 3.8161
-3.15032 0.359153 3.80713
-3.15349 0.356814 3.78418
-3.15269 0.354414 3.75721
-3.15685 0.352107 3.73627
-3.16219 0.348444 3.69136
-3.16734 0.346167 3.67243
-3.17376 0.341343 3.61654
-3.18224 0.335417 3.55368
-3.22566 0.294774 3.10355
-3.24271 0.282729 2.96484
-3.25294 0.281292 2.93493
-3.25561 0.272992 2.84706
-3.2627 0.272804 2.83412
-3.25994 0.269344 2.80314
-3.27513 0.267985 2.77827
-3.27342 0.264406 2.73931
-3.27867 0.261922 2.70638
-3.2769 0.259476 2.6764
-3.27916 0.25596 2.64146
-3.28639 0.254521 2.61154
-3.28355 0.252208 2.59055
-3.28859 0.252138 2.58558
-3.28872 0.250872 2.5676
-3.29283 0.249667 2.55365
-3.29509 0.247166 2.5197
-3.29635 0.243664 2.48575
-3.30649 0.24339 2.46683
-3.29966 0.241059 2.44481
-3.30475 0.23987 2.43187
-3.31681 0.240761 2.42394
-3.31993 0.239541 2.40898
-3.31111 0.237179 2.38495
-3.30919 0.23603 2.37495
-3.31341 0.233589 2.34501
-3.32945 0.234527 2.34012
-3.32659 0.233243 2.32111
-3.3307 0.232039 2.30716
-3.32784 0.229756 2.28817
-3.32405 0.227353 2.26117
-3.32517 0.226117 2.2452
-3.32827 0.225912 2.23122
-3.33635 0.22577 2.22128
-3.33946 0.224565 2.20732
-3.32858 0.222321 2.19127
-3.33567 0.222148 2.17933
-3.34175 0.22199 2.16837
-3.33292 0.218658 2.14635
-3.34 0.2185 2.13541
-3.3451 0.218311 2.12245
-3.34721 0.217106 2.10848
-3.34925 0.217018 2.10249
-3.35435 0.216829 2.08953
-3.35967 0.213197 2.04662
-3.35382 0.211911 2.02759
-3.35592 0.210706 2.01363
-3.35798 0.210603 2.00664
-3.3592 0.20816 1.97668
-3.35833 0.206923 1.96069
-3.36253 0.205526 1.93374
-3.36563 0.204336 1.92078
-3.3627 0.203186 1.91077
-3.37586 0.202885 1.88987
-3.371 0.201615 1.87185
-3.37609 0.201441 1.85989
-3.37122 0.199186 1.84289
-3.38134 0.198956 1.82696
-3.37448 0.19667 1.80794
-3.37957 0.196496 1.79598
-3.38068 0.19529 1.78201
-3.38377 0.195114 1.77003
-3.38687 0.193924 1.75707
-3.38499 0.192686 1.74107
-3.38404 0.192581 1.73407
-3.38714 0.191391 1.72111
-3.38824 0.1912 1.70812
-3.39543 0.189835 1.68319
-3.39354 0.188611 1.66819
-3.39962 0.188453 1.65723
-3.39569 0.187317 1.64822
-3.39281 0.186078 1.63222
-3.3949 0.185902 1.62023
-3.39999 0.184728 1.60829
-3.40208 0.184552 1.5963
-3.40617 0.184377 1.58433
-3.40329 0.183153 1.56933
-3.40833 0.183083 1.56437
-3.40444 0.181858 1.54935
-3.41052 0.181699 1.5384
-3.40963 0.180491 1.52441
-3.40973 0.179284 1.51043
-3.41382 0.179124 1.49946
-3.40889 0.177988 1.49044
-3.42005 0.17767 1.46852
-3.41517 0.17643 1.4525
-3.41328 0.175221 1.4385
-3.42235 0.175094 1.42957
-3.42644 0.17492 1.4176
-3.41652 0.17375 1.40655
-3.42858 0.17364 1.39864
-3.41971 0.172382 1.38159
-3.42588 0.171046 1.35865
-3.42599 0.170839 1.34465
-3.42609 0.169646 1.33167
-3.4351 0.170623 1.32972
-3.43121 0.169398 1.31471
-3.44028 0.169272 1.30578
-3.4364 0.168047 1.29076
-3.44148 0.167888 1.2798
-3.4346 0.166646 1.26377
-3.43968 0.166501 1.25381
-3.44073 0.165399 1.24683
-3.4468 0.166255 1.23686
-3.44491 0.165046 1.22286
-3.44002 0.163835 1.20884
-3.45207 0.164726 1.20092
-3.44918 0.163516 1.18691
-3.44828 0.162323 1.17392
-3.4563 0.163285 1.17097
-3.45341 0.162075 1.15696
-3.46347 0.162949 1.14802
-3.45858 0.160739 1.13402
-3.46366 0.160579 1.12306
-3.45678 0.159352 1.10802
-3.46884 0.160243 1.1001
-3.45792 0.158072 1.08905
-3.46 0.157911 1.07806
-3.4591 0.157717 1.06506
-3.46518 0.157559 1.0541
-3.47325 0.157432 1.04516
-3.47534 0.157255 1.03318
-3.47144 0.15606 1.02017
-3.47149 0.155957 1.01317
-3.47259 0.15478 1.00119
-3.47467 0.154618 0.990209
-3.47077 0.153408 0.976196
-3.48383 0.154299 0.96828
-3.47694 0.153087 0.954244
-3.47903 0.152911 0.94226
-3.48307 0.15284 0.937291
-3.48316 0.152662 0.925293
-3.47726 0.151451 0.911264
-3.48044 0.150113 0.888305
-3.48851 0.15097 0.878352
-3.48257 0.149848 0.870322
-3.48774 0.148526 0.848378
-3.49481 0.149383 0.838417
-3.48693 0.148155 0.823374
-3.494 0.148012 0.813428
-3.49019 0.146639 0.788416
-3.49323 0.146567 0.783439
-3.4944 0.145228 0.760465
-3.50257 0.144908 0.738528
-3.49867 0.144712 0.7255
-3.49976 0.143536 0.713524
-3.50388 0.143302 0.697556
-3.51295 0.14416 0.68761
-3.50506 0.142947 0.673567
-3.50614 0.142785 0.662576
-3.50823 0.142624 0.651593
-3.51335 0.142376 0.634633
-3.52142 0.142248 0.625694
-3.51053 0.141018 0.610628
-3.52359 0.141909 0.602712
-3.52269 0.140731 0.590721
-3.52278 0.140553 0.578723
-3.51284 0.139428 0.570663
-3.52091 0.139286 0.560725
-3.52 0.139107 0.548719
-3.53007 0.139981 0.539781
-3.52118 0.138768 0.52573
-3.53537 0.138393 0.499839
-3.52448 0.137178 0.485773
-3.52456 0.137015 0.474774
-3.52565 0.135838 0.462798
-3.53772 0.137713 0.45386
-3.52782 0.135514 0.440816
-3.53988 0.136389 0.431893
-3.53902 0.136122 0.413888
-3.53212 0.134925 0.400852
-3.54718 0.135817 0.392951
-3.53229 0.133584 0.37787
-3.54236 0.134458 0.368932
-3.53846 0.134263 0.355903
-3.55248 0.135229 0.352994
-3.54058 0.134028 0.33992
-3.55265 0.134888 0.329997
-3.53875 0.132686 0.316923
-3.54483 0.132527 0.30597
-3.54692 0.132366 0.294987
-3.55799 0.133226 0.285056
-3.54905 0.132116 0.278004
-3.54522 0.130773 0.254992
-3.56229 0.132651 0.246091
-3.55038 0.13145 0.233018
-3.55955 0.131131 0.211089
-3.56359 0.13206 0.206104
-3.55768 0.130878 0.194076
-3.57075 0.13174 0.18416
-3.57083 0.131577 0.173162
-3.57192 0.131415 0.162171
-3.56502 0.130217 0.149135
-3.57309 0.131075 0.139181
-3.5803 0.130666 0.111238
-3.58138 0.130503 0.100247
-3.57248 0.129319 0.0881958
-3.58356 0.130164 0.0772653
-3.57664 0.128997 0.0662289
-3.58668 0.12993 0.06129
-3.57078 0.127726 0.048201
-3.57486 0.128566 0.0372178
-3.57994 0.128407 0.026257
-3.58702 0.129249 0.0152964
-3.58411 0.129084 0.0042753
-3.59414 0.130017 -0.000663571
-3.58432 0.127669 -0.023706
-3.58541 0.127493 -0.0356968
-3.58658 0.127168 -0.0576863
-3.59366 0.12801 -0.0686469
-3.5897 0.127918 -0.0746762
-3.59088 0.127578 -0.0976655
-3.59604 0.127256 -0.119625
-3.59721 0.126917 -0.142614
-3.6093 0.127762 -0.153537
-3.60333 0.127684 -0.158582
-3.61251 0.12835 -0.181526
-3.61259 0.128187 -0.192524
-3.59868 0.126 -0.204598
-3.60476 0.126841 -0.215566
-3.61285 0.127684 -0.226519
-3.1633 0.37819 3.67392
-3.17081 0.371204 3.60707
-3.20596 0.344042 3.3247
-3.33818 0.242126 2.11004
-3.34679 0.235933 2.02919
-3.351 0.234522 2.00123
-3.3627 0.228168 1.9094
-3.36281 0.226947 1.89442
-3.36491 0.226756 1.88144
-3.37 0.225582 1.86949
-3.37028 0.223034 1.83253
-3.37349 0.221622 1.80457
-3.37659 0.220432 1.79161
-3.3747 0.219209 1.77661
-3.37879 0.219034 1.76464
-3.37896 0.216708 1.74267
-3.38416 0.215327 1.71673
-3.38835 0.213945 1.69078
-3.38647 0.212707 1.67478
-3.38951 0.212635 1.6698
-3.39071 0.211237 1.64283
-3.3979 0.209872 1.6179
-3.39701 0.208664 1.60391
-3.40204 0.208608 1.59995
-3.39927 0.206162 1.56996
-3.40534 0.206019 1.56
-3.40744 0.205828 1.54702
-3.41153 0.205653 1.53505
-3.4196 0.205526 1.52611
-3.4067 0.203309 1.51205
-3.4088 0.202118 1.49908
-3.41189 0.201958 1.4881
-3.41598 0.201783 1.47614
-3.41807 0.200592 1.46317
-3.42226 0.200225 1.4382
-3.4243 0.200152 1.43322
-3.42141 0.197928 1.41823
-3.42959 0.197594 1.39529
-3.42969 0.196401 1.38231
-3.43487 0.19605 1.35835
-3.43203 0.193722 1.33636
-3.43512 0.193561 1.32538
-3.43522 0.192354 1.3114
-3.43831 0.192194 1.30042
-3.4414 0.192018 1.28845
-3.44747 0.191875 1.27849
-3.45271 0.190419 1.24755
-3.4518 0.190226 1.23454
-3.45289 0.189049 1.22257
-3.45399 0.188858 1.20958
-3.47418 0.181548 1.05282
-3.47977 0.177383 0.973908
-3.53839 0.161319 0.494521
-3.143 0.439626 3.9739
-3.1353 0.434044 3.93492
-3.13738 0.432883 3.92395
-3.1465 0.432667 3.90902
-3.14769 0.429283 3.88308
-3.15086 0.42696 3.86113
-3.15206 0.424576 3.83517
-3.15137 0.419969 3.79423
-3.16344 0.41983 3.78432
-3.16464 0.416446 3.75838
-3.17275 0.415245 3.74446
-3.17294 0.41286 3.71849
-3.17513 0.410506 3.69454
-3.16748 0.404805 3.64756
-3.18353 0.404728 3.64168
-3.17183 0.400143 3.60265
-3.18489 0.400034 3.59475
-3.19418 0.396463 3.55587
-3.19346 0.391915 3.51893
-3.19958 0.390683 3.50299
-3.19779 0.388282 3.47601
-3.19895 0.385957 3.45405
-3.20508 0.384725 3.43811
-3.20526 0.38237 3.41414
-3.20453 0.377837 3.3782
-3.21065 0.376604 3.36226
-3.21794 0.373047 3.32436
-3.21613 0.370676 3.29938
-3.22026 0.369427 3.28243
-3.22332 0.368311 3.27447
-3.22746 0.367048 3.25651
-3.23407 0.358854 3.17567
-3.23224 0.356512 3.15269
-3.2363 0.356411 3.14572
-3.2386 0.351821 3.1058
-3.24372 0.350588 3.08986
-3.25098 0.34809 3.05594
-3.24717 0.344718 3.03096
-3.23732 0.342414 3.01092
-3.24343 0.341197 2.99598
-3.25565 0.339776 2.96709
-3.26176 0.338574 2.95315
-3.25893 0.336231 2.93016
-3.25512 0.332873 2.90618
-3.2671 0.333912 2.90826
-3.26428 0.331569 2.88527
-3.26243 0.329257 2.86428
-3.2735 0.330132 2.85535
-3.26968 0.326774 2.83137
-3.27777 0.326602 2.81943
-3.27394 0.324274 2.79743
-3.27799 0.323173 2.79048
-3.28012 0.321923 2.77351
-3.27927 0.320641 2.75452
-3.27445 0.317283 2.73053
-3.2868 0.313611 2.68467
-3.28984 0.313524 2.6787
-3.29395 0.31232 2.66474
-3.2931 0.311023 2.64475
-3.29821 0.30982 2.63081
-3.30252 0.306201 2.58889
-3.29386 0.301544 2.54489
-3.30108 0.29912 2.51597
-3.30519 0.297901 2.50102
-3.31327 0.297759 2.49108
-3.31134 0.29661 2.48108
-3.31545 0.296405 2.46711
-3.31684 0.291637 2.41519
-3.32393 0.290479 2.40426
-3.32605 0.289244 2.38829
-3.32836 0.285639 2.34735
-3.33786 0.280654 2.28049
-3.33415 0.277104 2.24351
-3.34321 0.276977 2.23458
-3.34334 0.275725 2.2176
-3.3416 0.273221 2.18362
-3.36789 0.260709 2.01298
-3.53971 0.194695 0.317013
-3.55572 0.191722 0.183159
-3.57051 0.190163 0.0772788
-3.5756 0.191004 0.0663032
-3.57381 0.189588 0.0383068
-3.57798 0.19025 0.0153252
-3.57906 0.190088 0.0043343
-3.58115 0.189927 -0.00664914
-3.58019 0.189837 -0.0126558
-3.57927 0.188674 -0.023647
-3.58353 0.189173 -0.0576271
-3.59382 0.189603 -0.0965613
-3.59991 0.189445 -0.107515
-3.60099 0.189283 -0.118506
-3.59916 0.188941 -0.141517
-3.59425 0.187774 -0.152539
-3.60428 0.189708 -0.157492
-3.61037 0.189534 -0.169446
-3.61045 0.189371 -0.180444
-3.61554 0.190212 -0.19142
-3.60563 0.189027 -0.203479
-3.61579 0.189709 -0.225415
-3.61584 0.18962 -0.231414
-3.13843 0.495699 3.91103
-3.15033 0.481961 3.79331
-3.16488 0.474907 3.72151
-3.16428 0.468122 3.6686
-3.17881 0.461097 3.5988
-3.21891 0.417088 3.1917
-3.22518 0.41356 3.1558
-3.2313 0.412328 3.13986
-3.23352 0.4089 3.11092
-3.23864 0.407667 3.09498
-3.23697 0.40303 3.05203
-3.24209 0.401796 3.03608
-3.25118 0.401625 3.02415
-3.24133 0.398322 3.00412
-3.25538 0.399244 2.99821
-3.24461 0.394777 2.96719
-3.24973 0.393544 2.95125
-3.25585 0.392327 2.93631
-3.25798 0.390077 2.91936
-3.25507 0.388882 2.90635
-3.26019 0.387664 2.89141
-3.25636 0.384321 2.86842
-3.25751 0.38304 2.84945
-3.27155 0.383962 2.84354
-3.26873 0.380619 2.82056
-3.27582 0.380432 2.80762
-3.2749 0.379283 2.79763
-3.26511 0.374862 2.76962
-3.27221 0.374675 2.75667
-3.28626 0.374596 2.75078
-3.27448 0.371158 2.72173
-3.28257 0.369987 2.70981
-3.28669 0.368753 2.69386
-3.28476 0.367604 2.68386
-3.27696 0.364213 2.65785
-3.28703 0.364087 2.64892
-3.29413 0.3639 2.63598
-3.2893 0.360571 2.61399
-3.30136 0.361461 2.60606
-3.29149 0.358188 2.58804
-3.28964 0.355905 2.56905
-3.30269 0.356811 2.56214
-3.30183 0.354529 2.54316
-3.29799 0.352216 2.52216
-3.31005 0.353106 2.51424
-3.30024 0.348729 2.48923
-3.29833 0.347565 2.47823
-3.31336 0.348502 2.47333
-3.30853 0.346173 2.45132
-3.30468 0.343874 2.43133
-3.31674 0.343764 2.42342
-3.31687 0.342513 2.40643
-3.31502 0.34023 2.38745
-3.31905 0.340159 2.38248
-3.31123 0.337813 2.35945
-3.31334 0.335593 2.3445
-3.3254 0.336483 2.33658
-3.32255 0.3342 2.31759
-3.33062 0.334057 2.30765
-3.32976 0.33279 2.28966
-3.32982 0.331672 2.28167
-3.32895 0.32942 2.2647
-3.32908 0.328168 2.24772
-3.33814 0.328042 2.23879
-3.33529 0.325758 2.2198
-3.3364 0.324537 2.20482
-3.33852 0.323317 2.18985
-3.3336 0.32215 2.17883
-3.33571 0.32093 2.16386
-3.33683 0.319694 2.14789
-3.34292 0.319535 2.13693
-3.34403 0.318314 2.12196
-3.34924 0.315904 2.09403
-3.35042 0.313564 2.07107
-3.35973 0.310964 2.03017
-3.35486 0.308694 2.01217
-3.35404 0.306353 1.98919
-3.36311 0.307212 1.97925
-3.3682 0.306038 1.9673
-3.37429 0.305879 1.95635
-3.36743 0.303593 1.93733
-3.37352 0.30342 1.92537
-3.37358 0.302302 1.91739
-3.36971 0.301047 1.90038
-3.37082 0.299841 1.8864
-3.37192 0.298634 1.87242
-3.38199 0.298508 1.8635
-3.37912 0.297255 1.8465
-3.38227 0.295961 1.82654
-3.38835 0.295817 1.81658
-3.3805 0.292516 1.79657
-3.39056 0.29339 1.78763
-3.38669 0.291135 1.77063
-3.39277 0.290992 1.76068
-3.39393 0.289682 1.7397
-3.39614 0.287269 1.71175
-3.39536 0.284839 1.68278
-3.40244 0.284696 1.67283
-3.40789 0.280812 1.61292
-3.41198 0.280637 1.60096
-3.41209 0.27943 1.58697
-3.41717 0.279271 1.57601
-3.41943 0.276769 1.54206
-3.42162 0.274386 1.51611
-3.42083 0.271971 1.48813
-3.41799 0.270658 1.46713
-3.43349 0.267692 1.40128
-3.43867 0.266341 1.37734
-3.43987 0.264957 1.35136
-3.44306 0.262589 1.32642
-3.4452 0.262309 1.30744
-3.44829 0.261134 1.29548
-3.4464 0.259926 1.28148
-3.44659 0.258556 1.2565
-3.45362 0.259501 1.25253
-3.45291 0.255924 1.21358
-3.45899 0.25678 1.20361
-3.45709 0.255571 1.18961
-3.46222 0.254323 1.17266
-3.47077 0.251249 1.09976
-3.13584 0.540803 3.98535
-3.14001 0.53848 3.96342
-3.13725 0.53402 3.93246
-3.14933 0.533865 3.92155
-3.15153 0.530482 3.89561
-3.15174 0.527068 3.86766
-3.155 0.522553 3.83275
-3.15719 0.520199 3.80879
-3.16432 0.517938 3.79088
-3.16057 0.513462 3.75891
-3.17165 0.513307 3.748
-3.16977 0.511069 3.73201
-3.16997 0.507684 3.70606
-3.17115 0.50533 3.6821
-3.18541 0.501837 3.64826
-3.18262 0.498421 3.62028
-3.18489 0.493905 3.58536
-3.18904 0.492612 3.56541
-3.19239 0.486934 3.51951
-3.20247 0.486778 3.50859
-3.20464 0.483454 3.48665
-3.20384 0.481069 3.46068
-3.20095 0.478845 3.44569
-3.20212 0.47552 3.42374
-3.21122 0.47532 3.40981
-3.21356 0.46967 3.36591
-3.21869 0.468422 3.34896
-3.21795 0.463904 3.31402
-3.22739 0.458053 3.25617
-3.22756 0.455727 3.2342
-3.23467 0.45451 3.21927
-3.2422 0.446495 3.15043
-3.24864 0.440641 3.09256
-3.2497 0.439509 3.08359
-3.253 0.435934 3.04466
-3.25415 0.433639 3.0247
-3.25898 0.42103 2.91591
-3.27072 0.411588 2.81812
-3.28194 0.409167 2.78924
-3.29904 0.395033 2.64456
-3.29515 0.392823 2.63056
-3.30039 0.390354 2.59863
-3.30611 0.380952 2.5038
-3.3132 0.380779 2.49185
-3.31757 0.376057 2.44295
-3.31975 0.373704 2.419
-3.32598 0.371264 2.38907
-3.33022 0.367809 2.35815
-3.33489 0.359495 2.2693
-3.14287 0.564716 3.97905
-3.14902 0.562425 3.95913
-3.15845 0.555603 3.90329
-3.17679 0.535012 3.72771
-3.17995 0.532704 3.70677
-3.16924 0.526119 3.66778
-3.19226 0.511153 3.53415
-3.20055 0.507597 3.49626
-3.19865 0.505388 3.48228
-3.21649 0.492774 3.37259
-3.22147 0.477868 3.24383
-3.22817 0.467512 3.15202
-3.25042 0.450086 2.98742
-3.26165 0.447636 2.95654
-3.26592 0.443121 2.92163
-3.25851 0.433976 2.8447
-3.27667 0.432664 2.82285
-3.29166 0.419751 2.69314
-3.297 0.401136 2.51643
-3.30555 0.394076 2.44459
-3.32627 0.386685 2.34984
-3.33771 0.38082 2.29101
-3.33286 0.378521 2.271
-3.33728 0.37371 2.2161
-3.3466 0.370095 2.17422
-3.33795 0.364408 2.12823
-3.35949 0.360373 2.05744
-3.35188 0.354598 2.00546
-3.37008 0.354226 1.9796
-3.37142 0.349561 1.93468
-3.38967 0.336118 1.76899
-3.39697 0.333546 1.73008
-3.40354 0.32844 1.65519
-3.40878 0.325971 1.62326
-3.41334 0.319879 1.54938
-3.42093 0.31473 1.4715
-3.42617 0.31326 1.43956
-3.43244 0.310731 1.40364
-3.43668 0.309261 1.37169
-3.46207 0.298555 1.18801
-3.48794 0.284918 0.941373
-3.49216 0.284491 0.912407
-3.49751 0.2818 0.865481
-3.48976 0.279305 0.832455
-3.51796 0.273972 0.673725
-3.53565 0.265668 0.44995
-3.55467 0.262683 0.315119
-3.56414 0.261772 0.253195
-3.57694 0.260212 0.1473
-3.59625 0.257634 -0.0275404
-3.60576 0.257649 -0.0944783
-3.60723 0.255717 -0.157447
-3.13824 0.595954 3.92755
-3.14797 0.583541 3.83179
-3.15738 0.576734 3.77695
-3.15976 0.570011 3.72807
-3.16986 0.568811 3.71416
-3.1662 0.563157 3.67021
-3.17233 0.560896 3.65228
-3.17884 0.552909 3.58544
-3.18525 0.546115 3.53158
-3.18661 0.54042 3.48467
-3.19275 0.538158 3.46675
-3.1941 0.532479 3.42084
-3.20112 0.532439 3.41789
-3.20148 0.526744 3.37097
-3.21354 0.52662 3.36206
-3.21092 0.519878 3.31214
-3.21308 0.517584 3.29218
-3.22738 0.514002 3.25234
-3.22062 0.509538 3.22135
-3.22078 0.506213 3.1994
-3.23583 0.507135 3.1935
-3.23326 0.50029 3.13657
-3.23458 0.494669 3.09466
-3.24665 0.494545 3.08575
-3.24581 0.492234 3.06477
-3.24506 0.487745 3.03183
-3.24224 0.484388 3.00785
-3.25247 0.481951 2.97796
-3.25164 0.479625 2.95599
-3.25377 0.47736 2.93804
-3.25515 0.471621 2.88812
-3.26323 0.470464 2.8772
-3.26637 0.4692 2.85924
-3.26354 0.465873 2.83727
-3.26277 0.462414 2.80631
-3.2798 0.463381 2.80342
-3.28094 0.462101 2.78445
-3.27016 0.456664 2.75544
-3.28719 0.458617 2.75154
-3.28932 0.456367 2.73459
-3.28945 0.455101 2.7166
-3.28158 0.451844 2.69959
-3.29365 0.451734 2.69168
-3.28386 0.447313 2.66367
-3.2952 0.443655 2.6188
-3.29634 0.44139 2.60084
-3.30038 0.441304 2.59487
-3.29953 0.439022 2.5759
-3.30363 0.437818 2.56195
-3.30378 0.435537 2.54298
-3.31398 0.434144 2.51607
-3.31412 0.431878 2.4981
-3.30623 0.42965 2.48307
-3.32041 0.428306 2.4592
-3.31656 0.426007 2.4392
-3.32365 0.424834 2.42727
-3.32697 0.42123 2.38634
-3.32921 0.417758 2.35441
-3.33047 0.414256 2.32046
-3.33556 0.413067 2.30752
-3.33662 0.412964 2.30053
-3.33687 0.409476 2.26757
-3.37638 0.379606 1.93727
-3.37666 0.376044 1.89932
-3.38275 0.375871 1.88737
-3.39122 0.370974 1.82649
-3.39354 0.367339 1.78356
-3.39764 0.36615 1.77061
-3.40631 0.359854 1.68275
-3.41166 0.356162 1.63584
-3.42786 0.343835 1.47812
-3.13876 0.704757 3.98095
-3.14095 0.701389 3.95601
-3.15501 0.701266 3.94712
-3.15026 0.696774 3.91414
-3.15543 0.693467 3.89323
-3.15454 0.692245 3.87824
-3.15573 0.687876 3.85331
-3.15693 0.684492 3.82736
-3.16207 0.682215 3.80843
-3.16525 0.679877 3.78549
-3.16742 0.676538 3.76255
-3.17555 0.675292 3.74563
-3.17366 0.673084 3.73164
-3.17187 0.668668 3.70369
-3.17801 0.667406 3.68576
-3.17919 0.664052 3.66181
-3.1883 0.662837 3.6469
-3.18948 0.659497 3.62395
-3.19165 0.656159 3.60101
-3.18579 0.653888 3.583
-3.19688 0.652719 3.5711
-3.19508 0.649333 3.54513
-3.19725 0.645994 3.52219
-3.20238 0.644746 3.50525
-3.20653 0.642468 3.48631
-3.20869 0.639144 3.46437
-3.21077 0.637998 3.45441
-3.20499 0.633564 3.42542
-3.21013 0.632302 3.40748
-3.2103 0.628962 3.38453
-3.21741 0.627745 3.3696
-3.22254 0.626497 3.35265
-3.2247 0.623188 3.33171
-3.22579 0.622026 3.32074
-3.22298 0.618654 3.29576
-3.2291 0.617421 3.27982
-3.23357 0.609507 3.21797
-3.2358 0.606065 3.18803
-3.24192 0.603833 3.17211
-3.24621 0.599259 3.1332
-3.24959 0.593536 3.08431
-3.24974 0.59124 3.06434
-3.26152 0.578725 2.9616
-3.28165 0.562535 2.81297
-3.28727 0.55334 2.73214
-3.29365 0.54759 2.68126
-3.29798 0.542957 2.63836
-3.30534 0.538252 2.59048
-3.30548 0.535986 2.57251
-3.30972 0.533515 2.54057
-3.30681 0.531336 2.52858
-3.31603 0.528928 2.50068
-3.31815 0.527693 2.48471
-3.3204 0.524206 2.45178
-3.31953 0.521939 2.4338
-3.32258 0.521853 2.42783
-3.32582 0.518381 2.3959
-3.33092 0.517193 2.38295
-3.33105 0.514941 2.36598
-3.32833 0.510392 2.32903
-3.33237 0.510321 2.32406
-3.33249 0.509084 2.30807
-3.33759 0.507895 2.29513
-3.34069 0.50669 2.28117
-3.34312 0.500863 2.22526
-3.34325 0.499612 2.20828
-3.34436 0.497391 2.19332
-3.34747 0.496186 2.17936
-3.35667 0.494808 2.15344
-3.35684 0.492467 2.13048
-3.35298 0.490184 2.11148
-3.35808 0.488995 2.09853
-3.36218 0.488805 2.08557
-3.36429 0.4876 2.0716
-3.37388 0.480437 1.99276
-3.37599 0.479232 1.9788
-3.37317 0.475875 1.95482
-3.38785 0.469568 1.86601
-3.38995 0.468377 1.85305
-3.16695 0.716452 3.68895
-3.17407 0.71522 3.67302
-3.17426 0.711851 3.64806
-3.17852 0.707351 3.61416
-3.18403 0.697349 3.54634
-3.1944 0.691646 3.49849
-3.21432 0.67687 3.37785
-3.21294 0.664656 3.29601
-3.21923 0.660099 3.25812
-3.22163 0.653316 3.20523
-3.23007 0.646479 3.14838
-3.24682 0.635011 3.04867
-3.24417 0.628344 3.00374
-3.25166 0.620387 2.9389
-3.25494 0.615842 2.90199
-3.25807 0.614593 2.88503
-3.25915 0.613446 2.87505
-3.26441 0.608947 2.84116
-3.26897 0.599855 2.76731
-3.27514 0.597519 2.74439
-3.2794 0.594019 2.71047
-3.28366 0.590519 2.67655
-3.28288 0.58609 2.64761
-3.28714 0.58259 2.61369
-3.29039 0.579089 2.57976
-3.29365 0.574603 2.54684
-3.30379 0.574329 2.52792
-3.30306 0.569796 2.49198
-3.30433 0.565279 2.45705
-3.31175 0.55947 2.40218
-3.31617 0.553645 2.3463
-3.32464 0.546734 2.28445
-3.32787 0.544292 2.25451
-3.33526 0.538528 2.20264
-3.33651 0.535055 2.1707
-3.34365 0.533779 2.15177
-3.34588 0.531322 2.12082
-3.34513 0.526848 2.08887
-3.34624 0.525627 2.0739
-3.35332 0.525469 2.06295
-3.35351 0.523114 2.03899
-3.36269 0.521765 2.01507
-3.36094 0.517276 1.98212
-3.36205 0.516055 1.96715
-3.3621 0.514951 1.96016
-3.36123 0.513714 1.94417
-3.36831 0.513556 1.93322
-3.36643 0.511318 1.91724
-3.3755 0.511191 1.90831
-3.37064 0.508907 1.8893
-3.37373 0.507731 1.87734
-3.3759 0.506407 1.85538
-3.37303 0.504154 1.83839
-3.38408 0.505058 1.83146
-3.37623 0.501756 1.81144
-3.39128 0.502678 1.80554
-3.38243 0.499376 1.78552
-3.38945 0.500337 1.78256
-3.38668 0.496891 1.75258
-3.38679 0.495669 1.7376
-3.39487 0.495527 1.72766
-3.39299 0.493288 1.71168
-3.40404 0.494193 1.70475
-3.39813 0.493026 1.69372
-3.4052 0.492883 1.68377
-3.39535 0.48958 1.66375
-3.40542 0.489454 1.65482
-3.39955 0.487198 1.63781
-3.41061 0.488087 1.62988
-3.4017 0.485904 1.61784
-3.41475 0.486809 1.61093
-3.40988 0.484554 1.59392
-3.41894 0.485442 1.58597
-3.4101 0.48214 1.56595
-3.41916 0.482013 1.55702
-3.41429 0.479773 1.54102
-3.41732 0.479701 1.53604
-3.41644 0.478479 1.52105
-3.4255 0.479352 1.5121
-3.42571 0.476952 1.48514
-3.4299 0.474585 1.4602
-3.43493 0.47553 1.45622
-3.43105 0.47329 1.44023
-3.42816 0.471066 1.42523
-3.43623 0.471939 1.41628
-3.43334 0.469715 1.40129
-3.44053 0.469364 1.37735
-3.44466 0.468101 1.35939
-3.44585 0.465732 1.33443
-3.45118 0.463085 1.29051
-3.46074 0.457996 1.21664
-3.46388 0.457732 1.19867
-3.46626 0.453979 1.14774
-3.46859 0.450344 1.1048
-3.48108 0.447391 1.03993
-3.49924 0.439124 0.886168
-3.50461 0.437417 0.838227
-3.50374 0.43615 0.820237
-3.51009 0.433474 0.774318
-3.51323 0.43321 0.756343
-3.51875 0.430178 0.68642
-3.54647 0.421822 0.458721
-3.54865 0.421483 0.435739
-3.55312 0.419553 0.372793
-3.55729 0.419231 0.350826
-3.57109 0.416656 0.243954
-3.57322 0.416406 0.226971
-3.57557 0.414727 0.181007
-3.59896 0.413004 -0.00381664
-3.14363 0.805868 3.98749
-3.14405 0.79707 3.93361
-3.15118 0.795809 3.91568
-3.1504 0.791379 3.88674
-3.15655 0.788102 3.86783
-3.16764 0.787933 3.85592
-3.15387 0.781464 3.8249
-3.15606 0.778111 3.80097
-3.17012 0.778003 3.79307
-3.1725 0.771265 3.74318
-3.17665 0.767972 3.72326
-3.1709 0.76248 3.6903
-3.17199 0.761318 3.67932
-3.18308 0.760148 3.66742
-3.18129 0.755733 3.63947
-3.18049 0.752347 3.61351
-3.19455 0.752239 3.60561
-3.18978 0.746792 3.57565
-3.18689 0.744568 3.56066
-3.19798 0.744398 3.54875
-3.19519 0.738982 3.5208
-3.19835 0.736674 3.49986
-3.20745 0.735488 3.48694
-3.1997 0.730009 3.45496
-3.19988 0.726654 3.43101
-3.20988 0.727661 3.43107
-3.21221 0.721012 3.38718
-3.21735 0.719749 3.36923
-3.21157 0.714316 3.34027
-3.2167 0.712068 3.32334
-3.2248 0.711882 3.3104
-3.21398 0.706519 3.28639
-3.22506 0.706379 3.27648
-3.22424 0.703023 3.25252
-3.22738 0.700759 3.23457
-3.23449 0.699543 3.21964
-3.23961 0.69731 3.20371
-3.23581 0.693922 3.17773
-3.23093 0.690682 3.16174
-3.24102 0.690526 3.15081
-3.24118 0.687216 3.12986
-3.2453 0.684967 3.11292
-3.25043 0.683734 3.09698
-3.25158 0.680439 3.07703
-3.25274 0.678129 3.05607
-3.25381 0.676997 3.0471
-3.25297 0.673686 3.02614
-3.2561 0.671422 3.00819
-3.26221 0.670219 2.99425
-3.26435 0.667939 2.9753
-3.26885 0.658966 2.90946
-3.27496 0.657764 2.89552
-3.27923 0.654234 2.8596
-3.28037 0.650969 2.84165
-3.28827 0.636228 2.72391
-3.29033 0.636111 2.71593
-3.28962 0.630549 2.678
-3.29969 0.630408 2.66808
-3.30614 0.62354 2.60922
-3.30329 0.620242 2.58925
-3.30641 0.619007 2.57329
-3.31066 0.615537 2.54136
-3.31377 0.613317 2.52642
-3.31696 0.610949 2.50147
-3.31809 0.608699 2.48451
-3.3222 0.607495 2.47056
-3.31636 0.60418 2.44956
-3.32755 0.602803 2.42366
-3.32868 0.600552 2.4067
-3.32477 0.598387 2.3957
-3.33086 0.597199 2.38277
-3.32602 0.594899 2.36276
-3.32218 0.591586 2.34178
-3.33721 0.592523 2.33688
-3.33734 0.590271 2.31991
-3.33746 0.589034 2.30393
-3.34151 0.588949 2.29796
-3.34064 0.586696 2.28098
-3.33878 0.583429 2.26301
-3.34685 0.583287 2.25307
-3.344 0.581003 2.23408
-3.34909 0.579815 2.22114
-3.35021 0.578594 2.20616
-3.35127 0.577476 2.19819
-3.35437 0.576271 2.18423
-3.35549 0.57505 2.16925
-3.3566 0.572829 2.15429
-3.35883 0.570386 2.12434
-3.35995 0.56815 2.10838
-3.35802 0.567016 2.09938
-3.36733 0.563416 2.0585
-3.37271 0.55868 2.0086
-3.3823 0.550533 1.93078
-3.55823 0.472315 0.22103
-3.56378 0.470238 0.148092
-3.57849 0.469842 0.0531957
-3.58175 0.469341 0.0192229
-3.58288 0.46909 0.00223279
-3.58396 0.468928 -0.00875815
-3.58621 0.468426 -0.0427384
-3.59338 0.469106 -0.0646975
-3.59242 0.469016 -0.0707042
-3.59451 0.468855 -0.0816877
-3.59759 0.468694 -0.0926636
-3.59368 0.468514 -0.104692
-3.60675 0.470375 -0.114622
-3.60285 0.469194 -0.126636
-3.60797 0.469946 -0.143611
-3.61006 0.469785 -0.154594
-3.61014 0.469622 -0.165593
-3.60523 0.468441 -0.177614
-3.61331 0.470284 -0.188582
-3.61539 0.470122 -0.199565
-3.61952 0.470873 -0.216548
-3.25245 0.738642 2.95516
-3.26549 0.719624 2.81852
-3.28281 0.71603 2.7777
-3.28416 0.709336 2.7308
-3.28856 0.70257 2.67893
-3.29665 0.702398 2.66699
-3.28991 0.69589 2.63303
-3.30125 0.691232 2.58818
-3.29855 0.685654 2.54924
-3.30458 0.685599 2.54528
-3.30497 0.67883 2.49338
-3.30908 0.677625 2.47942
-3.31332 0.673155 2.44752
-3.31166 0.667488 2.40258
-3.3159 0.664032 2.37166
-3.31702 0.661797 2.3557
-3.32404 0.661757 2.35276
-3.32529 0.65827 2.31981
-3.33436 0.658143 2.31088
-3.32965 0.652578 2.27292
-3.33276 0.651373 2.25896
-3.33705 0.646814 2.22106
-3.34127 0.643387 2.19213
-3.35033 0.643261 2.1832
-3.33952 0.638883 2.15818
-3.34854 0.63986 2.15624
-3.34468 0.636591 2.13825
-3.35323 0.629517 2.06541
-3.35031 0.627367 2.05542
-3.35341 0.626162 2.04146
-3.35674 0.621528 1.99855
-3.36084 0.620339 1.98559
-3.36693 0.620165 1.97364
-3.36499 0.618046 1.96566
-3.36411 0.616808 1.94967
-3.37264 0.608779 1.87984
-3.37768 0.609708 1.87486
-3.3738 0.607469 1.85887
-3.40332 0.58853 1.65934
-3.4071 0.578009 1.55651
-3.41223 0.576746 1.53857
-3.41898 0.568286 1.43973
-3.4413 0.554727 1.26607
-3.45309 0.547196 1.16226
-3.45627 0.545843 1.1383
-3.45532 0.544739 1.13131
-3.4605 0.543402 1.10836
-3.46059 0.54321 1.09537
-3.46168 0.542033 1.08339
-3.46278 0.540856 1.07141
-3.46482 0.540769 1.06543
-3.46401 0.538398 1.04045
-3.46609 0.538237 1.02947
-3.47426 0.537917 1.00753
-3.47236 0.536723 0.994536
-3.47758 0.535298 0.965592
-3.47368 0.533088 0.951594
-3.47577 0.532911 0.939611
-3.47786 0.53175 0.928642
-3.48706 0.531357 0.901713
-3.48716 0.531165 0.888715
-3.48326 0.52897 0.875716
-3.49632 0.53086 0.867786
-3.48843 0.528633 0.852757
-3.4965 0.528505 0.843819
-3.49554 0.528416 0.837812
-3.49165 0.527206 0.823799
-3.49972 0.527063 0.81386
-3.50879 0.527937 0.804914
-3.50398 0.525563 0.77991
-3.51106 0.52642 0.769949
-3.51409 0.526348 0.764972
-3.51128 0.523976 0.739983
-3.50738 0.522781 0.726969
-3.51046 0.52262 0.715993
-3.51555 0.522461 0.705033
-3.51264 0.521282 0.693026
-3.51268 0.521193 0.687027
-3.51777 0.521034 0.676066
-3.52085 0.520873 0.665091
-3.52193 0.520711 0.654099
-3.52102 0.519533 0.642108
-3.5291 0.52039 0.632155
-3.5262 0.519196 0.619149
-3.52624 0.519107 0.61315
-3.53141 0.518785 0.591191
-3.52651 0.516589 0.578184
-3.53267 0.516268 0.556233
-3.53076 0.515089 0.544234
-3.53489 0.51484 0.527267
-3.53896 0.515695 0.517283
-3.54522 0.514196 0.483348
-3.54136 0.512927 0.465335
-3.54943 0.513785 0.455382
-3.54952 0.513607 0.443383
-3.54761 0.512428 0.431385
-3.54471 0.511248 0.419379
-3.55087 0.510927 0.397427
-3.55591 0.511856 0.39245
-3.54809 0.509496 0.368423
-3.55417 0.509337 0.35747
-3.56025 0.510193 0.347502
-3.56034 0.510016 0.335503
-3.56442 0.509856 0.324535
-3.56663 0.509443 0.296554
-3.56989 0.507942 0.262596
-3.57302 0.507692 0.245621
-3.5701 0.507527 0.2346
-3.57227 0.506188 0.211633
-3.57136 0.506025 0.200627
-3.57348 0.505775 0.183644
-3.57857 0.506615 0.172668
-3.58482 0.506116 0.138718
-3.58603 0.505703 0.11073
-3.59229 0.505204 0.0767794
-3.59909 0.503624 -0.0301607
-3.60214 0.503538 -0.0361373
-3.60222 0.503375 -0.0471357
-3.6073 0.504216 -0.0581114
-3.60639 0.503052 -0.0691026
-3.60848 0.503876 -0.0811007
-3.61164 0.503552 -0.103075
-3.61169 0.503464 -0.109074
-3.61277 0.503301 -0.120065
-3.61286 0.503124 -0.132064
-3.2029 0.862434 3.41502
-3.20713 0.857993 3.38511
-3.22037 0.85353 3.35327
-3.22468 0.847926 3.31238
-3.22404 0.839245 3.2665
-3.22826 0.835819 3.23758
-3.22859 0.828169 3.19369
-3.23785 0.823673 3.15982
-3.23801 0.820362 3.13887
-3.24406 0.820278 3.13291
-3.23826 0.814874 3.10595
-3.25331 0.816796 3.10003
-3.24256 0.8093 3.06706
-3.25164 0.809144 3.05613
-3.25676 0.806911 3.04019
-3.25196 0.802523 3.01422
-3.26013 0.800203 2.99231
-3.25335 0.79377 2.96335
-3.26838 0.795721 2.95944
-3.26358 0.791333 2.93346
-3.27389 0.785734 2.89262
-3.26808 0.78136 2.86763
-3.27816 0.781204 2.85671
-3.27831 0.777924 2.83776
-3.28044 0.775674 2.82081
-3.27761 0.771331 2.79784
-3.28662 0.773323 2.79688
-3.27783 0.766903 2.76891
-3.28196 0.765669 2.75296
-3.29401 0.766574 2.74603
-3.28735 0.757903 2.7011
-3.29749 0.75663 2.6822
-3.30062 0.754395 2.66625
-3.30275 0.752145 2.6493
-3.30288 0.749879 2.63133
-3.29607 0.745504 2.60634
-3.31013 0.746411 2.59943
-3.30721 0.744246 2.58844
-3.31033 0.742011 2.57249
-3.31146 0.739761 2.55553
-3.30777 0.733166 2.5156
-3.31797 0.730774 2.48871
-3.31704 0.72964 2.47972
-3.31121 0.725296 2.45673
-3.32042 0.722903 2.42983
-3.33162 0.720526 2.40395
-3.32678 0.717197 2.38196
-3.33082 0.717126 2.37699
-3.33194 0.71489 2.36103
-3.32313 0.709529 2.33704
-3.33916 0.711467 2.33213
-3.3383 0.7092 2.31416
-3.33544 0.705931 2.29618
-3.34153 0.705758 2.28423
-3.34556 0.705687 2.27926
-3.33576 0.70031 2.25426
-3.34483 0.700169 2.24433
-3.337 0.695838 2.22233
-3.35204 0.69776 2.21641
-3.3452 0.693444 2.19542
-3.34639 0.69009 2.17148
-3.3516 0.687679 2.14355
-3.36167 0.687553 2.13463
-3.35781 0.685269 2.11563
-3.36489 0.685112 2.10468
-3.35805 0.680811 2.08469
-3.36321 0.678504 2.06376
-3.37252 0.674904 2.02288
-3.36865 0.671635 2.0049
-3.37574 0.671477 1.99395
-3.37579 0.670374 1.98697
-3.37989 0.670184 1.974
-3.38749 0.661021 1.89518
-3.38462 0.658767 1.87819
-3.39502 0.65399 1.82533
-3.39707 0.652888 1.81836
-3.40885 0.642373 1.71559
-3.41972 0.631693 1.60182
-3.16204 0.994839 3.91582
-3.16532 0.988294 3.87894
-3.16948 0.984987 3.85801
-3.17483 0.97731 3.81216
-3.18246 0.963088 3.72942
-3.19748 0.940132 3.59685
-3.20073 0.934646 3.56395
-3.22425 0.902705 3.36458
-3.16165 1.04653 3.96206
-3.15186 1.04012 3.93508
-3.15603 1.03679 3.91215
-3.15722 1.03142 3.88724
-3.16338 1.02913 3.86732
-3.1715 1.02689 3.85141
-3.1628 1.01831 3.81246
-3.16893 1.01605 3.79454
-3.17696 1.01601 3.7916
-3.16924 1.00846 3.75465
-3.17141 1.00412 3.73173
-3.18647 1.00503 3.72483
-3.17875 0.996474 3.68789
-3.17894 0.992105 3.66295
-3.18795 0.993082 3.66101
-3.18418 0.986635 3.63107
-3.18933 0.983358 3.61215
-3.19645 0.982126 3.59622
-3.19664 0.976757 3.5713
-3.19683 0.972402 3.54736
-3.20692 0.972217 3.53444
-3.19315 0.964778 3.50544
-3.20125 0.962577 3.49153
-3.21134 0.962407 3.47961
-3.20757 0.955975 3.45067
-3.20775 0.95162 3.42674
-3.21702 0.947095 3.39087
-3.21612 0.943902 3.37791
-3.22423 0.9427 3.36398
-3.21648 0.936207 3.33102
-3.22359 0.934005 3.3171
-3.2307 0.932788 3.30217
-3.23583 0.93054 3.28524
-3.22699 0.925223 3.26425
-3.2341 0.924006 3.24932
-3.23725 0.920728 3.23039
-3.22949 0.913264 3.19944
-3.24552 0.915201 3.19453
-3.24271 0.910844 3.17057
-3.24693 0.906418 3.14166
-3.24511 0.902062 3.11771
-3.24824 0.898813 3.10078
-3.25155 0.892209 3.0599
-3.25865 0.891022 3.04696
-3.25592 0.884502 3.01204
-3.26698 0.885392 3.0041
-3.26912 0.882112 2.98517
-3.2673 0.877771 2.96221
-3.27043 0.875521 2.94527
-3.27555 0.873288 2.92934
-3.2757 0.869993 2.90939
-3.2799 0.866611 2.88346
-3.28546 0.85452 2.80967
-3.28172 0.84903 2.77672
-3.29278 0.848904 2.76781
-3.29392 0.846639 2.74985
-3.29769 0.830148 2.6491
-3.31634 0.819889 2.56339
-3.29298 0.861534 2.6076
-3.31234 0.8359 2.4291
-3.31758 0.831445 2.3982
-3.33293 0.82676 2.35138
-3.33219 0.821257 2.31745
-3.32835 0.817958 2.29747
-3.33238 0.817887 2.2925
-3.33761 0.813447 2.2626
-3.3478 0.812085 2.23769
-3.34109 0.804518 2.19975
-3.34426 0.802195 2.1778
-3.34649 0.797738 2.14688
-3.34662 0.795501 2.13091
-3.35369 0.795358 2.12097
-3.35288 0.790988 2.09602
-3.35809 0.787577 2.06811
-3.35833 0.783119 2.03717
-3.36149 0.78081 2.01623
-3.36272 0.776367 1.9863
-3.37313 0.770576 1.93246
-3.37329 0.76825 1.91049
-3.37751 0.764839 1.88257
-3.38 0.755879 1.81771
-3.39427 0.754372 1.78283
-3.3914 0.751118 1.76586
-3.39947 0.751976 1.75591
-3.39167 0.746586 1.72992
-3.40084 0.745252 1.70701
-3.40504 0.74287 1.68107
-3.40018 0.7396 1.66308
-3.40918 0.741592 1.66212
-3.40531 0.738352 1.64614
-3.4094 0.738178 1.63417
-3.40353 0.733922 1.61718
-3.41359 0.734796 1.60825
-3.41072 0.732557 1.59226
-3.41679 0.732414 1.5823
-3.41784 0.732311 1.57531
-3.42592 0.732169 1.56537
-3.42602 0.730976 1.55239
-3.42712 0.72877 1.53843
-3.42523 0.727561 1.52443
-3.42733 0.726371 1.51146
-3.42644 0.724163 1.49748
-3.43456 0.723932 1.48155
-3.42171 0.718627 1.46153
-3.43387 0.718325 1.44062
-3.43512 0.714837 1.40768
-3.4402 0.714678 1.39672
-3.45162 0.710872 1.34185
-3.45371 0.709696 1.32988
-3.45091 0.706295 1.30291
-3.46043 0.700295 1.23506
-3.46794 0.695309 1.16818
-3.47322 0.692765 1.13125
-3.48399 0.684249 1.02844
-3.49799 0.67532 0.897664
-3.15745 1.1408 3.97963
-3.15669 1.13434 3.94872
-3.16469 1.13533 3.94776
-3.15898 1.12678 3.91084
-3.16512 1.1235 3.89194
-3.17049 1.1148 3.8441
-3.171 1.10081 3.7773
-3.17119 1.09644 3.75236
-3.17635 1.09213 3.73146
-3.17754 1.08777 3.70753
-3.18466 1.08553 3.69062
-3.18783 1.08122 3.6697
-3.19099 1.0779 3.64777
-3.19407 1.07575 3.63783
-3.19624 1.07243 3.61589
-3.19643 1.06706 3.59097
-3.20057 1.06378 3.57204
-3.19879 1.05836 3.54411
-3.19798 1.05299 3.51918
-3.20708 1.05181 3.50626
-3.20718 1.04962 3.49329
-3.2143 1.04738 3.47738
-3.20556 1.03888 3.44343
-3.21781 1.0344 3.41058
-3.22295 1.03213 3.39265
-3.2252 1.02565 3.35976
-3.22338 1.02129 3.33581
-3.23365 1.01578 3.30096
-3.22787 1.00935 3.27201
-3.23895 1.00919 3.2611
-3.24011 1.00488 3.24017
-3.2455 0.996148 3.19033
-3.24864 0.992869 3.1714
-3.24996 0.985249 3.12952
-3.25005 0.983086 3.11855
-3.24838 0.975434 3.07464
-3.26045 0.97531 3.06573
-3.26375 0.968736 3.02685
-3.26498 0.963293 2.99694
-3.28187 0.944574 2.88032
-3.31858 0.888335 2.52538
-3.27768 0.970939 2.76989
-3.29279 0.946791 2.62434
-3.30547 0.933483 2.53562
-3.32111 0.922252 2.45189
-3.31726 0.917953 2.43192
-3.32031 0.916852 2.42496
-3.32853 0.913444 2.39707
-3.32593 0.904658 2.34417
-3.34154 0.893486 2.26444
-3.33769 0.889187 2.24448
-3.33688 0.885817 2.21952
-3.39671 0.820404 1.71687
-3.39682 0.818196 1.7029
-3.40317 0.812521 1.65702
-3.40637 0.810138 1.63108
-3.40553 0.806812 1.60912
-3.40963 0.806637 1.59715
-3.42236 0.796211 1.50039
-3.4301 0.785781 1.40359
-3.43982 0.775383 1.3088
-3.44704 0.773959 1.27987
-3.44814 0.772767 1.2669
-3.44424 0.770557 1.2529
-3.45929 0.773464 1.24597
-3.45849 0.770079 1.22001
-3.45958 0.768902 1.20803
-3.46501 0.763077 1.15215
-3.4662 0.760708 1.12719
-3.46435 0.758411 1.10721
-3.46354 0.75504 1.08225
-3.4727 0.754721 1.06032
-3.4688 0.753526 1.04731
-3.46986 0.752423 1.04033
-3.47393 0.752278 1.03036
-3.4792 0.749749 0.994434
-3.47929 0.748572 0.982451
-3.48134 0.748484 0.976467
-3.48741 0.749341 0.966498
-3.48569 0.744792 0.929548
-3.49685 0.745489 0.908618
-3.49391 0.744383 0.901612
-3.4921 0.741012 0.876644
-3.50415 0.743902 0.868691
-3.50225 0.741708 0.855708
-3.50634 0.741548 0.844739
-3.50443 0.740355 0.831741
-3.50357 0.738088 0.813765
-3.50765 0.737928 0.802797
-3.50874 0.737751 0.790806
-3.50284 0.734554 0.777807
-3.51192 0.736413 0.767847
-3.515 0.736252 0.756871
-3.51505 0.735163 0.750887
-3.51514 0.733986 0.738903
-3.52121 0.734842 0.728935
-3.51931 0.733648 0.715936
-3.50942 0.730434 0.701907
-3.52348 0.732326 0.693984
-3.52158 0.731132 0.680986
-3.5277 0.730899 0.665033
-3.53187 0.730562 0.642066
-3.53005 0.728205 0.618084
-3.53218 0.727955 0.601102
-3.53036 0.725599 0.57712
-3.53444 0.725439 0.566151
-3.53371 0.72292 0.531178
-3.53684 0.722671 0.514203
-3.54331 0.719757 0.452286
-3.55355 0.720276 0.419351
-3.55164 0.719097 0.407353
-3.55577 0.718848 0.390385
-3.56211 0.717187 0.345451
-3.55629 0.714827 0.321439
-3.57049 0.716453 0.295518
-3.57175 0.71495 0.261545
-3.58005 0.715364 0.221596
-3.57322 0.712018 0.198591
-3.58451 0.713449 0.15965
-3.58798 0.711533 0.0976957
-3.58416 0.70919 0.0746984
-3.60048 0.71155 0.0307804
-3.59962 0.711283 0.0127754
-3.6007 0.711121 0.0017844
-3.60309 0.709368 -0.0491787
-3.61789 0.710794 -0.156103
-3.62506 0.711458 -0.179062
-3.62515 0.711295 -0.190061
-3.62128 0.710041 -0.207073
-3.44084 0.81429 1.30223
-3.46836 0.797336 1.10166
-3.46547 0.795126 1.08767
-3.4677 0.791669 1.05674
-3.48185 0.793383 1.03681
-3.48194 0.792206 1.02483
-3.47905 0.789996 1.01084
-3.49334 0.789444 0.97295
-3.49144 0.78725 0.959967
-3.48854 0.785041 0.945975
-3.49761 0.786914 0.937015
-3.49969 0.785753 0.926046
-3.50002 0.782117 0.883097
-3.50519 0.78078 0.860152
-3.50932 0.780531 0.843185
-3.5105 0.778177 0.819225
-3.61103 0.749428 -0.0457114
-3.19341 1.22489 3.5786
-3.20117 1.20442 3.47895
-3.20334 1.19909 3.45704
-3.21244 1.19791 3.44413
-3.2137 1.19041 3.41024
-3.21802 1.18279 3.36838
-3.22513 1.18059 3.35447
-3.22035 1.17315 3.32554
-3.22845 1.17197 3.31262
-3.23548 1.17291 3.30865
-3.22772 1.16445 3.27772
-3.23781 1.16328 3.26581
-3.24393 1.16105 3.24988
-3.23913 1.15464 3.22294
-3.24029 1.15035 3.20301
-3.24037 1.14819 3.19204
-3.24153 1.14388 3.17111
-3.23773 1.13749 3.14517
-3.25475 1.14046 3.14226
-3.25094 1.13409 3.11732
-3.25623 1.12753 3.07945
-3.24937 1.12227 3.06247
-3.2535 1.11902 3.04555
-3.26357 1.11888 3.03563
-3.26374 1.11456 3.01369
-3.25496 1.10712 2.98473
-3.27016 1.10475 2.95888
-3.26328 1.10051 2.94288
-3.27436 1.10037 2.93297
-3.27252 1.09505 2.91203
-3.26771 1.08968 2.88707
-3.27878 1.08956 2.87815
-3.28092 1.08628 2.85922
-3.27702 1.08308 2.84623
-3.27717 1.0788 2.82729
-3.27831 1.07552 2.80835
-3.27846 1.07124 2.78941
-3.29152 1.07213 2.78149
-3.29066 1.06885 2.76253
-3.2918 1.06558 2.74459
-3.29188 1.06344 2.73462
-3.29117 1.05587 2.69672
-3.30621 1.0578 2.69081
-3.30735 1.05453 2.67286
-3.30352 1.0492 2.65091
-3.30663 1.04698 2.63596
-3.29691 1.03844 2.60001
-3.31194 1.04038 2.59509
-3.31011 1.03507 2.57415
-3.31719 1.03491 2.56321
-3.31136 1.02957 2.54024
-3.32045 1.02941 2.52931
-3.30859 1.02312 2.51031
-3.31866 1.02299 2.50139
-3.31681 1.01971 2.48242
-3.32006 1.01423 2.44952
-3.33112 1.01512 2.44159
-3.3233 1.00876 2.41762
-3.33529 1.01078 2.41868
-3.33344 1.0075 2.39971
-3.33654 1.00529 2.38577
-3.33966 1.00307 2.37082
-3.34389 0.998616 2.33992
-3.34502 0.995381 2.32397
-3.34707 0.995278 2.31699
-3.35677 0.980925 2.22526
-3.35485 0.978775 2.21528
-3.35136 0.965782 2.14843
-3.36441 0.967688 2.1415
-3.3605 0.964522 2.13052
-3.36161 0.962301 2.11556
-3.36571 0.961112 2.1026
-3.36981 0.959922 2.08965
-3.3622 0.949148 2.03775
-3.3752 0.952172 2.0388
-3.37157 0.943444 1.98989
-3.38164 0.944318 1.98096
-3.38491 0.938788 1.94506
-3.39111 0.935408 1.91915
-3.38466 0.922338 1.84728
-3.4008 0.923069 1.82839
-3.39417 0.914354 1.78047
-3.40551 0.909696 1.73561
-3.41695 0.903846 1.67778
-3.42446 0.89586 1.61094
-3.42802 0.885768 1.53711
-3.43247 0.877899 1.47825
-3.43467 0.875515 1.4523
-3.44279 0.87527 1.43536
-3.44753 0.862838 1.33857
-3.5757 0.879862 0.119114
-3.58478 0.881705 0.108154
-3.58 0.879272 0.07915
-3.58925 0.88079 0.0461927
-3.5918 0.878696 -0.0277673
-3.59788 0.879553 -0.0377355
-3.60297 0.881379 -0.0497259
-3.59605 0.878211 -0.0607326
-3.60609 0.881144 -0.0657011
-3.60726 0.880804 -0.0886904
-3.60235 0.878623 -0.100697
-3.60843 0.880464 -0.11168
-3.61052 0.881303 -0.122678
-3.6116 0.881141 -0.133669
-3.61364 0.881053 -0.139653
-3.61073 0.879889 -0.150659
-3.61282 0.880712 -0.162657
-3.6189 0.881554 -0.173626
-3.61907 0.881228 -0.195623
-3.61816 0.88105 -0.207628
-3.62419 0.88298 -0.212612
-3.27395 1.254 2.83968
-3.27502 1.25287 2.8307
-3.28887 1.23022 2.71913
-3.29497 1.22904 2.70619
-3.29214 1.22271 2.68426
-3.29824 1.22152 2.67132
-3.30747 1.21708 2.64145
-3.30754 1.21495 2.63248
-3.31661 1.21481 2.62255
-3.30284 1.20536 2.59258
-3.32114 1.20079 2.55378
-3.32028 1.19651 2.53484
-3.31836 1.19436 2.52485
-3.31678 1.18255 2.47001
-3.33593 1.18226 2.45015
-3.33407 1.178 2.4322
-3.32222 1.17071 2.41322
-3.33341 1.16833 2.38733
-3.3436 1.16597 2.36244
-3.33684 1.1575 2.33151
-3.33312 1.14897 2.2956
-3.35637 1.1485 2.26278
-3.34555 1.14114 2.23881
-3.34376 1.13474 2.21188
-3.35693 1.1334 2.189
-3.35438 1.12154 2.13115
-3.36643 1.12345 2.12421
-3.36655 1.12021 2.10826
-3.36766 1.11699 2.09331
-3.36779 1.11376 2.07736
-3.37686 1.11461 2.06741
-3.36505 1.10725 2.04343
-3.38002 1.11131 2.04648
-3.3692 1.10496 2.02349
