5.0507 0.164243 0.23335
5.05388 0.164596 0.257324
5.05601 0.165846 0.274292
5.05813 0.166081 0.290275
5.05425 0.166321 0.306303
5.05437 0.166558 0.3223
5.06092 0.168634 0.39523
5.06505 0.169883 0.412183
5.06517 0.170119 0.428181
5.07137 0.1715 0.454117
5.07249 0.171736 0.470108
5.06861 0.171976 0.486136
5.08175 0.173247 0.50502
5.081 0.174722 0.537009
5.07906 0.174842 0.545023
5.08819 0.176101 0.562938
5.08143 0.17658 0.594986
5.08957 0.177841 0.612908
5.0927 0.17809 0.629883
5.08181 0.17732 0.644979
5.09289 0.17846 0.65488
5.09727 0.181212 0.705813
5.10541 0.182472 0.723736
5.09852 0.1817 0.738801
5.1086 0.182855 0.74971
5.10572 0.183094 0.76573
5.09784 0.183322 0.780788
5.1051 0.184835 0.815716
5.10322 0.185073 0.831729
5.10435 0.186324 0.848704
5.10041 0.186445 0.856733
5.10455 0.186709 0.8747
5.1237 0.189006 0.895525
5.11094 0.189474 0.926618
5.1144 0.191375 0.987573
5.12167 0.193902 1.02349
5.13295 0.195442 1.06038
5.13609 0.196721 1.07934
5.14117 0.197865 1.08929
5.13528 0.198091 1.10433
5.14758 0.19966 1.14322
5.15071 0.200924 1.16118
5.14389 0.201284 1.18523
5.13701 0.201526 1.20128
5.14617 0.202816 1.2212
5.15031 0.204094 1.24015
5.15746 0.205385 1.26008
5.14857 0.205613 1.27514
5.16274 0.206929 1.29702
5.15292 0.207291 1.32109
5.16923 0.210886 1.36192
5.15834 0.210102 1.37602
5.16449 0.211393 1.39596
5.16763 0.212672 1.41492
5.1667 0.212806 1.42392
5.17399 0.215378 1.46283
5.16911 0.215619 1.47887
5.1724 0.217179 1.51683
5.17654 0.218457 1.53578
5.18063 0.219617 1.54673
5.18879 0.220922 1.56765
5.1789 0.221151 1.58273
5.1971 0.223523 1.60856
5.18735 0.224018 1.64163
5.18641 0.224152 1.65064
5.19773 0.226766 1.69252
5.2069 0.229085 1.71442
5.19801 0.229313 1.72948
5.20116 0.229607 1.74946
5.20632 0.230914 1.7704
5.20553 0.232329 1.79839
5.20883 0.234919 1.83833
5.21715 0.237535 1.88024
5.21622 0.237669 1.88924
5.23142 0.240042 1.9151
5.22253 0.240271 1.93016
5.2257 0.241594 1.95212
5.23904 0.245251 1.99698
5.22837 0.24591 2.04105
5.24086 0.249863 2.10591
5.24803 0.252198 2.12882
5.24518 0.252482 2.14784
5.24726 0.253643 2.15881
5.25143 0.25498 2.18176
5.26062 0.257329 2.20566
5.24873 0.25656 2.22077
5.2549 0.258895 2.24369
5.27236 0.262771 2.30351
5.27066 0.265364 2.34349
5.26078 0.264609 2.35958
5.27616 0.269337 2.4094
5.28226 0.270525 2.42233
5.28643 0.271863 2.44529
5.28407 0.276123 2.53025
5.28624 0.277447 2.55222
5.29234 0.27865 2.56616
5.29552 0.279988 2.58912
5.29368 0.2813 2.61011
5.28781 0.281571 2.62816
5.30338 0.287669 2.70296
5.31368 0.290239 2.74185
5.31284 0.291566 2.76384
5.30497 0.291823 2.7809
5.31519 0.294245 2.80979
5.30933 0.29453 2.82883
5.32156 0.297965 2.85869
5.33169 0.29921 2.8756
5.33588 0.301577 2.90054
5.32417 0.302163 2.93962
5.33138 0.304557 2.96654
5.34205 0.310867 3.05537
5.35127 0.313289 3.08427
5.34944 0.314616 3.10627
5.40789 0.356292 3.69429
5.4103 0.359089 3.74824
5.4105 0.361489 3.77521
5.41775 0.363972 3.80812
5.44076 0.383878 4.07269
5.48345 0.411116 4.42801
5.48167 0.412546 4.45701
5.48492 0.415032 4.48995
5.49445 0.421062 4.5598
5.49872 0.423577 4.59474
5.50938 0.430856 4.68156
5.5286 0.44424 4.84324
5.53187 0.446756 4.87818
5.54018 0.450357 4.91907
5.56554 0.474956 5.23056
5.57703 0.480895 5.2944
5.57528 0.482399 5.32839
5.57959 0.485988 5.36831
5.58389 0.489577 5.40823
5.59379 0.499331 5.52703
5.60099 0.501711 5.55294
5.61063 0.508962 5.63777
5.62605 0.523718 5.82447
5.71618 0.593641 6.63286
5.71854 0.597335 6.6798
5.7379 0.602016 6.72659
5.78436 0.642746 7.1827
5.78978 0.647571 7.23859
5.79926 0.652496 7.30146
5.79964 0.657236 7.35139
5.81677 0.670429 7.50009
5.82868 0.681196 7.61986
5.83615 0.687108 7.68172
5.83151 0.690822 7.72971
5.85537 0.701477 7.84239
5.86428 0.712261 7.96318
5.87684 0.718347 8.037
5.86918 0.722019 8.08201
5.88174 0.729105 8.15582
5.90364 0.739835 8.27351
5.90509 0.745722 8.33342
5.91363 0.751767 8.40428
5.91005 0.756583 8.45924
5.91859 0.762643 8.5311
5.92311 0.769646 8.59897
5.94459 0.775562 8.66173
5.94404 0.780451 8.72167
5.95768 0.788684 8.80546
5.95715 0.794602 8.86738
5.96978 0.801821 8.95019
5.97431 0.807854 9.02008
5.99329 0.820764 9.14976
6.00189 0.827927 9.2286
6.00644 0.834004 9.30149
6.01204 0.841154 9.37935
6.01863 0.848319 9.45821
6.02322 0.855455 9.53508
6.059 0.877907 9.76951
6.0626 0.885073 9.84838
6.06721 0.892269 9.92925
6.07385 0.900507 10.0131
4.9936 0.178197 -0.312502
4.99579 0.179551 -0.288535
4.9889 0.178778 -0.273469
4.99714 0.180246 -0.241549
5.00637 0.181698 -0.210636
5.00243 0.180819 -0.202592
5.00655 0.182053 -0.186639
5.00367 0.182292 -0.170619
5.00179 0.181516 -0.155591
5.01291 0.182744 -0.139691
5.01821 0.184333 -0.0997485
5.02045 0.184805 -0.0677679
5.02469 0.186276 -0.0358173
5.02381 0.186498 -0.0208118
5.02787 0.186629 -0.0118432
5.03011 0.188086 0.0191227
5.03159 0.189033 0.0831064
5.03813 0.191094 0.155036
5.04226 0.192342 0.171989
5.04644 0.192695 0.195956
5.0478 0.194405 0.243927
5.04592 0.194643 0.25994
5.05523 0.196243 0.300852
5.0536 0.197955 0.348845
5.05791 0.199559 0.389795
5.07004 0.200816 0.407687
5.07117 0.201067 0.424677
5.06728 0.201292 0.439705
5.07454 0.20279 0.473633
5.07166 0.203029 0.489653
5.08073 0.204156 0.49857
5.08198 0.205644 0.531543
5.08711 0.205892 0.548503
5.08023 0.206134 0.564553
5.08641 0.207499 0.58949
5.08466 0.207989 0.6225
5.0789 0.208467 0.654541
5.09818 0.212001 0.691349
5.09024 0.21111 0.698423
5.09549 0.21261 0.732366
5.09875 0.214111 0.766324
5.1072 0.216993 0.826225
5.09932 0.217221 0.841284
5.10558 0.218734 0.876219
5.12878 0.226071 1.03496
5.12843 0.229345 1.12092
5.13651 0.230502 1.13185
5.14467 0.232792 1.15175
5.1478 0.233056 1.16973
5.14392 0.233296 1.18576
5.15207 0.235586 1.20566
5.14619 0.234827 1.22172
5.15234 0.236119 1.24166
5.1484 0.236225 1.24869
5.14853 0.237491 1.26667
5.15969 0.238794 1.28757
5.16183 0.240059 1.30554
5.15696 0.240314 1.32257
5.1611 0.241593 1.34153
5.16624 0.24287 1.36047
5.16531 0.243004 1.36948
5.16945 0.244282 1.38843
5.16258 0.244524 1.40448
5.17775 0.246854 1.42733
5.17187 0.247095 1.44338
5.17301 0.24736 1.46137
5.17207 0.247494 1.47037
5.17522 0.248773 1.48933
5.17335 0.250041 1.50733
5.19067 0.25365 1.54915
5.18092 0.254146 1.58222
5.19703 0.256356 1.59707
5.19417 0.256625 1.61509
5.19231 0.256893 1.6331
5.18943 0.258146 1.65011
5.20061 0.259479 1.67301
5.19473 0.25972 1.68905
5.20483 0.261905 1.70195
5.21099 0.263226 1.72388
5.20511 0.263467 1.73993
5.20927 0.264775 1.76088
5.2054 0.26503 1.77791
5.21156 0.266336 1.79884
5.20877 0.267753 1.82685
5.22095 0.270099 1.85072
5.22511 0.271407 1.87168
5.22225 0.271675 1.8897
5.2244 0.27297 1.90966
5.22254 0.274252 1.92866
5.22168 0.27452 1.94667
5.22878 0.276707 1.95958
5.22591 0.276975 1.9776
5.23309 0.278311 2.00053
5.23825 0.280632 2.02246
5.23338 0.280888 2.0395
5.23454 0.282198 2.06047
5.24974 0.284571 2.08633
5.23677 0.28364 2.09044
5.23793 0.28495 2.11141
5.24811 0.287298 2.1353
5.24425 0.287582 2.15433
5.2464 0.288877 2.1743
5.25458 0.291226 2.19821
5.25266 0.291375 2.20822
5.25482 0.292685 2.22919
5.25497 0.29398 2.24917
5.25011 0.294251 2.2672
5.25629 0.296601 2.29113
5.26748 0.298978 2.31701
5.2576 0.298222 2.3331
5.25968 0.299369 2.34307
5.27591 0.301801 2.37291
5.26401 0.302017 2.387
5.27738 0.305732 2.43585
5.27878 0.309516 2.48879
5.32396 0.3377 2.90809
5.33094 0.346619 3.03793
5.33405 0.347824 3.05189
5.33523 0.349178 3.07586
5.35028 0.359225 3.21462
5.79395 0.705813 7.2547
5.81384 0.728499 7.50425
5.82736 0.73551 7.57306
5.8217 0.739165 7.61705
5.82211 0.743964 7.67098
5.83403 0.755761 7.79274
5.86294 0.767516 7.91236
5.86437 0.773358 7.96927
5.86883 0.778243 8.02917
5.86421 0.782986 8.07915
5.86969 0.788929 8.14302
5.8772 0.794915 8.20989
5.89259 0.800659 8.26069
5.90011 0.807675 8.32954
5.90662 0.813676 8.39742
5.9101 0.819606 8.46031
5.9146 0.82558 8.5262
5.91709 0.831525 8.5901
5.92463 0.83857 8.66095
5.94207 0.844416 8.71874
5.95265 0.852547 8.79555
5.95009 0.857408 8.8535
5.95767 0.864527 8.92935
5.96017 0.871517 8.99624
5.97585 0.879822 9.08501
5.97939 0.886871 9.15589
5.99786 0.893775 9.21766
6.0095 0.902024 9.30246
6.00799 0.907972 9.36639
6.02065 0.916265 9.45418
6.02422 0.923373 9.52906
6.02678 0.930451 9.60195
6.03339 0.938645 9.68279
6.04886 0.945551 9.74458
6.05751 0.953818 9.8304
6.06515 0.962055 9.91423
6.06977 0.969265 9.9961
5.10668 0.252878 0.885706
5.1262 0.261854 1.08745
5.16676 0.280843 1.42591
5.16811 0.282523 1.47189
5.21263 0.30342 1.80429
5.20983 0.303822 1.83131
5.29945 0.353755 2.57299
5.30296 0.366698 2.7718
5.31435 0.371459 2.82365
5.78444 0.771701 7.31381
5.7929 0.777598 7.37466
5.80844 0.784637 7.44545
5.80579 0.789335 7.49241
5.8266 0.799888 7.59811
5.83711 0.806872 7.66494
5.83954 0.812714 7.72184
5.84702 0.818641 7.78471
5.83833 0.822254 7.82572
5.85817 0.833882 7.93642
5.87375 0.84201 8.01319
5.87418 0.847839 8.06911
5.87563 0.853711 8.12802
5.87909 0.859611 8.18891
5.8947 0.867798 8.26969
5.91256 0.879457 8.38239
5.92111 0.887517 8.45422
5.92156 0.892404 8.51415
5.92507 0.899393 8.58103
5.92957 0.906367 8.6469
5.94749 0.919159 8.7686
5.95809 0.927305 8.84641
5.9606 0.93331 8.91431
5.96413 0.940329 8.98319
5.97474 0.949519 9.06398
5.97625 0.95551 9.13089
5.98386 0.963688 9.21072
6.00435 0.971635 9.27546
6.00283 0.977583 9.33939
6.01046 0.985791 9.42123
6.02212 0.99507 9.50801
6.02165 1.00211 9.57792
6.03028 1.01034 9.66175
6.04879 1.01832 9.7285
4.98361 0.240138 -0.317344
4.97973 0.240378 -0.301316
4.98991 0.241711 -0.278409
4.98927 0.242422 -0.230408
4.99662 0.244113 -0.183482
5.00657 0.246971 -0.0575822
5.01747 0.250725 0.0612965
5.02601 0.253785 0.133197
5.02613 0.254022 0.149195
5.02925 0.254256 0.16517
5.04169 0.257106 0.223042
5.03781 0.257331 0.23807
5.0413 0.259291 0.303024
5.04448 0.260644 0.326983
5.05961 0.261899 0.344853
5.04773 0.26113 0.359956
5.05816 0.263981 0.417843
5.05628 0.264219 0.433856
5.06141 0.265467 0.450801
5.06466 0.266953 0.483759
5.06678 0.267189 0.499742
5.06991 0.268438 0.516702
5.06897 0.268557 0.524709
5.06922 0.270046 0.557689
5.07635 0.271292 0.574619
5.07147 0.270533 0.59067
5.07861 0.272794 0.608585
5.08173 0.273043 0.62556
5.0878 0.274172 0.634499
5.08292 0.274413 0.650534
5.08605 0.274662 0.667509
5.08718 0.275913 0.684484
5.09131 0.277161 0.701437
5.09043 0.277399 0.717443
5.09562 0.27878 0.743387
5.09976 0.280044 0.761339
5.09488 0.279284 0.777389
5.10502 0.281543 0.795282
5.10915 0.282806 0.813235
5.11529 0.284068 0.831172
5.11636 0.284201 0.840163
5.11047 0.284427 0.855207
5.1086 0.28468 0.872219
5.10873 0.284932 0.889217
5.11486 0.286194 0.907155
5.11299 0.287447 0.924152
5.10911 0.287687 0.94018
5.12633 0.290103 0.969019
5.12647 0.29137 0.987002
5.12772 0.292872 1.02097
5.12986 0.293137 1.03896
5.133 0.294401 1.05692
5.12905 0.294508 1.06395
5.13419 0.295785 1.08289
5.14334 0.297075 1.10281
5.13546 0.297303 1.11786
5.14461 0.298592 1.13778
5.14774 0.299856 1.15574
5.13779 0.298952 1.16183
5.14293 0.30023 1.18077
5.1472 0.30276 1.21671
5.15336 0.304051 1.23665
5.16064 0.306594 1.27356
5.15469 0.306702 1.2806
5.16485 0.308005 1.30151
5.15395 0.30822 1.31559
5.1611 0.309511 1.33552
5.17026 0.311815 1.35642
5.16138 0.311044 1.3715
5.16452 0.312323 1.39046
5.16973 0.313734 1.4184
5.17388 0.315027 1.43836
5.17903 0.317319 1.45829
5.17015 0.316548 1.47337
5.16828 0.3178 1.49036
5.18038 0.318999 1.50426
5.17149 0.319227 1.51932
5.17464 0.320506 1.53828
5.19383 0.323862 1.56309
5.18193 0.323078 1.5772
5.18909 0.325384 1.59811
5.19124 0.325664 1.61709
5.1893 0.326798 1.62609
5.18945 0.32708 1.64509
5.19961 0.329398 1.66698
5.19173 0.32964 1.68304
5.20391 0.331972 1.70592
5.20505 0.333252 1.72489
5.19516 0.332482 1.73998
5.19825 0.333642 1.75094
5.20942 0.335974 1.77382
5.23455 0.354116 2.05441
5.23469 0.355397 2.07339
5.24087 0.356733 2.09633
5.24302 0.358042 2.11729
5.24411 0.359204 2.12827
5.24225 0.359487 2.14728
5.24139 0.360769 2.16627
5.24858 0.363119 2.19019
5.24973 0.364414 2.21016
5.2549 0.36575 2.2331
5.25707 0.368074 2.25506
5.26015 0.369235 2.26602
5.26633 0.370586 2.28996
5.26247 0.371855 2.30797
5.2576 0.372125 2.326
5.2668 0.374503 2.3519
5.26093 0.374759 2.36894
5.26611 0.377111 2.39287
5.27823 0.379339 2.40875
5.27638 0.380636 2.42875
5.7991 0.838898 7.39471
5.80251 0.844709 7.44961
5.81099 0.851635 7.51245
5.82148 0.858575 7.57628
5.83521 0.869 7.67303
5.84411 0.88074 7.79081
5.84553 0.886567 7.84672
5.85301 0.893494 7.90957
5.85242 0.899294 7.9635
5.87386 0.906136 8.02124
5.88136 0.913108 8.08709
5.88482 0.919008 8.14799
5.88931 0.925952 8.21186
5.89277 0.931852 8.27275
5.89625 0.938781 8.33563
5.89873 0.945712 8.39852
5.91615 0.951513 8.45331
5.91761 0.958415 8.51421
5.92009 0.96436 8.57811
5.92865 0.972434 8.65093
5.95715 0.994343 8.84842
5.95964 1.0013 8.91331
5.96418 1.00835 8.98418
5.97278 1.01751 9.06299
4.97663 0.27314 -0.31778
4.99287 0.274601 -0.28592
4.995 0.275837 -0.269952
4.98711 0.275065 -0.254879
4.99423 0.276296 -0.238948
4.99835 0.27653 -0.222981
4.99441 0.276652 -0.214952
4.98752 0.275879 -0.199886
4.98964 0.276114 -0.183903
4.99776 0.277345 -0.167981
4.998 0.277804 -0.136985
4.99812 0.278041 -0.120987
5.00919 0.280166 -0.112101
5.0093 0.280388 -0.0971029
5.01242 0.280623 -0.0811276
5.00754 0.280863 -0.0650922
5.00866 0.281099 -0.0491019
5.01978 0.282328 -0.0332017
5.01089 0.281557 -0.0181213
5.01496 0.282687 -0.00916741
5.02408 0.283917 0.00674786
5.02233 0.284392 0.0387585
5.02645 0.284626 0.0547262
5.02356 0.28485 0.0697467
5.02268 0.285088 0.085752
5.03175 0.286214 0.0946683
5.03487 0.287449 0.110629
5.03499 0.287686 0.126626
5.03611 0.287922 0.142617
5.03323 0.288161 0.158637
5.03935 0.289393 0.174575
5.03841 0.289512 0.182581
5.04979 0.292244 0.232462
5.05191 0.29248 0.248445
5.05403 0.293715 0.264413
5.04815 0.292956 0.280471
5.0452 0.293062 0.287492
5.05534 0.294321 0.3054
5.05946 0.295555 0.321353
5.0577 0.29603 0.353363
5.06897 0.29854 0.388246
5.06214 0.297886 0.41131
5.07027 0.300131 0.428218
5.0734 0.300381 0.445193
5.07652 0.30163 0.462153
5.07265 0.30187 0.478181
5.07971 0.301998 0.487127
5.08509 0.304734 0.537053
5.08634 0.306222 0.570026
5.09154 0.307603 0.59597
5.16197 0.344196 1.314
5.16611 0.345474 1.33295
5.17515 0.35351 1.47078
5.19283 0.359815 1.55957
5.17592 0.359005 1.57171
5.18508 0.360324 1.59362
5.18415 0.361458 1.60261
5.19532 0.363775 1.6245
5.19045 0.36403 1.64153
5.21595 0.376957 1.84018
5.2161 0.378253 1.86016
5.22858 0.383177 1.923
5.23712 0.388236 1.99487
5.23928 0.389531 2.01484
5.2334 0.390787 2.03187
5.23657 0.39211 2.05383
5.23872 0.393405 2.0738
5.23487 0.393689 2.09282
5.23996 0.395862 2.10475
5.85778 0.955951 7.8726
5.86224 0.96285 7.93348
5.90854 1.01225 8.36746
5.92081 1.03072 8.53411
5.91521 1.03549 8.58609
5.00987 0.31051 -0.156561
5.17911 0.387385 1.46225
5.20528 0.405614 1.74882
5.2075 0.408027 1.77677
5.83621 0.993837 7.66118
5.83944 0.997279 7.69111
5.84086 1.00309 7.74602
5.84329 1.00993 7.8029
4.99796 0.335695 -0.279861
5.00262 0.33798 -0.192918
5.01422 0.340141 -0.114027
5.02164 0.341965 -0.0581019
5.05613 0.354825 0.271493
5.08193 0.365345 0.510176
5.10146 0.374321 0.711924
5.10008 0.377551 0.794898
5.11217 0.379705 0.805777
5.11995 0.385239 0.90965
5.11414 0.385598 0.933692
5.12529 0.387886 0.953577
5.12754 0.389388 0.987543
5.12668 0.389655 1.00555
5.13482 0.39193 1.02446
5.13188 0.392051 1.03248
5.13602 0.393314 1.05043
5.13328 0.39482 1.08443
5.13641 0.396084 1.10239
5.13755 0.39635 1.12038
5.14269 0.397627 1.13933
5.14476 0.398759 1.1483
5.1479 0.400023 1.16626
5.14703 0.40029 1.18426
5.15318 0.402567 1.20318
5.14642 0.40306 1.23623
5.15652 0.40523 1.24813
5.15364 0.405484 1.26515
5.15679 0.406763 1.28411
5.16494 0.409053 1.30401
5.1602 0.41056 1.33803
5.16635 0.411852 1.35797
5.17157 0.414277 1.3869
5.17471 0.415556 1.40586
5.17284 0.415809 1.42287
5.18113 0.41938 1.46176
5.22553 0.449994 1.91003
5.21966 0.45025 1.92708
5.22991 0.453731 1.95995
5.22103 0.453974 1.97602
5.2282 0.456309 1.99893
5.22835 0.457591 2.01792
5.22966 0.460196 2.05887
5.24238 0.467593 2.15368
5.24485 0.472509 2.2156
5.25697 0.474737 2.23148
5.26315 0.477088 2.2554
5.2685 0.489733 2.43419
5.26766 0.49103 2.45418
5.27786 0.494422 2.48106
5.27191 0.49453 2.48811
5.28212 0.496922 2.515
5.29968 0.505005 2.58876
5.29298 0.506602 2.62879
5.30612 0.509858 2.64664
5.29323 0.50909 2.66175
5.30143 0.512469 2.68765
5.30763 0.514849 2.71357
5.32664 0.526818 2.84727
5.32497 0.530471 2.89123
4.99041 0.361542 -0.223179
4.99176 0.362237 -0.176193
4.99088 0.362459 -0.161188
5.00006 0.363808 -0.137274
5.01472 0.3681 -0.0494355
5.00584 0.367329 -0.034355
5.01096 0.367562 -0.0183948
5.01408 0.368796 -0.00243442
5.01944 0.370503 0.0455065
5.02362 0.371855 0.0694583
5.03074 0.373087 0.0853886
5.0291 0.373799 0.133397
5.02428 0.374143 0.156431
5.03565 0.37686 0.205312
5.03677 0.377096 0.221303
5.04608 0.379697 0.2622
5.04232 0.380173 0.294225
5.06045 0.382426 0.312058
5.0547 0.382904 0.344099
5.04899 0.383486 0.383138
5.05525 0.384985 0.417074
5.0705 0.388477 0.450912
5.0767 0.389857 0.476848
5.08095 0.391343 0.509799
5.0822 0.39283 0.542772
5.08664 0.395686 0.600704
5.0939 0.398198 0.635617
5.09007 0.398542 0.658644
5.09333 0.400043 0.692602
5.09859 0.401557 0.727545
5.08883 0.402023 0.758616
5.09503 0.403404 0.784552
5.10029 0.405918 0.81948
5.10455 0.407418 0.85343
5.10074 0.408791 0.878442
5.107 0.410305 0.913377
5.11854 0.415347 0.984226
5.11785 0.41697 1.02621
5.12325 0.42075 1.07912
5.13461 0.424437 1.12599
5.135 0.426207 1.17797
5.14034 0.429869 1.22288
5.14803 0.435211 1.31375
4.98588 0.39446 -0.296643
4.99506 0.395809 -0.272728
4.99542 0.396504 -0.225735
5.00383 0.399313 -0.170832
5.01231 0.401239 -0.107916
5.02085 0.404299 -0.0360156
5.02197 0.404535 -0.0200254
5.02603 0.40565 -0.0120714
5.02515 0.405888 0.00393397
5.02927 0.406122 0.0199016
5.03063 0.407832 0.0678727
5.03082 0.408187 0.0918694
5.03806 0.409655 0.123797
5.04243 0.412378 0.172731
5.04973 0.413964 0.212658
5.04497 0.414442 0.244691
5.05665 0.418766 0.334552
5.06378 0.420012 0.351482
5.06591 0.421262 0.36845
5.06014 0.420726 0.399505
5.06822 0.422868 0.409414
5.07359 0.424589 0.458355
5.09173 0.432811 0.609117
5.09649 0.437303 0.710029
5.10369 0.439683 0.735943
5.10494 0.441185 0.769916
5.11466 0.446584 0.864776
5.14026 0.459704 1.07642
5.15789 0.472874 1.29112
5.149 0.473102 1.30619
5.16217 0.475418 1.32806
4.99601 0.452624 -0.285578
5.01126 0.458071 -0.119751
5.01779 0.460117 -0.0488206
5.02092 0.461352 -0.0328602
5.03094 0.465358 0.103024
5.03612 0.46771 0.126953
5.04049 0.469432 0.175902
5.04379 0.471022 0.215859
5.06239 0.480147 0.427613
5.05964 0.481623 0.459616
5.07446 0.487225 0.568436
5.08272 0.489723 0.602342
5.08616 0.492594 0.661282
5.10375 0.498735 0.739069
5.09787 0.498977 0.755112
5.10514 0.501489 0.790025
5.10326 0.501728 0.806037
5.11046 0.504122 0.832952
5.11059 0.504374 0.849949
5.11686 0.506887 0.88487
5.11999 0.508151 0.90283
5.12426 0.510666 0.937765
5.12846 0.513063 0.964702
5.11857 0.512292 0.97979
5.12973 0.51458 0.999675
5.13386 0.515843 1.01763
5.1231 0.51631 1.04871
5.1243 0.517709 1.07568
5.14487 0.524804 1.15043
5.1623 0.687365 1.45793
5.16545 0.688658 1.47789
5.1696 0.690936 1.49683
5.16773 0.691204 1.51484
5.16988 0.693484 1.5338
5.18097 0.695668 1.54668
5.18513 0.697961 1.56662
5.18828 0.699255 1.58658
5.11404 0.705955 1.02296
5.11937 0.709603 1.06688
5.12365 0.712133 1.10281
5.1328 0.714422 1.12271
5.12999 0.715794 1.14771
5.14415 0.719109 1.16956
5.13927 0.71935 1.1856
5.14956 0.723904 1.22346
5.15371 0.725183 1.24241
5.14355 0.76983 1.21782
5.1517 0.77212 1.23773
5.14683 0.77236 1.25376
5.15598 0.775649 1.27365
5.15611 0.776916 1.29163
5.15324 0.77717 1.30865
5.16441 0.780487 1.33052
5.10446 0.784725 0.938858
5.12363 0.790036 0.960638
5.11187 0.789504 0.991738
5.12101 0.792778 1.01062
5.13216 0.795066 1.03051
5.12027 0.794282 1.04461
5.14003 0.803762 1.14534
5.09274 0.885182 0.833445
5.10727 0.892207 0.903241
5.10533 0.892327 0.911255
5.10546 0.892579 0.928252
5.11261 0.895855 0.947153
5.12376 0.899142 0.967023
5.05927 0.909302 0.502294
5.0664 0.911548 0.519209
5.06753 0.912799 0.536185
5.06909 0.916893 0.610123
5.07421 0.918141 0.627068
5.09244 0.923557 0.655854
5.08755 0.923782 0.67089
5.08734 1.01822 0.767507
5.1035 1.02251 0.787324
5.10776 1.02602 0.822245
5.10401 1.02751 0.855256
5.10319 1.02887 0.879245
5.12288 1.0392 0.969956
5.05388 1.14024 0.428906
5.07127 1.14699 0.479682
5.0724 1.14824 0.496657
5.06545 1.14735 0.503724
-2.12909 -0.608389 16.5781
-2.20138 -0.593733 15.7413
-2.22296 -0.589843 15.5304
-2.24826 -0.586387 15.3575
-2.26779 -0.58238 15.1546
-2.28938 -0.576474 14.8096
-2.30974 -0.57314 14.6287
-2.32811 -0.569837 14.4458
-2.34933 -0.567221 14.2839
-2.3686 -0.56371 14.1149
-2.40697 -0.555333 13.666
-2.46033 -0.547929 13.2183
-2.4745 -0.545215 13.0633
-2.60073 -0.523326 11.8348
-2.61657 -0.520974 11.7228
-2.62751 -0.518817 11.5979
-2.74079 -0.497042 10.3622
-2.75734 -0.496111 10.2893
-2.77532 -0.491993 10.0264
-2.78695 -0.490229 9.94242
-2.79855 -0.489405 9.86249
-2.80918 -0.487642 9.77853
-2.82791 -0.484035 9.54859
-2.83754 -0.482272 9.46462
-2.84713 -0.48142 9.38667
-2.88188 -0.474831 9.01978
-2.91548 -0.466901 8.54085
-2.92266 -0.466251 8.5169
-2.93116 -0.465222 8.45094
-2.94258 -0.465043 8.39501
-2.9442 -0.463272 8.31199
-2.9556 -0.462048 8.25905
-2.96309 -0.46102 8.19308
-2.97351 -0.460827 8.13815
-2.96792 -0.459646 8.08308
-2.98126 -0.459303 8.03817
-2.9799 -0.457563 7.95312
-2.99128 -0.45631 7.90218
-3.01677 -0.453239 7.7033
-3.04425 -0.448107 7.37338
-3.08181 -0.443115 7.03355
-3.08031 -0.442109 6.96651
-2.76399 -0.424446 10.0633
-2.77467 -0.422786 9.97234
-2.82243 -0.417157 9.47255
-2.83302 -0.416304 9.3946
-2.85163 -0.41446 9.18069
-2.85827 -0.413729 9.09471
-2.86784 -0.412848 9.01876
-2.87835 -0.411847 8.95082
-2.8879 -0.410907 8.87886
-2.89387 -0.409828 8.74887
-2.91289 -0.408813 8.61398
-2.92502 -0.407041 8.46303
-2.92959 -0.406163 8.38704
-2.93938 -0.404711 8.28208
-2.96283 -0.402538 8.0902
-2.97159 -0.402027 7.98924
-2.98805 -0.399903 7.79431
-2.99843 -0.399651 7.74337
-3.00388 -0.398536 7.68339
-3.01131 -0.39836 7.62744
-3.01061 -0.397967 7.58642
-3.02989 -0.396471 7.41652
-3.03434 -0.395357 7.35653
-3.04368 -0.395016 7.31159
-3.06703 -0.39262 6.99968
-3.07437 -0.391296 6.95371
-3.0746 -0.391755 6.92272
-2.1281 -0.419632 16.4253
-2.24706 -0.410199 15.2339
-2.2685 -0.409012 15.043
-2.38647 -0.400595 13.8506
-2.47787 -0.394147 12.9991
-2.49007 -0.392493 12.8401
-2.58237 -0.385821 11.8686
-2.59917 -0.385379 11.7627
-2.6121 -0.384191 11.6398
-2.62497 -0.3839 11.5238
-2.64073 -0.382399 11.4219
-2.74398 -0.375571 10.3255
-2.75469 -0.374955 10.2315
-2.76538 -0.37431 10.1396
-2.77606 -0.37365 10.0486
-2.78867 -0.37284 9.9677
-2.78425 -0.371984 9.89065
-2.79488 -0.37222 9.80672
-2.80552 -0.371457 9.72278
-2.81712 -0.370633 9.64284
-2.82966 -0.37069 9.57093
-2.84343 -0.369175 9.33497
-2.85594 -0.368174 9.26704
-2.86356 -0.367382 9.18508
-2.87312 -0.367471 9.11114
-2.88475 -0.365677 8.89417
-2.90015 -0.365451 8.84128
-2.90672 -0.365571 8.76532
-2.9179 -0.363888 8.60836
-2.9372 -0.363436 8.43547
-2.94175 -0.362529 8.36148
-2.94925 -0.362501 8.29553
-2.96262 -0.362217 8.24662
-2.96814 -0.361235 8.17764
-2.97101 -0.360951 8.06164
-2.98142 -0.360758 8.00671
-2.99083 -0.360551 7.95277
-2.98651 -0.359887 7.86271
-3.00375 -0.359348 7.83083
-3.01593 -0.358679 7.67289
-3.02335 -0.358489 7.61793
-3.03522 -0.357198 7.50199
-3.05372 -0.356132 7.30309
-3.05813 -0.355943 7.24811
-3.06453 -0.355723 7.19515
-3.06992 -0.355489 7.14318
-3.08169 -0.354992 7.04124
-3.08533 -0.354263 6.95525
-3.09267 -0.353924 6.91029
-2.58967 -0.291523 11.8203
-2.73674 -0.2922 10.3502
-2.78389 -0.292386 9.93047
-2.78969 -0.291952 9.82449
-2.80077 -0.292076 9.68056
-2.80945 -0.292403 9.59062
-2.82005 -0.29258 9.51069
-2.83455 -0.292546 9.44479
-2.84123 -0.291875 9.35482
-2.85277 -0.291932 9.28289
-2.85787 -0.292091 9.13692
-2.86939 -0.292119 9.06699
-2.88188 -0.292073 9.00208
-2.88945 -0.292193 8.92612
-2.89411 -0.292478 8.83915
-2.89057 -0.292399 8.77712
-2.90959 -0.292384 8.64224
-2.91517 -0.29252 8.56527
-2.92466 -0.292476 8.50034
-2.93218 -0.292507 8.43038
-2.94459 -0.293298 8.37648
-2.9371 -0.29331 8.30842
-2.9446 -0.293282 8.24246
-2.95501 -0.293074 8.18853
-2.95858 -0.293197 8.11255
-2.969 -0.293019 8.05662
-2.98392 -0.29383 7.93372
-2.99166 -0.293275 7.83576
-2.9942 -0.29334 7.76377
-3.00164 -0.293193 7.70582
-3.01004 -0.293972 7.65288
-3.01649 -0.293856 7.59292
-3.02291 -0.293681 7.53696
-3.02121 -0.294274 7.49695
-3.02763 -0.294099 7.44099
-3.03307 -0.293954 7.38302
-3.03849 -0.293779 7.32705
-3.04293 -0.293635 7.26907
-3.04835 -0.29446 7.21312
-3.05573 -0.29421 7.16216
-3.06039 -0.29451 7.07419
-3.07019 -0.294073 6.96824
-2.12679 -0.205301 16.4461
-2.38717 -0.217244 13.8729
-2.4738 -0.222228 12.9925
-2.59607 -0.228398 11.7604
-2.60608 -0.228376 11.6264
-2.62382 -0.228814 11.5285
-2.63666 -0.229449 11.4176
-2.74381 -0.235423 10.3344
-2.75745 -0.235672 10.2495
-2.76715 -0.236042 10.1565
-2.77881 -0.237337 10.0686
-2.77248 -0.237645 9.98058
-2.78312 -0.237896 9.89565
-2.79573 -0.238086 9.81474
-2.80244 -0.238488 9.71978
-2.81698 -0.239529 9.6489
-2.82855 -0.239646 9.57298
-2.83076 -0.240029 9.41198
-2.84719 -0.240861 9.35511
-2.85677 -0.241009 9.27717
-2.86343 -0.241293 9.19021
-2.87493 -0.242276 9.1233
-2.89048 -0.243316 8.91741
-2.89611 -0.243541 8.83444
-2.9066 -0.243496 8.76951
-2.91415 -0.244571 8.69657
-2.91582 -0.244888 8.60758
-2.92433 -0.244889 8.53963
-2.93576 -0.245725 8.48273
-2.93119 -0.245587 8.42468
-2.94066 -0.246498 8.36276
-2.94717 -0.246501 8.2948
-2.95661 -0.246353 8.23686
-2.96411 -0.247325 8.17092
-2.96962 -0.247328 8.10295
-2.96403 -0.248146 8.04791
-2.97247 -0.248014 7.98897
-2.97796 -0.247972 7.924
-2.98738 -0.24878 7.86907
-3.0178 -0.249557 7.68029
-3.01833 -0.250608 7.6093
-3.05066 -0.25216 7.30052
-3.06246 -0.252721 7.19461
-3.08766 -0.254042 6.90177
-3.05165 -0.19618 7.16368
-2.05279 0.00517402 17.2226
-2.07673 0.000385905 16.9658
-2.10532 -0.00271777 16.755
-2.13007 -0.00615 16.5222
-2.18261 -0.016026 15.9207
-2.20518 -0.0191044 15.7119
-2.22963 -0.0229297 15.5201
-2.25113 -0.0258608 15.3213
-2.27258 -0.0287031 15.1284
-2.29393 -0.0323381 14.9496
-2.31356 -0.0374918 14.6008
-2.33672 -0.0397554 14.447
-2.35408 -0.0434229 14.2661
-2.37336 -0.0459262 14.0963
-2.39254 -0.0482371 13.9395
-2.40595 -0.0509964 13.7526
-2.44124 -0.0584417 13.3159
-2.46219 -0.0602922 13.1901
-2.47828 -0.0624277 13.0452
-2.49437 -0.0655482 12.9013
-2.58579 -0.0810674 11.9171
-2.60453 -0.0825197 11.8183
-2.61646 -0.0843324 11.6954
-2.94737 -0.138061 8.39121
-2.18064 0.0877687 15.9061
-2.29523 0.061972 14.7672
-2.41103 0.0357764 13.6013
-2.60008 -0.00570132 11.7381
-2.78441 -0.0477155 9.83884
-2.79602 -0.0499212 9.75695
-2.83207 -0.0588771 9.3533
-2.84263 -0.0599652 9.27938
-2.85123 -0.0621434 9.19947
-2.87933 -0.0682542 8.92073
-2.8879 -0.0703732 8.84482
-2.89936 -0.0712534 8.78491
-2.90693 -0.0733732 8.70899
-2.92042 -0.0772952 8.51112
-2.93086 -0.0781613 8.4522
-2.9423 -0.0800117 8.39431
-2.94394 -0.0812692 8.30933
-2.9537 -0.0837576 8.20842
-2.96022 -0.0857597 8.14049
-2.97065 -0.0865961 8.08358
-2.97126 -0.088795 8.0026
-2.97872 -0.0897077 7.94066
-2.99401 -0.0902592 7.90278
-2.99391 -0.0930214 7.78381
-2.9984 -0.0949953 7.71786
-3.01073 -0.0956231 7.67496
-3.01618 -0.0965076 7.615
-3.02262 -0.0983617 7.55707
-3.02388 -0.098879 7.52208
-3.02736 -0.0998094 7.45911
-3.03769 -0.101468 7.41421
-3.04606 -0.102188 7.36528
-3.04757 -0.104179 7.29831
-3.05397 -0.104959 7.24536
-3.06331 -0.105618 7.20043
-3.067 -0.107978 7.10848
-3.07043 -0.108819 7.05152
-3.07877 -0.11048 7.0066
-3.07629 -0.111503 6.93758
-3.09051 -0.111937 6.90769
-2.18062 0.187684 15.8996
-2.31158 0.15022 14.58
-2.59383 0.0706856 11.7639
-2.73675 0.0303498 10.3174
-2.7693 0.020369 9.97974
-2.77996 0.0180738 9.89184
-2.79059 0.0158377 9.80794
-2.80123 0.0136017 9.72404
-2.82762 0.00492723 9.40733
-2.84112 0.00294505 9.34045
-2.84679 0.000631366 9.25151
-2.88049 -0.00964481 8.89387
-2.89856 -0.0137342 8.75205
-2.89794 -0.014475 8.70205
-2.97582 -0.0359674 7.92284
-2.99099 -0.0402662 7.767
-3.00191 -0.0440646 7.64512
-2.21299 0.290898 15.5743
-2.59159 0.158045 11.7876
-2.60742 0.154428 11.6778
-2.6213 0.149705 11.5609
-2.74153 0.107671 10.3383
-2.75519 0.104393 10.2514
-2.7508 0.10219 10.1704
-2.76248 0.098866 10.0805
-2.77513 0.0956019 9.99467
-2.78578 0.0923364 9.90879
-2.79839 0.0901463 9.8279
-2.80904 0.0868808 9.74202
-2.81575 0.0834791 9.64711
-2.81621 0.0815911 9.58713
-2.82292 0.0782042 9.49322
-2.83155 0.0759668 9.40931
-2.84799 0.0731053 9.35046
-2.85368 0.070762 9.25953
-2.86423 0.0676889 9.18664
-2.85977 0.0656344 9.11563
-2.86737 0.0624555 9.03572
-2.87985 0.0605318 8.97284
-2.89233 0.0585933 8.90895
-2.89698 0.0553234 8.82302
-2.90943 0.0534441 8.76314
-2.91733 0.0496879 8.64424
-2.91608 0.0462065 8.54426
-2.92654 0.0443109 8.48336
-2.93504 0.04134 8.41746
-2.94257 0.039309 8.34754
-2.95398 0.037503 8.29264
-2.95199 0.0325176 8.15868
-2.96535 0.0318165 8.11079
-2.97088 0.028799 8.04186
-2.97639 0.0267962 7.97393
-2.9858 0.0249887 7.91902
-2.99324 0.0231354 7.86109
-3.00294 0.0197656 7.7682
-3.01331 0.0180476 7.7193
-3.01779 0.0161033 7.65535
-3.02968 0.0123648 7.53748
-3.03709 0.0105707 7.48356
-3.03593 0.00692637 7.37259
-3.04333 0.00514704 7.31966
-3.05365 0.00351792 7.27676
-3.06201 0.00182814 7.22984
-3.06743 2.95809e-06 7.1739
-3.06815 -0.00340306 7.07894
-3.07257 -0.00522898 7.02299
-3.08188 -0.00682922 6.98208
-3.08137 -0.008792 6.9171
-2.07111 0.436 17.1393
-2.12605 0.409343 16.485
-2.14785 0.39982 16.2463
-2.17817 0.393266 16.0726
-2.19889 0.383891 15.8439
-2.248 0.361872 15.3005
-2.26567 0.352613 15.0797
-2.29278 0.347457 14.933
-2.30932 0.338434 14.7282
-2.33158 0.331992 14.5625
-2.349 0.324207 14.3737
-2.34814 0.318985 14.2237
-2.36452 0.311288 14.0409
-2.38755 0.305276 13.9042
-2.45727 0.281059 13.279
-2.47326 0.270177 13.0162
-2.48646 0.263832 12.8574
-2.50347 0.258861 12.7236
-2.52525 0.254337 12.6198
-2.5969 0.224315 11.8727
-2.62273 0.214736 11.63
-2.63433 0.206621 11.4192
-2.65201 0.203286 11.3283
-2.76875 0.157227 10.1717
-2.77845 0.153857 10.0788
-2.81858 0.137757 9.66533
-2.82625 0.134445 9.57642
-2.84452 0.127971 9.40863
-2.8707 0.116696 9.11896
-2.91649 0.096312 8.61854
-2.92306 0.0941915 8.54261
-2.9335 0.0913404 8.48472
-2.94004 0.0892791 8.41279
-2.9495 0.086383 8.35189
-2.95991 0.0796219 8.16505
-2.97033 0.0768152 8.11016
-2.97975 0.074993 8.05425
-3.00043 0.0667064 7.8315
-3.07939 0.0360677 7.04244
-2.04946 0.544113 17.2146
-2.07442 0.532296 16.9559
-2.10305 0.522105 16.7392
-2.18145 0.482622 15.8933
-2.20406 0.473485 15.6806
-2.22754 0.463601 15.4849
-2.25192 0.455909 15.3021
-2.2941 0.429738 14.7488
-2.31446 0.422088 14.569
-2.33574 0.414602 14.4002
-2.35504 0.406055 14.2275
-2.37436 0.398493 14.0537
-2.46231 0.355922 13.1339
-2.48132 0.349967 13.0011
-2.58507 0.297884 11.8435
-2.60188 0.292297 11.7357
-2.61479 0.28753 11.6158
-2.62963 0.281897 11.505
-2.64443 0.277339 11.3992
-2.75074 0.228116 10.2996
-2.76974 0.216207 10.0349
-2.7843 0.212107 9.96001
-2.79107 0.207617 9.85911
-2.8027 0.204382 9.77524
-2.81526 0.201295 9.70137
-2.82298 0.19688 9.60548
-2.82913 0.189634 9.45361
-2.84166 0.186607 9.38374
-2.84836 0.182249 9.29184
-2.86085 0.179281 9.22597
-2.86653 0.175953 9.13605
-2.88603 0.167036 8.9383
-2.89363 0.162857 8.85841
-2.90609 0.160963 8.79752
-2.91364 0.157903 8.72562
-2.91408 0.149075 8.53472
-2.93532 0.141648 8.36997
-2.94187 0.138587 8.29806
-2.95034 0.135675 8.23615
-2.96173 0.133899 8.18326
-2.96726 0.130866 8.11334
-2.9666 0.128215 8.06936
-2.97603 0.126377 8.01245
-2.98251 0.123435 7.94854
-2.98802 0.120432 7.88062
-2.9886 0.117292 7.80366
-3.00387 0.115785 7.76879
-3.01228 0.112977 7.71389
-3.0116 0.111355 7.6719
-3.01705 0.108471 7.61197
-3.02349 0.105617 7.55406
-3.03286 0.103898 7.50515
-3.03733 0.100983 7.44321
-3.04571 0.0992492 7.3933
-3.04746 0.09477 7.29336
-3.05385 0.0920049 7.24144
-3.06221 0.0903151 7.19453
-3.06665 0.0884596 7.13658
-3.07302 0.085724 7.08666
-3.08136 0.0840639 7.04174
-3.08184 0.0811315 6.97878
-3.08307 0.0796735 6.94781
-3.0904 0.0780274 6.90388
-2.05841 0.659062 17.2099
-2.0833 0.646379 16.9603
-2.11003 0.634009 16.7316
-2.13571 0.622726 16.5089
-2.16182 0.600661 16.0984
-2.18731 0.590763 15.9017
-2.20986 0.579745 15.697
-2.23428 0.569964 15.5083
-2.25579 0.560034 15.3096
-2.27558 0.540586 14.941
-2.29694 0.530922 14.7603
-2.31729 0.521287 14.5816
-2.33853 0.512875 14.4178
-2.35783 0.504357 14.2471
-2.37709 0.494899 14.0803
-2.41065 0.470936 13.6089
-2.44115 0.453073 13.2793
-2.46399 0.447431 13.1676
-2.48203 0.440402 13.0298
-2.47902 0.433475 12.8998
-2.49313 0.426309 12.753
-2.50915 0.419322 12.6182
-2.52611 0.41244 12.4904
-2.53919 0.405332 12.3476
-2.58372 0.381451 11.8813
-2.59957 0.374805 11.7695
-2.61539 0.369203 11.6606
-2.62827 0.363495 11.5448
-2.64116 0.357757 11.427
-2.74445 0.301578 10.3304
-2.77993 0.284748 10.0029
-2.79353 0.280588 9.92406
-2.80124 0.276187 9.82917
-2.82767 0.259454 9.50857
-2.83826 0.255307 9.43071
-2.86604 0.243834 9.19505
-2.88164 0.232707 8.9833
-2.89117 0.229677 8.91341
-2.9007 0.225648 8.84353
-2.92501 0.210136 8.5379
-2.92536 0.20844 8.49092
-2.93483 0.204529 8.42905
-2.94332 0.201588 8.36514
-2.95178 0.198676 8.30324
-2.96027 0.195735 8.23934
-2.97356 0.187213 8.06854
-2.98103 0.184301 8.00663
-2.98456 0.180252 7.93571
-3.01361 0.167261 7.66509
-3.04892 0.151757 7.35954
-3.05237 0.148886 7.3006
-3.07961 0.134509 7.00398
-3.09037 0.130036 6.90411
-2.10768 0.730604 16.6362
-2.13339 0.717263 16.4095
-2.20952 0.670313 15.5997
-2.233 0.658443 15.405
-2.25543 0.647662 15.2163
-2.2788 0.636985 15.0346
-2.33916 0.596533 14.3266
-2.35751 0.585897 14.1478
-2.37871 0.576573 13.9901
-2.44855 0.532181 13.2182
-2.46658 0.524166 13.0814
-2.48272 0.515957 12.9317
-2.51369 0.493147 12.5382
-2.52874 0.485115 12.4004
-2.54664 0.478352 12.2806
-2.56063 0.470423 12.1498
-2.57654 0.463658 12.03
-2.60412 0.44463 11.6894
-2.61995 0.438014 11.5797
-2.63383 0.431306 11.4638
-2.64767 0.424673 11.353
-2.66147 0.419114 11.2472
-2.71874 0.378823 10.5501
-2.73047 0.373411 10.4543
-2.74413 0.369118 10.3664
-2.75583 0.363764 10.2746
-2.76751 0.358441 10.1847
-2.78841 0.344725 9.93307
-2.79908 0.339431 9.84522
-2.80581 0.333999 9.74834
-2.84574 0.312285 9.36091
-2.85339 0.307017 9.27503
-2.86495 0.30293 9.20117
-2.89963 0.2837 8.84667
-2.98519 0.227959 7.848
-3.08068 0.173358 6.85839
-2.26987 0.725731 15.0172
-2.48766 0.585013 12.7996
-2.63251 0.494877 11.3669
-2.64341 0.487123 11.2481
-2.69514 0.455863 10.7558
-2.72059 0.44404 10.5642
-2.73088 0.433516 10.3934
-2.73965 0.427012 10.2915
-2.75133 0.421703 10.2027
-2.76105 0.416289 10.1068
-2.77173 0.409965 10.017
-2.78142 0.404625 9.92614
-2.79449 0.395547 9.78535
-2.79926 0.390026 9.68245
-2.80987 0.384849 9.6026
-2.82047 0.379673 9.52274
-2.8291 0.374451 9.43987
-2.84262 0.370439 9.37103
-2.85535 0.356059 9.1423
-2.86197 0.350864 9.06142
-2.8725 0.346836 8.99155
-2.88693 0.344002 8.93469
-2.8956 0.329737 8.71394
-2.9051 0.325767 8.64806
-2.91164 0.321706 8.57616
-2.93354 0.314961 8.45741
-2.92996 0.311144 8.40243
-2.93747 0.307143 8.33453
-2.943 0.303111 8.26463
-2.94854 0.298064 8.19373
-2.96482 0.296513 8.15587
-2.96936 0.292465 8.08496
-2.9638 0.288603 8.02696
-2.97027 0.28469 7.96506
-2.98419 0.276894 7.84327
-2.99358 0.274131 7.79137
-2.99513 0.270051 7.71843
-3.00942 0.267499 7.68057
-3.00578 0.264801 7.63358
-3.00926 0.260856 7.56965
-3.02257 0.258259 7.52879
-3.02801 0.255404 7.47086
-3.03147 0.251504 7.40994
-3.03984 0.248784 7.36103
-3.04919 0.246095 7.31414
-3.04355 0.242396 7.26714
-3.05583 0.240857 7.23025
-3.06614 0.238257 7.18936
-3.06958 0.235401 7.13142
-3.07497 0.231635 7.07951
-3.07545 0.227703 7.01657
-3.07986 0.224907 6.96263
-3.07517 0.222297 6.92163
-3.08351 0.219637 6.87673
-2.26034 0.827632 15.0777
-2.27984 0.8147 14.879
-2.30027 0.800917 14.6903
-2.4045 0.734857 13.7369
-2.48437 0.671461 12.8293
-2.50428 0.663699 12.7096
-2.58817 0.60029 11.801
-2.61854 0.578664 11.4875
-2.64429 0.563264 11.2569
-2.65808 0.55572 11.1521
-2.6709 0.54813 11.0443
-2.68331 0.535386 10.8586
-2.69411 0.52881 10.7518
-2.70977 0.522549 10.666
-2.72057 0.514987 10.5601
-2.73229 0.508575 10.4643
-2.7479 0.503402 10.3845
-2.74356 0.497096 10.2965
-2.75428 0.490698 10.2017
-2.76695 0.485405 10.1139
-2.78151 0.480305 10.039
-2.78831 0.472756 9.93418
-2.79896 0.46749 9.84832
-2.79359 0.461258 9.76537
-2.80227 0.454932 9.67551
-2.81484 0.449816 9.59967
-2.82351 0.44452 9.5118
-2.83897 0.440628 9.45097
-2.84567 0.434257 9.3581
-2.85331 0.428019 9.27424
-2.85079 0.424084 9.21127
-2.86036 0.418966 9.13541
-2.86798 0.413758 9.05353
-2.87656 0.408639 8.97766
-2.89003 0.403717 8.91483
-2.89956 0.399687 8.84495
-2.89405 0.394721 8.77997
-2.90163 0.389602 8.70409
-2.91308 0.385722 8.64423
-2.9177 0.380512 8.56233
-2.92916 0.376632 8.50247
-2.93276 0.37145 8.42256
-2.94517 0.36766 8.3687
-2.94256 0.363888 8.31673
-2.94811 0.358827 8.24484
-2.95561 0.354855 8.17894
-2.96407 0.350944 8.11705
-2.97057 0.345971 8.05117
-2.97804 0.342059 7.98927
-2.9855 0.338176 7.92938
-2.98089 0.334403 7.87739
-2.98541 0.330385 7.80848
-2.99677 0.327698 7.7616
-3.0042 0.323859 7.7047
-3.01458 0.320127 7.65483
-3.021 0.316303 7.59893
-3.03039 0.313555 7.54803
-3.02183 0.309675 7.48901
-3.03021 0.305941 7.43913
-3.0386 0.303192 7.38822
-3.04402 0.299367 7.33231
-3.05533 0.296768 7.29143
-3.05781 0.292838 7.2285
-3.06715 0.290178 7.1836
-3.06249 0.286494 7.13762
-3.06692 0.282668 7.0817
-3.07525 0.280023 7.03779
-3.08163 0.277273 6.98688
-3.08504 0.273491 6.93395
-2.07716 1.06108 17.0721
-2.13401 1.01263 16.4322
-2.15674 0.996258 16.2035
-2.18322 0.981391 16.0089
-2.20488 0.96515 15.7893
-2.27355 0.908114 15.0416
-2.29777 0.896749 14.8809
-2.31626 0.881846 14.6842
-2.3935 0.819706 13.8616
-2.49332 0.743474 12.8293
-2.51417 0.734831 12.7176
-2.5273 0.723636 12.5689
-2.584 0.677485 11.9489
-2.61377 0.660029 11.7143
-2.65107 0.628602 11.279
-3.09644 0.311651 6.87646
-2.05662 1.18795 17.1311
-2.08344 1.1684 16.8905
-2.11113 1.15014 16.669
-2.13591 1.13068 16.4344
-2.1625 1.11357 16.2238
-2.21205 1.06472 15.6239
-2.23461 1.0477 15.4193
-2.25706 1.03187 15.2276
-2.28141 1.01726 15.05
-2.29918 0.987852 14.6845
-2.32241 0.974456 14.5219
-2.33988 0.958612 14.3292
-2.36014 0.945155 14.1625
-2.38034 0.931817 14.0039
-2.39958 0.918418 13.8412
-2.41301 0.903631 13.6525
-2.45022 0.868382 13.2292
-2.46829 0.857309 13.0885
-2.48632 0.846309 12.9528
-2.50145 0.834115 12.8041
-2.49938 0.824293 12.6812
-2.51638 0.813351 12.5494
-2.53235 0.803454 12.4207
-2.5464 0.792421 12.2829
-2.56139 0.781493 12.1522
-2.57728 0.771758 12.0345
-2.59123 0.761918 11.9097
-2.60393 0.743598 11.685
-2.61685 0.733816 11.5642
-2.63265 0.725259 11.4585
-2.64649 0.716641 11.3487
-2.65414 0.699405 11.13
-2.66887 0.690995 11.0342
-2.68459 0.6836 10.9394
-2.69832 0.676189 10.8436
-2.70816 0.667539 10.7318
-2.73416 0.646665 10.4693
-2.74493 0.638163 10.3675
-2.79499 0.595266 9.8324
-2.80564 0.589001 9.74656
-2.81823 0.582856 9.66874
-2.82592 0.5755 9.57689
-2.84933 0.54981 9.25941
-2.85989 0.544722 9.18555
-2.87141 0.53871 9.11672
-2.87904 0.532487 9.03385
-2.8946 0.516449 8.82818
-2.90413 0.51142 8.75832
-2.91169 0.50533 8.68445
-2.91729 0.499165 8.60558
-2.9258 0.494165 8.53771
-2.9353 0.489209 8.47284
-2.94378 0.484268 8.40897
-2.93826 0.478332 8.34601
-2.94967 0.474526 8.29114
-2.95227 0.468359 8.21224
-2.96368 0.464568 8.15838
-2.97117 0.459626 8.0945
-2.9757 0.453593 8.02461
-2.9871 0.449817 7.97175
-2.98248 0.446059 7.92076
-2.98798 0.441086 7.85487
-2.99838 0.436309 7.80201
-3.00385 0.43241 7.7411
-3.01423 0.428663 7.69022
-3.0187 0.423748 7.62832
-3.02053 0.415136 7.51945
-3.03185 0.411508 7.47658
-3.06316 0.389017 7.17211
-3.06905 0.379274 7.05428
-2.08516 1.25684 16.9192
-2.11185 1.23757 16.6977
-2.13662 1.21713 16.4642
-2.18817 1.16427 15.8642
-2.21265 1.1474 15.6696
-2.23708 1.13162 15.481
-2.30162 1.06785 14.7514
-2.32002 1.05213 14.5667
-2.34132 1.03761 14.3961
-2.36061 1.0231 14.2254
-2.37891 1.00758 14.0547
-2.41341 0.96775 13.5925
-2.45157 0.94356 13.3081
-2.49878 0.89538 12.7541
-2.51481 0.884364 12.6174
-2.53081 0.872437 12.4867
-2.54386 0.861389 12.3479
-2.56175 0.850656 12.2302
-2.58939 0.821526 11.8828
-2.60138 0.809595 11.752
-2.6172 0.801009 11.6443
-2.67018 0.756262 11.1193
-2.68299 0.746688 11.0125
-2.16348 1.29141 16.0762
-2.18999 1.27348 15.8776
-2.21675 1.23912 15.5143
-2.23834 1.22004 15.3057
-2.26267 1.20345 15.1301
-2.28124 1.1844 14.9235
-2.30549 1.16898 14.7589
-2.34538 1.12141 14.2468
-2.36276 1.10372 14.0642
-2.38486 1.09059 13.9195
-2.40023 1.07392 13.7389
-2.4232 1.06206 13.6122
-2.45656 1.02151 13.169
-2.47172 1.00726 13.0163
-2.49071 0.995333 12.8856
-2.50486 0.981109 12.7349
-2.5238 0.970287 12.6112
-2.53385 0.945299 12.3416
-2.56572 0.922666 12.0951
-2.57872 0.910708 11.9624
-2.59557 0.900062 11.8507
-2.60657 0.888132 11.7199
-2.60433 0.878635 11.619
-2.61823 0.867884 11.5003
-2.63304 0.858326 11.3945
-2.6459 0.847648 11.2807
-2.66165 0.839195 11.182
-2.67447 0.829606 11.0742
-2.67119 0.820197 10.9793
-2.68495 0.811727 10.8795
-2.69674 0.802197 10.7757
-2.71047 0.792771 10.679
-2.72221 0.784329 10.5812
-2.73589 0.776007 10.4914
-2.74664 0.76755 10.3926
-2.74233 0.759215 10.3026
-2.75499 0.750937 10.2158
-2.76765 0.743643 10.128
-2.78029 0.735409 10.0442
-2.79 0.727025 9.95043
-2.80787 0.705383 9.70385
-2.81459 0.695982 9.60903
-2.82617 0.689865 9.5332
-2.83678 0.682689 9.45337
-2.8464 0.675483 9.37154
-2.86404 0.656284 9.15493
-2.87459 0.649226 9.0831
-2.94593 0.586844 8.37946
-2.95475 0.577252 8.27166
-2.95932 0.57113 8.19577
-2.96973 0.566339 8.14191
-2.98176 0.554335 8.00616
-2.99372 0.543464 7.8794
-2.99992 0.541084 7.85347
-2.99756 0.532839 7.76957
-3.01537 0.524268 7.66281
-3.0253 0.513455 7.54003
-3.03004 0.505008 7.44218
-3.04484 0.495465 7.33742
-3.06134 0.478546 7.13976
-3.06968 0.474886 7.09488
-3.0741 0.470076 7.03997
-3.0736 0.464084 6.97305
-3.0888 0.46271 6.94718
-3.08436 0.455611 6.87324
-2.27595 1.27585 14.9531
-2.29735 1.25712 14.7685
-2.31959 1.24171 14.6049
-2.37471 1.17478 13.9322
-2.39484 1.16059 13.7836
-2.41016 1.14302 13.6099
-2.46436 1.08885 13.056
-2.48045 1.07475 12.9134
-2.49555 1.06061 12.7687
-2.51352 1.04872 12.64
-2.55541 0.998154 12.128
-2.56935 0.986344 12.0052
-2.58522 0.975654 11.8905
-2.59915 0.963844 11.7677
-2.64038 0.922569 11.3426
-2.65031 0.910756 11.2198
-2.66313 0.900167 11.1121
-2.67788 0.890713 11.0133
-2.69025 0.873058 10.8336
-2.69814 0.861318 10.7159
-2.71378 0.854086 10.6321
-2.72259 0.843509 10.5253
-2.73919 0.836352 10.4465
-2.74603 0.825714 10.3357
-2.7436 0.817602 10.2608
-2.75627 0.809309 10.173
-2.76597 0.80094 10.0802
-2.77859 0.792736 9.99838
-2.79025 0.784471 9.91258
-2.79895 0.776101 9.81975
-2.80514 0.760782 9.663
-2.81382 0.752457 9.57318
-2.82831 0.74652 9.50937
-2.83306 0.737058 9.41053
-2.84362 0.729971 9.33671
-2.85418 0.722884 9.26288
-2.85067 0.716919 9.19793
-2.86025 0.709801 9.1221
-2.87176 0.702803 9.05428
-2.87739 0.695579 8.97142
-2.88792 0.688551 8.90159
-2.90048 0.669526 8.69694
-2.91293 0.663662 8.63811
-2.91752 0.656496 8.55924
-2.92602 0.650526 8.49339
-2.93354 0.643525 8.42554
-2.94203 0.637569 8.36068
-2.93747 0.632707 8.30271
-2.95084 0.627992 8.25387
-2.95344 0.620825 8.17499
-2.9609 0.614927 8.11412
-2.97231 0.610151 8.06127
-2.97389 0.603013 7.98438
-2.97938 0.597055 7.9195
-2.97772 0.592402 7.87555
-2.99063 0.581636 7.75579
-3.00198 0.576949 7.70894
-3.00941 0.572125 7.65306
-3.01388 0.566196 7.59017
-3.02521 0.562568 7.54731
-3.01764 0.556719 7.49033
-3.02504 0.551955 7.43845
-3.03636 0.548327 7.39558
-3.04179 0.543502 7.33968
-3.04623 0.537647 7.2818
-3.05754 0.534048 7.24093
-3.0563 0.524552 7.14005
-3.05973 0.519711 7.08314
-3.06611 0.514976 7.03325
-3.07544 0.511346 6.99036
-3.0818 0.507641 6.94246
-3.09406 0.504146 6.9086
-2.53349 1.09979 12.3733
-2.5921 1.03685 11.7676
-2.60696 1.02518 11.6549
-2.62084 1.01346 11.5381
-2.65909 0.969157 11.111
-2.67383 0.959717 11.0133
-2.68564 0.949142 10.9065
-2.70231 0.939852 10.8187
-2.69511 0.929293 10.7138
-2.70981 0.919942 10.6221
-2.72447 0.910651 10.5343
-2.73232 0.900014 10.4235
-2.74695 0.890782 10.3397
-2.75961 0.882503 10.2529
-2.75332 0.873122 10.16
-2.76694 0.864919 10.0782
-2.78055 0.856745 9.99845
-2.78634 0.846195 9.89363
-2.8009 0.838111 9.81985
-2.80669 0.827591 9.71704
-2.8144 0.818205 9.62322
-2.82153 0.803005 9.47448
-2.83213 0.795829 9.39465
-2.84757 0.789982 9.33685
-2.85231 0.77955 9.24002
-2.86189 0.772432 9.16419
-2.86521 0.767799 9.12128
-2.86893 0.758395 9.02643
-2.88434 0.753607 8.97261
-2.88608 0.743173 8.87577
-2.90245 0.73946 8.82694
-2.90416 0.729085 8.73409
-2.90816 0.71612 8.6013
-2.92255 0.711375 8.55047
-2.92618 0.70315 8.46761
-2.94318 0.690209 8.33591
-2.95655 0.685493 8.28707
-2.96014 0.677356 8.21021
-2.96045 0.673735 8.16826
-2.96954 0.659625 8.02551
-2.97505 0.652638 7.95865
-2.98937 0.649027 7.91681
-2.98996 0.640873 7.83892
-3.00415 0.62556 7.68223
-3.00863 0.619631 7.61935
-3.01605 0.613807 7.56348
-3.02542 0.609089 7.51461
-3.03283 0.604295 7.46073
-3.03829 0.598411 7.40085
-3.03266 0.593682 7.35187
-3.03613 0.586767 7.28999
-3.04645 0.583153 7.24812
-3.05089 0.577298 7.19023
-3.06023 0.573639 7.14535
-3.06661 0.568903 7.09546
-3.06096 0.564204 7.04848
-3.0747 0.554778 6.95171
-2.50232 1.2119 12.6515
-2.52121 1.19918 12.5348
-2.53238 1.18291 12.3811
-2.55313 1.17144 12.2814
-2.56496 1.1459 12.0418
-2.58082 1.13323 11.9281
-2.59281 1.1193 11.7974
-2.60963 1.10772 11.6907
-2.62061 1.09382 11.5619
-2.63637 1.08234 11.4612
-2.64693 1.06031 11.2566
-2.66267 1.04988 11.1589
-2.67354 1.03718 11.0441
-2.69479 1.00482 10.7487
-2.70945 0.995541 10.6619
-2.72122 0.98504 10.5602
-2.73391 0.975703 10.4694
-2.74271 0.964155 10.3646
-2.76512 0.944434 10.1801
-2.77144 0.939802 10.1372
-2.77529 0.927148 10.0254
-2.78888 0.919004 9.94758
-2.79468 0.907454 9.84278
-2.81595 0.889998 9.67618
-2.81932 0.885276 9.62726
-2.82407 0.873814 9.52846
-2.8366 0.866787 9.45864
-2.84133 0.85637 9.36282
-2.86247 0.841166 9.21318
-2.87613 0.817935 8.9946
-2.91325 0.788833 8.71627
-2.91529 0.773808 8.57949
-2.96456 0.728465 8.14948
-2.97498 0.722644 8.09363
-2.98145 0.716731 8.03176
-2.99725 0.692236 7.79521
-3.01015 0.679484 7.67648
-3.03808 0.653746 7.42304
-3.04057 0.646786 7.35815
-3.05435 0.636271 7.25539
-3.06982 0.616427 7.06278
-3.08355 0.607001 6.96601
-3.09038 0.595393 6.85721
-2.60075 1.18038 11.6675
-2.6127 1.16554 11.5428
-2.62849 1.154 11.4381
-2.64427 1.1425 11.3364
-2.64197 1.13113 11.2435
-2.65676 1.1196 11.1398
-2.66959 1.10699 11.031
-2.68237 1.09548 10.9283
-2.69613 1.08501 10.8285
-2.70985 1.07361 10.7338
-2.70751 1.06434 10.6479
-2.71732 1.05176 10.5412
-2.73197 1.0425 10.4554
-2.74174 1.03101 10.3546
-2.75346 1.01962 10.2599
-2.76417 1.00923 10.1661
-2.77681 1 10.0823
-2.77048 0.989693 9.9944
-2.7831 0.980489 9.91262
-2.79379 0.970165 9.82284
-2.80345 0.960885 9.73604
-2.81505 0.951709 9.65625
-2.82569 0.942474 9.57246
-2.82991 0.92411 9.41274
-2.84341 0.917128 9.34594
-2.85203 0.907936 9.26513
-2.88875 0.86765 8.90695
-2.89732 0.859562 8.83312
-2.90487 0.851487 8.76029
-2.93081 0.823717 8.50486
-2.9364 0.814582 8.42803
-2.95045 0.799536 8.28934
-2.9703 0.772954 8.04685
-2.9807 0.767177 7.994
-2.98817 0.760265 7.93215
-3.00112 0.746425 7.80744
-3.01306 0.733599 7.6837
-3.01529 0.730157 7.65376
-3.01684 0.722078 7.58089
-3.03013 0.718525 7.54303
-3.03166 0.71049 7.47315
-3.04547 0.698917 7.36641
-3.04822 0.687454 7.26759
-3.05855 0.683825 7.22472
-3.06101 0.676924 7.16383
-3.07379 0.665424 7.06208
-3.08971 0.65263 6.94037
-3.08527 0.644532 6.86645
-2.67099 1.17711 10.971
-2.68376 1.16463 10.8703
-2.69844 1.15431 10.7805
-2.71021 1.14182 10.6798
-2.70784 1.13159 10.5969
-2.72248 1.12236 10.5131
-2.73131 1.10875 10.4044
-2.7469 1.09961 10.3266
-2.75567 1.08812 10.2259
-2.77707 1.0654 10.0413
-2.7746 1.05738 9.97243
-2.78333 1.04595 9.87565
-2.79494 1.03677 9.79586
-2.80559 1.02652 9.71108
-2.81718 1.01738 9.63329
-2.82584 1.0071 9.5465
-2.82236 0.998074 9.4776
-2.82905 0.987747 9.38779
-2.84255 0.97978 9.322
-2.85409 0.971723 9.25019
-2.86171 0.96253 9.16938
