2.30243 1.7646 7.08067
2.27642 1.7626 7.0799
2.25348 1.76272 7.08707
2.23568 1.76812 7.11313
2.21755 1.76288 7.09634
2.19459 1.76299 7.10251
2.17781 1.76841 7.13056
2.14974 1.7643 7.12183
2.12269 1.76123 7.11608
2.10798 1.76981 7.15407
2.07886 1.76359 7.13838
2.06585 1.76259 7.13749
2.04705 1.76798 7.16356
2.02204 1.76597 7.16178
1.99704 1.76501 7.16298
1.97924 1.7704 7.18904
1.95117 1.76628 7.17931
1.92823 1.76743 7.18847
1.91935 1.76965 7.2035
1.89126 1.7655 7.19177
1.86523 1.76347 7.189
1.84848 1.76996 7.22103
1.82039 1.7658 7.20931
1.79846 1.76696 7.21946
1.77863 1.7713 7.24154
1.76356 1.76918 7.23269
1.74372 1.77251 7.25379
1.71355 1.76519 7.23112
1.69166 1.76841 7.24524
1.66559 1.76431 7.2375
1.64785 1.77183 7.27152
1.63172 1.76759 7.25471
1.61087 1.77089 7.27382
1.58586 1.76989 7.27302
1.56398 1.77214 7.28915
1.53999 1.77117 7.29035
1.51602 1.77125 7.29453
1.48999 1.7692 7.28976
1.47799 1.76922 7.29085
1.45402 1.7693 7.29503
1.43216 1.77258 7.31314
1.40505 1.76738 7.29842
1.3842 1.77169 7.31852
1.36026 1.77282 7.32668
1.33733 1.77397 7.33584
1.32325 1.77082 7.32499
1.30135 1.77304 7.33913
1.27426 1.76989 7.32738
1.22841 1.7722 7.34669
1.19248 1.77336 7.35594
1.16956 1.77552 7.36609
1.14661 1.77664 7.37324
1.09659 1.77364 7.37067
1.07054 1.77157 7.36489
1.04866 1.77482 7.38101
1.03773 1.77695 7.38906
1.01059 1.77171 7.37234
0.965833 1.77821 7.40359
0.93765 1.77187 7.37989
0.892873 1.77733 7.40915
0.877719 1.77205 7.38934
0.855919 1.77845 7.41541
0.831919 1.77747 7.41561
0.804759 1.77218 7.39489
0.757913 1.77551 7.41519
0.745882 1.77445 7.4113
0.695837 1.7724 7.40571
0.674045 1.77882 7.43278
0.647899 1.77256 7.41407
0.623969 1.77471 7.42322
0.598885 1.77156 7.41245
0.5891 1.77898 7.44042
0.562947 1.77271 7.42071
0.540047 1.77592 7.43383
0.515063 1.77596 7.43602
0.491102 1.77705 7.44119
0.467172 1.77921 7.45034
0.442095 1.77608 7.44057
0.431188 1.77926 7.45261
0.405019 1.77296 7.43089
0.308198 1.77837 7.45455
0.150225 1.77853 7.45873
0.0891422 1.77541 7.44824
0.0641586 1.77645 7.45041
-0.0978463 1.75268 7.05393
-0.606028 1.75267 7.03176
-0.676048 1.75367 7.02927
-0.687055 1.75367 7.02835
-0.710115 1.75256 7.02054
-0.734999 1.7568 7.03567
-0.756106 1.75361 7.02187
-0.781035 1.75676 7.03101
-0.804965 1.75991 7.04015
-0.827064 1.75774 7.02735
-0.840002 1.75987 7.03541
-0.863 1.76088 7.03557
-0.886984 1.76193 7.03774
-0.910006 1.7619 7.03491
-0.932997 1.76293 7.03607
-0.957912 1.76611 7.04721
-0.980041 1.76288 7.03042
-0.995786 1.77238 7.0634
-1.0179 1.76917 7.04862
-1.0409 1.77019 7.04878
-1.06297 1.76807 7.03997
-1.26256 1.75606 6.96364
4.03314 1.73019 5.84197
4.02638 1.73666 5.87393
3.65637 1.74881 6.13858
3.63848 1.75003 6.1527
3.61757 1.75022 6.16485
3.60659 1.75028 6.16793
3.58668 1.75047 6.18008
3.54078 1.7477 6.19347
3.52188 1.7489 6.2066
3.50197 1.74909 6.21875
3.48695 1.74706 6.21589
3.46298 1.74514 6.2201
3.44915 1.74849 6.24316
3.41604 1.74231 6.2295
3.40324 1.7467 6.25553
3.39146 1.75212 6.28354
3.36445 1.74813 6.28281
3.34636 1.74398 6.272
3.33865 1.75153 6.30895
3.30858 1.74642 6.30026
3.28664 1.74655 6.30842
3.26978 1.74885 6.32752
3.23362 1.73956 6.30692
3.22691 1.74813 6.34485
3.21086 1.74505 6.33902
3.18282 1.74099 6.33329
3.17104 1.74642 6.3623
3.14706 1.74449 6.36551
3.12615 1.74568 6.37765
3.10521 1.74481 6.38582
3.09933 1.74804 6.40082
3.0723 1.74501 6.39807
3.05342 1.74625 6.4132
3.03146 1.74535 6.41938
3.00851 1.74446 6.42556
2.98045 1.74038 6.41883
2.96868 1.74683 6.44883
2.95365 1.74378 6.44499
2.93375 1.74499 6.45812
2.91181 1.74511 6.46529
2.88579 1.7421 6.46353
2.87301 1.74754 6.49255
2.84394 1.74242 6.48384
2.82505 1.74465 6.49795
2.80899 1.74054 6.49013
2.7962 1.74696 6.51814
2.77221 1.74499 6.51935
2.75131 1.7462 6.53249
2.72323 1.74108 6.52278
2.70639 1.7444 6.54386
2.67041 1.74247 6.54716
2.63061 1.74488 6.57342
2.60559 1.74186 6.57066
2.58263 1.74196 6.57683
2.24654 1.74497 6.69833
2.059 1.74699 6.75972
1.76855 1.74727 6.83392
1.71369 1.74859 6.85331
1.64477 1.74779 6.86385
1.49801 1.74836 6.89595
1.41917 1.74973 6.91753
1.37632 1.75305 6.9378
1.32149 1.75642 6.96017
1.25152 1.75453 6.96472
1.18572 1.75896 6.99116
1.14652 1.75061 6.96557
1.12672 1.75699 6.99063
1.10267 1.75392 6.98486
1.05882 1.75825 7.00513
1.03479 1.75619 7.00034
1.0228 1.75623 7.00243
0.997685 1.75102 6.98769
0.977885 1.75742 7.01375
0.931932 1.75755 7.0201
0.884917 1.75555 7.01848
0.848856 1.75246 7.0108
0.805026 1.75782 7.03305
0.758065 1.75792 7.0384
0.721973 1.75377 7.02673
0.480131 1.75425 7.04855
0.422079 1.75218 7.04202
0.249236 1.75561 7.06327
0.226198 1.75455 7.05846
0.203291 1.75774 7.07059
0.179284 1.75675 7.06978
0.168223 1.75464 7.0619
0.145239 1.75568 7.06406
0.121216 1.75465 7.06125
0.0982171 1.75467 7.06142
0.052172 1.75262 7.0558
-0.725345 1.74719 6.72469
-0.747352 1.74719 6.72386
-0.770313 1.74928 6.729
-0.791358 1.74821 6.72318
-0.814364 1.74921 6.72233
-0.838263 1.75342 6.73545
-0.849231 1.75549 6.73951
-0.872238 1.75549 6.73868
-0.894275 1.75543 6.73385
-0.915344 1.75332 6.72503
-0.941158 1.76069 6.74912
-0.962241 1.75854 6.73831
-0.983294 1.75745 6.73149
-0.996247 1.75955 6.73755
-1.01921 1.76164 6.7427
-1.04125 1.76157 6.73686
-1.0642 1.76369 6.744
-1.08815 1.76679 6.75014
-1.28642 1.76539 6.71465
-1.29695 1.74738 6.64599
4.00264 1.72531 5.51123
4.01088 1.73376 5.54205
3.6757 1.74356 5.78446
3.65679 1.74375 5.7966
3.61796 1.7441 5.81889
3.60006 1.74431 5.83203
3.5852 1.74658 5.85011
3.55617 1.74255 5.84639
3.55227 1.74476 5.86038
3.53539 1.747 5.87648
3.50128 1.73881 5.86186
3.48541 1.74109 5.87994
3.46954 1.74333 5.89603
3.44454 1.74037 5.89727
3.42462 1.74053 5.90741
3.4248 1.74589 5.93134
3.38865 1.73662 5.91174
3.37785 1.74201 5.93775
3.35894 1.7422 5.94989
3.32988 1.73712 5.94318
3.31503 1.74041 5.96225
3.30101 1.73839 5.96038
3.2821 1.73857 5.97153
3.26014 1.73667 5.97772
3.24326 1.73892 5.99382
3.21927 1.73595 5.99504
3.2024 1.73922 6.01212
3.17942 1.73628 6.01534
3.16844 1.73633 6.01842
3.14953 1.73652 6.03056
3.12758 1.73563 6.03674
3.10459 1.73367 6.03894
3.08265 1.73279 6.04612
3.07288 1.74025 6.07609
3.04279 1.7331 6.06542
3.0308 1.73213 6.06653
3.01798 1.73648 6.08956
2.99704 1.73661 6.09772
2.97203 1.73363 6.09795
2.93422 1.73601 6.12221
2.91529 1.73617 6.13235
2.90229 1.73518 6.13246
2.87931 1.73323 6.13466
2.86242 1.73547 6.14976
2.83844 1.73351 6.15197
2.79858 1.73382 6.17127
2.68695 1.73563 6.22109
1.79726 1.74276 6.53073
1.62355 1.74245 6.57005
1.13429 1.74522 6.6687
0.317919 1.74701 6.75584
0.272951 1.7481 6.76016
0.261935 1.74708 6.75826
0.218036 1.7503 6.77155
0.194937 1.74713 6.75877
0.173014 1.74929 6.7689
0.151031 1.75034 6.77105
0.128962 1.74722 6.76226
0.0949784 1.74828 6.7645
0.0509796 1.74831 6.76483
0.0288569 1.74615 6.48299
0.0188723 1.74618 6.48507
-0.00306498 1.74932 6.49319
-0.0241572 1.74516 6.48141
-0.0461026 1.74728 6.48854
-0.0671021 1.74729 6.4887
-0.088163 1.74519 6.48089
-0.110108 1.74731 6.48802
-0.12017 1.7452 6.48013
-0.141261 1.74204 6.46833
-0.162283 1.74201 6.46549
-0.184237 1.74311 6.47164
-0.237296 1.74203 6.46406
-0.301302 1.74206 6.46354
-0.364314 1.74308 6.462
-0.375345 1.74203 6.4581
-0.417366 1.74201 6.45541
-0.481356 1.74308 6.45688
-0.502402 1.742 6.45105
-0.535377 1.74407 6.45427
-0.555445 1.74195 6.44545
-0.599344 1.74618 6.45872
-0.630465 1.74296 6.443
-0.653349 1.7472 6.45811
-0.673456 1.74401 6.44431
-0.693532 1.74187 6.43449
-0.717338 1.75026 6.45955
-0.738406 1.74814 6.45074
-0.759436 1.7471 6.44691
-0.772312 1.75235 6.46293
-0.793334 1.75232 6.46009
-0.815326 1.75335 6.46124
-0.836317 1.75438 6.46239
-0.858331 1.75436 6.46055
-0.879338 1.75536 6.4597
-0.90226 1.75853 6.46982
-0.913267 1.75852 6.46891
-0.934281 1.75951 6.46705
-0.957241 1.7616 6.47219
-1.32581 1.75773 6.39802
3.47309 1.74052 5.571
3.23113 1.74372 5.7098
3.20325 1.74398 5.72601
3.1654 1.74431 5.74629
3.14342 1.74237 5.74948
3.12451 1.74354 5.76061
3.09765 1.74483 5.7788
3.07974 1.74502 5.79093
3.04659 1.73676 5.7723
3.03883 1.74424 5.80425
3.02296 1.7465 5.82134
2.99286 1.73932 5.80767
2.97901 1.74263 5.82773
2.96396 1.73955 5.82189
2.95013 1.74388 5.84393
2.9312 1.74403 5.85307
2.90922 1.74209 5.85627
2.88217 1.73802 5.85053
2.87239 1.74344 5.87853
2.85347 1.74462 5.88965
2.84247 1.74363 5.88975
2.81745 1.7396 5.887
2.80259 1.74289 5.90607
2.77961 1.74094 5.90827
2.76372 1.74317 5.92336
2.74481 1.74437 5.93548
2.72975 1.74126 5.92764
2.71082 1.74141 5.93678
2.6919 1.74258 5.94791
2.66993 1.74064 5.9511
2.64793 1.73867 5.9523
2.63208 1.74197 5.97137
2.61112 1.74106 5.97654
2.59605 1.73693 5.96772
2.58629 1.74441 5.99969
2.56125 1.74136 5.99492
2.54028 1.74043 5.99909
2.52341 1.7427 6.01619
2.50143 1.74174 6.01837
2.47842 1.73875 6.01758
2.47253 1.74197 6.03258
2.45565 1.74421 6.04768
2.42958 1.73909 6.03895
2.4178 1.74653 6.06793
2.39276 1.74247 6.06318
2.37079 1.74155 6.06736
2.36489 1.74473 6.07936
2.34495 1.74486 6.08751
2.32093 1.74185 6.08573
2.30404 1.74407 6.09983
2.28002 1.74206 6.09804
2.25701 1.73905 6.09626
2.24421 1.74546 6.12326
2.23322 1.74448 6.12436
2.2092 1.74247 6.12257
2.1913 1.74366 6.13469
2.1683 1.74167 6.13489
2.14732 1.74073 6.13807
2.12943 1.74295 6.15217
2.1105 1.74412 6.1623
2.10054 1.7452 6.16736
2.07342 1.73798 6.15167
2.05964 1.74542 6.18066
2.0397 1.74555 6.18881
2.01666 1.7425 6.18403
1.99878 1.74573 6.19912
1.98471 1.74162 6.19129
1.96784 1.74487 6.20737
1.94585 1.74392 6.20955
1.92387 1.74296 6.21173
1.9029 1.74204 6.2159
1.88604 1.74633 6.23497
1.86506 1.74538 6.23714
1.851 1.74227 6.22929
1.8331 1.74447 6.24239
1.81007 1.74143 6.23861
1.78601 1.73834 6.23184
1.77123 1.74578 6.26084
1.74922 1.74277 6.25905
1.72516 1.73967 6.25128
1.71931 1.74497 6.27125
1.69629 1.74196 6.26946
1.67324 1.73887 6.26268
1.65847 1.74633 6.29269
1.63443 1.74325 6.28691
1.61343 1.74228 6.28809
1.59246 1.74134 6.29126
1.58456 1.74556 6.30526
1.55946 1.73937 6.29154
1.54263 1.74572 6.31457
1.52374 1.74794 6.32868
1.50172 1.74591 6.32588
1.47868 1.74286 6.3211
1.47079 1.74707 6.3351
1.44879 1.7461 6.33628
1.42676 1.74306 6.33249
1.4089 1.74734 6.35056
1.38689 1.74634 6.34974
1.36388 1.74432 6.34794
1.34499 1.74755 6.36204
1.33292 1.74444 6.35418
1.313 1.7466 6.3643
1.29308 1.74776 6.37443
1.27212 1.74885 6.37957
1.24905 1.74473 6.37081
1.23119 1.74903 6.38988
1.20815 1.74696 6.38408
1.19922 1.7491 6.39312
1.17722 1.74811 6.3933
1.15522 1.74713 6.39348
1.13527 1.74825 6.40062
1.11222 1.74517 6.39483
1.09228 1.74629 6.40197
1.0713 1.74635 6.40513
1.06242 1.75058 6.42013
1.04039 1.74854 6.41633
1.01941 1.7486 6.41949
0.997402 1.7476 6.41867
0.977501 1.74981 6.43179
0.956525 1.74986 6.43494
0.945517 1.74986 6.43403
0.924525 1.74889 6.4352
0.901456 1.74577 6.42642
0.88261 1.75108 6.44648
0.858472 1.74483 6.42876
0.839633 1.75016 6.44982
0.818657 1.75022 6.45298
0.807619 1.74915 6.44808
0.784503 1.74395 6.43333
0.764611 1.74717 6.44743
0.742611 1.74618 6.44761
0.722689 1.74935 6.45772
0.700689 1.74836 6.4579
0.689666 1.74733 6.45499
0.667628 1.74527 6.45019
0.647744 1.7495 6.46528
0.626729 1.74849 6.46345
0.605806 1.75065 6.47358
0.583744 1.74755 6.46579
0.562814 1.7497 6.47492
0.55173 1.74655 6.46405
0.530792 1.74868 6.47217
0.509876 1.75086 6.4833
0.487831 1.74878 6.4775
0.466824 1.74878 6.47665
0.444816 1.74779 6.47583
0.423801 1.74677 6.47401
0.413948 1.75206 6.49301
0.391794 1.74578 6.47326
0.369779 1.74477 6.47144
0.34881 1.74584 6.47559
0.327911 1.75005 6.48868
0.306988 1.75221 6.49881
0.285966 1.75118 6.49598
0.275012 1.75328 6.50204
0.252874 1.74703 6.48429
0.233059 1.7544 6.50834
0.211029 1.75336 6.50452
0.188891 1.74711 6.48677
0.16813 1.75658 6.51779
0.1581 1.75553 6.51389
0.136047 1.75344 6.50708
0.11497 1.75031 6.49728
0.0930628 1.7535 6.5094
0.0719479 1.74929 6.49462
0.0509021 1.74722 6.48881
-0.90738 1.73739 6.19014
-0.918317 1.74051 6.19817
-0.939339 1.74048 6.19533
-0.959361 1.74046 6.19248
-0.979383 1.74043 6.18963
-1.00137 1.74247 6.19177
-1.02235 1.74352 6.19391
-1.04336 1.74452 6.19306
-1.05433 1.74558 6.19712
-1.07723 1.75078 6.20922
-1.09918 1.7539 6.21634
-1.11826 1.75175 6.20551
-1.1412 1.75488 6.21364
-1.16027 1.75276 6.20482
-1.18226 1.75479 6.20595
-1.19227 1.75477 6.20403
-1.21229 1.75474 6.20118
-1.23237 1.75261 6.19136
-1.25144 1.75147 6.18152
-1.27246 1.75146 6.17968
-1.29055 1.7493 6.16784
-1.31155 1.75031 6.16799
-1.31871 1.74501 6.14712
3.60548 1.7333 5.22406
3.58857 1.73349 5.23619
3.56963 1.73262 5.24435
3.55171 1.7328 5.25548
3.53075 1.73089 5.26067
3.51789 1.73418 5.27972
3.50792 1.73324 5.28381
3.48797 1.73135 5.28999
3.47511 1.73464 5.30904
3.45112 1.73167 5.31026
3.43016 1.72976 5.31545
3.41223 1.72991 5.32458
3.39633 1.73113 5.33869
3.39244 1.73434 5.35267
3.37047 1.73141 5.35688
3.34748 1.72946 5.35908
3.33159 1.73068 5.37319
3.31367 1.73084 5.38332
3.29269 1.7289 5.38651
3.28272 1.72796 5.3906
3.26581 1.72915 5.40271
3.24891 1.73036 5.41582
3.22591 1.72638 5.41605
3.21001 1.72859 5.43014
3.20121 1.73399 5.45613
3.17519 1.72996 5.45339
3.1642 1.72898 5.45448
3.14425 1.7271 5.46166
3.12531 1.72723 5.46981
3.11043 1.72948 5.48589
3.08844 1.72651 5.4871
3.06747 1.7256 5.49227
3.05158 1.72682 5.50637
3.0406 1.72586 5.50847
3.01861 1.7239 5.51066
3.00273 1.72614 5.52575
2.98987 1.72943 5.5448
2.96281 1.72433 5.53708
2.95198 1.72868 5.5601
2.93593 1.72459 5.55328
2.92004 1.72681 5.56737
2.89805 1.72485 5.56957
2.88113 1.72503 5.58069
2.85915 1.72307 5.58289
2.84529 1.72636 5.60195
2.82432 1.72542 5.60512
2.81942 1.72762 5.61812
0.203186 1.74075 6.26073
0.182102 1.7376 6.24993
0.162133 1.73868 6.25407
0.141095 1.73762 6.24924
-0.880069 1.73305 5.96596
-0.90006 1.73408 5.9671
-0.920082 1.73405 5.96425
-0.939135 1.73296 5.95741
-0.961026 1.73818 5.9715
-0.980078 1.73709 5.96466
-0.991062 1.73813 5.96672
-1.0082 1.73388 5.94891
-1.03013 1.73803 5.95802
-1.05107 1.74115 5.96513
-1.07299 1.74532 5.97624
-1.09206 1.7432 5.96741
-1.10304 1.74424 5.96948
-1.12302 1.74629 5.9716
-1.14496 1.75042 5.9797
-1.16402 1.74832 5.97188
-1.18502 1.75033 5.97201
-1.20406 1.74926 5.96616
-1.22505 1.7513 5.96829
-1.23312 1.74816 5.9584
-1.25122 1.74598 5.94557
-1.27122 1.74699 5.9457
-1.28643 1.73961 5.91892
-1.30836 1.74375 5.92803
-1.32548 1.74053 5.9122
-1.33356 1.73737 5.90131
3.52289 1.73124 5.01369
3.41039 1.73029 5.08056
3.37148 1.7275 5.0929
3.3576 1.72975 5.10897
3.33967 1.72889 5.11812
3.29686 1.7293 5.14344
3.27893 1.72944 5.15257
3.25795 1.7275 5.15576
3.24307 1.72875 5.17185
3.22513 1.72888 5.17999
3.21211 1.72585 5.17713
3.19519 1.72702 5.18824
3.18536 1.73035 5.21027
3.16033 1.72631 5.20652
3.14544 1.72855 5.2216
3.13461 1.73288 5.24362
3.10958 1.72784 5.23988
3.09959 1.72686 5.24097
3.08065 1.72599 5.24913
3.06576 1.72823 5.26421
3.04478 1.72627 5.2664
3.02785 1.72643 5.27653
3.00688 1.72451 5.28071
2.99098 1.72571 5.29382
2.98708 1.72891 5.3068
2.96 1.72278 5.29709
2.94817 1.72711 5.31912
2.92922 1.72623 5.32628
2.90722 1.72425 5.32647
2.89031 1.72442 5.3376
2.87727 1.72137 5.33374
2.86136 1.72256 5.34585
2.84852 1.72687 5.36588
2.82854 1.72492 5.36906
2.80552 1.72191 5.36728
2.79063 1.72313 5.38138
2.77067 1.72222 5.38654
2.76069 1.72227 5.38962
2.74478 1.72346 5.40172
2.73397 1.72882 5.42572
2.68793 1.7218 5.42217
2.67101 1.72296 5.43229
2.65409 1.72312 5.44241
2.64004 1.72004 5.43656
2.62515 1.72227 5.45164
2.60518 1.72135 5.45581
2.5424 1.72181 5.48428
2.52957 1.72714 5.5063
2.47066 1.72338 5.5198
2.42788 1.72682 5.54808
2.38588 1.72285 5.54845
2.36693 1.72297 5.55559
2.33106 1.72325 5.57286
2.28723 1.72562 5.59616
2.26523 1.72364 5.59636
2.16352 1.72426 5.63412
2.06182 1.72593 5.67487
1.95808 1.7265 5.70964
0.132392 1.73328 6.02334
0.112439 1.73438 6.02948
-0.917296 1.73066 5.80326
-1.00438 1.73055 5.79191
-1.02435 1.73362 5.79602
-1.04337 1.73359 5.79316
-1.06339 1.73358 5.79131
-1.08338 1.73461 5.79245
-1.10241 1.73456 5.78859
-1.11432 1.73873 5.79962
-1.13526 1.74287 5.80772
-1.15621 1.74597 5.81383
-1.17621 1.74698 5.81397
-1.1962 1.74801 5.8151
-1.2133 1.74583 5.80226
-1.23331 1.74582 5.80041
-1.24524 1.74996 5.80944
-1.26042 1.74363 5.78665
-1.27945 1.74359 5.78279
-1.3014 1.74671 5.78991
-1.31561 1.7393 5.76212
-1.3385 1.74553 5.77621
-1.35078 1.735 5.74045
3.45574 1.72602 4.86125
3.41697 1.72749 4.89152
3.40206 1.72768 4.90364
3.35128 1.72816 4.93402
3.33538 1.72835 4.94613
3.31338 1.72538 4.94734
3.29153 1.72769 4.96748
3.27563 1.72788 4.9796
3.26071 1.72906 4.99069
3.23974 1.72713 4.99488
3.22383 1.72732 5.007
3.20589 1.72745 5.01513
3.19894 1.72756 5.02218
3.18607 1.72981 5.03825
3.16205 1.72579 5.03649
3.1431 1.72491 5.04365
3.13225 1.72922 5.06367
3.11228 1.72628 5.06686
3.09622 1.72218 5.06004
3.08334 1.72543 5.07609
3.07148 1.7287 5.09414
3.05151 1.72678 5.09832
3.03459 1.72694 5.10844
3.01158 1.72294 5.10768
3.00073 1.72724 5.1277
2.98466 1.72212 5.11889
2.97281 1.72641 5.13792
2.95487 1.72555 5.14607
2.9359 1.72463 5.15123
2.91796 1.72376 5.15938
2.91119 1.7312 5.18832
2.88207 1.723 5.17366
2.87311 1.72308 5.17873
2.8572 1.72427 5.19083
2.83723 1.72334 5.195
2.81827 1.72243 5.20015
2.80844 1.72678 5.22317
2.78237 1.72066 5.21445
2.77747 1.72386 5.22744
2.75647 1.72087 5.22764
2.73752 1.72099 5.23479
2.71652 1.71801 5.23499
2.7067 1.72336 5.25799
2.67962 1.71723 5.24828
2.66268 1.71736 5.25641
2.65981 1.7216 5.27237
2.61885 1.71772 5.27874
2.60294 1.7199 5.29082
2.58397 1.71798 5.295
2.56705 1.71914 5.30511
2.55418 1.7224 5.32216
2.50423 1.71854 5.32959
2.43347 1.71907 5.36212
2.4096 1.72133 5.37927
0.0366662 1.73797 5.66094
0.0274732 1.72961 5.63613
0.00860493 1.73487 5.6532
-0.0104793 1.73172 5.64239
-0.0284712 1.73175 5.64352
-0.0475014 1.73071 5.63968
-0.0664701 1.73178 5.64381
-0.0845079 1.73072 5.63896
-0.0945384 1.72967 5.63505
-0.112584 1.72759 5.62922
-0.131599 1.72758 5.62736
-0.15056 1.72866 5.63249
-0.187543 1.72972 5.63475
-0.215604 1.72762 5.62699
-0.252541 1.73077 5.63522
-0.271625 1.72762 5.62441
-0.29057 1.72974 5.63153
-0.326677 1.72655 5.61784
-0.393574 1.7318 5.63127
-0.41072 1.72653 5.61248
-0.428727 1.72652 5.61161
-0.439657 1.72967 5.62065
-0.476694 1.72862 5.61594
-0.494693 1.72963 5.61606
-0.531722 1.7296 5.61234
-0.57965 1.73377 5.62164
-0.617648 1.73479 5.62191
-0.634787 1.72954 5.60412
-0.674622 1.73788 5.6253
-0.680854 1.72844 5.59548
-0.699799 1.73156 5.60258
-0.718797 1.73257 5.60271
-0.736843 1.7315 5.59686
-0.75678 1.73463 5.60496
-0.776764 1.73567 5.6071
-0.785747 1.73771 5.60913
-0.801924 1.73038 5.58636
-0.82283 1.73557 5.59844
-0.84086 1.73453 5.59459
-0.859867 1.73553 5.59372
-0.877905 1.73447 5.58887
-0.899764 1.74175 5.60693
-0.904949 1.7344 5.58308
-0.92684 1.73962 5.59717
-0.942955 1.73541 5.58235
-0.963892 1.73954 5.59045
-0.980968 1.73741 5.58061
-0.999951 1.73845 5.58273
-1.01706 1.73526 5.56891
-1.02702 1.73734 5.57395
-1.04796 1.74147 5.58205
-1.06601 1.74038 5.5752
-1.08598 1.74245 5.57932
-1.10399 1.74244 5.57746
-1.13203 1.74238 5.57267
-1.32534 1.7419 5.53213
-1.34434 1.7439 5.53124
-1.36142 1.74177 5.5214
-1.36656 1.7365 5.50351
-1.38364 1.73437 5.49367
-1.3949 1.72386 5.45891
2.82047 1.72889 4.96101
2.76473 1.73043 4.99541
2.72375 1.72551 4.99879
2.71087 1.72775 5.01486
2.70494 1.72989 5.02387
2.687 1.73001 5.03101
2.66903 1.72809 5.03617
2.63313 1.72731 5.04945
2.62025 1.73054 5.06451
2.60923 1.72852 5.06262
2.59738 1.73181 5.08166
2.57129 1.72567 5.07095
2.55943 1.72894 5.08899
2.5364 1.7249 5.08522
2.52453 1.72918 5.10325
2.50251 1.72515 5.10048
2.49557 1.72627 5.10851
2.4776 1.72534 5.11266
2.46474 1.72962 5.1307
2.43864 1.72245 5.118
2.42883 1.72882 5.14298
2.40781 1.7248 5.1402
2.38986 1.72491 5.14734
2.38189 1.72498 5.1514
2.37107 1.73032 5.1744
2.34801 1.72624 5.16763
2.327 1.72324 5.16684
2.31616 1.72756 5.18786
2.29108 1.72141 5.17714
2.27923 1.72672 5.19715
2.26516 1.7216 5.18833
2.24822 1.72171 5.19546
2.23638 1.72703 5.21647
2.21433 1.72296 5.2107
2.20045 1.7262 5.22676
2.18148 1.72526 5.22991
2.17147 1.72427 5.23
2.15248 1.7223 5.23117
2.1376 1.72555 5.24724
2.11657 1.7215 5.24346
2.10576 1.72787 5.26745
2.08576 1.7259 5.26863
2.06983 1.72704 5.27773
2.05677 1.72293 5.26989
2.04187 1.72614 5.28296
2.02289 1.72519 5.28612
2.00801 1.72843 5.30118
1.98698 1.72438 5.2974
1.97208 1.72659 5.31048
1.95412 1.72669 5.31662
1.94309 1.72464 5.31273
1.92615 1.72577 5.32084
1.91434 1.73213 5.34484
1.88921 1.72391 5.32915
1.87637 1.72922 5.34917
1.85533 1.72616 5.34437
1.84532 1.72415 5.34348
1.82942 1.72736 5.35655
1.81043 1.7264 5.35871
1.79143 1.72441 5.35888
1.7745 1.72556 5.36799
1.75963 1.72982 5.38504
1.73962 1.72681 5.38324
1.73166 1.7279 5.38928
1.71268 1.72694 5.39144
1.7019 1.73538 5.4204
1.67572 1.72606 5.39773
1.65672 1.72407 5.39791
1.64493 1.73148 5.42489
1.62183 1.72531 5.41215
1.61593 1.7295 5.42514
1.59387 1.7254 5.41736
1.58414 1.73493 5.4523
1.55897 1.72662 5.43061
1.54409 1.73087 5.44666
1.522 1.72471 5.43492
1.51406 1.72683 5.44295
1.50021 1.73214 5.46298
1.47504 1.72383 5.44128
1.46018 1.72811 5.45934
1.43911 1.72399 5.45055
1.42736 1.73247 5.48252
1.40525 1.72628 5.46878
1.3973 1.72837 5.47481
1.38453 1.73683 5.50478
1.36036 1.72852 5.48309
1.34238 1.72758 5.48624
1.32444 1.72869 5.49335
1.30337 1.72458 5.48457
1.28541 1.72568 5.49069
1.27954 1.72993 5.50768
1.26053 1.72892 5.50583
1.24153 1.72693 5.50601
1.22672 1.73431 5.53101
1.20251 1.72493 5.50433
1.18766 1.72922 5.52338
1.17867 1.72926 5.52545
1.16176 1.73243 5.53653
1.1386 1.72414 5.51583
1.12273 1.7284 5.53288
1.10268 1.72533 5.52708
1.08474 1.72746 5.53518
1.06677 1.72753 5.53932
1.05884 1.72967 5.54835
1.03775 1.72551 5.53657
1.02293 1.73187 5.56059
1.00391 1.72984 5.55776
0.984896 1.72783 5.55593
0.967989 1.73102 5.56802
0.947981 1.73002 5.56718
0.936858 1.72479 5.55134
0.922058 1.73219 5.57735
0.902004 1.7291 5.57054
0.884074 1.73124 5.57965
0.866089 1.73129 5.58178
0.847097 1.73031 5.58294
0.82919 1.7335 5.59503
0.821228 1.73458 5.60007
0.800128 1.73041 5.58729
0.783236 1.73363 5.60137
0.766352 1.73786 5.61644
0.745183 1.73055 5.59471
0.726167 1.72854 5.59288
0.718298 1.73379 5.60986
0.698222 1.73066 5.60006
0.680268 1.73176 5.60618
0.661284 1.7318 5.60832
0.643314 1.73188 5.61246
0.624299 1.73086 5.61061
0.606384 1.73404 5.6217
0.596308 1.7309 5.61182
0.577331 1.73095 5.61497
0.559362 1.73203 5.61909
0.543625 1.74254 5.65305
0.521316 1.72897 5.61342
0.504455 1.73424 5.63147
0.48544 1.73323 5.62963
0.475371 1.7301 5.62075
0.458572 1.7385 5.64675
0.437286 1.72597 5.6101
0.419472 1.73334 5.63412
0.400395 1.7292 5.62433
0.382465 1.73235 5.63342
0.363396 1.72923 5.62461
0.354473 1.73238 5.63463
0.336589 1.73662 5.6497
0.298467 1.73141 5.63406
0.278374 1.72725 5.62227
0.260375 1.72726 5.62241
0.252707 1.7409 5.66527
0.232383 1.7273 5.62362
0.214569 1.73466 5.64765
0.195554 1.73365 5.64581
0.176515 1.73159 5.64098
0.158624 1.73581 5.65505
0.139594 1.73476 5.65121
0.130586 1.73475 5.65028
0.111571 1.73374 5.64844
0.092541 1.73269 5.6446
0.0736652 1.73794 5.66066
0.0556036 1.73484 5.65284
0.019298 1.73929 5.47903
0.000267822 1.73824 5.47519
-0.0177938 1.73514 5.46737
-0.0267314 1.73826 5.47539
-0.0447773 1.73619 5.46956
-0.0627379 1.73827 5.47466
-0.0807374 1.73829 5.4748
-0.0997136 1.73934 5.47792
-0.117744 1.7383 5.47408
-0.126806 1.73519 5.46619
-0.14479 1.73623 5.46831
-0.162843 1.73414 5.46147
-0.180773 1.73728 5.47056
-0.198849 1.73415 5.46075
-0.216794 1.73727 5.46784
-0.234848 1.73518 5.461
-0.243833 1.73521 5.46307
-0.26277 1.73834 5.47117
-0.280862 1.73518 5.45935
-0.298799 1.73831 5.46744
-0.316806 1.73831 5.46657
-0.334829 1.73728 5.46372
-0.352882 1.73519 5.45689
-0.362781 1.74039 5.46989
-0.379881 1.73621 5.45708
-0.397934 1.73412 5.45024
-0.415926 1.73515 5.45136
-0.434909 1.73619 5.45349
-0.452908 1.7372 5.45361
-0.461885 1.73825 5.45667
-0.479008 1.73303 5.44087
-0.497007 1.73304 5.44101
-0.515975 1.73511 5.44512
-0.533021 1.73404 5.43926
-0.552903 1.74027 5.45432
-0.570926 1.73924 5.45147
-0.579949 1.7382 5.44855
-0.597056 1.73501 5.43473
-0.615963 1.7392 5.44681
-0.633054 1.73604 5.43499
-0.651053 1.73705 5.43511
-0.670029 1.73811 5.43823
-0.68809 1.737 5.43038
-0.69802 1.74014 5.43941
-0.716027 1.74014 5.43855
-0.734072 1.73907 5.4327
-0.789069 1.74111 5.43309
-1.39208 1.73553 5.30169
-1.41109 1.73552 5.29984
-1.41942 1.7229 5.25808
-1.43645 1.72285 5.25421
2.34165 1.73156 4.98658
2.233 1.73232 5.03339
2.19911 1.73255 5.04765
2.15724 1.73284 5.06496
2.08841 1.73221 5.08749
2.06351 1.73344 5.10166
2.01163 1.7327 5.11707
1.96873 1.73192 5.1304
1.91789 1.73428 5.15275
1.86805 1.73563 5.17411
1.85908 1.73568 5.17718
1.80719 1.73494 5.19258
1.79126 1.73609 5.20169
1.77124 1.73407 5.19987
1.76225 1.73309 5.20095
1.74737 1.73633 5.21602
1.72939 1.73638 5.21915
1.7073 1.73024 5.20841
1.69343 1.73448 5.22445
1.65054 1.73574 5.23976
1.63359 1.73585 5.24689
1.6105 1.73069 5.23513
1.59661 1.73391 5.24919
1.55963 1.73098 5.25252
1.54372 1.73417 5.26459
1.51779 1.73432 5.27378
1.49982 1.73438 5.27692
1.48389 1.73654 5.28701
1.46281 1.73139 5.27624
1.44483 1.73045 5.27939
1.43895 1.73468 5.29438
1.41994 1.73368 5.29353
1.40505 1.73689 5.3076
1.38706 1.73594 5.30975
1.36702 1.73288 5.30495
1.35112 1.73608 5.31802
1.33417 1.73718 5.32413
1.3252 1.73725 5.3282
1.3041 1.73207 5.31543
1.28821 1.73529 5.32951
1.27332 1.73852 5.34457
1.25121 1.73232 5.32983
1.21732 1.73556 5.34504
1.20727 1.73248 5.33916
1.17236 1.73467 5.35039
1.15543 1.73582 5.3595
1.13641 1.7348 5.35766
1.1205 1.73697 5.36875
1.10147 1.73493 5.36492
1.09352 1.73604 5.37197
1.07659 1.73818 5.38107
1.05861 1.73823 5.3832
1.04063 1.73828 5.38634
1.02267 1.73837 5.39147
1.00363 1.73631 5.38664
0.995683 1.73842 5.39367
0.976682 1.73643 5.39385
0.959744 1.73857 5.40194
0.922713 1.73553 5.39827
0.906814 1.73874 5.41134
0.879845 1.73882 5.41554
0.860845 1.73883 5.41569
0.843883 1.73892 5.42081
0.823799 1.73477 5.41003
0.789968 1.74012 5.4322
0.770953 1.7391 5.43036
0.761938 1.73808 5.42844
0.745 1.74021 5.43654
0.725969 1.73817 5.43271
0.709046 1.74033 5.44281
0.69 1.73825 5.43699
0.670977 1.73622 5.43416
0.646116 1.7415 5.45227
0.624969 1.73424 5.43353
0.609147 1.74159 5.45655
0.591117 1.73954 5.45271
0.545087 1.73752 5.44909
0.527141 1.73964 5.45619
0.50811 1.73759 5.45237
0.471018 1.73244 5.44072
0.455188 1.73978 5.46273
0.436157 1.73773 5.45891
0.427127 1.73668 5.45499
0.409166 1.73777 5.46011
0.372174 1.73681 5.4614
0.355212 1.73789 5.46652
0.33729 1.74106 5.47661
0.32712 1.73374 5.45479
0.309245 1.73899 5.47085
0.291237 1.73799 5.47
0.273237 1.738 5.47013
0.2542 1.73694 5.46529
0.237308 1.74116 5.47936
0.219316 1.74119 5.48049
0.209278 1.73912 5.4756
0.191355 1.74228 5.48569
0.17334 1.74126 5.48384
0.155333 1.74126 5.48298
0.137334 1.74127 5.48311
0.100326 1.74029 5.4824
0.0732965 1.73925 5.47862
0.0274898 1.72374 5.24016
0.0184744 1.72272 5.23825
-0.0335863 1.71964 5.23068
-0.0766158 1.71861 5.22702
-0.562827 1.71952 5.20067
-0.657923 1.7184 5.1884
-0.735942 1.72141 5.18594
-0.788009 1.72032 5.17735
-0.80407 1.71821 5.1695
-0.822037 1.72128 5.17359
-0.840021 1.72232 5.17571
-0.847121 1.71814 5.16283
-0.864128 1.71913 5.16194
-0.881165 1.71807 5.15708
-0.900125 1.72116 5.16218
-0.933232 1.71798 5.14847
-0.943169 1.7211 5.1565
-0.978198 1.72207 5.15275
-0.995197 1.72308 5.15287
-1.01225 1.72199 5.14601
-1.0283 1.7209 5.13915
-1.04725 1.724 5.14524
-1.05529 1.72293 5.14032
-1.07041 1.71872 5.12549
-1.09032 1.7239 5.13657
-1.10541 1.72073 5.12473
-1.12631 1.72594 5.13781
-1.14333 1.72692 5.13592
-1.1623 1.72898 5.13904
-1.1684 1.72579 5.12613
-1.18541 1.72579 5.12526
-1.20343 1.72676 5.12238
-1.22237 1.73089 5.13046
-1.24233 1.73398 5.13556
-1.25643 1.7308 5.12272
-1.27443 1.73179 5.12184
-1.28538 1.73491 5.12887
-1.29853 1.72862 5.10906
-1.31751 1.73168 5.11216
-1.33357 1.73057 5.1043
-1.34866 1.7274 5.09246
-1.36276 1.72422 5.07961
-1.38466 1.73042 5.09168
-1.39074 1.72727 5.08177
-1.40585 1.72408 5.06793
-1.42092 1.72194 5.05808
2.84298 1.722 4.49688
2.82703 1.72212 4.50399
2.81906 1.72218 4.50806
2.7902 1.72248 4.52727
2.77223 1.72156 4.53142
2.7563 1.7217 4.54054
2.7215 1.72311 4.56678
2.67063 1.7204 4.58421
2.65265 1.71846 4.58737
2.63873 1.72063 4.59845
2.62873 1.71862 4.59755
2.61278 1.71774 4.60469
2.60293 1.72304 4.62469
2.58698 1.72214 4.63082
2.56901 1.72123 4.63597
2.55104 1.71929 4.63914
2.53508 1.71839 4.64527
2.52508 1.71739 4.64536
2.51116 1.71855 4.65545
2.49522 1.71868 4.66357
2.47826 1.71778 4.66971
2.46333 1.71893 4.67881
2.44839 1.71906 4.68692
2.43346 1.7192 4.69603
2.4194 1.71509 4.6882
2.40954 1.71938 4.70721
2.38851 1.71532 4.70243
2.37562 1.71756 4.71749
2.36475 1.72181 4.73451
2.34373 1.71779 4.73173
2.33576 1.71785 4.73579
2.31573 1.71482 4.73299
2.3008 1.71497 4.7421
2.28791 1.71818 4.75615
2.27196 1.7183 4.76327
2.25398 1.71635 4.76643
2.24108 1.71854 4.7785
2.23108 1.71755 4.77859
2.21309 1.71559 4.78076
2.19714 1.71571 4.78787
2.18527 1.71997 4.8049
2.16524 1.71592 4.80111
2.15439 1.72121 4.82012
2.13641 1.71927 4.82328
2.12233 1.71413 4.81347
2.10638 1.71423 4.81958
2.09552 1.71952 4.83859
2.07856 1.71861 4.84373
2.06057 1.71664 4.8449
2.04768 1.71987 4.85995
2.03767 1.71784 4.85805
2.02071 1.71795 4.86418
2.00783 1.72218 4.87922
1.98575 1.71605 4.86947
1.9739 1.72034 4.8885
1.95283 1.71523 4.88074
1.93792 1.71741 4.89182
1.93097 1.71851 4.89885
1.91196 1.7165 4.89703
1.896 1.7166 4.90315
1.88209 1.71877 4.91422
1.86923 1.72306 4.93326
1.84715 1.71792 4.9225
1.83325 1.72012 4.93557
1.82424 1.71911 4.93465
1.80727 1.71818 4.9388
1.79133 1.71931 4.9469
1.77845 1.72356 4.96294
1.75841 1.71948 4.95715
1.74351 1.72169 4.97023
1.73654 1.72277 4.97527
1.71037 1.71246 4.95361
1.70055 1.71981 4.97658
1.68462 1.72095 4.98569
1.66662 1.71897 4.98585
1.65068 1.7201 4.99396
1.63577 1.72227 5.00504
1.62574 1.72023 5.00214
1.6098 1.72236 5.01023
1.58975 1.71727 5.00346
1.57278 1.71735 5.00759
1.55582 1.71743 5.01271
1.54193 1.72065 5.02677
1.52393 1.71968 5.02792
1.51596 1.71973 5.03098
1.49796 1.71876 5.03213
1.47995 1.71675 5.0313
1.46402 1.71788 5.0394
1.45013 1.72212 5.05444
1.43214 1.72114 5.05559
1.41722 1.7233 5.06568
1.40718 1.72024 5.0608
1.38712 1.71615 5.05401
1.3712 1.71831 5.0641
1.3573 1.72151 5.07716
1.33723 1.71739 5.06837
1.32026 1.71746 5.07249
1.31849 1.72691 5.10237
1.29638 1.7207 5.08763
1.28044 1.72183 5.09573
1.26552 1.72501 5.1068
1.24441 1.71881 5.09305
1.22641 1.71683 5.09321
1.21254 1.72207 5.10924
1.20044 1.71689 5.09641
1.18763 1.72427 5.1214
1.1696 1.72122 5.11758
1.15159 1.72022 5.11673
1.13565 1.72135 5.12484
1.11974 1.72454 5.13691
1.10174 1.72355 5.13706
1.09271 1.7215 5.13316
1.07678 1.72365 5.14225
1.05879 1.72267 5.1434
1.04183 1.72376 5.14851
1.02381 1.72174 5.14667
1.00788 1.72389 5.15576
0.98986 1.72186 5.15293
0.980844 1.72083 5.15101
0.962837 1.71983 5.15016
0.94589 1.72095 5.15728
0.930999 1.72517 5.17133
0.913006 1.72419 5.17248
0.897037 1.72527 5.17658
0.889107 1.7274 5.18561
0.870029 1.72327 5.17581
0.852029 1.72228 5.17596
0.836083 1.7234 5.18307
0.818084 1.72341 5.1832
0.802146 1.72554 5.19129
0.784169 1.7256 5.19443
0.77513 1.72353 5.18953
0.759223 1.72672 5.2016
0.741208 1.7257 5.19975
0.724238 1.72578 5.20388
0.706231 1.72477 5.20303
0.689246 1.72482 5.20516
0.680238 1.72381 5.20424
0.661153 1.71966 5.19344
0.646308 1.72597 5.21347
0.627208 1.72079 5.20068
0.611293 1.72396 5.21176
0.59434 1.72606 5.21786
0.575263 1.72193 5.20806
0.56627 1.72195 5.20913
0.54927 1.72096 5.20927
0.532325 1.72308 5.21637
0.514294 1.72103 5.21253
0.498395 1.72524 5.22559
0.480379 1.72422 5.22374
0.462341 1.72216 5.21891
0.453333 1.72115 5.21799
0.418326 1.72016 5.21727
0.401365 1.72125 5.22238
0.384342 1.72022 5.21952
0.367451 1.72444 5.23359
0.349342 1.71924 5.2198
0.340366 1.72029 5.22286
0.323343 1.71926 5.22
0.30639 1.72136 5.2261
0.27136 1.71933 5.22239
0.254515 1.72564 5.24243
0.227415 1.72146 5.22969
0.210438 1.72152 5.23282
0.193439 1.72153 5.23295
0.1754 1.71947 5.22811
0.158494 1.72366 5.24018
0.140525 1.72473 5.2443
0.132425 1.72055 5.23142
0.114502 1.72371 5.24151
0.0974413 1.7216 5.23367
0.079418 1.71957 5.23083
0.0624888 1.72372 5.2399
0.0233906 1.72258 5.09419
-0.0357471 1.71636 5.07673
-0.0697153 1.71745 5.08097
-0.0867531 1.71638 5.07611
-0.458831 1.71948 5.06687
-0.508937 1.71631 5.05329
-0.52682 1.72254 5.06833
-0.552811 1.72357 5.06951
-0.568879 1.72145 5.06067
-0.601955 1.71933 5.05095
-0.620838 1.72456 5.06601
-0.635984 1.71929 5.0472
-0.643961 1.72034 5.05025
-0.661906 1.72346 5.05734
-0.69595 1.7234 5.05159
-0.711042 1.71923 5.03977
-0.752133 1.71708 5.02811
-0.771046 1.72226 5.03917
-0.785193 1.71599 5.02037
-0.806013 1.72534 5.04339
-0.835252 1.71591 5.01275
-0.852274 1.71587 5.00988
-0.865079 1.72525 5.03484
-0.89431 1.71683 5.00518
-0.911308 1.71784 5.00529
-0.944376 1.71673 4.99656
-0.96139 1.71672 4.99468
-0.972297 1.7219 5.00669
-0.987396 1.71872 4.99385
-1.00343 1.71766 4.98899
-1.01947 1.7166 4.98412
-1.03648 1.71759 4.98324
-1.05254 1.71649 4.97537
-1.07244 1.72168 4.98745
-1.07851 1.71855 4.97854
-1.09843 1.72373 4.98961
-1.11546 1.72368 4.98574
-1.13149 1.72362 4.98086
-1.14946 1.72569 4.98497
-1.16747 1.72769 4.98407
-1.17451 1.72562 4.97916
-1.19152 1.7266 4.97727
-1.21048 1.72969 4.98237
-1.22651 1.72964 4.97849
-1.24548 1.73272 4.98259
-1.27658 1.73053 4.96885
-1.28751 1.73467 4.97787
-1.32057 1.73458 4.97012
-1.3347 1.73035 4.95429
-1.35269 1.73238 4.95539
-1.3697 1.73336 4.95351
-1.37482 1.72814 4.93862
-1.39182 1.72914 4.93774
-1.40593 1.72594 4.92389
-1.4249 1.729 4.92698
-1.43317 1.71751 4.89321
2.91719 1.71545 4.26038
2.88339 1.71686 4.28662
2.86946 1.71701 4.29572
2.84161 1.71832 4.31592
2.82465 1.71741 4.32106
2.81073 1.71757 4.33116
2.80376 1.71765 4.33621
2.7868 1.71673 4.34136
2.77185 1.71585 4.34848
2.75793 1.717 4.35857
2.74502 1.71819 4.37065
2.71413 1.71742 4.3849
2.70312 1.71541 4.38401
2.68817 1.71453 4.39114
2.67222 1.71464 4.39826
2.66437 1.71893 4.41726
2.6464 1.717 4.42142
2.60449 1.71421 4.43378
2.59868 1.72159 4.45872
2.57867 1.71757 4.45693
2.55562 1.7125 4.45118
2.54068 1.71263 4.45929
2.52181 1.71389 4.47641
2.51702 1.72231 4.50433
2.49092 1.71414 4.49164
2.477 1.7153 4.50173
2.45322 1.72074 4.53084
2.42913 1.7136 4.52012
2.4313 1.72092 4.542
2.40927 1.71688 4.53822
2.38823 1.71182 4.53346
2.37938 1.71711 4.55245
2.36342 1.71621 4.55858
2.34544 1.71425 4.56075
2.33152 1.71543 4.57184
2.30148 1.71037 4.56714
2.28655 1.71052 4.57625
2.27873 1.71686 4.59922
2.25973 1.71488 4.59939
2.25596 1.72434 4.63028
2.23579 1.71401 4.60758
2.21882 1.71309 4.61173
2.21608 1.72359 4.6456
2.18995 1.71436 4.62893
2.17908 1.71862 4.64595
2.16211 1.7177 4.65109
2.14411 1.71572 4.65126
2.13614 1.71577 4.65432
2.12019 1.71588 4.66143
2.11338 1.72326 4.68638
2.07639 1.7183 4.68773
2.06553 1.72359 4.70674
2.04958 1.72369 4.71286
2.0426 1.72374 4.71591
2.01646 1.71449 4.69824
2.00254 1.71565 4.70833
1.9866 1.71678 4.71644
1.96758 1.71275 4.71364
1.95978 1.72115 4.74058
1.94567 1.71494 4.72577
1.93687 1.72233 4.75173
1.90968 1.711 4.7281
1.90904 1.72668 4.77388
1.88899 1.72161 4.76811
1.87202 1.72068 4.77225
1.84891 1.71349 4.75853
1.84707 1.7208 4.77944
1.83623 1.7261 4.79944
1.82128 1.72722 4.80654
1.80226 1.7242 4.80473
1.77609 1.71388 4.78207
1.76217 1.71605 4.79315
1.75234 1.72139 4.81515
1.7454 1.72351 4.82317
1.72328 1.7163 4.80844
1.70835 1.71845 4.81752
1.70059 1.72791 4.84844
1.67338 1.71552 4.82083
1.66563 1.72601 4.85374
1.63941 1.71362 4.82611
1.64066 1.72409 4.85795
1.62265 1.72209 4.85712
1.60568 1.72214 4.86025
1.59177 1.72435 4.87332
1.5676 1.71502 4.85064
1.55782 1.72346 4.87959
1.54161 1.71307 4.85286
1.5236 1.71107 4.85203
1.5169 1.72264 4.88991
1.49887 1.72061 4.88708
1.47368 1.71026 4.86242
1.4608 1.7135 4.87847
1.44589 1.71669 4.89053
1.44305 1.72299 4.91047
1.42916 1.72721 4.92451
1.40292 1.71377 4.8939
1.38489 1.71174 4.89107
1.37099 1.71392 4.90314
1.35916 1.72126 4.92513
1.32905 1.71407 4.91146
1.31309 1.71417 4.91758
1.29611 1.71421 4.9197
1.28117 1.71534 4.9278
1.24617 1.71237 4.92811
1.22223 1.71351 4.93627
1.18825 1.71257 4.93954
1.13935 1.7128 4.95291
1.13035 1.71281 4.95298
1.03254 1.71525 4.97868
1.00655 1.71328 4.97991
0.956606 1.71342 4.98728
0.941714 1.71764 5.00133
0.915714 1.71566 5.00156
0.897683 1.71362 4.99772
0.83176 1.71381 5.00822
0.772822 1.71397 5.01666
0.756899 1.71613 5.02675
0.722892 1.71414 5.02604
0.715985 1.71832 5.03803
0.68093 1.71425 5.03135
0.663931 1.71426 5.03148
0.631024 1.71646 5.0437
0.615063 1.71855 5.04879
0.607071 1.71857 5.04985
0.58904 1.71652 5.04601
0.57204 1.71553 5.04616
0.555025 1.71452 5.0443
0.524264 1.724 5.0754
0.515242 1.72296 5.07248
0.497196 1.72088 5.06664
0.48125 1.723 5.07373
0.463118 1.71576 5.05697
0.448351 1.72622 5.08694
0.430282 1.7231 5.07812
0.414335 1.72421 5.08522
0.405328 1.7242 5.08429
0.37129 1.72115 5.07959
0.338407 1.7264 5.09476
0.304391 1.72439 5.09305
0.295361 1.72334 5.08913
0.277299 1.72024 5.08131
0.227401 1.72446 5.09463
0.210378 1.72343 5.09177
0.201363 1.72241 5.08985
0.185487 1.72766 5.1059
0.168402 1.72351 5.09509
0.151418 1.72455 5.0972
0.134364 1.72146 5.09037
0.100458 1.72566 5.10257
0.0913886 1.72253 5.09368
0.0402972 1.71839 5.08212
0.0311849 1.72021 4.93415
0.0143322 1.7265 4.95318
-0.00178341 1.72129 4.93838
-0.0188137 1.72025 4.93452
-0.0347517 1.72238 4.94261
-0.0508441 1.71821 4.93079
-0.0678436 1.71822 4.93092
-0.0758742 1.71717 4.927
-0.0928505 1.71823 4.93011
-0.10885 1.71824 4.93023
-0.124927 1.7151 4.9204
-0.141872 1.71822 4.92748
-0.157894 1.71718 4.92461
-0.173956 1.71408 4.91678
-0.182924 1.71614 4.92082
-0.198947 1.71511 4.91795
-0.215838 1.72033 4.932
-0.231946 1.71613 4.91819
-0.247992 1.71406 4.91234
-0.272944 1.71616 4.9185
-0.289897 1.71927 4.92458
-0.305974 1.71613 4.91474
-0.322043 1.71301 4.90591
-0.33805 1.713 4.90503
-0.354057 1.713 4.90415
-0.371009 1.7161 4.91023
-0.379071 1.71299 4.90234
-0.413 1.71715 4.91153
-0.428054 1.71506 4.90468
-0.461067 1.71605 4.90291
-0.503019 1.71917 4.90918
-0.535118 1.716 4.89647
-0.551148 1.71495 4.89261
-0.567186 1.71389 4.88774
-0.584147 1.71598 4.89284
-0.592138 1.717 4.89388
-0.608222 1.71385 4.88305
-0.624229 1.71384 4.88217
-0.642143 1.71902 4.89323
-0.658173 1.71797 4.88937
-0.673242 1.71585 4.88051
-0.691218 1.71791 4.88362
-0.700171 1.72 4.88965
-0.716216 1.71892 4.88379
-0.730332 1.71371 4.86897
-0.746362 1.71367 4.86509
-0.766205 1.72197 4.88512
-0.781282 1.71884 4.87528
-0.787382 1.71465 4.86239
-0.806288 1.71984 4.87445
-0.822303 1.71982 4.87257
-0.839279 1.72188 4.87567
-0.854362 1.71973 4.86482
-0.870408 1.71765 4.85897
-0.886446 1.71759 4.85409
-0.896352 1.72177 4.8661
-0.910452 1.71859 4.85325
-0.927458 1.71959 4.85237
-0.94638 1.72375 4.86245
-0.960487 1.71955 4.84861
-0.977455 1.72263 4.8527
-0.984524 1.7195 4.8438
-1.00152 1.72152 4.84489
-1.01948 1.7236 4.849
-1.0355 1.72458 4.84711
-1.05057 1.72246 4.83825
-1.07046 1.72866 4.85131
-1.08746 1.72969 4.85242
-1.09452 1.72758 4.84451
-1.11152 1.72859 4.84462
-1.12754 1.72856 4.84174
-1.14164 1.72537 4.82889
-1.15862 1.72742 4.83099
-1.19359 1.73149 4.83419
-1.394 1.72983 4.78172
-1.40809 1.72766 4.76986
-1.45033 1.72022 4.73828
-1.46345 1.71601 4.72344
2.19686 1.7222 4.48374
2.18191 1.72232 4.49085
2.13096 1.71745 4.49731
2.06014 1.71585 4.52187
2.05129 1.72115 4.54186
2.02938 1.72233 4.55301
2.01342 1.72243 4.55913
1.98149 1.72059 4.5684
1.96755 1.72172 4.57649
1.93869 1.72401 4.59467
1.92559 1.71884 4.58285
1.88382 1.72331 4.6131
1.84985 1.72038 4.6164
1.84595 1.72459 4.63037
1.81504 1.72478 4.6416
1.79805 1.72382 4.64374
1.76714 1.72401 4.65497
1.75117 1.72409 4.66009
1.72722 1.7232 4.66629
1.71125 1.72227 4.67042
1.69836 1.72648 4.68446
1.67933 1.72244 4.68066
1.6613 1.71941 4.67784
1.65149 1.72677 4.70181
1.64043 1.72266 4.69395
1.62241 1.72064 4.69212
1.60953 1.72489 4.70815
1.58944 1.71873 4.6964
1.57142 1.71571 4.69458
1.56264 1.72513 4.72251
1.54258 1.72004 4.71573
1.5356 1.72008 4.71778
1.52375 1.72537 4.7368
1.50368 1.72126 4.72901
1.48668 1.71926 4.72817
1.47481 1.72352 4.7452
1.4568 1.72152 4.74436
1.44882 1.72157 4.74742
1.43387 1.72267 4.75352
1.41584 1.72064 4.75068
1.40296 1.72387 4.76573
1.387 1.72396 4.77085
1.36897 1.72191 4.76702
1.353 1.722 4.77214
1.34604 1.72206 4.77619
1.3311 1.7242 4.78527
1.31102 1.71906 4.7745
1.29917 1.72435 4.79351
1.28114 1.72231 4.79068
1.26414 1.72133 4.79082
1.25616 1.72136 4.79288
1.23813 1.71832 4.78906
1.22421 1.72149 4.80012
1.20723 1.72053 4.80226
1.19227 1.72163 4.80836
1.17424 1.71859 4.80454
1.16138 1.72386 4.82256
1.15338 1.72287 4.82264
1.13536 1.72185 4.82079
1.11833 1.7188 4.81696
1.10237 1.71989 4.82207
1.08743 1.72102 4.83016
1.07147 1.7221 4.83527
1.05239 1.71697 4.82549
1.04543 1.71805 4.83052
1.02946 1.71811 4.83364
1.01246 1.71712 4.83379
0.999603 1.72341 4.85279
0.982603 1.72242 4.85293
0.964579 1.72039 4.8501
0.948587 1.71942 4.85123
0.939571 1.71839 4.84932
0.922563 1.71639 4.84848
0.909718 1.7227 4.86848
0.891664 1.71961 4.86166
0.877811 1.7259 4.88068
0.860788 1.72386 4.87783
0.851756 1.72181 4.87393
0.835803 1.72291 4.88004
0.820857 1.72403 4.88713
0.802818 1.72197 4.8823
0.786834 1.72201 4.88442
0.77088 1.72311 4.89052
0.753872 1.72211 4.88967
0.747965 1.72629 4.90165
0.728818 1.71902 4.8829
0.71288 1.72115 4.89099
0.697957 1.72331 4.90107
0.678826 1.71707 4.88431
0.665019 1.72445 4.90931
0.647958 1.72135 4.90148
0.639997 1.72342 4.90651
0.621911 1.71828 4.89572
0.606981 1.72142 4.90479
0.591028 1.72252 4.91089
0.571888 1.71527 4.89314
0.558051 1.72259 4.91414
0.548982 1.71946 4.90525
0.533028 1.72056 4.91136
0.51602 1.71956 4.9105
0.500075 1.72167 4.91759
0.483013 1.71857 4.90976
0.467059 1.71967 4.91587
0.450067 1.7197 4.917
0.44313 1.72282 4.925
0.426068 1.71971 4.91718
0.410123 1.72183 4.92427
0.39203 1.71667 4.91248
0.376084 1.71878 4.91957
0.358983 1.7136 4.90677
0.344155 1.72194 4.92876
0.3351 1.71884 4.92188
0.319209 1.72406 4.93592
0.303202 1.72306 4.93505
0.286163 1.72099 4.93021
0.269109 1.7179 4.92339
0.253179 1.72105 4.93246
0.245164 1.72002 4.93054
0.228187 1.72108 4.93365
0.212204 1.72212 4.93575
0.196227 1.72218 4.93887
0.179196 1.72113 4.93502
0.163204 1.72116 4.93614
0.146282 1.72432 4.94622
0.138189 1.72015 4.93434
0.122313 1.72539 4.95039
0.105244 1.72227 4.94156
0.0881676 1.71914 4.93173
0.0722609 1.72333 4.94379
0.0552771 1.72437 4.9459
0.0392154 1.72126 4.93807
-0.0244465 1.73099 4.84939
-0.0564763 1.72995 4.84565
-0.14552 1.72793 4.84035
-0.177519 1.72895 4.84058
-0.194526 1.72895 4.8397
-0.217587 1.72585 4.83192
-0.250586 1.72687 4.83216
-0.282631 1.72581 4.82641
-0.314614 1.72686 4.82864
-0.338644 1.72582 4.82483
-0.355566 1.72998 4.8349
-0.370689 1.72475 4.81909
-0.402719 1.72372 4.81535
-0.426795 1.72159 4.80556
-0.459731 1.72573 4.81375
-0.476638 1.72992 4.82581
-0.492691 1.72783 4.81896
-0.509667 1.72988 4.82206
-0.516728 1.72777 4.81415
-0.532696 1.72984 4.81824
-0.563842 1.72358 4.79956
-0.596779 1.72773 4.80775
-0.61187 1.72456 4.79591
-0.636846 1.72662 4.79907
-0.653775 1.73077 4.80813
-0.700943 1.72548 4.78656
-0.757947 1.7275 4.78596
-0.789937 1.72954 4.78717
-0.814951 1.73053 4.78535
-0.862026 1.72941 4.77572
-1.46109 1.72773 4.63724
-1.47518 1.72557 4.62537
-1.4873 1.72134 4.60952
-1.48847 1.71301 4.58765
-1.50548 1.71501 4.58675
-1.51955 1.71287 4.57689
-1.54769 1.70963 4.55915
-1.56468 1.71166 4.56024
-1.59985 1.70736 4.53857
1.46487 1.72168 4.62028
1.42103 1.72503 4.64256
1.38803 1.72206 4.64286
1.36511 1.72322 4.65301
1.33417 1.72337 4.66125
1.32026 1.72654 4.6723
1.28933 1.72671 4.68254
1.28031 1.72467 4.67963
1.26638 1.72681 4.68871
1.24938 1.72583 4.68885
1.23442 1.72693 4.69495
1.21742 1.72494 4.69511
1.20142 1.72395 4.69524
1.17849 1.7251 4.7044
1.16355 1.72721 4.71148
1.11355 1.72327 4.71292
1.08958 1.72334 4.7171
1.05863 1.72345 4.72333
1.04473 1.72666 4.73639
1.02668 1.72358 4.73057
1.00965 1.72052 4.72574
0.989838 1.7279 4.75078
0.972822 1.72589 4.74894
0.95373 1.72072 4.73716
0.939838 1.72494 4.75121
0.9249 1.72707 4.75929
0.908923 1.72713 4.76241
0.89293 1.72615 4.76354
0.885954 1.7272 4.76658
0.838039 1.7284 4.77793
0.819976 1.72429 4.77012
0.798092 1.72853 4.78522
0.782077 1.72751 4.78336
0.76507 1.72651 4.7825
0.750131 1.72864 4.79059
0.732062 1.72452 4.78178
0.717116 1.72664 4.78886
0.675061 1.72156 4.78225
0.661185 1.72681 4.79828
0.629248 1.72895 4.80649
0.614278 1.72902 4.81061
0.598294 1.72906 4.81273
0.588225 1.72594 4.80385
0.55731 1.72912 4.81503
0.524287 1.7271 4.81231
0.509357 1.72925 4.82139
0.50135 1.72924 4.82045
0.467288 1.72514 4.81277
0.452396 1.72936 4.82682
0.435319 1.72523 4.81701
0.402242 1.7211 4.80732
0.395374 1.72736 4.82428
0.380443 1.7295 4.83336
0.363366 1.72537 4.82355
0.347413 1.72747 4.82964
0.314344 1.72336 4.82095
0.290368 1.72442 4.82412
0.258438 1.72758 4.83331
0.210455 1.72764 4.83567
0.18647 1.72769 4.83785
0.105534 1.72987 4.84643
0.020163 1.71125 4.66633
0.00420992 1.71335 4.67241
-0.0037202 1.71649 4.68143
-0.0195415 1.72484 4.70443
-0.0348354 1.71129 4.66674
-0.0507032 1.71755 4.68377
-0.0817719 1.71444 4.67505
-0.0888414 1.71131 4.66615
-0.10567 1.71965 4.68815
-0.136747 1.71553 4.67845
-0.151855 1.71133 4.66462
-0.1678 1.71344 4.67171
-0.182846 1.71137 4.66585
-0.190776 1.71551 4.67485
-0.22186 1.71137 4.66415
-0.253773 1.71655 4.67531
-0.283919 1.71029 4.65663
-0.30881 1.71552 4.67074
-0.369978 1.70924 4.64929
-0.393914 1.71337 4.65741
-0.440021 1.7092 4.64382
-0.456004 1.71124 4.64591
-0.471926 1.7154 4.65597
-0.525071 1.71016 4.63744
-0.542 1.7143 4.64651
-0.611105 1.71215 4.63306
-0.626174 1.70902 4.62422
-0.643103 1.71317 4.63329
-0.699076 1.71725 4.63665
-0.74326 1.71093 4.61307
-0.758259 1.71194 4.61317
-0.764359 1.70775 4.60028
-0.782288 1.7119 4.60935
-0.811403 1.7077 4.59463
-0.831207 1.71908 4.61962
-0.857446 1.70864 4.58896
-0.865469 1.70761 4.58604
-0.881437 1.71068 4.59012
-0.895513 1.70754 4.58027
-0.913449 1.71267 4.58833
-0.927495 1.71059 4.58246
-0.942533 1.71053 4.57758
-0.956602 1.70741 4.56873
-0.971368 1.71986 4.59866
-0.981577 1.71047 4.57187
-1.00336 1.7229 4.59985
-1.01261 1.71142 4.56709
-1.03248 1.71868 4.58413
-1.04366 1.71134 4.56032
-1.05552 1.71862 4.57931
-1.06669 1.71231 4.55748
-1.08364 1.71541 4.56356
-1.09481 1.70809 4.54175
-1.11277 1.71218 4.54683
-1.12779 1.71214 4.54394
-1.1467 1.71732 4.55501
-1.15276 1.71521 4.54709
-1.1678 1.71414 4.54221
-1.18575 1.71826 4.54929
-1.20369 1.72338 4.55635
-1.21582 1.71813 4.53952
-1.23084 1.71812 4.53763
-1.2449 1.71599 4.52877
-1.25388 1.71804 4.5318
-1.26988 1.72005 4.53189
-1.28881 1.72519 4.53996
-1.347 1.72187 4.51645
-1.35305 1.71977 4.50952
-1.36711 1.71767 4.50166
-1.38216 1.71757 4.49477
-1.39914 1.72063 4.49786
-1.4132 1.71852 4.48999
-1.43017 1.72158 4.49307
-1.44425 1.71944 4.48321
-1.44542 1.71112 4.46134
-1.45949 1.70999 4.45246
-1.47257 1.70786 4.44259
2.56121 1.71279 3.99807
2.44471 1.71385 4.06494
2.43177 1.71398 4.07303
2.40781 1.71208 4.07924
2.39184 1.71014 4.08239
2.35304 1.71257 4.10965
2.33313 1.71376 4.12179
2.30119 1.7109 4.13007
2.27432 1.71216 4.14626
2.24933 1.70821 4.1485
2.24148 1.71451 4.16847
2.22551 1.71358 4.17261
2.21155 1.71266 4.17773
2.19659 1.71175 4.18285
2.16566 1.7099 4.19212
2.14575 1.71111 4.20525
2.12977 1.70915 4.2074
2.12192 1.71545 4.22737
2.09985 1.70934 4.21862
2.08794 1.71152 4.23068
2.08097 1.71157 4.23374
2.06803 1.7117 4.24183
2.05207 1.71179 4.24695
2.03506 1.70878 4.24612
2.02009 1.70787 4.25125
2.01327 1.71521 4.2742
1.99119 1.70807 4.26347
1.99236 1.71639 4.28534
1.96823 1.70717 4.26965
1.96039 1.71349 4.29062
1.94339 1.7105 4.29079
1.92435 1.70644 4.286
1.91549 1.71172 4.30399
1.90666 1.71805 4.32596
1.88948 1.70772 4.30324
1.87657 1.70989 4.31431
1.86567 1.71311 4.32835
1.85683 1.71941 4.34832
1.82656 1.70291 4.31379
1.81773 1.70925 4.33577
1.80276 1.70932 4.33988
1.80293 1.71766 4.36276
1.78491 1.71362 4.35995
1.75191 1.70965 4.36026
1.73797 1.71078 4.36835
1.72505 1.71293 4.37842
1.71603 1.71091 4.37651
1.70721 1.71826 4.39947
1.68916 1.71418 4.39367
1.67521 1.7143 4.40077
1.65412 1.70814 4.38902
1.64018 1.70926 4.39711
1.62215 1.70622 4.39329
1.61927 1.71044 4.40825
1.60737 1.71466 4.42228
1.59651 1.71993 4.44029
1.57437 1.71067 4.42159
1.56247 1.71388 4.43564
1.5424 1.70875 4.42586
1.5346 1.71715 4.4528
1.52353 1.71303 4.44394
1.5065 1.70898 4.44013
1.50077 1.7215 4.47499
1.47556 1.70911 4.44736
1.46572 1.71543 4.46835
