-3.48942 1.24993 0.391106
-3.48452 1.24675 0.379115
-3.4896 1.24759 0.368139
-3.48964 1.24651 0.363155
-3.48374 1.24332 0.350156
-3.49181 1.24617 0.340173
-3.48599 1.24183 0.31719
-3.49406 1.24369 0.307222
-3.49215 1.24251 0.295224
-3.49319 1.24243 0.290232
-3.48729 1.23924 0.277233
-3.49436 1.24109 0.267257
-3.49445 1.23993 0.256274
-3.49453 1.23877 0.24529
-3.49661 1.23861 0.234306
-3.48871 1.23541 0.221292
-3.49674 1.23836 0.217309
-3.49083 1.23517 0.20531
-3.48893 1.233 0.193326
-3.494 1.23485 0.183335
-3.49907 1.23571 0.17336
-3.50316 1.23655 0.162376
-3.49925 1.23437 0.150377
-3.50328 1.2353 0.145393
-3.49938 1.23311 0.133395
-3.50046 1.23295 0.122404
-3.50154 1.23279 0.111413
-3.50163 1.23163 0.100429
-3.50271 1.23147 0.0894381
-3.50579 1.23231 0.0784474
-3.50583 1.23223 0.073448
-3.50392 1.23005 0.0614643
-3.50009 1.22772 0.0394668
-3.50816 1.23058 0.029484
-3.50825 1.2294 0.0175004
-3.50733 1.22924 0.00649442
-3.50138 1.22615 0.000494549
-3.50954 1.22884 -0.0204868
-3.5127 1.22852 -0.0424612
-3.51179 1.22836 -0.0534672
-3.50692 1.2251 -0.070458
-3.512 1.22694 -0.0814485
-3.51208 1.22678 -0.092447
-3.51924 1.22846 -0.114421
-3.51833 1.22729 -0.125412
-3.50942 1.22411 -0.137434
-3.51546 1.22604 -0.142418
-3.50954 1.22387 -0.153432
-3.51362 1.22471 -0.164415
-3.51471 1.22455 -0.175406
-3.52079 1.22639 -0.186389
-3.52287 1.22723 -0.197387
-3.51492 1.22414 -0.203402
-3.52099 1.22599 -0.213385
-3.51208 1.22281 -0.225407
-3.52724 1.22851 -0.24638
-3.52233 1.22533 -0.258371
-3.52541 1.22717 -0.269377
-3.39823 1.50156 1.8539
-3.40432 1.50039 1.84196
-3.40892 1.48424 1.76422
-3.40405 1.47898 1.74726
-3.41101 1.45314 1.62268
-3.41935 1.41956 1.44821
-3.42209 1.40111 1.35049
-3.43624 1.40182 1.33059
-3.43032 1.39867 1.32059
-3.43052 1.39329 1.29467
-3.4336 1.39213 1.2837
-3.43679 1.38876 1.25877
-3.44486 1.39063 1.24981
-3.43694 1.38548 1.23982
-3.44401 1.38633 1.22986
-3.43315 1.37906 1.21188
-3.43125 1.37587 1.19892
-3.43833 1.37672 1.18895
-3.44042 1.37555 1.17699
-3.43354 1.37031 1.16101
-3.44085 1.3657 1.12013
-3.44494 1.36554 1.10916
-3.44603 1.36337 1.0972
-3.44513 1.36117 1.08422
-3.44817 1.3611 1.07924
-3.44128 1.35588 1.06427
-3.44736 1.35673 1.0543
-3.43848 1.35049 1.03832
-3.44555 1.35235 1.02835
-3.44375 1.34698 1.00341
-3.45286 1.34876 0.98845
-3.45694 1.3486 0.977482
-3.45803 1.34642 0.965521
-3.46221 1.34509 0.942569
-3.44535 1.33481 0.924591
-3.44839 1.33574 0.9196
-3.45945 1.33861 0.91064
-3.44957 1.33238 0.895655
-3.45166 1.33121 0.883687
-3.46072 1.33408 0.874711
-3.45483 1.32987 0.860727
-3.46091 1.33072 0.850759
-3.45896 1.32862 0.843774
-3.45515 1.32325 0.818822
-3.45733 1.32091 0.79587
-3.45542 1.31873 0.783886
-3.46449 1.32059 0.773925
-3.46172 1.31614 0.743966
-3.45791 1.31077 0.719014
-3.459 1.30961 0.708037
-3.45904 1.30852 0.702053
-3.45713 1.30634 0.690069
-3.46738 1.30686 0.657134
-3.46257 1.3015 0.633174
-3.46418 1.2933 0.552296
-3.46526 1.29214 0.54132
-3.46635 1.29098 0.530344
-3.46952 1.28964 0.507385
-3.4697 1.2873 0.484417
-3.47082 1.28606 0.468442
-3.47191 1.28589 0.456451
-3.47307 1.28356 0.434491
-3.47316 1.2824 0.423508
-3.47346 1.27881 0.383558
-3.48153 1.28167 0.373575
-3.47763 1.27849 0.361591
-3.47879 1.27716 0.339616
-3.48192 1.27691 0.322641
-3.4801 1.27357 0.299673
-3.48325 1.27326 0.278699
-3.48838 1.27401 0.261724
-3.48256 1.26967 0.238741
-3.48763 1.27152 0.228751
-3.48771 1.27036 0.217767
-3.48581 1.26918 0.205769
-3.48901 1.26878 0.178795
-3.49417 1.26846 0.156835
-3.49326 1.2683 0.145829
-3.48935 1.26512 0.133845
-3.49143 1.26496 0.122862
-3.49547 1.26689 0.117863
-3.49255 1.26472 0.106872
-3.4948 1.26423 0.0738913
-3.49493 1.26298 0.0569085
-3.50018 1.2635 0.0239358
-3.50226 1.26334 0.0129524
-3.50642 1.26403 -0.00802943
-3.49951 1.26085 -0.020036
-3.49656 1.25976 -0.026043
-3.50263 1.26161 -0.036026
-3.50371 1.26145 -0.047017
-3.50488 1.26112 -0.0690064
-3.50097 1.25894 -0.0810053
-3.50704 1.2608 -0.0909884
-3.51109 1.26171 -0.0969722
-3.51717 1.26456 -0.10797
-3.50826 1.26039 -0.118977
-3.51034 1.26122 -0.129975
-3.51442 1.26206 -0.140958
-3.5075 1.2589 -0.151965
-3.52154 1.26383 -0.156933
-3.51962 1.26367 -0.167947
-3.51871 1.26251 -0.178938
-3.52379 1.26435 -0.189928
-3.50988 1.25816 -0.201943
-3.51605 1.25984 -0.223925
-3.52308 1.26277 -0.228916
-3.51617 1.2596 -0.239922
-3.52725 1.26444 -0.250912
-3.52733 1.26428 -0.261911
-3.41327 1.50852 1.71589
-3.40857 1.49795 1.677
-3.41984 1.49442 1.64114
-3.42294 1.49323 1.62817
-3.41745 1.47625 1.56238
-3.42164 1.47187 1.53647
-3.42113 1.45894 1.47365
-3.43428 1.45965 1.45373
-3.43438 1.45644 1.43978
-3.42049 1.44824 1.42679
-3.42756 1.4491 1.41683
-3.42169 1.44384 1.39986
-3.42787 1.44149 1.37594
-3.43096 1.44032 1.36398
-3.42913 1.43501 1.34304
-3.42923 1.43281 1.33008
-3.43739 1.43149 1.30815
-3.43252 1.42625 1.29219
-3.43271 1.42187 1.26625
-3.43187 1.41757 1.24631
-3.43426 1.40882 1.19545
-3.44157 1.40422 1.15457
-3.43778 1.3978 1.12663
-3.43702 1.39134 1.09572
-3.4411 1.39118 1.08475
-3.44319 1.39101 1.07276
-3.44329 1.38782 1.05981
-3.44837 1.38867 1.04983
-3.44447 1.38446 1.03587
-3.44557 1.38328 1.02389
-3.44263 1.38016 1.01591
-3.44272 1.37899 1.00393
-3.45088 1.37868 0.982992
-3.44508 1.37228 0.956039
-3.44518 1.3701 0.94407
-3.4542 1.37306 0.941094
-3.45738 1.37071 0.91715
-3.45049 1.3655 0.903173
-3.46155 1.36837 0.894213
-3.45267 1.36314 0.879221
-3.45671 1.36407 0.874237
-3.45888 1.36073 0.8513
-3.45308 1.35535 0.825332
-3.45531 1.3519 0.795396
-3.45457 1.34639 0.760467
-3.45576 1.34403 0.736507
-3.45898 1.3406 0.707578
-3.47403 1.34651 0.700603
-3.46323 1.3381 0.673643
-3.46033 1.33592 0.661652
-3.46472 1.33116 0.609748
-3.4678 1.33101 0.599772
-3.46499 1.32664 0.574812
-3.47002 1.32858 0.570821
-3.47119 1.32625 0.547861
-3.46728 1.32306 0.535877
-3.47835 1.32694 0.526902
-3.46846 1.32073 0.512917
-3.47453 1.32258 0.502934
-3.46859 1.31947 0.495934
-3.47084 1.31597 0.461998
-3.47093 1.31579 0.45
-3.483 1.31967 0.441032
-3.47623 1.31322 0.411073
-3.47848 1.31173 0.378107
-3.47757 1.30956 0.366131
-3.48064 1.31041 0.35614
-3.47869 1.30832 0.350155
-3.48295 1.30682 0.316205
-3.4852 1.30533 0.283239
-3.48233 1.30308 0.266249
-3.48887 1.30002 0.194334
-3.48696 1.29784 0.18235
-3.4932 1.29837 0.150385
-3.49328 1.29721 0.139401
-3.48942 1.29494 0.121403
-3.49475 1.29431 0.0784464
-3.49487 1.29305 0.0614636
-3.49812 1.29257 0.0284907
-3.49721 1.2924 0.0174847
-3.49629 1.29124 0.00649347
-3.49633 1.29115 0.000494288
-3.5005 1.29183 -0.0214874
-3.51057 1.29469 -0.0314552
-3.49967 1.2905 -0.0434771
-3.50582 1.2912 -0.0644438
-3.50595 1.29094 -0.0814415
-3.50912 1.29162 -0.103431
-3.5122 1.29246 -0.114421
-3.51428 1.2933 -0.12542
-3.50737 1.29013 -0.136426
-3.50941 1.29004 -0.142411
-3.51249 1.29088 -0.153401
-3.51457 1.29174 -0.1634
-3.51066 1.28956 -0.175398
-3.51374 1.29039 -0.186389
-3.51882 1.29225 -0.19638
-3.51991 1.29207 -0.208371
-3.50995 1.28899 -0.213401
-3.52502 1.29484 -0.224375
-3.52411 1.29368 -0.235366
-3.52619 1.29451 -0.246365
-3.52835 1.29519 -0.268361
-3.4347 1.48477 1.39436
-3.4348 1.48258 1.38139
-3.43889 1.48142 1.37043
-3.43899 1.47822 1.35648
-3.4361 1.47401 1.34252
-3.43919 1.47383 1.33054
-3.4383 1.47062 1.31658
-3.43336 1.4665 1.3086
-3.43556 1.46212 1.28268
-3.43167 1.45791 1.26871
-3.43983 1.45759 1.24678
-3.43496 1.45235 1.23082
-3.45095 1.45838 1.23185
-3.4351 1.44907 1.21186
-3.44218 1.44993 1.2019
-3.44526 1.44877 1.19094
-3.4344 1.44149 1.17296
-3.45243 1.44743 1.16801
-3.43654 1.43823 1.15503
-3.4457 1.43791 1.1331
-3.43982 1.43268 1.11813
-3.45287 1.43659 1.11117
-3.44808 1.43018 1.08422
-3.44015 1.42505 1.07524
-3.44025 1.42385 1.06225
-3.45031 1.42574 1.0543
-3.4504 1.42455 1.04132
-3.45648 1.42441 1.03136
-3.4476 1.41816 1.01539
-3.45268 1.41902 1.00541
-3.4617 1.42198 1.00243
-3.45591 1.41558 0.975482
-3.46397 1.41645 0.966529
-3.45609 1.41122 0.951545
-3.46117 1.41106 0.940584
-3.45633 1.40676 0.920608
-3.46041 1.4066 0.90964
-3.4556 1.40023 0.884695
-3.4508 1.39484 0.858735
-3.45987 1.39672 0.849774
-3.45801 1.39343 0.830806
-3.46409 1.39429 0.820838
-3.46228 1.38992 0.795885
-3.47034 1.39179 0.786917
-3.46549 1.38651 0.767956
-3.47156 1.38836 0.757973
-3.46966 1.38517 0.745004
-3.46277 1.38096 0.731013
-3.46585 1.3808 0.720037
-3.46703 1.37746 0.697092
-3.47605 1.38142 0.694101
-3.46226 1.37201 0.667133
-3.47042 1.37269 0.645181
-3.48248 1.37658 0.637213
-3.46465 1.36624 0.615229
-3.47082 1.36592 0.593277
-3.47499 1.3646 0.571325
-3.47911 1.36435 0.554357
-3.4713 1.35899 0.530375
-3.47646 1.35867 0.508415
-3.48853 1.36254 0.499448
-3.47968 1.35626 0.480471
-3.48202 1.35259 0.435537
-3.48923 1.35318 0.407579
-3.4844 1.34884 0.384604
-3.49178 1.3471 0.334678
-3.49585 1.34796 0.324695
-3.49095 1.34476 0.311703
-3.49819 1.34429 0.27976
-3.48434 1.337 0.260761
-3.50249 1.34372 0.240796
-3.49466 1.33837 0.217813
-3.48685 1.33301 0.19383
-3.50196 1.3388 0.178856
-3.50703 1.33966 0.16888
-3.49413 1.33346 0.155873
-3.49131 1.33111 0.132883
-3.50242 1.3349 0.117909
-3.5095 1.33674 0.106933
-3.4926 1.32855 0.0949255
-3.50883 1.33409 0.0629615
-3.50493 1.33091 0.0509775
-3.49997 1.32882 0.0449703
-3.50805 1.33167 0.0349874
-3.50313 1.32951 0.023981
-3.51229 1.33219 0.00200729
-3.50439 1.32801 -0.00999201
-3.50051 1.32477 -0.0259755
-3.51359 1.33061 -0.036965
-3.50967 1.32845 -0.047964
-3.51397 1.32787 -0.0869285
-3.5232 1.3314 -0.118916
-3.5163 1.32722 -0.130907
-3.52437 1.33108 -0.140905
-3.5245 1.33083 -0.157903
-3.51275 1.32433 -0.1909
-3.52683 1.33018 -0.201882
-3.52004 1.32576 -0.229871
-3.51413 1.32359 -0.240885
-3.52521 1.32844 -0.251875
-3.52229 1.32627 -0.262866
-3.51438 1.3231 -0.273881
-3.4517 1.49085 1.12836
-3.45478 1.48969 1.1174
-3.44188 1.4825 1.1054
-3.44795 1.48336 1.09544
-3.44905 1.48116 1.08247
-3.45313 1.48102 1.07251
-3.45124 1.47781 1.05854
-3.45532 1.47765 1.04757
-3.4574 1.47649 1.0366
-3.45446 1.47337 1.02862
-3.45755 1.47321 1.01765
-3.45066 1.46798 1.00267
-3.45375 1.46681 0.99071
-3.45385 1.46463 0.978741
-3.45294 1.46245 0.966765
-3.46699 1.46734 0.958797
-3.46206 1.46422 0.950805
-3.46115 1.46104 0.938844
-3.46523 1.46088 0.927875
-3.46333 1.45869 0.914892
-3.46243 1.4555 0.901931
-3.46451 1.45434 0.890962
-3.46261 1.45214 0.877978
-3.46665 1.45307 0.872994
-3.46873 1.45191 0.862026
-3.46883 1.44973 0.850057
-3.46892 1.44855 0.838073
-3.47101 1.44738 0.826105
-3.47409 1.44722 0.815129
-3.47223 1.44395 0.797161
-3.47232 1.44177 0.785192
-3.4754 1.44161 0.774216
-3.47749 1.44044 0.762248
-3.47758 1.43926 0.750264
-3.47568 1.43608 0.738295
-3.47871 1.43701 0.733304
-3.47881 1.43483 0.721335
-3.4799 1.43465 0.709344
-3.47409 1.42828 0.684391
-3.47939 1.42469 0.644479
-3.48482 1.41985 0.587583
-3.47789 1.41573 0.579591
-3.48803 1.41844 0.559625
-3.48913 1.41726 0.547649
-3.48839 1.41274 0.512705
-3.48652 1.40949 0.495737
-3.4906 1.41033 0.484754
-3.49078 1.40799 0.461787
-3.49086 1.40683 0.450803
-3.489 1.40456 0.43282
-3.4831 1.39936 0.419851
-3.48926 1.40006 0.398884
-3.48436 1.39686 0.385892
-3.49151 1.39856 0.364918
-3.49655 1.39949 0.359942
-3.48973 1.39413 0.335967
-3.49581 1.39598 0.325983
-3.49798 1.39466 0.304016
-3.50306 1.3965 0.293026
-3.4892 1.38921 0.274027
-3.50027 1.39308 0.265052
-3.50435 1.39292 0.254083
-3.50244 1.39174 0.242085
-3.49854 1.38856 0.230101
-3.50266 1.38933 0.214118
-3.50274 1.38817 0.203134
-3.49292 1.3828 0.179137
-3.49401 1.38264 0.168146
-3.50508 1.3865 0.158171
-3.49717 1.38232 0.146171
-3.49422 1.38023 0.140179
-3.50529 1.38409 0.130204
-3.50637 1.38393 0.119213
-3.50046 1.38076 0.108214
-3.50554 1.3816 0.0972382
-3.50862 1.38244 0.0862474
-3.49768 1.37733 0.0792397
-3.50675 1.38119 0.0692495
-3.50783 1.38102 0.0582586
-3.50692 1.37986 0.0472674
-3.511 1.3807 0.0362842
-3.50209 1.37652 0.0242773
-3.50617 1.37737 0.014294
-3.5142 1.3803 0.00931048
-3.51329 1.38014 -0.00169553
-3.52045 1.38182 -0.0236695
-3.51454 1.37864 -0.0356685
-3.50963 1.37547 -0.0466602
-3.51971 1.37931 -0.0576427
-3.51375 1.37724 -0.0626575
-3.50984 1.37506 -0.0746563
-3.51791 1.37791 -0.0846392
-3.511 1.37473 -0.0966458
-3.51309 1.37457 -0.107629
-3.51017 1.37341 -0.118635
-3.51125 1.37324 -0.129626
-3.51629 1.37517 -0.134618
-3.51737 1.37501 -0.145609
-3.51945 1.37585 -0.156607
-3.51954 1.37569 -0.167605
-3.52562 1.37753 -0.178588
-3.5247 1.37736 -0.189594
-3.51879 1.37418 -0.201593
-3.52683 1.37711 -0.206577
-3.52091 1.37495 -0.217591
-3.525 1.37679 -0.228589
-3.52908 1.37763 -0.239572
-3.52416 1.37546 -0.250579
-3.52225 1.3743 -0.261577
-3.53133 1.37814 -0.272567
-3.46523 1.53979 0.920707
-3.45834 1.53456 0.90573
-3.46243 1.5344 0.894762
-3.4695 1.53626 0.884786
-3.45966 1.52794 0.863832
-3.47372 1.53283 0.855865
-3.46384 1.5266 0.84088
-3.47091 1.52746 0.830919
-3.4711 1.5241 0.806967
-3.47731 1.52269 0.779031
-3.48023 -0.364064 2.70025
-3.40451 -0.300232 4.65
-3.40079 -0.299798 4.61196
-3.40722 -0.300622 4.55601
-3.39843 -0.300043 4.52794
-3.44495 -0.303819 3.5282
-3.46596 -0.305712 3.12933
-3.46017 -0.305131 3.10128
-3.47393 -0.306586 2.86737
-3.47963 -0.306959 2.77441
-3.48042 -0.307514 2.66941
-3.48354 -0.307749 2.65343
-3.39089 -0.26903 4.59643
-3.39805 -0.269351 4.57448
-3.39434 -0.269916 4.53646
-3.40448 -0.270175 4.51854
-3.40866 -0.270543 4.49357
-3.399 -0.270216 4.44849
-3.4011 -0.270407 4.4355
-3.40232 -0.270836 4.40652
-3.40749 -0.271172 4.38356
-3.41762 -0.271417 4.36663
-3.41213 -0.271428 4.29858
-3.41643 -0.272002 4.25962
-3.41961 -0.27137 4.23463
-3.41191 -0.271953 4.19557
-3.42401 -0.272152 4.18167
-3.43539 -0.274823 3.86575
-3.43975 -0.274531 3.81777
-3.44093 -0.274885 3.79378
-3.44003 -0.275079 3.78078
-3.44122 -0.275448 3.75579
-3.43942 -0.275849 3.72878
-3.44259 -0.275173 3.70679
-3.44475 -0.275497 3.6848
-3.44395 -0.275882 3.6588
-3.44027 -0.276507 3.61678
-3.44045 -0.276862 3.59278
-3.44116 -0.277269 3.49778
-3.44721 -0.277353 3.49182
-3.44044 -0.277817 3.46078
-3.45122 -0.278334 3.35785
-3.4571 -0.279063 3.24089
-3.4608 -0.279452 3.14691
-3.45434 -0.280508 3.07587
-3.45869 -0.281201 3.0289
-3.45984 -0.280482 3.0099
-3.46122 -0.281236 2.95891
-3.47229 -0.281361 2.95
-3.47343 -0.281642 2.93101
-3.47359 -0.281953 2.91001
-3.47587 -0.282514 2.87203
-3.47568 -0.283098 2.76502
-3.46688 -0.283504 2.73796
-3.48554 -0.283779 2.65109
-3.48469 -0.284076 2.63109
-3.48091 -0.284523 2.60106
-3.47934 -0.285353 2.54505
-3.48458 -0.284824 2.51308
-3.47868 -0.285035 2.49904
-3.48974 -0.285146 2.49112
-3.48491 -0.285475 2.46909
-3.48404 -0.285742 2.45108
-3.49041 -0.286448 2.40313
-3.49246 -0.28655 2.39615
-3.4005 -0.230256 4.3779
-3.40667 -0.230577 4.35595
-3.40527 -0.231748 4.27694
-3.40549 -0.232192 4.24695
-3.40891 -0.233004 4.19198
-3.42606 -0.232303 4.17109
-3.42033 -0.23284 4.13505
-3.42352 -0.233208 4.11008
-3.41878 -0.233715 4.07604
-3.41899 -0.234129 4.04805
-3.42019 -0.234528 4.02106
-3.42644 -0.235012 3.98811
-3.41971 -0.23555 3.95206
-3.43082 -0.23575 3.93815
-3.43003 -0.236165 3.91014
-3.42626 -0.236627 3.87912
-3.42993 -0.237927 3.79115
-3.43329 -0.237636 3.74317
-3.4424 -0.237851 3.72824
-3.43773 -0.238506 3.6842
-3.43791 -0.238861 3.66021
-3.43928 -0.239586 3.61122
-3.44045 -0.239926 3.58823
-3.4347 -0.240404 3.55619
-3.45155 -0.242065 3.44333
-3.44982 -0.242614 3.40632
-3.45017 -0.243295 3.36032
-3.44637 -0.243697 3.3333
-3.44753 -0.243007 3.31229
-3.4606 -0.243131 3.30339
-3.45383 -0.24358 3.27334
-3.45407 -0.244069 3.24035
-3.45822 -0.244347 3.22138
-3.44944 -0.244798 3.19132
-3.4625 -0.244907 3.18342
-3.45498 -0.245845 3.12036
-3.45215 -0.246188 3.09735
-3.45728 -0.246436 3.08039
-3.46935 -0.24656 3.07148
-3.46157 -0.246995 3.04242
-3.46723 -0.248294 2.95447
-3.45943 -0.2487 2.92741
-3.46257 -0.248964 2.90944
-3.46338 -0.249563 2.80144
-3.47446 -0.249703 2.79152
-3.47142 -0.251601 2.66351
-3.47858 -0.251906 2.64257
-3.47475 -0.25225 2.61954
-3.47338 -0.25348 2.53654
-3.4765 -0.253714 2.52056
-3.48273 -0.254169 2.48961
-3.48485 -0.254404 2.47363
-3.48233 -0.255354 2.40961
-3.40073 -0.163827 4.47393
-3.40416 -0.164668 4.41696
-3.41849 -0.165295 4.37407
-3.4119 -0.167114 4.31904
-3.41609 -0.167481 4.29407
-3.42643 -0.16814 4.24916
-3.42863 -0.168538 4.22217
-3.41896 -0.170182 4.17912
-3.43039 -0.171017 4.12221
-3.43478 -0.171784 4.07025
-3.43232 -0.173852 3.99825
-3.43868 -0.174558 3.9503
-3.44176 -0.177673 3.80735
-3.43799 -0.178135 3.77632
-3.44749 -0.179105 3.7104
-3.44282 -0.180746 3.66738
-3.45112 -0.181332 3.62745
-3.43689 -0.183852 3.52537
-3.43905 -0.184177 3.50338
-3.45429 -0.184639 3.4715
-3.45922 -0.187457 3.34856
-3.45641 -0.187829 3.32354
-3.46254 -0.188077 3.30659
-3.45972 -0.188449 3.28157
-3.45485 -0.188704 3.26454
-3.4532 -0.189387 3.21853
-3.45138 -0.189743 3.19452
-3.46047 -0.189914 3.18259
-3.45468 -0.191333 3.15456
-3.45584 -0.191643 3.13357
-3.46187 -0.191698 3.12962
-3.4554 -0.192739 3.05957
-3.46053 -0.192987 3.04261
-3.45671 -0.193345 3.01859
-3.47573 -0.193376 3.01573
-3.45992 -0.193758 2.99061
-3.49276 -0.204286 2.48095
-3.48196 -0.204678 2.45487
-3.48109 -0.204946 2.43686
-3.40487 -0.124184 4.58439
-3.40599 -0.125405 4.56941
-3.4082 -0.125818 4.54143
-3.41239 -0.1262 4.51547
-3.40867 -0.127736 4.47945
-3.41682 -0.128041 4.45852
-3.41903 -0.128454 4.43054
-3.41234 -0.130051 4.3905
-3.40651 -0.130396 4.36746
-3.41763 -0.130625 4.35155
-3.40894 -0.131238 4.31049
-3.42203 -0.131406 4.29858
-3.42127 -0.132881 4.2666
-3.42544 -0.133218 4.24363
-3.42963 -0.133571 4.21966
-3.42577 -0.134855 4.20065
-3.42004 -0.135392 4.16461
-3.43314 -0.135575 4.15171
-3.42485 -0.137988 4.05667
-3.41802 -0.138318 4.03462
-3.42855 -0.140347 3.96472
-3.42379 -0.141824 3.9327
-3.43014 -0.142501 3.88675
-3.42627 -0.14277 3.86873
-3.43162 -0.144447 3.82278
-3.43182 -0.144832 3.79679
-3.43399 -0.145171 3.77381
-3.43715 -0.145495 3.75183
-3.44098 -0.148106 3.64288
-3.44314 -0.14943 3.62092
-3.44927 -0.149677 3.60396
-3.44261 -0.150348 3.55892
-3.44016 -0.152431 3.48592
-3.44133 -0.152771 3.46293
-3.45044 -0.152971 3.449
-3.45268 -0.154444 3.41704
-3.455 -0.155079 3.37406
-3.4532 -0.155465 3.34804
-3.45039 -0.156837 3.32304
-3.46355 -0.157139 3.30214
-3.45411 -0.159256 3.22709
-3.46123 -0.159473 3.21215
-3.46155 -0.160109 3.16915
-3.45766 -0.160334 3.15412
-3.4608 -0.160599 3.13615
-3.46393 -0.161863 3.11819
-3.47105 -0.16208 3.10324
-3.47433 -0.16264 3.06527
-3.47419 -0.165328 2.95129
-3.47732 -0.165577 2.93432
-3.4706 -0.16713 2.89729
-3.47968 -0.167286 2.88636
-3.47686 -0.167629 2.86334
-3.48197 -0.167847 2.84838
-3.48013 -0.16816 2.82736
-3.48674 -0.170354 2.74643
-3.48525 -0.172362 2.67844
-3.47744 -0.172738 2.65339
-3.48854 -0.175892 2.5075
-3.49676 -0.176315 2.47856
-3.49536 -0.178501 2.39857
-3.40268 -0.0818645 4.60575
-3.40787 -0.0832308 4.5808
-3.41405 -0.0835817 4.55685
-3.41429 -0.0850553 4.52487
-3.41355 -0.0855593 4.49087
-3.41984 -0.0871321 4.45193
-3.42825 -0.0928948 4.26506
-3.43676 -0.102804 3.93322
-3.43716 -0.104589 3.88024
-3.43954 -0.106342 3.82928
-3.44578 -0.106797 3.79833
-3.44536 -0.108952 3.72035
-3.44258 -0.110383 3.69134
-3.45488 -0.114921 3.51948
-3.4628 -0.118722 3.39758
-3.46713 -0.124324 3.22167
-3.47275 -0.126534 3.13974
-3.47064 -0.130298 3.02076
-3.47501 -0.131005 2.9728
-3.47913 -0.132239 2.95684
-3.48043 -0.132831 2.91686
-3.47675 -0.13447 2.87385
-3.47889 -0.134735 2.85586
-3.48095 -0.134852 2.84788
-3.47812 -0.135194 2.82486
-3.47728 -0.136506 2.80387
-3.48239 -0.136724 2.78891
-3.47558 -0.137099 2.76386
-3.4807 -0.137318 2.7489
-3.48382 -0.138552 2.73294
-3.4829 -0.138716 2.72193
-3.47807 -0.13906 2.6989
-3.47921 -0.139326 2.68091
-3.48234 -0.140575 2.66395
-3.48361 -0.141107 2.62796
-3.48374 -0.141374 2.60996
-3.4868 -0.141475 2.60299
-3.48792 -0.142726 2.58601
-3.48906 -0.142992 2.56802
-3.49132 -0.143494 2.53404
-3.49742 -0.143696 2.52009
-3.49557 -0.144994 2.50009
-3.4969 -0.14563 2.45711
-3.40149 -0.0505282 4.62828
-3.40569 -0.0519249 4.60133
-3.40494 -0.0524141 4.56832
-3.41444 -0.0553843 4.50243
-3.4117 -0.0559045 4.46741
-3.42283 -0.0571332 4.45151
-3.4191 -0.0576838 4.41449
-3.41438 -0.0592203 4.37847
-3.41659 -0.0606332 4.3505
-3.41967 -0.0607938 4.33953
-3.42287 -0.0611765 4.31355
-3.41319 -0.0628202 4.2705
-3.42133 -0.0640955 4.25158
-3.43244 -0.0642947 4.23766
-3.43386 -0.0661228 4.18169
-3.43001 -0.0664218 4.16166
-3.43221 -0.0678051 4.1357
-3.43341 -0.068204 4.10871
-3.43284 -0.0710335 4.05274
-3.43305 -0.0714479 4.02474
-3.44117 -0.0716937 4.00781
-3.43653 -0.073393 3.96079
-3.43494 -0.0762084 3.90581
-3.43832 -0.0779462 3.85586
-3.43544 -0.0781852 3.83983
-3.44177 -0.0798321 3.7959
-3.44099 -0.0802473 3.7679
-3.43523 -0.0817252 3.73587
-3.44731 -0.0818793 3.72496
-3.44154 -0.0833424 3.69394
-3.44759 -0.0834269 3.68798
-3.45373 -0.0836889 3.67003
-3.44067 -0.0885491 3.54499
-3.45275 -0.0887032 3.53408
-3.45112 -0.0904299 3.48509
-3.4648 -0.0927525 3.39521
-3.46267 -0.0964716 3.27923
-3.46276 -0.0976343 3.26825
-3.47275 -0.101581 3.13637
-3.48369 -0.109379 2.87953
-3.49103 -0.114994 2.70264
-3.49712 -0.124091 2.42578
-3.40933 -0.0142599 4.6458
-3.40793 -0.0223996 4.43388
-3.42015 -0.0238201 4.40499
-3.41049 -0.0254934 4.35994
-3.4226 -0.0256919 4.34603
-3.41392 -0.0273348 4.30298
-3.4302 -0.0288707 4.26612
-3.43472 -0.031889 4.19719
-3.42305 -0.0335489 4.15312
-3.42326 -0.0349633 4.12514
-3.42875 -0.0369217 4.0602
-3.43491 -0.0382133 4.04027
-3.43334 -0.0400731 3.98227
-3.44048 -0.0413344 3.96434
-3.4388 -0.0429722 3.92135
-3.4291 -0.0445567 3.8823
-3.43525 -0.0448484 3.86234
-3.4404 -0.0461407 3.8424
-3.4406 -0.0465256 3.8164
-3.4507 -0.0467255 3.80248
-3.44306 -0.0494416 3.75446
-3.45336 -0.0500116 3.71554
-3.44067 -0.0526278 3.67447
-3.445 -0.0542761 3.63052
-3.44609 -0.054453 3.61853
-3.45024 -0.0547461 3.59857
-3.44645 -0.0561634 3.57055
-3.44303 -0.0593059 3.49356
-3.45611 -0.0594444 3.48366
-3.45124 -0.0596997 3.46663
-3.45737 -0.0609469 3.44969
-3.46384 -0.062875 3.38676
-3.4656 -0.0663691 3.28581
-3.46925 -0.0696397 3.19987
-3.46834 -0.069818 3.18787
-3.46652 -0.0711746 3.16387
-3.47478 -0.072672 3.12995
-3.46998 -0.0730753 3.10292
-3.46327 -0.0746428 3.06489
-3.46641 -0.0759069 3.04693
-3.47252 -0.0761246 3.03197
-3.47582 -0.0776996 2.99302
-3.47711 -0.0782762 2.95403
-3.46627 -0.0795949 2.93296
-3.47039 -0.0798289 2.917
-3.47566 -0.081358 2.88105
-3.48177 -0.0815757 2.8661
-3.48292 -0.0828561 2.84712
-3.48413 -0.0832698 2.81914
-3.48328 -0.0845665 2.79915
-3.48044 -0.0848943 2.77713
-3.48457 -0.0851282 2.76116
-3.4889 -0.0867913 2.71621
-3.48309 -0.0881509 2.69218
-3.48024 -0.0884639 2.67116
-3.48138 -0.0897295 2.65319
-3.4906 -0.0901522 2.62426
-3.49677 -0.0904883 2.60131
-3.48598 -0.0919107 2.57324
-3.48526 -0.093459 2.53626
-3.48043 -0.0947882 2.51424
-3.49846 -0.0938344 2.51036
-3.48799 -0.0968783 2.44031
-3.48415 -0.0971921 2.41929
-3.49521 -0.0973173 2.41037
-3.49634 -0.0985681 2.3934
-3.50051 -0.0988909 2.37143
-3.50561 -0.0990945 2.35747
-3.41543 0.0254885 4.62826
-3.42036 0.0196711 4.50536
-3.42048 0.0184492 4.49038
-3.43054 0.012369 4.34953
-3.45029 -0.00895984 3.85392
-3.44384 -0.0130452 3.78093
-3.45182 -0.0179641 3.65104
-3.46785 -0.0299349 3.3823
-3.46405 -0.0303375 3.35528
-3.46521 -0.0316475 3.3343
-3.46597 -0.0361274 3.23436
-3.47809 -0.0413246 3.08551
-3.47994 -0.0459815 2.97357
-3.41628 0.0617369 4.64473
-3.42345 0.0604164 4.6228
-3.41862 0.0590724 4.59978
-3.4159 0.0575227 4.56278
-3.42035 0.0546524 4.50385
-3.43107 0.0502538 4.40898
-3.45694 0.00580079 3.49971
-3.4856 -0.0213129 2.88324
-3.48855 -0.0271761 2.75733
-3.49747 -0.0379301 2.50352
-3.50543 -0.0428046 2.37664
-3.50655 -0.0430407 2.36065
-3.42013 0.0969876 4.66124
-3.40653 0.0942079 4.60917
-3.4236 0.094087 4.6003
-3.42086 0.0925669 4.5653
-3.42209 0.0901089 4.53434
-3.4263 0.0887123 4.50739
-3.42751 0.0872987 4.47941
-3.41477 0.0847861 4.44535
-3.42193 0.0844804 4.42441
-3.43307 0.0762383 4.27259
-3.43989 0.0706445 4.16471
-3.44339 0.06667 4.09879
-3.43192 0.0626254 4.02875
-3.44343 0.0596271 3.96087
-3.44156 0.0583741 3.94387
-3.43284 0.05682 3.90683
-3.43304 0.0554352 3.88084
-3.44334 0.0528506 3.84096
-3.43878 0.0499887 3.78295
-3.44481 0.049919 3.778
-3.44303 0.0485032 3.75
-3.44459 0.0444089 3.67607
-3.44576 0.0430693 3.65309
-3.45334 0.0329807 3.44427
-3.46443 0.032811 3.43235
-3.4608 0.030083 3.38336
-3.46024 0.027224 3.32539
-3.46968 0.0243722 3.2675
-3.46786 0.0230156 3.2435
-3.46305 0.0216272 3.21748
-3.46016 0.0204179 3.20347
-3.46593 0.015912 3.10157
-3.47403 0.0157106 3.08763
-3.46418 0.0144222 3.06857
-3.47275 0.0103182 2.99369
-3.47588 0.0100539 2.97571
-3.47801 0.00880381 2.95875
-3.47611 0.00860993 2.94573
-3.47328 0.0072674 2.92273
-3.47884 0.00417587 2.84881
-3.47708 0.00171575 2.81782
-3.47623 0.00141898 2.79782
-3.47737 0.00013857 2.77885
-3.47979 -0.00267389 2.7239
-3.48212 -0.00433844 2.67893
-3.49135 -0.00577585 2.64902
-3.49248 -0.00602676 2.63203
-3.48666 -0.00738628 2.608
-3.49992 -0.0088948 2.57312
-3.50105 -0.00914571 2.55613
-3.49536 -0.0117568 2.51512
-3.49748 -0.0119921 2.49914
-3.49556 -0.0121416 2.48912
-3.50464 -0.0122979 2.47819
-3.48788 -0.0147689 2.4471
-3.50292 -0.0148468 2.44121
-3.5063 -0.0165847 2.39126
-3.50636 -0.0167031 2.38326
-3.49256 -0.0191127 2.35619
-3.50264 -0.0192535 2.34626
-3.41301 0.128217 4.54171
-3.41721 0.126835 4.51576
-3.41745 0.125361 4.48378
-3.42758 0.124117 4.46687
-3.41892 0.121445 4.42184
-3.433 0.121292 4.41094
-3.42147 0.117366 4.34891
-3.43555 0.117213 4.33801
-3.43566 0.100083 4.05923
-3.44182 0.0987768 4.03829
-3.43201 0.0973996 4.01323
-3.43321 0.0960007 3.98626
-3.44035 0.0947395 3.96833
-3.44155 0.0933407 3.94136
-3.44473 0.0920025 3.9184
-3.44394 0.0905874 3.89041
-3.44612 0.0892337 3.86644
-3.44623 0.0880266 3.85246
-3.44047 0.0865487 3.82043
-3.43869 0.0841181 3.79145
-3.44503 0.0824565 3.74652
-3.4472 0.0811176 3.72355
-3.45541 0.0797091 3.69563
-3.46094 0.0756917 3.62672
-3.4522 0.0731673 3.59169
-3.46428 0.0730132 3.58078
-3.45959 0.0714027 3.53976
-3.46374 0.0701097 3.51981
-3.46095 0.068708 3.4928
-3.46113 0.0673528 3.46882
-3.46627 0.0660753 3.44988
-3.46455 0.0635264 3.4129
-3.4677 0.0632473 3.39392
-3.47119 0.0592729 3.328
-3.46955 0.0565759 3.28102
-3.46169 0.055289 3.26198
-3.46187 0.0539486 3.239
-3.4779 0.0548861 3.2341
-3.46517 0.0523588 3.19904
-3.46831 0.0510799 3.18008
-3.48039 0.0509406 3.17017
-3.47857 0.049584 3.14617
-3.47964 0.0494515 3.13718
-3.47881 0.0481104 3.11419
-3.48194 0.0468611 3.09723
-3.47714 0.0454579 3.07021
-3.4854 0.0439605 3.03629
-3.48365 0.0424707 3.0033
-3.47686 0.0400661 2.97628
-3.48412 0.0385532 2.94135
-3.48229 0.0372263 2.91935
-3.48938 0.0370389 2.90641
-3.4825 0.0357971 2.89037
-3.48961 0.0355949 2.87643
-3.48778 0.0342679 2.85443
-3.48991 0.034003 2.83645
-3.49204 0.0327529 2.81948
-3.49241 0.0300278 2.77051
-3.48674 0.0273723 2.72651
-3.49001 0.0258565 2.69155
-3.49334 0.0242075 2.64759
-3.49987 0.0211759 2.57768
-3.49723 0.0184634 2.52969
-3.4975 0.0159308 2.49372
-3.5026 0.015742 2.48076
-3.48783 0.0142871 2.45067
-3.50287 0.0142092 2.44478
-3.50804 0.0128873 2.42284
-3.50049 0.0100083 2.36382
-3.41886 0.170438 4.69115
-3.41107 0.168018 4.66312
-3.41278 0.161627 4.56922
-3.4281 0.160002 4.52635
-3.42835 0.157529 4.49438
-3.41758 0.155062 4.46333
-3.42473 0.153771 4.4434
-3.43753 0.148211 4.33757
-3.44835 0.124712 3.96595
-3.45153 0.123359 3.94199
-3.44975 0.120929 3.91301
-3.4551 0.118252 3.86708
-3.45082 0.112828 3.77111
-3.45003 0.110427 3.74414
-3.46112 0.110243 3.73122
-3.46296 0.103616 3.62132
-3.46052 0.099504 3.54635
-3.46071 0.0971342 3.52139
-3.45584 0.095879 3.50437
-3.46098 0.0956162 3.48641
-3.45619 0.0931983 3.4584
-3.47025 0.09409 3.45049
-3.48423 0.0712529 3.05588
-3.41851 0.197147 4.46872
-3.42568 0.195826 4.44679
-3.42196 0.192276 4.40981
-3.4212 0.190802 4.37782
-3.42527 0.189657 4.36787
-3.4255 0.188213 4.33789
-3.43189 0.184448 4.28598
-3.44004 0.183172 4.26706
-3.44323 0.181805 4.2421
-3.43245 0.179368 4.21305
-3.44554 0.179185 4.20015
-3.43509 0.173111 4.12815
-3.44266 0.169007 4.05326
-3.44277 0.167785 4.03828
-3.44991 0.166524 4.02035
-3.44141 0.16154 3.95435
-3.44657 0.160233 3.9334
-3.45271 0.159956 3.91445
-3.45182 0.158734 3.89946
-3.44906 0.156273 3.86847
-3.44628 0.154842 3.83947
-3.44847 0.152473 3.81452
-3.44766 0.151088 3.78853
-3.44687 0.148688 3.76155
-3.45697 0.148488 3.74763
-3.44518 0.146079 3.72057
-3.45033 0.144787 3.70063
-3.44952 0.143402 3.67464
-3.46359 0.143279 3.66574
-3.4608 0.141862 3.63774
-3.46396 0.140554 3.61678
-3.45829 0.136913 3.57379
-3.46641 0.136682 3.55785
-3.46461 0.134281 3.53087
-3.45487 0.131771 3.49683
-3.461 0.131523 3.47987
-3.46938 0.127775 3.42899
-3.47469 0.126171 3.38804
-3.4709 0.123769 3.36105
-3.47762 0.118368 3.26616
-3.4801 0.114422 3.20223
-3.4825 0.110639 3.1493
-3.48068 0.109298 3.1263
-3.47702 0.106614 3.08031
-3.48513 0.105413 3.06638
-3.48552 0.102643 3.01442
-3.48698 0.0987561 2.95448
-3.48133 0.0960562 2.90747
-3.48736 0.0960014 2.90352
-3.49348 0.0947838 2.88858
-3.48086 0.0910197 2.83753
-3.49308 0.0905992 2.80863
-3.48719 0.0893729 2.7936
-3.48855 0.0787093 2.61374
-3.49465 0.0775214 2.60081
-3.50076 0.0773185 2.58685
-3.49811 0.0746208 2.53987
-3.49527 0.0733079 2.51886
-3.49739 0.0720726 2.50289
-3.50264 0.0706027 2.47095
-3.50774 0.0703991 2.45699
-3.50907 0.0677636 2.41403
-3.50026 0.0663871 2.38898
-3.49541 0.0650727 2.36796
-3.50847 0.0649785 2.36106
-3.41818 0.238719 4.64212
-3.4146 0.234887 4.58615
-3.42299 0.231124 4.53426
-3.42817 0.229772 4.51031
-3.42544 0.226252 4.47534
-3.43458 0.225978 4.45641
-3.43074 0.223664 4.43541
-3.4379 0.222358 4.41448
-3.44011 0.220946 4.38652
-3.43463 0.214935 4.31856
-3.43286 0.212475 4.28757
-3.44189 0.213422 4.28363
-3.46696 0.166523 3.61442
-3.4677 0.159088 3.51752
-3.47085 0.157794 3.49756
-3.47654 0.143483 3.27379
-3.47472 0.141126 3.2498
-3.42252 0.264039 4.46076
-3.43114 0.257831 4.3789
-3.43027 0.256579 4.36191
-3.42554 0.253043 4.32592
-3.43568 0.252784 4.308
-3.43788 0.2504 4.28205
-3.44107 0.249018 4.25609
-3.43437 0.245436 4.21709
-3.44343 0.224417 3.94543
-3.45552 0.224248 3.93352
-3.44086 0.219571 3.88847
-3.44652 0.213287 3.8016
-3.46059 0.214164 3.79269
-3.45551 0.204355 3.67078
-3.4666 0.204185 3.65886
-3.45984 0.200707 3.62686
-3.45111 0.198182 3.59183
-3.45824 0.196936 3.5749
-3.46933 0.196766 3.56298
-3.45374 0.191956 3.50893
-3.45788 0.190678 3.48998
-3.45608 0.189291 3.46398
-3.46914 0.189168 3.45508
-3.47131 0.187844 3.43311
-3.46264 0.184186 3.38909
-3.46679 0.182908 3.37014
-3.46614 0.179212 3.32318
-3.4802 0.179103 3.31529
-3.47442 0.176685 3.28728
-3.46755 0.175413 3.26924
-3.47169 0.17415 3.25129
-3.47087 0.172794 3.2273
-3.47302 0.1715 3.20733
-3.47417 0.169205 3.18737
-3.47136 0.167832 3.16237
-3.47649 0.166584 3.14543
-3.48054 0.166484 3.13846
-3.47376 0.164064 3.11044
-3.47407 0.161443 3.06847
-3.47622 0.160148 3.04851
-3.47638 0.158853 3.02852
-3.4815 0.157605 3.01158
-3.47463 0.156363 2.99554
-3.47776 0.155099 2.97758
-3.48188 0.153865 2.96163
-3.47906 0.152507 2.93762
-3.48219 0.151258 2.92066
-3.48118 0.142318 2.78977
-3.48232 0.141053 2.7718
-3.48743 0.140834 2.75684
-3.48254 0.139624 2.74281
-3.49277 0.138187 2.71291
-3.49192 0.13689 2.69292
-3.4861 0.134531 2.66891
-3.4922 0.134343 2.65595
-3.4983 0.13314 2.64202
-3.48758 0.130584 2.60497
-3.49169 0.12938 2.59101
-3.49482 0.129131 2.57404
-3.49198 0.126818 2.55305
-3.50204 0.127692 2.54411
-3.49417 0.12545 2.52808
-3.50424 0.125309 2.51816
-3.49444 0.122917 2.49212
-3.49968 0.121447 2.46017
-3.49583 0.120148 2.44016
-3.49795 0.118913 2.42419
-3.501 0.118811 2.41722
-3.50313 0.117576 2.40125
-3.49828 0.116262 2.38023
-3.50537 0.116089 2.36828
-3.42713 0.313717 4.64108
-3.42873 0.306549 4.56219
-3.4203 0.300433 4.48721
-3.43067 0.296715 4.43833
-3.43881 0.29544 4.41941
-3.42605 0.291957 4.38736
-3.43565 0.285795 4.30851
-3.43588 0.283351 4.27855
-3.44127 0.279585 4.22664
-3.43939 0.277347 4.21065
-3.43905 0.270059 4.12375
-3.44917 0.26983 4.10782
-3.44939 0.267415 4.07986
-3.43761 0.263978 4.05082
-3.44792 0.261364 4.00893
-3.43921 0.257795 3.97091
-3.45329 0.257657 3.96101
-3.44606 0.249142 3.85907
-3.45042 0.24545 3.81215
-3.44863 0.243034 3.78417
-3.45893 0.240449 3.74428
-3.45246 0.234409 3.67431
-3.45166 0.233023 3.64832
-3.4669 0.230561 3.61647
-3.45716 0.217097 3.45057
-3.46057 0.213285 3.39565
-3.46581 0.200876 3.23285
-3.47888 0.200738 3.22295
-3.46928 0.196961 3.17092
-3.47333 0.19586 3.16397
-3.47548 0.194566 3.144
-3.47381 0.191913 3.10002
-3.47528 0.187012 3.0391
-3.47337 0.185833 3.0271
-3.48643 0.186709 3.01818
-3.48957 0.185445 3.00022
-3.48024 0.17812 2.91125
-3.47833 0.176942 2.89925
-3.47948 0.175661 2.88028
-3.47977 0.173084 2.84131
-3.48106 0.170522 2.80335
-3.48227 0.168109 2.77539
-3.49931 0.169047 2.77051
-3.48952 0.166626 2.74247
-3.50073 0.165219 2.71457
-3.48696 0.161765 2.68451
-3.49712 0.161462 2.66359
-3.50123 0.160258 2.64964
-3.50634 0.160039 2.63468
-3.50151 0.157695 2.61167
-3.49966 0.156413 2.59267
-3.50377 0.156194 2.57771
-3.50583 0.155077 2.56974
-3.49702 0.1527 2.5447
-3.51048 0.149807 2.48384
-3.5077 0.147376 2.45485
-3.42592 0.339129 4.53368
-3.4232 0.336579 4.49669
-3.43048 0.333037 4.4598
-3.43613 0.325768 4.37393
-3.4423 0.324447 4.352
-3.43746 0.322133 4.33099
-3.42878 0.31749 4.28799
-3.4399 0.317261 4.27207
-3.43319 0.313694 4.23407
-3.44034 0.312403 4.21414
-3.44452 0.310066 4.19121
-3.4389 0.305307 4.14023
-3.44012 0.302879 4.11127
-3.44196 0.293252 4.00141
-3.459 0.294176 3.99552
-3.44326 0.289661 3.96147
-3.45832 0.290553 3.95356
-3.46106 0.249244 3.46013
-3.45926 0.246858 3.43415
-3.47164 0.232173 3.25243
-3.48336 0.204868 2.89388
-3.49057 0.19349 2.73308
-3.49647 0.184748 2.61523
-3.49058 0.183522 2.60021
-3.49185 0.18099 2.56425
-3.49723 0.178253 2.51432
-3.49638 0.175972 2.49535
-3.49544 0.175838 2.48634
-3.49856 0.174603 2.47038
-3.49684 0.172054 2.4334
-3.49797 0.170803 2.41642
-3.50108 0.169599 2.40246
-3.50221 0.169333 2.38447
-3.4983 0.168167 2.37346
-3.47531 0.256811 3.16008
-3.47844 0.255561 3.14312
-3.4825 0.255461 3.13615
-3.47388 0.2507 3.08515
-3.48131 0.245876 3.02927
-3.48245 0.244596 3.0103
-3.49208 0.238374 2.92745
-3.48628 0.235985 2.90144
-3.48238 0.234775 2.88742
-3.48779 0.23098 2.83351
-3.48396 0.228652 2.81152
-3.48907 0.228433 2.79656
-3.48724 0.226106 2.77457
-3.4893 0.225989 2.76659
-3.49171 0.221177 2.71167
-3.49483 0.220942 2.6957
-3.48803 0.217568 2.67069
-3.49512 0.217395 2.65875
-3.48922 0.216184 2.64472
-3.49348 0.213683 2.61078
-3.49461 0.212433 2.59381
-3.49773 0.211198 2.57785
-3.50184 0.210979 2.56288
-3.5039 0.209862 2.55491
-3.50006 0.208548 2.5339
-3.50715 0.208376 2.52195
-3.49848 0.203733 2.47895
-3.51153 0.204639 2.47203
-3.5057 0.202309 2.45002
-3.50279 0.201129 2.43801
-3.50292 0.199878 2.42103
-3.49907 0.198579 2.40102
-3.50914 0.198438 2.3911
-3.50841 0.19592 2.35612
-3.43552 0.379963 4.1841
-3.45158 0.380856 4.17621
-3.44585 0.376319 4.14023
-3.44805 0.373936 4.11427
-3.44122 0.371591 4.09126
-3.44582 0.364425 4.01239
-3.44822 0.359657 3.96047
-3.44894 0.350252 3.8656
-3.45151 0.343144 3.79071
-3.46863 0.306059 3.37933
-3.46781 0.303703 3.35536
-3.48187 0.304594 3.34745
-3.47966 0.295054 3.24356
-3.47884 0.292698 3.21959
-3.47577 0.28189 3.09771
-3.48783 0.281766 3.0888
-3.476 0.279431 3.06674
-3.48458 0.273313 2.99088
-3.4968 0.271878 2.96099
-3.49192 0.269652 2.94599
-3.50017 0.26717 2.91308
-3.48595 0.257635 2.8101
-3.49021 0.25512 2.77517
-3.49072 0.250129 2.70824
-3.49201 0.246567 2.67029
-3.49342 0.242769 2.61635
-3.49675 0.23912 2.57243
-3.50199 0.23665 2.5405
-3.5061 0.236431 2.52553
-3.50559 0.230484 2.4616
-3.50672 0.229233 2.44463
-3.50897 0.226746 2.41168
-3.50214 0.224401 2.38866
-3.43976 0.427397 4.28044
-3.4402 0.421539 4.22253
-3.45231 0.421341 4.20862
-3.45451 0.417943 4.18168
-3.44768 0.415612 4.15966
-3.45186 0.41326 4.13572
-3.45504 0.410907 4.11178
-3.45963 0.403756 4.03391
-3.46281 0.401418 4.01097
-3.46093 0.40018 3.99497
-3.45816 0.396719 3.96399
-3.45957 0.390936 3.91108
-3.45382 0.387444 3.87809
-3.4669 0.38729 3.86719
-3.46412 0.383859 3.83821
-3.46026 0.38259 3.8202
-3.45252 0.378066 3.7852
-3.4537 0.375712 3.76124
-3.4648 0.375528 3.74833
-3.45707 0.371004 3.71333
-3.45626 0.368634 3.68836
-3.46683 0.362517 3.61252
-3.46602 0.359146 3.58756
-3.46143 0.354358 3.53459
-3.49315 0.275254 2.64887
-3.50422 0.275114 2.63896
-3.4935 0.271573 2.60292
-3.50854 0.271495 2.59704
-3.50172 0.269135 2.57302
-3.50981 0.268964 2.56108
-3.50896 0.267682 2.54209
-3.51009 0.266431 2.52511
-3.51612 0.266376 2.52116
-3.5134 0.262812 2.48319
-3.51353 0.26156 2.4662
-3.51765 0.260341 2.45125
-3.51381 0.258028 2.43025
-3.51923 0.254203 2.37434
-3.43429 0.469263 4.33879
-3.43651 0.465835 4.30985
-3.43795 0.459978 4.25194
-3.44201 0.458862 4.24399
-3.44224 0.456419 4.21402
-3.44686 0.447209 4.13218
-3.45203 0.445887 4.11024
-3.44927 0.441411 4.07828
-3.44641 0.440143 4.06028
-3.44604 0.430899 3.9764
-3.44724 0.428515 3.95044
-3.45934 0.427332 3.93755
-3.45756 0.424901 3.90856
-3.45311 0.416833 3.83664
-3.45727 0.414525 3.8157
-3.45746 0.41214 3.78974
-3.45469 0.408694 3.75976
-3.45871 0.3957 3.62497
-3.46386 0.393422 3.60604
-3.47775 0.382686 3.48828
-3.46604 0.37813 3.45126
-3.46711 0.376983 3.44128
-3.47774 0.369762 3.35846
-3.48188 0.368499 3.3405
-3.47139 0.360485 3.27253
-3.47355 0.359176 3.25157
-3.4932 0.338964 3.03398
-3.49945 0.312587 2.73838
-3.50485 0.307807 2.68548
-3.50194 0.306627 2.67348
-3.50805 0.305424 2.65954
-3.5052 0.304112 2.63854
-3.50981 0.296931 2.55867
-3.50114 0.292288 2.51566
-3.50837 0.289835 2.48475
-3.50155 0.287489 2.46173
-3.50188 0.283838 2.41778
-3.505 0.282604 2.40182
-3.50513 0.281352 2.38484
-3.51023 0.280164 2.37189
-3.43006 0.520609 4.49702
-3.4346 0.512561 4.42617
-3.43507 0.505644 4.36426
-3.44025 0.503308 4.34133
-3.44641 0.500987 4.31941
-3.45247 0.500887 4.31246
-3.44378 0.495274 4.27147
-3.45094 0.493969 4.25054
-3.45038 0.487095 4.19163
-3.46182 0.48126 4.13479
-3.45333 0.473263 4.06784
-3.46464 0.469664 4.02697
-3.45791 0.465126 3.99098
-3.46693 0.465103 3.98905
-3.45921 0.46055 3.95205
-3.46833 0.46032 3.93612
-3.46854 0.456906 3.90817
-3.45981 0.452367 3.87217
-3.46199 0.450028 3.84922
-3.4612 0.446613 3.82126
-3.45832 0.444374 3.80527
-3.46943 0.444175 3.79135
-3.46069 0.439651 3.75635
-3.46088 0.437281 3.73138
-3.46901 0.43605 3.71546
-3.46226 0.431557 3.68247
-3.46173 0.424625 3.61956
-3.47084 0.424424 3.60563
-3.474 0.422115 3.58468
-3.47716 0.419807 3.56374
-3.47436 0.417405 3.53675
-3.47562 0.413903 3.50281
-3.48012 0.40693 3.43693
-3.48427 0.405637 3.41698
-3.48742 0.403358 3.39804
-3.48453 0.402134 3.38303
-3.48884 0.39753 3.34213
-3.48604 0.395143 3.31614
-3.48621 0.392818 3.29417
-3.48637 0.390492 3.2722
-3.48852 0.389198 3.25224
-3.47769 0.385865 3.2302
-3.49506 0.382167 3.18238
-3.48033 0.377623 3.14633
-3.48546 0.376376 3.12938
-3.49356 0.375189 3.11646
-3.49395 0.37042 3.06453
-3.49045 0.363441 2.9986
-3.50176 0.360842 2.95771
-3.50657 0.350277 2.85189
-3.49906 0.343309 2.78693
-3.50084 0.333786 2.68407
-3.51282 0.322886 2.5553
-3.50453 0.336457 2.45903
-3.50765 0.335222 2.44307
-3.50487 0.331791 2.41409
-3.46989 0.471285 3.46091
-3.47702 0.470039 3.44398
-3.48116 0.467776 3.42604
-3.47539 0.464328 3.39604
-3.47456 0.461987 3.37307
-3.47267 0.459778 3.35909
-3.47996 0.456221 3.32119
-3.47715 0.452849 3.29621
-3.47748 0.448198 3.25228
-3.4846 0.446967 3.23635
-3.47972 0.444741 3.22134
-3.48584 0.443509 3.2054
-3.49494 0.443323 3.19247
-3.48021 0.43778 3.15644
-3.48533 0.436547 3.1405
-3.48351 0.43419 3.11651
-3.49161 0.433004 3.10359
-3.4907 0.43184 3.0926
-3.4988 0.431639 3.07866
-3.48903 0.427188 3.04865
-3.49415 0.425955 3.0327
-3.50325 0.425769 3.01977
-3.50042 0.422427 2.9968
-3.49057 0.420138 2.97775
-3.50264 0.419999 2.96785
-3.48889 0.415515 2.9358
-3.50493 0.416438 2.92991
-3.49332 0.409675 2.87892
-3.49545 0.407425 2.86196
-3.50049 0.40734 2.856
-3.49667 0.404997 2.833
-3.50079 0.403763 2.81705
-3.50888 0.403591 2.80511
-3.51002 0.401311 2.78615
-3.51216 0.400046 2.76819
-3.5084 0.39557 2.73622
-3.50854 0.394304 2.71824
-3.50868 0.392023 2.69927
-3.51181 0.390788 2.68331
-3.51493 0.389553 2.66735
-3.51728 0.384874 2.62143
-3.51656 0.381326 2.58447
-3.51073 0.378982 2.56146
-3.52201 0.363489 2.39275
-3.4328 0.652921 4.65211
-3.43465 0.638265 4.54032
-3.43985 0.634885 4.51441
-3.44329 0.628029 4.45653
-3.44847 0.624678 4.43261
-3.44376 0.620112 4.39464
-3.45378 0.62009 4.39271
-3.44412 0.613417 4.34773
-3.44137 0.608927 4.31477
-3.45248 0.608713 4.29986
-3.45173 0.604239 4.26792
-3.45195 0.600795 4.23796
-3.45107 0.598572 4.22299
-3.45526 0.595205 4.19807
-3.46042 0.592884 4.17614
-3.46262 0.5905 4.15018
-3.46581 0.587133 4.12525
-3.45612 0.581519 4.08426
-3.46128 0.579212 4.06333
-3.45842 0.575944 4.04535
-3.46953 0.575745 4.03144
-3.45587 0.569069 3.98643
-3.45311 0.564609 3.95547
-3.46421 0.564409 3.94155
-3.47333 0.563179 3.92564
-3.46352 0.558802 3.90063
-3.46987 0.554126 3.85474
-3.46809 0.549696 3.82578
-3.46531 0.546265 3.79681
-3.47542 0.545065 3.7829
-3.46571 0.539496 3.74491
-3.4668 0.538319 3.73293
-3.48063 0.526701 3.62319
-3.4719 0.521177 3.5882
-3.47695 0.521092 3.58224
-3.46957 0.510873 3.50033
-3.47705 0.503946 3.43748
-3.47317 0.501707 3.42148
-3.47235 0.498351 3.39752
-3.48939 0.499289 3.39263
-3.47568 0.493717 3.35461
-3.48875 0.493579 3.3447
-3.479 0.489098 3.31269
-3.49315 0.488812 3.2928
-3.4824 0.483316 3.2598
-3.49646 0.484208 3.25189
-3.48572 0.478697 3.21788
-3.49085 0.47745 3.20094
-3.49101 0.475124 3.17897
-3.48216 0.471837 3.15995
-3.49423 0.471697 3.15004
-3.49241 0.469356 3.12706
-3.49456 0.467061 3.10711
-3.49373 0.464735 3.08513
-3.48595 0.4603 3.05614
-3.50199 0.461238 3.05124
-3.50008 0.460044 3.03824
-3.49924 0.457733 3.01727
-3.50437 0.456485 3.00032
-3.49956 0.453112 2.97533
-3.49971 0.450816 2.95537
-3.49987 0.44852 2.9354
-3.49406 0.445131 2.9094
-3.49727 0.442734 2.88246
-3.50637 0.441548 2.86954
-3.50254 0.439205 2.84654
-3.49376 0.434784 2.81854
-3.50781 0.435691 2.81163
-3.49596 0.432386 2.79159
-3.50703 0.432246 2.78167
-3.50818 0.429966 2.76271
-3.5113 0.428731 2.74675
-3.50747 0.426388 2.72375
-3.50876 0.421842 2.68683
-3.50982 0.421724 2.67884
-3.51394 0.42049 2.66288
-3.51209 0.418193 2.6429
-3.50627 0.414834 2.6189
-3.50343 0.412521 2.59791
-3.51649 0.413412 2.59
-3.51166 0.410083 2.56801
-3.51982 0.408763 2.54608
-3.51896 0.406496 2.52811
-3.51639 0.400651 2.47117
-3.52348 0.400478 2.45922
-3.51958 0.398298 2.44722
-3.43376 0.679963 4.65471
-3.43908 0.675346 4.61281
-3.43834 0.669842 4.57889
-3.43957 0.666399 4.54894
-3.44377 0.663003 4.52202
-3.43731 0.652948 4.45111
-3.45548 0.651621 4.42826
-3.45571 0.648177 4.39831
-3.44307 0.640472 4.35133
-3.45541 0.63583 4.30748
-3.44607 0.623536 4.22058
-3.45881 0.612095 4.12283
-3.47107 0.591648 3.9572
-3.46444 0.584933 3.90925
-3.47662 0.566634 3.75359
-3.48314 0.558632 3.68575
-3.48262 0.5507 3.62285
-3.4792 0.540558 3.54596
-3.48479 0.531423 3.46913
-3.48099 0.528021 3.44215
-3.48216 0.525696 3.42019
-3.48648 0.521078 3.37829
-3.4917 0.486761 3.08679
-3.50654 0.475129 2.97606
-3.44626 0.695994 4.45354
-3.44254 0.691459 4.41758
-3.45104 0.682488 4.35176
-3.45446 0.675662 4.29588
-3.45392 0.666774 4.236
-3.45316 0.663315 4.20504
-3.46119 0.663262 4.2011
-3.46041 0.658817 4.17116
-3.46261 0.655434 4.14522
-3.45888 0.650914 4.11026
-3.46107 0.647545 4.08532
-3.45534 0.642023 4.05035
-3.45764 0.636433 4.01045
-3.46577 0.635188 3.99352
-3.46718 0.62839 3.93963
-3.46242 0.623913 3.90765
-3.4755 0.623759 3.89675
-3.47076 0.618268 3.8638
-3.46908 0.612645 3.82186
-3.47245 0.606923 3.77296
-3.47462 0.603584 3.75003
-3.4649 0.598044 3.71403
-3.47033 0.591205 3.65716
-3.47251 0.588866 3.63421
-3.47865 0.586589 3.61529
-3.46991 0.58108 3.5813
-3.48199 0.580926 3.57039
-3.47668 0.569576 3.47951
-3.47389 0.565174 3.45255
-3.38007 -0.184931 2.17177
-3.38317 -0.185136 2.15779
-3.38323 -0.185255 2.14979
-3.38634 -0.18546 2.13582
-3.39342 -0.185617 2.12487
-3.38459 -0.186949 2.10282
-3.38869 -0.187139 2.08985
-3.37985 -0.187471 2.06779
-3.38389 -0.187542 2.06282
-3.384 -0.187764 2.04782
-3.38424 -0.188223 2.01683
-3.38348 -0.189697 1.98484
-3.38757 -0.189872 1.97287
-3.38575 -0.190229 1.94886
-3.39704 -0.190783 1.91095
-3.40213 -0.190957 1.89899
-3.40224 -0.191179 1.88399
-3.39334 -0.191378 1.87092
-3.4034 -0.19149 1.863
-3.39466 -0.193014 1.82795
-3.39975 -0.193188 1.81599
-3.40086 -0.193395 1.802
-3.39898 -0.193633 1.78599
-3.39903 -0.193736 1.77899
-3.40632 -0.194309 1.74004
-3.40245 -0.194563 1.72302
-3.39957 -0.194802 1.707
-3.41477 -0.195176 1.68111
-3.4109 -0.196431 1.6641
-3.40603 -0.196686 1.64706
-3.40414 -0.196909 1.63205
-3.40225 -0.197133 1.61704
-3.40734 -0.197292 1.60608
-3.42033 -0.197283 1.60618
-3.41446 -0.197539 1.58913
-3.42154 -0.197682 1.57919
-3.41467 -0.197938 1.56214
-3.4088 -0.198209 1.54409
-3.41986 -0.19832 1.53618
-3.42494 -0.198464 1.52622
-3.42301 -0.198599 1.5172
-3.41434 -0.200256 1.47316
-3.43059 -0.200733 1.44028
-3.42964 -0.200838 1.43327
-3.43183 -0.201221 1.40729
-3.42994 -0.20143 1.39328
-3.42008 -0.201703 1.37521
-3.42914 -0.20183 1.36628
-3.43019 -0.201918 1.36028
-3.42441 -0.203352 1.33126
-3.42151 -0.203561 1.31724
-3.43581 -0.204143 1.27735
-3.43102 -0.204546 1.25031
-3.4351 -0.204706 1.23935
-3.4362 -0.204898 1.22636
-3.4314 -0.205301 1.19932
-3.43145 -0.205405 1.19232
-3.43952 -0.205532 1.18338
-3.42965 -0.205791 1.16631
-3.43482 -0.207128 1.14337
-3.43193 -0.207337 1.12935
-3.43706 -0.207585 1.11239
-3.43634 -0.208134 1.07538
-3.4464 -0.20826 1.06646
-3.43762 -0.208681 1.0384
-3.43467 -0.208786 1.03137
-3.44274 -0.208929 1.02144
-3.44083 -0.209108 1.00942
-3.44692 -0.209266 0.99847
-3.44701 -0.209444 0.986471
-3.43613 -0.209689 0.970391
-3.4432 -0.209817 0.961445
-3.43944 -0.211293 0.929434
-3.44551 -0.211437 0.91948
-3.4456 -0.211615 0.907482
-3.44171 -0.211825 0.893454
-3.44184 -0.212091 0.875456
-3.44492 -0.212237 0.86548
-3.46197 -0.212328 0.858609
-3.44311 -0.212609 0.840469
-3.45018 -0.212751 0.830523
-3.45526 -0.212896 0.820562
-3.44537 -0.213125 0.805488
-3.44542 -0.213214 0.799489
-3.4465 -0.213376 0.788498
-3.45475 -0.213859 0.755563
-3.45185 -0.214053 0.742542
-3.45194 -0.214231 0.730544
-3.45297 -0.214304 0.725552
-3.45606 -0.214465 0.714576
-3.45823 -0.214804 0.691594
-3.4584 -0.215144 0.668598
-3.45754 -0.215412 0.650593
-3.4627 -0.215734 0.628633
-3.45889 -0.217092 0.604621
-3.46197 -0.217252 0.593645
-3.46101 -0.217342 0.587639
-3.46244 -0.218185 0.530654
-3.46166 -0.218615 0.501651
-3.46374 -0.218761 0.491667
-3.4699 -0.219083 0.469715
-3.46899 -0.219261 0.457709
-3.47307 -0.219406 0.447741
-3.47211 -0.219496 0.441734
-3.47029 -0.219838 0.418722
-3.46738 -0.220017 0.406701
-3.46946 -0.220179 0.395718
-3.46954 -0.220342 0.384719
-3.46867 -0.220594 0.367714
-3.48773 -0.220699 0.359858
-3.48083 -0.220896 0.346807
-3.47791 -0.221061 0.335786
-3.47809 -0.221402 0.312789
-3.47521 -0.221655 0.295769
-3.48429 -0.221797 0.285838
-3.47638 -0.22198 0.27378
-3.48245 -0.222124 0.263826
-3.48953 -0.222267 0.25388
-3.48363 -0.222464 0.240837
-3.48775 -0.222698 0.224869
-3.48983 -0.222859 0.213886
-3.48891 -0.223023 0.20288
-3.49699 -0.223165 0.192941
-3.48409 -0.223367 0.179845
-3.49524 -0.22367 0.158931
-3.37191 -0.155659 2.19028
-3.38496 -0.154753 2.18336
-3.38309 -0.156006 2.16636
-3.3852 -0.156227 2.15138
-3.37836 -0.156543 2.13033
-3.38942 -0.156653 2.12241
-3.38059 -0.156985 2.10035
-3.38463 -0.157071 2.09438
-3.38077 -0.15834 2.07637
-3.38586 -0.158514 2.06441
-3.39605 -0.158877 2.03948
-3.38522 -0.159226 2.0164
-3.39528 -0.159337 2.00848
-3.39136 -0.160502 1.99747
-3.39347 -0.160708 1.98348
-3.39358 -0.16093 1.96849
-3.40266 -0.161072 1.95856
-3.38884 -0.161437 1.93445
-3.40089 -0.161532 1.92754
-3.39504 -0.162832 1.90752
-3.39808 -0.162904 1.90254
-3.40018 -0.16311 1.88856
-3.4003 -0.163332 1.87356
-3.40539 -0.163506 1.8616
-3.4055 -0.163728 1.8466
-3.40473 -0.164173 1.8166
-3.40976 -0.164228 1.81264
-3.41297 -0.165641 1.78468
-3.41407 -0.165847 1.77069
-3.4102 -0.166102 1.75366
-3.40931 -0.16631 1.73965
-3.41047 -0.166635 1.71766
-3.41666 -0.167 1.69271
-3.41677 -0.168207 1.67873
-3.41311 -0.168876 1.6337
-3.41614 -0.168948 1.62873
-3.41526 -0.169171 1.61372
