5.12575 0.490662 3.1039
5.13397 0.494071 3.13179
5.12409 0.494329 3.14886
5.1303 0.496724 3.17578
5.13752 0.500148 3.20468
5.12765 0.500407 3.22176
5.13678 0.502667 3.23966
5.14098 0.505049 3.26559
5.13313 0.506336 3.28464
5.1345 0.51006 3.33358
5.12864 0.511345 3.3526
5.13788 0.514797 3.38349
5.14199 0.516016 3.39844
5.13514 0.517317 3.41848
5.14136 0.520742 3.44738
5.14054 0.522098 3.47137
5.13369 0.523399 3.49141
5.1359 0.525797 3.51836
5.14604 0.528071 3.53725
5.13919 0.529372 3.55729
5.14241 0.531784 3.58523
5.13958 0.534126 3.60822
5.1438 0.536552 3.63716
5.14198 0.538909 3.66114
5.14117 0.54028 3.68613
5.15032 0.543569 3.70601
5.14247 0.543871 3.72607
5.14891 0.549709 3.78294
5.15414 0.553164 3.81386
5.15565 0.559155 3.88077
5.15082 0.560499 3.90379
5.15103 0.562898 3.93075
5.15164 0.570097 4.01165
5.15699 0.574773 4.05755
5.1594 0.592524 4.24329
5.16062 0.594953 4.27225
5.17343 0.630419 4.64168
5.20403 0.719286 5.51126
5.20863 0.727437 5.58911
5.21598 0.733112 5.63498
5.23207 0.776123 6.04128
5.24348 0.782929 6.0961
5.23976 0.786479 6.13308
5.23705 0.790043 6.17105
5.23837 0.794664 6.21298
5.2456 0.799103 6.24286
5.24189 0.802668 6.28084
5.24927 0.808417 6.33171
5.24153 0.811911 6.36472
5.24084 0.815533 6.40668
5.2533 0.823412 6.46648
5.24454 0.825892 6.49851
5.25683 0.831445 6.53634
5.25515 0.835068 6.5783
5.25045 0.839648 6.61728
5.24877 0.843286 6.66024
5.25316 0.850037 6.71112
5.25149 0.854689 6.75507
5.26076 0.858201 6.78995
5.2692 0.866053 6.84778
5.26451 0.869663 6.88877
5.2679 0.875415 6.93966
5.26827 0.88114 6.98858
5.26258 0.884751 7.02958
5.25991 0.889404 7.07353
5.27325 0.895045 7.11736
5.26857 0.89967 7.15933
5.274 0.90651 7.21619
5.27035 0.911193 7.26216
5.27984 0.919133 7.32598
5.27213 0.922716 7.36499
5.2865 0.929415 7.41279
5.28285 0.934099 7.45875
5.28426 0.939897 7.51266
5.28264 0.945653 7.5636
5.28793 0.96515 7.73229
5.28915 0.968593 7.76224
5.29463 0.975521 7.8251
5.29101 0.981263 7.87505
5.29549 0.988192 7.93792
5.01391 0.342006 -0.0504939
5.06044 0.391671 1.21159
5.06203 0.395825 1.28953
5.07648 0.407642 1.48027
5.07668 0.409041 1.50726
5.12116 0.498555 2.75877
5.13186 0.527817 3.1143
5.13852 0.536099 3.20114
5.1387 0.537454 3.22512
5.1419 0.540837 3.25105
5.13403 0.541109 3.26911
5.14427 0.54456 3.29999
5.14932 0.557599 3.43778
5.15257 0.572053 3.60356
5.15277 0.574438 3.62953
5.15296 0.576808 3.65449
5.15427 0.580414 3.69544
5.1599 0.588638 3.77828
5.16321 0.592242 3.81921
5.16242 0.594642 3.84619
5.16463 0.598055 3.87412
5.16182 0.599427 3.89913
5.158 0.601785 3.92312
5.1572 0.604171 3.9491
5.16043 0.606627 3.98004
5.1698 0.61233 4.02789
5.1682 0.617131 4.08184
5.17044 0.620588 4.11278
5.1626 0.621904 4.13382
5.16986 0.625417 4.16872
5.16997 0.626624 4.1827
5.16818 0.629025 4.20968
5.16638 0.631426 4.23666
5.17063 0.635911 4.26957
5.16683 0.637299 4.29558
5.16604 0.639714 4.32356
5.17331 0.644241 4.35944
5.17645 0.646505 4.37739
5.17466 0.648921 4.40537
5.1759 0.652379 4.43631
5.17613 0.654823 4.46628
5.17535 0.658252 4.49524
5.16953 0.659627 4.52026
5.18275 0.664031 4.5481
5.18197 0.666476 4.57808
5.18019 0.668906 4.60706
5.21961 0.759382 5.45054
5.21888 0.762915 5.4865
5.22319 0.767519 5.5274
5.2154 0.769939 5.55543
5.21872 0.774558 5.59734
5.22002 0.779134 5.63627
5.23607 0.809118 5.90574
5.24453 0.830952 6.09738
5.27645 0.935424 7.00772
5.28081 0.956055 7.1854
5.28057 0.96755 7.28625
5.28905 0.975475 7.34908
5.28642 0.996141 7.52882
5.27773 1.00075 7.56982
4.9998 0.362807 -0.199716
5.0051 0.364396 -0.159774
5.00946 0.366088 -0.112825
5.00575 0.365669 -0.0737859
5.01636 0.368845 0.00609821
5.01489 0.370898 0.0770887
5.0133 0.371713 0.132096
5.20821 0.806511 5.52594
5.2105 0.811071 5.56386
5.20776 0.814576 5.59783
5.21367 0.828348 5.7176
5.22491 0.832813 5.74945
5.22521 0.83739 5.78839
5.22307 0.850078 5.90223
5.2413 0.869462 6.06383
5.23858 0.873011 6.1008
5.23719 0.882196 6.18069
5.24155 0.887888 6.22758
5.24777 0.892313 6.25647
5.25044 0.902613 6.34431
5.25311 0.912928 6.43315
5.25648 0.918636 6.48104
5.2538 0.923259 6.523
5.25935 0.932335 6.59584
5.26005 0.942696 6.68769
5.26342 0.949419 6.73657
5.25671 0.952986 6.77457
5.26716 0.960851 6.83339
5.26633 0.963192 6.85636
5.27074 0.969973 6.90924
5.27009 0.975669 6.95616
5.27551 0.982479 7.01103
5.26173 0.984918 7.0401
5.17757 0.760535 4.64873
5.20545 0.834014 5.28952
5.21407 0.844207 5.37031
5.25882 1.00017 6.65184
5.25614 1.0048 6.6938
5.25162 1.01173 6.75674
5.14317 0.714021 3.80256
5.14559 0.719834 3.85746
5.15989 0.7254 3.89628
5.16623 0.731061 3.94115
5.15838 0.732363 3.96119
5.16765 0.736874 3.99606
5.16182 0.738219 4.01909
5.16908 0.742717 4.05297
5.17019 0.743923 4.06695
5.16558 0.749696 4.1189
5.16479 0.752096 4.14588
5.165 0.75551 4.17383
5.16824 0.758981 4.20576
5.16342 0.76134 4.22976
5.16655 0.763589 4.24671
5.17102 0.770503 4.30858
5.17225 0.773946 4.33853
5.17146 0.777361 4.36648
5.17169 0.779805 4.39645
5.1699 0.783221 4.42442
5.18009 0.786568 4.44829
5.18132 0.790026 4.47924
5.17953 0.793442 4.50721
5.17675 0.795873 4.53619
5.18101 0.800373 4.5701
5.17117 0.801691 4.59116
5.17829 0.818861 4.73787
5.18457 0.823404 4.77476
5.18341 0.836047 4.8856
5.18996 0.845108 4.95742
5.19828 0.850723 4.99928
5.1935 0.854156 5.02827
5.19664 0.856434 5.04722
5.20093 0.860994 5.08512
5.20018 0.865482 5.11807
5.20347 0.870042 5.15598
5.19869 0.872475 5.18498
5.20198 0.878035 5.22288
5.19822 0.880496 5.25388
5.20742 0.884889 5.28075
5.19761 0.887266 5.30579
5.20896 0.893938 5.35161
5.20017 0.896344 5.37865
5.20347 0.900934 5.41856
5.20173 0.904438 5.45252
5.20502 0.910013 5.49142
5.22231 0.915562 5.52922
5.22057 0.920067 5.56317
5.21885 0.923601 5.59913
5.22013 0.929162 5.63705
5.21739 0.932667 5.67102
5.21769 0.937244 5.70995
5.22893 0.942709 5.74179
5.23487 0.957525 5.86455
5.23857 0.985836 6.08813
5.23112 0.993922 6.16108
5.15342 0.762408 3.96379
5.15162 0.764794 3.98977
5.15787 0.769278 4.02266
5.15999 0.770513 4.03863
5.15919 0.773898 4.06459
5.15538 0.776271 4.08958
5.15861 0.779727 4.12051
5.15783 0.782142 4.14849
5.17045 0.793346 4.23024
5.16362 0.794692 4.25327
5.16384 0.798121 4.28222
5.16105 0.800522 4.30921
5.16328 0.804979 4.34013
5.16855 0.809493 4.37503
5.17369 0.811756 4.39296
5.16788 0.81413 4.41797
5.1671 0.81756 4.44693
5.1764 0.822145 4.4868
5.17361 0.825546 4.51378
5.17384 0.829005 4.54473
5.17318 0.833656 4.58867
5.17846 0.8392 4.62555
5.18172 0.842701 4.65948
5.17777 0.85876 4.79829
5.18205 0.863305 4.8352
5.1813 0.866779 4.86716
5.18784 0.876839 4.93897
5.18948 0.887081 5.02281
5.19377 0.89164 5.06072
5.19 0.895087 5.0907
5.20034 0.901745 5.13553
5.19381 0.907667 5.1975
5.20202 0.912061 5.22438
5.20128 0.916564 5.25832
5.20154 0.920082 5.29327
5.20685 0.925685 5.33416
5.20782 0.941563 5.46093
5.20911 0.946139 5.49986
5.21343 0.951757 5.54175
5.20867 0.95522 5.57274
5.215 0.961866 5.6166
5.21429 0.966429 5.65454
5.15926 0.808028 3.93806
5.16752 0.812525 3.97194
5.16773 0.815939 3.99989
5.16333 0.824112 4.07881
5.16969 0.830803 4.12567
5.16609 0.836589 4.17862
5.16553 0.842433 4.23555
5.1738 0.84796 4.27141
5.17916 0.853666 4.31929
5.17535 0.856039 4.34429
5.17558 0.859483 4.37424
5.17782 0.863954 4.40616
5.17324 0.869772 4.46112
5.18567 0.877591 4.51691
5.18087 0.880979 4.5429
5.18738 0.888981 4.61075
5.18359 0.892383 4.63773
5.18282 0.895827 4.66769
5.18495 0.898077 4.68464
5.17813 0.900452 4.70966
5.18442 0.90601 4.74753
5.18567 0.909497 4.78048
5.1839 0.912943 4.81044
5.18918 0.918486 4.84733
5.19535 0.921807 4.86924
5.19258 0.925253 4.89921
5.19585 0.929783 4.93512
5.1961 0.934271 4.96806
5.19334 0.937732 4.99903
5.1956 0.942233 5.03295
5.19889 0.946793 5.07087
5.20532 0.954632 5.12771
5.20282 0.96261 5.19362
5.20309 0.967128 5.22856
5.20234 0.971617 5.2615
5.20577 0.979443 5.31737
-3.30356 -0.578617 14.6278
-3.309 -0.575456 14.4358
-3.32023 -0.572863 14.2728
-3.32463 -0.568629 14.0858
-3.33212 -0.560496 13.6216
-3.3364 -0.558011 13.4516
-3.34841 -0.555002 13.3166
-3.35168 -0.552503 13.1476
-3.36072 -0.549555 13.0086
-3.36295 -0.546968 12.8456
-3.35896 -0.541925 12.5784
-3.37085 -0.539679 12.4595
-3.37298 -0.537899 12.3094
-3.37898 -0.53488 12.1754
-3.38399 -0.532861 12.0414
-3.39942 -0.522588 11.4513
-3.40334 -0.520392 11.3293
-3.41114 -0.518972 11.2223
-3.43555 -0.499528 10.103
-3.45564 -0.492601 9.69201
-3.47477 -0.474613 8.60974
-3.47996 -0.473994 8.58377
-3.49137 -0.472786 8.52983
-3.49198 -0.466925 8.1827
-3.49841 -0.466764 8.12574
-3.50386 -0.465664 8.06475
-3.50735 -0.464609 8.00075
-3.51211 -0.461086 7.7657
-3.5141 -0.45904 7.63367
-3.51655 -0.457927 7.57367
-3.51873 -0.455251 7.41662
-3.52412 -0.455002 7.36565
-3.52655 -0.453859 7.30764
-3.52897 -0.452672 7.25264
-3.52855 -0.449798 7.04156
-3.53193 -0.448551 6.99056
-3.53967 -0.446997 6.89258
-3.53203 -0.444683 6.71147
-3.52927 -0.444159 6.67943
-3.53756 -0.443716 6.64148
-3.53598 -0.442546 6.58545
-3.53834 -0.442255 6.53745
-3.54463 -0.441828 6.49849
-3.54205 -0.44066 6.44245
-3.55131 -0.440157 6.4085
-3.54434 -0.438191 6.2714
-3.54801 -0.436521 6.18139
-3.55034 -0.436156 6.1384
-3.54969 -0.435853 6.09138
-3.55811 -0.434676 6.03542
-3.55845 -0.434343 5.99041
-3.5657 -0.433826 5.95746
-3.56603 -0.433477 5.91345
-3.55368 -0.431775 5.82632
-3.55698 -0.43135 5.78733
-3.56717 -0.430728 5.76139
-3.56848 -0.430334 5.72039
-3.56879 -0.429956 5.67838
-3.57602 -0.429395 5.64843
-3.56546 -0.428277 5.58932
-3.56067 -0.427695 5.56127
-3.57678 -0.427891 5.5474
-3.56522 -0.426773 5.48828
-3.57541 -0.427136 5.46336
-3.56879 -0.425881 5.41329
-3.57994 -0.426184 5.39237
-3.56852 -0.424318 5.31625
-3.57078 -0.423835 5.28125
-3.57106 -0.423397 5.24324
-3.5753 -0.422853 5.21226
-3.57953 -0.423309 5.1813
-3.57684 -0.421919 5.14025
-3.57796 -0.422155 5.12426
-3.58444 -0.421098 5.06029
-3.58371 -0.420632 5.02427
-3.25609 -0.501209 16.2775
-3.28558 -0.485879 15.0154
-3.29307 -0.483806 14.8174
-3.30243 -0.481495 14.6354
-3.32 -0.471427 13.7612
-3.32722 -0.469821 13.5992
-3.33445 -0.467245 13.4352
-3.35805 -0.457231 12.5571
-3.3759 -0.449771 11.9121
-3.43678 -0.426007 9.7999
-3.44515 -0.423712 9.6169
-3.52638 -0.396508 6.92574
-3.52899 -0.395691 6.84574
-3.54925 -0.388014 6.01266
-3.55505 -0.385549 5.77364
-3.57325 -0.382845 5.34767
-3.57283 -0.382001 5.26965
-3.58749 -0.380248 5.0497
-3.57675 -0.37976 5.01561
-3.29025 -0.412321 15.0523
-3.29672 -0.411219 14.8563
-3.30515 -0.410027 14.6663
-3.31 -0.405606 14.1542
-3.3202 -0.404968 13.9943
-3.32746 -0.403436 13.8273
-3.33374 -0.40295 13.6573
-3.34289 -0.401224 13.5033
-3.33811 -0.399596 13.2082
-3.34426 -0.397843 13.0562
-3.35135 -0.397 12.9103
-3.35551 -0.396278 12.7563
-3.36258 -0.395376 12.6143
-3.37155 -0.39428 12.4853
-3.36856 -0.391221 12.0842
-3.37453 -0.390112 11.9562
-3.38438 -0.389779 11.8433
-3.39385 -0.385584 11.2482
-3.40944 -0.384728 11.1703
-3.43673 -0.377044 10.0672
-3.44044 -0.376433 9.97322
-3.44415 -0.375823 9.87922
-3.44785 -0.375212 9.78523
-3.44859 -0.374663 9.68721
-3.45521 -0.374873 9.60525
-3.44969 -0.373825 9.54119
-3.47784 -0.367889 8.59018
-3.47579 -0.366756 8.46413
-3.48031 -0.366775 8.39516
-3.48579 -0.366719 8.33119
-3.48832 -0.365768 8.26018
-3.49182 -0.365743 8.1942
-3.49925 -0.365582 8.13725
-3.4897 -0.364493 8.07615
-3.49613 -0.364332 8.01919
-3.49863 -0.364308 7.9532
-3.49817 -0.363374 7.88117
-3.50557 -0.363154 7.82821
-3.50902 -0.36304 7.76823
-3.51248 -0.362941 7.70725
-3.50289 -0.362762 7.65216
-3.51028 -0.362512 7.60121
-3.50977 -0.361475 7.53618
-3.51714 -0.361211 7.48623
-3.52056 -0.361037 7.43024
-3.52496 -0.360819 7.37726
-3.52641 -0.360707 7.31727
-3.51975 -0.360378 7.2722
-3.52218 -0.36022 7.21521
-3.52263 -0.360109 7.15521
-3.52701 -0.359846 7.10523
-3.53138 -0.359569 7.05625
-3.53673 -0.359261 7.00928
-3.52907 -0.358933 6.96421
-3.53344 -0.358655 6.91523
-3.52638 -0.357527 6.78915
-3.53862 -0.357977 6.75824
-3.54394 -0.35761 6.71527
-3.54729 -0.357303 6.66828
-3.54256 -0.356825 6.63323
-3.54296 -0.356625 6.57923
-3.54729 -0.356258 6.53625
-3.54964 -0.355953 6.48926
-3.55396 -0.355586 6.44628
-3.54269 -0.355031 6.34917
-3.54207 -0.354772 6.29915
-3.55131 -0.355239 6.26723
-3.5497 -0.355011 6.2152
-3.55203 -0.354661 6.17121
-3.55929 -0.354159 6.13725
-3.55784 -0.354241 6.06423
-3.56114 -0.353846 6.02325
-3.56542 -0.353391 5.98627
-3.57136 -0.353238 5.86129
-3.57168 -0.352859 5.81928
-3.5669 -0.352307 5.78924
-3.5702 -0.352882 5.75026
-3.5728 -0.352065 5.67026
-3.57388 -0.351197 5.52624
-3.57517 -0.351759 5.48825
-3.58139 -0.351199 5.45828
-3.58267 -0.351746 5.4213
-3.58396 -0.351308 5.38329
-3.58044 -0.351258 5.31926
-3.58369 -0.350744 5.28627
-3.58891 -0.350185 5.2563
-3.57881 -0.348924 5.00417
-3.26385 -0.293974 16.1565
-3.29197 -0.293827 14.6795
-3.30133 -0.293501 14.4986
-3.31065 -0.2931 14.3226
-3.33513 -0.293803 13.3287
-3.34229 -0.294079 13.1747
-3.36879 -0.293825 12.1778
-3.38836 -0.293769 11.4378
-3.42952 -0.294747 10.0869
-3.44086 -0.2943 9.64396
-3.48155 -0.29539 8.48812
-3.48411 -0.295484 8.41413
-3.48765 -0.295472 8.07711
-3.49114 -0.295447 8.01113
-3.49365 -0.296437 7.94415
-3.49889 -0.295877 7.77916
-3.49744 -0.295959 7.70614
-3.5009 -0.29586 7.64516
-3.50236 -0.296777 7.58317
-3.5036 -0.296235 7.55217
-3.51094 -0.296881 7.37321
-3.51044 -0.296859 7.3072
-3.51091 -0.296777 7.24519
-3.51529 -0.296529 7.19421
-3.52133 -0.296568 7.05624
-3.53938 -0.297613 6.91737
-3.55891 -0.298468 6.04841
-3.55137 -0.298363 5.98835
-3.56356 -0.298739 5.96244
-3.55286 -0.298339 5.92235
-3.55913 -0.298853 5.8874
-3.56439 -0.299337 5.71942
-3.57421 -0.300808 5.07943
-3.57546 -0.30031 5.04543
-3.27105 -0.211314 15.4573
-3.27666 -0.21248 15.2433
-3.28998 -0.213061 15.0684
-3.29746 -0.213959 14.8724
-3.30392 -0.214827 14.6784
-3.31171 -0.217285 14.1745
-3.31997 -0.217767 14.0065
-3.3253 -0.219369 13.8306
-3.33546 -0.219643 13.6766
-3.34268 -0.221036 13.5147
-3.33595 -0.222514 13.2126
-3.3489 -0.22237 13.0867
-3.35212 -0.223767 12.9247
-3.3592 -0.224894 12.7807
-3.36529 -0.225037 12.6358
-3.36842 -0.226241 12.4868
-3.36531 -0.226975 12.2348
-3.36935 -0.228016 12.0968
-3.3802 -0.228682 11.9839
-3.38031 -0.228859 11.8368
-3.39466 -0.232408 11.2589
-3.40537 -0.232807 11.164
-3.43363 -0.238032 10.0671
-3.44616 -0.239059 9.99723
-3.44596 -0.239644 9.89022
-3.45456 -0.239808 9.81128
-3.45433 -0.240318 9.70927
-3.45152 -0.24166 9.55125
-3.47674 -0.246858 8.59138
-3.48294 -0.246239 8.56542
-3.48647 -0.247288 8.49445
-3.49098 -0.247291 8.42647
-3.49549 -0.24728 8.3595
-3.49253 -0.249296 8.08847
-3.49994 -0.249105 8.03351
-3.50396 -0.250101 7.89854
-3.51037 -0.250911 7.84359
-3.51285 -0.250857 7.7796
-3.51262 -0.251368 7.67759
-3.51508 -0.252269 7.61662
-3.5195 -0.252095 7.56064
-3.52753 -0.254088 7.29069
-3.52405 -0.254112 7.22166
-3.53281 -0.254602 7.12072
-3.5353 -0.255517 6.92372
-3.52531 -0.256509 6.78964
-3.53162 -0.257111 6.74869
-3.53992 -0.256698 6.70874
-3.54129 -0.257437 6.65876
-3.53262 -0.25808 6.6157
-3.53695 -0.257743 6.57072
-3.54423 -0.258286 6.53378
-3.53969 -0.258193 6.47273
-3.55191 -0.258613 6.44383
-3.5513 -0.259384 6.39183
-3.54162 -0.259013 6.34974
-3.54234 -0.259434 6.25374
-3.54468 -0.260099 6.20876
-3.54997 -0.260672 6.1698
-3.55032 -0.260353 6.1238
-3.5617 -0.261085 6.07388
-3.55809 -0.260873 6.02085
-3.56173 -0.262129 5.93588
-3.56387 -0.262364 5.78488
-3.57208 -0.262772 5.75694
-3.56944 -0.263485 5.70893
-3.57371 -0.263 5.67395
-3.57106 -0.263698 5.62693
-3.57038 -0.264321 5.58493
-3.57662 -0.26379 5.55297
-3.5659 -0.264346 5.51589
-3.57015 -0.264846 5.48192
-3.57539 -0.264302 5.45095
-3.57074 -0.265001 5.40392
-3.57795 -0.26541 5.37598
-3.58021 -0.265927 5.34099
-3.58346 -0.265413 5.30801
-3.5757 -0.265893 5.27595
-3.57104 -0.266563 5.23092
-3.57528 -0.266019 5.19994
-3.58248 -0.266413 5.173
-3.57484 -0.26713 5.12494
-3.58698 -0.267387 5.10704
-3.58118 -0.266791 5.07998
-3.5854 -0.267218 5.05101
-3.57677 -0.26795 5.00195
-3.25859 -0.0936573 15.9065
-3.26433 -0.0960739 15.6755
-3.2842 -0.0208744 15.5525
-3.29083 -0.025068 15.3366
-3.31084 -0.0398395 14.4059
-3.32304 -0.0421851 14.247
-3.34735 -0.0585309 13.2773
-3.35448 -0.060747 13.1273
-3.37869 -0.0739458 12.3026
-3.38373 -0.0759856 12.1646
-3.38776 -0.0789965 12.0287
-3.38786 -0.0811732 11.8817
-3.39244 -0.0862342 11.5398
-3.39834 -0.0889919 11.4208
-3.412 -0.0922545 11.2
-3.41686 -0.0939391 11.086
-3.46087 -0.119511 9.4925
-3.53307 -0.163158 6.81232
-3.54137 -0.163744 6.77239
-3.5467 -0.166361 6.59544
-3.54907 -0.168085 6.54648
-3.55279 -0.169489 6.45151
-3.55551 -0.170909 6.35554
-3.55606 -0.171989 6.28255
-3.55248 -0.172806 6.22753
-3.54761 -0.175031 6.07751
-3.57767 -0.183991 5.53879
-3.57797 -0.184583 5.4988
-3.28516 0.0810707 15.548
-3.2857 0.0681423 14.9452
-3.29415 0.0633056 14.7533
-3.30063 0.059408 14.5573
-3.309 0.0547193 14.3755
-3.32217 0.0514338 14.2206
-3.32103 0.0398369 13.7077
-3.33314 0.036669 13.5608
-3.33647 0.0330654 13.3848
-3.34849 0.0300751 13.25
-3.35202 0.0161787 12.6491
-3.35812 0.0130213 12.5032
-3.36417 0.00996746 12.3643
-3.37213 0.00707795 12.2363
-3.38178 -0.000112405 11.8855
-3.39278 -0.011967 11.3547
-3.4309 -0.0418253 10.0122
-3.44147 -0.0439281 9.9373
-3.4779 -0.077364 8.42086
-3.48833 -0.0841244 8.09899
-3.48889 -0.0862197 8.02502
-3.49912 -0.0925951 7.72915
-3.50014 -0.0956082 7.59318
-3.50653 -0.0963587 7.54223
-3.51115 -0.101539 7.32732
-3.51161 -0.102457 7.26532
-3.517 -0.104208 7.21438
-3.5155 -0.105186 7.14838
-3.51572 -0.105615 7.11938
-3.52152 -0.108196 7.01245
-3.52393 -0.109993 6.95849
-3.52971 -0.111514 6.85554
-3.52779 -0.114648 6.71155
-3.52958 -0.117201 6.60659
-3.53688 -0.117774 6.56765
-3.54416 -0.118331 6.5297
-3.54255 -0.123057 6.34574
-3.54625 -0.124431 6.25277
-3.54957 -0.126065 6.20981
-3.55998 -0.126857 6.1559
-3.54849 -0.128858 6.08883
-3.55018 -0.130219 5.99685
-3.55742 -0.130687 5.96491
-3.55661 -0.132058 5.93992
-3.56583 -0.132481 5.91099
-3.5553 -0.133421 5.84792
-3.56451 -0.133829 5.81999
-3.56386 -0.135511 5.774
-3.56945 -0.136662 5.69605
-3.56664 -0.137049 5.67003
-3.56102 -0.138793 5.62001
-3.5643 -0.139339 5.58303
-3.5735 -0.139732 5.55611
-3.57777 -0.140247 5.52114
-3.56621 -0.142129 5.46207
-3.58134 -0.14237 5.44519
-3.56962 -0.142926 5.4081
-3.57091 -0.143503 5.36912
-3.57516 -0.144988 5.33617
-3.57743 -0.145505 5.30119
-3.57079 -0.14622 5.25314
-3.57503 -0.146691 5.22117
-3.58125 -0.147116 5.19222
-3.57447 -0.14855 5.16319
-3.58265 -0.148915 5.13825
-3.58589 -0.149371 5.10728
-3.58617 -0.149919 5.07029
-3.59238 -0.150329 5.04233
-3.28122 0.18082 15.5305
-3.29014 0.158203 14.7458
-3.29563 0.152276 14.5479
-3.30495 0.147691 14.373
-3.31519 0.143271 14.2092
-3.32512 0.124594 13.5554
-3.33233 0.120231 13.3955
-3.34241 0.116106 13.2516
-3.34759 0.1118 13.0957
-3.36091 0.091356 12.39
-3.36597 0.0872868 12.2501
-3.37101 0.0832472 12.1122
-3.37948 0.0783661 11.9173
-3.39536 0.0597978 11.2706
-3.43126 0.023383 9.95823
-3.28111 0.288927 15.4019
-3.28577 0.280673 15.182
-3.29938 0.254668 14.4384
-3.30965 0.249188 14.2706
-3.31701 0.242528 14.0907
-3.32528 0.237032 13.9218
-3.33606 0.214653 13.2881
-3.3442 0.209438 13.1383
-3.34937 0.204132 12.9824
-3.3565 0.198917 12.8325
-3.36054 0.184968 12.4306
-3.36677 0.17459 12.1348
-3.37764 0.169895 12.0199
-3.39612 0.145159 11.2943
-3.3971 0.140235 11.1644
-3.43237 0.103034 10.0691
-3.43805 0.0996906 9.97815
-3.44079 0.0962416 9.88021
-3.43435 0.0931413 9.8062
-3.44076 0.087392 9.62031
-3.44639 0.0841525 9.53638
-3.47693 0.0503688 8.53698
-3.48343 0.0474113 8.47206
-3.48598 0.0453174 8.3981
-3.4895 0.0433132 8.33015
-3.49793 0.0414606 8.27223
-3.48546 0.0384151 8.20217
-3.48995 0.036456 8.13723
-3.49541 0.0345716 8.07728
-3.49498 0.0314461 8.00132
-3.50238 0.0296668 7.94839
-3.50882 0.0278127 7.89046
-3.50319 0.0260831 7.84144
-3.5037 0.0240767 7.77346
-3.50618 0.0221309 7.7095
-3.51259 0.020336 7.65557
-3.51308 0.018374 7.59059
-3.51849 0.0165636 7.53565
-3.52194 0.0146925 7.4767
-3.50939 0.0117951 7.41664
-3.5079 0.00980202 7.34965
-3.51625 0.00812704 7.30373
-3.51768 0.00626934 7.24576
-3.52406 0.00453368 7.19582
-3.52647 0.00273592 7.14186
-3.51882 0.00103449 7.09482
-3.52419 -0.00068708 7.04588
-3.51873 -0.00274232 6.97486
-3.52604 -0.00434401 6.93393
-3.53337 -0.00599012 6.89001
-3.52787 -0.00798614 6.82299
-3.53617 -0.00855761 6.78405
-3.52652 -0.0102605 6.737
-3.53482 -0.0118467 6.69708
-3.53916 -0.0135098 6.65213
-3.53266 -0.0154917 6.5861
-3.53542 -0.0189851 6.48516
-3.54764 -0.0194056 6.45625
-3.53501 -0.0221402 6.40719
-3.5423 -0.0226976 6.36925
-3.55586 -0.0247982 6.29437
-3.5434 -0.0278584 6.22332
-3.55462 -0.0282797 6.1944
-3.54762 -0.0332539 6.0614
-3.55981 -0.0336152 6.0365
-3.55916 -0.0352968 5.99051
-3.54964 -0.0372513 5.92646
-3.56576 -0.0374765 5.91058
-3.55903 -0.0389996 5.87555
-3.56134 -0.0406049 5.83459
-3.55969 -0.042302 5.78759
-3.56232 -0.044529 5.70463
-3.5725 -0.0448918 5.67971
-3.56887 -0.0466199 5.6307
-3.56805 -0.047961 5.60771
-3.56342 -0.0496898 5.5587
-3.56867 -0.0501747 5.52574
-3.56798 -0.051797 5.48375
-3.57519 -0.0522064 5.45581
-3.5837 -0.0551921 5.38891
-3.57327 -0.057325 5.31285
-3.57258 -0.0589177 5.27286
-3.58273 -0.0592213 5.25194
-3.58105 -0.0608443 5.20995
-3.57738 -0.0624836 5.16694
-3.58655 -0.0628175 5.14401
-3.57681 -0.064328 5.10995
-3.584 -0.0647078 5.08401
-3.2969 0.350379 14.8911
-3.30821 0.343826 14.7182
-3.33592 0.30273 13.6979
-3.36167 0.267498 12.8035
-3.37187 0.255197 12.5127
-3.38962 0.230898 11.8841
-3.39958 0.215086 11.4914
-3.40937 0.205585 11.2545
-3.40984 0.197713 11.0606
-3.45032 0.148147 9.8055
-3.45597 0.144878 9.71958
-3.45376 0.141322 9.6146
-3.47058 0.0999956 8.5792
-3.52462 0.0542981 7.38212
-3.5371 0.0315275 6.78947
-3.5314 0.0299312 6.74944
-3.5387 0.0293442 6.7095
-3.54403 0.0277114 6.66656
-3.54244 0.024896 6.61158
-3.55051 0.0197995 6.4697
-3.54577 0.0182927 6.43568
-3.54751 0.014843 6.33773
-3.55577 0.0133457 6.30381
-3.55846 0.0099855 6.21187
-3.54977 0.00837216 6.17082
-3.56068 0.00460336 6.05094
-3.56333 0.00131721 5.964
-3.5668 -0.00159813 5.90206
-3.56121 -0.00340172 5.84804
-3.57284 -0.0115912 5.63222
-3.57149 -0.0148655 5.54624
-3.57179 -0.0154576 5.50625
-3.57604 -0.016943 5.4733
-3.5786 -0.0200516 5.39835
-3.56886 -0.021562 5.3643
-3.58385 -0.0254907 5.23345
-3.57946 -0.0286931 5.15245
-3.58751 -0.0287909 5.14551
-3.59174 -0.030232 5.11556
-3.58113 -0.0320096 5.0635
-3.28869 0.462551 15.3074
-3.29432 0.452358 15.0916
-3.29851 0.427144 14.5369
-3.30881 0.418605 14.3651
-3.32004 0.4112 14.2022
-3.32834 0.40366 14.0304
-3.33103 0.381437 13.5427
-3.33824 0.374074 13.3828
-3.34541 0.36677 13.2269
-3.35255 0.360554 13.0771
-3.35871 0.353279 12.9232
-3.36582 0.346108 12.7763
-3.35893 0.333972 12.4974
-3.36303 0.326814 12.3516
-3.37004 0.320835 12.2177
-3.37701 0.314945 12.0898
-3.38398 0.309055 11.9619
-3.38966 0.286834 11.4742
-3.39457 0.282061 11.3543
-3.3985 0.276229 11.2304
-3.40728 0.27171 11.1275
-3.43663 0.221357 10.0223
-3.44623 0.218195 9.94345
-3.44504 0.21361 9.8365
-3.44972 0.209266 9.74559
-3.43935 0.205045 9.66356
-3.44205 0.201655 9.56962
-3.45061 0.198565 9.49572
-3.47816 0.153781 8.49645
-3.48563 0.150883 8.43554
-3.48917 0.14782 8.3636
-3.49072 0.14474 8.29065
-3.49228 0.141646 8.2167
-3.49678 0.138672 8.15076
-3.48821 0.135822 8.09373
-3.48778 0.132696 8.01777
-3.49421 0.129857 7.96085
-3.49967 0.126958 7.89993
-3.49724 0.123846 7.82494
-3.50267 0.122006 7.768
-3.51302 0.119333 7.72211
-3.501 0.113399 7.59209
-3.5074 0.111619 7.53916
-3.50591 0.108611 7.47119
-3.50837 0.105725 7.41124
-3.5167 0.104065 7.36632
-3.51689 0.0967405 7.20941
-3.5144 0.0937468 7.14242
-3.51878 0.0919949 7.09148
-3.52415 0.0902733 7.04253
-3.51966 0.0872781 6.97554
-3.52128 0.0830506 6.8926
-3.52608 0.0784996 6.78769
-3.54158 0.053687 6.19209
-3.55242 0.0371283 5.81637
-3.55571 0.0355533 5.77741
-3.56239 0.0262567 5.55456
-3.56073 0.024604 5.51057
-3.56702 0.0180769 5.33969
-3.57352 0.00913548 5.14085
-3.30619 0.528642 14.5694
-3.31454 0.519013 14.3916
-3.33474 0.475874 13.5713
-3.34291 0.4686 13.4174
-3.35105 0.460371 13.2666
-3.36453 0.422648 12.5422
-3.37057 0.415609 12.4043
-3.37852 0.409749 12.2784
-3.38162 0.40159 12.1326
-3.38838 0.369269 11.503
-3.39915 0.363781 11.4021
-3.40599 0.358143 11.2913
-3.41185 0.35246 11.1774
-3.39912 0.343949 11.0084
-3.44211 0.296301 10.0853
-3.44779 0.291973 9.99538
-3.4485 0.273659 9.63661
-3.45706 0.269555 9.56172
-3.48264 0.218725 8.55953
-3.49957 0.200008 8.17288
-3.50558 0.193029 8.03901
-3.50859 0.186047 7.90512
-3.50989 0.177502 7.73323
-3.51629 0.175722 7.6803
-3.51286 0.171609 7.60532
-3.51925 0.168844 7.55341
-3.50963 0.160142 7.37144
-3.52288 0.158649 7.33755
-3.51645 0.154534 7.26256
-3.53014 0.150182 7.17071
-3.53256 0.147369 7.11576
-3.53365 0.140238 6.97186
-3.53014 0.137273 6.90687
-3.52605 0.130479 6.78592
-3.53138 0.128846 6.74298
-3.54066 0.12729 6.70506
-3.531 0.124632 6.66103
-3.53139 0.121863 6.60906
-3.53376 0.120139 6.5601
-3.53809 0.117491 6.51616
-3.54242 0.115857 6.47322
-3.54181 0.113087 6.42124
-3.5412 0.110317 6.36927
-3.53645 0.108825 6.33626
-3.53979 0.107161 6.2913
-3.54509 0.105587 6.25236
-3.54545 0.102877 6.20439
-3.55172 0.101349 6.16846
-3.54814 0.0985318 6.11346
-3.54454 0.0957445 6.06047
-3.54899 0.0928595 6.00054
-3.55328 0.0912853 5.96159
-3.55658 0.0897102 5.92263
-3.56777 0.0883483 5.89773
-3.55921 0.0854686 5.8387
-3.56069 0.082537 5.77575
-3.56002 0.0798852 5.73178
-3.55541 0.0781267 5.68076
-3.57449 0.0779778 5.66991
-3.5669 0.0751728 5.61588
-3.57116 0.0736577 5.58093
-3.56834 0.0723004 5.55693
-3.57062 0.0707543 5.51996
-3.56599 0.0680255 5.47096
-3.57517 0.0666769 5.44705
-3.57647 0.0651005 5.40808
-3.57182 0.0624161 5.36207
-3.57097 0.0621046 5.34107
-3.5762 0.0606642 5.31113
-3.57678 0.0565396 5.23518
-3.57705 0.0550068 5.1992
-3.58326 0.0535968 5.17126
-3.58947 0.0531867 5.14331
-3.58467 0.0517983 5.11729
-3.58198 0.0491894 5.07631
-3.59015 0.0488548 5.05337
-3.28432 0.656061 15.2055
-3.2899 0.643956 14.9957
-3.30125 0.63333 14.8179
-3.30967 0.622553 14.6301
-3.30531 0.602383 14.2813
-3.31656 0.592949 14.1165
-3.32386 0.582408 13.9447
-3.33213 0.572927 13.7769
-3.34034 0.563564 13.6171
-3.33466 0.546016 13.3102
-3.34087 0.536652 13.1504
-3.34996 0.528512 13.0056
-3.35611 0.520266 12.8537
-3.36514 0.512259 12.7179
-3.37026 0.504072 12.57
-3.35725 0.496124 12.439
-3.36428 0.488116 12.3032
-3.37126 0.480196 12.1733
-3.37532 0.473127 12.0334
-3.38893 0.438107 11.424
-3.39869 0.431619 11.3231
-3.40458 0.424876 11.2053
-3.40945 0.419192 11.0914
-3.41235 0.412418 10.9715
-3.43948 0.366432 10.1612
-3.4311 0.361212 10.0792
-3.43484 0.355764 9.98134
-3.44051 0.350465 9.89345
-3.44717 0.346182 9.80655
-3.45282 0.340913 9.72066
-3.45454 0.335493 9.62474
-3.45822 0.330164 9.53483
-3.48417 0.271624 8.48475
-3.49066 0.267667 8.41985
-3.48633 0.263346 8.33087
-3.49281 0.259418 8.26796
-3.49534 0.255384 8.19803
-3.50081 0.252455 8.13511
-3.49127 0.24856 8.07509
-3.49574 0.245631 8.01216
-3.49923 0.241671 7.94723
-3.50566 0.238832 7.89031
-3.50619 0.234811 7.82137
-3.51063 0.231941 7.76244
-3.51508 0.22907 7.7035
-3.50452 0.225204 7.64547
-3.50896 0.222334 7.58654
-3.5065 0.218281 7.51557
-3.51976 0.216773 7.48069
-3.52123 0.212856 7.41875
-3.52466 0.210014 7.36181
-3.52514 0.206082 7.29886
-3.51947 0.203427 7.25485
-3.52484 0.201705 7.20591
-3.53023 0.198954 7.15499
-3.53165 0.195126 7.09905
-3.53647 0.189516 6.99015
-3.53318 0.184122 6.89619
-3.53542 0.175696 6.73231
-3.53879 0.172973 6.68337
-3.54412 0.17034 6.64044
-3.54116 0.163295 6.50251
-3.54943 0.161768 6.46659
-3.5518 0.15906 6.41864
-3.55317 0.156335 6.36968
-3.55157 0.153549 6.3167
-3.54781 0.151073 6.28471
-3.55607 0.149576 6.25079
-3.5436 0.145516 6.17974
-3.55517 0.141414 6.10488
-3.55454 0.139688 6.0559
-3.56924 0.127368 5.83116
-3.57056 0.125732 5.78819
-3.57954 0.11186 5.52642
-3.58356 0.104879 5.39254
-3.28574 0.734151 15.0083
-3.29225 0.722195 14.8085
-3.30163 0.710508 14.6267
-3.31575 0.667496 13.9504
-3.32012 0.65582 13.7696
-3.3293 0.645518 13.6138
-3.33843 0.636319 13.4649
-3.34304 0.598293 12.8555
-3.35011 0.589196 12.7136
-3.36011 0.581264 12.5828
-3.36519 0.572151 12.4399
-3.4021 0.480817 10.9984
-3.41874 0.442741 10.385
-3.44106 0.391396 9.5508
-3.48007 0.309826 8.22812
-3.48708 0.301862 8.09527
-3.49438 0.283353 7.79056
-3.49785 0.280437 7.72862
-3.5072 0.277763 7.68272
-3.50254 0.267139 7.50582
-3.51431 0.260638 7.40399
-3.51477 0.256736 7.34304
-3.51228 0.252727 7.27507
-3.51342 0.243508 7.1252
-3.5178 0.240756 7.07426
-3.52513 0.238125 7.03135
-3.52555 0.235296 6.97539
-3.54834 0.175065 5.94631
-3.5546 0.172552 5.91139
-3.55197 0.169824 5.8624
-3.55921 0.168356 5.83048
-3.5546 0.164598 5.77949
-3.562 0.161818 5.72658
-3.56725 0.160334 5.69364
-3.55966 0.157529 5.63961
-3.56195 0.154968 5.60166
-3.56523 0.152423 5.56472
-3.5754 0.152089 5.5418
-3.56469 0.149519 5.50375
-3.56499 0.146927 5.46379
-3.57448 0.143972 5.39889
-3.57477 0.14141 5.36093
-3.58396 0.140046 5.33601
-3.56829 0.137384 5.29193
-3.57479 0.133411 5.22603
-3.57605 0.131894 5.19105
-3.58154 0.127936 5.12615
-3.59086 0.126321 5.08423
-3.58322 0.123605 5.03621
-3.29422 0.810172 14.6712
-3.2997 0.79729 14.4764
-3.31098 0.785797 14.3076
-3.32689 0.740202 13.6593
-3.33121 0.727629 13.4855
-3.34326 0.718566 13.3457
-3.34463 0.705902 13.1659
-3.34981 0.676675 12.7453
-3.35103 0.665292 12.5845
-3.36295 0.65751 12.4637
-3.3661 0.647262 12.3118
-3.37213 0.637254 12.176
-3.37493 0.611764 11.8053
-3.38881 0.586149 11.4258
-3.39909 0.555733 10.9922
-3.40198 0.547988 10.8744
-3.40683 0.540334 10.7625
-3.41555 0.533934 10.6677
-3.44039 0.463617 9.63273
-3.44407 0.457288 9.54284
-3.44969 0.452078 9.46095
-3.45607 0.43042 9.14628
-3.45774 0.424119 9.05837
-3.46136 0.418907 8.97646
-3.46396 0.413725 8.89655
-3.46752 0.399678 8.69076
-3.4711 0.394556 8.61485
-3.47564 0.390508 8.54393
-3.48015 0.385505 8.47603
-3.4837 0.380427 8.40312
-3.48319 0.367511 8.20628
-3.4867 0.363522 8.13936
-3.49118 0.358578 8.07546
-3.49566 0.354648 8.01254
-3.49914 0.350703 7.94862
-3.49555 0.337948 7.76275
-3.501 0.334078 7.70384
-3.49855 0.328996 7.63089
-3.50199 0.32514 7.57296
-3.50519 0.314789 7.41412
-3.50862 0.311947 7.35718
-3.51203 0.30815 7.30325
-3.51645 0.304339 7.24834
-3.51887 0.300512 7.1924
-3.5166 0.29409 7.09647
-3.51507 0.290171 7.03451
-3.52142 0.28748 6.98759
-3.55465 0.226353 6.03261
-3.56912 0.180661 5.3103
-3.31375 0.877084 14.4613
-3.4166 0.613658 10.9185
-3.42242 0.606064 10.8107
-3.42813 0.559861 10.1893
-3.44441 0.548372 10.0206
-3.47227 0.481967 9.11463
-3.47488 0.476785 9.03472
-3.52402 0.35311 7.29968
-3.53141 0.330453 6.98503
-3.5338 0.326685 6.93309
-3.53915 0.324008 6.88717
-3.54608 0.28833 6.36868
-3.55236 0.285787 6.33176
-3.55274 0.282047 6.28181
-3.55408 0.279368 6.23585
-3.55839 0.276764 6.19492
-3.55776 0.273053 6.14696
-3.55207 0.260488 5.97408
-3.56425 0.260127 5.94917
-3.54979 0.25408 5.87914
-3.55734 0.24999 5.80525
-3.5585 0.24768 5.78429
-3.55388 0.244937 5.73429
-3.56803 0.243666 5.71541
-3.55748 0.23977 5.65538
-3.5581 0.233557 5.57347
-3.57421 0.233346 5.55859
-3.57862 0.22955 5.50467
-3.56509 0.225623 5.44262
-3.56836 0.223107 5.40768
-3.56864 0.220545 5.36971
-3.57318 0.215497 5.29881
-3.57163 0.211623 5.23985
-3.57318 0.207543 5.16691
-3.57683 0.201273 5.08102
-3.58034 0.197283 5.01409
-3.28982 1.04553 15.2338
-3.29737 1.0285 15.029
-3.30989 0.969716 14.3009
-3.32211 0.956357 14.1412
-3.32845 0.941727 13.9634
-3.34547 0.876988 13.1704
-3.35359 0.865803 13.0226
-3.36696 0.808319 12.3144
-3.37009 0.796116 12.1656
-3.37999 0.786362 12.0468
-3.38888 0.776622 11.929
-3.389 0.765447 11.7822
-3.39554 0.738478 11.4466
-3.40142 0.728766 11.3308
-3.40437 0.718903 11.2049
-3.41316 0.71037 11.1011
-3.41605 0.700626 10.9832
-3.41642 0.675993 10.6706
-3.41536 0.666172 10.5477
-3.42796 0.659997 10.4678
-3.4298 0.650356 10.357
-3.43456 0.642879 10.2571
-3.43539 0.634251 10.1472
-3.42896 0.628137 10.0723
-3.43172 0.619659 9.97241
-3.44229 0.614541 9.89655
-3.44503 0.606108 9.79968
-3.45363 0.599945 9.72083
-3.45634 0.592555 9.62695
-3.46 0.586256 9.53905
-3.44667 0.578943 9.45105
-3.45524 0.57284 9.37619
-3.45985 0.566644 9.29531
-3.46742 0.56054 9.22045
-3.47006 0.554283 9.13555
-3.46781 0.535878 8.90577
-3.47435 0.529817 8.8339
-3.47596 0.523634 8.75399
-3.47954 0.517497 8.6771
-3.48604 0.512525 8.61121
-3.48952 0.497641 8.41643
-3.48619 0.490321 8.3275
-3.49068 0.485377 8.2636
-3.49911 0.481525 8.20572
-3.4987 0.475385 8.12879
-3.50121 0.47038 8.06088
-3.50569 0.465451 7.99797
-3.49811 0.460631 7.94298
-3.50061 0.455656 7.87706
-3.50702 0.451847 7.82216
-3.50656 0.445796 7.75124
-3.51002 0.440895 7.69033
-3.51249 0.436979 7.6284
-3.50095 0.431083 7.56839
-3.50241 0.427166 7.50645
-3.50882 0.422387 7.45356
-3.50929 0.418469 7.39161
-3.51862 0.414825 7.34773
-3.525 0.411075 7.29683
-3.52644 0.407217 7.23889
-3.51684 0.402426 7.18588
-3.52024 0.398658 7.13395
-3.52168 0.393801 7.07603
-3.52409 0.389989 7.02109
-3.52945 0.386297 6.97418
-3.52791 0.381393 6.91324
-3.52124 0.378752 6.87022
-3.53053 0.375196 6.83234
-3.52503 0.3702 6.76536
-3.53333 0.367629 6.72645
-3.53866 0.364982 6.68253
-3.53512 0.360076 6.62157
-3.54242 0.356504 6.58267
-3.53474 0.353862 6.53964
-3.53415 0.349063 6.4857
-3.53552 0.345353 6.43776
-3.54773 0.343933 6.40887
-3.54417 0.339087 6.35191
-3.54948 0.336483 6.31098
-3.55576 0.333926 6.27306
-3.54743 0.326617 6.18509
-3.55569 0.32512 6.15117
-3.54716 0.320196 6.08917
-3.55147 0.316592 6.04825
-3.56267 0.315201 6.02135
-3.56004 0.311473 5.97238
-3.5576 0.306376 5.89843
-3.55794 0.302725 5.85448
-3.56025 0.30012 5.81353
-3.5665 0.297621 5.77961
-3.56978 0.295076 5.74267
-3.56912 0.29141 5.69771
-3.55743 0.287809 5.65767
-3.57158 0.287523 5.63778
-3.56695 0.283795 5.58879
-3.56331 0.280082 5.54081
-3.56855 0.277612 5.50888
-3.57085 0.275036 5.46993
-3.56705 0.272648 5.44394
-3.57228 0.270193 5.41301
-3.57258 0.267602 5.37304
-3.5709 0.264979 5.33106
-3.5791 0.2626 5.30516
-3.57939 0.260038 5.26719
-3.58264 0.257537 5.23325
-3.58476 0.257316 5.21827
-3.57219 0.252463 5.16124
-3.57939 0.251084 5.13531
-3.58066 0.248552 5.09935
-3.58587 0.246141 5.07142
-3.57724 0.24241 5.0224
-3.31341 1.04757 14.3578
-3.37934 0.867507 12.2587
-3.38242 0.855393 12.1158
-3.40387 0.793767 11.3978
-3.41983 0.739085 10.7437
-3.4256 0.730579 10.6418
-3.43999 0.68102 10.0636
-3.51517 0.482554 7.66675
-3.51468 0.477562 7.59981
-3.51715 0.471646 7.5379
-3.52715 0.450746 7.27425
-3.53689 0.42138 6.91171
-3.53633 0.416536 6.85477
-3.53873 0.412754 6.80184
-3.53913 0.408969 6.74889
-3.54349 0.394308 6.56911
-3.54684 0.39063 6.52319
-3.55018 0.386966 6.47826
-3.55131 0.374762 6.32943
-3.55088 0.369651 6.25449
-3.5463 0.364819 6.19852
-3.55752 0.362398 6.16964
-3.5559 0.358657 6.11967
-3.55723 0.355007 6.07573
-3.55955 0.352387 6.03378
-3.55874 0.350016 6.00881
-3.56204 0.347427 5.96887
-3.56534 0.343852 5.92994
-3.56271 0.340125 5.88097
-3.57175 0.330089 5.74316
-3.56943 0.32277 5.65424
-3.57826 0.314148 5.54442
-3.57544 0.312791 5.52042
-3.57772 0.309245 5.48348
-3.57803 0.306653 5.44352
-3.58228 0.304167 5.41058
-3.59301 0.276832 5.05002
-3.27608 1.23572 15.3139
-3.28555 1.21786 15.1202
-3.29213 1.19777 14.9115
-3.30345 1.1822 14.7378
-3.31676 1.11685 14.0387
-3.32602 1.10141 13.873
-3.33232 1.08586 13.7013
-3.34396 1.02982 13.0901
-3.35207 1.01566 12.9444
-3.36111 1.00362 12.8066
-3.36333 0.988244 12.6458
-3.36946 0.938197 12.1025
-3.37738 0.927397 11.9807
-3.39018 0.917853 11.8759
-3.40117 0.882015 11.4815
-3.39783 0.861771 11.2627
-3.40663 0.852224 11.1579
-3.40858 0.841375 11.0331
-3.41635 0.831871 10.9313
-3.41824 0.821126 10.8134
-3.42112 0.810412 10.6976
-3.4269 0.801906 10.5958
-3.41857 0.792583 10.5068
-3.42138 0.783001 10.4
-3.42712 0.77457 10.3031
-3.43482 0.766214 10.2113
-3.43465 0.756586 10.1014
-3.44329 0.749349 10.0176
-3.43567 0.732635 9.83475
-3.44036 0.724307 9.74489
-3.44699 0.717068 9.66104
-3.45067 0.708739 9.57118
-3.45533 0.701455 9.48431
-3.46388 0.694395 9.41247
-3.45054 0.686098 9.32548
-3.45711 0.679978 9.24961
-3.46468 0.672874 9.17476
-3.46339 0.664496 9.08186
-3.47191 0.658481 9.013
-3.47355 0.639286 8.79727
-3.48007 0.633269 8.7284
-3.48559 0.627267 8.66052
-3.48772 0.602095 8.37887
-3.48928 0.596001 8.30496
-3.49084 0.588922 8.23207
-3.49631 0.583993 8.16917
-3.49939 0.571894 8.02736
-3.50119 0.562341 7.9225
-3.50566 0.556427 7.86061
-3.51109 0.551587 7.80371
-3.50375 0.544279 7.71575
-3.51409 0.540636 7.67188
-3.50869 0.533448 7.59193
-3.51706 0.528743 7.54406
-3.50354 0.522801 7.48104
-3.52075 0.521399 7.45318
-3.50646 0.512998 7.35919
-3.51529 0.503391 7.25038
-3.51816 0.493676 7.13453
-3.52135 0.491323 7.11059
-3.51491 0.484223 7.03663
-3.52617 0.481714 7.00175
-3.52464 0.47681 6.9408
-3.53239 0.46835 6.84197
-3.53674 0.464658 6.79505
-3.5281 0.459956 6.74805
-3.53286 0.451479 6.6482
-3.53366 0.441911 6.54233
-3.537 0.438247 6.49741
-3.53561 0.432062 6.41748
-3.53698 0.427323 6.36755
-3.54302 0.4163 6.23074
-3.54044 0.411484 6.17578
-3.5512 0.403012 6.07598
-3.54562 0.398179 6.02
-3.54893 0.394575 5.97907
-3.54928 0.390894 5.93312
-3.55636 0.390736 5.92218
-3.54979 0.384903 5.8662
-3.55999 0.383511 5.8393
-3.55539 0.378738 5.78733
-3.56855 0.377422 5.76544
-3.55505 0.371435 5.69942
-3.56936 0.368839 5.65856
-3.56968 0.365217 5.61661
-3.57493 0.362733 5.58368
-3.57455 0.355519 5.50178
-3.57981 0.353019 5.46785
-3.58011 0.350427 5.42788
-3.56939 0.346887 5.39185
-3.5766 0.344478 5.36394
-3.58113 0.33843 5.29305
-3.58665 0.333428 5.22516
-3.5861 0.328554 5.16622
-3.58863 0.322505 5.09531
-3.57703 0.317727 5.04329
-3.59313 0.317546 5.03041
-3.27649 1.30784 15.1188
-3.28402 1.28787 14.9181
-3.29343 1.27013 14.7324
-3.30085 1.25137 14.5457
-3.31405 1.23604 14.388
-3.30957 1.20311 14.0554
-3.31881 1.1877 13.8927
-3.32314 1.1701 13.717
-3.33523 1.15598 13.5732
-3.34342 1.14067 13.4175
-3.34768 1.12521 13.2507
-3.34479 1.09709 12.9731
-3.3519 1.08293 12.8273
-3.35702 1.06875 12.6796
-3.36309 1.05467 12.5388
-3.37012 1.04166 12.403
-3.37518 1.02859 12.2632
-3.38022 1.01557 12.1265
-3.37711 0.977941 11.7469
-3.38311 0.952038 11.4833
-3.40263 0.946031 11.4146
-3.40071 0.931928 11.2727
-3.3973 0.924772 11.1948
-3.39826 0.911893 11.068
-3.40898 0.903495 10.9732
-3.41087 0.891765 10.8563
-3.41569 0.88117 10.7485
-3.41855 0.8705 10.6357
-3.41117 0.862281 10.5537
-3.41777 0.842163 10.3431
-3.42253 0.832687 10.2432
-3.42725 0.823269 10.1474
-3.42904 0.813746 10.0445
-3.44352 0.80781 9.98071
-3.43492 0.79008 9.79688
-3.43665 0.780646 9.70002
-3.44327 0.773452 9.61917
-3.44205 0.762927 9.5163
-3.45649 0.758079 9.45847
-3.44775 0.741616 9.29263
-3.45138 0.734376 9.20875
-3.46087 0.72842 9.1439
-3.4596 0.719014 9.04902
-3.46712 0.712998 8.98015
-3.46678 0.70471 8.89326
-3.46479 0.691741 8.76042
-3.46738 0.684588 8.68254
-3.47094 0.677495 8.60866
-3.47842 0.671569 8.54579
-3.47999 0.664445 8.4699
-3.47961 0.657246 8.38899
-3.47793 0.652623 8.34704
-3.48005 0.639434 8.19923
-3.49043 0.634687 8.14837
-3.48803 0.626516 8.06947
-3.4925 0.621602 8.00756
-3.49992 0.616793 7.95268
-3.49337 0.597962 7.76189
-3.49585 0.592017 7.69798
-3.50176 0.581245 7.57817
-3.50126 0.575283 7.51325
-3.51224 0.551413 7.25165
-3.52057 0.547783 7.20876
-3.51764 0.52274 6.93607
-3.522 0.518033 6.88817
-3.52636 0.514341 6.84125
-3.52305 0.504992 6.75035
-3.53016 0.491821 6.60358
-3.5372 0.467845 6.33495
-3.53758 0.463105 6.28501
-3.54546 0.441441 6.03736
-3.55305 0.435292 5.9595
-3.54862 0.428179 5.88456
-3.54994 0.424558 5.84262
-3.55619 0.421059 5.80871
-3.56343 0.418606 5.7778
-3.55388 0.413726 5.71879
-3.5621 0.411303 5.68988
-3.55732 0.40887 5.66088
-3.56257 0.405371 5.62696
-3.56911 0.399324 5.55609
-3.57141 0.396749 5.51714
-3.57566 0.393264 5.48422
-3.56197 0.389647 5.44317
-3.57216 0.387284 5.41828
-3.57146 0.383692 5.37832
-3.57571 0.381206 5.34538
-3.57006 0.377521 5.29939
-3.57826 0.375143 5.27348
-3.5825 0.372672 5.24155
-3.58264 0.371391 5.22256
-3.57995 0.367782 5.18159
-3.58517 0.365357 5.15266
-3.58742 0.36187 5.11973
-3.58177 0.358185 5.07373
-3.58698 0.355775 5.0458
-3.31062 1.28991 14.0411
-3.32569 1.27483 13.9005
-3.32108 1.24215 13.5849
-3.32735 1.22468 13.4181
-3.33456 1.20832 13.2584
-3.3427 1.19311 13.1087
-3.34983 1.17791 12.9599
-3.3589 1.16284 12.8202
-3.36101 1.12078 12.4108
-3.3651 1.10565 12.267
-3.37112 1.09266 12.1322
-3.38007 1.07981 12.0075
-3.39267 1.01685 11.4024
-3.39955 1.00514 11.2866
-3.40638 0.994519 11.1768
-3.39714 0.984047 11.0779
-3.40004 0.972288 10.9591
-3.4039 0.960604 10.8453
-3.40873 0.948995 10.7365
-3.41063 0.93725 10.6186
-3.42127 0.928999 10.5338
-3.41952 0.898618 10.2382
-3.4223 0.888081 10.1344
-3.42607 0.877589 10.0336
-3.43665 0.870472 9.95773
-3.4394 0.860009 9.85889
-3.43838 0.833146 9.59824
-3.44108 0.824786 9.50638
-3.45063 0.817713 9.43354
-3.44839 0.807231 9.33367
-3.45792 0.800202 9.26383
-3.45631 0.795432 9.21188
-3.4652 0.769753 8.9633
-3.46391 0.760376 8.87041
-3.47926 0.756692 8.82358
-3.47304 0.746178 8.72167
-3.46845 0.740375 8.66772
-3.47691 0.734479 8.60686
-3.47813 0.718097 8.44609
-3.48166 0.711064 8.37621
-3.48971 0.698027 8.23844
-3.48705 0.693359 8.19349
-3.48718 0.678155 8.04469
-3.49265 0.672241 7.98281
-3.50203 0.668508 7.93293
-3.49077 0.658049 7.83499
-3.4989 0.656804 7.81807
-3.49797 0.642716 7.67725
-3.50044 0.636801 7.61535
-3.5029 0.630915 7.55544
-3.50832 0.625105 7.50056
-3.50684 0.618082 7.43165
-3.5056 0.608602 7.33176
-3.51 0.60382 7.27886
-3.51341 0.598024 7.22496
-3.51826 0.58737 7.11314
-3.5174 0.573149 6.96333
-3.52362 0.557771 6.80258
-3.542 0.528123 6.48811
-3.53569 0.518772 6.39719
-3.54236 0.510474 6.30935
-3.53978 0.505658 6.25439
-3.54642 0.497405 6.16956
-3.54186 0.491558 6.1126
-3.54969 0.468983 5.87096
-3.55642 0.448613 5.64328
-3.55772 0.444022 5.60335
-3.55788 0.442711 5.58237
-3.56306 0.428421 5.4276
-3.56435 0.424845 5.38866
-3.56466 0.421253 5.34871
-3.57061 0.409393 5.22291
-3.57118 0.403283 5.14799
-3.35367 1.26612 12.9737
-3.35362 1.23832 12.717
-3.36164 1.22333 12.5823
-3.36089 1.20589 12.4175
-3.37569 1.19434 12.3128
-3.37585 1.17709 12.161
-3.39734 1.0994 11.4382
-3.40323 1.08667 11.3215
-3.41054 1.05318 11.018
-3.41147 1.04036 10.8952
-3.4163 1.02875 10.7863
-3.41816 1.01606 10.6725
-3.4297 0.99408 10.4709
-3.42425 0.985996 10.398
-3.42414 0.973265 10.2812
-3.43181 0.963968 10.1933
-3.4375 0.954611 10.1015
-3.44006 0.932579 9.89683
-3.43633 0.914105 9.73005
-3.44981 0.908183 9.66723
-3.45055 0.897733 9.56938
-3.45885 0.879209 9.39869
-3.46417 0.860638 9.22498
-3.46253 0.855926 9.17703
-3.46224 0.84555 9.08417
-3.47337 0.830353 8.93546
-3.48151 0.815139 8.78572
-3.4828 0.810563 8.7468
-3.47459 0.799033 8.64389
-3.48464 0.784983 8.50516
-3.49269 0.770947 8.3674
-3.49354 0.75929 8.25557
-3.49368 0.743056 8.10479
-3.50559 0.730303 7.98605
-3.50985 0.713835 7.8193
-3.50348 0.704602 7.73638
-3.51088 0.698838 7.68451
-3.51481 0.687021 7.5617
-3.5153 0.680074 7.4978
-3.51972 0.674249 7.44191
-3.51111 0.668488 7.39093
-3.52436 0.666009 7.35806
-3.52385 0.659047 7.29315
-3.52726 0.65325 7.23925
-3.52816 0.641504 7.12142
-3.52981 0.632233 7.03555
-3.53023 0.626405 6.97964
-3.53264 0.621607 6.92572
-3.53348 0.60998 6.81588
-3.5398 0.605348 6.77299
-3.53903 0.602904 6.74302
-3.53056 0.594862 6.67306
-3.5349 0.591214 6.62914
-3.53767 0.580706 6.52731
-3.542 0.576073 6.4844
-3.55125 0.573577 6.4505
-3.53863 0.567828 6.40049
-3.54 0.563118 6.35256
-3.54529 0.559545 6.31365
-3.54368 0.553789 6.26271
-3.54898 0.550216 6.2238
-3.54836 0.545475 6.17386
-3.54361 0.541984 6.14087
-3.54529 0.532653 6.05101
-3.55388 0.525505 5.97317
-3.56013 0.522021 5.94026
-3.5575 0.517294 5.89131
-3.54978 0.512741 5.85431
-3.55801 0.510303 5.8244
-3.55669 0.501985 5.73551
-3.56491 0.499561 5.7066
-3.56226 0.493864 5.65966
-3.56653 0.491349 5.62472
-3.56273 0.487947 5.59774
-3.56107 0.483295 5.55379
-3.56334 0.480763 5.51784
-3.5686 0.477264 5.48393
-3.56493 0.47261 5.43996
-3.5682 0.469095 5.40503
-3.57541 0.466686 5.37712
-3.57049 0.452566 5.23427
-3.57374 0.45008 5.20133
-3.57501 0.446563 5.16639
-3.58319 0.444213 5.14248
-3.57147 0.440657 5.10544
-3.57767 0.438277 5.07952
-3.57992 0.43479 5.04658
-3.58217 0.432304 5.01363
-3.37675 1.24222 12.0341
-3.38371 1.22836 11.9083
-3.38384 1.21116 11.7595
-3.38453 1.16992 11.4061
-3.39823 1.15957 11.3143
-3.40311 1.14686 11.1986
-3.40994 1.13423 11.0888
-3.40357 1.11006 10.8751
-3.40939 1.09747 10.7673
-3.41713 1.08702 10.6695
-3.42194 1.07446 10.5637
-3.42574 1.06289 10.4579
-3.43346 1.05251 10.3641
-3.42495 1.0296 10.1683
-3.43165 1.01924 10.0765
-3.43637 1.00883 9.98068
-3.44206 0.998499 9.89087
-3.44869 0.989261 9.80704
-3.44299 0.969727 9.63626
-3.44865 0.959458 9.55045
-3.45133 0.950128 9.46059
-3.45401 0.939813 9.37175
-3.46256 0.931739 9.29893
-3.46718 0.922529 9.21709
-3.47081 0.913319 9.13524
-3.46233 0.905291 9.06628
-3.46889 0.897201 8.99244
-3.47151 0.88799 8.91059
-3.47804 0.880973 8.84173
-3.48066 0.871762 8.75988
-3.48319 0.84979 8.55919
-3.48282 0.839561 8.47633
-3.49127 0.833679 8.41647
-3.49186 0.82554 8.33959
-3.49636 0.817567 8.27373
-3.49693 0.809443 8.19784
-3.49385 0.79565 8.07701
-3.49592 0.780565 7.93623
-3.50826 0.775908 7.89138
-3.50682 0.767827 7.81848
-3.50786 0.7528 7.68169
-3.50712 0.749297 7.64773
-3.50173 0.740094 7.56682
-3.51404 0.735511 7.52697
-3.51254 0.728519 7.46006
-3.52189 0.723845 7.41419
-3.5204 0.716852 7.34727
-3.52261 0.713454 7.32034
-3.51225 0.704189 7.23538
-3.52353 0.70065 7.19852
-3.524 0.693747 7.13761
-3.52641 0.68795 7.08371
-3.53079 0.682199 7.03282
-3.51865 0.669518 6.9199
-3.53189 0.667068 6.88903
-3.53231 0.66124 6.83312
-3.53372 0.655442 6.7792
-3.53413 0.649643 6.72529
-3.53848 0.643966 6.6794
-3.52982 0.639294 6.63439
-3.53022 0.63351 6.58148
-3.53457 0.628847 6.53657
-3.53791 0.624183 6.49166
-3.53929 0.618445 6.44175
-3.54263 0.614781 6.39682
-3.54399 0.609072 6.34891
-3.53766 0.599765 6.26099
-3.54862 0.586908 6.13524
-3.54305 0.580061 6.07829
-3.54736 0.576457 6.03737
-3.5535 0.560242 5.88764
-3.55284 0.555575 5.8427
-3.55416 0.551955 5.80076
-3.5614 0.548487 5.76886
-3.55499 0.540343 5.69192
-3.55827 0.536797 5.65499
-3.55661 0.53213 5.61004
-3.56581 0.529737 5.58314
-3.55921 0.523963 5.53117
-3.56545 0.520494 5.49926
-3.5665 0.506438 5.36046
-3.56482 0.50183 5.31951
-3.57203 0.499421 5.2916
-3.57627 0.482997 5.12785
-3.5726 0.478358 5.08489
-3.58276 0.477054 5.06398
-3.57796 0.473666 5.03799
-3.40255 1.2179 11.1335
-3.40837 1.20531 11.0257
-3.40875 1.16667 10.7132
-3.41451 1.1552 10.6134
-3.42224 1.14378 10.5177
-3.42895 1.1324 10.4239
-3.43175 1.11983 10.3181
-3.42239 1.10958 10.2341
-3.42714 1.09814 10.1363
-3.43284 1.08778 10.0445
-3.43755 1.07639 9.95069
-3.44029 1.06496 9.85386
-3.4479 1.05576 9.77305
-3.44413 1.03536 9.6113
-3.44682 1.02504 9.52146
-3.45441 1.01589 9.44364
-3.45708 1.00559 9.3558
-3.46169 0.996406 9.27596
-3.46629 0.987225 9.19612
-3.46795 0.976939 9.10927
-3.45948 0.967912 9.04033
-3.46799 0.960927 8.97349
-3.46863 0.95067 8.88863
-3.47418 0.942608 8.81679
-3.48069 0.934622 8.74994
-3.4813 0.925424 8.66907
-3.48682 0.917422 8.60122
-3.48223 0.910619 8.54728
-3.48382 0.901481 8.47042
-3.48538 0.893387 8.39654
-3.49381 0.88655 8.3397
-3.49341 0.877381 8.26082
-3.4979 0.869437 8.19696
-3.49622 0.864814 8.15501
-3.49186 0.854553 8.07012
-3.49928 0.848745 8.01525
-3.50472 0.841891 7.95739
-3.50066 0.8121 7.70176
-3.51345 0.800585 7.59902
-3.52006 0.776438 7.38639
-3.54149 0.695888 6.67365
-3.53835 0.682199 6.55981
-3.54799 0.672963 6.47601
-3.54303 0.657932 6.33918
-3.55326 0.654496 6.3093
-3.55364 0.648756 6.25938
-3.55731 0.639457 6.17154
-3.55604 0.62902 6.07467
-3.55262 0.619893 5.99877
-3.55527 0.610623 5.91291
-3.5668 0.60361 5.84409
-3.56333 0.595557 5.77318
-3.56991 0.587437 5.69733
-3.57153 0.578225 5.61547
-3.55915 0.569017 5.5345
-3.5647 0.560941 5.46166
-3.57349 0.550408 5.35786
-3.57887 0.545672 5.30797
-3.58311 0.542202 5.27605
-3.57648 0.536487 5.22807
-3.58241 0.523686 5.10629
-3.59158 0.522352 5.08338
-3.58321 0.513118 5.00044
-3.41419 1.19683 10.3858
-3.42092 1.18542 10.29
-3.4286 1.17409 10.2002
-3.4304 1.16054 10.0954
-3.42868 1.14004 9.92667
-3.4371 1.11629 9.74106
-3.44472 1.10608 9.65926
-3.44939 1.09578 9.57144
-3.45404 1.08552 9.48561
-3.44657 1.07649 9.41668
