-3.69346 0.2916 6.99185
-3.6929 0.287741 6.93389
-3.69529 0.284988 6.88294
-3.69964 0.282295 6.83601
-3.69907 0.278466 6.78005
-3.69533 0.27596 6.74606
-3.69673 0.273176 6.6931
-3.69809 0.269467 6.64516
-3.69651 0.265637 6.5892
-3.69888 0.262913 6.54025
-3.6963 0.259097 6.48528
-3.69964 0.256433 6.44034
-3.70278 0.255169 6.42238
-3.69415 0.19373 5.44809
-3.70067 0.189713 5.37919
-3.71043 0.175286 5.14744
-3.70166 0.172821 5.11641
-3.69897 0.170212 5.07542
-3.69528 0.167603 5.03443
-3.6968 0.163582 4.96549
-3.69608 0.161049 4.92951
-3.6993 0.159607 4.89956
-3.70193 0.15438 4.81664
-3.70119 0.152876 4.78265
-3.70293 0.146427 4.68475
-3.70278 0.139769 4.57283
-3.70103 0.138264 4.53883
-3.70523 0.136883 4.51288
-3.70349 0.134378 4.4789
-3.70383 0.131697 4.43294
-3.70109 0.129192 4.39895
-3.66604 0.899769 14.6987
-3.69526 0.478274 8.99437
-3.69758 0.446792 8.5568
-3.7086 0.279542 6.17703
-3.70257 0.261689 5.91721
-3.70651 0.253857 5.79334
-3.70006 0.248771 5.72035
-3.69871 0.242497 5.63442
-3.70555 0.234859 5.52357
-3.71223 0.229547 5.43469
-3.69966 0.225694 5.37765
-3.70093 0.223162 5.34169
-3.6943 0.219432 5.29269
-3.69854 0.217976 5.26174
-3.69769 0.216665 5.24075
-3.70093 0.214208 5.2098
-3.70319 0.211692 5.17485
-3.7094 0.210296 5.14791
-3.70373 0.207641 5.10391
-3.70994 0.206231 5.07597
-3.69734 0.201452 5.02394
-3.70763 0.199882 4.98503
-3.7094 0.193374 4.88313
-3.70668 0.190824 4.84614
-3.7 0.187198 4.80414
-3.69617 0.185869 4.78213
-3.6984 0.184412 4.75116
-3.70582 0.180603 4.69627
-3.69973 0.172822 4.57632
-3.71311 0.162123 4.39355
-3.66063 0.978559 14.3464
-3.66399 0.963897 14.1667
-3.67025 0.950445 14.0009
-3.6726 0.935812 13.8231
-3.66739 0.884454 13.1917
-3.67544 0.873402 13.0529
-3.67882 0.805928 12.2108
-3.68093 0.782815 11.9332
-3.67467 0.743499 11.4396
-3.67758 0.733725 11.3198
-3.68046 0.72401 11.2039
-3.68152 0.681077 10.6685
-3.67944 0.67127 10.5466
-3.68613 0.663928 10.4558
-3.68403 0.633258 10.0731
-3.67795 0.624462 9.95221
-3.68848 0.618434 9.88237
-3.69019 0.611044 9.78848
-3.687 0.602458 9.68157
-3.69065 0.596188 9.59568
-3.69333 0.588872 9.50679
-3.6819 0.582739 9.43079
-3.68652 0.576544 9.3499
-3.69013 0.570347 9.26901
-3.68589 0.56185 9.16809
-3.69601 0.550681 9.02131
-3.68421 0.538319 8.86238
-3.68972 0.532332 8.7955
-3.68935 0.526088 8.71158
-3.69093 0.519964 8.63567
-3.69644 0.514977 8.56878
-3.69099 0.498938 8.36395
-3.69057 0.492813 8.28802
-3.6921 0.487763 8.2171
-3.69811 0.477799 8.08428
-3.69961 0.471824 8.01837
-3.69496 0.468139 7.97238
-3.69156 0.461968 7.89343
-3.695 0.458097 7.83451
-3.70142 0.453287 7.77962
-3.70093 0.448281 7.71168
-3.70043 0.443303 7.64574
-3.69132 0.434565 7.52879
-3.69868 0.43086 7.48089
-3.69719 0.425867 7.41394
-3.69666 0.420949 7.35201
-3.69909 0.416107 7.29509
-3.69724 0.404856 7.14322
-3.69571 0.399937 7.08127
-3.69517 0.395049 7.02133
-3.69855 0.391296 6.97041
-3.69642 0.382593 6.8555
-3.70373 0.380006 6.81559
-3.69605 0.376364 6.77258
-3.69941 0.372671 6.72565
-3.69686 0.368781 6.66568
-3.70513 0.366254 6.62978
-3.69862 0.360302 6.56581
-3.70591 0.357745 6.5279
-3.70216 0.355254 6.4949
-3.70056 0.351468 6.44194
-3.70094 0.347728 6.39199
-3.70624 0.34514 6.35206
-3.70562 0.341399 6.3021
-3.70894 0.337765 6.25918
-3.69666 0.330365 6.16518
-3.70588 0.328928 6.13527
-3.70426 0.325186 6.08531
-3.70955 0.322628 6.04738
-3.70988 0.318977 6.00343
-3.70825 0.315265 5.95546
-3.70578 0.310212 5.88451
-3.70809 0.307622 5.84456
-3.70971 0.301395 5.76165
-3.70806 0.297713 5.71569
-3.70542 0.294015 5.66872
-3.69767 0.291521 5.63569
-3.70687 0.290128 5.60878
-3.70422 0.286445 5.56281
-3.70847 0.28396 5.52987
-3.70977 0.281384 5.49091
-3.70512 0.277684 5.44393
-3.71135 0.276245 5.41399
-3.69864 0.272658 5.37494
-3.70783 0.271295 5.35003
-3.7012 0.267565 5.30103
-3.70149 0.265003 5.26306
-3.70672 0.262562 5.23313
-3.71194 0.261122 5.20319
-3.70741 0.256201 5.14122
-3.70373 0.252592 5.10024
-3.69905 0.249952 5.05724
-3.71119 0.248694 5.03935
-3.71047 0.246131 5.00137
-3.70975 0.243598 4.9654
-3.70618 0.239751 4.90842
-3.71237 0.237371 4.8825
-3.71091 0.232319 4.81155
-3.71215 0.230846 4.77958
-3.71637 0.228435 4.75164
-3.71364 0.2259 4.71566
-3.71278 0.224618 4.69667
-3.71104 0.222114 4.66269
-3.7103 0.21961 4.62871
-3.70681 0.214601 4.56075
-3.71311 0.213028 4.52182
-3.71136 0.210524 4.48784
-3.70763 0.208003 4.45284
-3.71404 0.204208 4.39894
-3.68203 0.810667 11.5177
-3.68297 0.799832 11.3939
-3.68595 0.74411 10.7376
-3.70507 0.447153 7.16265
-3.70542 0.42255 6.85198
-3.70722 0.413998 6.7471
-3.70698 0.395549 6.51434
-3.70736 0.391809 6.46439
-3.70737 0.370887 6.19967
-3.70909 0.352528 5.97292
-3.70431 0.350081 5.94292
-3.70838 0.329043 5.67022
-3.71088 0.314114 5.47243
-3.7133 0.310287 5.4165
-3.71061 0.306678 5.37553
-3.67052 1.17645 14.6076
-3.65861 1.12645 14.0682
-3.66486 1.11103 13.9045
-3.6701 1.09661 13.7407
-3.67627 1.08233 13.5869
-3.66486 1.03831 13.1134
-3.67094 1.02521 12.9716
-3.67115 1.01084 12.8118
-3.67915 0.998897 12.6801
-3.67833 0.984588 12.5242
-3.67525 0.948888 12.1397
-3.67045 0.934546 11.9818
-3.68124 0.925014 11.8781
-3.67641 0.910732 11.7242
-3.6852 0.901184 11.6194
-3.68228 0.888081 11.4776
-3.6796 0.836643 10.9082
-3.68819 0.817556 10.6995
-3.68065 0.799694 10.5067
-3.68344 0.790157 10.4029
-3.68426 0.780559 10.295
-3.68798 0.772141 10.1991
-3.6868 0.762542 10.0913
-3.68953 0.753123 9.9954
-3.67816 0.745887 9.91241
-3.67596 0.736331 9.80752
-3.6816 0.729077 9.72266
-3.68427 0.720777 9.63479
-3.68302 0.712311 9.53589
-3.69156 0.705251 9.46405
-3.69421 0.69798 9.37817
-3.68181 0.690817 9.30017
-3.68247 0.682515 9.21228
-3.69293 0.677635 9.15243
-3.68672 0.668076 9.04751
-3.69423 0.66209 8.98064
-3.6978 0.655983 8.90575
-3.69743 0.648754 8.82284
-3.68891 0.642815 8.75986
-3.69148 0.635707 8.68497
-3.69698 0.62972 8.61809
-3.69269 0.598433 8.26147
-3.69225 0.591338 8.18757
-3.69612 0.558731 7.80902
-3.6991 0.546824 7.68021
-3.70104 0.53699 7.55635
-3.68798 0.525146 7.43241
-3.70419 0.523743 7.40455
-3.70073 0.51669 7.33362
-3.69769 0.505808 7.20674
-3.69759 0.496061 7.08886
-3.69779 0.493662 7.0619
-3.69527 0.487728 6.99896
-3.70357 0.484142 6.95907
-3.69906 0.479176 6.8941
-3.69949 0.474348 6.83817
-3.70284 0.469655 6.79125
-3.69813 0.467089 6.75325
-3.69794 0.45752 6.64738
-3.69734 0.45272 6.59344
-3.69281 0.447814 6.53246
-3.70699 0.446469 6.50859
-3.70245 0.440563 6.44763
-3.69511 0.43327 6.36067
-3.6935 0.428499 6.30873
-3.69584 0.42485 6.26479
-3.70114 0.421262 6.22488
-3.69853 0.417505 6.17391
-3.69691 0.412764 6.12396
-3.69708 0.411424 6.10098
-3.70138 0.407849 6.06206
-3.70963 0.405367 6.02915
-3.70403 0.400564 5.97517
-3.69845 0.395746 5.92019
-3.70076 0.392141 5.87926
-3.70848 0.38474 5.78441
-3.71209 0.378559 5.70452
-3.71142 0.374907 5.66056
-3.71318 0.366428 5.56069
-3.71348 0.363836 5.52072
-3.70676 0.34933 5.35187
-3.70888 0.348095 5.3359
-3.71411 0.345655 5.30597
-3.71362 0.27694 4.44786
-3.71484 0.274512 4.41891
-3.66679 1.24787 14.4325
-3.66626 1.22898 14.2378
-3.66191 1.18187 13.7584
-3.66712 1.16551 13.5986
-3.67132 1.15017 13.4409
-3.67646 1.13596 13.2911
-3.66465 1.10766 13.0014
-3.66294 1.09116 12.8326
-3.67091 1.07827 12.7048
-3.67495 1.06523 12.567
-3.67608 1.05104 12.4192
-3.68115 1.024 12.1466
-3.66704 1.01225 12.0287
-3.67198 1.00043 11.9059
-3.67494 0.988552 11.779
-3.673 0.974478 11.6392
-3.67788 0.963765 11.5234
-3.67786 0.950856 11.3946
-3.68193 0.898912 10.8583
-3.67986 0.887105 10.7364
-3.68755 0.878749 10.6446
-3.67526 0.869364 10.5516
-3.67606 0.859796 10.4458
-3.67395 0.848063 10.3289
-3.68158 0.84084 10.2461
-3.67845 0.829151 10.1322
-3.68607 0.821943 10.0504
-3.68192 0.811282 9.93847
-3.67446 0.804211 9.86651
-3.67983 0.786551 9.68679
-3.67633 0.767618 9.48902
-3.68583 0.761649 9.42317
-3.68455 0.752242 9.32828
-3.68161 0.739168 9.18843
-3.6803 0.73082 9.09754
-3.67897 0.722517 9.00964
-3.68352 0.715454 8.93777
-3.68611 0.708287 8.85888
-3.67975 0.687086 8.64312
-3.68329 0.681038 8.57222
-3.6878 0.675049 8.50534
-3.68936 0.667955 8.43144
-3.69187 0.661951 8.36354
-3.68135 0.655026 8.30156
-3.68582 0.650097 8.23865
-3.68591 0.635966 8.09484
-3.68842 0.629991 8.02894
-3.68992 0.624015 7.96303
-3.69632 0.61922 7.90914
-3.68379 0.613308 7.84813
-3.68725 0.607408 7.78723
-3.69168 0.602568 7.73033
-3.68921 0.595545 7.66141
-3.69068 0.589629 7.5995
-3.69214 0.584727 7.53857
-3.68549 0.580026 7.49159
-3.68595 0.574139 7.43167
-3.6874 0.569252 7.37174
-3.68981 0.564454 7.31782
-3.69323 0.558643 7.26293
-3.69958 0.554967 7.21702
-3.69608 0.548987 7.15108
-3.68841 0.544331 7.10708
-3.68688 0.538427 7.04615
-3.69404 0.525153 6.89238
-3.69149 0.519278 6.83344
-3.69486 0.515555 6.78451
-3.69743 0.508447 6.70963
-3.69289 0.502541 6.64867
-3.69426 0.498831 6.60073
-3.69761 0.494138 6.55382
-3.69799 0.490399 6.50387
-3.70132 0.485765 6.46096
-3.69361 0.482182 6.42195
-3.69103 0.477366 6.36699
-3.70225 0.474945 6.33811
-3.69767 0.470128 6.28314
-3.70099 0.466494 6.24021
-3.69443 0.460631 6.18224
-3.70169 0.458133 6.14833
-3.70221 0.452112 6.07941
-3.6986 0.447354 6.02845
-3.69894 0.443689 5.9835
-3.70618 0.44122 5.95158
-3.71046 0.437676 5.91466
-3.69681 0.433 5.86962
-3.69812 0.429394 5.82868
-3.69646 0.425727 5.78372
-3.69974 0.422182 5.74679
-3.70302 0.419636 5.70985
-3.70334 0.416015 5.6679
-3.70265 0.411393 5.62595
-3.70381 0.410098 5.60598
-3.70015 0.406429 5.561
-3.69847 0.401792 5.51805
-3.70766 0.400428 5.49313
-3.70302 0.395729 5.44616
-3.70232 0.393137 5.40619
-3.70247 0.390856 5.38722
-3.70771 0.388386 5.35529
-3.69612 0.383563 5.30027
-3.7063 0.38123 5.27738
-3.70559 0.378667 5.23941
-3.71505 0.373771 5.17854
-3.71222 0.371444 5.15655
-3.7105 0.36788 5.11859
-3.71104 0.36183 5.04767
-3.71527 0.359389 5.01773
-3.7096 0.355733 4.97374
-3.70788 0.352199 4.93777
-3.71197 0.352025 4.92581
-3.71124 0.348491 4.88985
-3.71471 0.343576 4.82794
-3.711 0.339996 4.78896
-3.71719 0.338646 4.76502
-3.71286 0.330325 4.6761
-3.71112 0.327821 4.64212
-3.71713 0.316842 4.50831
-3.71462 0.311893 4.44435
-3.66039 1.21997 13.2917
-3.66847 1.20487 13.15
-3.67067 1.18854 12.9922
-3.66999 1.11615 12.2912
-3.67205 1.10209 12.1524
-3.67801 1.08922 12.0256
-3.66887 1.03668 11.5173
-3.66982 1.02383 11.3924
-3.67372 1.01208 11.2746
-3.68637 1.00382 11.1888
-3.67396 0.967751 10.8472
-3.67484 0.956049 10.7324
-3.67863 0.945513 10.6286
-3.68533 0.936142 10.5357
-3.6852 0.925455 10.4219
-3.67367 0.904575 10.2281
-3.6774 0.895157 10.1322
-3.6772 0.884589 10.0264
-3.68384 0.87635 9.94252
-3.68067 0.864735 9.83366
-3.68065 0.811966 9.30937
-3.6813 0.803694 9.22348
-3.69143 0.775557 8.94394
-3.6793 0.763847 8.829
-3.68678 0.757905 8.76514
-3.69721 0.752084 8.70929
-3.68926 0.738021 8.57042
-3.68199 0.728595 8.4745
-3.6924 0.723803 8.42064
-3.68705 0.714527 8.33472
-3.70039 0.710871 8.28987
-3.69336 0.697986 8.16299
-3.68656 0.681643 8.00516
-3.68906 0.675653 7.93826
-3.69008 0.662671 7.80444
-3.69526 0.66032 7.78051
-3.69427 0.64735 7.64768
-3.69181 0.640298 7.57675
-3.69722 0.634503 7.52287
-3.69376 0.62745 7.45194
-3.69914 0.622699 7.40104
-3.68657 0.616861 7.34503
-3.68801 0.611004 7.28712
-3.69285 0.601364 7.17628
-3.69768 0.590755 7.06746
-3.69022 0.582684 6.99551
-3.69719 0.57081 6.86872
-3.69169 0.564829 6.80276
-3.6911 0.559029 6.74884
-3.70038 0.556488 6.71194
-3.6919 0.549461 6.64297
-3.69052 0.541261 6.56207
-3.69387 0.537568 6.51514
-3.69425 0.531829 6.46522
-3.69463 0.527089 6.41529
-3.7098 0.525774 6.39342
-3.69789 0.511635 6.24952
-3.69663 0.502183 6.15164
-3.69698 0.498503 6.10569
-3.69635 0.493792 6.05775
-3.69818 0.483165 5.9479
-3.69688 0.474803 5.856
-3.69325 0.470075 5.80704
-3.69629 0.445096 5.53839
-3.69507 0.435571 5.43551
-3.69536 0.432009 5.39756
-3.69565 0.428447 5.35961
-3.69791 0.42593 5.32466
-3.70259 0.417617 5.23581
-3.69694 0.412917 5.18883
-3.70343 0.407974 5.12494
-3.69678 0.403289 5.07895
-3.70298 0.400894 5.05203
-3.69916 0.398536 5.02804
-3.69844 0.395002 4.99208
-3.7059 0.390105 4.9312
-3.70022 0.386479 4.8892
-3.70245 0.383022 4.85827
-3.70469 0.380565 4.82731
-3.69913 0.375703 4.76934
-3.70334 0.373291 4.7414
-3.69864 0.369696 4.70141
-3.70185 0.367284 4.67347
-3.70705 0.364903 4.64754
-3.7073 0.362414 4.61457
-3.69973 0.356565 4.5576
-3.70143 0.349205 4.4657
-3.70265 0.346777 4.43675
-3.70177 0.344539 4.42077
-3.66879 1.21639 12.4417
-3.67867 1.20368 12.326
-3.67876 1.18855 12.1822
-3.67259 1.14704 11.8107
-3.67455 1.13416 11.6839
-3.67749 1.12033 11.5601
-3.68137 1.10761 11.4443
-3.68428 1.09484 11.3245
-3.67277 1.04502 10.8651
-3.68635 1.03691 10.7893
-3.68524 1.02418 10.6724
-3.68321 0.982388 10.282
-3.68595 0.97194 10.1842
-3.68573 0.960416 10.0813
-3.69238 0.951163 9.99649
-3.68821 0.939532 9.88661
-3.6805 0.921026 9.71781
-3.68708 0.912891 9.64097
-3.68779 0.9035 9.5471
-3.69436 0.895395 9.47226
-3.68915 0.883853 9.36837
-3.69571 0.876777 9.29552
-3.69637 0.867475 9.20765
-3.68688 0.859492 9.14169
-3.68557 0.85013 9.0498
-3.697 0.844309 8.99397
-3.68683 0.832689 8.88505
-3.69226 0.812896 8.69636
-3.68598 0.802486 8.60145
-3.70031 0.798845 8.5576
-3.69499 0.788524 8.46871
-3.69596 0.761677 8.20907
-3.69059 0.75246 8.12716
-3.69657 0.739555 7.99838
-3.70251 0.72671 7.8736
-3.69736 0.715063 7.76271
-3.70424 0.703337 7.64592
-3.69651 0.671907 7.34729
-3.6974 0.660176 7.23045
-3.7056 0.643844 7.07273
-3.69498 0.638096 7.02273
-3.70131 0.634449 6.97883
-3.69779 0.627515 6.9159
-3.70017 0.622776 6.86598
-3.7065 0.61813 6.82209
-3.70197 0.612209 6.76013
-3.69664 0.602903 6.67222
-3.69506 0.597088 6.61728
-3.6994 0.592425 6.57238
-3.70767 0.588898 6.53649
-3.70016 0.582946 6.47251
-3.70645 0.579388 6.43461
-3.70879 0.574724 6.38969
-3.69615 0.569019 6.34267
-3.70342 0.565492 6.30677
-3.70675 0.561858 6.26385
-3.70019 0.555995 6.20587
-3.70251 0.55136 6.16295
-3.70419 0.543029 6.07308
-3.7014 0.539628 6.0461
-3.70175 0.534947 6.00017
-3.70405 0.531357 5.96023
-3.70142 0.526645 5.91228
-3.70767 0.523146 5.87837
-3.70108 0.517342 5.8244
-3.69532 0.513879 5.7934
-3.69662 0.510288 5.75346
-3.69398 0.505591 5.7065
-3.70022 0.503122 5.67458
-3.69954 0.4985 5.63264
-3.70182 0.494954 5.59571
-3.70806 0.492485 5.56379
-3.69931 0.48899 5.53077
-3.69666 0.484322 5.48581
-3.70189 0.480867 5.4549
-3.69922 0.477214 5.41092
-3.70544 0.474804 5.383
-3.69782 0.469059 5.33302
-3.70008 0.466542 5.29807
-3.69825 0.464215 5.27609
-3.69852 0.460683 5.24014
-3.70473 0.458273 5.21222
-3.707 0.454757 5.17728
-3.70826 0.45124 5.14234
-3.70754 0.447706 5.10638
-3.69977 0.444257 5.07637
-3.70003 0.441739 5.0414
-3.70623 0.439359 5.01548
-3.71639 0.438055 4.99458
-3.70577 0.432293 4.94357
-3.71592 0.431004 4.92367
-3.71123 0.427409 4.88368
-3.70146 0.423958 4.85365
-3.70172 0.42044 4.8187
-3.70593 0.418043 4.79176
-3.70618 0.414555 4.75881
-3.71236 0.413205 4.73488
-3.70592 0.406105 4.66092
-3.70406 0.403822 4.64194
-3.70256 0.397844 4.57601
-3.71566 0.397661 4.56311
-3.70722 0.38956 4.48915
-3.7078 0.382436 4.41325
-3.67195 1.20427 11.6238
-3.67146 1.19628 11.5569
-3.67439 1.18248 11.4351
-3.67827 1.16875 11.3183
-3.67041 1.15153 11.1685
-3.67454 1.10543 10.7572
-3.6793 1.09396 10.6574
-3.68406 1.08248 10.5576
-3.68782 1.071 10.4577
-3.69257 1.06054 10.3589
-3.69337 1.04799 10.2541
-3.68005 1.03765 10.1641
-3.6877 1.0284 10.0793
-3.6865 1.01683 9.97347
-3.68922 1.00544 9.87965
-3.69485 0.996198 9.79581
-3.69362 0.984702 9.69496
-3.68319 0.976585 9.61999
-3.68685 0.966315 9.53416
-3.68853 0.956985 9.4443
-3.68824 0.945593 9.35045
-3.69283 0.937443 9.2726
-3.69546 0.928231 9.19074
-3.69709 0.918989 9.10688
-3.68762 0.910961 9.03792
-3.68826 0.901719 8.95405
-3.69378 0.893702 8.8852
-3.6944 0.885489 8.80331
-3.69797 0.876397 8.72946
-3.69758 0.868198 8.64857
-3.68964 0.852135 8.50973
-3.69513 0.845177 8.44487
-3.69765 0.837173 8.37699
-3.70018 0.830124 8.30611
-3.69975 0.822014 8.23121
-3.70085 0.805884 8.08744
-3.69914 0.801305 8.04849
-3.69475 0.792119 7.96858
-3.70216 0.786325 7.91472
-3.69875 0.778183 7.8378
-3.70073 0.764261 7.708
-3.69606 0.758621 7.66505
-3.69655 0.751674 7.60114
-3.70195 0.746894 7.54825
-3.69652 0.73778 7.47333
-3.69844 0.724976 7.35152
-3.69519 0.714524 7.25363
-3.70154 0.708833 7.20676
-3.69214 0.700672 7.1288
-3.70735 0.698268 7.10095
-3.693 0.687985 7.01498
-3.70624 0.685536 6.98411
-3.70273 0.678572 6.91918
-3.70097 0.675112 6.88821
-3.69547 0.667131 6.82228
-3.70375 0.663575 6.78439
-3.69825 0.656609 6.71944
-3.70259 0.651946 6.67454
-3.70831 0.641545 6.57972
-3.69765 0.636871 6.5347
-3.701 0.632193 6.48879
-3.70137 0.626468 6.43987
-3.70076 0.621713 6.38893
-3.70606 0.617125 6.34903
-3.70644 0.612385 6.2991
-3.69971 0.607862 6.26411
-3.69909 0.603122 6.21417
-3.69747 0.597381 6.16424
-3.69584 0.591655 6.1153
-3.69915 0.58805 6.07437
-3.70739 0.584583 6.04248
-3.70183 0.578735 5.98552
-3.69902 0.576348 5.95953
-3.69541 0.570591 5.90858
-3.70265 0.567123 5.87668
-3.70299 0.562472 5.83275
-3.69739 0.556684 5.77978
-3.70067 0.553138 5.74286
-3.70494 0.549624 5.70794
-3.69622 0.54607 5.67092
-3.70079 0.537963 5.59606
-3.70307 0.534417 5.55913
-3.70239 0.529795 5.51718
-3.70763 0.527325 5.48526
-3.69977 0.511085 5.33442
-3.70006 0.507523 5.29647
-3.70431 0.504053 5.26454
-3.70359 0.50049 5.22659
-3.69681 0.497056 5.19758
-3.70105 0.4946 5.16665
-3.7016 0.48652 5.09376
-3.70583 0.484079 5.06382
-3.70512 0.480516 5.02587
-3.7123 0.478166 5.00195
-3.70254 0.474686 4.96993
-3.70281 0.471168 4.93497
-3.70307 0.467665 4.90102
-3.71026 0.4653 4.87611
-3.70359 0.460644 4.83212
-3.70977 0.458294 4.8082
-3.71102 0.455806 4.77524
-3.70026 0.45134 4.74422
-3.70051 0.448851 4.71126
-3.70472 0.44644 4.68332
-3.70694 0.443013 4.65438
-3.70718 0.440539 4.62242
-3.70743 0.437051 4.58947
-3.71262 0.4347 4.56554
-3.70085 0.431232 4.5345
-3.70209 0.428774 4.50354
-3.70429 0.425376 4.4766
-3.70849 0.423995 4.45065
-3.70971 0.420566 4.4217
-3.71391 0.418185 4.39577
-3.6729 1.17464 10.7031
-3.6747 1.16207 10.5973
-3.68239 1.15175 10.5075
-3.68613 1.1403 10.4097
-3.68597 1.12667 10.2999
-3.67559 1.11645 10.2179
-3.67832 1.10603 10.1221
-3.68103 1.09464 10.0283
-3.6857 1.08434 9.94046
-3.68646 1.07186 9.84064
-3.68815 1.06152 9.74979
-3.69672 1.05343 9.67596
-3.67944 1.04101 9.581
-3.68308 1.03077 9.49717
-3.68571 1.02153 9.41332
-3.68639 1.01121 9.32446
-3.68901 1.001 9.24262
-3.69555 0.992958 9.17178
-3.69423 0.98264 9.08291
-3.68377 0.973582 9.01196
-3.68733 0.965489 8.93809
-3.69287 0.957443 8.86724
-3.6925 0.947214 8.78438
-3.69899 0.940257 8.71952
-3.69761 0.930058 8.63865
-3.68809 0.922119 8.57569
-3.6867 0.912919 8.49481
-3.69514 0.907067 8.43695
-3.6957 0.897987 8.36408
-3.70019 0.891028 8.2992
-3.69975 0.881933 8.22533
-3.69268 0.867123 8.10347
-3.68928 0.857952 8.02457
-3.69866 0.853218 7.97471
-3.70313 0.830351 7.78105
-3.70189 0.81887 7.6812
-3.70534 0.812 7.62232
-3.70629 0.798151 7.49751
-3.70732 0.737294 6.96735
-3.70815 0.724682 6.85853
-3.70442 0.706208 6.69175
-3.70895 0.698176 6.62189
-3.70578 0.685561 6.51304
-3.70616 0.679821 6.46312
-3.71175 0.656718 6.25348
-3.70971 0.627899 5.99585
-3.71151 0.602408 5.76021
-3.70195 0.595527 5.70123
-3.71473 0.585027 5.59947
-3.70759 0.57235 5.48659
-3.70323 0.563089 5.40168
-3.70282 0.554935 5.32379
-3.71638 0.547864 5.25099
-3.71567 0.543301 5.21304
-3.71265 0.501484 4.82058
-3.71612 0.495569 4.75869
-3.7176 0.489637 4.69578
-3.71349 0.476888 4.57792
-3.71693 0.471032 4.52003
-3.71873 0.46048 4.41518
-3.67931 1.12412 9.72279
-3.68199 1.11281 9.63397
-3.68172 1.10039 9.53814
-3.68283 1.05033 9.12983
-3.6815 1.03902 9.04097
-3.68901 1.03103 8.97414
-3.68568 1.00379 8.75549
-3.68725 0.994665 8.67962
-3.68983 0.985542 8.60377
-3.69139 0.976449 8.52991
-3.69591 0.968446 8.46205
-3.68539 0.960506 8.39908
-3.68694 0.951442 8.32721
-3.69044 0.943468 8.26135
-3.68804 0.933297 8.18247
-3.69253 0.926338 8.1176
-3.696 0.918424 8.05573
-3.69457 0.909328 7.98185
-3.68991 0.903659 7.93689
-3.68748 0.894547 7.862
-3.68898 0.886572 7.79612
-3.69144 0.879671 7.73523
-3.69391 0.871755 7.67336
-3.69736 0.864885 7.61448
-3.69119 0.851267 7.50562
-3.69167 0.843336 7.44273
-3.69116 0.836388 7.37882
-3.69457 0.829577 7.32394
-3.69698 0.82378 7.27003
-3.69842 0.816922 7.21214
-3.69175 0.811281 7.16917
-3.69219 0.804424 7.11126
-3.69658 0.798672 7.06037
-3.69799 0.791874 7.00648
-3.70039 0.786092 6.95357
-3.70179 0.779323 6.90168
-3.70516 0.773601 6.85278
-3.69158 0.766777 6.79777
-3.6969 0.762145 6.75487
-3.69535 0.755285 6.69696
-3.70363 0.750729 6.65908
-3.70501 0.74499 6.60917
-3.70342 0.73819 6.55525
-3.70165 0.734745 6.52528
-3.70105 0.728975 6.47336
-3.70143 0.723235 6.42344
-3.70574 0.718632 6.38253
-3.70513 0.711862 6.33062
-3.70648 0.707182 6.28469
-3.70882 0.701518 6.23979
-3.70111 0.696965 6.20279
-3.69849 0.691208 6.15185
-3.7018 0.686604 6.11094
-3.70709 0.682061 6.07404
-3.7104 0.677456 6.03313
-3.70678 0.671699 5.98218
-3.7101 0.667095 5.94127
-3.70039 0.662525 5.90326
-3.70566 0.657997 5.86736
-3.70499 0.653345 5.82342
-3.70434 0.647664 5.77749
-3.70959 0.644179 5.74458
-3.71189 0.640604 5.70564
-3.71221 0.634983 5.66372
-3.7094 0.632611 5.63873
-3.71169 0.62805 5.60081
-3.712 0.623444 5.55988
-3.7044 0.616654 5.50691
-3.70866 0.613154 5.47299
-3.70993 0.609622 5.43705
-3.71039 0.602735 5.37715
-3.71166 0.599203 5.3412
-3.7159 0.595732 5.30928
-3.71619 0.59117 5.27135
-3.71648 0.586608 5.23341
-3.71393 0.580733 5.17447
-3.7063 0.574003 5.1255
-3.71251 0.571608 5.09858
-3.71376 0.568105 5.06464
-3.71736 0.531047 4.72317
-3.71672 0.511398 4.54443
-3.71892 0.508 4.51749
-3.71689 0.495119 4.39065
-3.6827 1.12646 9.27272
-3.68204 1.10384 9.09603
-3.68857 1.09582 9.02719
-3.68264 1.07673 8.8864
-3.68325 1.06654 8.80555
-3.68582 1.05744 8.73169
-3.68936 1.04838 8.65984
-3.69193 1.03829 8.586
-3.68592 1.02134 8.45519
-3.68745 1.01331 8.38531
-3.689 1.00324 8.31346
-3.6925 0.995271 8.2476
-3.69404 0.986236 8.17773
-3.69752 0.978292 8.11387
-3.6875 0.961391 7.98602
-3.69194 0.954521 7.92715
-3.69245 0.94653 7.86026
-3.69197 0.937524 7.79238
-3.69444 0.929608 7.73051
-3.69886 0.922798 7.67564
-3.69026 0.916022 7.62367
-3.69073 0.908105 7.56178
-3.68825 0.899082 7.49288
-3.6966 0.894408 7.44701
-3.69411 0.885415 7.38011
-3.69357 0.877512 7.31922
-3.68933 0.865044 7.22036
-3.70005 0.853646 7.12559
-3.69457 0.845636 7.05766
-3.69204 0.837702 6.99475
-3.69936 0.832086 6.95288
-3.69465 0.827535 6.91591
-3.69547 0.813938 6.8081
-3.69981 0.809275 6.7632
-3.69824 0.80143 6.7063
-3.70356 0.796813 6.6644
-3.70296 0.790028 6.61149
-3.69429 0.784386 6.5685
-3.70157 0.780843 6.5316
-3.70294 0.774119 6.48271
-3.70036 0.767304 6.42778
-3.70764 0.763776 6.39188
-3.70898 0.758097 6.34597
-3.7054 0.75128 6.29103
-3.69965 0.746788 6.25805
-3.70199 0.741139 6.21415
-3.69938 0.735367 6.16221
-3.70565 0.730854 6.12732
-3.70798 0.726219 6.0844
-3.70338 0.719432 6.03146
-3.71359 0.717025 6.00356
-3.70388 0.711456 5.96557
-3.69928 0.704668 5.91263
-3.70455 0.701154 5.87771
-3.70882 0.696624 5.84181
-3.70223 0.689821 5.78785
-3.70551 0.686275 5.75092
-3.70271 0.682889 5.72495
-3.70303 0.677268 5.68303
-3.70531 0.673722 5.64609
-3.70662 0.669131 5.60617
-3.69703 0.66131 5.5512
-3.70326 0.658871 5.52128
-3.70258 0.653249 5.47935
-3.70173 0.650952 5.45938
-3.69907 0.645299 5.41543
-3.7043 0.641844 5.38452
-3.70261 0.637251 5.34457
-3.71377 0.635934 5.32267
-3.70516 0.629173 5.2717
-3.70134 0.625815 5.24772
-3.7036 0.622313 5.21378
-3.71081 0.619919 5.18687
-3.70416 0.614234 5.1409
-3.70938 0.610808 5.11198
-3.70866 0.60626 5.07504
-3.71288 0.603834 5.0461
-3.70708 0.599431 5.01912
-3.70932 0.595974 4.98818
-3.70859 0.59244 4.95223
-3.70688 0.587877 4.91427
-3.71109 0.58448 4.88735
-3.71531 0.582039 4.85742
-3.71655 0.578582 4.82647
-3.70578 0.574115 4.79545
-3.71297 0.571765 4.77154
-3.71346 0.564804 4.70664
-3.71965 0.562438 4.68172
-3.71098 0.556796 4.63873
-3.71815 0.554461 4.61581
-3.70539 0.549978 4.58378
-3.71257 0.547643 4.56086
-3.71082 0.544153 4.5279
-3.70831 0.537204 4.46397
-3.71646 0.534899 4.44307
-3.71284 0.529157 4.39312
-3.68922 1.01286 8.01728
-3.68957 0.955351 7.57807
-3.69104 0.947435 7.51619
-3.69894 0.897803 7.13593
-3.69595 0.86388 6.87138
-3.70031 0.858188 6.82449
-3.69776 0.850313 6.76558
-3.69581 0.83227 6.62781
-3.69521 0.8255 6.5759
-3.70152 0.820883 6.53401
-3.70091 0.814128 6.4831
-3.69932 0.807328 6.42918
-3.69397 0.796067 6.34429
-3.70124 0.792539 6.30839
-3.70062 0.785799 6.25848
-3.70099 0.780089 6.21056
-3.70232 0.774439 6.16665
-3.69657 0.769947 6.13367
-3.69925 0.758632 6.04485
-3.69762 0.752906 5.99591
-3.70191 0.748347 5.95801
-3.70027 0.74165 5.91109
-3.70159 0.737029 5.86916
-3.69583 0.732552 5.83718
-3.69715 0.726931 5.79526
-3.6955 0.72125 5.74933
-3.70009 0.712114 5.67249
-3.6994 0.707492 5.63055
-3.6998 0.684784 5.44786
-3.70208 0.680238 5.41094
-3.6994 0.6746 5.368
-3.69758 0.672258 5.34502
-3.69885 0.667727 5.30909
-3.70112 0.663211 5.27417
-3.69843 0.658602 5.23321
-3.70267 0.655132 5.20129
-3.70026 0.644991 5.12441
-3.70194 0.63466 5.03456
-3.69924 0.630081 4.9956
-3.70148 0.626609 4.96367
-3.7057 0.623183 4.93475
-3.69904 0.617527 4.89077
-3.70587 0.604904 4.781
-3.70316 0.60034 4.74304
-3.70044 0.595791 4.70608
-3.70662 0.59344 4.68216
-3.70129 0.582134 4.59427
-3.70153 0.578661 4.56232
-3.70078 0.575187 4.53036
-3.70597 0.572821 4.50543
-3.70225 0.568271 4.46847
-3.70457 0.563651 4.42655
-3.69454 1.12499 8.36271
-3.712 0.729329 5.41629
-3.71724 0.725874 5.38538
-3.71528 0.707846 5.24861
-3.71555 0.703313 5.21267
-3.71804 0.679415 5.01702
-3.71898 0.647643 4.76246
-3.70164 1.10996 7.81991
-3.69526 1.09874 7.73801
-3.7056 1.09309 7.69417
-3.70707 1.08418 7.6323
-3.70288 1.06859 7.52549
-3.70138 1.05863 7.46062
-3.70678 1.05185 7.40775
-3.70724 1.04296 7.34788
-3.70672 1.03403 7.285
-3.70914 1.02622 7.23012
-3.70685 1.01284 7.13729
-3.7063 1.00495 7.07739
-3.71067 0.998231 7.02852
-3.70914 0.989327 6.96763
-3.7096 0.962487 6.77601
-3.71093 0.902008 6.33885
-3.7122 0.878553 6.17319
-3.71256 0.871844 6.12528
-3.70995 0.865087 6.07435
-3.71148 0.837115 5.87375
-3.71575 0.832585 5.83785
-3.71622 0.80673 5.64521
-3.71353 0.76623 5.34174
-3.70068 1.07205 7.28639
-3.69621 1.06203 7.21749
-3.69291 1.04765 7.12467
-3.69236 1.03978 7.06577
-3.70167 1.03419 7.02592
-3.70406 1.02744 6.97503
-3.70053 1.01752 6.91314
-3.70095 1.00969 6.85725
-3.69425 1.00411 6.81828
-3.70156 0.998507 6.77741
-3.69901 0.989647 6.71952
-3.70532 0.984045 6.67864
-3.69979 0.975124 6.61672
-3.71201 0.971704 6.58786
-3.71141 0.963919 6.53497
-3.7047 0.958367 6.49799
-3.70508 0.950628 6.4481
-3.70544 0.943918 6.4002
-3.71273 0.939361 6.36232
-3.70915 0.931545 6.3074
-3.70851 0.924849 6.26048
-3.69883 0.918221 6.2185
-3.6972 0.910495 6.1696
-3.70545 0.907012 6.13671
-3.70777 0.901393 6.0948
-3.70614 0.893667 6.0459
-3.71043 0.889107 6.00799
-3.70781 0.882381 5.95907
-3.70304 0.876919 5.92811
-3.70336 0.871297 5.88619
-3.70468 0.865677 5.84427
-3.70105 0.857949 5.79535
-3.71126 0.855557 5.76846
-3.71355 0.849997 5.73056
-3.71584 0.845421 5.69164
-3.71303 0.841064 5.66768
-3.71433 0.835474 5.62776
-3.71167 0.829806 5.58282
-3.71198 0.824214 5.5429
-3.70931 0.817562 5.49897
-3.70961 0.811985 5.46005
-3.71485 0.808515 5.42814
-3.70314 0.801959 5.39114
-3.70244 0.797367 5.3512
-3.70865 0.793957 5.32329
-3.70993 0.788425 5.28738
-3.71219 0.783909 5.25246
-3.70654 0.777225 5.20651
-3.71572 0.774891 5.18361
-3.71092 0.771503 5.15762
-3.71415 0.767047 5.12671
-3.71668 0.758028 5.05785
-3.71892 0.753556 5.02593
-3.71919 0.749038 4.99099
-3.71833 0.746756 4.97202
-3.71563 0.741177 4.93307
-3.71415 0.732155 4.86419
-3.71738 0.728714 4.83426
-3.71862 0.724241 4.80233
-3.71986 0.719784 4.7714
-3.719 0.717517 4.75343
-3.71256 0.707417 4.67952
-3.71526 0.695058 4.58771
-3.7134 0.692776 4.56872
-3.71463 0.689333 4.53878
-3.71312 0.680385 4.47489
-3.71952 0.674605 4.42202
-3.69339 1.07771 6.9262
-3.69915 1.06322 6.82544
-3.69364 1.05227 6.76156
-3.70155 1.03552 6.64285
-3.70195 1.02773 6.58996
-3.70332 1.02003 6.54208
-3.70666 1.01436 6.49718
-3.70706 1.00659 6.44529
-3.69935 1.00003 6.40732
-3.70169 0.993362 6.36243
-3.70207 0.986622 6.31253
-3.7044 0.979973 6.26864
-3.70575 0.973294 6.22274
-3.70808 0.966659 6.17985
-3.70844 0.959964 6.13295
-3.70171 0.954442 6.09797
-3.707 0.948883 6.06009
-3.70042 0.94005 6.00416
-3.71557 0.938765 5.98429
-3.70702 0.928886 5.92537
-3.71131 0.924327 5.88746
-3.71263 0.917707 5.84556
-3.71181 0.914366 5.8226
-3.70721 0.906593 5.77068
-3.70883 0.894381 5.68886
-3.71705 0.890958 5.65997
-3.71341 0.88426 5.61303
-3.71668 0.87873 5.57713
-3.71189 0.875312 5.54915
-3.70529 0.866538 5.49722
-3.70757 0.862007 5.4613
-3.71182 0.857507 5.42739
-3.71507 0.853022 5.39448
-3.7124 0.846384 5.35155
-3.71057 0.843057 5.32958
-3.70987 0.837465 5.28965
-3.71313 0.832979 5.25674
-3.70945 0.82634 5.21381
-3.71567 0.82293 5.1859
-3.71695 0.818384 5.14897
-3.71919 0.813912 5.11705
-3.71241 0.808478 5.08808
-3.71565 0.805022 5.05715
-3.7152 0.794956 4.98528
-3.71546 0.790438 4.95035
-3.71771 0.785967 4.91842
-3.71289 0.781608 4.89445
-3.7092 0.775999 4.8535
-3.71242 0.771572 4.82459
-3.71861 0.769207 4.79966
-3.71589 0.763658 4.76272
-3.71714 0.759185 4.73079
-3.71541 0.754651 4.69484
-3.71157 0.751338 4.67386
-3.71478 0.747926 4.64593
-3.719 0.744514 4.61801
-3.71527 0.738979 4.58206
-3.72144 0.736643 4.55913
-3.71871 0.731124 4.52419
-3.72093 0.727696 4.49525
-3.71808 0.724398 4.47528
-3.7193 0.72097 4.44633
-3.70166 1.04745 5.96258
-3.70199 1.0408 5.91867
-3.71318 1.03843 5.89379
-3.71336 1.03409 5.87085
-3.71023 1.02448 5.3569
-3.70756 1.01684 5.31398
-3.70884 1.0113 5.27707
-3.70715 1.00469 5.23615
-3.70334 1.00133 5.21217
-3.70786 0.990314 5.14336
-3.70318 0.983689 5.10141
-3.71137 0.980325 5.07652
-3.70769 0.973716 5.03559
-3.71785 0.971398 5.01369
-3.70611 0.965886 4.97968
-3.71133 0.961476 4.95178
-3.71753 0.958081 4.92488
-3.71779 0.953578 4.89094
-3.71903 0.948106 4.85903
-3.71335 0.94148 4.81708
-3.70954 0.937123 4.79311
-3.71276 0.933696 4.76418
-3.70608 0.92607 4.72224
-3.7182 0.924842 4.70634
-3.71746 0.920338 4.6724
-3.71459 0.897132 4.5237
-3.71978 0.894781 4.49977
-3.71902 0.889307 4.46784
-3.71727 0.884817 4.43489
-3.71718 1.02168 4.96494
-3.7214 1.01726 4.93603
-3.6491 -0.403908 3.38531
-3.64728 -0.403265 3.36128
-3.64482 -0.402318 3.29024
-3.66186 -0.403395 3.28438
-3.65507 -0.402814 3.25632
-3.64821 -0.402086 3.23826
-3.64968 -0.402018 3.17526
-3.65382 -0.402281 3.15729
-3.65696 -0.401561 3.1383
-3.65315 -0.401933 3.11327
-3.65223 -0.401097 3.10225
-3.65239 -0.401408 3.08126
-3.64361 -0.400844 3.05218
-3.64575 -0.400124 3.03318
-3.65423 -0.400066 2.96923
-3.64843 -0.400455 2.94319
-3.65553 -0.399657 2.92923
-3.65583 -0.400249 2.88924
-3.65322 -0.399021 2.83719
-3.65536 -0.399286 2.81921
-3.64755 -0.398662 2.79414
-3.6548 -0.39916 2.7602
-3.65295 -0.398458 2.74017
-3.64209 -0.398732 2.72209
-3.6492 -0.397935 2.70813
-3.64437 -0.398279 2.68509
-3.6455 -0.397545 2.66709
-3.65062 -0.397763 2.65213
-3.65175 -0.398029 2.63414
-3.65096 -0.397444 2.60612
-3.65111 -0.397725 2.58712
-3.6403 -0.397118 2.56103
-3.64342 -0.397353 2.54505
-3.65151 -0.397525 2.53312
-3.65178 -0.397058 2.49711
-3.65198 -0.397443 2.47111
-3.64516 -0.396803 2.44704
-3.64529 -0.396055 2.43003
-3.64443 -0.396337 2.41103
-3.64256 -0.396605 2.39302
-3.65562 -0.396714 2.38511
-3.64375 -0.395974 2.36801
-3.63718 -0.395823 2.31095
-3.64228 -0.396012 2.29799
-3.65236 -0.396167 2.28707
-3.64459 -0.395632 2.256
-3.63887 -0.395184 2.21894
-3.63632 -0.395075 2.15891
-3.65249 -0.395389 2.13704
-3.65361 -0.395625 2.12105
-3.64577 -0.394942 2.09997
-3.6429 -0.39521 2.08195
-3.65105 -0.395486 2.06302
-3.64444 -0.394261 2.01094
-3.64954 -0.39445 1.99798
-3.64643 -0.394214 1.87894
-3.6486 -0.394538 1.85696
-3.64734 -0.394006 1.75793
-3.64402 -0.394341 1.66789
-3.64848 -0.370727 3.46482
-3.66066 -0.371059 3.44192
-3.65289 -0.370524 3.41085
-3.65919 -0.370112 3.37088
-3.65341 -0.370545 3.34184
-3.64365 -0.370026 3.30976
-3.64969 -0.370111 3.3038
-3.65184 -0.370405 3.28382
-3.65002 -0.369762 3.25979
-3.64523 -0.370166 3.23276
-3.6468 -0.36929 3.15675
-3.64299 -0.369663 3.13172
-3.65621 -0.369098 3.10181
-3.64386 -0.36838 3.01569
-3.64898 -0.368614 2.99973
-3.65112 -0.368893 2.98075
-3.64134 -0.36833 2.95166
-3.65166 -0.368945 2.90975
-3.65081 -0.368256 2.88873
-3.6478 -0.368198 2.75768
-3.64199 -0.367573 2.73263
-3.64426 -0.368104 2.69665
-3.64739 -0.368354 2.67967
-3.64476 -0.368082 2.63064
-3.65285 -0.368268 2.6177
-3.64904 -0.367611 2.45964
-3.65322 -0.366918 2.30364
-3.63557 -0.366627 2.2565
-3.65286 -0.367192 2.21763
-3.64496 -0.36739 2.20457
-3.63663 -0.366715 2.11549
-3.65268 -0.366792 2.10961
-3.63606 -0.366559 2.05848
-3.63386 -0.36713 1.95245
-3.63907 -0.366541 1.92448
-3.63239 -0.367183 1.88143
-3.64829 -0.366949 1.76153
-3.63452 -0.367373 1.59841
-3.64166 -0.367634 1.58047
-3.6328 -0.366922 1.56139
-3.64446 -0.368202 1.47448
-3.62961 -0.367524 1.45336
-3.64079 -0.367856 1.43044
-3.63585 -0.367993 1.42141
-3.63228 -0.36784 1.36437
-3.63338 -0.368031 1.35138
-3.63055 -0.368359 1.32936
-3.64371 -0.368675 1.30746
-3.63395 -0.368142 1.27637
-3.63619 -0.368629 1.24339
-3.64128 -0.368788 1.23243
-3.64628 -0.346361 3.48945
-3.65331 -0.346415 3.4855
-3.64653 -0.345865 3.45544
-3.64473 -0.346251 3.42943
-3.64822 -0.346211 3.36445
-3.6483 -0.345374 3.35343
-3.64847 -0.345715 3.33044
-3.64765 -0.346056 3.30743
-3.65014 -0.346017 3.24244
-3.65924 -0.346202 3.22951
-3.65732 -0.345382 3.21748
-3.65848 -0.345692 3.19649
-3.65467 -0.346065 3.17147
-3.65185 -0.345422 3.14743
-3.654 -0.345717 3.12745
-3.66067 -0.34603 3.03849
-3.65884 -0.345357 3.01647
-3.64889 -0.345438 2.87637
-3.64805 -0.345749 2.85537
-3.65353 -0.345693 2.7914
-3.65581 -0.34524 2.7544
-3.65411 -0.345833 2.7144
-3.64325 -0.345108 2.6963
-3.64935 -0.345311 2.68235
-3.65247 -0.345545 2.66637
-3.65261 -0.345826 2.64737
-3.65077 -0.345139 2.62635
-3.65488 -0.345358 2.61138
-3.64707 -0.345734 2.58632
-3.65111 -0.345805 2.58135
-3.65225 -0.346071 2.56336
-3.64257 -0.345715 2.52028
-3.6524 -0.345337 2.41033
-3.65086 -0.346256 2.34833
-3.65298 -0.345491 2.33233
-3.64508 -0.347553 1.78822
-3.65514 -0.306137 3.50392
-3.65234 -0.305524 3.47789
-3.65152 -0.30588 3.45389
-3.64898 -0.3058 3.39186
-3.65014 -0.306111 3.37087
-3.65049 -0.306791 3.32487
-3.64768 -0.306164 3.29984
-3.64793 -0.306667 3.26584
-3.64347 -0.306722 3.1948
-3.6466 -0.306986 3.17683
-3.65388 -0.307529 3.13988
-3.64205 -0.306863 3.11778
-3.64832 -0.307406 3.08083
-3.65047 -0.307686 3.06185
-3.65178 -0.307293 3.02085
-3.6579 -0.307525 3.0049
-3.64804 -0.307814 2.98582
-3.64338 -0.308483 2.94079
-3.64689 -0.308488 2.87281
-3.65116 -0.309018 2.83684
-3.65032 -0.308329 2.81583
-3.64849 -0.308657 2.79381
-3.64863 -0.308938 2.77482
-3.64303 -0.308727 2.72176
-3.63863 -0.309915 2.64174
-3.64971 -0.310055 2.63182
-3.64183 -0.309297 2.61575
-3.6435 -0.310629 2.52577
-3.64026 -0.311097 2.29172
-3.63646 -0.314393 1.86668
-3.63089 -0.314241 1.80963
-3.634 -0.314446 1.79565
-3.63112 -0.314685 1.77963
-3.63123 -0.314907 1.76463
-3.63041 -0.315249 1.74163
-3.63262 -0.315677 1.71265
-3.63185 -0.315121 1.68263
-3.63302 -0.315446 1.66064
-3.63223 -0.315876 1.63164
-3.62857 -0.316545 1.58661
-3.63073 -0.316855 1.56563
-3.63283 -0.317046 1.55265
-3.6439 -0.317171 1.54373
-3.63902 -0.316426 1.52668
-3.63515 -0.316666 1.51065
-3.64322 -0.316808 1.50072
-3.64632 -0.316999 1.48774
-3.63342 -0.3172 1.47464
-3.63352 -0.317408 1.46065
-3.63861 -0.317582 1.44869
-3.63872 -0.317789 1.43469
-3.63384 -0.318029 1.41865
-3.64092 -0.318187 1.40771
-3.64202 -0.318379 1.39472
-3.64307 -0.318482 1.38772
-3.64318 -0.317689 1.37371
-3.63131 -0.317964 1.35562
-3.63651 -0.318345 1.32966
-3.63262 -0.31857 1.31464
-3.63372 -0.318762 1.30165
-3.64473 -0.318784 1.29973
-3.64394 -0.319199 1.27172
-3.64305 -0.319407 1.25772
-3.63916 -0.319632 1.24269
-3.63627 -0.318841 1.22866
-3.63941 -0.31912 1.20968
-3.6445 -0.319294 1.19772
-3.65868 -0.280203 3.29654
-3.65065 -0.281119 3.16747
-3.6409 -0.282585 3.0014
-3.6393 -0.282371 2.94838
-3.64718 -0.289916 2.16844
-3.64188 -0.290297 2.07539
-3.64815 -0.290825 2.03944
-3.6489 -0.293275 1.80645
-3.62828 -0.296924 1.35829
-3.62749 -0.297339 1.33029
-3.62869 -0.297738 1.3033
-3.63144 -0.299202 1.20433
-3.63946 -0.299241 1.20139
-3.63657 -0.299465 1.18637
-3.65915 -0.216263 3.49462
-3.65389 -0.217732 3.39559
-3.66002 -0.21798 3.37864
-3.6573 -0.21853 3.34162
-3.65085 -0.220615 3.26859
-3.65797 -0.220847 3.25265
-3.6587 -0.222283 3.15566
-3.65886 -0.222594 3.13466
-3.65802 -0.22292 3.11266
-3.65527 -0.227335 2.81466
-3.65541 -0.227616 2.79567
-3.6494 -0.22956 2.66463
-3.64931 -0.233321 2.41065
-3.62688 -0.224237 1.40421
-3.62724 -0.224948 1.35622
-3.6288 -0.226042 1.28223
-3.63309 -0.226617 1.24327
-3.63937 -0.16465 2.92863
-3.63627 -0.179277 2.27873
-3.63639 -0.179529 2.26174
-3.63353 -0.180797 2.24373
-3.63136 -0.183427 2.13374
-3.63844 -0.183585 2.12279
-3.63326 -0.185203 2.01376
-3.63636 -0.185393 2.00079
-3.64053 -0.186716 1.97884
-3.63566 -0.186986 1.9608
-3.63093 -0.187508 1.92577
-3.64398 -0.187602 1.91887
-3.63215 -0.187951 1.89578
-3.63625 -0.188141 1.88281
-3.6393 -0.188227 1.87683
-3.62979 -0.190211 1.81078
-3.6282 -0.191012 1.75678
-3.64624 -0.191073 1.75191
-3.62842 -0.192441 1.72779
-3.63562 -0.192821 1.70185
-3.6328 -0.193178 1.67783
-3.63987 -0.193321 1.66789
-3.63002 -0.193625 1.64781
-3.63732 -0.194212 1.60787
-3.63738 -0.194315 1.60087
-3.63062 -0.195794 1.56884
-3.64567 -0.194887 1.56194
-3.64101 -0.196556 1.51692
-3.63142 -0.197363 1.46285
-3.62853 -0.197587 1.44783
-3.63409 -0.199679 1.3739
-3.64027 -0.20003 1.34994
-3.6324 -0.200287 1.33289
-3.63963 -0.200741 1.30194
-3.63994 -0.201348 1.26095
-3.63411 -0.201678 1.23891
-3.62623 -0.202935 1.22186
-3.63231 -0.203079 1.21191
-3.64148 -0.203413 1.18898
-3.65975 -0.111622 3.53708
-3.65325 -0.113604 3.47106
-3.65243 -0.11496 3.44707
-3.65558 -0.115254 3.42709
-3.64501 -0.117105 3.37003
-3.64428 -0.118639 3.33404
-3.64362 -0.119306 3.28904
-3.65471 -0.119475 3.27713
-3.63917 -0.12139 3.21603
-3.64338 -0.122801 3.18808
-3.64851 -0.123049 3.17112
-3.64967 -0.123359 3.15013
-3.64983 -0.12367 3.12913
-3.63907 -0.125152 3.09707
-3.63923 -0.125463 3.07607
-3.63831 -0.126626 3.06508
-3.63863 -0.127248 3.02309
-3.64804 -0.12904 2.96918
-3.64827 -0.129499 2.93818
-3.63607 -0.14794 2.30127
-3.63144 -0.152623 2.12028
-3.63211 -0.154941 2.03131
-3.63222 -0.155163 2.01631
-3.62878 -0.157261 1.94231
-3.63405 -0.15779 1.90635
-3.6292 -0.159075 1.88733
-3.63042 -0.159518 1.85734
-3.6274 -0.162445 1.72734
-3.62757 -0.162771 1.70535
-3.63178 -0.164182 1.67739
-3.6289 -0.164421 1.66137
-3.63499 -0.164595 1.64942
-3.62813 -0.164866 1.63137
-3.63116 -0.164938 1.62639
-3.63526 -0.165128 1.61343
-3.6295 -0.166606 1.5814
-3.62862 -0.166828 1.56639
-3.63271 -0.167003 1.55443
-3.63187 -0.167329 1.53242
-3.63298 -0.167536 1.51843
-3.63617 -0.167919 1.49246
-3.62633 -0.169222 1.4724
-3.6334 -0.169365 1.46245
-3.63351 -0.169572 1.44846
-3.63057 -0.169693 1.44043
-3.64163 -0.169818 1.43152
-3.63975 -0.170041 1.41651
-3.63985 -0.170248 1.40251
-3.63896 -0.170456 1.3885
-3.64106 -0.170647 1.37552
-3.63318 -0.171905 1.35848
-3.64121 -0.171958 1.35454
-3.63035 -0.172233 1.33646
-3.63843 -0.172375 1.32652
-3.63564 -0.172806 1.2975
-3.6349 -0.17331 1.2635
-3.63799 -0.173486 1.25152
-3.63909 -0.174677 1.23854
-3.63122 -0.174935 1.22149
-3.63431 -0.17511 1.20951
-3.64054 -0.175565 1.17856
-3.62967 -0.175824 1.16148
-3.64247 -0.0880736 3.43959
-3.64967 -0.0884682 3.41265
-3.6419 -0.0899328 3.38161
-3.65333 -0.0917684 3.32471
-3.64654 -0.0931879 3.29668
-3.65664 -0.093373 3.28376
-3.63885 -0.0948005 3.25564
-3.63819 -0.0954673 3.21064
-3.64332 -0.0967152 3.19369
-3.64944 -0.0969329 3.17874
-3.65572 -0.097491 3.14079
-3.65398 -0.0989956 3.10679
-3.64123 -0.100493 3.07372
-3.6533 -0.100633 3.06381
-3.64964 -0.102287 3.0198
-3.65484 -0.102683 2.99284
-3.65346 -0.104913 2.90985
-3.64964 -0.106256 2.88684
-3.65468 -0.106341 2.88088
-3.652 -0.107965 2.83888
-3.64485 -0.111643 2.72586
-3.64897 -0.111862 2.71089
-3.64514 -0.112206 2.68787
-3.65039 -0.113691 2.65492
-3.64158 -0.114082 2.62886
-3.64065 -0.114216 2.61985
-3.64378 -0.115465 2.60289
-3.63398 -0.115857 2.57682
-3.63511 -0.117108 2.55984
-3.6493 -0.117483 2.53395
-3.65043 -0.117734 2.51696
-3.64566 -0.119196 2.48594
-3.6448 -0.119463 2.46794
-3.6509 -0.119666 2.45399
-3.64606 -0.119981 2.43295
-3.65117 -0.120184 2.41899
-3.6393 -0.121445 2.40192
-3.6444 -0.121648 2.38796
-3.63857 -0.122978 2.36593
-3.6438 -0.123433 2.33497
-3.63896 -0.123748 2.31394
-3.63909 -0.124999 2.29696
-3.63915 -0.125118 2.28896
-3.64277 -0.127329 2.20701
-3.64886 -0.127503 2.19505
-3.63798 -0.127747 2.17897
-3.64519 -0.129157 2.15104
-3.64034 -0.129456 2.13101
-3.64457 -0.129898 2.10104
-3.63772 -0.131199 2.08101
-3.64873 -0.13122 2.07909
-3.64388 -0.131505 2.06006
-3.64598 -0.131711 2.04607
-3.63727 -0.13328 2.00802
-3.64653 -0.133777 1.9741
-3.63868 -0.135078 1.95405
-3.64477 -0.135252 1.9421
-3.64687 -0.135457 1.92812
-3.63621 -0.137131 1.88306
-3.63645 -0.13759 1.85206
-3.64388 -0.139429 1.79514
-3.63994 -0.139565 1.78611
-3.64106 -0.139786 1.77112
-3.64216 -0.139993 1.75713
-3.64128 -0.140215 1.74212
-3.64239 -0.140437 1.72713
-3.64549 -0.141627 1.71417
-3.63763 -0.141914 1.69511
-3.63082 -0.142289 1.67006
-3.64089 -0.14243 1.66014
-3.63802 -0.143669 1.64413
-3.63514 -0.143908 1.62811
-3.63923 -0.144083 1.61614
-3.63341 -0.144457 1.5911
-3.63406 -0.146715 1.50613
-3.64109 -0.146769 1.50218
-3.64119 -0.146976 1.48818
-3.64428 -0.147152 1.47621
-3.63941 -0.148407 1.45919
-3.63673 -0.149046 1.41617
-3.64376 -0.1491 1.41223
-3.6372 -0.150963 1.3542
-3.63577 -0.153075 1.27921
-3.63958 -0.0573457 3.42111
-3.64128 -0.0607065 3.32916
-3.63823 -0.0655742 3.20319
-3.65138 -0.0658608 3.18329
-3.63828 -0.070647 3.06325
-3.63585 -0.0737591 2.98827
-3.64029 -0.0756147 2.93032
-3.63291 -0.0877576 2.5834
-3.63563 -0.100101 2.22255
-3.63476 -0.105322 2.0726
-3.63156 -0.108894 1.96661
-3.6267 -0.113133 1.81562
-3.63419 -0.119045 1.61874
-3.63341 -0.120474 1.58975
-3.62566 -0.120969 1.55669
-3.62424 -0.124125 1.47872
-3.63233 -0.123282 1.46776
-3.63343 -0.124473 1.45479
-3.63458 -0.124783 1.4338
-3.62514 -0.126886 1.35975
-3.63227 -0.127133 1.3428
-3.63048 -0.128548 1.31481
-3.62391 -0.130397 1.25778
-3.63702 -0.12961 1.24286
-3.63723 -0.131009 1.21588
-3.63942 -0.131393 1.1899
-3.6305 -0.131547 1.17983
-3.62761 -0.132757 1.16583
-3.64869 -0.0186254 3.53662
-3.63994 -0.0201203 3.50358
-3.64399 -0.020221 3.49661
-3.65706 -0.0203595 3.48671
-3.64533 -0.0219011 3.45064
-3.64055 -0.0233191 3.42262
-3.64387 -0.0249533 3.37966
-3.64792 -0.025054 3.37269
-3.64214 -0.0264727 3.34466
-3.63834 -0.0278752 3.31765
-3.65339 -0.0279679 3.31077
-3.64165 -0.0294798 3.2767
-3.64107 -0.0313093 3.22071
-3.64123 -0.0326201 3.19973
-3.6404 -0.0339612 3.17674
-3.65495 -0.0360314 3.10387
-3.64311 -0.0373361 3.0838
-3.65519 -0.0374902 3.07289
-3.63945 -0.0390198 3.03779
-3.6406 -0.0403002 3.01881
-3.65466 -0.0404233 3.00992
-3.64985 -0.040797 2.98488
-3.64809 -0.042272 2.95289
-3.64924 -0.0435524 2.93391
-3.63998 -0.0470101 2.83588
-3.64689 -0.0517965 2.71499
-3.6503 -0.0535936 2.66103
-3.64149 -0.0549701 2.63598
-3.63865 -0.0562978 2.61398
-3.6488 -0.0565718 2.59506
-3.63515 -0.0592774 2.54799
-3.64636 -0.0596839 2.52007
-3.64053 -0.0610138 2.49805
-3.63172 -0.0613904 2.47298
-3.642 -0.0629307 2.43608
-3.64412 -0.0631661 2.42009
-3.64326 -0.064448 2.4011
-3.63544 -0.0647943 2.37805
-3.64157 -0.0710106 2.22817
-3.64766 -0.0711838 2.21621
-3.63585 -0.0725625 2.19114
-3.64492 -0.072704 2.18121
-3.64804 -0.0729238 2.16623
-3.63516 -0.0741848 2.14915
-3.63031 -0.0744697 2.13012
-3.6364 -0.074643 2.11817
-3.63752 -0.0748791 2.10217
-3.64461 -0.0750516 2.09023
-3.64714 -0.0780861 2.02028
-3.64639 -0.0795752 1.9873
-3.63953 -0.0798616 1.96825
-3.63497 -0.0817236 1.91023
-3.63531 -0.0834045 1.86425
-3.6434 -0.0835615 1.85331
-3.6335 -0.0847611 1.84025
-3.6366 -0.0849661 1.82628
-3.64069 -0.0851408 1.81431
-3.6449 -0.0865523 1.78636
-3.64004 -0.0868224 1.76832
-3.63916 -0.0870599 1.75232
-3.63722 -0.0881797 1.74432
-3.63633 -0.0884025 1.72931
-3.63877 -0.0902594 1.67135
-3.63888 -0.0904815 1.65635
-3.63296 -0.0916338 1.64633
-3.63008 -0.0918728 1.63031
-3.64215 -0.0919973 1.6214
-3.63849 -0.0936662 1.57639
-3.64357 -0.0938254 1.56543
-3.63487 -0.0954239 1.52538
-3.63896 -0.0955986 1.51341
-3.62512 -0.0969196 1.49232
-3.64232 -0.096307 1.46544
-3.64123 -0.104054 1.21251
-3.65567 0.0133762 3.5362
-3.65188 0.0119442 3.50719
-3.65603 0.0116658 3.48822
-3.65422 0.0102796 3.46223
-3.65331 0.0101013 3.45022
-3.6525 0.00873057 3.42523
-3.65565 0.00743682 3.40527
-3.64888 0.00598775 3.37524
-3.65104 0.00467847 3.35427
-3.65246 0.00285037 3.2983
-3.65461 0.00155588 3.27833
-3.6518 0.000183745 3.25333
-3.64899 -0.00118839 3.22833
-3.64916 -0.00151405 3.20633
-3.65329 -0.00277747 3.18838
-3.65247 -0.00311866 3.16537
-3.64957 -0.00432796 3.15137
-3.65287 -0.00590297 3.11241
-3.65403 -0.00721298 3.09143
-3.64624 -0.00863317 3.06339
-3.6435 -0.0101385 3.02939
-3.65259 -0.0103244 3.01646
-3.65374 -0.0106197 2.99647
-3.65092 -0.0119623 2.97346
-3.64909 -0.0133041 2.95047
-3.65321 -0.013538 2.9345
-3.65046 -0.0150285 2.9015
-3.64962 -0.01634 2.88051
-3.6529 -0.0178854 2.84355
-3.65206 -0.0191969 2.82256
-3.64739 -0.0208517 2.77854
-3.65143 -0.0209228 2.77357
-3.65059 -0.0222343 2.75258
-3.64775 -0.0225621 2.73056
-3.6469 -0.0238588 2.71057
-3.63626 -0.0265623 2.66353
-3.64733 -0.0267023 2.65361
-3.6447 -0.0284297 2.60461
-3.63789 -0.02979 2.58058
-3.63803 -0.0300712 2.56158
-3.63419 -0.0313849 2.54057
-3.63837 -0.0327371 2.51661
-3.63254 -0.0330819 2.49357
-3.63666 -0.0343009 2.47862
-3.63282 -0.0346147 2.45759
-3.64587 -0.0347237 2.44969
-3.63706 -0.0360854 2.42564
-3.63613 -0.0362341 2.41564
-3.6354 -0.0377676 2.37965
-3.63095 -0.0408368 2.30765
-3.63911 -0.0421418 2.28673
-3.64222 -0.0423616 2.27175
-3.63339 -0.0437085 2.2487
-3.6385 -0.0439121 2.23474
-3.62967 -0.0452442 2.21269
-3.63297 -0.046834 2.17273
-3.6362 -0.0472907 2.14176
-3.63533 -0.048543 2.12477
-3.63347 -0.0488109 2.10676
-3.62861 -0.0500956 2.08774
-3.63102 -0.0519082 2.03278
-3.63911 -0.05208 2.02084
-3.63227 -0.053381 2.0008
-3.63736 -0.053555 1.98884
-3.62945 -0.0547532 1.9758
-3.62682 -0.0564806 1.9268
-3.63701 -0.0568434 1.90188
-3.63216 -0.0581281 1.88286
-3.63222 -0.0582466 1.87486
-3.6319 -0.0615941 1.78389
-3.63694 -0.0616645 1.77893
-3.63507 -0.0619176 1.76192
-3.6312 -0.063172 1.7449
-3.63529 -0.0633467 1.73294
-3.6364 -0.063568 1.71795
-3.63054 -0.0648387 1.69992
-3.63364 -0.065029 1.68694
-3.62971 -0.0651799 1.67691
-3.63181 -0.0663708 1.66395
-3.63491 -0.066561 1.65097
-3.641 -0.0667343 1.63902
-3.62516 -0.0680715 1.61691
-3.64038 -0.0684898 1.58803
-3.6375 -0.0687289 1.57201
-3.64159 -0.0689036 1.56004
-3.64292 -0.0705393 1.51707
-3.63799 -0.0706761 1.50803
-3.64208 -0.0718507 1.49608
-3.6372 -0.072106 1.47905
-3.6404 -0.0724887 1.45307
-3.63631 -0.0772683 1.33309
-3.63333 0.013178 2.91595
-3.63606 0.00774409 2.81904
-3.63786 0.00319089 2.71411
-3.63324 0.000432543 2.66311
-3.63139 0.000135037 2.64309
-3.63528 -0.00559423 2.52619
-3.63016 -0.0162844 2.27728
-3.63327 -0.0175041 2.26232
-3.62843 -0.0188185 2.2413
-3.6311 -0.0221343 2.15235
-3.63919 -0.0223061 2.14041
-3.63042 -0.0237566 2.11037
-3.62879 -0.0264831 2.06139
-3.6309 -0.0267037 2.0464
-3.63002 -0.0269413 2.0304
-3.62716 -0.0282098 2.01239
-3.62646 -0.0298025 1.97241
-3.63654 -0.0299433 1.96248
-3.63068 -0.0312288 1.94346
-3.6291 -0.0330443 1.88846
-3.62822 -0.0342817 1.87247
-3.62634 -0.03452 1.85646
-3.63841 -0.0346445 1.84755
-3.63084 -0.0374938 1.79053
-3.63305 -0.0379217 1.76155
-3.62719 -0.0391924 1.74352
-3.63527 -0.0393494 1.73258
-3.63444 -0.0396757 1.71058
-3.63455 -0.0408977 1.69559
-3.6278 -0.0423911 1.66256
-3.62802 -0.0438203 1.63358
-3.64102 -0.0428109 1.63366
-3.63516 -0.0440817 1.61563
-3.62741 -0.0455758 1.58259
-3.63769 -0.0461311 1.54467
-3.63486 -0.0474588 1.52267
-3.625 -0.0487472 1.50361
-3.63507 -0.0478733 1.49467
-3.62621 -0.0491461 1.47662
-3.62631 -0.0493534 1.46262
-3.62543 -0.050576 1.44763
-3.64042 -0.0495652 1.44773
