4.92749 0.858211 2.24348
4.92864 0.860506 2.26344
4.93381 0.863828 2.28535
4.92507 0.865352 2.3204
4.94122 0.870621 2.3392
4.92831 0.869809 2.35131
4.9375 0.873172 2.3762
4.93765 0.875468 2.39617
4.93078 0.875724 2.41322
4.93611 0.881357 2.4561
4.92815 0.880452 2.46217
4.93333 0.883788 2.48509
4.93248 0.886085 2.50506
4.92259 0.886314 2.52014
4.92315 0.894394 2.59302
4.93134 0.897758 2.61791
4.92346 0.899 2.63396
4.92362 0.901311 2.65493
4.93584 0.905731 2.68377
4.92619 0.909419 2.7298
4.92065 0.915325 2.79076
4.92282 0.918664 2.8137
4.91905 0.921111 2.84369
4.93737 0.88101 1.96003
4.93652 0.883292 1.979
4.93874 0.88572 2.00795
4.92985 0.885948 2.02302
4.933 0.888242 2.04296
4.93631 0.892831 2.08288
4.93344 0.8941 2.10088
4.93653 0.89626 2.11183
4.93066 0.896516 2.12887
4.93582 0.899823 2.14979
4.92994 0.900079 2.16683
4.92708 0.901348 2.18483
4.9344 0.906964 2.2267
4.92644 0.906059 2.23278
4.92559 0.90834 2.25175
4.93679 0.912717 2.27761
4.93122 0.917564 2.33458
4.92928 0.918684 2.34258
4.93646 0.922034 2.36648
4.93261 0.923318 2.38549
4.93677 0.92664 2.40742
4.92789 0.926869 2.42248
4.93507 0.930219 2.44638
4.93824 0.933557 2.46931
4.94234 0.935731 2.48125
4.94165 0.940338 2.52219
4.93176 0.939568 2.53728
4.92287 0.939797 2.55235
4.92319 0.944418 2.59428
4.92528 0.946594 2.60624
4.93817 1.00642 2.05418
4.94133 1.00971 2.07411
4.9346 1.01225 2.11013
4.93668 1.0134 2.12009
4.9318 1.01465 2.13711
4.93496 1.01696 2.15806
4.93411 1.01924 2.17703
4.93024 1.0205 2.19405
4.9324 1.0228 2.215
4.93656 1.02613 2.23692
4.93965 1.02829 2.24787
4.93378 1.02854 2.26491
4.93594 1.03185 2.28585
4.92604 1.03107 2.29994
4.92435 1.03566 2.33989
4.92349 1.03794 2.35886
4.9316 1.04114 2.37276
4.93778 1.04549 2.39665
4.93292 1.04576 2.41468
4.93106 1.04805 2.43367
4.9282 1.04931 2.45167
4.92449 1.05389 2.49064
4.92458 1.05506 2.50162
4.92574 1.05837 2.52257
4.92388 1.05965 2.54156
4.92505 1.06297 2.56351
4.92821 1.0663 2.58544
4.92235 1.06757 2.60347
4.92644 1.06974 2.61541
4.93163 1.07311 2.64032
4.9199 1.07563 2.67538
4.9271 1.08001 2.70126
4.93051 1.08783 2.75613
4.92096 1.09371 2.81512
4.91744 1.10164 2.87804
4.91686 1.10845 2.93295
4.91732 1.13429 3.12459
4.91574 1.16005 3.31025
4.91208 1.16572 3.3552
4.91629 1.17013 3.3831
4.90932 1.20808 3.64963
4.92862 1.04128 1.97672
4.93077 1.04357 1.99668
4.93392 1.04687 2.01661
4.93507 1.04916 2.03657
4.93522 1.05144 2.05553
4.9383 1.05261 2.06649
4.94145 1.0559 2.08642
4.93758 1.05715 2.10344
4.93673 1.05943 2.12241
4.93286 1.0607 2.14043
4.93 1.06197 2.15843
4.92613 1.06323 2.17544
4.93122 1.0654 2.18737
4.93036 1.06768 2.20635
4.9275 1.06895 2.22436
4.93368 1.07229 2.24726
4.94286 1.07763 2.27112
4.93297 1.07686 2.28621
4.93103 1.07798 2.2942
4.94022 1.08235 2.31907
4.92431 1.08054 2.33122
4.93049 1.08487 2.35412
4.93165 1.08718 2.37508
4.92592 1.09072 2.41107
4.92314 1.09415 2.44004
4.92832 1.09749 2.46296
4.93851 1.10286 2.48881
4.92894 1.1077 2.54482
4.924 1.10782 2.55285
4.93436 1.11651 2.59965
4.92463 1.11905 2.63569
4.92278 1.12135 2.65567
4.92922 1.12919 2.71252
4.92568 1.13709 2.77344
4.92308 1.14386 2.82536
4.91956 1.1518 2.88828
4.91998 1.15962 2.94417
4.91236 1.20226 3.25664
4.91056 1.24452 3.54407
4.90808 1.29542 3.87438
4.93128 1.14345 2.0552
4.93443 1.14675 2.07513
4.93666 1.15119 2.10505
4.93279 1.15244 2.12207
4.94097 1.15679 2.14594
4.9351 1.15803 2.16197
4.92922 1.15827 2.17801
4.93345 1.16273 2.20892
4.92859 1.164 2.22694
4.9428 1.17039 2.25374
4.93189 1.16959 2.26684
4.92703 1.17086 2.28486
4.93822 1.17622 2.3097
4.92826 1.1753 2.31479
4.93243 1.17862 2.33671
4.93258 1.18192 2.35666
4.92786 1.18547 2.39365
4.93303 1.18981 2.41655
4.92709 1.18892 2.42361
4.92222 1.19017 2.44063
4.93744 1.19759 2.46941
4.92353 1.19579 2.48254
4.9267 1.19911 2.50447
4.93489 1.20448 2.52934
4.92401 1.20471 2.54442
4.9281 1.20688 2.55635
4.93227 1.21122 2.57926
4.91953 1.21273 2.61334
4.92874 1.21812 2.6402
4.92103 1.22169 2.67821
4.92713 1.22488 2.69111
4.91706 1.24071 2.81397
4.91948 1.24852 2.86885
4.91605 1.25963 2.94372
4.91757 1.26964 3.01157
4.91264 1.3306 3.41376
4.91181 1.33394 3.43672
4.91487 1.357 3.57537
4.91406 1.36035 3.59933
4.9087 1.3736 3.68319
4.91192 1.37902 3.71209
4.90607 1.38132 3.7321
4.9105 1.39115 3.78793
4.90597 1.40107 3.84983
4.9071 1.42726 3.99745
4.9027 1.43942 4.07531
4.90354 1.48198 4.31571
4.8973 1.5234 4.54618
4.93264 1.34087 2.21729
-4.03005 -0.568674 13.7747
-4.03124 -0.566028 13.6156
-4.02949 -0.563488 13.4495
-4.02772 -0.559918 13.2855
-4.00597 -0.554377 12.9852
-4.0051 -0.5526 12.8351
-4.01204 -0.550446 12.7101
-4.0082 -0.54773 12.556
-4.01117 -0.544639 12.427
-3.99118 -0.540623 12.1587
-3.99116 -0.537548 12.0287
-3.99211 -0.535428 11.9016
-3.98914 -0.53346 11.7646
-3.99005 -0.531251 11.6435
-3.99389 -0.528893 11.5325
-3.97564 -0.525372 11.2983
-3.96866 -0.522376 11.1632
-3.9754 -0.520823 11.0652
-3.96935 -0.518709 10.9381
-3.97506 -0.517111 10.8431
-3.9749 -0.515756 10.7321
-3.95871 -0.506277 10.2247
-3.95944 -0.504713 10.1277
-3.96309 -0.503999 10.0407
-3.94383 -0.501479 9.9415
-3.92861 -0.484805 8.907
-3.93185 -0.484277 8.87501
-3.9334 -0.483372 8.801
-3.93496 -0.481482 8.72597
-3.93159 -0.480713 8.64292
-3.9351 -0.479718 8.57492
-3.93072 -0.477951 8.49185
-3.90034 -0.458947 7.34519
-3.9057 -0.458654 7.29721
-3.90415 -0.457543 7.23718
-3.90753 -0.457296 7.18619
-3.89809 -0.455399 7.11208
-3.89237 -0.454966 7.07403
-3.89081 -0.453826 7.01599
-3.89812 -0.453443 6.97404
-3.89754 -0.453258 6.91902
-3.89003 -0.452241 6.85294
-3.89833 -0.451813 6.81399
-3.88371 -0.450579 6.76286
-3.88904 -0.450227 6.71888
-3.89139 -0.448921 6.67188
-3.88288 -0.447875 6.60779
-3.88658 -0.447265 6.51379
-3.88219 -0.445468 6.43272
-3.88352 -0.445118 6.38872
-3.87795 -0.443967 6.33166
-3.88161 -0.443267 6.24366
-3.8869 -0.442826 6.20569
-3.87324 -0.441518 6.15956
-3.87752 -0.441062 6.12258
-3.86996 -0.439927 6.0645
-3.87819 -0.43938 6.03355
-3.8716 -0.4392 5.97849
-3.87785 -0.438684 5.94552
-3.87422 -0.437412 5.89647
-3.86943 -0.43783 5.86844
-3.86709 -0.436135 5.78038
-3.8674 -0.435742 5.73937
-3.8766 -0.435136 5.71243
-3.87592 -0.434758 5.67041
-3.85887 -0.432637 5.54423
-3.8555 -0.431883 5.46019
-3.85776 -0.4314 5.42519
-3.85734 -0.430541 5.34817
-3.85929 -0.428406 5.22213
-3.85263 -0.428092 5.17607
-3.85092 -0.427656 5.13804
-3.85416 -0.427128 5.10606
-3.84887 -0.425524 5.01198
-3.84913 -0.425042 4.97697
-3.84542 -0.424622 4.93793
-3.86152 -0.424803 4.92505
-3.84629 -0.42334 4.8219
-3.84952 -0.422782 4.79191
-3.85075 -0.42224 4.76091
-3.85495 -0.422622 4.73495
-3.85123 -0.422187 4.69691
-3.84465 -0.421007 4.64183
-3.8429 -0.420512 4.60781
-3.84116 -0.420016 4.57378
-3.8513 -0.42029 4.55486
-3.83765 -0.418997 4.50773
-3.8458 -0.419287 4.48779
-3.83799 -0.418663 4.46272
-3.8402 -0.419061 4.43574
-3.83745 -0.418567 4.40171
-3.83668 -0.418026 4.37069
-3.83889 -0.417425 4.34369
-3.83711 -0.41687 4.31367
-3.83535 -0.416346 4.28164
-3.83348 -0.416599 4.26463
-3.8337 -0.416028 4.23562
-3.83291 -0.415443 4.2076
-3.84204 -0.415703 4.18967
-3.83631 -0.415226 4.15462
-3.83453 -0.414671 4.12459
-3.83474 -0.415071 4.09759
-3.83107 -0.41374 4.05254
-3.82771 -0.413002 3.96749
-3.83386 -0.413293 3.94754
-3.83711 -0.41175 3.78152
-3.86691 -0.388799 5.66766
-3.87018 -0.38933 5.63169
-3.84959 -0.385069 5.17741
-3.84915 -0.384165 5.10338
-3.85166 -0.384171 5.03539
-3.84464 -0.383116 4.90431
-3.84795 -0.38066 4.59725
-3.84312 -0.38099 4.57522
-3.84557 -0.379877 4.51521
-3.85372 -0.380167 4.49527
-3.84008 -0.379888 4.44716
-3.84152 -0.379746 4.38916
-3.83668 -0.379075 4.36711
-3.84384 -0.379381 4.34617
-3.84108 -0.378857 4.31414
-3.83437 -0.378424 4.27607
-3.84747 -0.378622 4.26217
-3.84967 -0.379006 4.23619
-3.84096 -0.37859 4.19711
-3.8371 -0.377874 4.17807
-3.84722 -0.378103 4.16215
-3.8405 -0.377656 4.12509
-3.83674 -0.377118 4.09405
-3.83595 -0.377548 4.06504
-3.84012 -0.376871 4.04306
-3.84122 -0.377078 4.02907
-3.84242 -0.377462 4.00308
-3.8446 -0.376816 3.97908
-3.83191 -0.376432 3.93798
-3.84202 -0.376647 3.92306
-3.83925 -0.376093 3.89302
-3.82754 -0.375679 3.85392
-4.01789 -0.404536 13.5131
-4.0142 -0.404101 13.3401
-4.0163 -0.402277 13.193
-4.01742 -0.401482 13.044
-3.99951 -0.399613 12.7658
-3.99772 -0.397954 12.4727
-3.99774 -0.396968 12.3367
-3.99875 -0.395966 12.2017
-3.99581 -0.395057 12.0606
-3.98057 -0.392488 11.6944
-3.97953 -0.391385 11.5664
-3.97651 -0.390313 11.4363
-3.97639 -0.38906 11.3183
-3.96155 -0.385246 10.766
-3.9594 -0.384936 10.652
-3.94784 -0.380683 10.0618
-3.95051 -0.379999 9.97276
-3.9522 -0.379346 9.88175
-3.93169 -0.373112 8.88536
-3.93227 -0.373266 8.80736
-3.93972 -0.37215 8.74739
-3.92033 -0.372363 8.66624
-3.91991 -0.371504 8.58921
-3.92045 -0.37057 8.51719
-3.91904 -0.370726 8.43917
-3.9176 -0.369823 8.36514
-3.92798 -0.369571 8.3142
-3.89703 -0.364471 7.37677
-3.89648 -0.36436 7.31675
-3.90086 -0.364097 7.26677
-3.89832 -0.363017 7.20473
-3.90269 -0.36274 7.15575
-3.89916 -0.36266 7.09372
-3.88753 -0.362409 7.04362
-3.89287 -0.362057 6.99965
-3.88735 -0.362024 6.9346
-3.89169 -0.361687 6.88962
-3.89702 -0.361335 6.84565
-3.89742 -0.361119 6.79264
-3.89681 -0.36089 6.74062
-3.88614 -0.360549 6.69653
-3.88949 -0.360228 6.65055
-3.88987 -0.359969 6.60054
-3.89023 -0.359694 6.55153
-3.88961 -0.359435 6.50152
-3.89293 -0.359069 6.45853
-3.88934 -0.358872 6.40449
-3.88754 -0.359273 6.37748
-3.88197 -0.359121 6.32043
-3.88331 -0.358787 6.27543
-3.88563 -0.358422 6.23243
-3.88498 -0.358103 6.18642
-3.88829 -0.357708 6.14543
-3.88565 -0.357421 6.0974
-3.88287 -0.357853 6.06838
-3.88023 -0.357565 6.02035
-3.88451 -0.35711 5.98337
-3.88385 -0.356777 5.93835
-3.88249 -0.356052 5.85232
-3.8787 -0.356469 5.8243
-3.88099 -0.35603 5.7863
-3.87834 -0.355714 5.74027
-3.87667 -0.355367 5.69625
-3.87825 -0.355506 5.61925
-3.86797 -0.353874 5.2571
-3.86501 -0.35289 4.98602
-3.86217 -0.352188 4.83097
-3.8486 -0.350951 4.37479
-3.84902 -0.349735 4.18675
-3.84103 -0.349725 4.05267
-3.84064 -0.349925 3.97166
-3.83816 -0.348949 3.90261
-3.83438 -0.349396 3.87259
-3.83954 -0.349703 3.85163
-3.83973 -0.349073 3.82662
-3.82801 -0.348645 3.78852
-4.02156 -0.296088 13.8126
-3.91919 -0.29718 8.67812
-3.92272 -0.297214 8.60813
-3.9147 -0.298145 8.47807
-3.91185 -0.297428 8.32402
-3.87234 -0.299919 6.26647
-3.875 -0.300221 6.17848
-3.87634 -0.300886 6.1335
-3.87898 -0.301158 6.04751
-3.86746 -0.301099 5.98441
-3.86565 -0.300471 5.95939
-3.87092 -0.301 5.92343
-3.87321 -0.300576 5.88444
-3.87255 -0.301243 5.83943
-3.87386 -0.300849 5.79843
-3.87515 -0.301426 5.75945
-3.86063 -0.301384 5.69533
-3.86308 -0.301256 5.63633
-3.85269 -0.302402 5.28923
-3.85055 -0.302107 5.17419
-3.84925 -0.302485 5.08117
-3.8288 -0.306278 3.8129
-4.0548 -0.214923 14.9698
-4.05422 -0.215722 14.7808
-4.04587 -0.216971 14.5617
-4.04134 -0.217877 14.3656
-4.04167 -0.218483 14.1896
-4.01749 -0.221009 13.6824
-4.01769 -0.221379 13.5224
-4.01594 -0.222838 13.3564
-4.02 -0.223923 13.2154
-4.01527 -0.224415 13.0474
-4.00509 -0.225036 12.9383
-4.00429 -0.226376 12.6453
-3.99752 -0.226795 12.4822
-4.00441 -0.227537 12.3642
-3.99954 -0.228762 12.2142
-3.98241 -0.230417 11.833
-3.98137 -0.231313 11.705
-3.98326 -0.232059 11.587
-3.98318 -0.232881 11.464
-3.97526 -0.233004 11.321
-3.98688 -0.23321 11.239
-3.97054 -0.234495 11.0179
-3.96548 -0.235349 10.8929
-3.96826 -0.235873 10.7899
-3.95828 -0.236879 10.6548
-3.96788 -0.237057 10.5749
-3.95505 -0.238346 10.2857
-3.94795 -0.239114 10.1667
-3.95751 -0.239203 10.0927
-3.9533 -0.239775 9.9867
-3.95793 -0.241001 9.90375
-3.93549 -0.245886 8.89951
-3.92948 -0.246845 8.76746
-3.93693 -0.246728 8.70751
-3.93258 -0.248005 8.62148
-3.92724 -0.248297 8.53443
-3.93073 -0.248257 8.46945
-3.92634 -0.248475 8.38741
-3.8989 -0.254363 7.38315
-3.9013 -0.255146 7.33017
-3.9047 -0.254928 7.27719
-3.90809 -0.255696 7.22522
-3.90751 -0.255526 7.1692
-3.90202 -0.256522 7.10217
-3.89827 -0.256028 7.06813
-3.89081 -0.257085 6.99708
-3.89614 -0.256733 6.95311
-3.89456 -0.257563 6.8971
-3.89693 -0.257287 6.84811
-3.8993 -0.258011 6.79913
-3.88408 -0.258562 6.69501
-3.89235 -0.259089 6.65907
-3.88977 -0.25892 6.60304
-3.89409 -0.259539 6.56108
-3.88952 -0.259387 6.50403
-3.88926 -0.259853 6.40503
-3.88845 -0.260224 6.38002
-3.88485 -0.261011 6.327
-3.88422 -0.260737 6.27798
-3.87567 -0.261632 6.21792
-3.88688 -0.262024 6.19101
-3.88129 -0.261842 6.13596
-3.87092 -0.262079 6.05287
-3.88213 -0.262486 6.02496
-3.87355 -0.263321 5.9689
-3.8798 -0.26282 5.93493
-3.87716 -0.263533 5.88692
-3.86972 -0.263634 5.81285
-3.88092 -0.264011 5.78694
-3.87429 -0.264756 5.73689
-3.86403 -0.265215 5.63881
-3.85982 -0.265773 5.53377
-3.86507 -0.266258 5.50081
-3.85971 -0.26652 5.41576
-3.86494 -0.266961 5.38581
-3.85432 -0.267679 5.20271
-3.85656 -0.268166 5.16973
-3.85511 -0.268248 5.09671
-3.85228 -0.268576 5.07469
-3.84785 -0.268704 4.99865
-3.85306 -0.269115 4.97069
-3.8506 -0.269169 4.89966
-3.84602 -0.270001 4.84363
-3.85221 -0.270367 4.81868
-3.85642 -0.270778 4.79072
-3.85171 -0.270359 4.75167
-3.8579 -0.270725 4.72672
-3.85715 -0.271214 4.69372
-3.84451 -0.270934 4.64561
-3.84858 -0.27108 4.63564
-3.84585 -0.2716 4.60062
-3.84311 -0.27212 4.56561
-3.84433 -0.272549 4.53662
-3.8406 -0.272085 4.50058
-3.8438 -0.272467 4.4746
-3.85095 -0.272773 4.45366
-3.84513 -0.273118 4.43062
-3.83643 -0.272717 4.39054
-3.84359 -0.273022 4.3696
-3.8458 -0.273435 4.34161
-3.84006 -0.273958 4.30657
-3.8482 -0.274233 4.28764
-3.83742 -0.273656 4.25954
-3.83884 -0.274484 4.20356
-3.83507 -0.274946 4.17253
-3.83529 -0.274375 4.14352
-3.83648 -0.274745 4.11853
-3.83867 -0.275128 4.09255
-3.83303 -0.275843 4.04451
-3.83422 -0.275212 4.01951
-3.83244 -0.275643 3.9905
-3.83463 -0.276012 3.96552
-3.83383 -0.276412 3.93851
-3.83204 -0.276828 3.9105
-3.82559 -0.276899 3.83844
-3.82479 -0.277299 3.81144
-4.03061 -0.0475384 13.915
-4.03088 -0.0500408 13.746
-4.02913 -0.0525002 13.58
-4.02934 -0.0548693 13.42
-4.01376 -0.064558 12.834
-4.01482 -0.0666451 12.693
-4.01292 -0.0698084 12.547
-3.99296 -0.0777748 12.0099
-3.99588 -0.0805643 11.8889
-3.99486 -0.0824901 11.7589
-3.97636 -0.0923438 11.1619
-3.97818 -0.0939566 11.0529
-3.98292 -0.0954191 10.9539
-3.9759 -0.0973492 10.8239
-3.96665 -0.105715 10.3269
-3.96347 -0.107332 10.2179
-3.96518 -0.108737 10.1229
-3.94027 -0.128614 8.91681
-3.93679 -0.131593 8.7158
-3.93735 -0.132703 8.64081
-3.93354 -0.136045 8.48281
-3.90513 -0.153932 7.34371
-3.9045 -0.159597 7.02874
-3.90116 -0.162857 6.80873
-3.89719 -0.164889 6.67172
-3.89658 -0.165659 6.61972
-3.87048 -0.183197 5.57163
-3.87289 -0.183995 5.51766
-3.87446 -0.185119 5.44167
-3.86978 -0.187728 5.26565
-3.8671 -0.188352 5.22364
-3.86533 -0.190767 5.06064
-3.85375 -0.19356 4.87256
-3.84021 -0.210244 3.88157
-4.03715 0.0630727 14.6305
-4.03362 0.058168 14.4345
-4.03009 0.0542928 14.2405
-4.02749 0.0495369 14.0545
-4.02682 0.0459303 13.8786
-4.01087 0.025074 12.9436
-4.00709 0.0216724 12.7816
-3.98829 0.00839644 12.2236
-3.98538 0.00526208 12.0796
-3.98929 0.00247327 11.9587
-3.98536 -0.000632201 11.8167
-3.96474 -0.0191741 10.9707
-3.94961 -0.0455983 9.79478
-3.89205 -0.107767 6.94987
-3.88041 -0.11441 6.63684
-3.87642 -0.117382 6.50383
-3.87751 -0.120528 6.35887
-3.87293 -0.122346 6.30385
-3.87623 -0.122951 6.26288
-3.87183 -0.125124 6.18387
-3.86921 -0.125866 6.13385
-3.86955 -0.126532 6.08886
-3.87022 -0.128849 5.99989
-3.8745 -0.129409 5.96192
-3.86477 -0.129949 5.92585
-3.86345 -0.132268 5.83686
-3.86475 -0.132874 5.79588
-3.87626 -0.134858 5.72898
-3.87656 -0.13545 5.68899
-3.86477 -0.138828 5.52893
-3.86111 -0.139511 5.4829
-3.85463 -0.141523 5.41488
-3.86015 -0.142541 5.34592
-3.859 -0.145215 5.23294
-3.85137 -0.145946 5.18389
-3.85402 -0.148232 5.09693
-3.85231 -0.148796 5.05892
-3.8496 -0.149361 5.0209
-3.84888 -0.150909 4.98391
-3.8521 -0.151351 4.95394
-3.84606 -0.154236 4.82692
-3.85027 -0.154647 4.79895
-3.84978 -0.15564 4.73195
-3.84792 -0.155923 4.71294
-3.85411 -0.156288 4.68799
-3.84147 -0.158008 4.63991
-3.85459 -0.158236 4.62401
-3.84393 -0.15891 4.57894
-3.85506 -0.159153 4.56202
-3.8434 -0.160843 4.51595
-3.83658 -0.161188 4.4929
-3.83681 -0.161647 4.46191
-3.842 -0.162014 4.43695
-3.84344 -0.162872 4.37896
-3.84663 -0.164254 4.35301
-3.84983 -0.164637 4.32703
-3.84101 -0.164999 4.30297
-3.83253 -0.166027 4.23391
-3.8399 -0.167747 4.18498
-3.83516 -0.168254 4.15095
-3.83031 -0.168553 4.13092
-3.8325 -0.168937 4.10493
-3.83271 -0.169336 4.07794
-3.83291 -0.169736 4.05094
-3.8351 -0.171105 4.02598
-3.8365 -0.171888 3.97299
-3.82688 -0.172651 3.92192
-3.83224 -0.173343 3.87497
-3.82569 -0.175236 3.81494
-4.03448 0.152336 14.4451
-4.028 0.14734 14.2431
-4.02636 0.141674 14.0632
-4.02468 0.137067 13.8872
-4.02006 0.131369 13.7052
-4.00476 0.110164 12.9493
-4.00389 0.105942 12.7994
-4.00302 0.101735 12.6504
-3.9821 0.0787714 11.8435
-3.96538 0.0554402 11.0116
-4.01683 0.229712 13.5927
-4.00155 0.202493 12.8359
-3.99872 0.197181 12.6799
-4.00173 0.193214 12.547
-3.98571 0.165461 11.7542
-3.98372 0.160476 11.6202
-3.96604 0.13604 10.9164
-3.96 0.131155 10.7894
-3.94934 0.106665 10.0816
-3.92245 0.0608054 8.74185
-3.91908 0.0585592 8.65785
-3.92357 0.0556001 8.59292
-3.90084 0.0144019 7.36519
-3.90423 0.0126493 7.31423
-3.90763 0.0108522 7.26027
-3.90018 0.00878074 7.18824
-3.88996 0.00523349 7.0842
-3.89531 0.00355632 7.03826
-3.88981 0.000575211 6.97225
-3.88924 -0.00126915 6.91527
-3.88766 -0.00309943 6.85927
-3.90089 -0.00353405 6.82938
-3.88174 -0.00722107 6.71627
-3.88508 -0.00888489 6.67132
-3.8825 -0.0107159 6.61532
-3.88387 -0.0124404 6.56634
-3.88623 -0.0141345 6.51938
-3.88147 -0.0156117 6.48736
-3.87986 -0.0173828 6.43537
-3.88812 -0.0178951 6.40043
-3.87762 -0.0198799 6.33438
-3.89082 -0.0212552 6.30849
-3.88031 -0.0232253 6.24343
-3.87868 -0.024952 6.19444
-3.87589 -0.0253686 6.16642
-3.87623 -0.0270346 6.12144
-3.88184 -0.0302298 6.04052
-3.87921 -0.0319572 5.99152
-3.88449 -0.0325012 5.95456
-3.86801 -0.0355347 5.88547
-3.86916 -0.0358301 5.86548
-3.87343 -0.03636 5.82952
-3.87672 -0.0379202 5.79156
-3.86122 -0.0399087 5.72546
-3.85887 -0.0431837 5.63948
-3.87597 -0.0433786 5.62561
-3.86061 -0.0466482 5.54053
-3.86189 -0.0471952 5.50355
-3.8612 -0.0488027 5.46256
-3.86445 -0.0502889 5.4296
-3.86969 -0.0507589 5.39764
-3.86602 -0.052413 5.35363
-3.85824 -0.0528481 5.32458
-3.85358 -0.0545178 5.27956
-3.86672 -0.0547896 5.26066
-3.85909 -0.0565058 5.21262
-3.86557 -0.0584487 5.14869
-3.85099 -0.0612883 5.09262
-3.8603 -0.0618887 5.05169
-3.85786 -0.0639861 4.97769
-3.84525 -0.0657504 4.92662
-3.84885 -0.0689322 4.84668
-3.84936 -0.0709387 4.7787
-3.84762 -0.0714434 4.74469
-3.84094 -0.0730701 4.70266
-3.84327 -0.0747347 4.6577
-3.85092 -0.0770025 4.57178
-3.84172 -0.0805638 4.46675
-3.83535 -0.0838121 4.38273
-3.83304 -0.086176 4.29074
-3.83698 -0.0900091 4.16681
-3.82927 -0.0915773 4.12877
-3.84038 -0.0917913 4.11385
-3.83672 -0.0934602 4.06884
-3.83516 -0.0943202 4.01084
-3.84052 -0.096027 3.9629
-3.83289 -0.097758 3.91386
-3.82415 -0.0992826 3.87881
-3.83626 -0.0994811 3.8649
-4.02036 0.295612 13.3828
-4.02541 0.289558 13.2439
-4.0158 0.282841 13.0609
-4.00886 0.255902 12.3901
-4.00304 0.249588 12.2341
-3.98183 0.219217 11.4673
-3.98259 0.209768 11.2344
-3.96672 0.187658 10.6876
-3.96948 0.184165 10.5866
-3.96563 0.167988 10.1698
-3.95815 0.164961 10.1008
-3.95101 0.160268 9.98677
-3.96054 0.158239 9.91686
-3.95241 0.15353 9.80185
-3.93717 0.118253 8.90613
-3.93481 0.115008 8.82215
-3.93693 0.108804 8.67324
-3.92356 0.100611 8.45823
-3.92705 0.0986508 8.39328
-3.93054 0.0956911 8.32834
-3.90675 0.0585199 7.37258
-3.90917 0.0567073 7.31762
-3.90785 0.0533738 7.22764
-3.90038 0.0503321 7.15762
-3.90079 0.048518 7.10264
-3.90358 0.0449654 6.9977
-3.89373 0.0387079 6.8457
-3.88919 0.0368014 6.78469
-3.89452 0.0351538 6.74074
-3.89491 0.0323991 6.68978
-3.89232 0.0305977 6.63578
-3.89664 0.0289642 6.59283
-3.88912 0.027026 6.52979
-3.88634 0.0255798 6.49979
-3.8877 0.0238849 6.45282
-3.88608 0.0221435 6.40283
-3.89138 0.0205551 6.36288
-3.89074 0.018844 6.3149
-3.89009 0.0171477 6.26791
-3.88946 0.0154365 6.21993
-3.88074 0.0138824 6.18288
-3.87515 0.012064 6.12786
-3.87845 0.010489 6.0889
-3.87977 0.00885331 6.04593
-3.88109 0.00721765 6.00295
-3.8824 0.00561158 5.96198
-3.87976 0.00391378 5.91498
-3.86905 0.00232859 5.87592
-3.87431 0.000829055 5.84198
-3.87561 -0.000762207 5.802
-3.87395 -0.00242966 5.75701
-3.87525 -0.00400612 5.71804
-3.87753 -0.00455236 5.68106
-3.86977 -0.00604655 5.64802
-3.86403 -0.0125084 5.48205
-3.86927 -0.0139784 5.4501
-3.86206 -0.0175382 5.34509
-3.8646 -0.0196024 5.27313
-3.8602 -0.0227752 5.19413
-3.85071 -0.0257741 5.12709
-3.86015 -0.0276408 5.06818
-3.8482 -0.0376618 4.7972
-3.84473 -0.0397007 4.7272
-3.85376 -0.0397682 4.72227
-3.8441 -0.0414267 4.67821
-3.84359 -0.0443894 4.61324
-3.84877 -0.044741 4.58929
-3.84107 -0.0463388 4.54925
-3.85022 -0.0466283 4.52932
-3.84142 -0.0480196 4.50327
-3.84706 -0.0502741 4.41833
-3.84431 -0.0517646 4.38533
-3.84386 -0.0548457 4.31236
-3.84925 -0.0566117 4.26042
-3.83658 -0.0582724 4.21634
-3.83481 -0.0587179 4.18633
-3.83215 -0.0603861 4.14133
-3.83435 -0.0617694 4.11536
-3.82959 -0.0622615 4.08233
-3.83376 -0.0635841 4.06038
-3.83 -0.0640607 4.02835
-3.84112 -0.0652746 4.01345
-3.83735 -0.0657364 3.98243
-3.82574 -0.0675148 3.93036
-3.83388 -0.0687753 3.91244
-3.83328 -0.0705604 3.85945
-3.8406 -0.0711919 3.81651
-4.02794 0.419103 14.2251
-4.02729 0.410453 14.0462
-4.02565 0.402787 13.8663
-4.02493 0.394269 13.6964
-4.02713 0.386917 13.5375
-4.02537 0.379488 13.3735
-4.02753 0.373224 13.2206
-4.00566 0.365988 13.0706
-4.00971 0.359933 12.9317
-4.00886 0.352682 12.7797
-4.00896 0.346521 12.6338
-4.0061 0.339298 12.4839
-4.0081 0.33333 12.351
-3.99009 0.321423 12.088
-3.99105 0.315529 11.96
-3.99104 0.30959 11.8291
-3.99004 0.303635 11.6972
-3.98901 0.297739 11.5692
-3.98697 0.291843 11.4413
-3.96972 0.28141 11.2103
-3.97058 0.275723 11.0964
-3.96947 0.270975 10.9784
-3.97129 0.266363 10.8695
-3.97407 0.26084 10.7666
-3.97095 0.25612 10.6506
-3.95764 0.251764 10.5595
-3.95407 0.236994 10.2377
-3.95677 0.233619 10.1447
-3.9575 0.229198 10.0488
-3.93556 0.175417 8.84927
-3.92661 0.169352 8.71027
-3.92283 0.161951 8.54833
-3.91847 0.157704 8.46435
-3.92393 0.155805 8.40341
-3.92152 0.151649 8.32544
-3.91391 0.149873 8.2734
-3.89104 0.101927 7.19779
-3.89344 0.100144 7.14483
-3.89189 0.0972544 7.08485
-3.8819 0.086309 6.8189
-3.88071 0.081724 6.71195
-3.87821 0.0668071 6.3801
-3.84077 -0.00284095 4.71762
-3.84051 -0.0062921 4.61966
-3.83486 -0.0139315 4.4417
-3.83641 -0.0170111 4.36875
-3.83862 -0.0174241 4.34077
-3.83388 -0.0189458 4.30575
-3.83806 -0.020298 4.2818
-3.83432 -0.0218041 4.24779
-3.83641 -0.0219803 4.23581
-3.83705 -0.0252382 4.15085
-3.83132 -0.0267606 4.11582
-3.83252 -0.0271595 4.08883
-3.8357 -0.0285125 4.06487
-3.82709 -0.0302739 4.01383
-3.83522 -0.0315344 3.99591
-3.82571 -0.0334889 3.93185
-3.83384 -0.0347494 3.91393
-3.83206 -0.0351801 3.88492
-3.82521 -0.0364812 3.86489
-4.03503 0.509847 14.0718
-4.0353 0.501346 13.9029
-4.03264 0.491724 13.726
-4.03286 0.48334 13.5651
-4.01233 0.459516 13.1052
-4.01735 0.452521 12.9704
-4.01453 0.444209 12.8144
-3.99769 0.409101 12.1327
-3.99767 0.402176 12.0028
-3.99668 0.395192 11.8689
-3.99469 0.388207 11.735
-3.97933 0.370029 11.3861
-3.9763 0.364132 11.2581
-3.97814 0.35849 11.1472
-3.97898 0.352832 11.0353
-3.97785 0.346144 10.9213
-3.97377 0.340335 10.7994
-3.97752 0.334872 10.7005
-3.95961 0.313789 10.2906
-3.9584 0.309249 10.1866
-3.96305 0.304979 10.1007
-3.95886 0.299392 9.99377
-3.94646 0.295213 9.91472
-3.92536 0.241713 8.86921
-3.92959 0.240272 8.83926
-3.92231 0.23486 8.74427
-3.92681 0.231872 8.67734
-3.93032 0.228882 8.6104
-3.92595 0.224636 8.52642
-3.93043 0.221706 8.46349
-3.93098 0.217626 8.39055
-3.91157 0.213457 8.31245
-3.904 0.164884 7.32898
-3.90739 0.162132 7.27804
-3.90684 0.159258 7.21907
-3.90233 0.156292 7.15407
-3.89704 0.150897 7.06009
-3.90238 0.14922 7.01415
-3.89391 0.145177 6.94414
-3.89826 0.143499 6.89819
-3.88879 0.139456 6.82817
-3.89806 0.13793 6.79226
-3.88976 0.133562 6.70025
-3.88323 0.130625 6.63723
-3.89447 0.129174 6.60633
-3.88299 0.125144 6.5373
-3.88731 0.123525 6.49535
-3.89162 0.121907 6.4534
-3.87699 0.119171 6.40432
-3.87736 0.11646 6.35636
-3.88166 0.114871 6.31641
-3.883 0.113206 6.27144
-3.87643 0.110357 6.21442
-3.87875 0.107723 6.17147
-3.872 0.106229 6.13844
-3.86839 0.103471 6.08745
-3.873 0.100276 6.00652
-3.8674 0.0974869 5.95351
-3.86871 0.0958809 5.91254
-3.87793 0.0944583 5.88362
-3.86357 0.0901895 5.79857
-3.8629 0.0875524 5.75559
-3.86747 0.0844306 5.67966
-3.8648 0.0817773 5.63568
-3.8595 0.0714572 5.41176
-3.866 0.0684701 5.34484
-3.85455 0.065381 5.27179
-3.8568 0.063894 5.23883
-3.85905 0.0624071 5.20586
-3.85141 0.059691 5.15784
-3.86257 0.0584031 5.13794
-3.85987 0.0568089 5.09794
-3.84838 0.0537938 5.02988
-3.85161 0.052352 4.99993
-3.85088 0.0508185 4.96394
-3.84718 0.0482237 4.92394
-3.84409 0.0434448 4.80397
-3.8483 0.0420334 4.77602
-3.84459 0.0404681 4.73801
-3.84978 0.039087 4.71207
-3.84804 0.0375824 4.67807
-3.84915 0.0373758 4.66408
-3.85236 0.0359637 4.63612
-3.8417 0.0332898 4.59108
-3.8558 0.0331075 4.57818
-3.85009 0.031526 4.53916
-3.84833 0.0300509 4.50716
-3.85253 0.0286691 4.48121
-3.85066 0.028416 4.4642
-3.84296 0.0258183 4.42417
-3.84219 0.0243588 4.39319
-3.85034 0.0240834 4.37425
-3.8404 0.00606543 3.96838
-3.84457 0.00474279 3.94643
-3.83296 0.00196454 3.89438
-3.82957 -0.00123715 3.81339
-4.04057 0.601626 14.1235
-4.01909 0.582666 13.7896
-4.02033 0.573254 13.6267
-4.01958 0.563796 13.4608
-4.02174 0.554533 13.3079
-4.02093 0.545194 13.15
-4.00215 0.528843 12.8571
-4.00227 0.519652 12.7092
-4.00234 0.51155 12.5673
-4.00536 0.504553 12.4324
-4.00541 0.496511 12.2945
-3.98932 0.481754 12.0416
-3.98638 0.473679 11.9017
-3.98735 0.465785 11.7738
-3.98634 0.458845 11.6428
-3.98627 0.452009 11.5189
-3.98717 0.445248 11.4
-3.98413 0.437366 11.2731
-3.9699 0.431861 11.1721
-3.97175 0.425189 11.0591
-3.96768 0.418366 10.9362
-3.96754 0.411693 10.8233
-3.97031 0.406185 10.7214
-3.95151 0.381909 10.2985
-3.95322 0.376504 10.2036
-3.95495 0.371084 10.1077
-3.95568 0.365649 10.0108
-3.95247 0.360107 9.90681
-3.94046 0.344205 9.64392
-3.92797 0.311358 9.04723
-3.92759 0.306144 8.96529
-3.92427 0.301809 8.87532
-3.93174 0.297897 8.81342
-3.93134 0.293712 8.73347
-3.9218 0.289817 8.67345
-3.91843 0.285586 8.59047
-3.92096 0.281537 8.51954
-3.91758 0.27732 8.43757
-3.92304 0.273421 8.37666
-3.92162 0.269295 8.3007
-3.90305 0.21473 7.31823
-3.89856 0.21172 7.25023
-3.89802 0.207831 7.19028
-3.9004 0.205078 7.13933
-3.90182 0.202265 7.08437
-3.90519 0.199542 7.03543
-3.89554 0.196839 6.98839
-3.89201 0.193919 6.9264
-3.90129 0.192378 6.88949
-3.89675 0.188472 6.8285
-3.89715 0.185687 6.77554
-3.89083 0.18035 6.68556
-3.88529 0.177443 6.62455
-3.89554 0.175962 6.59165
-3.88974 0.167619 6.43371
-3.88337 0.162371 6.34972
-3.87583 0.159462 6.2887
-3.88048 0.155193 6.20279
-3.87195 0.151269 6.14077
-3.86588 0.144443 6.01781
-3.88334 0.141568 5.95798
-3.87255 0.126222 5.66508
-3.85932 0.120703 5.56305
-3.87643 0.120508 5.54918
-3.86827 0.113859 5.4382
-3.86658 0.112251 5.39721
-3.86362 0.105205 5.25927
-3.86317 0.101125 5.18632
-3.86174 0.0970132 5.11136
-3.86465 0.091224 4.99045
-3.84933 0.0858805 4.9004
-3.8585 0.0855614 4.87847
-3.84459 0.0585423 4.33769
-3.84594 0.0429244 4.02589
-3.83355 0.032762 3.81292
-4.03154 0.687566 14.1191
-4.01244 0.64596 13.4715
-4.00597 0.625011 13.1377
-4.01197 0.617047 13.0049
-3.99619 0.58179 12.4482
-3.98939 0.571432 12.2893
-3.99429 0.564674 12.1704
-3.98941 0.554479 12.0225
-3.97403 0.516424 11.4119
-3.94094 0.418085 9.83785
-3.88852 0.251768 7.11854
-3.89189 0.249045 7.0696
-3.88444 0.237005 6.8647
-3.88326 0.230406 6.75677
-3.88068 0.227575 6.70079
-3.88087 0.226205 6.6758
-3.88126 0.22345 6.62484
-3.87669 0.219603 6.56786
-3.88102 0.21697 6.52492
-3.87645 0.214108 6.46692
-3.87519 0.207656 6.36899
-3.87241 0.206225 6.33999
-3.87276 0.203544 6.29403
-3.88105 0.194034 6.12421
-3.86953 0.190078 6.06017
-3.86507 0.17807 5.85729
-3.84871 0.135014 5.1117
-3.84897 0.133496 5.07672
-3.85913 0.132193 5.05581
-3.84936 0.130727 5.02475
-3.84518 0.124125 4.9168
-3.84345 0.122591 4.88081
-3.85064 0.121226 4.85588
-3.85089 0.119738 4.8229
-3.852 0.118516 4.80792
-3.85325 0.117044 4.77595
-3.84061 0.114324 4.72789
-3.84283 0.111896 4.69894
-3.84406 0.110438 4.66796
-3.84925 0.109072 4.64302
-3.84565 0.106285 4.59003
-3.83818 0.102243 4.52002
-3.84039 0.10083 4.49205
-3.83765 0.0993247 4.45805
-3.83502 0.0965974 4.40906
-3.84042 0.0938168 4.35614
-3.84064 0.0923876 4.32716
-3.85077 0.0921432 4.31024
-3.83612 0.0884369 4.26317
-3.84228 0.0881305 4.24222
-3.84238 0.0869381 4.22924
-3.83984 0.0840332 4.16825
-3.84302 0.0826802 4.14429
-3.84423 0.0812814 4.11732
-3.84365 0.078452 4.06135
-3.8368 0.0771509 4.04132
-3.83007 0.074628 4.0063
-3.83226 0.0732595 3.98133
-3.84535 0.0730913 3.96943
-3.83166 0.0704596 3.92736
-3.83781 0.0701828 3.90841
-3.83016 0.0674814 3.86138
-3.82342 0.0649733 3.82736
-3.82659 0.0646498 3.80539
-4.02616 0.785188 14.1607
-4.0255 0.773568 13.9838
-4.02385 0.760917 13.8049
-4.0048 0.706269 13.0195
-4.00592 0.696079 12.8716
-3.99109 0.657912 12.321
-3.99016 0.64781 12.1791
-3.99409 0.639992 12.0563
-3.9892 0.629827 11.9104
-3.97495 0.604444 11.5476
-3.97284 0.587741 11.2978
-3.96783 0.578799 11.1669
-3.97554 0.572413 11.073
-3.97257 0.54449 10.6733
-3.94193 0.487019 9.83284
-3.93969 0.480537 9.7329
-3.9394 0.474146 9.63898
-3.91876 0.408728 8.66666
-3.91638 0.402513 8.58473
-3.90855 0.375305 8.16601
-3.90198 0.353548 7.84524
-3.90246 0.349616 7.78229
-3.90688 0.345805 7.72738
-3.89671 0.330216 7.4855
-3.89421 0.325237 7.41954
-3.89465 0.321364 7.36059
-3.89411 0.317475 7.30064
-3.89026 0.307208 7.14774
-3.89069 0.304379 7.09178
-3.88914 0.30049 7.03182
-3.88956 0.296676 6.97687
-3.88897 0.292876 6.92291
-3.88268 0.28648 6.82895
-3.88406 0.283726 6.77799
-3.88543 0.280002 6.72905
-3.88188 0.276126 6.67007
-3.88523 0.273448 6.62413
-3.8866 0.270723 6.57517
-3.87531 0.264324 6.48117
-3.87666 0.261629 6.43422
-3.87245 0.254086 6.33028
-3.872 0.25002 6.25833
-3.87304 0.240978 6.12045
-3.87768 0.235738 6.03655
-3.86333 0.221486 5.81762
-3.84768 0.162101 4.84725
-3.8561 0.158278 4.79136
-4.04048 0.852511 13.9787
-3.9834 0.637604 11.0851
-3.97138 0.598825 10.5605
-3.95922 0.542389 9.78914
-3.94419 0.504622 9.26552
-3.93768 0.470793 8.8049
-3.93432 0.464533 8.71996
-3.9325 0.453223 8.56409
-3.91997 0.402526 7.84265
-3.91115 0.372288 7.42197
-3.90565 0.3494 7.09222
-3.8974 0.324021 6.72949
-3.89778 0.320266 6.67854
-3.89718 0.316496 6.62658
-3.8929 0.301118 6.39875
-3.8913 0.297347 6.34678
-3.88511 0.28079 6.10695
-3.87442 0.27819 6.0669
-3.87673 0.274585 6.02597
-3.87804 0.271979 5.98501
-3.88232 0.27042 5.94706
-3.86782 0.265432 5.88102
-3.88099 0.264116 5.85913
-3.86991 0.255317 5.73816
-3.85866 0.248829 5.63816
-3.86717 0.243843 5.57129
-3.86762 0.23997 5.51234
-3.8682 0.234831 5.43541
-3.86184 0.229568 5.35043
-3.85435 0.224571 5.28344
-3.87045 0.224375 5.26956
-3.85986 0.220583 5.21653
-3.84951 0.214302 5.13053
-3.85184 0.194745 4.8228
-3.84414 0.183193 4.65089
-3.85463 0.180239 4.586
-3.84 0.176503 4.53694
-3.8551 0.176321 4.52405
-3.84245 0.172631 4.478
-3.84862 0.171295 4.45507
-3.83784 0.168858 4.42602
-3.83904 0.167459 4.39904
-3.84224 0.166077 4.37309
-3.8395 0.163572 4.3391
-3.84666 0.162266 4.31817
-3.84488 0.16082 4.28817
-3.83707 0.15846 4.26414
-3.83828 0.157046 4.23617
-3.8365 0.155601 4.20617
-3.84266 0.154294 4.18524
-3.83693 0.151772 4.15023
-3.84705 0.151542 4.1343
-3.83447 0.147704 4.07826
-3.8327 0.145259 4.04828
-3.84381 0.145045 4.03336
-3.84202 0.142629 4.00538
-3.84421 0.141261 3.98041
-3.84342 0.13986 3.95342
-3.83876 0.137191 3.90842
-3.833 0.134713 3.87641
-3.84114 0.134452 3.85847
-3.83736 0.132006 3.82848
-3.83755 0.130636 3.8035
-3.82206 0.125633 3.73644
-4.02569 0.942002 13.8093
-4.02691 0.928605 13.6475
-4.02619 0.915118 13.4796
-4.02735 0.90284 13.3258
-4.02462 0.889351 13.158
-4.00593 0.853885 12.7223
-4.00897 0.842859 12.5855
-4.00707 0.830697 12.4396
-4.00321 0.818459 12.2887
-3.99009 0.78784 11.91
-3.99299 0.778081 11.7912
-3.99002 0.767066 11.6553
-3.99096 0.757231 11.5314
-3.98785 0.737529 11.2817
-3.97155 0.719201 11.0578
-3.9714 0.710529 10.9449
-3.96929 0.700796 10.828
-3.976 0.693409 10.7342
-3.95599 0.651609 10.2086
-3.96456 0.645491 10.1327
-3.95843 0.636784 10.0178
-3.95914 0.628393 9.92389
-3.94255 0.613628 9.73796
-3.9452 0.607372 9.65306
-3.94881 0.601176 9.57217
-3.94065 0.591527 9.46123
-3.94229 0.585285 9.37733
-3.94392 0.579058 9.29442
-3.93768 0.570558 9.19348
-3.92817 0.565589 9.12848
-3.92548 0.552042 8.95663
-3.92607 0.545888 8.87872
-3.9306 0.540855 8.80882
-3.92724 0.533594 8.72389
-3.92585 0.527409 8.64396
-3.91926 0.523605 8.58996
-3.9194 0.51137 8.43912
-3.92091 0.506365 8.37119
-3.91754 0.500149 8.28925
-3.91904 0.494173 8.22334
-3.90947 0.490322 8.16632
-3.90559 0.478129 8.01845
-3.91101 0.474304 7.96254
-3.90757 0.468221 7.88959
-3.91003 0.46432 7.82866
-3.91249 0.459419 7.76774
-3.89894 0.454521 7.7077
-3.90336 0.45071 7.65279
-3.90285 0.445748 7.58785
-3.89838 0.439723 7.51889
-3.89884 0.434821 7.45796
-3.90324 0.431039 7.40504
-3.89973 0.426075 7.34008
-3.89109 0.422373 7.29306
-3.89645 0.418666 7.24515
-3.89393 0.413717 7.1812
-3.89535 0.409904 7.12626
-3.90267 0.407288 7.08434
-3.89323 0.401186 7.01035
-3.8966 0.397463 6.96143
-3.8899 0.393866 6.92142
-3.89129 0.390112 6.87048
-3.88775 0.385207 6.80952
-3.89504 0.382649 6.77161
-3.88162 0.3765 6.69459
-3.88497 0.373821 6.64865
-3.8893 0.370188 6.60573
-3.87764 0.366499 6.55969
-3.87839 0.359034 6.46079
-3.87778 0.355279 6.40983
-3.88307 0.352705 6.37091
-3.87948 0.348903 6.31693
-3.87148 0.338944 6.185
-3.87281 0.335308 6.14206
-3.87316 0.331628 6.09611
-3.87448 0.328992 6.05315
-3.87779 0.326402 6.01321
-3.86709 0.322803 5.97317
-3.8684 0.320197 5.93222
-3.87069 0.316621 5.89328
-3.87102 0.313985 5.85032
-3.86937 0.310303 5.80435
-3.87956 0.30894 5.77945
-3.86688 0.305309 5.7374
-3.86917 0.302734 5.69845
-3.86156 0.298959 5.64644
-3.86484 0.296428 5.6105
-3.86712 0.293882 5.57355
-3.86445 0.290229 5.52957
-3.86969 0.288759 5.49763
-3.86093 0.285279 5.46561
-3.85925 0.282656 5.42363
-3.85955 0.280079 5.38467
-3.85588 0.276425 5.34069
-3.85517 0.273862 5.30272
-3.85843 0.271361 5.26877
-3.8587 0.268829 5.23281
-3.84993 0.266363 5.20177
-3.85218 0.263877 5.16882
-3.85542 0.262405 5.13686
-3.85075 0.258765 5.09388
-3.85894 0.257401 5.06896
-3.86118 0.254929 5.037
-3.85155 0.251197 4.98798
-3.85464 0.250022 4.97602
-3.84699 0.247335 4.93
-3.85022 0.244893 4.90005
-3.85047 0.242405 4.86709
-3.8537 0.240963 4.83713
-3.84801 0.237352 4.79613
-3.85024 0.235895 4.76517
-3.84343 0.23352 4.74015
-3.84689 0.22962 4.67922
-3.84416 0.2271 4.64423
-3.84737 0.224688 4.61629
-3.8496 0.223245 4.58632
-3.8472 0.217059 4.50639
-3.83555 0.21337 4.46035
-3.83677 0.211942 4.43137
-3.84889 0.211713 4.41547
-3.84911 0.209284 4.3865
-3.84427 0.20797 4.36548
-3.8435 0.205511 4.33451
-3.83679 0.202943 4.29649
-3.83502 0.200498 4.26651
-3.84218 0.199177 4.24458
-3.84339 0.197779 4.2176
-3.84955 0.196472 4.19667
-3.84668 0.195204 4.17866
-3.84194 0.192697 4.14466
-3.83521 0.190159 4.10864
-3.84633 0.189945 4.09372
-3.84257 0.187469 4.06173
-3.84377 0.18607 4.03475
-3.84398 0.183671 4.00779
-3.83436 0.179924 3.95776
-3.84448 0.179679 3.94084
-3.83972 0.177217 3.90984
-3.84011 0.173447 3.85789
-3.83446 0.170762 3.81188
-3.83862 0.169455 3.79093
-4.03316 1.01993 13.8712
-4.03341 1.0055 13.7074
-4.03266 0.991048 13.5416
-3.99946 0.857994 11.9871
-3.99747 0.84701 11.8532
-3.97993 0.785341 11.1339
-3.98174 0.776758 11.027
-3.97752 0.756277 10.7923
-3.96926 0.71496 10.2987
-3.95651 0.667647 9.73826
-3.95424 0.659225 9.64236
-3.95394 0.651863 9.55045
-3.95263 0.643501 9.45855
-3.95032 0.636152 9.36763
-3.9385 0.622849 9.21272
-3.94011 0.616652 9.13181
-3.93973 0.609438 9.0499
-3.93896 0.59604 8.88807
-3.92665 0.57773 8.66522
-3.93017 0.571711 8.59633
-3.92832 0.55946 8.44447
-3.92526 0.538684 8.18972
-3.92282 0.532587 8.11578
-3.92285 0.521574 7.97993
-3.91371 0.500926 7.73413
-3.91268 0.490031 7.60627
-3.9136 0.481241 7.48539
-3.89731 0.440977 6.99579
-3.90068 0.437254 6.94687
-3.9001 0.43244 6.89193
-3.89753 0.427594 6.83497
-3.89535 0.418994 6.72707
-3.8831 0.41152 6.62807
-3.88644 0.407856 6.58314
-3.8868 0.404146 6.5352
-3.8852 0.399375 6.48325
-3.88359 0.395604 6.43128
-3.88988 0.393046 6.39336
-3.88512 0.390569 6.36136
-3.88054 0.385752 6.30639
-3.87793 0.38198 6.25442
-3.8842 0.378452 6.21851
-3.8796 0.374664 6.16553
-3.88389 0.372105 6.12759
-3.86958 0.363748 6.0366
-3.87584 0.362249 6.00266
-3.87715 0.358643 5.96172
-3.86859 0.353779 5.90372
-3.87484 0.351295 5.8708
-3.87812 0.348749 5.83385
-3.87645 0.345097 5.78989
-3.87464 0.343726 5.76489
-3.87297 0.340073 5.72093
-3.86734 0.336359 5.67293
-3.87359 0.333875 5.64001
-3.86923 0.326613 5.55508
-3.8677 0.322695 5.49311
-3.86997 0.320178 5.45816
-3.87026 0.316601 5.41921
-3.86489 0.310369 5.33625
-3.86262 0.302931 5.23933
-3.86685 0.30049 5.2094
-3.86812 0.297973 5.17444
-3.86443 0.295349 5.13244
-3.86371 0.291816 5.09649
-3.86594 0.290358 5.06552
-3.86312 0.288016 5.04253
-3.8604 0.285466 5.00554
-3.86389 0.280507 4.94063
-3.85982 0.271683 4.81772
-3.85611 0.268118 4.77974
-3.85335 0.256688 4.61586
-3.85149 0.254406 4.59688
-3.84205 0.249304 4.52287
-3.85463 0.244188 4.44703
-3.85001 0.24043 4.39605
-3.84626 0.237939 4.36305
-3.84846 0.226601 4.20521
-3.84406 0.211475 3.99437
-3.84328 0.209045 3.9654
-3.83761 0.196436 3.78952
-4.04266 1.13374 14.0596
-4.04005 1.11703 13.8768
-4.02216 1.10386 13.7309
-4.01656 1.08611 13.546
-4.02361 1.07406 13.4073
-4.01992 1.05751 13.2355
-4.01813 1.04314 13.0756
-4.02022 1.03002 12.9318
-4.00138 1.0038 12.648
-4.00635 0.991893 12.5192
-4.00447 0.978716 12.3724
-4.0045 0.965703 12.2366
-4.00355 0.95366 12.0987
-3.98741 0.918069 11.7221
-3.98736 0.907204 11.5962
-3.98241 0.894144 11.4573
-3.98429 0.883428 11.3415
-3.98419 0.872682 11.2236
-3.98506 0.86298 11.1088
-3.98298 0.852188 10.9879
-3.96578 0.841607 10.8819
-3.96268 0.830858 10.764
-3.97035 0.823547 10.6752
-3.9682 0.812888 10.5633
-3.9525 0.785377 10.2596
-3.94932 0.775776 10.1517
-3.95301 0.767432 10.0608
-3.95373 0.759042 9.96692
-3.95248 0.749561 9.86704
-3.95516 0.742245 9.77815
-3.95584 0.733914 9.68827
-3.93821 0.717223 9.50736
-3.9369 0.708875 9.41646
-3.93461 0.700497 9.32355
-3.93624 0.693269 9.24066
-3.93687 0.686027 9.15676
-3.93748 0.678843 9.07686
-3.92699 0.672844 9.00986
-3.92661 0.66563 8.92796
-3.92722 0.658432 8.84705
-3.92977 0.651368 8.77517
-3.92642 0.644093 8.68924
-3.927 0.636968 8.61334
-3.93247 0.632055 8.55144
-3.9239 0.627205 8.49444
-3.92445 0.620125 8.42154
-3.92401 0.61403 8.34762
-3.92751 0.60807 8.28273
-3.92214 0.600838 8.19978
-3.92167 0.594801 8.12986
-3.92317 0.588811 8.06295
-3.91063 0.582914 8.00293
-3.92098 0.579241 7.95706
-3.91951 0.573204 7.88713
-3.91311 0.56603 7.80817
-3.91557 0.561129 7.74726
-3.90151 0.549283 7.62331
-3.91182 0.546684 7.58242
-3.90539 0.539569 7.50747
-3.91372 0.535924 7.46358
-3.90631 0.529779 7.3866
-3.89832 0.51779 7.2527
-3.89656 0.51433 7.22173
-3.89009 0.508274 7.15076
-3.89192 0.498663 7.0419
-3.9022 0.496122 7.00501
-3.8898 0.488944 6.92602
-3.89295 0.48765 6.90606
-3.89771 0.479174 6.8062
-3.88232 0.471979 6.72618
-3.89257 0.469483 6.69229
-3.88113 0.462394 6.6193
-3.88939 0.459882 6.5844
-3.87774 0.455193 6.53837
-3.88404 0.452605 6.49845
-3.87553 0.446652 6.43447
-3.88182 0.444094 6.39655
-3.87822 0.439307 6.34358
-3.87859 0.434582 6.29465
-3.87302 0.429735 6.23767
-3.87156 0.423683 6.16674
-3.87225 0.416336 6.07584
-3.87357 0.412701 6.0329
-3.866 0.407867 5.97691
-3.87226 0.405353 5.94199
-3.86354 0.401814 5.90597
-3.86485 0.398208 5.86503
-3.87504 0.396831 5.83912
-3.87141 0.393103 5.79014
-3.87667 0.390603 5.75621
-3.8671 0.384768 5.70022
-3.86323 0.37256 5.55135
-3.8754 0.371228 5.52846
-3.8692 0.362655 5.42252
-3.87078 0.356531 5.34662
-3.8681 0.352907 5.30464
-3.86936 0.35039 5.26969
-3.86213 0.341875 5.16774
-3.8634 0.338358 5.1328
-3.86367 0.335826 5.09683
-3.85998 0.332231 5.05685
-3.86322 0.32976 5.02491
-3.86348 0.327257 4.99094
-3.86473 0.324754 4.95699
-3.85991 0.32241 4.93398
-3.86017 0.319892 4.89902
-3.85746 0.317328 4.86103
-3.85419 0.288997 4.50137
-3.83083 0.240907 3.88883
-3.834 0.239569 3.86587
-3.82963 0.233337 3.78291
-4.03188 1.20324 13.8905
-4.02923 1.18562 13.7137
-4.01073 1.14077 13.2522
-4.0109 1.12549 13.0984
-4.01299 1.11136 12.9546
-4.01311 1.09717 12.8068
-4.01418 1.0841 12.6669
-3.99622 1.05709 12.3972
-3.99627 1.04404 12.2593
-3.99824 1.03115 12.1315
-3.99433 1.01703 11.9887
-3.9943 1.00514 11.8608
-3.97413 0.968603 11.4882
-3.97208 0.956737 11.3623
-3.9759 0.946142 11.2545
-3.97284 0.934304 11.1306
-3.97369 0.923647 11.0188
-3.96024 0.903619 10.8149
-3.96416 0.85397 10.2986
-3.94441 0.825561 10.0019
-3.94709 0.817246 9.913
-3.9419 0.806658 9.8061
-3.94847 0.799553 9.73125
-3.93933 0.788859 9.61732
-3.93314 0.765333 9.37959
-3.93637 0.750923 9.21681
-3.93073 0.73327 9.038
-3.92215 0.690604 8.58851
-3.90791 0.644253 8.09302
-3.90473 0.621684 7.85229
-3.90522 0.615737 7.78837
-3.9057 0.609805 7.72546
-3.89091 0.570519 7.30187
-3.88594 0.546564 7.03515
-3.88872 0.537042 6.9323
-3.8832 0.519152 6.73749
-3.88557 0.514428 6.68857
-3.88298 0.509613 6.63362
-3.87842 0.504751 6.57565
-3.87379 0.488084 6.39584
-3.87415 0.483388 6.3489
-3.87252 0.479647 6.29894
-3.8798 0.47612 6.26304
-3.86781 0.464128 6.12911
-3.87012 0.460523 6.08817
-3.87046 0.456857 6.04322
-3.87079 0.453221 6.00027
-3.86204 0.437772 5.83541
-3.86928 0.435319 5.8045
-3.86662 0.431636 5.75853
-3.8699 0.428091 5.7216
-3.8588 0.417336 5.60366
-3.86335 0.411259 5.53078
-3.85871 0.40756 5.48379
-3.86492 0.40515 5.45587
-3.85518 0.40164 5.42184
-3.8624 0.399216 5.39293
-3.85476 0.3945 5.34493
-3.85999 0.39306 5.31499
-3.86027 0.389513 5.27804
-3.85263 0.384797 5.23004
-3.85588 0.382325 5.1981
-3.84909 0.379906 5.17008
-3.85529 0.377511 5.14316
-3.85358 0.373947 5.1052
-3.85285 0.371414 5.06922
-3.865 0.370142 5.05033
-3.85338 0.365378 4.99931
-3.85364 0.362875 4.96534
-3.85774 0.361686 4.95239
-3.85502 0.358136 4.91541
-3.84339 0.353403 4.86639
-3.85157 0.352068 4.84347
-3.84588 0.348457 4.80247
-3.84513 0.345953 4.7685
-3.85528 0.34468 4.74959
-3.84649 0.342259 4.72156
-3.84376 0.338739 4.68658
-3.85093 0.337404 4.66366
-3.84919 0.333899 4.62969
-3.83754 0.330195 4.58265
-3.85164 0.329013 4.56977
-3.83614 0.32304 4.50473
-3.83736 0.320611 4.47578
-3.84057 0.319199 4.44782
-3.84475 0.316847 4.42388
-3.85092 0.315511 4.40094
-3.85015 0.313066 4.37097
-3.83661 0.307154 4.30995
-3.83386 0.304678 4.27796
-3.84001 0.303372 4.25702
-3.83924 0.300927 4.22705
-3.84639 0.299636 4.20712
-3.84363 0.297161 4.17513
-3.84573 0.295985 4.16316
-3.84098 0.293493 4.13016
-3.84139 0.288679 4.07522
-3.83664 0.286187 4.04222
-3.84478 0.284927 4.0243
-3.84289 0.283703 4.0093
-3.83259 0.276334 3.91732
-3.83278 0.273964 3.89235
-4.00002 1.17924 12.8114
-4.00208 1.16417 12.6717
-4.00219 1.15001 12.5259
-3.98718 1.09521 12.0005
-3.98034 1.07994 11.8476
-3.98522 1.06824 11.7328
-3.98517 1.05538 11.607
-3.97277 1.02031 11.2654
-3.96679 1.00631 11.1305
-3.96962 0.994696 11.0217
-3.97144 0.984099 10.9139
-3.96834 0.972336 10.795
-3.95329 0.918615 10.2746
-3.95502 0.909195 10.1787
-3.95477 0.898745 10.0809
-3.94214 0.881057 9.90002
-3.94481 0.871757 9.81216
-3.94551 0.862396 9.72029
-3.94226 0.852914 9.6204
-3.94195 0.843582 9.53052
-3.92744 0.78381 8.93921
-3.92065 0.754484 8.64756
-3.91687 0.739114 8.48773
-3.91286 0.712219 8.22507
-3.91982 0.700359 8.09928
-3.90682 0.674443 7.83553
-3.89991 0.660321 7.69266
-3.91319 0.656769 7.65481
-3.89594 0.646306 7.55682
-3.89813 0.643938 7.53187
-3.89466 0.636899 7.46194
-3.89413 0.630981 7.40001
-3.8926 0.625063 7.33808
-3.89896 0.620357 7.29019
-3.89643 0.614452 7.22925
-3.88997 0.607397 7.1583
-3.88511 0.593159 7.00745
-3.88889 0.583637 6.90461
-3.8883 0.577838 6.85068
-3.88872 0.573024 6.79575
-3.87823 0.553071 6.59693
-3.87818 0.541206 6.47109
-3.87865 0.523336 6.27733
-3.8721 0.517473 6.21936
-3.88824 0.516203 6.2005
-3.8779 0.507908 6.11353
-3.86507 0.492605 5.95864
-3.87134 0.490091 5.92372
-3.86771 0.485364 5.87476
-3.85626 0.441429 5.40726
-3.85655 0.437867 5.36931
-3.84972 0.411615 5.08261
-3.83334 0.345636 4.34236
-3.83257 0.343191 4.31238
-3.99 1.16552 11.8854
-3.99778 1.154 11.7827
-3.99382 1.13997 11.6458
-3.97953 1.11461 11.4201
-3.98532 1.10409 11.3172
-3.97346 1.08687 11.1674
-3.98116 1.07749 11.0746
-3.97221 1.06245 10.9367
-3.9799 1.05311 10.8459
-3.9768 1.04036 10.728
-3.96837 1.03124 10.6531
-3.95943 0.974303 10.1178
-3.95686 0.968472 10.0619
-3.94973 0.955765 9.94697
-3.95926 0.948736 9.87714
-3.95014 0.936013 9.76124
-3.95671 0.927908 9.6864
-3.95541 0.918546 9.59452
-3.93579 0.897839 9.41265
-3.94136 0.890747 9.33879
-3.93806 0.880369 9.24591
-3.94262 0.873292 9.17304
-3.94322 0.865108 9.09315
-3.93098 0.839681 8.8624
-3.92467 0.830315 8.77048
-3.9282 0.823297 8.7016
-3.92287 0.812976 8.6127
-3.92496 0.798861 8.46991
-3.92131 0.793178 8.42396
-3.91299 0.78384 8.33402
-3.92434 0.779168 8.28817
-3.91404 0.769799 8.19622
-3.9131 0.754726 8.05641
-3.90499 0.741989 7.93953
-3.91928 0.739437 7.90167
-3.91485 0.731324 7.82674
-3.9089 0.716263 7.6879
-3.91279 0.704534 7.57109
-3.90316 0.698802 7.52209
-3.90756 0.694021 7.46919
-3.91097 0.688239 7.41629
-3.90353 0.681138 7.34233
-3.90988 0.676462 7.29644
-3.9044 0.669437 7.2275
-3.8987 0.664856 7.18852
-3.89617 0.657937 7.12659
-3.89855 0.653184 7.07567
-3.89502 0.647278 7.01472
-3.90431 0.643708 6.97584
-3.89781 0.636727 6.90989
-3.89427 0.629836 6.84995
-3.88658 0.625224 6.80896
-3.88598 0.620454 6.75702
-3.88835 0.61573 6.7081
-3.89267 0.611097 6.66519
-3.88712 0.60522 6.60623
-3.8875 0.60048 6.5563
-3.89478 0.596938 6.5194
-3.87559 0.585356 6.41341
-3.87496 0.580615 6.36347
-3.87433 0.575904 6.31553
-3.87962 0.572346 6.27762
-3.88491 0.568787 6.2397
-3.87835 0.561924 6.18175
-3.87194 0.554765 6.10379
-3.86635 0.548962 6.04983
-3.86964 0.545387 6.0109
-3.87689 0.541904 5.978
-3.86832 0.536069 5.92202
-3.8726 0.532525 5.8851
-3.86781 0.530107 5.85709
-3.86221 0.524319 5.80413
-3.86548 0.520803 5.7692
-3.86381 0.517151 5.72524
-3.86116 0.512468 5.67928
-3.86245 0.508907 5.64134
-3.85698 0.500867 5.57141
-3.85728 0.49729 5.53246
-3.85757 0.493728 5.49451
-3.85687 0.490135 5.45455
-3.85617 0.486543 5.41459
-3.85745 0.482996 5.37765
-3.85645 0.470042 5.24581
-3.85305 0.461885 5.1679
-3.8485 0.455994 5.10794
-3.84705 0.448913 5.03503
-3.84748 0.43213 4.84725
-3.84376 0.42758 4.81029
-3.84401 0.425092 4.77732
-3.84228 0.421558 4.74135
-3.84352 0.4191 4.7104
-3.84166 0.416832 4.69241
-3.84582 0.403571 4.53962
-3.83549 0.394246 4.45067
-3.83594 0.389374 4.39174
-3.84012 0.387021 4.3678
-3.84651 0.383256 4.3159
-3.84387 0.378559 4.26894
-3.83835 0.372623 4.20598
-3.83414 0.36308 4.10207
-3.8286 0.357174 4.04111
-3.8288 0.354774 4.01414
-3.82733 0.348752 3.94521
-3.84081 0.343814 3.88138
-3.83327 0.337921 3.8214
-3.82453 0.334397 3.78638
-3.96736 1.148 11.0414
-3.97211 1.13654 10.9426
-3.97099 1.12382 10.8268
-3.97278 1.11129 10.723
-3.95377 1.0515 10.1986
-3.96137 1.04334 10.1198
-3.96113 1.03186 10.0199
-3.94678 1.02158 9.93398
-3.94847 1.01125 9.84413
-3.94622 1.00077 9.74426
-3.94496 0.98933 9.6474
-3.94956 0.981165 9.56855
-3.95024 0.970848 9.47969
-3.95187 0.961606 9.39583
-3.93551 0.951366 9.31285
-3.93222 0.940973 9.21896
-3.93383 0.93179 9.1391
-3.93838 0.924713 9.06623
-3.93605 0.91441 8.97835
-3.93666 0.905226 8.89848
-3.9402 0.898178 8.8276
-3.92181 0.887966 8.7466
-3.92339 0.879843 8.67072
-3.92297 0.871718 8.59483
-3.92353 0.863623 8.52094
-3.91917 0.853362 8.43605
-3.93055 0.848645 8.3872
-3.92322 0.839323 8.29827
-3.91561 0.832563 8.24731
-3.91419 0.824437 8.17141
-3.91567 0.817491 8.10751
-3.91423 0.809395 8.03361
-3.91867 0.803555 7.97672
-3.91425 0.794412 7.89981
-3.90957 0.789787 7.85784
-3.90417 0.780615 7.77893
-3.9076 0.774774 7.72203
