4.71936 0.559507 5.71042
4.71764 0.562056 5.7474
4.71234 0.570421 5.83933
4.70861 0.573956 5.87531
4.70589 0.577506 5.91228
4.70923 0.58117 5.95721
4.70248 0.583648 5.98922
4.6979 0.58948 6.04518
4.70126 0.593174 6.09211
4.70158 0.597795 6.13404
4.69819 0.604996 6.21497
4.69364 0.610872 6.27393
4.68691 0.626364 6.44177
4.68078 0.649009 6.68752
4.67039 0.656215 6.7685
4.67601 0.664425 6.85035
4.6707 0.672775 6.94128
4.66237 0.681084 7.02923
4.64001 0.740142 7.63961
4.63136 0.770736 7.94926
4.62116 0.781312 8.0552
4.61169 0.814247 8.38783
4.61322 0.821282 8.45772
4.60235 0.836495 8.6066
4.59132 0.86235 8.86633
4.93802 0.236555 -0.285278
4.92625 0.235023 -0.254162
4.93438 0.236254 -0.238239
4.91949 0.235487 -0.223114
4.92755 0.236599 -0.21519
4.92367 0.235839 -0.199147
4.92878 0.237057 -0.184202
4.92402 0.23652 -0.153154
4.91619 0.236866 -0.130097
4.92131 0.237099 -0.114136
4.91842 0.237324 -0.0991158
4.92254 0.237558 -0.0831482
4.92078 0.238018 -0.0521374
4.91395 0.238363 -0.0290879
4.91418 0.238822 0.00190784
4.9113 0.239047 0.0169283
4.91253 0.239505 0.0479165
4.91164 0.239727 0.062922
4.9137 0.239844 0.0709059
4.90805 0.24053 0.116945
4.90929 0.242003 0.148918
4.9074 0.242226 0.163931
4.90758 0.242566 0.186928
4.9097 0.242802 0.20291
4.90681 0.243026 0.217931
4.91623 0.245848 0.273826
4.90234 0.244066 0.287959
4.90658 0.245537 0.31991
4.90469 0.24576 0.334923
4.90082 0.246 0.35095
4.89987 0.246104 0.357957
4.90411 0.247575 0.389908
4.90022 0.2478 0.404936
4.89746 0.248261 0.435954
4.89858 0.248497 0.451944
4.89976 0.249851 0.475919
4.9 0.250325 0.507914
4.89811 0.250549 0.522927
4.90123 0.251783 0.538888
4.89635 0.252009 0.553923
4.89453 0.252365 0.577935
4.89365 0.252603 0.59394
4.90078 0.253849 0.61087
4.893 0.254299 0.640926
4.89406 0.254417 0.648918
4.89819 0.255666 0.665871
4.8933 0.255891 0.680906
4.89643 0.256141 0.697881
4.88754 0.256355 0.711947
4.89079 0.257841 0.744905
4.89285 0.257958 0.752889
4.88996 0.258182 0.767909
4.89009 0.259434 0.784892
4.89622 0.260681 0.80183
4.89333 0.260905 0.816851
4.89346 0.261157 0.833848
4.89358 0.262393 0.849831
4.88662 0.261487 0.855898
4.88875 0.262737 0.872866
4.88887 0.262974 0.888863
4.88111 0.263439 0.919919
4.88724 0.264701 0.937857
4.88136 0.264927 0.9529
4.89043 0.266069 0.962816
4.89055 0.267305 0.978799
4.88267 0.266533 0.993872
4.8789 0.267995 1.02488
4.87803 0.268247 1.04189
4.87608 0.268352 1.0489
4.88322 0.269629 1.06783
4.87934 0.269853 1.08286
4.87847 0.271106 1.09985
4.87859 0.271343 1.11585
4.87972 0.272593 1.13282
4.8749 0.272952 1.15686
4.87201 0.273176 1.17188
4.87227 0.27468 1.20586
4.87653 0.277195 1.24079
4.86964 0.276407 1.25486
4.86695 0.278031 1.29686
4.86533 0.280772 1.34684
4.86452 0.282143 1.37183
4.86666 0.282408 1.38981
4.86048 0.29498 1.63071
4.85258 0.294193 1.64478
4.85786 0.296737 1.68171
4.85292 0.296844 1.68874
4.85319 0.298377 1.72472
4.84432 0.306604 1.87469
4.8428 0.309538 1.93767
4.84135 0.31362 2.01063
4.83432 0.32152 2.13858
4.83547 0.322815 2.15856
4.83605 0.326954 2.2355
4.82463 0.340056 2.44442
4.82115 0.34408 2.5134
4.82146 0.346672 2.55336
4.82362 0.348996 2.57531
4.81791 0.350563 2.61334
4.81529 0.354305 2.66331
4.8228 0.359291 2.73019
4.81701 0.36071 2.75822
4.80877 0.367211 2.8592
4.80902 0.369699 2.89216
4.80717 0.370997 2.91216
4.80851 0.374662 2.9571
4.80391 0.377435 3.0091
4.80207 0.378747 3.0301
4.79688 0.386349 3.13804
4.75524 0.473705 4.24021
4.75971 0.478619 4.30212
4.7531 0.483394 4.3541
4.7504 0.485988 4.39409
4.75691 0.49296 4.45995
4.74705 0.493248 4.47902
4.74751 0.499151 4.53994
4.74472 0.501567 4.56793
4.74829 0.520613 4.77364
4.74841 0.52185 4.78963
4.74764 0.524309 4.8206
4.75091 0.527825 4.85553
4.74712 0.530242 4.88353
4.74636 0.532716 4.9155
4.74258 0.535148 4.9445
4.73869 0.548312 5.09035
4.73189 0.550702 5.11637
4.7382 0.555304 5.15726
4.7343 0.555514 5.17129
4.72777 0.561421 5.23226
4.72528 0.56743 5.3002
4.72078 0.57341 5.36615
4.72725 0.579322 5.42802
4.71526 0.5913 5.56096
4.71872 0.5982 5.62184
4.71728 0.605296 5.69575
4.71283 0.611365 5.76771
4.70379 0.623251 5.89462
4.69937 0.630379 5.97055
4.69798 0.638564 6.05045
4.69471 0.660955 6.27918
4.69218 0.66686 6.34012
4.68679 0.674062 6.42106
4.67808 0.691584 6.59089
4.66693 0.715203 6.83466
4.64577 0.77966 7.47195
4.62025 0.855363 8.19313
4.61185 0.876477 8.40291
4.60373 0.889214 8.51979
4.92914 0.272689 -0.00670736
4.75124 0.55252 4.63213
4.60184 0.955342 8.52783
4.58638 0.962404 8.59885
4.8048 0.472037 3.25173
4.80599 0.474406 3.27669
4.80617 0.476747 3.29965
4.80433 0.478074 3.32165
4.7971 0.486589 3.42359
4.77287 0.528962 3.92022
4.61989 0.9406 7.87082
4.62317 0.945145 7.90774
4.61147 0.948731 7.94678
4.63392 0.947739 7.47556
4.63819 0.952254 7.51046
4.63153 0.956925 7.55545
4.61822 0.967281 7.64641
4.91078 0.360803 0.202156
4.90384 0.359927 0.210222
4.90896 0.36116 0.226167
4.90507 0.360385 0.24121
4.90331 0.361845 0.272206
4.90943 0.363077 0.288144
4.89848 0.361189 0.295255
4.90271 0.362645 0.326206
4.89883 0.362885 0.342234
4.89495 0.36311 0.357262
4.89707 0.363345 0.373245
4.89536 0.364924 0.41224
4.89159 0.365371 0.442266
4.89271 0.365607 0.458256
4.88936 0.368883 0.544244
4.88872 0.370594 0.592231
4.88778 0.370713 0.600237
4.89302 0.372183 0.63218
4.88638 0.372884 0.679226
4.89393 0.376959 0.752119
4.88459 0.380254 0.839153
4.87581 0.379704 0.869231
4.87794 0.380954 0.886199
4.8704 0.388832 1.08017
4.88462 0.392251 1.10901
4.88487 0.393739 1.14199
4.87442 0.396813 1.21404
4.87367 0.398317 1.24802
4.87793 0.400817 1.28196
4.86335 0.401642 1.33706
4.86888 0.406674 1.40696
4.87107 0.408057 1.43292
4.86733 0.409563 1.46694
4.85656 0.410016 1.49701
4.86478 0.412439 1.52592
4.86404 0.414957 1.56089
4.85628 0.415437 1.59295
4.85849 0.417835 1.6199
4.86076 0.420366 1.65585
4.85 0.420848 1.68793
4.84926 0.423366 1.7229
4.85448 0.425792 1.75183
4.85288 0.428578 1.80481
4.84011 0.429031 1.8349
4.84922 0.431232 1.8488
4.83946 0.432712 1.88086
4.84461 0.434005 1.9008
4.84403 0.437819 1.95576
4.84638 0.441513 2.00269
4.83678 0.44429 2.05473
4.84014 0.447998 2.10266
4.8334 0.449521 2.13769
4.82953 0.450775 2.15471
4.8299 0.453486 2.20267
4.82502 0.454741 2.21969
4.82546 0.458599 2.27764
4.82963 0.460922 2.29957
4.81036 0.487264 2.65938
4.81245 0.48844 2.67135
4.80858 0.48971 2.68936
4.81779 0.493102 2.71624
4.80689 0.492318 2.73034
4.80091 0.503305 2.86424
4.75492 0.622889 4.184
4.7632 0.627416 4.21988
4.75636 0.628732 4.24091
4.75658 0.632161 4.26986
4.76071 0.634424 4.2878
4.75456 0.645071 4.3987
4.75277 0.648487 4.42667
4.6502 0.934413 6.98156
4.64634 0.935697 7.00058
4.63763 0.940266 7.03858
4.66361 0.968245 6.76793
4.65386 0.971741 6.80096
4.64818 0.976351 6.84194
4.65849 0.981951 6.88278
4.68051 0.955178 6.22392
4.67782 0.960772 6.26387
4.66703 0.963194 6.29192
4.66535 0.968817 6.33385
4.66063 0.972368 6.37084
4.66484 0.976779 6.39875
4.68199 0.965169 6.02074
4.6823 0.969776 6.06167
4.67354 0.973241 6.09269
4.66864 0.975452 6.1067
4.671 0.981145 6.1536
4.66526 0.985653 6.18758
4.75346 0.780762 4.10666
4.75256 0.781955 4.11965
4.75579 0.786412 4.15057
4.68996 0.967195 5.61759
4.69024 0.971742 5.65453
4.68852 0.977291 5.69146
4.68665 0.978544 5.70846
4.67917 0.987555 5.77639
4.74401 0.928596 4.43159
4.73718 0.930941 4.45461
4.74133 0.934219 4.47353
4.73551 0.936579 4.49755
4.7307 0.938952 4.52255
4.71094 0.975316 4.8162
4.7582 0.931092 3.92538
4.7574 0.934477 3.95134
4.74653 0.934736 3.96842
4.74402 0.9427 4.03333
4.77537 0.940495 3.54806
4.76971 0.945165 3.59304
4.76186 0.946452 3.61208
4.76306 0.950835 3.63801
4.76617 0.953055 3.65295
4.76838 0.956468 3.68089
4.76656 0.959824 3.70486
4.76273 0.962153 3.72686
4.75789 0.964467 3.74786
4.75709 0.966852 3.77384
4.75024 0.969153 3.79386
4.75839 0.972443 3.81375
4.7596 0.975842 3.84069
4.75175 0.978143 3.86072
4.75196 0.981543 3.88767
4.7582 0.986012 3.91956
4.74632 0.987257 3.93564
4.74048 0.989572 3.95665
4.75368 0.993947 3.98249
4.74079 0.994178 3.99758
4.74503 0.999634 4.02848
4.74524 1.00305 4.05643
4.73559 1.00774 4.10244
4.7338 1.01114 4.1294
4.73231 1.02014 4.19729
4.72772 1.02693 4.25023
4.72906 1.0336 4.29513
4.73455 1.04354 4.35895
4.72817 1.05376 4.44086
4.72247 1.05834 4.47984
4.72371 1.06381 4.51175
4.71089 1.08411 4.66657
4.69988 1.121 4.92814
4.68766 1.17341 5.29251
4.68318 1.18341 5.3604
4.6515 1.3087 6.1879
4.80022 0.90538 2.8663
4.79409 0.918087 2.98117
4.79024 0.919385 3.00118
4.79334 0.921575 3.01413
4.78044 0.921777 3.02722
4.77558 0.923062 3.04624
4.78078 0.927443 3.07214
4.77492 0.928714 3.09017
4.77325 0.933366 3.13412
4.61671 1.47776 6.86476
4.61508 1.48547 6.91266
4.61242 1.49314 6.95757
4.6057 1.52162 7.12423
4.80097 0.936888 2.6978
4.79109 0.937118 2.71287
4.8023 0.941524 2.74073
4.7904 0.94174 2.75482
4.78546 0.941862 2.76285
4.78763 0.944186 2.7848
4.78579 0.946498 2.80579
4.78294 0.948781 2.82478
4.78612 0.952134 2.84871
4.78628 0.954444 2.86967
4.78737 0.956621 2.88164
4.78754 0.958947 2.9036
4.77866 0.95919 2.91967
4.7758 0.961473 2.93866
4.77698 0.963813 2.96162
4.77639 0.971627 3.01651
4.77455 0.972939 3.03751
4.77473 0.976279 3.06046
4.76947 0.987733 3.15835
4.77485 0.995469 3.2082
4.77119 1.00012 3.25216
4.76652 1.00576 3.29512
4.76661 1.00695 3.30811
4.76075 1.00823 3.32613
4.76295 1.01261 3.35206
4.76715 1.016 3.37898
4.7646 1.02386 3.43689
4.75673 1.02514 3.45493
4.75245 1.03755 3.54979
4.75969 1.043 3.58066
4.75393 1.04648 3.61266
4.75212 1.04883 3.63664
4.75131 1.0522 3.6616
4.74767 1.05892 3.70953
4.75017 1.06789 3.77539
4.74071 1.07695 3.84634
4.74323 1.08695 3.91418
4.73559 1.09265 3.96116
4.74083 1.09812 3.99305
4.72891 1.11722 4.13387
4.71802 1.15732 4.4104
4.7253 1.16387 4.44725
4.70868 1.18856 4.62804
4.69942 1.22395 4.85661
4.69628 1.24162 4.96939
4.68891 1.27478 5.18199
4.67859 1.30906 5.40259
4.67412 1.34203 5.60316
4.66865 1.35306 5.67205
4.66289 1.35753 5.70403
4.66047 1.36966 5.77988
4.66396 1.3816 5.84368
4.66529 1.38824 5.88658
4.65953 1.39372 5.91855
4.66018 1.40797 6.00334
4.65443 1.41247 6.03632
4.65678 1.42113 6.08118
4.65694 1.42446 6.10314
4.65626 1.43206 6.14404
4.64749 1.43553 6.17505
4.64681 1.44315 6.21695
4.64412 1.44974 6.25688
4.64599 1.46943 6.37059
4.63419 1.47284 6.39763
4.61983 1.5549 6.87359
4.6261 1.56241 6.90844
4.62245 1.57008 6.95336
4.62182 1.57881 7.00224
4.61513 1.58542 7.0432
4.83047 0.926057 1.96764
4.82695 0.930992 2.0306
4.81921 0.933501 2.06463
4.82437 0.936808 2.08554
4.82443 0.937941 2.09452
4.81655 0.938169 2.10958
4.81569 0.939451 2.12857
4.81483 0.941718 2.14655
4.80393 0.940933 2.16064
4.80307 0.9432 2.17862
4.81325 0.947547 2.20248
4.80731 0.946656 2.20954
4.80444 0.948924 2.22753
4.80659 0.951218 2.24748
4.79986 0.953741 2.2825
4.80202 0.956051 2.30345
4.80038 0.961762 2.35139
4.79566 0.965298 2.38738
4.77633 1.02046 2.86977
4.64696 1.49143 5.9652
4.73076 1.29263 4.36329
4.6958 1.42337 5.15373
4.69419 1.43213 5.20462
4.6852 1.45509 5.33637
4.68274 1.46714 5.40722
4.67625 1.50207 5.60477
4.85105 0.97836 0.975571
4.84917 0.979598 0.991569
4.8503 0.980849 1.00854
4.85343 0.983098 1.02549
4.84252 0.981299 1.0386
4.84766 0.984561 1.05652
4.84478 0.9848 1.07254
4.84785 0.985931 1.0815
4.84196 0.986158 1.09654
4.85411 0.990445 1.11639
4.83832 0.988871 1.14453
4.84146 0.991135 1.16248
4.83857 0.991359 1.1775
4.84165 0.993505 1.18745
4.84579 0.995768 1.20538
4.83589 0.994968 1.21847
4.83802 0.996233 1.23644
4.83714 0.99747 1.25243
4.83226 0.997696 1.26747
4.84348 1.00312 1.29631
4.83571 1.00358 1.32736
4.84286 1.00687 1.34726
4.82895 1.00506 1.3594
4.82921 1.00856 1.39335
4.82854 1.0122 1.4363
4.82879 1.0157 1.47025
4.83194 1.01798 1.4892
4.83501 1.01911 1.49816
4.82511 1.01833 1.51225
4.83026 1.02162 1.53216
4.82337 1.02183 1.54621
4.82851 1.02411 1.56514
4.82364 1.02535 1.58117
4.82384 1.02775 1.60813
4.82397 1.03 1.6251
4.8231 1.03125 1.64209
4.81721 1.03148 1.65713
4.82538 1.0348 1.67903
4.83274 1.04149 1.72588
4.82284 1.0407 1.73997
4.82212 1.04524 1.77591
4.81436 1.04672 1.80795
4.81851 1.05001 1.82787
4.82287 1.05572 1.87576
4.81096 1.0549 1.88787
4.82329 1.06153 1.93068
4.80731 1.05857 1.93285
4.80945 1.06185 1.95178
4.81662 1.06517 1.97368
4.80371 1.06436 1.98579
4.805 1.06892 2.02372
4.80514 1.0712 2.04269
4.80521 1.07233 2.05167
4.80048 1.07487 2.08768
4.80579 1.08146 2.12754
4.80214 1.08614 2.17351
4.80659 1.09403 2.23337
4.79298 1.09779 2.28442
4.79436 1.10453 2.33432
4.79179 1.11037 2.39126
4.78962 1.12499 2.50007
4.79102 1.13176 2.55197
4.77882 1.14333 2.65791
4.77115 1.16693 2.83264
4.77307 1.18372 2.95339
4.7642 1.18496 2.96944
4.76336 1.18827 2.9904
4.76755 1.19264 3.01531
4.76471 1.19495 3.0363
4.76177 1.19509 3.04532
4.76496 1.19945 3.07024
4.76146 1.20942 3.13512
4.75879 1.21507 3.17907
4.76894 1.21934 3.19793
4.75605 1.21956 3.21202
4.75924 1.22393 3.23694
4.76344 1.22933 3.26383
4.75456 1.22957 3.2799
4.75374 1.23291 3.30286
4.76398 1.24038 3.33467
4.75502 1.23946 3.33976
4.76023 1.24487 3.36764
4.75941 1.24821 3.3906
4.75859 1.25156 3.41456
4.75475 1.25388 3.43556
4.75694 1.25824 3.46048
4.75905 1.26045 3.47443
4.75421 1.26376 3.49542
4.75942 1.26917 3.52331
4.75459 1.2715 3.54531
4.74874 1.27379 3.56433
4.75396 1.27923 3.59421
4.74611 1.28152 3.61324
4.74519 1.28268 3.62423
4.74136 1.28601 3.64621
4.73653 1.28834 3.66822
4.73773 1.29272 3.69415
4.74396 1.29917 3.72501
4.73227 1.30379 3.76603
4.74647 1.31016 3.79184
4.7366 1.31142 3.80889
4.73178 1.31477 3.83188
4.73398 1.31916 3.85881
4.73058 1.33232 3.93665
4.73672 1.3366 3.95554
4.7311 1.34332 4.00449
4.7293 1.34771 4.03044
4.72043 1.34898 4.04849
4.7277 1.3565 4.08333
4.72378 1.35765 4.09335
4.72298 1.36205 4.12029
4.72522 1.3685 4.15118
4.72039 1.37085 4.17419
4.71457 1.37419 4.19718
4.72587 1.38276 4.23598
4.71814 1.3883 4.27196
4.72542 1.39584 4.3088
4.71556 1.39711 4.32686
4.71075 1.40049 4.35185
4.72207 1.41009 4.39262
4.70919 1.41033 4.40872
4.71042 1.41679 4.43962
4.70674 1.42341 4.48155
4.67803 1.52273 5.04138
4.67681 1.54124 5.14313
4.8227 1.12234 1.57974
4.75957 1.29856 3.0088
4.75866 1.29972 3.01979
4.75245 1.3362 3.25433
4.74687 1.34502 3.30925
4.74339 1.35503 3.37714
4.73992 1.36707 3.447
4.74303 1.36929 3.46194
4.75429 1.37777 3.49474
4.74139 1.37698 3.50885
4.74125 1.39664 3.62057
4.73339 1.39893 3.6396
4.73498 1.41206 3.7164
4.72622 1.41653 3.74741
4.73648 1.42404 3.78222
4.724 1.43405 3.85018
4.71909 1.45917 3.99286
4.71724 1.48639 4.1425
4.70435 1.51155 4.28724
4.83817 1.12143 0.97855
4.83929 1.12366 0.994511
4.83673 1.12751 1.05148
4.84298 1.13201 1.08537
4.83528 1.13359 1.12441
4.83265 1.13732 1.17338
4.82996 1.13993 1.21437
4.76845 1.31434 2.72446
4.76079 1.34095 2.90015
4.75769 1.35972 3.01891
4.75059 1.37745 3.13572
4.74819 1.39062 3.21455
4.74754 1.3983 3.26045
4.74652 1.4202 3.38815
4.74003 1.43021 3.45606
4.73345 1.43903 3.51099
4.732 1.45109 3.58283
4.72502 1.47406 3.71556
4.71716 1.52523 3.9959
4.84609 1.18915 1.0945
4.84028 1.20246 1.25037
4.8374 1.2037 1.26638
4.83759 1.20607 1.29135
4.83584 1.20857 1.32533
4.83497 1.20981 1.34132
4.83009 1.21005 1.35735
4.83442 1.2167 1.40123
4.83468 1.2202 1.43518
4.8308 1.22044 1.45121
4.83294 1.22271 1.46916
4.83107 1.22496 1.48614
4.83213 1.22608 1.49412
4.8215 1.22881 1.54316
4.82076 1.23231 1.57712
4.82591 1.23561 1.59704
4.81808 1.23595 1.6201
4.81922 1.23922 1.63804
4.82236 1.2415 1.65699
4.8235 1.24376 1.67495
4.81661 1.24399 1.69
4.8128 1.24636 1.71499
4.81696 1.24966 1.73492
4.81522 1.25317 1.76988
4.80768 1.25907 1.82986
4.80982 1.26235 1.8488
4.81397 1.26564 1.86872
4.81245 1.27257 1.93164
4.8136 1.27585 1.95058
4.808 1.28164 2.00355
4.80915 1.28394 2.02351
4.80527 1.28518 2.03952
4.8009 1.29541 2.12241
4.80205 1.29869 2.14136
4.7697 1.42564 3.01384
4.76887 1.42895 3.0348
4.75676 1.44669 3.15165
4.75995 1.45206 3.17655
4.75921 1.45756 3.21048
4.74969 1.4665 3.27343
4.75289 1.47188 3.29933
4.74401 1.47314 3.31638
4.74913 1.47736 3.33128
4.74346 1.484 3.37423
4.74566 1.48838 3.40015
4.74584 1.49374 3.42407
4.73898 1.49502 3.44311
4.74511 1.49927 3.46
4.74631 1.50465 3.48592
4.73945 1.50693 3.50394
4.73864 1.5113 3.52888
4.74286 1.51771 3.55676
4.74204 1.52106 3.58072
4.7372 1.52438 3.60171
4.74152 1.53299 3.64355
4.73064 1.53424 3.65962
4.73788 1.54169 3.69046
4.73204 1.54401 3.71147
4.73123 1.54838 3.73642
4.73243 1.55376 3.76233
4.78508 1.43452 2.39851
4.7721 1.43158 2.40165
4.78806 1.4136 1.99874
4.79135 1.42016 2.03663
4.7925 1.42345 2.05657
4.78862 1.42469 2.07259
4.78583 1.42809 2.09956
4.78325 1.43591 2.15447
4.77938 1.43716 2.17148
4.77602 1.44942 2.25634
4.77345 1.45725 2.31225
4.76964 1.48156 2.46794
-4.43377 -0.585156 14.4775
-4.42348 -0.578495 14.1173
-4.3699 -0.563198 13.2616
-4.369 -0.560362 13.1155
-4.36025 -0.557827 12.9494
-4.35931 -0.554916 12.8083
-4.35443 -0.552141 12.6582
-4.33731 -0.550871 12.542
-4.3304 -0.546009 12.2629
-4.32546 -0.543101 12.1218
-4.3244 -0.540953 11.9967
-4.31844 -0.538002 11.8586
-4.31932 -0.536734 11.7416
-4.29624 -0.534572 11.6183
-4.29219 -0.532442 11.4923
-4.29791 -0.530859 11.3963
-4.28992 -0.52785 11.2622
-4.29074 -0.526464 11.1531
-4.28073 -0.523426 11.021
-4.28346 -0.521876 10.923
-4.26128 -0.520506 10.8138
-4.25911 -0.518137 10.7037
-4.25692 -0.516724 10.5966
-4.25568 -0.515235 10.4946
-4.24952 -0.512899 10.3825
-4.25219 -0.511215 10.2935
-4.24505 -0.509909 10.1794
-4.23458 -0.507968 10.1083
-4.21169 -0.501117 9.69395
-4.22315 -0.499997 9.63401
-4.20246 -0.497604 9.4588
-4.19618 -0.49503 9.3627
-4.15124 -0.477941 8.28996
-4.16061 -0.47766 8.24102
-4.14161 -0.472628 7.97376
-4.13322 -0.471834 7.89268
-4.13764 -0.470646 7.83769
-4.13711 -0.469579 7.77466
-4.09069 -0.453543 6.76593
-4.08513 -0.453421 6.70688
-4.08649 -0.452131 6.65886
-4.08981 -0.451765 6.61588
-4.08227 -0.450674 6.5548
-4.07258 -0.450288 6.51371
-4.06602 -0.449167 6.45464
-4.07131 -0.448726 6.41666
-4.06772 -0.447528 6.36261
-4.07496 -0.447012 6.32966
-4.06839 -0.446861 6.2726
-4.07268 -0.446421 6.23462
-4.05704 -0.445143 6.18647
-4.06132 -0.444703 6.14849
-4.06066 -0.44437 6.10348
-4.06493 -0.4439 6.0675
-4.05241 -0.442842 6.00438
-4.05767 -0.442356 5.96941
-4.057 -0.442009 5.92539
-4.05024 -0.441487 5.89333
-4.04362 -0.440248 5.84225
-4.0459 -0.439794 5.80526
-4.04226 -0.439508 5.75722
-4.0475 -0.438978 5.72525
-4.0344 -0.43675 5.6061
-4.03963 -0.436205 5.57512
-4.03795 -0.435828 5.5331
-4.03428 -0.435483 5.48906
-4.02763 -0.435184 5.442
-4.03018 -0.434263 5.369
-4.02564 -0.43317 5.30794
-4.02096 -0.43181 5.26488
-4.02024 -0.431359 5.22786
-4.01754 -0.430953 5.18783
-4.02275 -0.431364 5.15987
-4.01595 -0.430769 5.1328
-4.01622 -0.430287 5.0978
-4.01846 -0.429759 5.0658
-4.00734 -0.4285 4.94868
-4.00462 -0.428065 4.91065
-3.99979 -0.427395 4.8886
-3.99905 -0.426913 4.85358
-4.00127 -0.426341 4.82459
-3.99756 -0.425907 4.78655
-3.99978 -0.42535 4.75655
-3.99903 -0.424839 4.72353
-3.99729 -0.425344 4.68952
-3.9865 -0.424781 4.66043
-3.98277 -0.424317 4.62439
-3.98301 -0.423776 4.59338
-3.98026 -0.423282 4.55935
-3.98841 -0.422572 4.53939
-3.98865 -0.423031 4.5084
-3.99185 -0.422428 4.48141
-3.9761 -0.421929 4.44828
-3.97831 -0.421342 4.42028
-3.98348 -0.421679 4.39732
-3.97974 -0.421185 4.36328
-3.97995 -0.420614 4.33427
-3.9676 -0.418897 4.24814
-3.97773 -0.419141 4.23122
-3.97695 -0.419571 4.20222
-3.97121 -0.418094 4.16715
-3.96697 -0.417593 4.06609
-3.97114 -0.416931 4.04311
-3.96936 -0.417361 4.0141
-3.96757 -0.416777 3.98607
-3.96579 -0.416208 3.95705
-3.96797 -0.416562 3.93307
-3.96618 -0.415978 3.90504
-3.96032 -0.415264 3.88598
-3.9488 -0.41422 3.82187
-3.95296 -0.414528 3.80091
-3.95514 -0.413882 3.77691
-3.95433 -0.414253 3.75191
-3.94667 -0.413925 3.70684
-3.93793 -0.413435 3.67276
-3.94604 -0.412666 3.65681
-3.94028 -0.412129 3.62575
-3.94163 -0.411824 3.57875
-3.93576 -0.41208 3.56171
-3.93116 -0.411869 3.50866
-3.93034 -0.411225 3.48464
-3.92853 -0.410596 3.45962
-3.92385 -0.409206 3.28354
-3.92005 -0.408594 3.2575
-3.93155 -0.408578 3.19057
-3.91979 -0.408061 3.15847
-4.01085 -0.388645 5.27616
-4.00035 -0.385584 4.94299
-4.00358 -0.386026 4.91302
-4.00184 -0.385546 4.87799
-3.99912 -0.385111 4.83996
-4.00036 -0.384584 4.80796
-3.98761 -0.384082 4.77485
-3.99479 -0.384417 4.75191
-3.98908 -0.383999 4.71285
-3.99328 -0.384396 4.68589
-3.99649 -0.383808 4.6579
-3.99673 -0.383267 4.62689
-3.98804 -0.382895 4.58481
-3.98816 -0.383132 4.56881
-3.98246 -0.382714 4.52976
-3.98565 -0.383097 4.50378
-3.98786 -0.38251 4.47579
-3.98214 -0.382062 4.43873
-3.98435 -0.382475 4.41075
-3.98755 -0.381858 4.38476
-3.96727 -0.381294 4.28859
-3.97565 -0.381029 4.23864
-3.97089 -0.380521 4.20559
-3.96913 -0.379981 4.17457
-3.96526 -0.380251 4.15654
-3.96668 -0.380064 4.10154
-3.96986 -0.379417 4.07755
-3.97006 -0.379817 4.05056
-3.9654 -0.379487 4.00551
-3.95767 -0.379026 3.96944
-3.9668 -0.379271 3.95251
-3.96342 -0.378503 3.86946
-3.96163 -0.378918 3.84145
-3.95299 -0.377636 3.79336
-3.96013 -0.377897 3.77541
-3.95771 -0.378054 3.69739
-3.95403 -0.377679 3.65535
-3.94826 -0.377142 3.62429
-3.94762 -0.376853 3.57628
-3.94844 -0.376452 3.46826
-3.94482 -0.37621 3.41722
-3.94318 -0.375922 3.3692
-4.4214 -0.413635 14.3769
-4.41674 -0.412274 14.1988
-4.40817 -0.411095 14.0087
-4.39662 -0.408962 13.8155
-4.38895 -0.408574 13.6395
-4.38517 -0.406976 13.4774
-4.37941 -0.405439 13.3113
-4.3449 -0.40026 12.5819
-4.33803 -0.399487 12.4318
-4.31092 -0.396178 11.9135
-4.30984 -0.394986 11.7914
-4.30483 -0.393945 11.6593
-4.29882 -0.392904 11.5273
-4.27639 -0.390971 11.186
-4.27228 -0.389721 11.0679
-4.26718 -0.389502 10.9479
-4.26894 -0.388997 10.8469
-4.2648 -0.387688 10.7328
-4.23469 -0.384367 10.2155
-4.24224 -0.383458 10.1415
-4.23214 -0.383227 10.0224
-4.2089 -0.38068 9.65514
-4.20461 -0.380075 9.56109
-4.20228 -0.37941 9.47105
-4.20094 -0.378699 9.38401
-4.18906 -0.377914 9.23489
-4.15232 -0.372248 8.2684
-4.1489 -0.371376 8.19235
-4.15037 -0.371308 8.12935
-4.15086 -0.37027 8.06433
-4.14542 -0.370385 7.98928
-4.13087 -0.369284 7.92915
-4.13036 -0.369247 7.86413
-4.13279 -0.36909 7.80714
-4.13228 -0.369053 7.74213
-4.13568 -0.368835 7.68914
-4.08921 -0.363724 6.8206
-4.09353 -0.363343 6.77862
-4.08384 -0.362972 6.73653
-4.08717 -0.362621 6.69255
-4.08359 -0.362453 6.63651
-4.08396 -0.362179 6.5875
-4.08135 -0.361951 6.53547
-4.08369 -0.361616 6.49048
-4.07434 -0.360896 6.40439
-4.07171 -0.360639 6.35436
-4.07305 -0.361304 6.30937
-4.07339 -0.36097 6.26436
-4.07011 -0.36038 6.16931
-4.06237 -0.359904 6.13424
-4.06171 -0.359571 6.08923
-4.06005 -0.359253 6.0432
-4.05091 -0.357918 5.79608
-3.98042 -0.352614 4.26626
-3.94561 -0.350827 3.44286
-3.91666 -0.349892 3.16959
-4.42838 -0.296731 14.3692
-4.32013 -0.297776 12.1421
-4.15319 -0.299078 8.27932
-4.13375 -0.300127 7.93915
-4.12929 -0.300196 7.8671
-4.12779 -0.300175 7.80108
-4.12302 -0.299607 7.63702
-4.07338 -0.301112 6.65953
-4.05956 -0.301417 6.36939
-4.05893 -0.301143 6.32037
-4.05978 -0.301831 6.20637
-4.06045 -0.302134 6.11837
-4.04794 -0.302105 6.05327
-4.05913 -0.302482 6.02735
-4.05072 -0.302643 5.94928
-4.05234 -0.302871 5.86629
-4.03684 -0.30286 5.80016
-4.04802 -0.302207 5.77623
-4.03943 -0.303013 5.72217
-4.02702 -0.303192 5.64307
-4.02535 -0.30283 5.60005
-4.02861 -0.303346 5.56507
-4.03187 -0.302847 5.53109
-4.02524 -0.303578 5.48204
-4.02354 -0.303186 5.44102
-4.01874 -0.303575 5.41498
-4.01732 -0.303716 5.33796
-4.01957 -0.303218 5.30397
-4.01788 -0.303812 5.26396
-4.01419 -0.303436 5.22192
-4.01446 -0.303954 5.18692
-4.00569 -0.30342 5.15585
-4.00497 -0.303968 5.11884
-4.01117 -0.304364 5.09189
-4.00252 -0.304051 5.04582
-4.0117 -0.3044 5.02189
-3.99637 -0.304729 4.93276
-3.99253 -0.305013 4.77872
-3.98782 -0.304594 4.73967
-3.97747 -0.304844 4.52057
-3.97231 -0.305507 4.40852
-3.96802 -0.305902 4.31448
-3.96558 -0.306015 4.23946
-3.96106 -0.305951 4.17641
-3.96821 -0.306242 4.15647
-3.96346 -0.306734 4.12343
-3.96477 -0.30634 4.08243
-3.95901 -0.306833 4.04939
-3.96518 -0.307154 4.02744
-3.96041 -0.306617 3.99639
-3.95466 -0.30711 3.96335
-3.95497 -0.306717 3.92234
-3.94941 -0.30758 3.86431
-3.95654 -0.307841 3.84636
-3.95774 -0.307225 3.82036
-3.94702 -0.307781 3.78328
-3.94314 -0.308021 3.76725
-3.94333 -0.307391 3.74224
-3.94451 -0.307746 3.71825
-3.94469 -0.308116 3.69325
-3.94309 -0.307887 3.64123
-3.94624 -0.308196 3.62026
-3.9366 -0.307899 3.57317
-3.93379 -0.308286 3.54715
-3.93795 -0.308594 3.52619
-3.93118 -0.309043 3.49614
-3.94128 -0.308243 3.4822
-3.93749 -0.30866 3.45417
-3.92963 -0.308933 3.43612
-3.92683 -0.30932 3.4101
-3.93197 -0.308597 3.39112
-3.92816 -0.308985 3.3651
-3.93231 -0.309278 3.34513
-3.93249 -0.309619 3.32213
-3.92868 -0.309007 3.29609
-3.92082 -0.309279 3.27803
-3.91999 -0.30962 3.25503
-3.91917 -0.309961 3.23203
-3.9243 -0.310224 3.21407
-4.42705 -0.218193 14.405
-4.41655 -0.219148 14.2059
-4.4109 -0.220803 14.0269
-4.4013 -0.221579 13.8398
-4.39267 -0.22228 13.6577
-4.38791 -0.222713 13.4937
-4.34666 -0.227057 12.7293
-4.34471 -0.227117 12.5903
-4.34079 -0.228252 12.4463
-4.31662 -0.230793 11.938
-4.31164 -0.23181 11.802
-4.31152 -0.232543 11.685
-4.30356 -0.232592 11.5469
-4.28211 -0.234628 11.2077
-4.27802 -0.235408 11.0877
-4.28272 -0.235797 10.9937
-4.27271 -0.236744 10.8627
-4.25937 -0.237042 10.7755
-4.25399 -0.238245 10.5595
-4.24785 -0.238938 10.4454
-4.24661 -0.239434 10.3444
-4.24142 -0.240023 10.2374
-4.24605 -0.240263 10.1534
-4.21661 -0.243289 9.68017
-4.21332 -0.243684 9.58614
-4.21886 -0.243746 9.51417
-4.19521 -0.244414 9.33498
-4.19187 -0.24472 9.24694
-4.15911 -0.249975 8.28564
-4.15912 -0.250974 8.15064
-4.15075 -0.251209 8.06757
-4.13274 -0.252177 7.93543
-4.13813 -0.252943 7.88347
-4.13861 -0.252876 7.82047
-4.1371 -0.25384 7.75546
-4.08257 -0.25857 6.76298
-4.08769 -0.258818 6.74602
-4.09006 -0.259527 6.69804
-4.08647 -0.259344 6.64301
-4.08485 -0.260101 6.592
-4.08325 -0.260872 6.53999
-4.07919 -0.260741 6.41394
-4.07065 -0.26165 6.35288
-4.0733 -0.261922 6.26689
-4.06607 -0.262438 6.16483
-4.06624 -0.262778 6.14184
-4.05569 -0.262674 6.08175
-4.06029 -0.263841 6.00279
-4.05052 -0.264262 5.8397
-4.04984 -0.264899 5.7967
-4.03956 -0.265328 5.70061
-4.04412 -0.266421 5.62665
-4.03932 -0.265809 5.6006
-4.03763 -0.266433 5.55859
-4.03029 -0.266741 5.47053
-4.02887 -0.267882 5.39353
-4.02731 -0.267742 5.33551
-4.02561 -0.268336 5.2955
-4.01895 -0.268007 5.25043
-4.02022 -0.268525 5.21545
-4.00383 -0.269721 5.00031
-4.00533 -0.270697 4.93433
-4.01251 -0.271047 4.91038
-4.0098 -0.270612 4.87235
-3.99803 -0.271079 4.84127
-4.00124 -0.271492 4.81329
-4.00248 -0.270965 4.78129
-4.00074 -0.271469 4.74728
-3.999 -0.271974 4.71327
-3.99824 -0.272463 4.68027
-3.99451 -0.271999 4.64423
-3.98473 -0.272421 4.61615
-3.98694 -0.272834 4.58817
-3.98419 -0.27334 4.55416
-3.98839 -0.272722 4.52817
-3.99158 -0.273104 4.5022
-3.98389 -0.273702 4.46215
-3.98003 -0.273986 4.44312
-3.98224 -0.2734 4.41512
-3.9775 -0.273921 4.38009
-3.97871 -0.27432 4.3531
-3.97893 -0.274764 4.32311
-3.96845 -0.274794 4.25402
-3.97911 -0.276074 4.1671
-3.96416 -0.277128 3.89397
-3.96227 -0.277337 3.87996
-3.95789 -0.278554 3.79793
-3.96125 -0.278263 3.74994
-3.95548 -0.278726 3.7189
-3.95657 -0.278903 3.70691
-3.95296 -0.279675 3.65489
-3.95216 -0.279061 3.62887
-3.9426 -0.279927 3.5708
-3.94575 -0.280221 3.55083
-3.94485 -0.280429 3.53682
-3.94502 -0.280769 3.51383
-3.93924 -0.280203 3.48477
-3.94538 -0.280465 3.46682
-3.9376 -0.280915 3.43676
-3.9348 -0.281302 3.41074
-3.93605 -0.28179 3.37776
-3.92728 -0.281255 3.34668
-3.9354 -0.281486 3.33074
-3.94053 -0.281734 3.31378
-3.92679 -0.282263 3.27868
-3.93491 -0.282479 3.26374
-3.93516 -0.282982 3.22975
-3.93433 -0.282309 3.20773
-3.96014 -0.235166 4.02634
-3.95151 -0.237867 3.84429
-4.4243 -0.0438643 14.0884
-4.41667 -0.0465501 13.9073
-4.40901 -0.0501914 13.7293
-4.40037 -0.0528631 13.5493
-4.3756 -0.0572643 13.2531
-4.36883 -0.0606976 13.0891
-4.36596 -0.0629061 12.9401
-4.36207 -0.0651005 12.7921
-4.36112 -0.0671595 12.6531
-4.33221 -0.0742517 12.2429
-4.32725 -0.0762989 12.1049
-4.32915 -0.0780596 11.9859
-4.32111 -0.0829303 11.7249
-4.29483 -0.0882803 11.3647
-4.29565 -0.0898937 11.2557
-4.29351 -0.0925981 11.1407
-4.28842 -0.0943787 11.0207
-4.26167 -0.10078 10.5895
-4.26044 -0.103292 10.4875
-4.25626 -0.104909 10.3785
-4.25598 -0.106331 10.2825
-4.24656 -0.109447 10.0725
-4.23119 -0.110687 9.98936
-4.22334 -0.115913 9.70434
-4.21969 -0.118581 9.52432
-4.20784 -0.120841 9.37225
-4.20156 -0.122267 9.27621
-4.36799 0.0288773 13.0597
-4.33041 0.00923429 12.2076
-4.3206 0.00590241 12.0506
-4.28328 -0.0112893 11.2965
-4.08203 -0.112667 6.68781
-4.08043 -0.114453 6.63482
-4.07344 -0.117457 6.49979
-4.06689 -0.118336 6.44074
-4.07514 -0.118833 6.40681
-4.06957 -0.120681 6.34979
-4.05609 -0.121713 6.28069
-4.05527 -0.122054 6.25769
-4.05298 -0.124462 6.16269
-4.05629 -0.125052 6.12272
-4.05266 -0.126795 6.07271
-4.05596 -0.127385 6.03274
-4.04953 -0.1285 5.9577
-4.0449 -0.130229 5.90868
-4.04028 -0.130973 5.85865
-4.04553 -0.131473 5.82469
-4.04584 -0.133079 5.78371
-4.04022 -0.133824 5.73368
-4.04136 -0.134104 5.71468
-4.03771 -0.134788 5.66866
-4.04 -0.136349 5.6307
-4.0393 -0.136942 5.59069
-4.04157 -0.137473 5.55471
-4.0201 -0.139525 5.48457
-4.01954 -0.1404 5.42557
-4.02576 -0.140824 5.39662
-4.02505 -0.141402 5.35762
-4.02561 -0.143498 5.28365
-4.02786 -0.143985 5.25067
-4.01725 -0.144763 5.19859
-4.01145 -0.146152 5.17256
-4.00478 -0.146808 5.12852
-4.02188 -0.146988 5.11565
-4.00928 -0.147782 5.06256
-4.00459 -0.149393 5.02154
-4.00114 -0.150476 4.94852
-4.01216 -0.150512 4.9456
-4.00177 -0.152719 4.86454
-4.005 -0.153161 4.83457
-4.00623 -0.153619 4.80358
-4.00549 -0.154123 4.76958
-4.00089 -0.155926 4.71557
-3.9942 -0.156538 4.67452
-3.99047 -0.157074 4.63849
-3.9927 -0.157517 4.60851
-3.99293 -0.157976 4.57752
-3.98325 -0.159604 4.53546
-3.98348 -0.160063 4.50447
-3.9836 -0.160285 4.48947
-3.9868 -0.160683 4.46249
-3.98504 -0.161158 4.43048
-3.97932 -0.16271 4.39346
-3.97481 -0.163676 4.32843
-3.96841 -0.16585 4.2494
-3.98053 -0.166078 4.2335
-3.97082 -0.166663 4.19443
-3.97302 -0.167046 4.16844
-3.97224 -0.167476 4.13944
-3.97333 -0.167653 4.12745
-3.97057 -0.168129 4.09543
-3.96879 -0.16956 4.06644
-3.96404 -0.170052 4.0334
-3.96622 -0.170406 4.00942
-3.96146 -0.170898 3.97639
-3.96197 -0.172889 3.90941
-3.95423 -0.173398 3.87536
-3.95045 -0.173845 3.84533
-3.95164 -0.174215 3.82034
-3.95878 -0.174476 3.8024
-3.95301 -0.174939 3.77136
-3.9541 -0.175116 3.75936
-3.94338 -0.176672 3.7223
-3.95646 -0.176825 3.7114
-3.93978 -0.177459 3.66928
-3.95386 -0.177612 3.65839
-3.94214 -0.178168 3.6213
-3.95026 -0.178399 3.60536
-3.94259 -0.180056 3.56132
-3.93285 -0.180567 3.52725
-3.94097 -0.180798 3.51132
-3.9314 -0.181649 3.45425
-3.9305 -0.181842 3.44124
-3.93265 -0.182137 3.42126
-3.93283 -0.183492 3.39728
-3.92803 -0.183895 3.37024
-3.92739 -0.184592 3.32324
-3.92458 -0.184979 3.29722
-3.92367 -0.185142 3.28622
-3.92103 -0.185855 3.2382
-4.27988 0.0624413 11.2103
-4.00121 -0.106704 5.06789
-3.99975 -0.108771 4.9959
-3.98948 -0.114169 4.76687
-4.35183 0.204011 12.798
-4.31605 0.174785 11.974
-4.31011 0.170707 11.834
-4.2756 0.144904 11.1061
-4.27444 0.141259 10.9951
-4.24552 0.122229 10.4541
-4.24134 0.118626 10.3461
-4.20946 0.0945501 9.66711
-4.15504 0.0467675 8.26622
-4.15554 0.0447758 8.19924
-4.15112 0.0416474 8.12324
-4.14053 0.0398254 8.06818
-4.13512 0.0376665 7.99016
-4.13658 0.0357644 7.92919
-4.13509 0.0327566 7.86122
-4.13261 0.0307332 7.79222
-4.13307 0.0288303 7.73124
-4.1355 0.0269881 7.67428
-4.07941 -0.00460002 6.7592
-4.08473 -0.00523289 6.71624
-4.08907 -0.00688117 6.67229
-4.09042 -0.00857606 6.62532
-4.08388 -0.010484 6.56429
-4.08011 -0.0119457 6.53328
-4.07391 -0.0155196 6.42727
-4.07624 -0.0161547 6.38429
-4.07759 -0.0178347 6.33832
-4.07496 -0.0195769 6.28832
-4.07334 -0.0213184 6.23833
-4.06462 -0.0228725 6.20128
-4.06297 -0.0245696 6.15429
-4.06265 -0.0268876 6.06531
-4.061 -0.0285847 6.01831
-4.06231 -0.0301908 5.97734
-4.04995 -0.0324583 5.89227
-4.05125 -0.0340348 5.8533
-4.04167 -0.0358709 5.79724
-4.03993 -0.0413448 5.63029
-4.0295 -0.0434777 5.55423
-4.03502 -0.0464952 5.48531
-4.02966 -0.0487577 5.40029
-4.0192 -0.0508165 5.32923
-4.0264 -0.052211 5.3023
-4.01305 -0.0594484 5.08428
-4.00043 -0.0612127 5.0332
-4.00121 -0.0637373 4.93023
-3.99651 -0.0653329 4.89022
-3.99194 -0.0671801 4.8332
-3.99318 -0.0686382 4.80223
-3.99565 -0.0705692 4.73927
-3.9949 -0.0710584 4.70626
-3.99217 -0.0725933 4.67026
-3.99922 -0.0726771 4.66431
-3.98063 -0.0745049 4.60919
-3.99772 -0.0746554 4.59832
-3.97912 -0.0764684 4.5442
-3.99422 -0.0766499 4.53132
-3.97981 -0.0798152 4.45324
-3.97729 -0.0857191 4.25729
-3.96769 -0.0875108 4.20423
-3.97683 -0.0877855 4.1853
-3.96316 -0.0894321 4.14222
-3.97229 -0.0896772 4.12529
-3.96953 -0.0901531 4.09327
-3.95971 -0.0915155 4.06921
-3.95991 -0.0919152 4.04222
-3.95715 -0.0933761 4.01121
-3.95636 -0.0937913 3.98321
-3.95953 -0.0951295 3.96025
-3.95973 -0.0955291 3.93325
-3.96886 -0.0957742 3.91632
-3.9521 -0.0972454 3.88521
-3.94753 -0.0990926 3.8282
-3.94692 -0.0998631 3.7762
-3.94929 -0.101587 3.72724
-3.95831 -0.101625 3.7243
-3.95751 -0.10301 3.69831
-3.94299 -0.104968 3.63423
-3.94634 -0.105647 3.58825
-3.9347 -0.107366 3.54019
-3.94002 -0.108999 3.49724
-3.94038 -0.109695 3.45025
-3.93874 -0.111407 3.40226
-3.93007 -0.11305 3.35921
-3.94116 -0.113219 3.34729
-3.93356 -0.115024 3.29326
-3.93787 -0.115628 3.25229
-3.92521 -0.117304 3.20722
-4.40098 0.310378 13.6979
-4.40015 0.305083 13.543
-4.38755 0.297335 13.358
-4.38766 0.291158 13.211
-4.38088 0.284755 13.0491
-4.35601 0.273562 12.767
-4.35504 0.268548 12.631
-4.34916 0.262352 12.4831
-4.32201 0.236813 11.8402
-4.31406 0.230749 11.7012
-4.28039 0.203272 10.9952
-4.27627 0.198551 10.8792
-4.26503 0.189094 10.6463
-4.25411 0.178014 10.3713
-4.24303 0.173185 10.2483
-4.23754 0.16522 10.0483
-4.24019 0.161949 9.96239
-4.21433 0.15074 9.67932
-4.21987 0.148678 9.60738
-4.21758 0.1443 9.51442
-4.21327 0.140934 9.42242
-4.14775 0.0972602 8.29942
-4.15441 0.0890078 8.07956
-4.15292 0.086 8.01158
-4.14552 0.082825 7.93256
-4.14796 0.0809532 7.8736
-4.13532 0.0732791 7.6936
-4.09062 0.0369445 6.72766
-4.08401 0.0302155 6.54369
-4.07978 0.0257023 6.44171
-4.07815 0.0239608 6.39172
-4.07145 0.0174094 6.21974
-4.07081 0.0157131 6.17275
-4.06521 0.0139243 6.11973
-4.06191 0.010545 6.02674
-4.06024 0.0088923 5.98275
-4.05547 0.0074447 5.95273
-4.05381 0.00577724 5.90773
-4.0551 0.00420078 5.86876
-4.05146 0.00248746 5.82075
-4.04263 -0.00281388 5.66574
-4.04392 -0.00437554 5.62777
-4.04026 -0.00604445 5.58276
-4.02741 -0.0123042 5.43074
-4.03363 -0.0127291 5.40179
-4.02996 -0.0143832 5.35778
-4.01733 -0.0210722 5.17676
-4.00253 -0.0274518 5.01672
-3.99649 -0.0313366 4.88971
-4.00516 -0.0346332 4.80181
-3.99846 -0.0362303 4.76178
-3.98594 -0.0391869 4.69772
-3.99953 -0.0413319 4.61985
-3.98787 -0.0430066 4.57478
-3.98712 -0.0444957 4.54179
-3.97556 -0.0463629 4.48372
-3.977 -0.0482354 4.42475
-3.97425 -0.049726 4.39175
-3.97943 -0.0500628 4.36879
-3.97965 -0.0515067 4.33881
-3.97006 -0.0533133 4.28475
-3.96475 -0.0566792 4.19275
-3.97984 -0.0568311 4.18187
-3.97607 -0.0582928 4.15086
-3.96549 -0.0601149 4.0958
-3.96292 -0.0619607 4.03879
-3.97145 -0.0640057 3.96788
-3.9656 -0.0652912 3.94885
-3.9658 -0.0656909 3.92186
-3.96698 -0.0670453 3.89788
-3.95595 -0.0709485 3.76984
-3.95135 -0.0727514 3.71582
-3.9456 -0.0781986 3.55084
-3.94794 -0.0798631 3.50587
-3.94614 -0.0812641 3.47888
-3.93747 -0.0829071 3.43583
-3.94459 -0.0831388 3.41989
-3.94376 -0.08348 3.39688
-3.93401 -0.0849757 3.36382
-3.93518 -0.0853006 3.34184
-3.94147 -0.0868734 3.3029
-3.93361 -0.0871605 3.28384
-3.92698 -0.0888908 3.23481
-3.92914 -0.0902001 3.21384
-3.93344 -0.0907893 3.17388
-3.91862 -0.0921405 3.15079
-4.40402 0.397193 13.6847
-4.37065 0.375063 13.2047
-4.3678 0.368796 13.0517
-4.362 0.361452 12.8938
-4.3601 0.354289 12.7478
-4.35816 0.348201 12.6069
-4.33125 0.336095 12.3308
-4.32926 0.32911 12.1969
-4.32727 0.323139 12.0639
-4.32623 0.318258 11.937
-4.32222 0.312301 11.805
-4.30211 0.306539 11.687
-4.2981 0.300612 11.557
-4.297 0.294849 11.4381
-4.29097 0.288935 11.3091
-4.2869 0.284111 11.1861
-4.28476 0.278422 11.0722
-4.2836 0.273778 10.9612
-4.26438 0.268224 10.8571
-4.26319 0.263654 10.7512
-4.26201 0.259039 10.6422
-4.2549 0.253287 10.5242
-4.2527 0.248716 10.4183
-4.25146 0.24422 10.3173
-4.2502 0.239768 10.2193
-4.23191 0.235363 10.1253
-4.22543 0.226383 9.92432
-4.21858 0.214159 9.63941
-4.21529 0.209765 9.54543
-4.20014 0.199141 9.30144
-4.1919 0.19364 9.20045
-4.15033 0.150057 8.21764
-4.15476 0.148201 8.1597
-4.14147 0.143815 8.06665
-4.1459 0.140959 8.00872
-4.13432 0.139137 7.95365
-4.12542 0.131969 7.80767
-4.12294 0.12896 7.73969
-4.1234 0.127057 7.67871
-4.07378 0.0785878 6.5689
-4.07019 0.0757857 6.51491
-4.07351 0.0741515 6.47195
-4.0658 0.0725833 6.43391
-4.06616 0.0708877 6.38693
-4.05994 0.0663435 6.28294
-4.06028 0.0636776 6.23797
-4.05667 0.0619199 6.18696
-4.05701 0.0602539 6.14198
-4.04926 0.0587449 6.10794
-4.04597 0.0543508 6.01397
-4.04531 0.0526841 5.96899
-4.04266 0.0510011 5.92298
-4.03804 0.0482576 5.87298
-4.0329 0.0435661 5.759
-4.03153 0.0403362 5.67602
-4.03182 0.038759 5.63704
-4.03411 0.0371981 5.59908
-4.02436 0.0356876 5.56502
-4.02099 0.0314565 5.48205
-4.02523 0.0309857 5.45008
-4.01662 0.0282244 5.39905
-4.02086 0.0267538 5.3671
-4.02015 0.0251759 5.32811
-4.01336 0.0247711 5.30107
-4.01166 0.0231776 5.26107
-4.01094 0.0216293 5.22408
-4.00824 0.0190353 5.1841
-4.01148 0.0185638 5.15212
-4.00509 0.0153747 5.07211
-4.00325 0.0140625 5.05111
-3.99609 0.00939913 4.93911
-3.99933 0.00794254 4.90815
-3.99462 0.00636171 4.86914
-3.99982 0.00596569 4.84218
-3.99203 0.0045603 4.81514
-3.99425 0.0031326 4.78617
-3.99351 0.00161389 4.75118
-3.99276 0.000124791 4.71819
-3.98705 -0.00145677 4.67917
-3.99324 -0.00182245 4.65422
-3.98939 -0.00312131 4.63421
-3.98864 -0.00461041 4.60122
-3.9859 -0.00611577 4.56721
-3.98713 -0.00655911 4.53723
-3.99232 -0.00792543 4.51228
-3.9856 -0.00949291 4.47425
-3.98979 -0.00986006 4.44928
-3.97505 -0.012374 4.4152
-3.98121 -0.0126953 4.39325
-3.97152 -0.0143094 4.3522
-3.97174 -0.0157386 4.32322
-3.96655 -0.0203265 4.21623
-3.96677 -0.0207557 4.18723
-3.97094 -0.0220932 4.16428
-3.97909 -0.0223834 4.14435
-3.97137 -0.0239368 4.10731
-3.97257 -0.0253208 4.08133
-3.96683 -0.0268284 4.04731
-3.96693 -0.0270356 4.03331
-3.96514 -0.0284514 4.00531
-3.96634 -0.0288356 3.97932
-3.96456 -0.0302662 3.95033
-3.96972 -0.0305734 3.92937
-3.96793 -0.0319892 3.90137
-3.96713 -0.0333895 3.87438
-3.96426 -0.0336433 3.85736
-3.95255 -0.0352144 3.81929
-3.96267 -0.035444 3.80337
-3.95511 -0.038323 3.74435
-3.94864 -0.0413492 3.67533
-3.95379 -0.0416416 3.65537
-3.95297 -0.0420124 3.63037
-3.93827 -0.0446004 3.59129
-3.95235 -0.044753 3.5804
-3.94757 -0.045186 3.55136
-3.94378 -0.0466032 3.52335
-3.94983 -0.0466877 3.5174
-3.94504 -0.0481057 3.48938
-3.94622 -0.0484602 3.46539
-3.94043 -0.0498789 3.43736
-3.94061 -0.0512341 3.41338
-3.92688 -0.0527623 3.3783
-3.94285 -0.0517063 3.3814
-3.94303 -0.0530467 3.35842
-3.92748 -0.0549463 3.29832
-3.93759 -0.0551463 3.2844
-3.93081 -0.0565806 3.25537
-3.92807 -0.0581007 3.22036
-4.38594 0.487245 13.5532
-4.38313 0.478919 13.3962
-4.37737 0.470487 13.2323
-4.37548 0.462309 13.0854
-4.3687 0.453921 12.9244
-4.34283 0.432758 12.5095
-4.34086 0.425744 12.3736
-4.33594 0.418638 12.2316
-4.33393 0.411697 12.1007
-4.33091 0.40477 11.9708
-4.30374 0.385214 11.5968
-4.29968 0.37936 11.4718
-4.29759 0.372582 11.3519
-4.29743 0.366939 11.241
-4.29039 0.361054 11.114
-4.27176 0.344392 10.8
-4.26367 0.337595 10.6791
-4.26246 0.333054 10.5751
-4.25928 0.327438 10.4662
-4.25804 0.321957 10.3662
-4.2558 0.31746 10.2652
-4.23328 0.306557 10.0702
-4.22806 0.301014 9.96624
-4.22513 0.287955 9.69237
-4.22184 0.282561 9.59841
-4.20447 0.27832 9.51533
-4.20805 0.274197 9.43941
-4.20275 0.269802 9.34542
-4.20435 0.265633 9.26649
-4.15883 0.215959 8.27774
-4.15932 0.212982 8.21178
-4.15588 0.208899 8.1388
-4.1539 0.201899 8.00387
-4.14035 0.199001 7.94381
-4.14181 0.196099 7.88285
-4.13636 0.192014 7.80986
-4.12991 0.188929 7.73685
-4.13727 0.186239 7.68994
-4.07955 0.138925 6.72607
-4.09178 0.13749 6.69618
-4.08722 0.134628 6.63818
-4.07906 0.128979 6.52719
-4.07825 0.127608 6.5022
-4.06971 0.124699 6.44117
-4.06809 0.121958 6.39119
-4.07831 0.120521 6.36128
-4.07767 0.11881 6.3133
-4.06813 0.115915 6.25326
-4.07045 0.113295 6.21131
-4.05975 0.111695 6.17125
-4.05514 0.108921 6.11925
-4.06041 0.107392 6.0833
-4.05975 0.105726 6.03832
-4.05414 0.102966 5.98731
-4.05477 0.0987234 5.90337
-4.0401 0.0960761 5.86029
-4.04832 0.0956527 5.83135
-4.04863 0.093046 5.79039
-4.03905 0.09021 5.73435
-4.05023 0.0898628 5.71044
-4.03766 0.0870098 5.65338
-4.03613 0.0840908 5.5914
-4.03445 0.0814678 5.54942
-4.03474 0.0798907 5.51044
-4.0281 0.0771901 5.46342
-4.02938 0.0756432 5.42645
-4.03065 0.0741112 5.39048
-4.03191 0.0725939 5.3555
-4.02216 0.071113 5.32345
-4.02045 0.0695344 5.28445
-4.02666 0.0681244 5.25652
-4.02 0.0654534 5.2115
-4.02324 0.063982 5.17954
-4.02252 0.0624337 5.14256
-4.01671 0.0610594 5.11753
-4.01499 0.0595104 5.08053
-4.01823 0.058039 5.04857
-4.0066 0.0553051 4.99952
-4.00389 0.0537406 4.96152
-4.00452 0.0505122 4.87856
-4.00995 0.0476575 4.82063
-3.99619 0.0402343 4.65762
-3.98844 0.0268169 4.35972
-3.9528 -0.00472042 3.64982
-3.94366 -0.0153691 3.40387
-3.93475 -0.0215075 3.25988
-4.39451 0.575982 13.6019
-4.39171 0.567626 13.443
-4.35636 0.531511 12.8292
-4.35149 0.523287 12.6793
-4.34564 0.514033 12.5273
-4.3476 0.507154 12.4004
-4.32164 0.491139 12.1304
-4.32062 0.484228 12.0015
-4.3176 0.476302 11.8716
-4.31263 0.468285 11.7356
-4.31253 0.461523 11.6167
-4.3075 0.454624 11.4888
-4.28736 0.447922 11.3747
-4.28624 0.441204 11.2588
-4.27823 0.434244 11.1268
-4.27904 0.427661 11.0199
-4.27396 0.420866 10.8989
-4.27277 0.414281 10.792
-4.25234 0.402187 10.584
-4.24817 0.396556 10.474
-4.24597 0.391 10.3691
-4.24865 0.385655 10.2782
-4.24249 0.379022 10.1682
-4.23829 0.37345 10.0623
-4.21706 0.352001 9.69536
-4.21379 0.346578 9.5994
-4.21148 0.342229 9.50844
-4.21407 0.337062 9.42952
-4.19102 0.322226 9.17154
-4.16721 0.292022 8.61873
-4.15987 0.286714 8.53074
-4.16534 0.2838 8.46881
-4.1629 0.278703 8.39486
-4.15653 0.274469 8.31186
-4.14596 0.271618 8.25482
-4.14449 0.267566 8.18386
-4.145 0.263574 8.11691
-4.14255 0.259507 8.04494
-4.13909 0.255438 7.97297
-4.13465 0.25134 7.89898
-4.12747 0.245736 7.791
-4.12794 0.241803 7.72805
-4.08733 0.188311 6.7514
-4.0816 0.186773 6.71538
-4.08493 0.184125 6.67143
-4.09222 0.182567 6.63351
-4.08964 0.179751 6.57852
-4.07607 0.168929 6.38855
-4.07544 0.166203 6.33958
-4.05326 0.146665 5.96665
-4.05061 0.143982 5.92067
-4.0464 0.13147 5.68379
-4.0467 0.129893 5.64481
-4.03513 0.126041 5.58777
-4.03587 0.121591 5.48983
-4.0295 0.110388 5.27392
-4.01944 0.103545 5.14992
-4.00452 0.0954177 5.00691
-4.00577 0.0939153 4.97294
-3.9884 0.0638424 4.36117
-4.37688 0.639223 13.2808
-4.34041 0.585422 12.4182
-4.30529 0.535895 11.6416
-4.29243 0.52665 11.4906
-4.11352 0.280634 7.51434
-4.08807 0.244704 6.91259
-4.08945 0.241965 6.86264
-4.09082 0.239241 6.81368
-4.08528 0.235334 6.75269
-4.07696 0.229995 6.66269
-4.08066 0.224636 6.57079
-4.06918 0.220621 6.50275
-4.06459 0.216804 6.44777
-4.06692 0.215154 6.4038
-4.06645 0.211117 6.33385
-4.0658 0.208436 6.28788
-4.06318 0.204694 6.23791
-4.05759 0.201876 6.1829
-4.05793 0.199225 6.13893
-4.0515 0.195095 6.06294
-4.04886 0.192382 6.01495
-4.04227 0.188593 5.96195
-4.04358 0.185987 5.92099
-4.04487 0.184411 5.88202
-4.0432 0.181758 5.83804
-4.03576 0.177657 5.76404
-4.03409 0.175019 5.72106
-4.03538 0.172443 5.6821
-4.03666 0.170896 5.64513
-4.03895 0.168335 5.60718
-4.04023 0.166789 5.5702
-4.02455 0.164155 5.52812
-4.0278 0.161655 5.49417
-4.03402 0.16023 5.46524
-4.02738 0.157529 5.41822
-4.02568 0.154936 5.37824
-4.02695 0.153404 5.34227
-4.03218 0.151963 5.31233
-4.01351 0.149313 5.26922
-4.02269 0.147965 5.2453
-4.01504 0.145263 5.19828
-4.01037 0.142623 5.15528
-4.01756 0.141259 5.13035
-4.0089 0.138571 5.08432
-4.00933 0.127789 4.89645
-4.00165 0.126146 4.85341
-4.00488 0.123705 4.82347
-3.99807 0.12233 4.79844
-3.9983 0.120871 4.76746
-3.99459 0.118306 4.72946
-4.00275 0.118001 4.70852
-3.98912 0.115265 4.65945
-3.99256 0.111395 4.60053
-3.98277 0.109988 4.57347
-3.98102 0.108498 4.54048
-3.9971 0.108347 4.5296
-3.98445 0.104657 4.48355
-3.97609 0.100392 4.39854
-3.9892 0.100194 4.38464
-3.98744 0.0987194 4.35264
-3.96782 0.0949503 4.30155
-3.97101 0.0935825 4.27659
-3.97641 0.0908166 4.22466
-3.97572 0.0891943 4.18267
-3.97694 0.0877807 4.1547
-3.96544 0.0837805 4.08766
-3.96763 0.082412 4.0627
-3.96387 0.0809503 4.03169
-3.9719 0.0808821 4.02675
-3.95723 0.0782349 3.98367
-3.95148 0.0757423 3.95066
-3.94889 0.0729262 3.89567
-3.961 0.0727277 3.88177
-3.96516 0.0724198 3.8608
-3.9464 0.0699325 3.82869
-3.95255 0.0686409 3.80875
-3.95671 0.068333 3.78778
-3.94598 0.0657923 3.75174
-3.95609 0.0655775 3.73681
-3.94799 0.05881 3.61784
-3.95017 0.0574711 3.59487
-3.94936 0.0571004 3.56987
-3.94367 0.0544745 3.52786
-3.93211 0.0506223 3.47082
-3.94123 0.0503921 3.45489
-3.93842 0.0490051 3.42888
-3.93181 0.0462453 3.37787
-3.92611 0.044649 3.33784
-3.93042 0.0420452 3.29691
-3.91983 0.0392381 3.24286
-3.93291 0.0390847 3.23196
-3.92207 0.037766 3.2109
-4.32446 0.651286 12.1391
-4.30021 0.616941 11.6443
-4.29509 0.600252 11.3955
-4.2871 0.591277 11.2626
-4.26031 0.553028 10.7069
-4.25125 0.544171 10.5819
-4.2471 0.53651 10.47
-4.19562 0.45982 9.34556
-4.14785 0.386681 8.25813
-4.1289 0.359702 7.85533
-4.12838 0.355754 7.79138
-4.11116 0.331309 7.42456
-4.11061 0.327435 7.3656
-4.10026 0.313186 7.14671
-4.0987 0.309326 7.08874
-4.09812 0.305512 7.03379
-4.09556 0.301651 6.97582
-4.08372 0.291363 6.82186
-4.08707 0.288684 6.77592
-4.08252 0.284808 6.71693
-4.08585 0.282159 6.67299
-4.07418 0.279499 6.62894
-4.07457 0.275744 6.57799
-4.07592 0.273065 6.53203
-4.07727 0.27037 6.48507
-4.07269 0.266552 6.43009
-4.07206 0.263826 6.38112
-4.07241 0.260131 6.33417
-4.05777 0.257425 6.28709
-4.06636 0.252276 6.20922
-4.06077 0.248473 6.15523
-4.05255 0.241942 6.05225
-4.05584 0.240382 6.01429
-4.05237 0.235329 5.94333
-4.03885 0.231386 5.88028
-4.03718 0.228734 5.8363
-4.0388 0.223521 5.75438
-4.03417 0.219807 5.70639
-4.02266 0.207883 5.50945
-4.02691 0.205397 5.47652
-4.01504 0.196168 5.32654
-4.01065 0.190981 5.24658
-4.01529 0.186726 5.16166
-3.97425 0.131077 4.24205
-3.96178 0.126017 4.17102
-3.96022 0.123157 4.11304
-3.955 0.116629 4.01009
-3.95441 0.113829 3.95612
-3.94637 0.105943 3.82916
-3.94379 0.103127 3.77417
-3.94525 0.0992253 3.71323
-3.93869 0.0963619 3.65522
-3.93986 0.0950223 3.63224
-3.94203 0.0936834 3.60927
-3.93175 0.0882696 3.51426
-3.93093 0.0869137 3.49027
-3.93211 0.0855741 3.4673
-3.9284 0.083994 3.42829
-3.92811 0.0786171 3.33535
-3.9243 0.0772294 3.30934
-3.93044 0.0759674 3.29141
-3.92654 0.0757573 3.27738
-3.92274 0.0743696 3.25137
-3.9239 0.0730596 3.23039
-3.92407 0.0717341 3.20841
-4.39034 0.821027 13.4682
-4.39338 0.811001 13.3314
-4.38272 0.797374 13.1545
-4.35499 0.746037 12.4579
-4.34813 0.734812 12.308
-4.3129 0.678507 11.5465
-4.2762 0.62612 10.8469
-4.27795 0.619655 10.748
-4.27184 0.610904 10.6301
-4.2365 0.564776 10.0154
-4.23619 0.558429 9.92448
-4.21945 0.527037 9.49376
-4.21282 0.514353 9.31287
-4.1889 0.484311 8.90608
-4.18849 0.479171 8.82915
-4.18368 0.467829 8.67126
-4.16487 0.446538 8.38239
-4.16736 0.442592 8.31846
-4.16195 0.436419 8.2395
-4.14595 0.4175 7.97562
-4.12968 0.383205 7.48394
-4.12616 0.378255 7.41998
-4.11128 0.3581 7.14012
-4.11268 0.355316 7.08717
-4.0671 0.286777 6.1077
-4.06446 0.283065 6.05973
-4.05984 0.280321 6.00973
-4.06017 0.276685 5.96678
-4.04514 0.26778 5.83878
-4.04841 0.266249 5.80282
-4.03715 0.25879 5.70484
-4.03775 0.253607 5.62491
-4.02831 0.248519 5.5519
-4.02987 0.24341 5.47698
-4.0245 0.238178 5.394
-4.02478 0.23563 5.35704
-4.01531 0.230602 5.28803
-4.01585 0.226536 5.21609
-4.00847 0.220317 5.13411
-4.00146 0.211373 5.00317
-4.0125 0.203353 4.86636
-4.00631 0.196765 4.75939
-4.00306 0.190282 4.65945
-3.98534 0.186722 4.62236
