-0.303303 1.71425 9.65084
-0.31931 1.71425 9.64996
-0.350301 1.71429 9.65119
-0.382293 1.71433 9.65243
-0.413368 1.7132 9.64268
-0.444314 1.71433 9.6499
-0.476251 1.71647 9.65811
-0.50725 1.71649 9.65834
-0.523303 1.7154 9.65148
-0.555241 1.71754 9.65969
-0.58624 1.71756 9.65992
-0.618208 1.71864 9.66415
-0.650168 1.72074 9.66936
-0.681213 1.71968 9.6636
-0.697144 1.72182 9.67269
-0.728181 1.72177 9.66793
-0.759241 1.71967 9.66019
-0.823162 1.72287 9.67063
-1.33861 1.72233 9.61251
-1.36585 1.71689 9.58179
-1.39784 1.71792 9.58302
-1.42888 1.71787 9.57825
-1.458 1.71566 9.5625
-1.47304 1.71458 9.55663
-1.50313 1.71344 9.54587
-1.53322 1.71227 9.53311
-1.56331 1.71113 9.52236
-1.59625 1.71325 9.52957
-1.62343 1.70993 9.50683
-1.65638 1.71205 9.51304
-1.67239 1.71204 9.51216
-1.7015 1.70984 9.49741
-1.73447 1.71193 9.50163
-1.7655 1.71289 9.49785
-1.79461 1.71069 9.4831
-1.82467 1.70959 9.47534
-1.85858 1.71378 9.48654
-1.87074 1.70949 9.46669
-1.90467 1.71265 9.4759
-1.93471 1.71258 9.47013
-1.96385 1.71034 9.45238
-1.99486 1.71133 9.4506
-2.02396 1.71016 9.43783
-2.03998 1.71013 9.43495
-2.07102 1.71008 9.43019
-2.10301 1.71211 9.4314
-2.13307 1.711 9.42264
-2.167 1.71416 9.43185
-2.1961 1.71299 9.41908
-2.22811 1.71398 9.41731
-2.24314 1.71395 9.41442
-2.27804 1.71715 9.42664
-2.30717 1.71592 9.40987
-2.33723 1.71582 9.4021
-2.36923 1.71685 9.40233
-2.39446 1.71242 9.37258
-2.42063 1.7091 9.34982
-2.43566 1.70905 9.34594
-2.46381 1.70678 9.32618
-2.49191 1.70561 9.31341
2.76257 1.69905 9.2249
2.73162 1.69917 9.23114
0.833101 1.70233 9.56844
0.740157 1.7025 9.57614
0.709173 1.70255 9.57837
0.678219 1.70367 9.58459
0.663212 1.70366 9.5837
0.632243 1.70374 9.58793
0.601275 1.70483 9.59215
0.570344 1.70598 9.60137
0.53936 1.70603 9.6036
0.507353 1.70604 9.60284
0.492392 1.70613 9.60796
0.461416 1.70719 9.61117
0.430485 1.70835 9.62039
0.399402 1.70621 9.60966
0.367425 1.70628 9.6129
0.33648 1.7074 9.62011
0.305519 1.7085 9.62533
0.290504 1.70848 9.62344
0.259597 1.71068 9.63565
0.227605 1.71072 9.63689
0.196476 1.70749 9.62017
0.165553 1.70866 9.63038
0.134539 1.70865 9.62862
0.102555 1.70871 9.63086
0.0876009 1.70981 9.63695
0.0528639 1.71144 9.27314
0.0228949 1.71152 9.27737
0.00700263 1.71474 9.29144
-0.0230423 1.71367 9.28568
-0.05285 1.71906 9.31083
-0.0830481 1.7137 9.28513
-0.113063 1.71269 9.28338
-0.143871 1.71809 9.30853
-0.158893 1.71805 9.30564
-0.188076 1.71272 9.28194
-0.218884 1.71811 9.3071
-0.278943 1.71704 9.29956
-0.30985 1.72024 9.31175
-0.354848 1.72027 9.31209
-0.38587 1.72025 9.30932
-0.445861 1.72031 9.31077
-0.536018 1.71706 9.2905
-0.611023 1.7181 9.29005
-0.67109 1.71701 9.28152
-0.717996 1.72022 9.29382
-1.28946 1.71969 9.23413
-1.30445 1.72073 9.23623
-1.33068 1.71529 9.2055
-1.36354 1.7196 9.22469
-1.38789 1.71193 9.17898
-1.42268 1.71836 9.20615
-1.44697 1.71081 9.16844
-1.46391 1.71293 9.17553
-1.49105 1.71068 9.15777
-1.52397 1.71386 9.16797
-1.54826 1.70631 9.13026
-1.58016 1.71053 9.14344
-1.61211 1.71264 9.14965
-1.64023 1.71044 9.13489
-1.65523 1.71043 9.13401
-1.68525 1.71141 9.13122
-1.71336 1.70922 9.11746
-1.74243 1.70911 9.10868
-1.77342 1.71013 9.1089
-1.80342 1.71116 9.10911
-1.83153 1.70897 9.09535
-1.84655 1.70894 9.09246
-1.8737 1.70667 9.0737
-1.90469 1.70771 9.07492
-1.93664 1.70982 9.08113
-1.96279 1.70755 9.06136
-1.9938 1.70855 9.06057
-2.018 1.70417 9.03382
-2.03689 1.70841 9.0489
-2.06306 1.70409 9.02616
-2.09987 1.71048 9.05134
-2.12408 1.70609 9.02359
-2.15025 1.70378 9.00182
-2.18705 1.71019 9.028
-2.20835 1.70362 8.98825
-2.23208 1.71115 9.02333
-2.26018 1.70998 9.01055
-2.29213 1.71209 9.01676
-2.31635 1.70768 8.98801
-2.3522 1.71299 9.0072
-2.36767 1.70209 8.94647
-2.38658 1.70529 8.95857
-2.41564 1.70519 8.95079
2.80876 1.7035 8.85144
2.77879 1.70256 8.85468
2.74986 1.70272 8.8639
2.71579 1.69861 8.85521
2.69404 1.70411 8.8883
2.65892 1.69992 8.87362
2.6419 1.69788 8.87078
2.61602 1.70014 8.88695
2.55505 1.69724 8.89145
2.52715 1.69946 8.90463
2.49717 1.69751 8.90688
2.4672 1.69759 8.91111
2.45223 1.69766 8.91522
2.36541 1.69808 8.93987
1.7943 1.69921 9.06017
1.63256 1.70083 9.09537
1.57256 1.69888 9.09585
1.54261 1.69899 9.10208
1.5276 1.69898 9.10119
1.49865 1.69909 9.10741
1.46972 1.70025 9.11661
1.3798 1.69948 9.1283
1.33585 1.6996 9.13463
1.3069 1.70072 9.14184
1.217 1.70097 9.15451
1.18805 1.70209 9.16171
1.15805 1.70111 9.16195
1.14414 1.70328 9.17303
1.11309 1.70122 9.16729
1.08413 1.70131 9.17251
1.05418 1.70244 9.17972
1.02415 1.70139 9.17496
0.995276 1.70366 9.19215
0.980284 1.70369 9.19326
0.949231 1.7016 9.18652
0.919224 1.70161 9.18575
0.890323 1.70282 9.19895
0.860263 1.70173 9.19119
0.831402 1.70502 9.20936
0.800348 1.70293 9.20263
0.786417 1.70408 9.21172
0.756449 1.70516 9.21593
0.727541 1.70636 9.22813
0.697511 1.70532 9.22437
0.667618 1.70755 9.23856
0.637634 1.7076 9.24079
0.607574 1.7065 9.23303
0.592651 1.70766 9.24313
0.563697 1.70877 9.24933
0.532691 1.70878 9.24856
0.502676 1.70777 9.2468
0.473776 1.70999 9.25999
0.442738 1.70893 9.25524
0.412709 1.7079 9.25148
0.39774 1.70897 9.25558
0.367763 1.70903 9.2588
0.337757 1.70904 9.25803
0.308895 1.71233 9.2762
0.277797 1.71016 9.26346
0.247881 1.71134 9.27467
0.217821 1.71025 9.26692
0.202875 1.71136 9.27401
0.173082 1.71678 9.30116
0.142831 1.71032 9.26848
0.113137 1.71793 9.3086
0.0828781 1.71145 9.27492
0.0569919 1.71578 8.89099
0.0280693 1.71795 8.90118
-0.00103716 1.71476 8.88745
-0.0150368 1.71477 8.88755
-0.044051 1.71476 8.88577
-0.0730728 1.71474 8.88299
-0.102088 1.71373 8.88122
-0.131002 1.71692 8.89239
-0.160024 1.71589 8.88963
-0.188039 1.71588 8.88784
-0.202985 1.717 8.89494
-0.232083 1.71483 8.88218
-0.261013 1.71698 8.89137
-0.289127 1.71378 8.87663
-0.318073 1.7159 8.88382
-0.347079 1.71591 8.88303
-0.377017 1.71805 8.89123
-0.390109 1.71488 8.87937
-0.419107 1.7159 8.87958
-0.449015 1.7181 8.89177
-0.478022 1.71811 8.89099
-0.53508 1.71803 8.88342
-1.32671 1.71734 8.80338
-1.35473 1.7173 8.79959
-1.38474 1.7173 8.79882
-1.4118 1.71721 8.79103
-1.43988 1.71606 8.78025
-1.45391 1.71501 8.77637
-1.48195 1.71496 8.77158
-1.50809 1.71271 8.75381
-1.53712 1.71268 8.75003
-1.56614 1.71265 8.74725
-1.59324 1.71148 8.73447
-1.62226 1.71146 8.73169
-1.63723 1.71251 8.73479
-1.66241 1.70919 8.71202
-1.69238 1.71026 8.71523
-1.72044 1.71016 8.70744
-1.74753 1.70901 8.69666
-1.77654 1.71001 8.69487
-1.80457 1.70997 8.69108
-1.81861 1.7099 8.68618
-1.84568 1.70877 8.6764
-1.87376 1.70765 8.66663
-1.89987 1.70544 8.65186
-1.92791 1.70639 8.64705
-1.95692 1.70638 8.64527
-1.98498 1.70628 8.63748
-1.99901 1.70624 8.63359
-2.02801 1.70726 8.63379
-2.05511 1.70608 8.62101
-2.08315 1.70601 8.61522
-2.11507 1.70919 8.62542
-2.14216 1.70904 8.61462
-2.16924 1.7079 8.60384
-2.18813 1.71112 8.61794
-2.21615 1.7121 8.61514
-2.24325 1.71092 8.60236
-2.2713 1.71084 8.59557
-2.30033 1.7118 8.59177
-2.32934 1.71279 8.58998
-2.35156 1.7084 8.5622
-2.3656 1.70732 8.55632
-2.39657 1.7104 8.56051
-2.41877 1.70602 8.53374
-2.44 1.70059 8.50398
2.85939 1.70082 8.40304
2.83963 1.70631 8.43511
2.8226 1.70425 8.43027
2.79363 1.70335 8.4355
2.76566 1.70343 8.43971
2.74389 1.70787 8.46881
2.71184 1.70481 8.4631
2.68185 1.70284 8.46435
2.65388 1.70192 8.46858
2.63479 1.69877 8.45777
2.60787 1.69994 8.46795
2.58196 1.70114 8.48013
2.55298 1.69919 8.48238
2.52504 1.69933 8.49059
2.49811 1.70048 8.49978
2.48518 1.70164 8.50986
2.45517 1.69963 8.50811
2.42722 1.69975 8.51532
2.40132 1.70097 8.5285
2.37028 1.6989 8.52277
2.34234 1.69905 8.53197
2.31749 1.70135 8.55113
2.29938 1.69816 8.53731
2.27969 1.70476 8.57737
2.2476 1.70162 8.56666
2.21757 1.69959 8.56291
2.18963 1.69973 8.57112
2.15963 1.69773 8.57038
2.13166 1.69783 8.57559
2.11872 1.69894 8.58267
2.09283 1.70017 8.59685
2.06385 1.70023 8.60006
2.04004 1.70362 8.6252
2.01002 1.7016 8.62245
1.97794 1.69847 8.61274
1.95829 1.70715 8.65777
1.9391 1.70181 8.63399
1.91426 1.70514 8.65513
1.88012 1.69988 8.63646
1.85113 1.69894 8.63869
1.82733 1.70334 8.66481
1.79416 1.69702 8.64215
1.78434 1.70238 8.66615
1.75848 1.70468 8.68531
1.72429 1.69832 8.65966
1.69842 1.70159 8.67681
1.66838 1.69954 8.67206
1.63939 1.69858 8.6733
1.61249 1.69979 8.68648
1.58349 1.69983 8.6877
1.57056 1.70095 8.69578
1.54261 1.70108 8.70299
1.51257 1.69903 8.69825
1.48672 1.70234 8.7184
1.46194 1.70777 8.74651
1.42872 1.70037 8.71786
1.41478 1.7025 8.72594
1.3889 1.70475 8.7421
1.36308 1.70911 8.76524
1.33092 1.70382 8.74455
1.30722 1.71142 8.78362
1.27399 1.70401 8.75498
1.24922 1.70946 8.78409
1.23205 1.70415 8.7623
1.20303 1.70314 8.76053
1.17726 1.70859 8.78965
1.14615 1.7054 8.77593
1.11713 1.70438 8.77316
1.08917 1.70447 8.77837
1.06123 1.70561 8.78656
1.04725 1.70567 8.78967
1.01824 1.70467 8.7889
0.991435 1.71006 8.81403
0.961352 1.70692 8.8033
0.933375 1.70699 8.80651
0.904437 1.70813 8.81471
0.889345 1.70496 8.80287
0.861407 1.7071 8.81105
0.833499 1.7083 8.82325
0.803431 1.70619 8.8145
0.777737 1.7138 8.85459
0.747616 1.71058 8.83886
0.718586 1.70954 8.83509
0.703563 1.70851 8.83222
0.676686 1.71177 8.84838
0.64664 1.7097 8.84264
0.620939 1.71729 8.88172
0.591955 1.71735 8.88394
0.562964 1.71738 8.88516
0.531712 1.71092 8.85248
0.488774 1.71207 8.86079
0.462004 1.71753 8.89092
0.431791 1.71214 8.86322
0.402754 1.71108 8.85845
0.373823 1.71224 8.86766
0.345893 1.71439 8.87684
0.330877 1.71337 8.87496
0.301856 1.71335 8.87218
0.273971 1.71559 8.88736
0.244872 1.71342 8.87461
0.215934 1.71456 8.88281
0.186882 1.71348 8.87605
0.171897 1.71352 8.87816
0.143929 1.7146 8.88236
0.11496 1.71468 8.88657
0.085976 1.71573 8.88878
0.044784 1.70053 8.33323
0.017877 1.70372 8.34539
-0.00914541 1.7027 8.34261
-0.0371289 1.70375 8.34481
-0.064098 1.70383 8.34901
-0.0771127 1.70381 8.34711
-0.105104 1.70384 8.34832
-0.132134 1.7038 8.34452
-0.159171 1.70275 8.33974
-0.186086 1.70493 8.35091
-0.213093 1.70494 8.35011
-0.240131 1.70388 8.34533
-0.254176 1.7028 8.33945
-0.281106 1.70496 8.34863
-0.30819 1.70281 8.33786
-0.336066 1.70707 8.35401
-0.363073 1.70707 8.35321
-0.390156 1.70493 8.34245
-0.418094 1.70707 8.35063
-0.431101 1.70706 8.34973
-0.458169 1.70495 8.34096
-0.486122 1.70706 8.34714
-0.513136 1.70705 8.34534
-0.540189 1.70597 8.33856
-0.567134 1.70809 8.34573
-0.595995 1.71238 8.36389
-0.608125 1.70813 8.34704
-0.636063 1.71027 8.35522
-0.663092 1.71023 8.35143
-0.690168 1.70811 8.34166
-0.718143 1.71017 8.34484
-0.746089 1.71229 8.35202
-0.773057 1.71337 8.35621
-0.787057 1.71338 8.35631
-1.10123 1.71626 8.33464
-1.11426 1.71521 8.33075
-1.14033 1.71408 8.32096
-1.16452 1.70973 8.2962
-1.19155 1.70969 8.29241
-1.21671 1.70539 8.27166
-1.24276 1.70532 8.26585
-1.26695 1.69996 8.24011
-1.28191 1.70206 8.24619
-1.30891 1.70308 8.24638
-1.33596 1.70199 8.2396
-1.36108 1.69977 8.22382
-1.38619 1.69758 8.21004
-1.41321 1.69756 8.20725
-1.4383 1.6964 8.19545
-1.45131 1.69638 8.19355
-2.07821 1.69703 8.07625
-2.10329 1.6969 8.06643
-2.11633 1.69582 8.06055
-2.14238 1.69575 8.05474
-2.19643 1.69769 8.04812
-2.22152 1.69651 8.03533
-2.24953 1.69752 8.03452
-2.27848 1.70063 8.0407
-2.2964 1.7038 8.05179
-2.31758 1.69946 8.02801
-2.34267 1.6983 8.01621
-2.37165 1.70035 8.0184
-2.39577 1.69915 8.0036
-2.41988 1.69695 7.98881
-2.42997 1.69578 7.9769
2.82828 1.69278 7.85831
0.748438 1.69638 8.28499
0.721454 1.69643 8.28719
0.69447 1.69648 8.28939
0.667501 1.69656 8.2936
0.639456 1.69549 8.28782
0.599563 1.69772 8.30209
0.573641 1.69989 8.31226
0.546649 1.69992 8.31346
0.518603 1.69786 8.3077
0.491612 1.69789 8.3089
0.46572 1.70112 8.32305
0.437697 1.70009 8.32028
0.423613 1.69694 8.30943
0.397767 1.70125 8.32956
0.37076 1.70126 8.32877
0.343814 1.70238 8.33595
0.316868 1.70351 8.34314
0.2888 1.70139 8.33438
0.261809 1.70143 8.33559
0.248932 1.70567 8.35162
0.220771 1.70038 8.33091
0.193818 1.70149 8.3371
0.166834 1.70254 8.33929
0.139827 1.70155 8.3385
0.112973 1.70585 8.35765
0.0859441 1.70581 8.35385
0.0719056 1.70374 8.34898
-1.3163 1.71236 7.92726
-1.34138 1.71121 7.91646
-1.35438 1.71122 7.91656
-1.37947 1.70906 7.90478
-1.4074 1.71221 7.91394
-1.43149 1.71105 7.90214
-1.45752 1.71103 7.89934
-1.4826 1.70988 7.88854
-1.50959 1.71092 7.88973
-1.51973 1.70766 7.87185
-1.54382 1.7055 7.86006
-1.56887 1.70541 7.85325
-1.59585 1.70646 7.85544
-1.62187 1.70744 7.85262
-1.64886 1.70849 7.85481
-1.67491 1.7084 7.84801
-1.685 1.70623 7.83611
-1.71105 1.70616 7.83031
-1.73513 1.70502 7.81951
-1.76116 1.70498 7.8157
-1.7862 1.70491 7.80989
-1.81029 1.70376 7.79909
-1.82622 1.70589 7.80718
-1.85322 1.70791 7.80735
-1.87441 1.70256 7.78259
-1.89944 1.70352 7.77876
-1.9284 1.70561 7.78395
-1.95149 1.70445 7.77214
-1.97851 1.70542 7.76933
-1.99054 1.70539 7.76642
-2.01561 1.70426 7.75662
-2.04163 1.70523 7.7538
-2.06474 1.70304 7.74001
-2.09271 1.70511 7.74319
-2.11873 1.70608 7.74037
-2.14476 1.70704 7.73655
-2.15877 1.70704 7.73566
-2.18479 1.70801 7.73284
-2.2118 1.71 7.73101
-2.23587 1.70889 7.72221
-2.26289 1.70986 7.7194
-2.28892 1.71082 7.71558
-2.31594 1.71181 7.71377
-2.32503 1.70963 7.70087
-2.35205 1.71062 7.69906
-2.37808 1.71157 7.69524
-2.40509 1.71256 7.69343
-2.44838 1.70703 7.65583
-2.45165 1.69952 7.62096
2.94827 1.69577 7.45731
2.93354 1.70229 7.49233
2.91371 1.70563 7.51443
2.89489 1.709 7.53853
2.83203 1.70931 7.557
2.80608 1.70844 7.56421
2.75723 1.70975 7.58356
2.72514 1.7046 7.57188
2.7053 1.70793 7.59298
2.69232 1.70698 7.59609
2.66532 1.706 7.59631
2.64244 1.70725 7.61247
2.62057 1.71052 7.62958
2.58948 1.70537 7.61789
2.56968 1.70976 7.64398
2.55464 1.7077 7.63912
2.52662 1.70568 7.63636
2.50476 1.70798 7.6555
2.47573 1.70594 7.65175
2.44873 1.70396 7.65198
2.42789 1.70728 7.67309
2.39986 1.70424 7.66935
2.37493 1.7054 7.67852
2.3681 1.70973 7.70051
2.33804 1.70664 7.69378
2.31207 1.70571 7.69699
2.28918 1.70695 7.71215
2.26011 1.70383 7.70341
2.24136 1.70932 7.73547
2.22633 1.70827 7.7316
2.20137 1.70838 7.73779
2.17438 1.70742 7.73901
2.14945 1.70757 7.74819
2.12139 1.70448 7.74145
2.09749 1.70568 7.75361
2.07255 1.70683 7.76279
2.06059 1.70691 7.76788
2.03568 1.70811 7.78005
2.01075 1.70925 7.78822
1.98578 1.70832 7.79242
1.95776 1.70731 7.79065
1.93593 1.71065 7.81277
1.90685 1.70753 7.80303
1.89491 1.70864 7.8101
1.87099 1.70982 7.82127
1.84294 1.70674 7.81452
1.81699 1.70686 7.82172
1.79102 1.70694 7.82591
1.76606 1.70703 7.8311
1.75307 1.70606 7.83221
1.72917 1.70826 7.84536
1.70319 1.70833 7.84856
1.67826 1.70948 7.85773
1.65127 1.70851 7.85895
1.62216 1.70433 7.84523
1.59825 1.70552 7.85739
1.58735 1.70772 7.87044
1.5593 1.70564 7.86368
1.53333 1.70572 7.86788
1.5105 1.71006 7.88999
1.48344 1.70698 7.88324
1.45645 1.70601 7.88446
1.43361 1.71032 7.90457
1.41957 1.70828 7.9007
1.39357 1.70729 7.90091
1.3676 1.70736 7.90411
1.34163 1.70744 7.9083
1.31461 1.70643 7.90652
1.28971 1.70762 7.91869
1.26369 1.70661 7.9169
1.25281 1.70984 7.93194
1.22582 1.70989 7.93414
1.19879 1.70785 7.93038
1.17383 1.70794 7.93556
1.14998 1.71224 7.95468
1.12191 1.70914 7.94694
1.10994 1.7102 7.95001
1.08401 1.71136 7.96019
1.05802 1.7114 7.96139
1.03309 1.71255 7.97056
1.00602 1.70944 7.96181
0.980108 1.71162 7.97297
0.941109 1.71065 7.97328
0.915163 1.71177 7.98046
0.889194 1.71185 7.98466
0.863217 1.71191 7.98785
0.837233 1.71196 7.99005
0.811287 1.71308 7.99723
0.785272 1.71207 7.99544
0.77228 1.71209 7.99654
0.0213219 1.71175 7.73916
-0.0546986 1.71176 7.73674
-0.0926824 1.71181 7.73902
-0.192786 1.70968 7.72581
-0.2437 1.71288 7.73714
-0.281691 1.71292 7.73843
-0.60984 1.71285 7.7199
-1.0502 1.71243 7.67322
-1.07426 1.71133 7.66541
-1.09929 1.7113 7.6626
-1.12336 1.71017 7.6528
-1.14746 1.708 7.64001
-1.17057 1.70481 7.62623
-1.1956 1.70477 7.62242
-1.20765 1.70367 7.61552
-1.23266 1.70467 7.6147
-1.25675 1.7025 7.60191
-1.28078 1.70246 7.59809
-1.30489 1.70027 7.5843
-1.3299 1.70027 7.58349
-1.34 1.69809 7.5706
-1.36597 1.70015 7.57376
-1.3939 1.7033 7.58293
-1.417 1.70113 7.57013
-1.44296 1.70322 7.5753
-1.46607 1.70103 7.5615
-1.49014 1.6999 7.5517
-1.50218 1.69884 7.54681
-1.52625 1.69772 7.538
-1.55125 1.69872 7.53718
-1.57821 1.70082 7.54235
-1.60034 1.69858 7.52555
-1.62535 1.69958 7.52472
-1.65133 1.70063 7.5269
-1.66434 1.70163 7.52598
-1.6855 1.69733 7.5052
-1.71052 1.69831 7.50238
-1.7365 1.69935 7.50456
-1.76252 1.70034 7.50274
-1.78559 1.69921 7.49293
-1.81161 1.7002 7.49111
-1.82557 1.70229 7.49618
-1.84573 1.69899 7.47538
-1.87367 1.70211 7.48255
-1.89676 1.69995 7.47075
-1.91889 1.69772 7.45395
-1.94583 1.70084 7.46111
-1.95593 1.69866 7.44821
-1.98582 1.7029 7.46338
-2.00697 1.69962 7.44358
-2.03296 1.70165 7.44475
-2.05603 1.70052 7.43494
-2.08302 1.70255 7.43611
-2.10706 1.7025 7.43129
-2.12398 1.70667 7.44236
-2.1451 1.70445 7.42655
-2.175 1.70865 7.43871
-2.1971 1.70747 7.4259
-2.22312 1.70845 7.42308
-2.24619 1.70733 7.41427
-2.2722 1.70832 7.41245
-2.28033 1.70508 7.39556
-2.30636 1.70605 7.39274
-2.3304 1.70698 7.3869
-2.35934 1.71012 7.39508
-2.37853 1.70576 7.37028
-2.39967 1.7035 7.35147
-2.41884 1.69919 7.32968
2.98667 1.69061 7.11105
2.9798 1.69387 7.12806
2.95585 1.69299 7.13525
2.9472 1.70268 7.18118
2.91715 1.69861 7.17546
2.90341 1.70511 7.20848
2.88049 1.70629 7.21963
2.86341 1.70215 7.20982
2.83846 1.70226 7.21601
2.82268 1.7067 7.24507
2.79263 1.70262 7.23835
2.76665 1.70168 7.24156
2.74884 1.70607 7.26663
2.71773 1.70088 7.25294
2.69586 1.70313 7.26908
2.6849 1.70323 7.27516
2.65688 1.70021 7.27241
2.63191 1.70029 7.2766
2.61001 1.70151 7.29075
2.58401 1.69953 7.29098
2.55804 1.69859 7.29419
2.55527 1.70504 7.32412
2.51803 1.69561 7.29353
2.50124 1.70103 7.32158
2.4773 1.70115 7.32876
2.4503 1.69917 7.32899
2.42533 1.69825 7.3332
2.40446 1.70052 7.35032
2.39146 1.69953 7.35043
2.36547 1.69858 7.35264
2.34358 1.7008 7.36678
2.31759 1.69885 7.369
2.2957 1.70107 7.38314
2.27485 1.70437 7.40225
2.24578 1.70027 7.39453
2.23379 1.70029 7.39562
2.21293 1.70257 7.41374
2.1849 1.70054 7.40998
2.15992 1.6996 7.41319
2.13907 1.70289 7.4323
2.10689 1.69558 7.40965
2.10316 1.7031 7.44457
2.07612 1.70104 7.4398
2.0522 1.70221 7.44996
2.02516 1.69916 7.44521
2.0043 1.70245 7.46432
1.97727 1.7004 7.45956
1.95333 1.70053 7.46774
1.94446 1.70381 7.48576
1.91743 1.70175 7.48099
1.89246 1.70184 7.48618
1.86749 1.70092 7.49038
1.84148 1.69991 7.48859
1.81859 1.70114 7.50275
1.79256 1.6991 7.49897
1.78162 1.70122 7.50703
1.75666 1.70131 7.51221
1.7317 1.70142 7.5184
1.70566 1.69837 7.51364
1.68279 1.70163 7.53077
1.6578 1.70067 7.53197
1.63282 1.70073 7.53516
1.61879 1.69867 7.53029
1.59587 1.69985 7.54145
1.56885 1.69782 7.53868
1.54594 1.70002 7.55083
1.5199 1.69796 7.54605
1.49599 1.70016 7.5582
1.48297 1.69812 7.55533
1.46008 1.70134 7.56946
1.43511 1.70142 7.57364
1.41013 1.70048 7.57685
1.3841 1.69844 7.57307
1.35913 1.69852 7.57726
1.33521 1.70069 7.58741
1.32218 1.69864 7.58354
1.29719 1.69869 7.58572
1.27224 1.69879 7.59191
1.24832 1.70096 7.60206
1.2254 1.70314 7.6132
1.20046 1.70327 7.62139
1.17549 1.70334 7.62458
1.16244 1.70226 7.61869
1.13856 1.7045 7.63384
1.1125 1.7024 7.62607
1.0886 1.70461 7.63921
1.06363 1.7047 7.6444
1.03864 1.70473 7.64559
1.01366 1.70378 7.64779
1.00277 1.70701 7.66283
0.975658 1.70381 7.64808
0.951727 1.70496 7.65724
0.924658 1.70184 7.64849
0.902843 1.70722 7.67258
0.876835 1.70622 7.67179
0.863843 1.70624 7.67289
0.839905 1.70738 7.68105
0.813837 1.70527 7.67228
0.789975 1.70855 7.69041
0.764975 1.70857 7.6906
0.740022 1.70967 7.69677
0.715053 1.70975 7.70096
0.700977 1.70761 7.6911
0.678153 1.71197 7.71421
0.653169 1.71202 7.7164
0.627124 1.71095 7.71061
0.6022 1.71212 7.72078
0.577178 1.71109 7.71798
0.552179 1.71111 7.71817
0.539171 1.7111 7.71727
0.514195 1.71116 7.72046
0.489241 1.71227 7.72663
0.463204 1.71122 7.72184
0.437112 1.70806 7.71008
0.413266 1.71237 7.7302
0.388289 1.71243 7.73339
0.375297 1.71246 7.73449
0.299261 1.71144 7.73007
0.273146 1.70724 7.71533
0.248239 1.71043 7.72747
0.223217 1.70941 7.72467
0.0723204 1.71171 7.73878
0.0549389 1.70504 7.42297
0.0299089 1.704 7.41917
0.0059943 1.70718 7.4303
-0.0181205 1.70298 7.41555
-0.0421273 1.70298 7.41473
-0.0669804 1.70828 7.43384
-0.0790416 1.70617 7.42596
-0.103072 1.70513 7.42216
-0.128063 1.70616 7.42333
-0.152109 1.70409 7.41754
-0.176085 1.70515 7.4207
-0.201045 1.70724 7.42586
-0.224137 1.70408 7.41408
-0.237082 1.7062 7.42115
-0.261151 1.70408 7.41236
-0.285065 1.70726 7.42349
-0.310088 1.70623 7.4207
-0.334979 1.71046 7.43482
-0.359047 1.70834 7.42604
-0.371063 1.70732 7.42414
-0.395077 1.70731 7.42232
-0.419114 1.70725 7.4175
-0.443144 1.70621 7.4137
-0.467166 1.70619 7.41088
-0.491196 1.70514 7.40708
-0.515203 1.70515 7.40626
-0.528171 1.70721 7.41033
-0.552225 1.70513 7.40354
-0.5753 1.703 7.39374
-0.600238 1.70613 7.40188
-0.623421 1.7008 7.37813
-0.647389 1.70187 7.3823
-0.671419 1.70183 7.37848
-0.683426 1.70182 7.37757
-0.707448 1.7018 7.37475
-0.732417 1.70288 7.37892
-0.756438 1.70285 7.3761
-0.781399 1.70494 7.38126
-0.807283 1.70918 7.3964
-0.820259 1.71023 7.39948
-0.844281 1.71021 7.39666
-0.977374 1.71111 7.38465
-1.00144 1.709 7.37586
-1.02356 1.70679 7.36106
-1.0457 1.70253 7.34228
-1.07067 1.7046 7.34644
-1.09281 1.70034 7.32767
-1.1159 1.69819 7.31687
-1.12787 1.70026 7.32093
-1.15193 1.69916 7.31313
-1.17401 1.69701 7.30233
-1.1971 1.69485 7.29053
-1.22207 1.69693 7.29469
-1.24419 1.69371 7.2789
-1.27013 1.69685 7.28705
-1.27927 1.69259 7.26918
-1.30422 1.69569 7.27532
-1.32632 1.6925 7.26154
-1.35036 1.69245 7.25672
-1.37245 1.69128 7.2449
-1.39938 1.69444 7.25406
-1.4085 1.69122 7.23917
-1.4354 1.69542 7.25131
-1.45749 1.69326 7.23951
-1.48056 1.69214 7.2307
-1.50361 1.69105 7.22389
-1.53053 1.69524 7.23503
-1.56369 1.69195 7.21432
-1.58769 1.69295 7.21349
-1.65976 1.69487 7.205
-1.70588 1.69267 7.18938
-1.78997 1.69454 7.17699
-1.85819 1.69116 7.14855
-1.91922 1.69413 7.14396
-1.96631 1.694 7.13332
-1.9874 1.69284 7.12149
-2.02541 1.69483 7.11975
-2.04942 1.69584 7.11891
-2.07151 1.69467 7.1071
-2.09554 1.69462 7.10228
-2.12833 1.70304 7.1294
-2.14653 1.69867 7.1036
-2.15855 1.69865 7.10169
-2.18648 1.70279 7.10984
-2.21149 1.70379 7.10902
-2.23357 1.70264 7.0982
-2.25661 1.70359 7.09336
-2.27382 1.69818 7.06556
-2.29689 1.69707 7.05675
-2.3128 1.70124 7.06781
-2.32903 1.69481 7.03802
-2.35306 1.69577 7.03419
-2.37024 1.69143 7.01038
2.97736 1.69007 6.80409
2.97581 1.70295 6.86291
2.95388 1.70311 6.87308
2.93197 1.70429 6.88423
2.921 1.70436 6.88831
2.88991 1.69922 6.87762
2.86493 1.69728 6.88084
2.8481 1.70162 6.9029
2.81599 1.69542 6.88823
2.79712 1.6977 6.90634
2.77726 1.69998 6.92446
2.75915 1.69579 6.91066
2.73418 1.69385 6.91388
2.72041 1.7003 6.94389
2.6893 1.69412 6.93021
2.66738 1.69528 6.94036
2.64853 1.69859 6.96046
2.61537 1.69132 6.94081
2.60645 1.69248 6.95086
2.58863 1.69684 6.97494
2.56568 1.69695 6.98111
2.53967 1.69395 6.98035
2.5157 1.69403 6.98453
2.49073 1.69311 6.98873
2.47976 1.69318 6.99281
2.46092 1.69649 7.01291
2.43796 1.69559 7.0191
2.41503 1.69674 7.02825
2.39823 1.70114 7.05432
2.36914 1.697 7.0436
2.34929 1.70029 7.0627
2.33524 1.69721 7.05685
2.30617 1.69309 7.04713
2.28425 1.69427 7.05828
2.26129 1.69436 7.06345
2.23527 1.69135 7.06169
2.21748 1.69676 7.08875
2.19145 1.69472 7.08498
2.18357 1.69796 7.10099
2.15343 1.69172 7.08331
2.13462 1.69609 7.10739
2.10653 1.69194 7.09666
2.08772 1.69631 7.12074
2.06476 1.69642 7.12691
2.04181 1.69652 7.13308
2.02675 1.69342 7.12524
2.00484 1.69561 7.13738
1.97777 1.6915 7.12864
1.95587 1.6937 7.14177
1.93396 1.6949 7.15392
1.90792 1.69284 7.14915
1.89593 1.69187 7.15025
1.87609 1.69619 7.17134
1.848 1.69204 7.15961
1.82608 1.6932 7.16976
1.80211 1.69329 7.17494
1.77917 1.69341 7.18211
1.75518 1.69246 7.18431
1.74526 1.69461 7.19435
1.71821 1.69154 7.1886
1.69424 1.69161 7.19178
1.67024 1.68962 7.19199
1.64939 1.69394 7.21209
1.60247 1.69412 7.22244
1.58737 1.68994 7.20962
1.56548 1.69317 7.22473
1.54359 1.6954 7.23887
1.51754 1.69231 7.23211
1.49561 1.69448 7.24224
1.47059 1.69245 7.23946
1.44664 1.69256 7.24564
1.43254 1.68937 7.23279
1.40961 1.69054 7.24295
1.38566 1.69065 7.24913
1.3627 1.69074 7.2543
1.34083 1.695 7.27141
1.3158 1.69296 7.26762
1.3038 1.69197 7.26773
1.28087 1.69414 7.27787
1.259 1.6974 7.29499
1.23292 1.69326 7.28425
1.20897 1.69438 7.29141
1.18394 1.69234 7.28763
1.16203 1.69452 7.29876
1.14901 1.6935 7.29688
1.12608 1.69565 7.30602
1.10213 1.69576 7.3122
1.08023 1.69796 7.32533
1.05311 1.69376 7.3106
1.03123 1.697 7.32572
1.00724 1.69603 7.32691
0.995283 1.69713 7.33299
0.969138 1.69187 7.31426
0.947291 1.69618 7.33436
0.922269 1.69515 7.33157
0.899369 1.69736 7.34471
0.875384 1.69741 7.34689
0.850316 1.69529 7.33811
0.838331 1.69533 7.3402
0.815454 1.69859 7.35632
0.79147 1.69863 7.3585
0.76747 1.69765 7.3587
0.743517 1.69876 7.36486
0.719563 1.69986 7.37103
0.694494 1.69675 7.36226
0.683648 1.70205 7.38227
0.659618 1.70101 7.37846
0.635634 1.70106 7.38064
0.610619 1.70005 7.37885
0.586619 1.69906 7.37904
0.562604 1.69805 7.37724
0.550712 1.70127 7.39128
0.526698 1.70125 7.38946
0.502706 1.70129 7.39064
0.478775 1.70244 7.39981
0.453653 1.69822 7.38406
0.429738 1.7014 7.39519
0.405776 1.70149 7.40037
0.393784 1.70151 7.40146
0.368747 1.70046 7.39667
0.344786 1.70155 7.40183
0.320786 1.70157 7.40201
0.296764 1.70054 7.39921
0.272849 1.70272 7.41036
0.247704 1.69846 7.39161
0.235811 1.70167 7.40565
0.211889 1.70384 7.4158
0.187851 1.70278 7.411
0.163928 1.70495 7.42115
0.139929 1.70497 7.42133
0.11483 1.70179 7.40856
0.0909611 1.70606 7.42568
0.0789539 1.70605 7.42477
-1.12348 1.70907 7.10574
-1.13455 1.70693 7.09585
-1.15852 1.70901 7.1
-1.17964 1.7058 7.08521
-1.20364 1.70682 7.08537
-1.22762 1.70787 7.08754
-1.24782 1.7025 7.06177
-1.27372 1.70669 7.0739
-1.28668 1.70878 7.07897
-1.30681 1.70554 7.06217
-1.33181 1.70657 7.06334
-1.35673 1.70972 7.07248
-1.37499 1.70225 7.03973
-1.39995 1.70534 7.04487
-1.42488 1.70849 7.05401
-1.43401 1.70423 7.03614
-1.45607 1.70313 7.02832
-1.48392 1.70945 7.04844
-1.50215 1.70302 7.01867
-1.52807 1.70718 7.02881
-1.54822 1.7029 7.00902
-1.57124 1.70387 7.00618
-1.58231 1.70176 6.99829
-1.6092 1.70697 7.01142
-1.62644 1.69953 6.98065
-1.65528 1.70686 7.00177
-1.67735 1.70574 6.99295
-1.69651 1.70145 6.97215
-1.71044 1.70459 6.98121
-1.73155 1.70238 6.9664
-1.75262 1.70125 6.95658
-1.78051 1.70649 6.97171
-1.80161 1.70432 6.9589
-1.82272 1.70211 6.94409
-1.84671 1.70414 6.94524
-1.8626 1.70836 6.9593
-1.88176 1.70406 6.9385
-1.90479 1.70502 6.93466
-1.92978 1.70605 6.93584
-1.94796 1.70173 6.91303
-1.9739 1.70485 6.92018
-2.00083 1.709 6.92933
-2.00896 1.70575 6.91243
-2.03198 1.70673 6.90959
-2.07808 1.70657 6.89694
-2.10112 1.70651 6.89211
-2.16016 1.70946 6.88651
-2.27245 1.70797 6.84838
-2.29548 1.70893 6.84454
-2.32956 1.70879 6.83379
-2.3487 1.70554 6.81598
-2.36684 1.70327 6.79715
-2.38988 1.7032 6.79132
-2.39532 1.68936 6.73456
3.02813 1.68865 6.50768
3.00823 1.68988 6.52182
2.99952 1.69744 6.55978
2.97861 1.69862 6.57092
2.96074 1.7009 6.58902
2.91789 1.70121 6.60834
2.90692 1.70128 6.61242
2.85796 1.69839 6.61784
2.84111 1.7017 6.63792
2.82122 1.70292 6.65205
2.79622 1.70095 6.65327
2.78628 1.70206 6.66033
2.76434 1.7022 6.66849
2.74546 1.70445 6.6846
2.71638 1.69932 6.6749
2.69444 1.69946 6.68306
2.67251 1.69961 6.69223
2.64752 1.69764 6.69344
2.63962 1.69984 6.70647
2.61256 1.69675 6.69972
2.59267 1.69798 6.71385
2.57279 1.70021 6.72897
2.54881 1.69927 6.73217
2.52584 1.69835 6.73635
2.50901 1.70169 6.75844
2.48782 1.69435 6.7347
2.47101 1.69973 6.75975
2.44804 1.69879 6.76294
2.42814 1.70001 6.77707
2.40724 1.70121 6.78921
2.37917 1.69709 6.78048
2.36336 1.70249 6.80653
2.34523 1.69725 6.78974
2.32943 1.70165 6.8158
2.30546 1.70071 6.81899
2.28352 1.70186 6.82814
2.26056 1.70095 6.83333
2.2335 1.69785 6.82558
2.22047 1.6958 6.82171
2.20572 1.7023 6.85472
2.17968 1.69923 6.84897
2.15775 1.7004 6.85912
2.13582 1.70154 6.86826
2.11285 1.70062 6.87245
2.08578 1.69649 6.86272
2.07791 1.70076 6.88071
2.05289 1.69774 6.87795
2.02993 1.69783 6.88312
2.01209 1.70215 6.90419
1.98297 1.69595 6.8895
1.96 1.69501 6.89269
1.94424 1.7025 6.9247
1.93019 1.70041 6.91784
1.90518 1.69841 6.91706
1.88531 1.70168 6.93416
1.85718 1.69544 6.91746
1.83523 1.69556 6.92462
1.81639 1.69989 6.94571
1.79036 1.69785 6.94193
1.78042 1.69896 6.94899
1.76157 1.70327 6.96907
1.73347 1.6981 6.95636
1.70843 1.69604 6.95158
1.69062 1.70041 6.97565
1.66456 1.69731 6.96789
1.65048 1.69417 6.95804
1.6327 1.70061 6.98708
1.60769 1.6986 6.9853
1.58469 1.69763 6.98649
1.56483 1.70092 7.00459
1.53775 1.69677 6.99386
1.51685 1.7 7.00797
1.5069 1.70109 7.01403
1.48085 1.69802 7.00827
1.46097 1.70126 7.02337
1.43593 1.6982 7.01861
1.41297 1.69829 7.02378
1.39 1.69837 7.02795
1.36811 1.70159 7.04207
1.35505 1.69848 7.03421
1.33417 1.70174 7.05033
1.30914 1.69969 7.04654
1.2872 1.70083 7.05469
1.26423 1.7009 7.05887
1.23815 1.69778 7.04911
1.21936 1.70419 7.07616
1.20527 1.70002 7.06432
1.1844 1.70429 7.08142
1.16142 1.70333 7.08361
1.13532 1.69918 7.07187
1.11448 1.70449 7.09195
1.08836 1.69927 7.07622
1.06329 1.69617 7.06845
1.05652 1.7036 7.0974
1.03039 1.69837 7.08067
1.00958 1.70376 7.10575
0.988717 1.70804 7.12385
0.961533 1.7007 7.10016
0.938572 1.70179 7.10531
0.92971 1.70607 7.12332
0.904672 1.70401 7.11854
0.880611 1.70091 7.11076
0.859787 1.70626 7.13384
0.834704 1.70312 7.12308
0.810696 1.70212 7.12227
0.78885 1.70643 7.14238
0.776766 1.70428 7.1315
0.753873 1.7065 7.14564
0.730859 1.70649 7.14381
0.705805 1.70341 7.13705
0.684982 1.70876 7.16013
0.659921 1.70666 7.15235
0.635891 1.70562 7.14854
0.626006 1.70885 7.16357
0.602022 1.7089 7.16575
0.553939 1.70577 7.15516
0.532069 1.70904 7.17228
0.508039 1.70799 7.16847
0.485078 1.70909 7.17363
0.47307 1.70808 7.17274
0.450109 1.70917 7.17789
0.426033 1.70704 7.16811
0.403133 1.70925 7.18125
0.332158 1.70934 7.18478
0.297151 1.70936 7.18404
0.250175 1.70943 7.1874
0.028639 1.69861 6.85218
0.00664718 1.69864 6.85335
-0.0155442 1.69228 6.8286
-0.0272439 1.70287 6.86754
-0.0493663 1.69865 6.85177
-0.0716349 1.68915 6.81707
-0.095311 1.70078 6.85908
-0.117403 1.69762 6.84729
-0.139471 1.69551 6.83849
-0.163217 1.70401 6.87155
-0.173416 1.69763 6.84572
-0.195538 1.69341 6.82994
-0.219307 1.70187 6.86
-0.240398 1.69871 6.84821
-0.263467 1.6966 6.83941
-0.309319 1.70191 6.85868
-0.319488 1.69659 6.83683
-0.34151 1.69556 6.83401
-0.364417 1.69976 6.84612
-0.386501 1.69661 6.83534
-0.409492 1.69764 6.83649
-0.430591 1.69447 6.8237
-0.454437 1.69978 6.8438
-0.465506 1.69765 6.83492
-0.487558 1.69657 6.8281
-0.52981 1.68911 6.79552
-0.552779 1.69019 6.79968
-0.574778 1.6902 6.79984
-0.652889 1.68904 6.78545
-0.674889 1.68905 6.78561
-0.71894 1.68898 6.77894
-0.730887 1.69009 6.78602
-0.754847 1.69218 6.79117
-0.774953 1.68999 6.77735
-0.800752 1.6974 6.80344
-0.82092 1.69208 6.78167
-0.845804 1.69632 6.79679
-0.867826 1.6963 6.79396
-0.878872 1.69522 6.78806
-0.902786 1.6994 6.79918
-0.925739 1.7015 6.80532
-0.948745 1.7025 6.80448
-0.96699 1.69404 6.77274
-0.992835 1.70036 6.79284
-1.01295 1.69715 6.77804
-1.02303 1.69499 6.76715
-1.04696 1.69816 6.77728
-1.08723 1.69066 6.74169
-1.10733 1.68848 6.72887
-1.13127 1.69061 6.73702
-1.15427 1.69163 6.73718
-1.16338 1.68842 6.72229
-1.20742 1.68936 6.71661
-1.22945 1.68932 6.71278
-1.28453 1.68921 6.70319
-1.77831 1.689 6.6009
-1.99376 1.68825 6.54153
-2.11789 1.69307 6.52439
-2.1561 1.6887 6.49774
-2.17815 1.68862 6.4909
-2.20409 1.69275 6.49904
-2.24229 1.68938 6.47237
-2.25722 1.69252 6.48144
-2.27339 1.68821 6.45962
-2.2974 1.6902 6.45777
-2.3253 1.69541 6.47091
2.99279 1.68707 6.19693
2.9869 1.6903 6.21193
2.968 1.69151 6.22505
2.95214 1.69478 6.24313
2.93121 1.69493 6.25229
2.90824 1.69301 6.25649
2.88119 1.68894 6.25075
2.86636 1.69328 6.2728
2.84825 1.68808 6.25901
2.83036 1.68932 6.27413
2.8023 1.68522 6.2664
2.78441 1.68644 6.28052
2.76552 1.68866 6.29463
2.73948 1.68462 6.29089
2.72057 1.68581 6.30301
2.71265 1.68797 6.31304
2.69375 1.68917 6.32617
2.66467 1.68403 6.31546
2.64678 1.68627 6.33057
2.57197 1.68569 6.35614
2.55205 1.68585 6.36629
2.53008 1.68493 6.37047
2.48718 1.68515 6.38379
2.44632 1.68646 6.40308
2.41237 1.68458 6.40937
2.3945 1.68784 6.42646
2.29872 1.68736 6.45719
2.27675 1.68643 6.46137
2.25786 1.68865 6.47548
1.99737 1.68683 6.54448
1.24262 1.6878 6.71318
1.1427 1.68702 6.72394
1.12286 1.69134 6.74503
0.999936 1.68958 6.75598
0.94396 1.68867 6.75942
0.855 1.68781 6.7651
0.811069 1.68897 6.77442
0.777108 1.68907 6.77967
0.755116 1.6891 6.78084
0.633271 1.69148 6.80172
0.566273 1.69053 6.80224
0.532304 1.69062 6.8065
0.487313 1.69067 6.80784
0.443352 1.69077 6.81317
0.386315 1.68974 6.80861
0.342301 1.68874 6.80696
0.320501 1.69514 6.83303
0.29734 1.68985 6.81228
0.275555 1.69628 6.84035
0.252341 1.68888 6.81263
0.241372 1.68995 6.8167
0.219526 1.69526 6.83679
0.196396 1.69003 6.82004
0.174396 1.69004 6.8202
0.152389 1.69004 6.81937
0.12939 1.69006 6.81954
0.107614 1.6975 6.8486
0.0964218 1.69114 6.82378
0.073676 1.69965 6.85683
0.0513541 1.68904 6.81515
-0.230724 1.68715 6.54026
-0.596886 1.68807 6.52
-0.649907 1.68807 6.5174
-0.672821 1.69224 6.52851
-0.715888 1.69114 6.51985
-0.736003 1.68694 6.50507
-0.758909 1.69113 6.51718
-0.768917 1.69112 6.51625
-0.790923 1.69212 6.5154
-0.812922 1.69214 6.51557
-0.834898 1.6942 6.51871
-0.855951 1.69311 6.51188
-0.877927 1.69417 6.51503
-0.891757 1.70051 6.53704
-0.909956 1.69414 6.51127
-0.931024 1.69302 6.50244
-0.953915 1.69724 6.51656
-0.974999 1.69509 6.50575
-0.994113 1.69189 6.49094
-1.01612 1.69289 6.49009
-1.02519 1.69076 6.48118
-1.04623 1.68969 6.47536
-1.06822 1.69072 6.47651
-1.08832 1.68856 6.46469
-1.11127 1.69166 6.47082
-1.13232 1.69057 6.46399
-1.15335 1.69053 6.46015
-1.1634 1.68843 6.45326
-1.18539 1.69046 6.45439
-1.20643 1.6894 6.44957
-1.36274 1.68691 6.40977
-1.69025 1.68813 6.34321
-1.71032 1.68699 6.33338
-2.0019 1.68705 6.25757
-2.19736 1.68728 6.19703
-2.22843 1.68717 6.18826
-2.24947 1.68811 6.18341
-2.26855 1.68696 6.17257
-2.2896 1.68687 6.16572
3.0244 1.68536 5.87967
3.0136 1.69075 5.90568
2.99671 1.69198 5.92079
2.97169 1.68896 5.91802
2.94566 1.68493 5.91528
2.93469 1.68498 5.91836
2.91881 1.68723 5.93445
2.90192 1.68845 5.94856
2.87893 1.6865 5.95076
2.85493 1.68452 5.95097
2.78515 1.684 5.98051
2.76317 1.68306 5.98369
0.0483218 1.68805 6.54515
0.0285593 1.69658 6.31014
0.00849023 1.69346 6.30133
-0.0123937 1.6977 6.31643
-0.0335469 1.69242 6.29666
-0.0434851 1.69454 6.30471
-0.0644995 1.69453 6.30287
-0.0854606 1.69562 6.30801
-0.105522 1.69351 6.30019
-0.127421 1.69772 6.31329
-0.147497 1.69459 6.30349
-0.168458 1.69668 6.30862
-0.178519 1.69457 6.30072
-0.199511 1.6946 6.30188
-0.22044 1.69775 6.31099
-0.240609 1.69143 6.28924
-0.261586 1.69249 6.29238
-0.282492 1.69669 6.30448
-0.302584 1.69352 6.29267
-0.313607 1.69249 6.28977
-0.334583 1.69355 6.29291
-0.354621 1.69249 6.28808
-0.375604 1.69353 6.29022
-0.39658 1.69459 6.29337
-0.416695 1.69039 6.27858
-0.427579 1.69562 6.29358
-0.448578 1.69563 6.29374
-0.469546 1.6977 6.29787
-0.489631 1.69456 6.28707
-0.50976 1.69032 6.27028
-0.530729 1.69239 6.27441
-0.551666 1.69453 6.28253
-0.561719 1.69343 6.27563
-0.583649 1.69658 6.28475
-0.603687 1.69552 6.27991
-0.624663 1.69658 6.28305
-0.644777 1.69337 6.26825
-0.665754 1.69443 6.27139
-0.687691 1.69757 6.27951
-0.697675 1.6986 6.28157
-0.719658 1.69965 6.28372
-0.739727 1.69753 6.27491
-0.76068 1.69964 6.28103
-0.781671 1.70067 6.28218
-0.802678 1.70167 6.28132
-0.824638 1.70376 6.28645
-0.835615 1.70481 6.28952
-0.855698 1.70266 6.2787
-0.89865 1.70578 6.28498
-0.917733 1.70363 6.27416
-0.938755 1.7036 6.27131
-0.958808 1.70251 6.26448
-0.967877 1.70039 6.25558
-0.987899 1.70036 6.25273
-1.00988 1.7014 6.25488
-1.02802 1.69715 6.23708
-1.04805 1.6971 6.23323
-1.07004 1.69813 6.23438
-1.09105 1.69912 6.23252
-1.09817 1.6949 6.21764
-1.11728 1.6917 6.20283
-1.1383 1.69268 6.20097
-1.15833 1.69264 6.19712
-1.17934 1.69262 6.19528
-1.19647 1.68838 6.17847
-1.22753 1.68829 6.1707
-1.24758 1.68721 6.16487
-1.26759 1.6882 6.163
-1.28861 1.68818 6.16116
-1.31155 1.6923 6.16828
-1.32771 1.68701 6.14747
-1.3387 1.68803 6.14854
-1.35779 1.68586 6.13672
-1.41789 1.68572 6.12417
-1.45992 1.68669 6.12047
-1.46898 1.68558 6.11255
-1.489 1.68555 6.1097
-1.51196 1.68864 6.11483
-1.52908 1.68541 6.09901
-1.54912 1.68535 6.09416
-1.57112 1.68637 6.09431
-1.58016 1.68529 6.08839
-1.6002 1.68523 6.08354
-1.62022 1.6862 6.08068
-1.64222 1.68721 6.08083
-1.6823 1.68708 6.07013
-1.71138 1.68695 6.06035
-1.73141 1.68689 6.0555
-1.77344 1.68886 6.05179
-1.79057 1.68563 6.03497
-1.81255 1.68769 6.0381
-1.83065 1.68551 6.02527
-1.84261 1.68757 6.02933
-1.86167 1.68748 6.02247
-1.88074 1.68635 6.01263
-1.9076 1.69364 6.03073
-1.92669 1.69147 6.0189
-1.94672 1.69243 6.01504
-1.96774 1.6934 6.01218
-1.97288 1.68914 5.99428
-1.99584 1.69223 5.99941
-2.01981 1.6953 6.00354
-2.03692 1.69209 5.98872
-2.0589 1.69514 5.99084
-2.07699 1.69297 5.97901
-2.09093 1.6961 5.98707
-2.11 1.69598 5.97821
-2.13298 1.69804 5.98135
-2.15203 1.69795 5.9745
-2.17109 1.69783 5.96564
-2.19018 1.69669 5.9548
-2.20923 1.6966 5.94795
-2.21534 1.69339 5.93404
-2.24127 1.69754 5.94317
-2.25642 1.69426 5.92333
-2.27645 1.6942 5.91848
-2.29551 1.6941 5.91063
-2.30871 1.68874 5.8858
-2.32384 1.68548 5.86796
3.08489 1.68338 5.5462
3.0751 1.68879 5.5732
3.06429 1.69416 5.5982
2.86008 1.69685 5.70372
2.84522 1.69913 5.7218
2.81916 1.69505 5.71505
2.80632 1.69837 5.7361
2.78027 1.6943 5.73036
2.75829 1.69234 5.73255
2.75136 1.69448 5.74158
2.7304 1.69357 5.74675
2.70841 1.69062 5.74896
2.69149 1.69179 5.76007
2.67563 1.69507 5.77814
2.65159 1.69101 5.77338
2.63674 1.6953 5.79243
2.6288 1.69643 5.80048
2.61089 1.69762 5.8126
2.59094 1.69672 5.81876
2.56995 1.69577 5.82093
2.55001 1.6959 5.82908
2.52395 1.6908 5.82135
2.50703 1.69198 5.83247
2.50013 1.69517 5.84547
2.47508 1.69009 5.83874
2.46021 1.69335 5.8558
2.44128 1.6935 5.86494
2.4193 1.69256 5.86812
2.39832 1.69162 5.8713
2.3914 1.69277 5.88133
2.36941 1.6918 5.88251
2.35047 1.69194 5.89065
2.3305 1.69102 5.89582
2.30852 1.69007 5.898
2.29264 1.69232 5.91409
2.27373 1.69349 5.92521
2.25864 1.68934 5.91439
2.24173 1.69153 5.92648
2.21974 1.68956 5.92768
2.20285 1.69178 5.94178
2.18188 1.69086 5.94595
2.16192 1.69096 5.9521
2.14196 1.69105 5.95725
2.13504 1.69322 5.96827
2.11407 1.69229 5.97244
2.09513 1.69241 5.97958
2.07212 1.69041 5.97879
2.05114 1.68947 5.98196
2.0363 1.69379 6.00301
2.0153 1.69281 6.00318
2.0043 1.69182 6.00328
1.98129 1.6898 6.00148
1.96441 1.69205 6.01758
1.94137 1.689 6.0128
1.92756 1.69436 6.03682
1.9035 1.69128 6.03005
1.89045 1.6882 6.02419
1.87255 1.6904 6.0373
1.85567 1.69364 6.05238
1.83365 1.69162 6.05057
1.81575 1.69383 6.06368
1.79271 1.69076 6.0579
1.77071 1.68877 6.05809
1.75384 1.69204 6.07517
1.74281 1.691 6.07227
1.71977 1.68793 6.06649
1.70188 1.69016 6.08159
1.68707 1.69553 6.10563
1.66198 1.69137 6.09388
1.63994 1.68831 6.08909
1.63101 1.69045 6.09813
1.60897 1.68739 6.09334
1.59004 1.68854 6.10246
1.57008 1.68964 6.1086
1.55012 1.68973 6.11375
1.52707 1.68566 6.10798
1.5123 1.6931 6.13699
1.49923 1.68998 6.12813
1.47717 1.68689 6.12134
1.45931 1.69117 6.13941
1.4352 1.68496 6.12469
1.41732 1.68921 6.14076
1.39838 1.69035 6.14889
1.37636 1.68732 6.1461
1.3664 1.6894 6.15114
1.34643 1.68949 6.15629
1.32439 1.68642 6.1505
1.30548 1.68861 6.16261
1.28551 1.68868 6.16676
1.26453 1.68773 6.16894
1.25453 1.68775 6.17001
1.23461 1.68991 6.18013
1.21568 1.69206 6.18924
1.19261 1.68794 6.18048
1.17056 1.68487 6.17469
1.15372 1.69018 6.19474
1.13167 1.6871 6.18895
1.12066 1.68608 6.18705
1.10279 1.69035 6.20412
1.07971 1.68622 6.19435
1.05975 1.6873 6.19949
1.03877 1.68736 6.20265
1.01883 1.68848 6.20978
0.999881 1.6896 6.21691
0.987819 1.68649 6.20904
0.967858 1.68758 6.21418
0.946888 1.68765 6.21834
0.926927 1.68874 6.22347
0.90695 1.6888 6.22662
0.887028 1.69096 6.23674
0.864974 1.68788 6.22995
0.856028 1.68999 6.23699
0.836082 1.6911 6.24412
0.812997 1.68696 6.23336
0.79409 1.69015 6.24546
0.773075 1.68913 6.24363
0.75209 1.68918 6.24579
0.742129 1.69026 6.25085
0.722129 1.68928 6.25101
0.702237 1.6935 6.2651
0.681183 1.69041 6.2583
0.661315 1.69467 6.27539
0.640299 1.69366 6.27357
0.619254 1.69159 6.26775
0.608231 1.69055 6.26485
0.588262 1.69162 6.26899
0.567285 1.69168 6.27214
0.547317 1.69276 6.27628
0.526356 1.69385 6.28142
0.505325 1.6918 6.27761
0.484318 1.6918 6.27677
0.474326 1.69183 6.27784
0.453349 1.69189 6.281
0.43448 1.69615 6.29808
0.412326 1.68987 6.27834
0.391319 1.68987 6.2775
0.371389 1.69202 6.28662
0.350382 1.69202 6.28578
0.340474 1.6952 6.2978
0.319436 1.69315 6.29299
0.298444 1.69318 6.29415
0.277422 1.69215 6.29132
0.257514 1.69534 6.30343
0.236553 1.69643 6.30857
0.226523 1.69538 6.30466
0.205554 1.69645 6.3088
0.184547 1.69645 6.30796
0.163509 1.69439 6.30315
0.143625 1.69863 6.31824
0.12251 1.69442 6.30346
0.101588 1.69758 6.31357
0.0915418 1.6955 6.30768
0.0707269 1.70187 6.33174
0.0495355 1.69552 6.30699
-0.793615 1.68487 6.02546
-0.833612 1.6869 6.02574
-0.844589 1.68795 6.0288
3.07126 1.68318 5.32928
3.06347 1.6896 5.35724
3.04655 1.68977 5.36837
3.03471 1.69408 5.3884
3.01171 1.69111 5.38962
2.99074 1.68918 5.3938
2.97991 1.6935 5.41482
2.96993 1.69255 5.41791
2.94185 1.68743 5.4082
2.92696 1.68864 5.4223
2.90498 1.6867 5.42549
2.87994 1.68265 5.42074
2.86506 1.6849 5.43682
2.84508 1.68296 5.44
2.83409 1.68198 5.4411
2.81414 1.68108 5.44726
2.79823 1.68227 5.45936
2.77521 1.67926 5.45758
2.71246 1.68079 5.49104
-0.810133 1.68689 5.82353
-0.831085 1.68999 5.82964
-0.8501 1.68998 5.82779
-0.869122 1.68995 5.82493
-0.88529 1.68463 5.80313
-0.895313 1.6836 5.80022
-0.914335 1.68357 5.79736
3.08434 1.67939 5.0742
3.07451 1.68474 5.0972
3.06773 1.69116 5.12516
3.02099 1.69371 5.16048
3.01 1.69273 5.16157
2.99105 1.69184 5.16773
2.97412 1.692 5.17786
2.9572 1.69317 5.18897
2.94331 1.69439 5.20306
2.92233 1.69243 5.20524
2.90828 1.68936 5.19939
2.88934 1.68849 5.20755
2.87241 1.68863 5.21668
2.8565 1.68982 5.22878
2.83246 1.68577 5.22402
2.81959 1.68903 5.24107
2.79557 1.685 5.23831
2.7876 1.68507 5.24237
2.76559 1.68208 5.24258
2.75273 1.68534 5.25963
2.72768 1.68029 5.2549
2.71176 1.68145 5.265
2.69281 1.68056 5.27216
2.67486 1.68067 5.27829
2.6659 1.68075 5.28336
2.65201 1.68298 5.29843
2.63 1.67998 5.29764
2.59717 1.68233 5.31986
2.55231 1.68163 5.33821
2.49543 1.67991 5.35467
2.47851 1.68107 5.36478
2.46157 1.68121 5.3739
2.45463 1.68232 5.38094
2.41569 1.68047 5.38926
2.39876 1.68161 5.39838
2.36185 1.68083 5.41167
2.30008 1.68231 5.44111
2.24421 1.68162 5.45955
2.04375 1.68181 5.53207
-0.802294 1.6836 5.6695
-0.830307 1.68459 5.6677
3.10391 1.67658 4.88507
3.10709 1.68292 4.90795
3.09421 1.68516 4.92402
3.08234 1.68742 4.94108
3.02881 1.69636 5.00236
3.01983 1.69642 5.00542
2.99883 1.69345 5.00663
2.98596 1.69671 5.02368
2.95991 1.69062 5.01696
2.93992 1.68867 5.01914
2.92603 1.69088 5.03322
2.91519 1.6952 5.05424
2.8981 1.68904 5.04245
2.88015 1.68815 5.0496
2.85713 1.68413 5.04684
2.84933 1.69052 5.0728
2.82834 1.68856 5.07499
2.81038 1.68765 5.08014
2.78939 1.68469 5.08234
2.78853 1.68996 5.10027
2.76247 1.68386 5.09256
2.7364 1.67775 5.08385
2.72657 1.68308 5.10584
2.7076 1.68217 5.111
2.68559 1.67816 5.10923
2.68067 1.68132 5.12022
2.65968 1.67837 5.12242
2.6468 1.6816 5.13747
2.63089 1.68279 5.14957
2.60887 1.67876 5.1468
2.58991 1.67785 5.15196
2.575 1.68005 5.16504
2.53013 1.67932 5.18139
2.51216 1.67841 5.18654
2.49625 1.67958 5.19764
2.48237 1.68283 5.2137
2.46035 1.6788 5.21093
2.43646 1.68004 5.22609
2.38159 1.67933 5.24352
2.33773 1.67965 5.26285
0.0364798 1.68562 5.50313
0.0183799 1.68144 5.49032
-0.000519147 1.68565 5.50341
-0.0185186 1.68566 5.50354
-0.0275027 1.6867 5.50559
-0.0455486 1.68462 5.49976
-0.0645399 1.68565 5.50089
-0.0825087 1.68672 5.50501
-0.100454 1.68884 5.51211
-0.118646 1.68148 5.48736
-0.137522 1.68674 5.50342
-0.145607 1.68358 5.49253
-0.163645 1.68152 5.48769
-0.182544 1.68572 5.50078
-0.200605 1.68362 5.49294
-0.219558 1.68572 5.49905
-0.237588 1.68467 5.4952
-0.255526 1.68781 5.5033
-0.264587 1.68569 5.49539
-0.283517 1.68884 5.50449
-0.300655 1.68359 5.4867
-0.319593 1.68572 5.49481
-0.336677 1.68357 5.48397
-0.357444 1.69303 5.51399
-0.363715 1.68152 5.4792
-0.383575 1.6878 5.49726
-0.401659 1.68465 5.48644
-0.419611 1.68775 5.49253
-0.437665 1.68566 5.4857
-0.456587 1.68882 5.49579
-0.473733 1.68355 5.477
-0.484593 1.68982 5.49499
-0.501708 1.68562 5.48018
-0.519708 1.68563 5.48031
-0.536776 1.68351 5.47147
-0.557613 1.69083 5.49252
-0.57379 1.6845 5.46974
-0.593673 1.68974 5.48481
-0.621618 1.69286 5.49198
-0.638725 1.68867 5.47817
-0.656785 1.68756 5.47032
-0.674785 1.68758 5.47045
-0.697536 1.69907 5.50246
-0.710852 1.68647 5.46174
-0.721728 1.69172 5.47775
-0.739727 1.69273 5.47787
-0.756819 1.68956 5.46604
-0.777725 1.69476 5.47812
-0.792886 1.68846 5.45733
-0.815661 1.6989 5.48635
-0.831792 1.69366 5.46955
-0.841729 1.69679 5.47757
-0.861697 1.69886 5.4817
-0.877789 1.6967 5.46985
-0.896796 1.69669 5.46899
-0.913848 1.6956 5.46213
-0.929971 1.69138 5.44632
-0.938994 1.69034 5.4434
-0.957 1.69134 5.44252
-0.975046 1.69026 5.43667
-0.990168 1.68604 5.42084
-1.01014 1.68811 5.42496
-1.02911 1.69017 5.42808
-1.04714 1.69012 5.42421
-1.0552 1.68803 5.4173
-1.07033 1.68379 5.40048
-1.08932 1.68481 5.40161
-1.10539 1.68368 5.39174
-1.12536 1.68575 5.39586
-1.15947 1.68355 5.38115
-1.18843 1.68666 5.38732
-1.20259 1.68136 5.36651
-1.2206 1.68235 5.36463
-1.35383 1.68199 5.33463
-1.39087 1.68294 5.3299
-1.43592 1.68385 5.32222
-1.48709 1.68156 5.30064
-1.53213 1.68251 5.29496
-1.83566 1.68866 5.22515
-1.85684 1.68334 5.20238
-1.9321 1.68087 5.16798
-1.96717 1.68177 5.15923
-1.98716 1.6838 5.16035
-2.00519 1.68473 5.15547
-2.0242 1.68673 5.15459
-2.04224 1.68667 5.14972
-2.04733 1.6835 5.13781
-2.06928 1.6876 5.14391
-2.09026 1.69065 5.14603
-2.10927 1.69265 5.14514
-2.14436 1.69349 5.13339
-2.1614 1.69343 5.12852
-2.17042 1.69339 5.12559
-2.18649 1.69327 5.11671
-2.20158 1.69111 5.10485
-2.22452 1.69623 5.11195
-2.2396 1.69407 5.10109
-2.25666 1.69398 5.09422
-2.27274 1.69283 5.08336
-2.26899 1.68336 5.05147
3.1488 1.67838 4.60366
3.13287 1.67854 4.61378
3.13402 1.68382 4.6327
2.80569 1.69532 4.85503
2.75486 1.6947 4.87843
2.69402 1.69205 4.89993
2.6571 1.69023 4.91023
2.64421 1.69246 4.9253
2.63523 1.6915 4.92738
2.60336 1.69279 4.94561
2.56338 1.68784 4.94798
2.55253 1.69215 4.968
2.5466 1.69429 4.97702
2.53169 1.69547 4.98911
2.5066 1.68932 4.97739
2.4927 1.69152 4.99047
2.47373 1.68961 4.99564
2.45576 1.68868 4.99979
2.44187 1.6919 5.01385
2.4339 1.69196 5.01791
2.41288 1.68793 5.01512
2.40611 1.69638 5.04505
2.38101 1.68922 5.03335
2.36204 1.68829 5.0375
2.3451 1.68841 5.04463
2.33018 1.68958 5.05573
2.32018 1.68859 5.05582
2.30527 1.68977 5.06691
2.28425 1.68675 5.06512
2.27036 1.68997 5.07917
2.25137 1.68801 5.08135
2.24259 1.69543 5.10931
2.2185 1.68929 5.09858
2.20341 1.68412 5.08677
2.19358 1.68947 5.10977
2.16949 1.68331 5.09804
2.15561 1.68656 5.11409
2.14376 1.69085 5.13312
2.12173 1.6878 5.12933
2.1068 1.68896 5.13943
2.09274 1.68484 5.1306
2.0819 1.69017 5.1526
2.05677 1.68194 5.13591
2.04291 1.68622 5.15395
2.02289 1.68319 5.15115
2.00797 1.68536 5.16223
2.00002 1.68647 5.16928
1.98409 1.6876 5.17738
1.96409 1.68563 5.17856
1.94508 1.68263 5.17775
1.92814 1.68374 5.18486
1.91734 1.69114 5.21084
1.8963 1.68708 5.20605
1.88422 1.68294 5.1962
1.87035 1.6862 5.21326
1.85135 1.68521 5.21342
1.83441 1.68535 5.22155
1.81953 1.68858 5.23661
1.79641 1.68237 5.22188
1.77846 1.68247 5.22801
1.77459 1.68673 5.24498
1.75766 1.68887 5.25408
1.73864 1.68586 5.25227
1.72273 1.68803 5.26335
1.70373 1.68706 5.26451
1.68268 1.68297 5.25773
1.6647 1.68203 5.26088
1.65776 1.68416 5.2689
1.63878 1.6832 5.27106
1.62592 1.68749 5.2901
1.60486 1.68339 5.28231
1.58897 1.6866 5.29639
1.56995 1.68459 5.29456
1.5589 1.68149 5.28769
1.54815 1.69097 5.31963
1.52398 1.68168 5.29895
1.50704 1.6828 5.30606
1.49011 1.68496 5.31616
1.47625 1.68922 5.3332
1.45417 1.68409 5.32344
1.44516 1.68308 5.32253
1.43234 1.69044 5.34652
1.40818 1.68115 5.32584
1.39124 1.68228 5.33395
1.37741 1.6886 5.35496
1.35841 1.68762 5.35512
1.33834 1.6825 5.34634
1.33247 1.68775 5.36331
1.31241 1.68467 5.35651
