-4.93627 -0.457999 11.4865
-4.93703 -0.456509 11.3845
-4.92108 -0.455579 11.2454
-4.91396 -0.454317 11.1283
-4.88976 -0.452905 11.022
-4.88064 -0.451659 10.9039
-4.86856 -0.450475 10.7818
-4.8673 -0.448927 10.6838
-4.8611 -0.447502 10.5777
-4.84997 -0.446228 10.4616
-4.8467 -0.445667 10.3645
-4.81225 -0.442743 10.1582
-4.80896 -0.442152 10.0631
-4.80171 -0.440639 9.96306
-4.79051 -0.439217 9.85694
-4.79014 -0.438461 9.77291
-4.77597 -0.437101 9.66277
-4.73762 -0.433357 9.30938
-4.72834 -0.432771 9.21428
-4.72298 -0.432033 9.12922
-4.71366 -0.430388 9.03811
-4.62304 -0.419983 8.05614
-4.52624 -0.409197 6.9651
-4.52365 -0.409014 6.91007
-4.52107 -0.40883 6.85504
-4.51748 -0.407648 6.79999
-4.3593 -0.393015 5.09335
-4.35461 -0.392611 5.0533
-4.33889 -0.391155 4.88214
-4.32872 -0.389791 4.77202
-4.31591 -0.389141 4.6139
-4.31316 -0.388631 4.58086
-4.31041 -0.388137 4.54683
-4.29456 -0.387414 4.39368
-4.29181 -0.386905 4.36065
-4.29235 -0.386971 4.28864
-4.27889 -0.386047 4.21652
-4.2721 -0.385422 4.05643
-4.27825 -0.384714 4.03647
-4.26059 -0.384393 3.99132
-4.2727 -0.384606 3.97642
-4.24938 -0.383956 3.88622
-4.24221 -0.38359 3.77614
-4.24229 -0.382768 3.76413
-4.24348 -0.383138 3.73914
-4.24466 -0.383492 3.71515
-4.23691 -0.382987 3.68208
-4.24206 -0.383279 3.66212
-4.24027 -0.38268 3.6351
-4.23845 -0.383052 3.61008
-4.23657 -0.382275 3.59506
-4.23774 -0.382615 3.57207
-4.23196 -0.382049 3.54301
-4.2232 -0.381529 3.51093
-4.22356 -0.38224 3.46294
-4.22572 -0.381549 3.44194
-4.21687 -0.381852 3.42188
-4.21506 -0.381223 3.39685
-4.21623 -0.381563 3.37386
-4.21044 -0.380982 3.34581
-4.21161 -0.381307 3.32382
-4.21376 -0.380616 3.30282
-4.20201 -0.381114 3.26973
-4.20309 -0.380261 3.25973
-4.20343 -0.380927 3.21473
-4.19366 -0.380393 3.18365
-4.19813 -0.380308 3.12167
-4.17964 -0.379344 3.05251
-4.17881 -0.37967 3.0305
-4.17798 -0.379997 3.0085
-4.18112 -0.379276 2.98951
-4.18327 -0.37957 2.96953
-4.17539 -0.379813 2.95347
-4.17455 -0.37914 2.93145
-4.17685 -0.379715 2.89247
-4.17402 -0.379058 2.86944
-4.17518 -0.379368 2.84845
-4.16828 -0.378581 2.83438
-4.15833 -0.378646 2.69529
-4.15748 -0.378943 2.67528
-4.15365 -0.378272 2.65324
-4.15295 -0.378865 2.61324
-4.14926 -0.378475 2.5722
-4.13867 -0.378297 2.51711
-4.13881 -0.377578 2.4981
-4.13796 -0.37786 2.47909
-4.14108 -0.37811 2.46212
-4.13646 -0.377854 2.41207
-4.12963 -0.378199 2.38902
-4.12778 -0.377482 2.37
-4.12792 -0.377763 2.351
-4.12606 -0.378046 2.33199
-4.11631 -0.377542 2.2989
-4.1254 -0.377713 2.28697
-4.11213 -0.377159 2.18985
-4.11433 -0.377543 2.16387
-4.11246 -0.37781 2.14586
-4.10091 -0.377693 2.08676
-4.10508 -0.37703 2.06378
-4.09525 -0.377378 2.0407
-4.08723 -0.377309 1.91063
-4.09034 -0.377529 1.89565
-4.97668 -0.399955 11.825
-4.9 -0.394452 10.9843
-4.83456 -0.389444 10.2446
-4.82733 -0.38896 10.1425
-4.77988 -0.385985 9.67004
-4.77356 -0.385337 9.57897
-4.76921 -0.384614 9.49292
-4.72443 -0.381986 9.06448
-4.72004 -0.381188 8.98343
-4.71662 -0.380331 8.90638
-4.71024 -0.38055 8.82432
-4.66566 -0.378352 8.50191
-4.67306 -0.378146 8.44795
-4.66564 -0.377292 8.37087
-4.66218 -0.377346 8.29984
-4.64112 -0.375182 8.04161
-4.63071 -0.37436 7.96251
-4.55869 -0.370172 7.1678
-4.55315 -0.370094 7.10575
-4.42032 -0.362169 5.62042
-4.25503 -0.355273 3.79682
-4.25523 -0.355658 3.77083
-4.19122 -0.354524 3.10724
-4.1884 -0.353896 3.0822
-4.18628 -0.35463 2.96518
-4.16026 -0.354544 2.70195
-5.02379 -0.300424 12.466
-5.0119 -0.300624 12.3179
-4.99899 -0.300781 12.1728
-4.99198 -0.300726 12.0417
-4.98493 -0.300612 11.9146
-4.97593 -0.300574 11.7825
-4.93684 -0.300364 11.5282
-4.92877 -0.301191 11.4051
-4.92068 -0.301004 11.2831
-4.9165 -0.300621 11.174
-4.90938 -0.301359 11.057
-4.90027 -0.301113 10.9389
-4.8731 -0.300762 10.8286
-4.86396 -0.300457 10.7146
-4.86072 -0.300955 10.6135
-4.85451 -0.301515 10.5085
-4.84437 -0.30121 10.3944
-4.83618 -0.300816 10.2863
-4.83091 -0.301256 10.1892
-4.8096 -0.301619 10.0981
-4.80531 -0.301029 10.003
-4.7951 -0.301592 9.89794
-4.7898 -0.300973 9.80488
-4.78352 -0.301384 9.70982
-4.78116 -0.301645 9.6248
-4.77092 -0.301148 9.5237
-4.7525 -0.301317 9.44555
-4.74323 -0.301745 9.34947
-4.74084 -0.301946 9.26845
-4.72957 -0.301391 9.17134
-4.73011 -0.301457 9.09934
-4.72475 -0.30172 9.01429
-4.71838 -0.301968 8.93023
-4.695 -0.3022 8.84805
-4.69551 -0.302207 8.78004
-4.68078 -0.30269 8.4779
-4.67239 -0.302895 8.39683
-4.6539 -0.301901 8.32966
-4.65043 -0.302955 8.25864
-4.64302 -0.302116 8.18056
-4.6425 -0.303064 8.11657
-4.6331 -0.302241 8.03747
-4.63158 -0.30319 7.97347
-4.54619 -0.303269 7.0937
-4.53749 -0.303853 7.05464
-4.53492 -0.303699 6.99761
-4.53628 -0.303409 6.94961
-4.53271 -0.304256 6.89259
-4.52912 -0.304073 6.83755
-4.52356 -0.303936 6.7795
-4.51602 -0.303845 6.71843
-4.50433 -0.304475 6.67635
-4.49876 -0.304309 6.6203
-4.49021 -0.304203 6.56022
-4.49649 -0.304747 6.52327
-4.49091 -0.30458 6.46722
-4.41627 -0.306148 5.62156
-4.402 -0.305595 5.52443
-4.39365 -0.305875 5.43836
-4.38686 -0.306295 5.41031
-4.38713 -0.305828 5.3743
-4.38146 -0.306483 5.33027
-4.38172 -0.306002 5.29526
-4.38596 -0.306472 5.26329
-4.37236 -0.306252 5.21118
-4.36582 -0.307175 5.14913
-4.35966 -0.306824 5.03807
-4.34902 -0.307542 4.98999
-4.34531 -0.307108 4.95195
-4.34443 -0.30736 4.93495
-4.33799 -0.307461 4.86089
-4.32707 -0.307586 4.71779
-4.29465 -0.30869 4.37451
-4.29089 -0.309166 4.34249
-4.27619 -0.308739 4.16935
-4.27542 -0.309184 4.13934
-4.26967 -0.309677 4.1063
-4.27483 -0.309999 4.08434
-4.26047 -0.309253 4.00021
-4.25689 -0.310085 3.94419
-4.2561 -0.3105 3.91619
-4.25044 -0.310171 3.87113
-4.22083 -0.310902 3.55288
-4.21902 -0.311273 3.52786
-4.21929 -0.311806 3.49187
-4.21649 -0.311208 3.46484
-4.21171 -0.311626 3.4368
-4.20907 -0.312354 3.38779
-4.20419 -0.311579 3.37274
-4.19494 -0.312067 3.27266
-4.20207 -0.312314 3.25571
-4.20025 -0.31267 3.2317
-4.1894 -0.312974 3.21162
-4.18758 -0.312331 3.1876
-4.18775 -0.312657 3.1656
-4.18294 -0.313045 3.13956
-4.19901 -0.313167 3.13069
-4.18443 -0.313007 3.07457
-4.17886 -0.313855 3.01753
-4.1762 -0.313524 2.9725
-4.17973 -0.314572 2.90153
-4.14284 -0.315701 2.48921
-4.11031 -0.316627 2.29295
-4.12352 -0.317032 2.26506
-4.09997 -0.317923 2.20588
-4.10521 -0.317393 2.17391
-4.10049 -0.317959 2.13588
-4.08999 -0.317944 2.06979
-4.08925 -0.318463 2.03479
-4.09635 -0.31865 2.02184
-4.98338 -0.233583 11.8486
-4.73415 -0.247608 9.08857
-4.72188 -0.248054 8.99147
-4.70275 -0.24974 8.74332
-4.68649 -0.250203 8.64519
-4.67047 -0.25211 8.38206
-4.64646 -0.253052 8.11686
-4.63706 -0.253228 8.03778
-4.63652 -0.254132 7.97678
-4.54218 -0.259292 7.09202
-4.51565 -0.262138 6.6308
-4.50035 -0.262526 6.53768
-4.50069 -0.262208 6.49167
-4.4078 -0.26824 5.54793
-4.40834 -0.268321 5.47492
-4.39346 -0.269523 5.32681
-4.39373 -0.270056 5.29081
-4.38633 -0.270246 5.21075
-4.37237 -0.2713 5.07264
-4.36 -0.271538 4.98954
-4.35515 -0.272807 4.8365
-4.35044 -0.273374 4.79847
-4.34298 -0.273445 4.7264
-4.33662 -0.274709 4.64136
-4.31727 -0.275966 4.4222
-4.31452 -0.275457 4.38917
-4.30326 -0.276916 4.2911
-4.29386 -0.277108 4.21102
-4.27297 -0.279269 3.93085
-4.24225 -0.279824 3.75961
-4.25039 -0.280085 3.74167
-4.2458 -0.280888 3.68764
-4.23118 -0.280653 3.63652
-4.23831 -0.2809 3.61957
-4.24147 -0.281209 3.5986
-4.23371 -0.281688 3.56654
-4.2319 -0.282075 3.54053
-4.23018 -0.282624 3.50352
-4.22837 -0.281995 3.47849
-4.22656 -0.282367 3.45348
-4.22177 -0.282785 3.42545
-4.214 -0.283235 3.39539
-4.21318 -0.283591 3.37139
-4.20639 -0.283025 3.34232
-4.20367 -0.28356 3.30631
-4.20085 -0.283933 3.28129
-4.20301 -0.284242 3.26031
-4.20517 -0.284551 3.23932
-4.1944 -0.284018 3.20823
-4.19755 -0.284297 3.18926
-4.19365 -0.284508 3.17523
-4.20476 -0.284707 3.16131
-4.19065 -0.285479 3.0422
-4.18477 -0.285706 3.02716
-4.17399 -0.286143 2.99808
-4.18011 -0.28639 2.98113
-4.17729 -0.286733 2.95811
-4.18242 -0.286981 2.94115
-4.17064 -0.286434 2.91105
-4.17079 -0.28673 2.89105
-4.1571 -0.287347 2.84995
-4.15357 -0.287283 2.78691
-4.14897 -0.288071 2.73388
-4.13046 -0.290002 2.53675
-5.09983 -0.124881 13.2411
-4.98388 -0.13975 12.0393
-4.97782 -0.140605 11.9142
-4.96194 -0.142823 11.7651
-4.90448 -0.14978 11.1627
-4.8954 -0.151593 11.0406
-4.88726 -0.152302 10.9256
-4.84644 -0.157566 10.5043
-4.83432 -0.159307 10.3872
-4.82711 -0.159867 10.2821
-4.82185 -0.161322 10.1841
-4.76325 -0.168013 9.59968
-4.54799 -0.157062 7.10655
-4.4234 -0.181572 5.59177
-4.26006 -0.210522 3.77872
-4.21371 -0.218723 3.29442
-4.19409 -0.221447 3.11129
-4.19342 -0.222099 3.06729
-4.16598 -0.228154 2.72712
-4.14476 -0.231664 2.49098
-4.1184 -0.234896 2.2738
-4.11687 -0.235831 2.2108
-4.10789 -0.237836 2.07574
-5.03608 0.0195571 12.5294
-5.02418 0.0153867 12.3833
-5.01326 0.0122465 12.2393
-5.00037 0.00907522 12.0932
-4.99432 0.00619032 11.9662
-4.97138 0.000131263 11.693
-4.95212 -0.00233384 11.5949
-4.93228 -0.00562861 11.4408
-4.92616 -0.00836548 11.3238
-4.922 -0.0100122 11.2128
-4.91094 -0.0128563 11.0887
-4.90479 -0.015534 10.9757
-4.87046 -0.0208461 10.7535
-4.86822 -0.0233285 10.6535
-4.86103 -0.024933 10.5454
-4.85088 -0.0275987 10.4334
-4.83975 -0.0303244 10.3173
-4.83252 -0.03284 10.2153
-4.82529 -0.0353556 10.1133
-4.80592 -0.0366136 10.0291
-4.80065 -0.0390537 9.9321
-4.78749 -0.0417068 9.82102
-4.77925 -0.0441935 9.72099
-4.7818 -0.0452874 9.64701
-4.76468 -0.0480175 9.53091
-4.76427 -0.0501727 9.45292
-4.72728 -0.0561532 9.1857
-4.72389 -0.0573551 9.10468
-4.71951 -0.0595724 9.02267
-4.71413 -0.0608054 8.93963
-4.65633 -0.0730803 8.3833
-4.62143 -0.0822062 7.97112
-4.53646 -0.103054 7.03966
-4.53073 -0.103591 7.00362
-4.52554 -0.106194 6.8956
-4.52493 -0.106964 6.8436
-4.51937 -0.108827 6.78558
-4.51775 -0.109583 6.73457
-4.51219 -0.111446 6.67655
-4.49754 -0.112138 6.63044
-4.50581 -0.112665 6.59451
-4.49726 -0.114545 6.53546
-4.49365 -0.115318 6.48344
-4.49597 -0.115953 6.44046
-4.48345 -0.117909 6.37639
-4.41143 -0.134689 5.58398
-4.4127 -0.135221 5.548
-4.39911 -0.137046 5.49291
-4.4093 -0.137408 5.46799
-4.39657 -0.137951 5.4319
-4.39189 -0.138576 5.38987
-4.39612 -0.140032 5.35892
-4.38848 -0.140733 5.31186
-4.38407 -0.141892 5.23384
-4.37343 -0.14361 5.18577
-4.38347 -0.143692 5.17985
-4.37878 -0.144302 5.13882
-4.37409 -0.144913 5.09779
-4.36939 -0.146508 5.05777
-4.37063 -0.146981 5.02578
-4.36693 -0.147561 4.98676
-4.35145 -0.149594 4.91766
-4.35368 -0.150052 4.88668
-4.34599 -0.150665 4.84562
-4.33558 -0.152827 4.76757
-4.3311 -0.153852 4.69854
-4.33419 -0.154027 4.68656
-4.32749 -0.15461 4.64752
-4.33268 -0.154991 4.62156
-4.32994 -0.156496 4.58755
-4.32918 -0.156971 4.55555
-4.31652 -0.157646 4.51046
-4.31068 -0.157962 4.48942
-4.30694 -0.159483 4.45441
-4.30517 -0.159943 4.4234
-4.29845 -0.160496 4.38635
-4.30462 -0.160817 4.3644
-4.29691 -0.1614 4.32534
-4.29911 -0.162783 4.29938
-4.2893 -0.163161 4.2743
-4.28455 -0.163668 4.24027
-4.28696 -0.164466 4.18629
-4.27824 -0.16502 4.14923
-4.28241 -0.166357 4.12628
-4.27469 -0.166911 4.08922
-4.27578 -0.167088 4.07723
-4.26924 -0.167996 4.01619
-4.25973 -0.16995 3.95214
-4.25992 -0.170335 3.92614
-4.2621 -0.170689 3.90216
-4.25128 -0.171052 3.87808
-4.22168 -0.177782 3.55991
-4.21553 -0.18046 3.44689
-4.21093 -0.181233 3.39486
-4.20414 -0.181668 3.36581
-4.20423 -0.181845 3.35381
-4.19333 -0.185 3.20876
-4.18977 -0.185877 3.14973
-4.19225 -0.187808 3.08677
-4.16912 -0.189527 2.97161
-4.15636 -0.19298 2.80654
-5.02006 0.0995077 12.391
-5.00814 0.0963816 12.248
-5.00014 0.0924066 12.115
-4.9872 0.0883094 11.9739
-4.9782 0.0843485 11.8419
-4.97113 0.0805221 11.7189
-4.95718 0.0774538 11.5798
-4.93203 0.0737624 11.4666
-4.92295 0.0699494 11.3446
-4.91682 0.0672421 11.2296
-4.91461 0.0636859 11.1246
-4.90649 0.0609624 11.0086
-4.89539 0.0571776 10.8885
-4.8902 0.0545895 10.7815
-4.86497 0.0510609 10.6794
-4.85974 0.048532 10.5763
-4.85157 0.0458973 10.4663
-4.84337 0.0423219 10.3603
-4.83517 0.0397464 10.2542
-4.82694 0.0372301 10.1522
-4.79935 0.031456 9.96605
-4.79209 0.0289997 9.86802
-4.78876 0.0266794 9.77902
-4.77657 0.0230863 9.67196
-4.77222 0.020795 9.58495
-4.76985 0.0185643 9.50196
-4.73187 0.0105685 9.23375
-4.72113 0.006088 9.06671
-4.71182 0.003719 8.97467
-4.70741 0.00156088 8.89665
-4.65547 -0.0134429 8.35841
-4.62502 -0.0224697 8.02027
-4.61856 -0.0245405 7.94824
-4.52456 -0.0543038 6.88783
-4.50884 -0.0588324 6.71775
-4.39237 -0.092618 5.4542
-4.111 -0.172198 2.32082
-5.0018 0.18696 12.1516
-4.98692 0.181743 12.0025
-4.9799 0.176828 11.8735
-4.97088 0.172897 11.7435
-4.96283 0.168026 11.6175
-4.95084 0.164033 11.4834
-4.92568 0.159371 11.3723
-4.92151 0.155725 11.2613
-4.91538 0.152017 11.1463
-4.90532 0.147174 11.0223
-4.89915 0.143541 10.9123
-4.86157 0.132776 10.5921
-4.85636 0.129217 10.4871
-4.84817 0.124613 10.3791
-4.84096 0.121067 10.2751
-4.83374 0.117537 10.1721
-4.79889 0.108277 9.8859
-4.7946 0.104897 9.7929
-4.78437 0.101365 9.68987
-4.77808 0.0979833 9.59686
-4.76881 0.0945404 9.49982
-4.76348 0.0912188 9.41082
-4.76012 0.0889578 9.32582
-4.73577 0.0856668 9.23967
-4.73141 0.0824052 9.15467
-4.72801 0.080233 9.07567
-4.72659 0.077092 8.99869
-4.7153 0.073692 8.90465
-4.70893 0.0714436 8.82062
-4.67079 0.0578045 8.44148
-4.67029 0.0558269 8.3755
-4.6629 0.053637 8.29546
-4.6614 0.0506588 8.22949
-4.64487 0.048714 8.16638
-4.64435 0.046766 8.1024
-4.63593 0.0436199 8.02537
-4.54766 0.0133636 7.13403
-4.55496 0.0127766 7.09409
-4.53814 0.0074546 6.93802
-4.52999 0.00377558 6.825
-4.52145 0.000866302 6.76397
-4.51329 -0.00278311 6.65295
-4.50771 -0.00461631 6.59692
-4.50195 -0.00509436 6.56488
-4.5023 -0.00677517 6.5189
-4.49771 -0.00857803 6.46489
-4.49607 -0.0102899 6.41689
-4.41349 -0.0389351 5.56658
-4.41108 -0.0411065 5.48758
-4.39579 -0.0445094 5.3935
-4.37892 -0.0487278 5.24442
-4.3817 -0.0522508 5.14148
-4.37093 -0.0537176 5.11041
-4.37416 -0.0541743 5.07944
-4.37046 -0.0557544 5.04043
-4.37071 -0.0562577 5.00644
-4.36006 -0.0579465 4.96037
-4.36428 -0.0593727 4.93142
-4.35957 -0.0599389 4.89339
-4.33888 -0.0615758 4.85125
-4.34309 -0.0629724 4.8243
-4.35225 -0.0632915 4.80237
-4.33886 -0.0654858 4.72229
-4.32917 -0.0671147 4.68024
-4.31961 -0.0689804 4.62219
-4.32481 -0.0703615 4.59624
-4.31513 -0.0709905 4.55417
-4.31932 -0.0723723 4.52822
-4.32351 -0.0727395 4.50325
-4.30787 -0.0744615 4.45516
-4.31206 -0.0748287 4.43019
-4.30049 -0.076681 4.37312
-4.28903 -0.0797405 4.30207
-4.2952 -0.0800766 4.27912
-4.28372 -0.0821066 4.21005
-4.28779 -0.0822369 4.20108
-4.27573 -0.0860965 4.07603
-4.26799 -0.0876055 4.04199
-4.26225 -0.0881132 4.00795
-4.26453 -0.0896741 3.96999
-4.25877 -0.0901521 3.93795
-4.25302 -0.0916449 3.90492
-4.2562 -0.0919831 3.88195
-4.25044 -0.0934611 3.84992
-4.20418 -0.108839 3.35373
-4.20536 -0.109178 3.33074
-4.19403 -0.111504 3.24168
-4.18981 -0.115047 3.13769
-4.18898 -0.115374 3.11568
-4.17572 -0.118834 3.01762
-4.16564 -0.121663 2.89457
-4.17077 -0.122911 2.87762
-4.15992 -0.1232 2.85854
-4.16106 -0.123481 2.83955
-4.15341 -0.125167 2.79351
-4.15555 -0.125447 2.77453
-4.15188 -0.127086 2.73152
-4.15309 -0.127515 2.70253
-4.14245 -0.129218 2.65547
-4.13592 -0.131156 2.59244
-4.1512 -0.131693 2.55556
-4.12947 -0.133227 2.52041
-4.12392 -0.134119 2.46038
-4.1429 -0.134061 2.46352
-4.12043 -0.136114 2.39337
-4.11373 -0.137726 2.35234
-4.11786 -0.13796 2.33637
-4.11095 -0.138157 2.32332
-4.11123 -0.13969 2.28734
-4.1085 -0.14024 2.25032
-4.10466 -0.140554 2.2293
-4.10081 -0.141852 2.20928
-4.09988 -0.141986 2.20028
-4.10101 -0.142237 2.18329
-4.0953 -0.142819 2.14425
-4.09556 -0.144322 2.11027
-4.09071 -0.144622 2.09023
-4.09078 -0.144755 2.08123
-4.0929 -0.14499 2.06525
-4.09701 -0.14521 2.05028
-4.08718 -0.146542 2.02823
-4.09029 -0.146762 2.01325
-4.087 -0.149157 1.91925
-4.66474 0.10387 8.31074
-4.65286 0.0986699 8.1627
-4.51379 0.0371762 6.58235
-4.41962 -0.0012309 5.54606
-4.41692 -0.00283988 5.50506
-4.40744 -0.00585351 5.43703
-4.40672 -0.00641674 5.39902
-4.38739 -0.0147028 5.17797
-4.3827 -0.0162985 5.13795
-4.37999 -0.0178778 5.09895
-4.37356 -0.0209929 5.02394
-4.35436 -0.0245763 4.91783
-4.33848 -0.0297939 4.76877
-4.34566 -0.031144 4.74484
-4.32519 -0.0331953 4.67471
-4.33435 -0.0344995 4.65379
-4.31895 -0.0366804 4.5747
-4.33207 -0.0369078 4.5588
-4.31654 -0.0398518 4.49571
-4.3031 -0.0429572 4.42165
-4.30652 -0.044769 4.36669
-4.30198 -0.0466903 4.30468
-4.29933 -0.0483733 4.25868
-4.2938 -0.0502953 4.19666
-4.28429 -0.0522646 4.13161
-4.28162 -0.053918 4.0876
-4.26516 -0.0569812 4.01651
-4.27747 -0.0575793 3.97561
-4.26128 -0.06219 3.86754
-4.2575 -0.0626222 3.83852
-4.25373 -0.0640691 3.80851
-4.23949 -0.0675748 3.70744
-4.24167 -0.0679138 3.68445
-4.24285 -0.0692683 3.66048
-4.23608 -0.0707321 3.62945
-4.22634 -0.0712427 3.59538
-4.2267 -0.0729531 3.5474
-4.23274 -0.0730376 3.54144
-4.22596 -0.0744718 3.51241
-4.22335 -0.0762288 3.46141
-4.22451 -0.0765537 3.43942
-4.21079 -0.0780967 3.40333
-4.21204 -0.0785845 3.37035
-4.20642 -0.0803437 3.31932
-4.20659 -0.0816692 3.29734
-4.19898 -0.0834446 3.2453
-4.19508 -0.0836548 3.23127
-4.19824 -0.0839487 3.2113
-4.19905 -0.0875471 3.10334
-4.18653 -0.0905037 3.03928
-4.18685 -0.0911254 2.99729
-4.17806 -0.0925463 2.96924
-4.17524 -0.092889 2.94622
-4.17432 -0.0930525 2.93522
-4.18243 -0.0942686 2.92029
-4.1627 -0.095816 2.88416
-4.17379 -0.0949857 2.87223
-4.16301 -0.0964081 2.84417
-4.16813 -0.0966561 2.82721
-4.16332 -0.0980149 2.80319
-4.15543 -0.0982427 2.78813
-4.15459 -0.0985543 2.76712
-4.14976 -0.0998983 2.74411
-4.15787 -0.1001 2.73017
-4.14608 -0.101523 2.7021
-4.14722 -0.101803 2.68311
-4.15135 -0.102052 2.66614
-4.14445 -0.102264 2.65209
-4.14261 -0.103577 2.63109
-4.14475 -0.103842 2.61311
-4.13921 -0.105749 2.55209
-4.14234 -0.105998 2.53511
-4.12762 -0.107572 2.49702
-4.13686 -0.108024 2.46609
-4.13202 -0.109353 2.44407
-4.12421 -0.109714 2.42001
-4.12733 -0.109949 2.40404
-4.12441 -0.111114 2.39303
-4.12156 -0.111412 2.37301
-4.11971 -0.111709 2.353
-4.11898 -0.113243 2.31701
-4.11216 -0.113588 2.29396
-4.11328 -0.114839 2.27699
-4.10638 -0.115022 2.26494
-4.10651 -0.115288 2.24694
-4.10764 -0.115539 2.22995
-4.10678 -0.116821 2.21096
-4.10393 -0.117105 2.19194
-4.10107 -0.117388 2.17292
-4.09815 -0.117538 2.1629
-4.09442 -0.119089 2.12589
-4.09555 -0.11934 2.1089
-4.09269 -0.120608 2.09089
-4.10178 -0.119779 2.07895
-4.09494 -0.121095 2.05791
-4.09301 -0.12123 2.0489
-4.09413 -0.121481 2.03191
-4.09227 -0.122749 2.01391
-4.08741 -0.123034 1.99487
-4.09053 -0.123253 1.9799
-4.99807 0.327262 11.9684
-4.93066 0.293257 11.2283
-4.91961 0.288384 11.1023
-4.86055 0.258673 10.4492
-4.85236 0.253068 10.3412
-4.7968 0.227338 9.7541
-4.78225 0.218484 9.5621
-4.74289 0.202274 9.21199
-4.74147 0.199148 9.13602
-4.73218 0.19475 9.042
-4.72088 0.190365 8.94897
-4.71208 0.184004 8.78997
-4.67001 0.166244 8.40287
-4.6626 0.163084 8.32485
-4.66012 0.160061 8.25586
-4.63617 0.153985 8.11675
-4.63466 0.151022 8.05178
-4.63413 0.148104 7.98981
-4.53536 0.105864 7.03256
-4.54561 0.104368 6.99865
-4.53413 0.101338 6.9296
-4.51691 0.0968151 6.82752
-4.51134 0.0939524 6.76952
-4.51072 0.0922117 6.71953
-4.50516 0.089349 6.66152
-4.50254 0.087592 6.61052
-4.49894 0.0858195 6.55851
-4.49121 0.083281 6.52249
-4.48859 0.081524 6.47149
-4.39831 0.0383275 5.44931
-4.39859 0.0367948 5.41332
-4.39392 0.0351399 5.36931
-4.39815 0.0336841 5.33836
-4.38442 0.0321559 5.30327
-4.37577 0.0294538 5.25624
-4.37703 0.0289513 5.22225
-4.37631 0.027403 5.18526
-4.37162 0.0257925 5.14425
-4.3689 0.024228 5.10624
-4.36111 0.0228226 5.0792
-4.35641 0.021227 5.03919
-4.35369 0.0196772 5.00218
-4.35593 0.0182051 4.97022
-4.34826 0.0165629 4.92718
-4.35049 0.0151055 4.89621
-4.34975 0.0136016 4.86222
-4.33623 0.0106443 4.79816
-4.33152 0.00907828 4.76014
-4.33176 0.00760471 4.72816
-4.32705 0.00603869 4.69014
-4.32727 0.00559462 4.66015
-4.32751 0.00412105 4.62816
-4.31771 0.00272901 4.60211
-4.32192 0.00233226 4.57514
-4.31322 -0.000266177 4.53511
-4.30749 -0.00180332 4.49908
-4.31367 -0.00215422 4.47513
-4.31191 -0.00362924 4.44314
-4.30718 -0.00515086 4.40812
-4.30652 -0.00683239 4.36213
-4.29384 -0.00846346 4.32005
-4.29704 -0.00984603 4.2941
-4.30023 -0.0102139 4.26912
-4.29251 -0.0117673 4.23208
-4.28875 -0.0132438 4.20007
-4.28885 -0.013451 4.18607
-4.28233 -0.0163885 4.12306
-4.27956 -0.0178494 4.09205
-4.28174 -0.0182032 4.06807
-4.276 -0.0197108 4.03405
-4.28017 -0.0200483 4.01108
-4.25765 -0.0229974 3.94795
-4.2638 -0.024289 3.92801
-4.25607 -0.0258128 3.89297
-4.25427 -0.0262139 3.86596
-4.25347 -0.0276142 3.83897
-4.24701 -0.03067 3.76795
-4.23926 -0.0321642 3.73491
-4.23367 -0.0339826 3.67989
-4.23713 -0.0358685 3.61994
-4.23153 -0.0376573 3.56691
-4.22675 -0.0391049 3.53689
-4.22197 -0.0405229 3.50888
-4.23216 -0.0409005 3.48295
-4.21446 -0.0435054 3.44285
-4.21067 -0.043908 3.41583
-4.22574 -0.0440451 3.40594
-4.21202 -0.0455881 3.36986
-4.21417 -0.0458975 3.34887
-4.21932 -0.047175 3.32993
-4.19871 -0.0489599 3.27779
-4.19888 -0.0502854 3.25581
-4.20103 -0.0505948 3.23483
-4.19524 -0.0519988 3.2078
-4.19938 -0.0522771 3.18884
-4.17759 -0.0586618 3.02874
-4.14879 -0.0689912 2.73764
-4.14419 -0.0707793 2.68462
-4.12666 -0.0776792 2.48957
-4.11412 -0.0845458 2.29655
-4.74807 0.270841 9.18201
-4.6511 0.217048 8.11993
-4.53929 0.156965 6.90381
-4.53669 0.154179 6.85083
-4.52915 0.15127 6.7898
-4.519 0.14559 6.6768
-4.51278 0.140061 6.57382
-4.50801 0.138613 6.5438
-4.49945 0.135733 6.48477
-4.48233 0.130004 6.36871
-4.41945 0.090981 5.5597
-4.4128 0.0892803 5.51267
-4.4111 0.086687 5.47269
-4.4009 0.0821251 5.36766
-4.39721 0.0805153 5.32665
-4.39549 0.0779516 5.28867
-4.3918 0.0763419 5.24766
-4.37685 0.0702732 5.10862
-4.37117 0.0676473 5.06661
-4.37539 0.066221 5.03766
-4.36598 0.0630594 4.95963
-4.3557 0.0586455 4.8646
-4.35222 0.0556214 4.79561
-4.34849 0.0540857 4.7596
-4.3384 0.0482871 4.63859
-4.32872 0.0456583 4.59655
-4.32545 0.0412347 4.50058
-4.31607 0.037999 4.41755
-4.31432 0.036524 4.38555
-4.30979 0.033588 4.32255
-4.28933 0.0245529 4.1185
-4.27456 0.017129 3.95548
-4.26325 0.0127884 3.86545
-4.24765 0.00997762 3.81136
-4.25578 0.00973181 3.79443
-4.25598 0.00834705 3.76844
-4.25456 0.00520602 3.69147
-4.24273 0.00385694 3.6684
-4.23596 0.00240788 3.63836
-4.23868 -0.000996682 3.54342
-4.23787 -0.00238217 3.51743
-4.22107 -0.0037793 3.49132
-4.22423 -0.00408797 3.47035
-4.22359 -0.00679899 3.42238
-4.21979 -0.00718677 3.39635
-4.20721 -0.010025 3.34029
-4.2073 -0.0102026 3.32829
-4.21741 -0.0104173 3.31337
-4.20301 -0.0145973 3.23431
-4.20443 -0.0164106 3.17934
-4.18885 -0.019251 3.12326
-4.18205 -0.0206557 3.09622
-4.18973 -0.0239826 3.00632
-4.19088 -0.0242779 2.98633
-4.18806 -0.0256204 2.96332
-4.18424 -0.0269785 2.93931
-4.16849 -0.0284785 2.90621
-4.17369 -0.0288745 2.87925
-4.17285 -0.030186 2.85826
-4.16207 -0.0316232 2.8292
-4.17316 -0.0317928 2.81728
-4.15372 -0.0349025 2.74317
-4.15593 -0.0363154 2.71521
-4.14956 -0.0395489 2.63219
-4.1556 -0.0396185 2.62724
-4.15674 -0.0398991 2.60825
-4.15191 -0.0412282 2.58623
-4.14225 -0.0429015 2.54118
-4.1426 -0.0445971 2.4942
-4.13976 -0.0449102 2.47318
-4.13348 -0.049336 2.37718
-4.13554 -0.0494529 2.3692
-4.11577 -0.0509115 2.33907
-4.11989 -0.0511454 2.3231
-4.11916 -0.0526789 2.28711
-4.12029 -0.0529298 2.27012
-4.12142 -0.0541806 2.25315
-4.12249 -0.0543131 2.24416
-4.10098 -0.0572911 2.17903
-4.11206 -0.0574459 2.16811
-4.11239 -0.0580824 2.12512
-4.10654 -0.0593975 2.10409
-4.09273 -0.0607777 2.079
-4.10581 -0.0609162 2.0691
-4.09199 -0.0622816 2.04502
-4.08714 -0.0625813 2.02498
-4.09729 -0.0628552 2.00606
-4.09443 -0.0641385 1.98705
-4.98645 0.489302 11.903
-4.98038 0.482462 11.779
-4.9694 0.474471 11.645
-4.91387 0.440682 11.054
-4.90673 0.433989 10.94
-4.84461 0.397381 10.294
-4.83838 0.391881 10.193
-4.78275 0.358284 9.61504
-4.77644 0.353917 9.52304
-4.76914 0.34855 9.43106
-4.72339 0.324151 9.00101
-4.72197 0.320025 8.92505
-4.7146 0.314777 8.84106
-4.67353 0.293018 8.45402
-4.67107 0.288965 8.38305
-4.66169 0.284729 8.30003
-4.65376 0.276636 8.15908
-4.64337 0.27243 8.07805
-4.63474 0.269713 8.03002
-4.63124 0.265718 7.96304
-4.55181 0.217811 7.09503
-4.5522 0.215042 7.04307
-4.54073 0.210997 6.97303
-4.54111 0.208257 6.92307
-4.52424 0.200024 6.77304
-4.52659 0.197345 6.72709
-4.51706 0.194405 6.66406
-4.51184 0.188892 6.56208
-4.41913 0.136539 5.59703
-4.40966 0.133495 5.52699
-4.34071 0.091602 4.72698
-4.30697 0.0701821 4.29499
-4.26978 0.0516627 3.92393
-4.26043 0.0473679 3.83691
-4.24773 0.0447813 3.79785
-4.2509 0.0444431 3.77487
-4.25993 0.0443904 3.77094
-4.25516 0.0429428 3.74092
-4.2474 0.0404635 3.7089
-4.2448 0.0386769 3.6559
-4.23434 0.0346183 3.58487
-4.24346 0.034388 3.56894
-4.24066 0.0329862 3.54193
-4.23055 0.0272468 3.42493
-4.22593 0.0254883 3.37391
-4.21271 0.0199539 3.27088
-4.20601 0.0183716 3.23185
-4.20038 0.0156273 3.18184
-4.20552 0.0153645 3.16388
-4.2037 0.0140079 3.13988
-4.19791 0.012604 3.11285
-4.18109 0.0112365 3.08874
-4.18125 0.00991094 3.06676
-4.18611 0.00624139 2.95384
-4.1803 0.00486707 2.92881
-4.18245 0.00357259 2.90884
-4.17022 -0.000946401 2.8068
-4.17037 -0.00224234 2.78682
-4.16156 -0.00263376 2.76076
-4.16784 -0.00416217 2.72482
-4.15414 -0.00676424 2.68475
-4.15642 -0.00831037 2.64779
-4.15373 -0.00991935 2.60678
-4.15104 -0.0115283 2.56578
-4.14926 -0.0129737 2.53579
-4.14642 -0.0132868 2.51477
-4.14557 -0.0145834 2.49478
-4.13988 -0.0161946 2.45375
-4.13413 -0.0176725 2.42173
-4.13042 -0.0192526 2.38272
-4.13454 -0.0194866 2.36675
-4.12871 -0.0208165 2.34472
-4.12321 -0.0237976 2.27871
-4.11452 -0.0254257 2.23667
-4.11777 -0.0269119 2.20371
-4.10702 -0.0284083 2.17065
-4.11027 -0.0298945 2.13769
-4.10787 -0.032066 2.05869
-4.09531 -0.0349486 1.99963
-5.02933 0.599289 12.4397
-5.01548 0.589029 12.2877
-5.01139 0.582235 12.1668
-4.99456 0.571943 12.0128
-4.99242 0.565254 11.8989
-4.95434 0.548467 11.6448
-4.94137 0.540459 11.5098
-4.94409 0.53404 11.4139
-4.92125 0.524758 11.2608
-4.92397 0.519354 11.1659
-4.9129 0.511525 11.0429
-4.88153 0.49732 10.8279
-4.8714 0.490595 10.7119
-4.87208 0.484263 10.622
-4.85604 0.476387 10.496
-4.85672 0.471055 10.406
-4.84262 0.464283 10.287
-4.82621 0.459116 10.209
-4.817 0.452555 10.104
-4.81271 0.446176 10.011
-4.79858 0.439463 9.896
-4.79624 0.434173 9.80904
-4.78501 0.427641 9.70604
-4.77154 0.422609 9.63701
-4.73738 0.400019 9.26103
-4.73061 0.389616 9.09911
-4.64053 0.333006 8.18414
-4.63804 0.329012 8.11718
-4.63061 0.324881 8.04117
-4.55318 0.271976 7.17325
-4.53438 0.262609 7.01423
-4.5308 0.259777 6.95823
-4.52526 0.255885 6.89824
-4.51871 0.251992 6.83824
-4.50515 0.241169 6.64827
-4.49759 0.237305 6.59026
-4.49596 0.234579 6.54129
-4.49531 0.231883 6.49431
-4.39551 0.168763 5.41035
-4.40669 0.167416 5.38645
-4.38319 0.163437 5.32132
-4.38444 0.161934 5.28735
-4.37962 0.159576 5.26334
-4.37396 0.15692 5.21933
-4.37224 0.155371 5.18234
-4.37943 0.153992 5.15641
-4.3668 0.151257 5.10735
-4.37895 0.14997 5.08746
-4.36832 0.147251 5.03941
-4.35754 0.145799 5.00935
-4.35234 0.140241 4.90437
-4.34168 0.136568 4.85934
-4.34391 0.13511 4.82838
-4.34403 0.134873 4.81238
-4.33237 0.132199 4.76732
-4.33507 0.126839 4.67541
-4.33233 0.125319 4.64041
-4.32165 0.122704 4.59936
-4.31803 0.119946 4.54837
-4.30933 0.117348 4.50833
-4.31948 0.117074 4.48941
-4.31673 0.114583 4.45642
-4.30306 0.111922 4.41235
-4.31122 0.111617 4.39142
-4.29092 0.106226 4.29833
-4.29355 0.101999 4.2154
-4.27443 0.095253 4.09834
-4.27782 0.0925004 4.0474
-4.27505 0.0910543 4.0174
-4.27524 0.0896695 3.99142
-4.26245 0.0882605 3.96434
-4.27356 0.0880465 3.94942
-4.25707 0.0840279 3.88135
-4.26621 0.0827681 3.86343
-4.251 0.0772174 3.75939
-4.24026 0.0746915 3.72434
-4.23747 0.0732898 3.69733
-4.23468 0.0718585 3.66833
-4.23036 0.0675377 3.57935
-4.22476 0.064749 3.52634
-4.21717 0.0619293 3.47132
-4.21761 0.059071 3.41336
-4.21083 0.0576367 3.38432
-4.21299 0.0563274 3.36335
-4.2062 0.054908 3.33532
-4.20141 0.05349 3.3073
-4.20059 0.0521489 3.28431
-4.19768 0.0519543 3.27129
-4.19903 0.0492891 3.22633
-4.20316 0.0490256 3.20837
-4.17754 0.0392978 3.02529
-4.17114 0.0351237 2.9463
-4.16381 0.0308008 2.85729
-4.1619 0.0306365 2.84628
-4.16648 0.0274998 2.76935
-4.14726 0.021961 2.66627
-4.13739 0.0147332 2.51628
-4.12858 0.0133567 2.49123
-4.12872 0.0130754 2.47224
-4.12587 0.0117773 2.45223
-4.11987 0.00581874 2.32026
-4.11105 0.00447183 2.29721
-4.10448 0.00160841 2.23919
-4.10494 -0.000294429 2.17822
-4.09638 -0.0031445 2.12118
-4.09265 -0.004695 2.08417
-4.09769 -0.00476537 2.07921
-4.09882 -0.00501628 2.06222
-5.03299 0.688845 12.4764
-5.01816 0.67754 12.3215
-5.01116 0.668581 12.1895
-4.99827 0.65841 12.0436
-4.99517 0.650647 11.9246
-4.97928 0.640459 11.7776
-4.94217 0.622732 11.5276
-4.94196 0.616192 11.4237
-4.92995 0.607244 11.2927
-4.92677 0.599628 11.1838
-4.9108 0.590618 11.0488
-4.88043 0.575414 10.8337
-4.88212 0.569053 10.7418
-4.87003 0.561268 10.6218
-4.86187 0.553619 10.5109
-4.86057 0.547257 10.4189
-4.8445 0.538409 10.2949
-4.81991 0.525653 10.1099
-4.82055 0.520395 10.025
-4.80445 0.511622 9.90597
-4.80704 0.50647 9.82806
-4.7909 0.49877 9.71404
-4.79052 0.493556 9.6321
-4.78029 0.486054 9.53112
-4.76089 0.48087 9.45204
-4.75063 0.474412 9.35404
-4.74627 0.468151 9.26909
-4.73895 0.462813 9.1791
-4.73359 0.456566 9.09514
-4.72822 0.451319 9.01117
-4.72482 0.446147 8.93221
-4.70243 0.439947 8.85212
-4.67541 0.414095 8.45825
-4.67098 0.408981 8.38328
-4.65347 0.404007 8.31821
-4.65494 0.40009 8.25627
-4.6426 0.393793 8.16926
-4.64307 0.389876 8.10731
-4.63663 0.385776 8.03331
-4.63018 0.38069 7.96033
-4.62669 0.375696 7.89337
-4.61014 0.371796 7.83329
-4.6086 0.367892 7.77233
-4.60213 0.362851 7.70235
-4.59566 0.35881 7.63235
-4.59115 0.353859 7.56838
-4.59058 0.351 7.51041
-4.57048 0.342239 7.39237
-4.56595 0.338318 7.33039
-4.56339 0.334443 7.27142
-4.5628 0.331643 7.21745
-4.55529 0.326675 7.15245
-4.54878 0.322723 7.08846
-4.53909 0.320109 7.04741
-4.53453 0.316248 6.98943
-4.53393 0.312463 6.93647
-4.52838 0.308585 6.87748
-4.53171 0.305936 6.83354
-4.52615 0.302074 6.77555
-4.52751 0.299364 6.72759
-4.51088 0.295627 6.67851
-4.50828 0.29284 6.62553
-4.50369 0.289038 6.57154
-4.50206 0.285311 6.52258
-4.4945 0.281447 6.46457
-4.49583 0.278797 6.42061
-4.49123 0.276024 6.36861
-4.47953 0.273423 6.32856
-4.47592 0.269666 6.27758
-4.48218 0.268152 6.24264
-4.47855 0.264424 6.19367
-4.47097 0.260604 6.13866
-4.46436 0.25783 6.08664
-4.46072 0.254117 6.03866
-4.45395 0.252668 6.00863
-4.45922 0.250153 5.9737
-4.45062 0.247363 5.92067
-4.44103 0.243541 5.86565
-4.44234 0.24095 5.82569
-4.43867 0.238296 5.78169
-4.43106 0.234536 5.73069
-4.42626 0.233133 5.70367
-4.41665 0.229356 5.65164
-4.411 0.226671 5.60563
-4.41427 0.225155 5.57068
-4.41554 0.222623 5.53472
-4.40394 0.21883 5.48168
-4.40323 0.216267 5.44371
-4.39049 0.21374 5.40864
-4.3861 0.209552 5.32866
-4.38141 0.206927 5.28666
-4.37673 0.204302 5.24466
-4.3665 0.197785 5.14266
-4.33744 0.17402 4.75474
-4.25255 0.118043 3.8148
-4.24598 0.114195 3.7578
-4.25213 0.113903 3.73785
-4.24537 0.111439 3.70683
-4.23374 0.108706 3.65778
-4.23114 0.105919 3.60479
-4.22455 0.102115 3.55079
-4.24062 0.102979 3.5409
-4.2278 0.100614 3.51683
-4.21542 0.0963911 3.43479
-4.2166 0.0950515 3.41181
-4.2118 0.0936483 3.3848
-4.20265 0.0869837 3.27281
-4.19703 0.0842394 3.2228
-4.19231 0.0826882 3.18578
-4.19248 0.0813478 3.1628
-4.18486 0.0786021 3.11278
-4.18816 0.0760124 3.07284
-4.17314 0.0690918 2.94381
-4.16932 0.0677337 2.9198
-4.15824 0.0619195 2.79778
-4.15342 0.0605607 2.77376
-4.15266 0.0581013 2.74279
-4.15678 0.0578526 2.72582
-4.14927 0.0548849 2.6608
-4.14268 0.0520954 2.60778
-4.13586 0.0497353 2.58376
-4.14098 0.0495021 2.5678
-4.13728 0.0479072 2.52779
-4.13046 0.046547 2.50376
-4.1267 0.0440854 2.47276
-4.12485 0.0437879 2.45275
-4.12598 0.0425223 2.43478
-4.12413 0.0422248 2.41476
-4.12726 0.0409902 2.3988
-4.12938 0.04074 2.38182
-4.11281 0.0368842 2.32474
-4.11408 0.035367 2.28977
-4.10639 0.0337544 2.24873
-4.11156 0.0324177 2.22579
-4.10771 0.0311188 2.20577
-4.09989 0.0297727 2.18273
-4.10799 0.029586 2.16979
-4.0973 0.0279712 2.12873
-4.10233 0.0279009 2.12377
-4.10844 0.027698 2.10982
-4.10957 0.0264472 2.09284
-4.09576 0.0250671 2.06776
-4.09489 0.0238 2.04976
-4.09701 0.0235646 2.03378
-4.10211 0.0233758 2.02082
-4.09074 0.0191388 1.93779
-4.61324 0.411587 7.68371
-4.57248 0.381222 7.25579
-4.57089 0.377407 7.20083
-4.53742 0.353439 6.86688
-4.5048 0.331767 6.55292
-4.48227 0.308925 6.22704
-4.47765 0.306182 6.17704
-4.45464 0.287257 5.91311
-4.44208 0.283405 5.85606
-4.44139 0.280782 5.81409
-4.43872 0.278144 5.7711
-4.43407 0.27446 5.72512
-4.43436 0.271883 5.68615
-4.42391 0.266809 5.61414
-4.40566 0.26033 5.51508
-4.41287 0.258921 5.48715
-4.40056 0.252565 5.39614
-4.38908 0.247536 5.32712
-4.38566 0.242408 5.25116
-4.38123 0.23728 5.17519
-4.3758 0.232166 5.10022
-4.35934 0.227088 5.02816
-4.34845 0.217919 4.88219
-4.35749 0.217837 4.87626
-4.3389 0.214024 4.82217
-4.34708 0.212689 4.79925
-4.33939 0.210077 4.75822
-4.32971 0.206433 4.7152
-4.33787 0.206128 4.69426
-4.33911 0.20367 4.6633
-4.32237 0.20114 4.62821
-4.32954 0.19982 4.60628
-4.3139 0.196098 4.55821
-4.32404 0.195824 4.53929
-4.31139 0.192149 4.49424
-4.31657 0.190797 4.4703
-4.30389 0.188151 4.42723
-4.29828 0.184392 4.37624
-4.30841 0.184133 4.35832
-4.30367 0.181627 4.32432
-4.29694 0.179089 4.2883
-4.30013 0.177721 4.26334
-4.30332 0.176353 4.23838
-4.28557 0.173852 4.20528
-4.28677 0.172468 4.1793
-4.29492 0.172178 4.15937
-4.28024 0.168531 4.1163
-4.27768 0.164685 4.05933
-4.27797 0.163108 4.02035
-4.26944 0.159184 3.95834
-4.26865 0.156769 3.93037
-4.26488 0.155322 3.90035
-4.22544 0.13429 3.56232
-4.23754 0.134091 3.54841
-4.22905 0.129093 3.48141
-4.22525 0.127691 3.4544
-4.22543 0.126351 3.43142
-4.2208 0.123607 3.38142
-4.21105 0.121126 3.34938
-4.2171 0.121027 3.34242
-4.20154 0.117157 3.28436
-4.21463 0.116989 3.27246
-4.20089 0.114476 3.23839
-4.21298 0.114307 3.22648
-4.19227 0.111715 3.18735
-4.20528 0.111709 3.18645
-4.19749 0.110289 3.15841
-4.19517 0.10497 3.06946
-4.18049 0.102323 3.02638
-4.1896 0.102122 3.01245
-4.18128 0.0967689 2.92146
-4.13309 0.0692876 2.41843
-4.12773 0.0650253 2.33344
-4.11905 0.0623973 2.29141
-4.11334 0.0598158 2.2524
-4.11255 0.0584155 2.22541
-4.1087 0.0571167 2.2054
-4.11182 0.056882 2.18942
-4.11593 0.0566629 2.17445
-4.11108 0.0553633 2.15443
-4.1142 0.0541436 2.13947
-4.10232 0.0528981 2.1234
-4.10245 0.0526465 2.1064
-4.10158 0.0513794 2.08841
-4.09673 0.0500946 2.06939
-4.09685 0.049843 2.05239
-4.10296 0.0496401 2.03844
-4.09344 0.0456858 1.97442
-4.97114 0.791556 11.6483
-4.9075 0.734045 10.9416
-4.84017 0.673925 10.1939
-4.77665 0.627117 9.60201
-4.76701 0.612461 9.42313
-4.72815 0.57929 9.00827
-4.71589 0.571845 8.91128
-4.71444 0.566764 8.83833
-4.70905 0.559561 8.75739
-4.66746 0.534824 8.4394
-4.66696 0.529862 8.37446
-4.66744 0.524915 8.31052
-4.65708 0.517649 8.22554
-4.65262 0.512595 8.15457
-4.64717 0.506525 8.08261
-4.64073 0.501425 8.00863
-4.62419 0.49651 7.94757
-4.62365 0.491607 7.88663
-4.61521 0.485506 7.81265
-4.61271 0.480542 7.74769
-4.60722 0.475531 7.67971
-4.60074 0.47052 7.61173
-4.59326 0.464493 7.54275
-4.57965 0.460714 7.4907
-4.57711 0.455809 7.42975
-4.57061 0.450828 7.36376
-4.56905 0.445983 7.30681
-4.56451 0.442077 7.24583
-4.56195 0.437216 7.18787
-4.54278 0.428574 7.07784
-4.53108 0.41602 6.90592
-4.52751 0.411188 6.84995
-4.52392 0.407372 6.79497
-4.51064 0.399956 6.69997
-4.5031 0.395062 6.63998
-4.50147 0.391336 6.59101
-4.50282 0.388656 6.54506
-4.49525 0.383807 6.48806
-4.49658 0.381156 6.44411
-4.47733 0.372692 6.34607
-4.4747 0.368965 6.2971
-4.47404 0.366298 6.25213
-4.47239 0.362601 6.20517
-4.46876 0.358873 6.15619
-4.46513 0.35516 6.10821
-4.45935 0.352712 6.0782
-4.45077 0.348892 6.02318
-4.45306 0.346331 5.98523
-4.44842 0.342617 5.93725
-4.44973 0.340026 5.89729
-4.44044 0.332613 5.80231
-4.43763 0.331256 5.77831
-4.42803 0.326464 5.7253
-4.42436 0.32381 5.68131
-4.41901 0.317533 5.59535
-4.42425 0.315078 5.56442
-4.41761 0.311363 5.51642
-4.41181 0.309974 5.49039
-4.40317 0.306257 5.44237
-4.40642 0.303771 5.40943
-4.39452 0.293616 5.26447
-4.39378 0.291098 5.2295
-4.3792 0.286273 5.17445
-4.3864 0.284893 5.14852
-4.37477 0.28116 5.09948
-4.37132 0.276077 5.02652
-4.36749 0.274748 5.00451
-4.36378 0.271183 4.96653
-4.35908 0.268588 4.92653
-4.35437 0.266022 4.88853
-4.34669 0.26238 4.84552
-4.35387 0.26103 4.82159
-4.33825 0.257278 4.77152
-4.34135 0.257088 4.75854
-4.33465 0.253491 4.71854
-4.34282 0.252171 4.69662
-4.32819 0.248435 4.64756
-4.32644 0.245946 4.61457
-4.33262 0.244595 4.59064
-4.32988 0.24309 4.55664
-4.32725 0.239362 4.50766
-4.3126 0.235671 4.4616
-4.31283 0.233227 4.43164
-4.3103 0.229307 4.36967
-4.31151 0.227879 4.34069
-4.30765 0.22661 4.32268
-4.29101 0.221902 4.27562
-4.29023 0.220472 4.24663
-4.29364 0.216675 4.1927
-4.29086 0.215229 4.1627
-4.27055 0.207868 4.07164
-4.28366 0.20767 4.05774
-4.26798 0.204022 4.01467
-4.26223 0.202529 3.98165
-4.27435 0.201316 3.96675
-4.26065 0.198714 3.92668
-4.26313 0.194783 3.86375
-4.25042 0.191197 3.8247
-4.25975 0.189567 3.78179
-4.24395 0.187156 3.7547
-4.25209 0.185895 3.73678
-4.23559 0.180906 3.67072
-4.17951 0.139244 3.02083
-4.17668 0.137901 2.99782
-4.17998 0.136312 2.95787
-4.17012 0.134038 2.93982
-4.17143 0.132432 2.89885
-4.16562 0.130058 2.87384
-4.1709 0.128514 2.8369
-4.16409 0.127139 2.81186
-4.16333 0.124665 2.77989
-4.15353 0.123258 2.75283
-4.16279 0.121761 2.71892
-4.15299 0.119354 2.69188
-4.14418 0.117978 2.66683
-4.15023 0.117893 2.66087
-4.14639 0.116565 2.63886
-4.14868 0.114004 2.60091
-4.14414 0.111113 2.54091
-4.13952 0.107354 2.48992
-4.13298 0.104447 2.42891
-4.12238 0.100654 2.37588
-4.11981 0.0978234 2.31989
-4.11497 0.0964942 2.29787
-4.11119 0.0950622 2.26886
-4.1096 0.0922616 2.21489
-4.10596 0.0895632 2.16789
-4.10012 0.0872482 2.14688
-4.09527 0.0869485 2.12684
-4.10834 0.0868099 2.11694
-4.09578 0.0829423 2.0589
-4.09511 0.0812903 2.01491
-4.09723 0.0800699 1.99994
-4.08142 0.0776736 1.97386
-4.64746 0.550899 8.03995
-4.62808 0.533717 7.82603
-4.6059 0.513149 7.58614
-4.5929 0.502171 7.45318
-4.58385 0.492314 7.32824
-4.56312 0.478827 7.16126
-4.55461 0.472859 7.09628
-4.53197 0.448225 6.78443
-4.52541 0.443362 6.72644
-4.51822 0.434773 6.6195
-4.49603 0.416219 6.38058
-4.49044 0.411416 6.3266
-4.47213 0.394117 6.10468
-4.46651 0.390373 6.05469
-4.46485 0.386705 6.00973
-4.44048 0.369491 5.79377
-4.43345 0.359591 5.66584
-4.42131 0.35091 5.55287
-4.31343 0.26001 4.34923
-4.29873 0.247454 4.17728
-4.28745 0.240039 4.0823
-4.28309 0.233778 3.99734
-4.27843 0.231123 3.95334
-4.24155 0.201983 3.54044
-4.20904 0.179104 3.21249
-4.17929 0.167626 3.04641
-4.18872 0.164804 2.99051
-4.18781 0.163625 2.97852
-4.18697 0.162299 2.95653
-4.17917 0.160908 2.93049
-4.18331 0.159645 2.91254
-4.1775 0.157271 2.88753
-4.17038 0.150534 2.77056
-4.16678 0.146747 2.71758
-4.15896 0.145386 2.69354
-4.15827 0.142793 2.65356
-4.15941 0.141513 2.63459
-4.15856 0.141216 2.61458
-4.15082 0.138707 2.58056
-4.14272 0.130939 2.4616
-4.13184 0.129695 2.44553
-4.13397 0.128445 2.42856
-4.1371 0.128195 2.41159
-4.12742 0.124552 2.36856
-4.12371 0.122986 2.33055
-4.12776 0.122886 2.32358
-4.11894 0.120539 2.30055
-4.12703 0.120352 2.28761
-4.12233 0.117772 2.24861
-4.1206 0.116237 2.21261
-4.11409 0.11227 2.14761
-4.1105 0.109468 2.09362
-4.10299 0.105516 2.02961
-4.10012 0.104247 2.01161
-4.09539 0.102711 1.97559
-5.03651 1.00741 12.3767
-5.01271 0.980097 12.0869
-4.96154 0.933585 11.5821
-4.95348 0.922744 11.4582
-4.94442 0.910903 11.3343
-4.88874 0.859426 10.7646
-4.88452 0.849899 10.6617
-4.82326 0.792605 10.037
-4.81503 0.784089 9.93502
-4.81172 0.775755 9.84511
-4.79325 0.757752 9.64321
-4.76124 0.732836 9.3803
-4.75196 0.724423 9.28534
-4.74761 0.717162 9.20041
-4.73929 0.708824 9.11045
-4.7359 0.701638 9.03052
-4.73053 0.694405 8.94758
-4.70813 0.687205 8.86751
-4.70078 0.678942 8.78256
-4.69834 0.672845 8.70862
-4.67004 0.641541 8.35182
-4.66362 0.634411 8.27587
-4.65424 0.627205 8.19489
-4.65766 0.622379 8.13898
-4.6438 0.609149 7.98906
-4.63066 0.599452 7.87508
-4.62124 0.592306 7.79811
-4.62168 0.587463 7.74118
-4.60337 0.579103 7.65015
-4.59392 0.572015 7.57717
-4.59731 0.568248 7.52525
-4.59378 0.563343 7.46428
-4.5851 0.5587 7.42128
-4.5717 0.551536 7.34328
-4.57309 0.547767 7.29133
-4.5646 0.541769 7.22435
-4.55808 0.535818 7.16038
-4.54801 0.525005 7.03845
-4.55018 0.523666 7.01548
-4.53771 0.517621 6.94547
-4.5371 0.512865 6.89453
-4.52858 0.506927 6.83154
-4.51746 0.497202 6.71558
-4.51208 0.489984 6.63364
-4.50056 0.485029 6.56962
-4.50191 0.481349 6.52368
-4.49929 0.476607 6.47372
-4.49173 0.471743 6.41573
-4.49701 0.469199 6.3788
-4.48037 0.464492 6.33174
-4.47378 0.459673 6.27675
-4.47412 0.456022 6.2328
-4.47147 0.452324 6.18583
-4.46983 0.448627 6.13887
-4.46223 0.443837 6.08587
-4.46849 0.441339 6.05195
-4.4459 0.435523 5.99786
-4.44422 0.431886 5.9549
-4.44651 0.429325 5.91694
-4.44385 0.425657 5.87197
-4.43526 0.420866 5.81897
-4.43853 0.418336 5.78303
-4.43982 0.414759 5.74409
-4.42809 0.411233 5.70904
-4.42541 0.408594 5.66606
-4.42274 0.404956 5.62309
-4.42006 0.401333 5.58111
-4.41936 0.39774 5.54116
-4.41667 0.395131 5.50017
-4.40819 0.389119 5.43218
-4.39983 0.381855 5.34722
-4.39173 0.372102 5.22928
-4.36408 0.346479 4.91841
-4.34089 0.32794 4.68048
-4.32817 0.314429 4.51156
-4.32531 0.313146 4.49255
-4.32554 0.310702 4.46259
-4.31386 0.307057 4.41955
-4.32003 0.305736 4.39761
-4.30592 0.295979 4.27963
-4.30061 0.288628 4.18869
-4.29686 0.286152 4.15669
-4.29142 0.281038 4.08172
-4.27277 0.276343 4.03564
-4.26922 0.271468 3.97668
-4.27835 0.271222 3.95975
-4.26167 0.267574 3.91667
-4.26713 0.26369 3.85676
-4.25045 0.259041 3.8137
-4.26454 0.258874 3.80181
-4.24489 0.255194 3.75671
-4.24229 0.251407 3.70373
-4.2533 0.251386 3.70182
-4.23363 0.247735 3.65872
-4.24095 0.245104 3.61581
-4.23139 0.240238 3.5578
-4.2286 0.237837 3.53081
-4.2211 0.232854 3.46482
-4.2183 0.231452 3.43781
-4.21947 0.230128 3.41584
-4.22263 0.228804 3.39388
-4.21088 0.225322 3.36184
-4.20799 0.224098 3.34683
-4.20717 0.222742 3.32284
-4.20834 0.221417 3.30087
-4.2105 0.220108 3.2799
-4.20967 0.218767 3.25691
-4.19892 0.215286 3.22488
-4.20802 0.215085 3.21095
-4.1942 0.212735 3.18787
-4.20232 0.212504 3.17194
-4.18857 0.209005 3.13888
-4.20463 0.209884 3.12999
-4.19288 0.207401 3.09793
-4.18625 0.203671 3.04893
-4.18334 0.202492 3.03692
-4.1709 0.196387 2.96291
-4.17106 0.195076 2.94193
-4.16724 0.193718 2.91791
-4.17825 0.194697 2.91598
-4.16863 0.190964 2.86696
-4.16082 0.188574 2.84093
-4.16396 0.18731 2.82297
-4.15815 0.185936 2.79794
-4.16625 0.184734 2.78402
-4.15341 0.183429 2.76394
-4.15654 0.182165 2.74598
-4.14972 0.179805 2.72196
-4.14789 0.178478 2.69996
-4.15102 0.178228 2.68299
-4.15216 0.176948 2.66401
-4.15828 0.176715 2.64806
-4.14343 0.174408 2.62798
-4.14955 0.173191 2.61304
-4.14671 0.171878 2.59204
-4.14884 0.171613 2.57406
-4.147 0.169301 2.55307
-4.13719 0.167924 2.52802
-4.13933 0.166659 2.51005
-4.12945 0.165415 2.49399
-4.13755 0.165228 2.48105
-4.13172 0.162884 2.45804
-4.13186 0.161602 2.43906
-4.13399 0.161352 2.42207
-4.13214 0.160055 2.40208
-4.1293 0.158757 2.38207
-4.13534 0.158672 2.37612
-4.11955 0.156246 2.34803
-4.11969 0.15498 2.33005
-4.12978 0.15481 2.31813
-4.11598 0.1524 2.29105
-4.11711 0.151149 2.27408
-4.12322 0.150946 2.26013
-4.11234 0.149702 2.24406
-4.11148 0.148435 2.22607
-4.11061 0.147167 2.20808
-4.11672 0.146965 2.19413
-4.10093 0.144539 2.16604
-4.11599 0.144431 2.15815
-4.10318 0.142052 2.13309
-4.10524 0.141935 2.1251
-4.10238 0.140652 2.1061
-4.10749 0.140448 2.09214
-4.10364 0.139149 2.07213
-4.10875 0.138946 2.05817
-4.09493 0.13658 2.03409
-4.09712 0.135212 2.00913
-5.01642 1.0725 12.2486
-5.01137 1.06065 12.1237
-4.99942 1.04758 11.9848
-4.99141 1.03465 11.8549
-4.97452 1.02048 11.709
-4.97039 1.00978 11.5941
-4.94917 0.999236 11.4911
-4.93816 0.986305 11.3612
-4.93596 0.976749 11.2563
-4.92293 0.96383 11.1273
-4.91775 0.953228 11.0194
-4.87922 0.921391 10.6946
-4.86811 0.910651 10.5776
-4.86484 0.901213 10.4807
-4.85469 0.890563 10.3698
-4.81596 0.861095 10.0699
-4.81659 0.853867 9.98701
-4.8054 0.843276 9.88007
-4.80306 0.834987 9.79316
-4.78693 0.824288 9.67918
-4.78554 0.816088 9.59828
-4.77235 0.806495 9.49131
-4.76083 0.799569 9.42932
-4.75055 0.791141 9.33335
-4.74324 0.781789 9.24242
-4.73986 0.774587 9.16149
-4.7266 0.765127 9.06352
-4.72813 0.758093 8.99362
-4.72275 0.750875 8.91168
-4.69989 0.736639 8.7617
-4.67627 0.706975 8.44792
-4.6738 0.699952 8.37899
-4.65629 0.693977 8.31394
-4.65184 0.686908 8.242
-4.64244 0.679732 8.16302
-4.63896 0.673708 8.09408
-4.63449 0.666669 8.02414
-4.63395 0.660766 7.96321
-4.62257 0.653559 7.88222
-4.61095 0.648811 7.8322
-4.60096 0.63582 7.6983
-4.59349 0.629779 7.62832
-4.59194 0.623904 7.56939
-4.58545 0.617908 7.50242
-4.57697 0.610881 7.43345
-4.56022 0.596442 7.26951
-4.55666 0.590566 7.21057
-4.55212 0.585674 7.1506
-4.54856 0.579814 7.09265
-4.52197 0.551088 6.77483
-4.52036 0.546332 6.72388
-4.50048 0.532127 6.57592
-4.4903 0.522521 6.46797
-4.48569 0.517748 6.416
-4.48703 0.514098 6.37206
-4.4727 0.505785 6.28406
-4.47005 0.502088 6.23709
-4.46841 0.497391 6.19014
-4.46675 0.493724 6.14518
-4.46707 0.490103 6.10323
-4.44973 0.481788 6.01521
-4.4451 0.477074 5.96723
-4.45729 0.475713 5.94234
-4.44275 0.469799 5.88131
-4.44702 0.467284 5.84638
-4.44433 0.463661 5.8044
-4.43672 0.4589 5.75341
-4.43192 0.456512 5.72741
-4.42331 0.451751 5.6764
-4.41666 0.447051 5.62942
-4.41596 0.444458 5.58945
-4.40862 0.43618 5.5035
-4.40209 0.431243 5.44052
-4.39644 0.426573 5.39554
-4.39077 0.422917 5.35154
-4.39032 0.416837 5.27862
-4.39256 0.414365 5.24667
-4.39184 0.411831 5.21069
-4.37216 0.407196 5.16861
-4.38134 0.405847 5.14469
-4.37367 0.40119 5.1007
-4.37691 0.398734 5.06976
-4.36923 0.395092 5.02675
-4.37345 0.392666 4.99781
-4.35177 0.388028 4.95571
-4.35698 0.386632 4.92877
-4.35524 0.383113 4.8938
-4.36144 0.381733 4.86786
-4.34978 0.377058 4.82284
-4.35201 0.375601 4.79187
-4.34927 0.372096 4.7579
-4.33552 0.368598 4.72484
-4.34468 0.367293 4.70393
-4.33103 0.363603 4.65787
-4.32234 0.359989 4.61686
-4.32655 0.357593 4.58992
-4.32776 0.355179 4.56196
-4.31906 0.351581 4.52194
-4.32414 0.351437 4.51198
-4.31489 0.342965 4.41302
-4.30024 0.338273 4.36698
-4.30342 0.336906 4.34202
-4.29979 0.333192 4.29404
-4.29206 0.329654 4.25803
-4.29525 0.328286 4.23307
-4.28852 0.324764 4.19807
-4.28873 0.322349 4.1701
-4.28 0.31981 4.13407
-4.28121 0.317411 4.10711
-4.27337 0.31508 4.08508
-4.28549 0.314867 4.07017
-4.28073 0.31239 4.03817
-4.26703 0.307788 3.99813
-4.26426 0.305342 3.96814
-4.26544 0.303987 3.94416
-4.26168 0.301526 3.91317
-4.25343 0.293055 3.81422
-4.24865 0.290607 3.78421
-4.25877 0.290377 3.76829
-4.25102 0.287898 3.73626
-4.24118 0.285565 3.71422
-4.24037 0.283195 3.68925
-4.24156 0.281826 3.66427
-4.24174 0.279471 3.64031
-4.23199 0.276975 3.60726
-4.23715 0.275683 3.58732
-4.2274 0.272187 3.55429
-4.22685 0.268299 3.49434
-4.21926 0.263494 3.44035
-4.21944 0.262139 3.41636
-4.2216 0.26083 3.3954
-4.21193 0.257186 3.35237
-4.20432 0.253411 3.30036
-4.17199 0.226177 2.94847
-4.16824 0.223671 2.91448
-4.13952 0.202195 2.61354
-4.13413 0.197007 2.53356
-4.13107 0.189169 2.40964
-4.11463 0.183062 2.3356
-4.11006 0.179215 2.27861
-4.1161 0.179145 2.27366
-4.10727 0.176799 2.25062
-4.1084 0.176548 2.23363
-4.10369 0.173982 2.19563
-4.09997 0.171431 2.15863
-4.09718 0.169015 2.13064
-4.10029 0.168795 2.11567
-4.09557 0.166244 2.07867
-4.09272 0.164961 2.05966
-4.09284 0.163709 2.04268
-4.09689 0.163623 2.03671
-4.08706 0.16229 2.01465
-4.09017 0.161071 1.99969
-4.96347 1.09746 11.7077
-4.95543 1.08459 11.5819
-4.9513 1.07289 11.467
-4.92003 1.04849 11.2391
-4.91094 1.03671 11.1192
-4.90874 1.02615 11.0143
-4.9016 1.01446 10.9004
-4.88952 1.00266 10.7795
-4.88728 0.992182 10.6796
-4.86501 0.981745 10.5836
-4.85586 0.970081 10.4717
-4.85261 0.960613 10.3728
-4.84342 0.950023 10.2658
-4.83424 0.938418 10.1579
-4.83292 0.9301 10.069
