1.24187 1.70552 5.82144
1.22394 1.70766 5.83054
1.20394 1.70668 5.83071
1.18603 1.70886 5.84181
1.17603 1.70886 5.84189
1.155 1.70582 5.83809
1.13292 1.70169 5.82832
1.1129 1.70067 5.82648
1.09287 1.69863 5.82266
1.07497 1.70083 5.83577
1.05495 1.6998 5.83293
1.04495 1.69881 5.83302
1.02599 1.6999 5.83815
-1.57923 1.77212 5.81171
1.40717 1.69308 5.59635
1.19392 1.70967 5.69472
1.15388 1.70563 5.69008
1.13594 1.70676 5.6982
1.11592 1.70573 5.69537
1.10697 1.70682 5.70142
1.08899 1.70688 5.70455
1.069 1.70591 5.70572
1.04794 1.70281 5.69792
1.031 1.70395 5.70703
1.00994 1.70085 5.69924
0.990997 1.70197 5.70637
0.973044 1.70307 5.71249
0.960913 1.69783 5.69565
0.942974 1.69896 5.70377
0.923982 1.69899 5.70491
0.90502 1.69908 5.71006
0.765299 1.70471 5.74703
0.0363914 1.72539 5.6272
-0.00069977 1.72224 5.61552
-0.0105068 1.72961 5.64049
-0.0476445 1.72438 5.62285
-0.0664506 1.73276 5.64787
-0.122519 1.72967 5.63933
-0.14061 1.7265 5.62752
-0.150379 1.73595 5.65745
-0.187563 1.72862 5.63384
-0.207346 1.73805 5.66185
-0.225476 1.73281 5.64506
-0.244344 1.73908 5.66212
-0.263382 1.73802 5.65728
-0.272413 1.73597 5.65337
-0.290497 1.73282 5.64255
-0.310403 1.73801 5.65463
-0.328511 1.73282 5.64084
-0.346502 1.73384 5.64196
-0.365486 1.73489 5.64409
-0.384447 1.73697 5.6492
-0.39447 1.73594 5.64629
-0.412507 1.73488 5.64144
-0.43146 1.73798 5.64754
-0.487511 1.73692 5.64098
-0.535424 1.74211 5.65226
-0.573407 1.74317 5.65453
-0.630404 1.74521 5.65493
-0.903544 1.75111 5.6369
-1.02758 1.75513 5.63278
-1.10268 1.75498 5.61934
-1.45202 1.76453 5.57483
-1.48811 1.76337 5.56211
-1.51614 1.76433 5.55831
-1.53711 1.7674 5.56242
-1.57418 1.76728 5.5527
-1.61929 1.76611 5.53906
-1.6393 1.76709 5.53719
-1.65734 1.76703 5.53233
-1.6793 1.77112 5.53744
-1.7183 1.77413 5.53668
-1.74441 1.77195 5.52291
-1.76049 1.7698 5.51206
-1.80051 1.77278 5.50932
-1.81856 1.7727 5.50346
-1.8366 1.77264 5.49859
-1.86148 1.77987 5.51268
-1.88269 1.77348 5.48593
1.40917 1.68214 5.33046
1.03041 1.7098 5.49392
1.01034 1.7067 5.48612
0.993437 1.70989 5.4982
0.956483 1.71 5.50448
0.93746 1.70797 5.50165
0.910491 1.70805 5.50585
0.893583 1.71124 5.51794
0.874576 1.71024 5.51709
0.857684 1.71346 5.53118
0.838676 1.71246 5.53033
0.821753 1.71462 5.54043
0.810646 1.71042 5.52657
0.791653 1.70945 5.52773
0.755715 1.71059 5.53599
0.738808 1.71378 5.54807
0.719808 1.7138 5.54821
0.702893 1.71697 5.55929
0.691801 1.7128 5.54744
0.674924 1.71705 5.5635
0.654816 1.71186 5.54973
0.637963 1.71715 5.56878
0.621025 1.71928 5.57688
0.602056 1.72035 5.58101
0.582995 1.71725 5.57319
0.574072 1.7204 5.58322
0.555026 1.71733 5.5774
0.535933 1.71317 5.56561
0.519096 1.71949 5.58664
0.498973 1.71427 5.57087
0.480988 1.71431 5.57301
0.464259 1.72484 5.60798
0.451958 1.71227 5.56925
0.435143 1.71964 5.59328
0.416097 1.71756 5.58745
0.398074 1.71553 5.58461
0.380245 1.72287 5.60664
0.361167 1.71874 5.59685
0.342145 1.71771 5.59401
0.334354 1.72711 5.62093
0.314138 1.71771 5.59322
0.297293 1.72402 5.61325
0.278231 1.72092 5.60544
0.259247 1.72096 5.60758
0.242471 1.7304 5.63657
0.222232 1.71996 5.60588
0.213333 1.72416 5.61888
0.195426 1.72835 5.63096
0.157389 1.7263 5.62627
0.13825 1.72005 5.60851
0.120235 1.71903 5.60666
0.111475 1.7295 5.63757
0.0922511 1.72008 5.60885
0.0733446 1.72427 5.62094
0.0358916 1.72144 5.42823
0.0179078 1.72248 5.43035
3.94351e-05 1.72775 5.44741
-0.018068 1.72355 5.43361
-0.0360832 1.72254 5.43176
-0.0540281 1.72565 5.43885
-0.0720897 1.72255 5.43103
-0.0810737 1.72359 5.43308
-0.0990425 1.72466 5.4372
-0.117119 1.72152 5.42739
-0.13511 1.72255 5.42851
-0.152994 1.72679 5.44358
-0.171117 1.72256 5.42778
-0.180047 1.7257 5.4368
-0.197962 1.72888 5.44789
-0.216069 1.72468 5.43409
-0.234061 1.72571 5.43521
-0.252029 1.72678 5.43933
-0.306065 1.72675 5.43473
1.60594 1.66465 5.03519
1.5391 1.66601 5.05668
1.50029 1.6704 5.08191
1.45144 1.67272 5.10125
1.4314 1.66966 5.09644
1.42062 1.6781 5.1254
1.41188 1.68759 5.15833
0.96996 1.706 5.30241
0.962014 1.70711 5.30945
0.857215 1.71057 5.33619
0.848222 1.71059 5.33726
0.831261 1.71168 5.34237
0.812223 1.70962 5.33755
0.796308 1.71279 5.34862
0.778331 1.71285 5.35176
0.734401 1.71402 5.36107
0.715393 1.71301 5.36023
0.697347 1.70994 5.35441
0.680409 1.71207 5.36251
0.661363 1.70999 5.35668
0.645525 1.71632 5.37771
0.626425 1.71114 5.36493
0.617432 1.71116 5.366
0.600502 1.71331 5.37509
0.58144 1.7102 5.36728
0.563441 1.71021 5.36742
0.546526 1.71339 5.3785
0.528526 1.7124 5.37865
0.51055 1.71346 5.38177
0.501573 1.71351 5.38484
0.483527 1.71144 5.379
0.466596 1.71358 5.3881
0.44969 1.71777 5.40017
0.430589 1.71259 5.38739
0.412581 1.71159 5.38654
0.403659 1.71474 5.39656
0.385597 1.71164 5.38874
0.36766 1.71477 5.39683
0.350699 1.71586 5.40194
0.33166 1.7138 5.39711
0.314684 1.71485 5.40023
0.296707 1.71491 5.40336
0.287692 1.71489 5.40143
0.269747 1.71701 5.40854
0.251762 1.71705 5.41067
0.233817 1.71916 5.41778
0.215833 1.72021 5.4199
0.197825 1.71921 5.41905
0.179826 1.71922 5.41918
0.16185 1.72028 5.4223
0.153881 1.72134 5.42635
0.13485 1.7203 5.4225
0.117866 1.72034 5.42463
0.0998665 1.72035 5.42477
0.0819291 1.72348 5.43286
0.0639064 1.72245 5.43001
0.045922 1.72249 5.43214
0.0102462 1.71223 5.21053
-0.0246675 1.71642 5.22174
-0.0676738 1.71644 5.22106
-0.102673 1.71646 5.22132
-0.407599 1.7248 5.2315
-1.03083 1.74175 5.20194
-1.04885 1.74172 5.19907
-1.09285 1.74374 5.19838
-1.12792 1.74363 5.18964
-1.1459 1.74569 5.19275
-1.24298 1.74858 5.18143
-1.53138 1.75497 5.1285
-1.58248 1.75482 5.11589
-1.63751 1.75878 5.11124
-1.64358 1.75667 5.10332
-1.67961 1.75862 5.09856
1.99001 1.64365 4.64656
1.95911 1.64387 4.65979
1.94519 1.64604 4.67086
1.91328 1.64624 4.6831
1.90037 1.64741 4.69418
1.87745 1.64859 4.70534
1.86354 1.65077 4.71641
1.84554 1.64878 4.71658
1.83162 1.65095 4.72765
1.81872 1.65415 4.7407
1.80379 1.6553 4.7498
1.79683 1.65538 4.75485
1.78497 1.66065 4.77287
1.76695 1.65764 4.77105
1.74998 1.65771 4.77517
1.73707 1.65989 4.78724
1.72113 1.66101 4.79435
1.70824 1.66424 4.8094
1.69535 1.66746 4.82345
1.68736 1.66749 4.82551
1.67348 1.67072 4.84057
1.65854 1.67185 4.84866
1.63849 1.66776 4.84187
1.62151 1.66682 4.84502
1.60759 1.66898 4.85509
1.58652 1.66386 4.84632
1.57956 1.66596 4.85235
1.56874 1.6723 4.87534
1.54969 1.66823 4.86954
1.53784 1.67352 4.88855
1.5219 1.67465 4.89666
1.50492 1.67471 4.89979
1.48793 1.67273 4.90094
1.48202 1.67691 4.91293
1.46504 1.67596 4.91507
1.44908 1.67604 4.92019
1.43725 1.68239 4.94319
1.42027 1.68243 4.94532
1.40638 1.68565 4.95937
0.962422 1.70099 5.09851
0.920507 1.70218 5.10981
0.901453 1.69909 5.103
0.867499 1.6992 5.10925
0.850499 1.69822 5.1094
0.844639 1.70449 5.12735
0.826615 1.70245 5.12452
0.793731 1.7057 5.13972
0.775662 1.70258 5.1309
0.757646 1.70056 5.12906
0.7497 1.70267 5.13609
0.733801 1.70688 5.14915
0.716824 1.70693 5.15228
0.698793 1.70489 5.14845
0.682886 1.70808 5.16052
0.664824 1.70497 5.1527
0.648886 1.7071 5.16079
0.638833 1.70501 5.1539
0.621833 1.70402 5.15404
0.607011 1.71137 5.17705
0.587887 1.70515 5.16128
0.572019 1.71041 5.17832
0.555034 1.71045 5.18045
0.537019 1.70943 5.1786
0.521088 1.71158 5.18769
0.51212 1.71364 5.19173
0.494058 1.71054 5.18391
0.477089 1.71061 5.18804
0.460144 1.71273 5.19513
0.443105 1.71067 5.19029
0.42509 1.70965 5.18844
0.408098 1.70968 5.18957
0.399114 1.71071 5.19162
0.382067 1.70764 5.1858
0.365161 1.71183 5.19786
0.348169 1.71185 5.19899
0.330154 1.71084 5.19714
0.313216 1.71297 5.20524
0.296193 1.71194 5.20238
0.28717 1.7109 5.19947
0.270201 1.71197 5.20358
0.252178 1.71094 5.20073
0.23524 1.71307 5.20883
0.218233 1.71207 5.20797
0.201226 1.71206 5.2071
0.192195 1.71101 5.20318
0.175273 1.71417 5.21326
0.157281 1.7142 5.2144
0.140312 1.71527 5.21851
0.123282 1.71422 5.21465
0.105267 1.71321 5.2128
0.0713298 1.71635 5.22101
0.0452603 1.71224 5.21227
1.96789 1.64046 4.49775
1.88022 1.64416 4.54136
1.85728 1.64431 4.55053
1.81549 1.64874 4.57779
1.80156 1.64989 4.58687
1.78864 1.65206 4.59794
1.76471 1.65219 4.60612
1.74975 1.65229 4.61223
1.7348 1.65341 4.61933
1.72087 1.65455 4.62842
1.70491 1.65464 4.63354
1.68894 1.65371 4.63767
1.68504 1.6579 4.65064
1.66806 1.65695 4.65279
1.6531 1.65805 4.65888
1.64531 1.66545 4.68584
1.6181 1.65407 4.65921
1.61032 1.66249 4.68714
1.59741 1.66568 4.69919
1.59147 1.6678 4.70721
1.57346 1.66478 4.70539
1.56159 1.67004 4.7224
1.54666 1.6712 4.7325
1.53069 1.67126 4.73562
1.51678 1.67345 4.74769
1.49979 1.67247 4.74884
1.49692 1.67773 4.76578
1.48096 1.67781 4.7709
1.46192 1.67475 4.76609
1.44801 1.67794 4.77815
1.43512 1.68117 4.7932
1.10786 1.68883 4.89157
1.08391 1.68995 4.89873
1.05095 1.68905 4.90399
1.03395 1.68805 4.90314
1.018 1.68916 4.91024
0.999968 1.68712 4.90641
0.997192 1.69655 4.93529
0.973944 1.68409 4.90365
0.965254 1.69769 4.94352
0.944091 1.68939 4.9228
0.927114 1.68945 4.92592
0.91113 1.68949 4.92804
0.896238 1.69271 4.94211
0.870215 1.69068 4.93934
0.859462 1.70116 4.97127
0.835122 1.68453 4.92769
0.825462 1.69919 4.97155
0.803215 1.68773 4.93989
0.786222 1.68676 4.94103
0.772354 1.69202 4.95806
0.764377 1.69307 4.9611
0.750524 1.69936 4.98012
0.733547 1.69942 4.98324
0.718663 1.70365 4.99829
0.698462 1.69328 4.9726
0.683563 1.69749 4.98565
0.66661 1.69959 4.99175
0.655439 1.69127 4.96995
0.640532 1.69446 4.98202
0.626734 1.70385 5.00799
0.611834 1.70706 5.02105
0.593765 1.70394 5.01223
0.574617 1.69567 4.9935
0.556541 1.69253 4.98368
0.552881 1.70719 5.02749
0.535881 1.7072 5.02762
0.51885 1.70515 5.02378
0.499672 1.69583 5.00106
0.48599 1.71044 5.04195
0.467882 1.70525 5.02816
0.457712 1.69693 5.00636
0.443929 1.70636 5.03433
0.424758 1.69804 5.01259
0.40996 1.70744 5.03857
0.391782 1.69811 5.01584
0.232932 1.70251 5.03598
0.208003 1.70566 5.04512
0.173965 1.70361 5.0404
0.0229172 1.70665 4.90148
0.00604195 1.7129 4.91752
-0.00989547 1.71603 4.92559
-0.026895 1.71604 4.92572
-0.0429723 1.7119 4.9159
-0.0598708 1.71711 4.92895
-0.0678398 1.71817 4.933
-0.0838701 1.71712 4.92913
-0.100846 1.71818 4.93224
-0.116954 1.71399 4.91843
-0.133853 1.71819 4.93149
-0.149899 1.71611 4.92564
-0.16686 1.7182 4.93074
-0.174851 1.71922 4.93179
-0.190897 1.71714 4.92594
-0.207811 1.72132 4.937
-0.223911 1.71714 4.92419
-0.240841 1.72028 4.93327
-0.256833 1.72131 4.93437
-0.272941 1.71611 4.92057
-0.281886 1.71922 4.92759
-0.298761 1.72547 4.94363
-0.3149 1.71922 4.92584
-0.331837 1.72235 4.93392
-0.348813 1.72441 4.93702
-0.362968 1.71712 4.91723
-0.380889 1.72128 4.92731
-0.389765 1.72752 4.94328
-0.405849 1.72437 4.93245
-0.422833 1.72541 4.93456
-0.439809 1.72647 4.93768
-0.455855 1.72539 4.93181
-0.470931 1.72226 4.92197
-0.488861 1.7254 4.93106
-0.496892 1.72435 4.92714
-0.512921 1.7243 4.92326
-0.528936 1.72428 4.92138
-0.545905 1.72536 4.92549
-0.564803 1.73156 4.93854
-0.579872 1.72844 4.9297
-0.596886 1.72842 4.92783
-0.603909 1.72738 4.9249
-0.620908 1.7284 4.92501
-0.636985 1.72526 4.91518
-0.654899 1.73044 4.92624
-0.671867 1.73251 4.93033
-0.686958 1.72934 4.91849
-0.70302 1.72723 4.91064
-0.710996 1.72828 4.91369
-0.728925 1.73243 4.92276
-0.744994 1.73031 4.91391
-0.761009 1.73029 4.91204
-0.777039 1.72924 4.90817
-0.79403 1.73127 4.90927
-0.810083 1.72918 4.90242
-0.818105 1.72914 4.89948
-0.836981 1.73539 4.91553
-0.853042 1.73328 4.90768
-0.869079 1.73322 4.90281
-0.885101 1.73319 4.89993
-0.903062 1.73527 4.90503
-0.917161 1.73209 4.89218
-0.927122 1.73417 4.89723
-0.945059 1.7383 4.9053
-0.960158 1.73512 4.89246
-0.980033 1.74137 4.90852
-0.995117 1.73922 4.89767
-1.01307 1.74232 4.90376
-1.02812 1.74123 4.89688
-1.03711 1.74227 4.89894
-1.05123 1.73704 4.88312
-1.0692 1.74011 4.88721
-1.08328 1.73696 4.87636
-1.09933 1.73688 4.87048
-1.11729 1.73896 4.87459
-1.13235 1.73786 4.86771
-1.14328 1.742 4.87674
-1.15835 1.73988 4.86788
-1.17439 1.73881 4.86202
-1.20935 1.7439 4.86721
-1.23949 1.73965 4.84849
-1.25139 1.74485 4.86151
-1.26451 1.74063 4.84667
-1.31456 1.74257 4.84001
-1.33156 1.74456 4.83911
-1.35052 1.74765 4.84421
-1.35465 1.7424 4.82732
-1.39159 1.74855 4.83551
-1.41976 1.74324 4.81379
-1.43871 1.74735 4.81988
-1.4528 1.74418 4.80803
-1.46276 1.74726 4.81306
-1.48271 1.75136 4.81915
-1.49777 1.75025 4.81128
-1.51478 1.75125 4.81039
-1.53373 1.75535 4.81647
-1.54977 1.75529 4.81159
-1.56679 1.75626 4.80871
-1.57969 1.76246 4.82171
-1.59281 1.75823 4.80587
-1.60787 1.75613 4.79802
-1.62878 1.76332 4.81007
-1.64188 1.76012 4.79621
-1.65695 1.758 4.78736
-1.67886 1.76418 4.79843
-1.682 1.75893 4.78153
-1.70291 1.76511 4.7926
-1.72385 1.76922 4.7997
-1.73598 1.76598 4.78283
-1.75495 1.76905 4.78693
-1.77296 1.77105 4.78604
-1.78702 1.76893 4.77717
-1.79505 1.76889 4.77424
-1.81208 1.76984 4.77035
-1.82323 1.76456 4.75051
-1.84612 1.77178 4.76458
-1.85823 1.76857 4.74971
-1.88836 1.76634 4.73297
-1.90325 1.77256 4.74699
-1.91831 1.77245 4.73911
-1.93631 1.77446 4.73921
-1.96839 1.77432 4.72845
-1.98443 1.77526 4.72356
-2.00146 1.77621 4.71967
-2.00751 1.77411 4.71275
-2.02552 1.77611 4.71186
-2.04255 1.77705 4.70697
-2.0658 1.76959 4.67525
2.04035 1.6354 4.29425
2.03338 1.63547 4.2983
2.01945 1.6366 4.30639
2.00549 1.6367 4.3125
1.99258 1.63887 4.32356
1.98168 1.64107 4.33661
1.97283 1.64737 4.35659
1.95687 1.64646 4.36172
1.94887 1.64548 4.3628
1.93697 1.64868 4.37584
1.92506 1.65085 4.3869
1.90909 1.64992 4.39104
1.89822 1.65418 4.40806
1.88222 1.65219 4.40821
1.86727 1.65229 4.41432
1.86541 1.65857 4.43324
1.85044 1.65864 4.43736
1.8355 1.65876 4.44447
1.80965 1.66307 4.4646
0.366926 1.71143 4.90082
0.293019 1.71366 4.91334
0.276997 1.71263 4.91048
0.261121 1.71787 4.92652
0.25202 1.71369 4.91365
0.236098 1.71685 4.92372
0.220013 1.7127 4.91291
0.203091 1.71586 4.92299
0.187068 1.71482 4.92012
0.170076 1.71485 4.92125
0.154061 1.71383 4.91939
0.146022 1.71176 4.91448
0.129093 1.71591 4.92354
0.113055 1.71385 4.91869
0.097055 1.71386 4.91882
0.0800398 1.71284 4.91696
0.0640478 1.71287 4.91808
0.0469862 1.70976 4.91025
0.0391182 1.71602 4.92722
0.0241913 1.71321 4.80436
0.00838567 1.72259 4.82934
-0.00779208 1.71426 4.80658
-0.0167222 1.7174 4.81561
-0.032605 1.72363 4.83064
-0.0487677 1.71534 4.80988
-0.0647823 1.71532 4.808
-0.0967274 1.71745 4.81521
-0.11275 1.71741 4.81233
-0.120664 1.72158 4.82333
-0.136866 1.71121 4.7976
-0.152679 1.72057 4.82158
-0.168748 1.71745 4.81275
-0.185709 1.71954 4.81785
-0.201684 1.7216 4.82094
-0.21763 1.72371 4.82803
-0.224862 1.71227 4.79825
-0.242582 1.72682 4.83417
-0.256822 1.71537 4.80344
-0.272829 1.71537 4.80256
-0.304882 1.71329 4.79584
-0.322703 1.72264 4.81883
-0.329749 1.72056 4.81292
-0.345818 1.71743 4.80408
-0.363623 1.72782 4.82907
-0.377847 1.7174 4.80032
-0.395669 1.72575 4.82334
-0.410722 1.72366 4.81648
-0.428559 1.73198 4.8375
-0.433868 1.71739 4.79775
-0.45079 1.72155 4.80781
-0.468626 1.72988 4.82883
-0.499772 1.72462 4.81014
-0.532747 1.72669 4.81336
-0.538855 1.72149 4.79948
-0.555831 1.72354 4.80257
-0.572799 1.72561 4.80667
-0.587884 1.72246 4.79583
-0.60665 1.73392 4.82581
-0.620797 1.72765 4.807
-0.636873 1.72551 4.79716
-0.647663 1.73592 4.82409
-0.659926 1.72343 4.79036
-0.678793 1.73069 4.8074
-0.692901 1.72649 4.79356
-0.708946 1.72542 4.7877
-0.726829 1.73165 4.80274
-0.739983 1.72536 4.78293
-0.751819 1.73368 4.8039
-0.764036 1.72328 4.77614
-0.781941 1.72947 4.78819
-0.801739 1.73987 4.81419
-0.812064 1.72525 4.77248
-0.83097 1.73045 4.78454
-0.847945 1.7325 4.78764
-0.854015 1.72937 4.77873
-0.869076 1.72727 4.77087
-0.886067 1.72929 4.77197
-0.905887 1.73865 4.79499
-0.921925 1.73758 4.79012
-0.940807 1.74482 4.80516
-0.950116 1.73124 4.76543
-0.963883 1.74269 4.79536
-0.977037 1.7364 4.77555
-0.993075 1.73534 4.77069
-1.01389 1.7457 4.7937
-1.02224 1.73005 4.74998
-1.04403 1.74145 4.77598
-1.0671 1.74033 4.76717
-1.1001 1.74236 4.76739
-1.12634 1.7329 4.73572
-1.14237 1.73286 4.73185
-1.1834 1.73483 4.72813
-1.20133 1.73997 4.73719
-1.23437 1.73991 4.73143
-1.26639 1.74189 4.72865
-1.28851 1.73868 4.71386
-1.36766 1.73944 4.69444
-1.47278 1.74327 4.67817
-1.47883 1.74117 4.67125
-1.49975 1.74735 4.68232
-1.53082 1.74722 4.67255
-1.5449 1.74508 4.66269
-1.56383 1.75021 4.67076
-1.58574 1.75741 4.68282
-1.58398 1.74595 4.65197
-1.60587 1.75316 4.66503
-1.61703 1.74687 4.6452
-1.64184 1.75824 4.66922
-1.64712 1.74671 4.63343
-1.67194 1.75707 4.65647
-1.68994 1.75908 4.65657
-1.69305 1.75486 4.64166
-1.71886 1.76625 4.66669
-1.7212 1.75059 4.62193
-1.74602 1.76195 4.64495
-1.75718 1.75666 4.62511
-1.77614 1.76075 4.63019
-1.79901 1.769 4.64625
-1.79528 1.75648 4.6114
-1.81817 1.7637 4.62547
-1.83127 1.76052 4.61261
-1.8473 1.76147 4.60872
-1.86823 1.7676 4.61678
-1.87348 1.75614 4.58499
-1.9003 1.76849 4.60801
-1.90439 1.76534 4.59709
-1.91748 1.76217 4.58523
-1.95444 1.76925 4.58941
-1.9695 1.76815 4.58153
-1.98651 1.77014 4.58063
-1.99764 1.7659 4.56378
-2.02759 1.77201 4.56991
-2.0567 1.77081 4.55515
-2.06292 1.76138 4.52633
2.19863 1.62291 4.06521
2.17275 1.62417 4.08139
2.14106 1.63278 4.12151
2.11998 1.62667 4.11275
2.11301 1.62673 4.11681
2.10923 1.63615 4.1447
2.09732 1.63833 4.15676
2.07117 1.62807 4.1381
2.06535 1.63542 4.16104
2.05037 1.63347 4.16419
2.04558 1.64187 4.1911
2.03658 1.64088 4.19118
2.01551 1.63476 4.18243
2.00867 1.64108 4.20339
2.00186 1.64844 4.22734
1.98078 1.64231 4.21759
1.96784 1.64243 4.22568
1.96103 1.64979 4.24963
1.94591 1.64258 4.23485
1.93705 1.64786 4.25284
1.91119 1.65116 4.27199
1.90029 1.65436 4.28502
1.82563 1.65906 4.32952
0.400028 1.70964 4.78158
0.368029 1.70966 4.78182
0.296123 1.71189 4.79433
0.264031 1.70774 4.78263
0.232086 1.70987 4.78984
0.200156 1.71202 4.79905
0.176133 1.711 4.79625
0.144134 1.71102 4.79649
0.128227 1.71521 4.80855
0.0961585 1.7121 4.79983
0.0882905 1.71835 4.8168
0.0722364 1.71526 4.80997
0.0562757 1.71735 4.81506
-0.0109647 1.70397 4.65174
-0.0960313 1.7019 4.64341
-0.267994 1.70608 4.64864
-1.73545 1.74316 4.45712
-1.80753 1.74903 4.44558
-1.83369 1.74475 4.42584
-1.85968 1.74877 4.42597
-1.87767 1.7508 4.42708
-1.93783 1.75253 4.4065
-1.96187 1.75346 4.40067
-1.97103 1.74817 4.38081
-1.99392 1.75538 4.39388
-2.00504 1.75217 4.37901
-2.03904 1.75718 4.37819
1.88109 1.64302 4.12631
1.86 1.63586 4.11458
1.844 1.63388 4.11573
1.83718 1.64123 4.13867
1.81914 1.63717 4.13387
1.8062 1.63728 4.14097
1.7953 1.64149 4.15499
1.79037 1.64362 4.16299
1.78355 1.65098 4.18694
1.76757 1.64902 4.18909
1.74951 1.64393 4.1823
1.73555 1.64401 4.1874
1.73385 1.65859 4.22621
1.71685 1.6566 4.22636
1.71088 1.65666 4.23041
1.68876 1.64844 4.21469
1.67889 1.65372 4.23269
1.65507 1.65908 4.2558
1.63498 1.65193 4.24505
1.63005 1.65506 4.25405
1.62019 1.66034 4.27204
1.60829 1.66352 4.28409
1.59228 1.66152 4.28324
1.56233 1.65965 4.29049
1.55248 1.66593 4.30948
1.54551 1.666 4.31353
1.51759 1.66718 4.32472
1.47164 1.66432 4.33211
0.835226 1.68783 4.54259
0.82235 1.69308 4.55861
0.768428 1.69426 4.569
0.706451 1.69235 4.57249
0.66742 1.68832 4.56885
0.653567 1.69561 4.58785
0.638606 1.6967 4.59294
0.624652 1.6978 4.59903
0.592653 1.69682 4.59929
0.576575 1.69268 4.58947
0.56963 1.69479 4.59649
0.553614 1.69378 4.59463
0.539754 1.70005 4.61264
0.523707 1.69697 4.60681
0.508762 1.69909 4.61389
0.49056 1.68872 4.58818
0.476731 1.69605 4.61018
0.468692 1.69399 4.60527
0.4537 1.69401 4.60638
0.421638 1.68992 4.59868
0.406732 1.6941 4.61073
0.391755 1.69516 4.61383
0.375646 1.68896 4.60004
0.368771 1.69521 4.616
0.353864 1.69939 4.62805
0.336686 1.69007 4.60532
0.324012 1.7057 4.64719
0.306756 1.69322 4.6145
0.290734 1.69219 4.61163
0.276989 1.70369 4.64457
0.267803 1.69434 4.62078
0.252866 1.69747 4.62884
0.22182 1.6944 4.62312
0.190898 1.69857 4.6333
0.17593 1.69964 4.63739
0.167992 1.70277 4.64541
0.151837 1.69448 4.62565
0.136837 1.69449 4.62576
0.120931 1.69868 4.63782
0.0749168 1.69869 4.63617
0.0669321 1.69872 4.63823
0.0511264 1.7081 4.66321
0.0280045 1.70591 4.5144
0.012966 1.70385 4.50954
0.00590413 1.70074 4.50164
-0.00993228 1.70906 4.52264
-0.0250793 1.70179 4.50386
-0.0400789 1.7018 4.50397
-0.0549931 1.70597 4.51502
-0.0700699 1.70284 4.50518
-0.0849998 1.70598 4.51425
-0.0930303 1.70493 4.51032
-0.108092 1.70182 4.50248
-0.123053 1.7039 4.50756
-0.138037 1.70495 4.50966
-0.15309 1.70285 4.50281
-0.168051 1.70494 4.50789
-0.183965 1.70911 4.51895
-0.191081 1.7029 4.50409
-0.206034 1.70599 4.51016
-0.221018 1.70703 4.51226
-0.236103 1.70288 4.50143
-0.252048 1.706 4.5085
-0.266993 1.70911 4.51557
-0.274085 1.70494 4.50369
-0.290054 1.70701 4.50778
-0.304983 1.71115 4.51683
-0.320068 1.707 4.506
-0.335059 1.70803 4.5071
-0.350036 1.70908 4.5102
-0.365089 1.70699 4.50334
-0.381026 1.71112 4.5114
-0.388049 1.71008 4.50847
-0.403971 1.71424 4.51853
-0.418095 1.70802 4.50273
-0.434961 1.71628 4.51973
-0.44903 1.71316 4.51088
-0.464115 1.709 4.50006
-0.480021 1.71419 4.5121
-0.48613 1.70899 4.49822
-0.501144 1.70897 4.49634
-0.51898 1.7183 4.51734
-0.532127 1.71102 4.49854
-0.547134 1.71102 4.49765
-0.564009 1.71827 4.51367
-0.586116 1.71408 4.4999
-0.602084 1.71615 4.50399
-0.615169 1.713 4.49314
-0.63116 1.71402 4.49424
-0.64619 1.71297 4.49037
-0.661189 1.71398 4.49047
-0.67718 1.71601 4.49156
-0.684211 1.71396 4.48764
-0.730208 1.71699 4.48794
-0.761183 1.72006 4.49113
-0.77526 1.71692 4.48128
-0.783228 1.71898 4.48531
-0.81521 1.72204 4.48751
-0.829271 1.71993 4.47964
-0.844293 1.7199 4.47676
-0.861214 1.72505 4.48681
-0.876245 1.72401 4.48294
-0.885189 1.72812 4.48995
-0.898298 1.72292 4.47612
-0.914273 1.72497 4.47921
-0.928349 1.72284 4.46935
-0.946232 1.73007 4.48438
-0.95934 1.72487 4.47055
-0.974362 1.72484 4.46766
-0.981377 1.72482 4.46572
-1.01241 1.72576 4.46093
-1.02838 1.72884 4.46501
-1.04149 1.72464 4.45117
-1.05649 1.72565 4.45127
-1.07151 1.72562 4.44838
-1.08147 1.7287 4.45341
-1.09356 1.72453 4.44156
-1.11151 1.72964 4.44862
-1.13863 1.72543 4.43289
-1.17062 1.72845 4.43308
-1.19269 1.72735 4.42526
-1.24066 1.73343 4.42854
-1.26779 1.7292 4.4118
-1.27482 1.72914 4.40785
-1.29372 1.73533 4.41991
-1.32087 1.73107 4.40117
-1.37392 1.73399 4.39353
-1.40692 1.73701 4.39373
-1.46605 1.73781 4.37716
-1.48908 1.73875 4.37232
-1.50312 1.73868 4.36743
-1.51816 1.73862 4.36254
-1.53416 1.73962 4.36165
-1.55212 1.7437 4.36672
-1.5652 1.74157 4.35685
-1.57614 1.74569 4.36487
-1.58823 1.74352 4.35299
-1.60325 1.74349 4.35011
-1.62219 1.74861 4.35718
-1.63819 1.75062 4.35727
-1.6503 1.74742 4.3434
-1.66826 1.75151 4.34848
-1.67333 1.74838 4.33956
-1.6913 1.75243 4.34264
-1.72037 1.75332 4.33384
-1.73834 1.75638 4.33693
-1.75337 1.75733 4.33303
-1.76548 1.75313 4.31918
-1.77445 1.7562 4.32321
-1.79341 1.76029 4.32829
-1.80452 1.75707 4.31342
-1.82348 1.76116 4.3185
-1.86662 1.76092 4.30083
-1.89064 1.76288 4.29698
-1.90371 1.76176 4.28809
-1.9328 1.7616 4.27631
-1.95992 1.75939 4.26055
-1.97087 1.7645 4.26756
-1.98001 1.75924 4.2497
-1.99996 1.76433 4.25478
-2.01304 1.76219 4.2449
-2.02512 1.76003 4.23403
-2.03622 1.75786 4.22214
-2.04339 1.75053 4.1993
1.93743 1.62673 3.9071
1.93552 1.6299 3.91807
1.92156 1.63 3.92417
1.91063 1.63214 3.93323
1.89972 1.63432 3.94528
1.88372 1.63234 3.94543
1.87586 1.63761 3.96341
1.86393 1.63875 3.97249
1.85594 1.63777 3.97356
1.84706 1.64301 3.98955
1.83411 1.64311 3.99565
1.82423 1.64735 4.01166
1.80924 1.64538 4.0128
1.79528 1.64546 4.01791
1.79237 1.64864 4.02989
1.78044 1.6508 4.03995
1.7675 1.65191 4.04703
1.75658 1.65408 4.05808
1.7406 1.65313 4.06021
1.71572 1.65538 4.07637
1.68285 1.65666 4.0936
0.502717 1.70003 4.4749
0.480732 1.70008 4.47707
0.435779 1.7012 4.48339
0.420818 1.70229 4.48849
0.397787 1.70024 4.48469
0.367881 1.70444 4.49686
0.352819 1.70034 4.48903
0.337851 1.70241 4.49311
0.322936 1.70558 4.50418
0.307851 1.70143 4.49335
0.299874 1.70248 4.4964
0.285952 1.70564 4.50646
0.269913 1.70357 4.50161
0.254891 1.70254 4.49874
0.239968 1.7057 4.5088
0.22493 1.70364 4.50395
0.217992 1.70676 4.51195
0.203039 1.70886 4.51804
0.186954 1.70471 4.50722
0.171985 1.70578 4.51131
0.141955 1.70374 4.50757
0.125893 1.70063 4.49974
0.119057 1.70895 4.52067
0.103987 1.70583 4.51183
0.0890887 1.71103 4.52486
0.0741042 1.71107 4.52698
0.0589647 1.70382 4.50919
0.0429966 1.70589 4.51328
0.0300953 1.70812 4.39333
0.0160104 1.70397 4.3825
0.00104971 1.70605 4.38758
-0.0139963 1.70397 4.38172
-0.0280812 1.69982 4.37089
-0.0430262 1.70294 4.37796
-0.050026 1.70294 4.37801
-0.0650105 1.70298 4.38012
-0.0799863 1.70504 4.38321
-0.0940718 1.69988 4.37239
-0.109017 1.703 4.37945
-0.124008 1.70402 4.38055
-0.139054 1.70195 4.3747
-0.146937 1.70817 4.38966
-0.16096 1.70714 4.38679
-0.175921 1.70922 4.39187
-0.190084 1.70092 4.37109
-0.205044 1.70301 4.37618
-0.220896 1.7113 4.39518
-0.234043 1.70403 4.37638
-0.242058 1.70301 4.37446
-0.257034 1.70506 4.37754
-0.27287 1.71338 4.39854
-0.287892 1.71335 4.39565
-0.301001 1.70815 4.38182
-0.316039 1.70609 4.37697
-0.331015 1.70815 4.38005
-0.33896 1.71125 4.38707
-0.367084 1.70504 4.37137
-0.382989 1.71123 4.3834
-0.397012 1.71019 4.38052
-0.41391 1.7164 4.39356
-0.427018 1.7112 4.37973
-0.436854 1.71952 4.40068
-0.448079 1.7081 4.37193
-0.463117 1.70703 4.36706
-0.478116 1.70805 4.36716
-0.494015 1.71325 4.3802
-0.523052 1.7132 4.37542
-0.52916 1.70799 4.36154
-0.544112 1.71109 4.36761
-0.575056 1.71522 4.37478
-0.589141 1.71107 4.36395
-0.60414 1.71208 4.36405
-0.619116 1.71413 4.36713
-0.627061 1.71724 4.37415
-0.640193 1.711 4.35733
-0.655168 1.71305 4.36042
-0.669206 1.71199 4.35554
-0.684228 1.71196 4.35265
-0.699243 1.71194 4.35076
-0.715172 1.71608 4.35982
-0.721265 1.71191 4.34793
-0.73814 1.71916 4.36395
-0.751231 1.71599 4.3521
-0.768176 1.71911 4.35918
-0.781238 1.717 4.35131
-0.797228 1.71902 4.3524
-0.81222 1.72005 4.3535
-0.821172 1.72315 4.35952
-0.83714 1.72622 4.36359
-0.849232 1.72205 4.35175
-0.867138 1.72824 4.36379
-0.880215 1.7251 4.35393
-0.893292 1.72196 4.34408
-0.912158 1.73023 4.3611
-0.919181 1.72919 4.35817
-0.935164 1.73223 4.36024
-0.949217 1.73013 4.35338
-0.966153 1.73526 4.36143
-0.978262 1.73007 4.3476
-0.992299 1.729 4.34272
-1.00632 1.72897 4.33982
-1.01335 1.72891 4.33588
-1.03032 1.73199 4.33996
-1.04048 1.72368 4.31916
-1.0555 1.72466 4.31726
-1.06952 1.72463 4.31436
-1.08552 1.72664 4.31445
-1.1044 1.73388 4.32949
-1.11043 1.73282 4.32555
-1.1206 1.7255 4.30373
-1.13465 1.72341 4.29687
-1.15451 1.73269 4.31488
-1.18259 1.73155 4.30411
-1.19371 1.72633 4.28927
-1.20269 1.72837 4.29131
-1.23172 1.72933 4.28751
-1.24674 1.7303 4.28461
-1.2637 1.73438 4.28968
-1.28068 1.73644 4.29277
-1.29472 1.73638 4.28788
-1.29785 1.73013 4.27099
-1.31285 1.73114 4.27109
-1.32494 1.72797 4.25923
-1.3419 1.73206 4.2643
-1.35497 1.72992 4.25443
-1.37096 1.73194 4.25552
-1.38792 1.73603 4.26058
-1.39495 1.73498 4.25665
-1.41094 1.73802 4.25873
-1.42303 1.73485 4.24686
-1.43316 1.72961 4.23002
-1.4521 1.73474 4.23808
-1.46514 1.73366 4.2322
-1.47919 1.73356 4.2253
-1.48719 1.73459 4.22635
-1.50514 1.73869 4.23242
-1.52503 1.74689 4.24545
-1.54007 1.74683 4.24057
-1.55509 1.7468 4.23768
-1.56618 1.74363 4.22581
-1.58317 1.74667 4.22789
-1.59117 1.74766 4.22694
-1.60521 1.7476 4.22204
-1.62317 1.75168 4.22712
-1.63232 1.74641 4.20826
-1.65322 1.7536 4.22032
-1.66726 1.75354 4.21542
-1.68031 1.75244 4.20854
-1.68832 1.75343 4.20758
-1.70137 1.75234 4.2007
-1.71347 1.74916 4.18783
-1.73438 1.75635 4.19988
-1.75657 1.75099 4.17513
-1.78156 1.75401 4.17527
-1.82565 1.75587 4.16357
-1.84166 1.75785 4.16167
-1.85571 1.75777 4.15577
-1.87481 1.75559 4.14295
-1.96104 1.75819 4.11255
-1.97521 1.75187 4.08975
-1.99812 1.76006 4.1018
-2.01118 1.75895 4.09392
-2.0262 1.76092 4.091
-2.0363 1.75773 4.07812
-2.0533 1.76074 4.07821
-2.04851 1.74933 4.05033
1.98419 1.62327 3.74278
1.96132 1.62554 3.75992
1.93847 1.62884 3.77904
1.93045 1.62681 3.77713
1.90555 1.62802 3.79031
1.88066 1.62925 3.80448
1.87484 1.63659 3.82742
1.86087 1.63566 3.83153
1.85095 1.63783 3.84258
1.84397 1.63787 3.84463
1.82897 1.63589 3.84577
1.81908 1.64011 3.85979
1.80918 1.64331 3.87282
1.79622 1.64339 3.87791
1.78837 1.64869 3.8979
1.77541 1.64878 3.90299
0.338879 1.7015 4.3641
0.221998 1.7048 4.37993
0.14107 1.70799 4.3895
0.126 1.70387 4.38067
0.111047 1.70597 4.38675
0.0969848 1.70286 4.3789
0.0820166 1.70493 4.38299
0.0670478 1.706 4.38708
0.0600323 1.70498 4.38515
0.0450798 1.70808 4.39122
-0.823209 1.7261 4.22147
-0.838215 1.7271 4.22057
-0.845208 1.72712 4.22162
-0.861175 1.73019 4.2257
-0.870392 1.71978 4.19792
-0.889243 1.72908 4.21692
-0.904219 1.73113 4.22001
-0.916326 1.72693 4.20616
-0.933255 1.73208 4.21521
-0.952339 1.72893 4.2044
-0.967369 1.72888 4.20051
-0.983321 1.73298 4.20657
-0.995398 1.72984 4.19671
-1.00942 1.72981 4.19382
-1.02538 1.73289 4.19889
-1.02952 1.72663 4.18101
-1.04449 1.72869 4.18409
-1.06142 1.73383 4.19315
-1.07354 1.72962 4.1783
-1.08852 1.73166 4.18038
-1.10254 1.73162 4.17749
-1.11659 1.73055 4.17161
-1.12068 1.72637 4.1597
-1.1347 1.72635 4.1578
-1.1497 1.72836 4.15789
-1.16372 1.72831 4.15399
-1.17679 1.72619 4.14512
-1.19374 1.73031 4.15219
-1.20192 1.72196 4.12837
-1.21381 1.72919 4.14336
-1.22588 1.72605 4.13349
-1.23991 1.726 4.1296
-1.25589 1.72905 4.13267
-1.2699 1.73004 4.13077
-1.28492 1.73102 4.12886
-1.30187 1.73512 4.13493
-1.30694 1.73199 4.12602
-1.31608 1.72573 4.10817
-1.33597 1.73393 4.1212
-1.35486 1.74116 4.13524
-1.36206 1.73178 4.10943
-1.37805 1.7348 4.11051
-1.39304 1.73683 4.11159
-1.3942 1.72853 4.09172
-1.4141 1.73674 4.10475
-1.42813 1.73668 4.09985
-1.44019 1.73457 4.09198
-1.45717 1.73762 4.09506
-1.47315 1.74066 4.09713
-1.48521 1.73955 4.08924
-1.49613 1.74471 4.09925
-1.50627 1.73947 4.0824
-1.51639 1.73424 4.06655
-1.53825 1.74452 4.08457
-1.55227 1.74548 4.08166
-1.56827 1.7475 4.08175
-1.5844 1.74324 4.06393
-1.60137 1.74631 4.06801
-1.64347 1.74714 4.05432
-1.89916 1.75094 3.96317
-1.91221 1.75086 3.95727
-1.93018 1.75594 3.96133
-1.94422 1.75586 3.95544
-1.94632 1.75067 3.94253
-1.96526 1.75678 3.94958
-1.97439 1.75255 3.93371
-1.9894 1.75454 3.9318
-2.01845 1.75645 3.92499
-2.02954 1.75428 3.9131
-2.03262 1.75114 3.90317
2.10634 1.61156 3.497
2.03575 1.61841 3.55143
2.02787 1.62163 3.56645
2.00984 1.61759 3.56264
1.9989 1.61871 3.57071
1.98797 1.61987 3.58078
1.97804 1.62201 3.58982
1.9741 1.62413 3.59782
1.9652 1.62733 3.61084
1.95021 1.62536 3.61198
1.93927 1.62548 3.62007
1.93138 1.6297 3.63406
1.91741 1.62876 3.63818
1.90851 1.63196 3.65121
1.90354 1.63303 3.65523
1.89262 1.63518 3.66528
1.87863 1.63322 3.66741
1.86669 1.63435 3.67549
1.8578 1.63856 3.6895
1.84483 1.63763 3.69361
1.84191 1.64078 3.70358
1.832 1.64397 3.71561
1.81701 1.64199 3.71676
1.79615 1.64529 3.73587
-1.15557 1.72765 4.04193
-1.16762 1.72655 4.03503
-1.18457 1.73165 4.04109
-1.19759 1.73162 4.03818
-1.20968 1.72747 4.02734
-1.22272 1.72739 4.02143
-1.22972 1.72739 4.02149
-1.2457 1.73145 4.02455
-1.25874 1.73037 4.01866
-1.27081 1.72724 4.0098
-1.28484 1.72821 4.00689
-1.30081 1.73127 4.00996
-1.30995 1.72501 3.99212
-1.31987 1.73116 4.00211
-1.3339 1.73111 3.99821
-1.34498 1.72696 3.98736
-1.36194 1.73206 3.99341
-1.37792 1.7351 3.99549
-1.38999 1.73297 3.98661
-1.40204 1.73188 3.97971
-1.41297 1.73702 3.98872
-1.42405 1.73388 3.97885
-1.44004 1.73691 3.97992
-1.45503 1.73892 3.98001
-1.46417 1.73367 3.96315
-1.48112 1.73777 3.96922
-1.49122 1.73359 3.95636
-1.50215 1.73872 3.96436
-1.51325 1.73555 3.95249
-1.52726 1.73653 3.95058
-1.54227 1.73852 3.94967
-1.55726 1.74053 3.94975
-1.5703 1.74047 3.94485
-1.58335 1.73937 3.93796
-1.59231 1.74245 3.94298
-1.60242 1.73926 3.92911
-1.61644 1.73922 3.92621
-1.63244 1.74223 3.92629
-1.64351 1.74011 3.9174
-1.67255 1.74204 3.91159
-1.68151 1.74612 3.9166
-1.70859 1.74598 3.9058
-1.76274 1.74673 3.8872
-1.77172 1.74877 3.88924
-1.79583 1.74757 3.87443
-1.82389 1.74847 3.86663
-1.83594 1.74837 3.85972
-1.85193 1.7514 3.8608
-1.85995 1.75138 3.85886
-1.86709 1.7451 3.84
-1.88406 1.75017 3.84405
-1.89612 1.74906 3.83616
-1.90721 1.74691 3.82528
-1.93822 1.7509 3.82345
-1.93932 1.74671 3.81052
-1.96934 1.75067 3.80668
-1.97747 1.74544 3.79082
-1.99544 1.7505 3.79388
-2.00553 1.74734 3.783
-2.0166 1.7462 3.7731
-2.03248 1.75443 3.7881
-2.03962 1.74917 3.77023
2.10544 1.61078 3.377
2.09347 1.60986 3.3821
2.08152 1.60996 3.38819
2.0716 1.61211 3.39824
2.0637 1.61531 3.41125
2.0487 1.61232 3.41141
2.04982 1.61856 3.42731
2.03482 1.61557 3.42747
2.02084 1.61363 3.4306
2.01091 1.61577 3.43964
2.00301 1.61896 3.45266
1.99207 1.62009 3.46073
1.98012 1.62019 3.46682
1.9782 1.62435 3.47777
1.96524 1.62344 3.48288
1.9543 1.62456 3.49095
1.94031 1.62159 3.4921
1.93241 1.6258 3.5061
1.92046 1.6259 3.51219
1.91257 1.63011 3.52619
1.90863 1.63223 3.53418
1.8987 1.63437 3.54323
1.88574 1.63345 3.54834
1.87377 1.63354 3.55343
1.86284 1.63468 3.5625
1.85394 1.63888 3.5755
1.8111 1.6392 3.59582
-1.16455 1.71373 3.91218
-1.17952 1.7168 3.91625
-1.19547 1.72092 3.92331
-1.20754 1.71878 3.91343
-1.2196 1.71768 3.90654
-1.23557 1.72074 3.90961
-1.25055 1.72379 3.91268
-1.25462 1.72066 3.90376
-1.26768 1.71855 3.89589
-1.28264 1.72264 3.90094
-1.30154 1.72983 3.91298
-1.3136 1.72772 3.9051
-1.32663 1.72767 3.9012
-1.3338 1.72035 3.87936
-1.34179 1.72137 3.8804
-1.35581 1.72235 3.87849
-1.37079 1.72539 3.88056
-1.3809 1.72019 3.86671
-1.39392 1.72116 3.86379
-1.42196 1.72309 3.85798
-1.42994 1.72514 3.86101
-1.44102 1.72198 3.85014
-1.45503 1.72398 3.84921
-1.47003 1.72599 3.84929
-1.48207 1.72491 3.8434
-1.49317 1.72174 3.83153
-1.50717 1.72374 3.83061
-1.51808 1.72991 3.8416
-1.52818 1.72572 3.82873
-1.54221 1.72667 3.82482
-1.5572 1.7287 3.82591
-1.57024 1.72863 3.82101
-1.58328 1.72857 3.8161
-1.59631 1.72952 3.81219
-1.60528 1.73157 3.81523
-1.61635 1.73044 3.80632
-1.62841 1.72834 3.79845
-1.64732 1.73651 3.80947
-1.65644 1.7313 3.79461
-1.67438 1.73743 3.80266
-1.68448 1.73323 3.78879
-1.68854 1.73113 3.78185
-1.70451 1.73518 3.78492
-1.71952 1.73718 3.784
-1.72961 1.73401 3.77212
-1.75148 1.74426 3.78814
-1.76159 1.74006 3.77427
-1.76971 1.73584 3.75939
-1.78163 1.74099 3.76841
-1.79566 1.74295 3.76549
-1.80476 1.73875 3.75161
-1.81583 1.73663 3.74273
-1.83574 1.7448 3.75376
-1.84191 1.7375 3.73291
-1.86085 1.74361 3.73996
-1.86786 1.7446 3.739
-1.87402 1.7373 3.71815
-1.89393 1.74548 3.72918
-1.90401 1.74332 3.71829
-1.92198 1.74739 3.72236
-1.92714 1.74009 3.70151
-1.94708 1.74722 3.70955
-1.94326 1.73686 3.68568
-1.96024 1.74192 3.68873
-1.97327 1.74287 3.68481
-1.98238 1.73865 3.66994
-2.00033 1.74375 3.676
-2.01043 1.74158 3.66411
2.22896 1.6008 3.18119
2.1942 1.60429 3.2124
2.09466 1.60626 3.27413
2.09284 1.6146 3.29702
2.06384 1.60864 3.29833
2.05898 1.61491 3.31628
2.046 1.61296 3.31941
2.03404 1.61305 3.32449
2.03009 1.61414 3.33051
2.02117 1.61631 3.34155
2.01023 1.61743 3.34961
2.00335 1.62166 3.3646
1.98834 1.61866 3.36376
1.9774 1.61978 3.37183
1.96645 1.61988 3.37791
1.96149 1.62096 3.38293
1.94749 1.61798 3.38408
1.93756 1.62012 3.39313
1.93068 1.62436 3.40912
1.92075 1.6265 3.41816
1.90575 1.62352 3.41832
1.89683 1.62567 3.42836
1.88487 1.62577 3.43445
1.88195 1.62892 3.44442
1.87304 1.63209 3.45544
1.856 1.62704 3.45165
1.84708 1.62919 3.46168
1.84122 1.63546 3.47964
1.82521 1.63246 3.4788
1.80929 1.63364 3.48991
1.80242 1.63888 3.50588
1.77545 1.63596 3.51013
-1.32545 1.72406 3.79223
-1.33052 1.72194 3.78429
-1.3406 1.71879 3.77342
-1.35558 1.72184 3.77648
-1.3787 1.71862 3.7607
-1.39173 1.71857 3.7568
-1.40867 1.72369 3.76385
-1.40981 1.71642 3.74597
-1.4248 1.71845 3.74705
-1.45084 1.72038 3.74122
-1.46487 1.72134 3.73831
-1.4769 1.72129 3.7344
-1.48992 1.72126 3.7315
-1.49595 1.7212 3.72754
-1.51291 1.72529 3.73261
-1.52397 1.72418 3.72471
-1.53406 1.72101 3.71283
-1.5471 1.72094 3.70793
-1.55815 1.71985 3.70103
-1.5751 1.72495 3.70708
-1.58211 1.72494 3.70613
-1.59319 1.7228 3.69625
-1.61014 1.7289 3.70229
-1.61924 1.72471 3.68942
-1.63129 1.72362 3.68252
-1.64922 1.72975 3.69057
-1.65636 1.7245 3.6737
-1.66338 1.72447 3.67075
-1.67739 1.72545 3.66884
-1.69041 1.72743 3.66691
-1.70246 1.72633 3.66001
-1.71844 1.72937 3.66209
-1.7413 1.74065 3.6801
-1.74252 1.72923 3.65127
-1.75937 1.74053 3.67123
-1.76257 1.73115 3.64539
-1.77855 1.73419 3.64747
-1.79355 1.73619 3.64655
-1.79872 1.72888 3.6257
-1.81469 1.73294 3.62876
-1.83265 1.73902 3.6338
-1.83866 1.739 3.63185
-1.8458 1.73274 3.61399
-1.86967 1.74401 3.63101
-1.87088 1.73361 3.60417
-1.88096 1.73145 3.59327
-1.89498 1.73242 3.59036
-1.90703 1.73234 3.58446
-1.90813 1.72715 3.57154
-1.93002 1.73737 3.58555
-1.94206 1.73729 3.57965
-1.95018 1.73307 3.56477
-1.97307 1.7423 3.57881
-1.97624 1.73496 3.55593
-1.9873 1.73385 3.54803
-2.00024 1.73898 3.55606
-2.00341 1.73065 3.5342
-2.02433 1.73882 3.54424
-2.02652 1.73045 3.51938
2.24731 1.6125 3.09386
2.21851 1.61491 3.12005
2.21262 1.61912 3.13403
2.18548 1.60687 3.11642
2.1724 1.59975 3.10762
2.1645 1.60293 3.11963
2.14076 1.61045 3.15371
2.07698 1.60794 3.18423
2.05609 1.60916 3.19837
2.03327 1.61254 3.22249
2.01623 1.60748 3.2177
2.00752 1.62003 3.25458
1.64028 1.64371 3.48803
-1.35342 1.73017 3.66333
-1.41755 1.73196 3.64678
-1.49973 1.73465 3.62236
2.23799 1.59792 2.91913
2.19913 1.59623 2.93845
2.16829 1.59656 2.95968
2.14857 1.60612 2.99669
2.38103 1.58299 2.66023
2.00169 1.62143 3.01157
-5.41686 1.73212 3.22085
-5.37426 1.71333 3.1698
-5.38638 1.71311 3.15389
-5.39552 1.71285 3.13596
-5.41252 1.71684 3.13503
-5.40872 1.71146 3.10908
-5.42283 1.71224 3.09417
-5.44192 1.71508 3.08227
-5.43712 1.70969 3.05631
-5.46119 1.71356 3.04644
-5.46535 1.71125 3.0255
-5.4754 1.71217 3.01956
-5.47358 1.70882 2.99559
-5.48968 1.70962 2.9817
-5.49583 1.70834 2.96276
-5.50696 1.70808 2.94485
-5.52206 1.70989 2.93093
-5.5322 1.70963 2.91301
-5.53825 1.70953 2.90606
-5.55038 1.71029 2.88913
-5.55553 1.70799 2.8692
-5.5587 1.70567 2.84726
-5.5738 1.70747 2.83334
-5.59307 1.70696 2.79749
-5.59117 1.70378 2.78552
-5.6013 1.70352 2.7676
-5.62853 1.70608 2.73676
-5.66632 1.70057 2.63312
-5.67744 1.70032 2.6162
-5.69571 1.6998 2.58034
-5.71589 1.70246 2.55645
-5.72801 1.70323 2.54053
-5.73715 1.70297 2.5226
-5.73632 1.69863 2.49965
-5.29055 1.70774 2.99823
-5.29561 1.70763 2.99027
-5.30574 1.70738 2.97335
-5.31089 1.70609 2.9534
-5.33313 1.70563 2.92157
-5.34624 1.70642 2.90666
-5.36045 1.70603 2.87977
-5.36559 1.70375 2.86084
-5.39282 1.70633 2.831
-5.40991 1.70815 2.8181
-5.41904 1.7079 2.80117
-5.41921 1.70456 2.77822
-5.42228 1.70343 2.76925
-5.44336 1.70728 2.75835
-5.44851 1.70499 2.73842
-5.45963 1.70576 2.72249
-5.47772 1.7086 2.71059
-5.48287 1.70731 2.69064
-5.48803 1.70501 2.67071
-5.50105 1.70796 2.66677
-5.50321 1.70565 2.64581
-5.50736 1.70336 2.62588
-5.52844 1.70721 2.61498
-5.52264 1.70184 2.59001
-5.53874 1.70364 2.5761
-5.55285 1.70543 2.56118
-5.54696 1.70122 2.5472
-5.55609 1.70096 2.52927
-5.58016 1.70584 2.52037
-5.57037 1.69944 2.49339
-5.58049 1.70019 2.47645
-5.5946 1.70098 2.46155
-5.59576 1.69867 2.44059
-5.60589 1.69943 2.42365
-5.61893 1.70236 2.4187
-5.62109 1.69905 2.39777
-5.62623 1.69778 2.37882
-5.64831 1.70263 2.36791
-5.63951 1.69624 2.34194
-5.65462 1.69803 2.32702
-5.66972 1.70083 2.31309
-5.66283 1.69662 2.2991
-5.67695 1.69839 2.28318
-5.08545 1.70784 2.87867
-5.11447 1.71581 2.87477
-5.11166 1.71045 2.85082
-5.11282 1.70714 2.82988
-5.12991 1.70896 2.81698
-5.14401 1.71078 2.80405
-5.12916 1.70347 2.78405
-5.14924 1.70634 2.77415
-5.1504 1.70303 2.75321
-5.15355 1.70073 2.73326
-5.18258 1.70768 2.72838
-5.17578 1.70129 2.70242
-5.19486 1.70514 2.6915
-5.20191 1.70504 2.68456
-5.19909 1.7007 2.6616
-5.2321 1.70968 2.65871
-5.22132 1.70126 2.63075
-5.2404 1.70511 2.61984
-5.22961 1.6977 2.59286
-5.25666 1.70362 2.58598
-5.25972 1.70348 2.577
-5.26586 1.70222 2.55906
-5.27797 1.70301 2.54414
-5.27614 1.69868 2.52219
-5.29423 1.70152 2.51028
-5.30933 1.70432 2.49635
-5.30949 1.70101 2.4754
-5.31057 1.69886 2.46544
-5.32069 1.69963 2.4495
-5.31986 1.69631 2.42754
-5.33993 1.70017 2.41763
-5.34507 1.6979 2.3987
-5.34324 1.69457 2.37674
-5.35038 1.69331 2.35881
-5.36141 1.69624 2.35384
-5.36456 1.69396 2.3349
-5.3687 1.69269 2.31595
-5.38579 1.69552 2.30403
-5.39592 1.69528 2.28711
-5.40902 1.69708 2.27318
-5.41516 1.69582 2.25524
-5.42727 1.69759 2.23931
-5.42735 1.69544 2.22934
-5.43349 1.69518 2.21138
-5.4446 1.69596 2.19645
-5.45771 1.69775 2.18152
-5.45389 1.69341 2.15856
-5.46301 1.69318 2.14263
-5.47113 1.69293 2.12569
-5.47819 1.69383 2.11873
-5.48731 1.69459 2.10178
-5.49843 1.69536 2.08585
-5.50457 1.6951 2.0679
-5.50771 1.69282 2.04896
-5.53178 1.69869 2.03905
-5.52098 1.69231 2.01406
-5.52803 1.69321 2.0071
-5.53018 1.69092 1.98714
-5.53731 1.69067 1.9702
-5.56737 1.69856 1.96131
-5.58147 1.70036 1.94739
-5.57764 1.69703 1.9254
-5.59076 1.6988 1.90947
-5.59582 1.69869 1.90151
-5.59696 1.69641 1.88255
-5.61307 1.6992 1.86763
-5.61622 1.69792 1.84867
-5.61736 1.69564 1.82971
-5.89555 1.67375 0.74498
-5.90068 1.67348 0.72702
-5.89997 1.67092 0.689047
-5.90704 1.67279 0.680072
-5.89933 1.66821 0.641076
-5.90846 1.66996 0.624117
-5.9126 1.66969 0.605149
-5.90276 1.66538 0.585136
-5.9039 1.6641 0.566161
-5.90497 1.66397 0.55717
-5.89413 1.65965 0.536149
-5.90026 1.66039 0.518182
-5.92737 1.66819 0.503269
-5.90554 1.65984 0.481225
-5.91168 1.66158 0.463243
-5.91781 1.66232 0.445275
-5.8999 1.65615 0.43423
-5.90803 1.65788 0.416263
-5.91617 1.65862 0.398311
-5.90133 1.6533 0.377275
-5.90746 1.65404 0.359308
-5.92259 1.6578 0.342364
-5.90175 1.65047 0.321313
-5.90589 1.65121 0.303331
-5.91995 1.6551 0.295378
-5.9061 1.6498 0.275349
-5.90824 1.64952 0.256367
-5.91738 1.65226 0.238393
-5.90552 1.64797 0.219364
-5.90567 1.64669 0.200382
-5.93379 1.65445 0.183476
-5.93685 1.65532 0.174485
-5.94599 1.65706 0.156526
-5.93713 1.65377 0.137505
-5.93328 1.65149 0.118507
-5.93842 1.65321 0.0995178
-5.95055 1.65595 0.0815662
-5.9387 1.65166 0.0625377
-5.93578 1.65051 0.0525314
-5.94391 1.65225 0.0345644
-5.93805 1.64997 0.0155515
-5.9402 1.64969 -0.00343082
-5.93034 1.6464 -0.022459
-5.90949 1.6391 -0.0415108
-5.92062 1.64185 -0.0594699
-5.9167 1.6407 -0.0694838
-5.92483 1.64343 -0.0874656
-5.91798 1.64015 -0.106471
-5.93211 1.64389 -0.124423
-5.92526 1.64161 -0.143443
-5.92539 1.64134 -0.161441
-5.93553 1.64406 -0.180407
-5.92061 1.63892 -0.189445
-5.92475 1.63964 -0.208427
-5.91689 1.63736 -0.227455
-5.93302 1.6421 -0.245406
-4.93505 1.71555 2.79741
-4.94118 1.71429 2.77947
-4.94731 1.71204 2.76255
-4.94939 1.71089 2.75258
-4.95752 1.70965 2.73566
-4.96961 1.71146 2.72272
-4.98272 1.71227 2.7088
-4.98388 1.70896 2.68786
-5.00992 1.71489 2.68197
-5.0041 1.70853 2.65801
-5.01414 1.71046 2.65306
-5.02624 1.71226 2.63912
-5.0294 1.70897 2.61919
-5.03553 1.70771 2.60125
-5.05361 1.71157 2.59133
-5.05477 1.70726 2.5704
-5.06687 1.70906 2.55646
-5.07691 1.711 2.55151
-5.07906 1.7077 2.53157
-5.09116 1.7085 2.51765
-5.09331 1.70622 2.4987
-5.10243 1.70598 2.48177
-5.11553 1.70779 2.46884
-5.11469 1.70348 2.44789
-5.13676 1.70837 2.43898
-5.13584 1.7062 2.42801
-5.15591 1.71007 2.4181
-5.15309 1.70573 2.39514
-5.1632 1.70651 2.3802
-5.17531 1.7073 2.36528
-5.17447 1.704 2.34532
-5.19155 1.70684 2.33341
-5.19561 1.70672 2.32544
-5.20175 1.70546 2.3075
-5.20689 1.7042 2.28955
-5.219 1.70498 2.27463
-5.22612 1.70475 2.25869
-5.22926 1.70247 2.23974
-5.24037 1.70426 2.2248
-5.25042 1.70618 2.21884
-5.24957 1.70188 2.1989
-5.2567 1.70163 2.18195
-5.26482 1.7014 2.16601
-5.27095 1.70114 2.14806
-5.28406 1.70294 2.13413
-5.29226 1.70055 2.10723
-5.30237 1.70233 2.09227
-5.31049 1.7021 2.07634
-5.32674 1.70163 2.04346
-5.33586 1.7024 2.02752
-5.34 1.70113 2.00956
-5.35219 1.70077 1.98466
-5.36345 1.69926 1.94976
-5.3787 1.69978 1.91686
-5.39303 1.69714 1.873
-5.46651 1.69428 1.67657
-5.75568 1.64865 -0.200833
-5.76181 1.64939 -0.2188
-5.75695 1.64812 -0.23682
-4.72826 1.69406 2.63815
-4.73033 1.69292 2.62818
-4.73944 1.6927 2.61325
-4.76364 1.69433 2.5874
-4.786 1.69164 2.5396
-4.84581 1.6901 2.43306
-4.87314 1.68945 2.38827
-4.94428 1.68527 2.23785
-4.95239 1.68505 2.22291
-4.98892 1.68404 2.15319
-5.0122 1.68549 2.11534
-5.02345 1.68301 2.08246
-5.03057 1.68278 2.06651
-5.03669 1.68255 2.05056
-5.04083 1.68029 2.03262
-5.04596 1.68004 2.01566
-5.05201 1.67994 2.00871
-5.05913 1.67971 1.99276
-5.07123 1.68152 1.97983
-5.08035 1.68229 1.96388
-5.09459 1.68183 1.93199
-5.10171 1.6816 1.91604
-5.11175 1.68353 1.91109
-5.1099 1.68023 1.89112
-5.11303 1.67898 1.87416
-5.12712 1.6818 1.86123
-5.12727 1.67852 1.84227
-5.14735 1.68337 1.83135
-5.13652 1.67702 1.80836
-5.14557 1.67894 1.8024
-5.15568 1.67973 1.78746
-5.15882 1.67846 1.7695
-5.16094 1.67621 1.75255
-5.17704 1.68003 1.73961
-5.17818 1.67777 1.72165
-5.1823 1.67652 1.7047
-5.19932 1.68149 1.70175
-5.19348 1.67717 1.68077
-5.19761 1.67592 1.66382
-5.20573 1.67669 1.64786
-5.22297 1.67824 1.61697
-5.23806 1.68106 1.60404
-5.22716 1.67586 1.59103
-5.23428 1.67563 1.57508
-5.24639 1.67742 1.56015
-5.24254 1.67413 1.54116
-5.26163 1.67795 1.52825
-5.26476 1.6777 1.51127
-5.26191 1.67442 1.4923
-5.26298 1.67329 1.48332
-5.28107 1.67711 1.4704
-5.2852 1.67686 1.45343
-5.28633 1.67559 1.43546
-5.29745 1.67638 1.42053
-5.29958 1.67512 1.40256
-5.29972 1.67285 1.38459
-5.31581 1.67667 1.37166
-5.32187 1.67755 1.36369
-5.31403 1.67325 1.34369
-5.32813 1.67606 1.32975
-5.32029 1.67174 1.30875
-5.32541 1.67151 1.29279
-5.34351 1.67531 1.27887
-5.33068 1.66899 1.25787
-5.33773 1.67089 1.25089
-5.34885 1.67266 1.23494
-5.36095 1.67447 1.22101
-5.3561 1.67117 1.20102
-5.36622 1.67295 1.18606
-5.35837 1.66765 1.16608
-5.37347 1.67145 1.15214
-5.37753 1.67234 1.14415
-5.37368 1.66904 1.12417
-5.3838 1.67082 1.10922
-5.3989 1.67363 1.09529
-5.37908 1.66527 1.07226
-5.37822 1.66299 1.05328
-5.39732 1.66781 1.04035
-5.3884 1.66464 1.02933
-5.39552 1.66541 1.01337
-5.41063 1.6692 0.998429
-5.41875 1.66997 0.982477
-5.4079 1.66466 0.962471
-5.42501 1.66847 0.948541
-5.43113 1.66922 0.931574
-5.41231 1.66088 0.909552
-5.42934 1.66582 0.904607
-5.43646 1.66759 0.888632
-5.4346 1.66531 0.869649
-5.43873 1.66506 0.852682
-5.43687 1.66279 0.834699
-5.438 1.66154 0.817724
-5.45411 1.66633 0.802772
-5.45617 1.6662 0.793788
-5.44832 1.66191 0.77479
-5.45345 1.66166 0.75783
-5.45857 1.66241 0.740855
-5.45271 1.65914 0.722857
-5.46583 1.66192 0.706912
-5.45898 1.65863 0.687907
-5.47003 1.66153 0.680946
-5.47116 1.66028 0.663971
-5.4673 1.658 0.644973
-5.46244 1.65473 0.626982
-5.48354 1.66154 0.613038
-5.47768 1.65825 0.59404
-5.4878 1.66002 0.578088
-5.49486 1.66191 0.570112
-5.48401 1.65762 0.551091
-5.48713 1.65737 0.534116
-5.49526 1.65812 0.517164
-5.4884 1.65485 0.499158
-5.49054 1.65459 0.481176
-5.49366 1.65434 0.464201
-5.49972 1.65622 0.456217
-5.49286 1.65295 0.438212
-5.49699 1.6537 0.421229
-5.50311 1.65446 0.404262
-5.50325 1.65319 0.386279
-5.50238 1.65194 0.369289
-5.50252 1.65067 0.351306
-5.50158 1.65054 0.3423
-5.50371 1.65029 0.325317
-5.49985 1.64802 0.307319
-5.50498 1.64877 0.290344
-5.5051 1.64752 0.273362
-5.49924 1.64525 0.255349
-5.50837 1.647 0.238389
-5.5045 1.64573 0.220376
-5.50956 1.64662 0.2124
-5.5057 1.64435 0.194402
-5.50883 1.6451 0.177412
-5.50796 1.64385 0.160422
-5.51508 1.6456 0.143447
-5.52021 1.64635 0.126472
-5.52235 1.64609 0.10849
-5.52041 1.64497 0.100491
-5.51854 1.6437 0.082493
-5.51368 1.64143 0.0644875
-5.51481 1.64118 0.0474974
-5.52393 1.64393 0.030523
-5.51707 1.64066 0.0125173
-5.52919 1.64443 -0.00344949
-5.52026 1.6413 -0.0124715
-5.5134 1.63802 -0.0304773
-5.51652 1.63877 -0.0474672
-5.52465 1.64153 -0.0644491
-5.50779 1.63525 -0.0824857
-5.51892 1.63801 -0.099445
-5.50905 1.63473 -0.117473
-5.50812 1.6336 -0.126465
-5.50825 1.63335 -0.143462
-5.52038 1.6371 -0.160429
-5.50751 1.63284 -0.177465
-5.50764 1.63258 -0.195463
-5.50777 1.63232 -0.21246
-5.5029 1.63007 -0.229466
-5.49697 1.62793 -0.23848
-5.5071 1.63069 -0.255447
-4.58879 1.69092 2.56713
-4.5979 1.69071 2.5522
-4.60302 1.68948 2.53626
-4.61711 1.69131 2.52433
-4.62828 1.68999 2.50243
-4.63441 1.68874 2.4855
-4.64352 1.68853 2.47057
-4.66074 1.68811 2.4417
-4.67582 1.68996 2.43078
-4.68891 1.69179 2.41885
-4.69013 1.68736 2.38992
-4.70023 1.68718 2.377
-4.71745 1.68674 2.34713
-4.72258 1.6855 2.33019
-4.7398 1.68608 2.3013
-4.74286 1.68496 2.29334
-4.7672 1.68432 2.24853
-4.79253 1.68468 2.20471
-4.81694 1.68289 2.14991
-4.8526 1.67962 2.06322
-4.86868 1.68247 2.05229
