4.75408 0.61421 0.353148
4.75514 0.615328 0.361125
4.75525 0.61555 0.376123
4.75736 0.61677 0.391091
4.75448 0.616995 0.406111
4.75059 0.61622 0.421154
4.74782 0.617666 0.451158
4.74888 0.617783 0.459149
4.752 0.619018 0.47511
4.74009 0.617219 0.488228
4.74121 0.618441 0.503203
4.73643 0.618888 0.533237
4.72954 0.618101 0.547302
4.73372 0.620453 0.571239
4.73484 0.620689 0.587229
4.72906 0.621123 0.616271
4.73218 0.622357 0.632231
4.72435 0.622689 0.654288
4.71945 0.6219 0.668339
4.72469 0.624369 0.700267
4.72381 0.625607 0.716258
4.71904 0.626055 0.746291
4.71309 0.625148 0.75235
4.72122 0.627408 0.770258
4.70943 0.626832 0.798359
4.71356 0.629065 0.814297
4.70265 0.627266 0.827408
4.70071 0.627386 0.835422
4.70684 0.629633 0.852345
4.69694 0.628833 0.865433
4.69505 0.629056 0.880446
4.7072 0.632328 0.899309
4.69028 0.630504 0.910464
4.69141 0.631755 0.92744
4.68958 0.632097 0.950452
4.68969 0.633318 0.965435
4.68894 0.634793 0.997423
4.68505 0.635018 1.01245
4.68917 0.637251 1.02839
4.67721 0.635334 1.03351
4.68034 0.636584 1.05047
4.68948 0.639858 1.06935
4.67255 0.637019 1.07952
4.67869 0.639281 1.09745
4.68182 0.64153 1.11439
4.67198 0.640848 1.13548
4.67912 0.643109 1.1534
4.66621 0.642311 1.16651
4.66733 0.643547 1.18248
4.67247 0.64481 1.20043
4.65767 0.644221 1.22755
4.66074 0.645352 1.23651
4.66488 0.647615 1.25445
4.65798 0.647827 1.2685
4.65911 0.649078 1.28548
4.65422 0.649289 1.29951
4.64732 0.648501 1.31358
4.64551 0.649858 1.33757
4.64763 0.652108 1.35453
4.64275 0.652334 1.36956
4.64087 0.652572 1.38558
4.63698 0.653797 1.40059
4.6361 0.654034 1.41659
4.63716 0.655152 1.42457
4.63341 0.656628 1.45658
4.62952 0.657853 1.47159
4.63366 0.659117 1.48955
4.62978 0.660356 1.50556
4.6289 0.661594 1.52155
4.63397 0.662738 1.5315
4.62608 0.662951 1.54556
4.6242 0.663189 1.56157
4.62333 0.664442 1.57856
4.62346 0.665693 1.59554
4.61756 0.665905 1.60958
4.6187 0.66817 1.62755
4.62278 0.669315 1.6375
4.61488 0.669528 1.65156
4.61601 0.670779 1.66853
4.61212 0.671004 1.68356
4.60637 0.673482 1.71557
4.60349 0.673721 1.73159
4.60757 0.675881 1.74253
4.60382 0.677372 1.77554
4.59792 0.677584 1.78958
4.59317 0.680075 1.82259
4.59939 0.6835 1.85149
4.59652 0.684739 1.8675
4.58963 0.684966 1.88255
4.57646 0.692589 1.99155
4.57558 0.693841 2.00854
4.57271 0.695095 2.02555
4.56804 0.697735 2.06855
4.55589 0.706402 2.18053
4.56105 0.709723 2.20244
4.45252 0.800365 3.18606
4.44609 0.80848 3.26099
4.44241 0.813119 3.30396
4.43755 0.814388 3.32198
4.43773 0.817743 3.34593
4.43288 0.819028 3.36495
4.40771 0.846627 3.60677
4.40406 0.851311 3.65273
4.40215 0.852475 3.66373
4.40435 0.856873 3.69065
4.3975 0.858159 3.70969
4.39385 0.863857 3.75664
4.39002 0.866185 3.77863
4.38921 0.869556 3.80359
4.39233 0.87179 3.81954
4.38649 0.874091 3.83955
4.38668 0.877475 3.8655
4.38688 0.88086 3.89146
4.38507 0.883231 3.91644
4.38125 0.886574 3.93942
4.37853 0.891123 3.97638
4.37369 0.893452 3.99838
4.36988 0.89581 4.02238
4.36504 0.898139 4.04439
4.36223 0.901497 4.06836
4.36546 0.905953 4.09927
4.35963 0.908283 4.12129
4.36276 0.910532 4.13823
4.64204 0.708801 1.53576
4.63372 0.71414 1.62575
4.61309 0.726834 1.80674
4.60546 0.729565 1.85577
4.6076 0.731844 1.87472
4.59583 0.732297 1.90481
4.59892 0.734457 1.91575
4.59818 0.736976 1.95073
4.59631 0.738229 1.96772
4.58654 0.739695 1.99878
4.58367 0.740934 2.01479
4.58488 0.744347 2.04273
4.58803 0.746641 2.06267
4.58027 0.74812 2.09472
4.5754 0.749376 2.11174
4.58056 0.751683 2.13267
4.5746 0.751776 2.13871
4.57374 0.753043 2.1567
4.57288 0.75531 2.17468
4.56699 0.755536 2.18972
4.57014 0.75783 2.20966
4.56829 0.759112 2.22866
4.56441 0.760352 2.24467
4.56348 0.761486 2.25367
4.56261 0.762753 2.27166
4.53123 0.780928 2.48465
4.52665 0.78576 2.54062
4.52896 0.790366 2.58154
4.52201 0.790459 2.5876
4.51342 0.795265 2.6416
4.51559 0.797589 2.66355
4.51474 0.799885 2.68352
4.50786 0.801127 2.69956
4.50693 0.801261 2.70857
4.50222 0.805842 2.74754
4.50741 0.809193 2.77145
4.50455 0.810476 2.79046
4.49767 0.811718 2.80649
4.4928 0.812973 2.82352
4.50294 0.816232 2.84139
4.49405 0.816461 2.85646
4.48717 0.817703 2.87249
4.49035 0.821055 2.89642
4.48649 0.822324 2.91444
4.49068 0.825691 2.93936
4.48581 0.826946 2.95638
4.48388 0.828096 2.96638
4.48304 0.830407 2.98735
4.48321 0.833733 3.00931
4.47633 0.833974 3.02536
4.48355 0.838383 3.05324
4.47868 0.840653 3.07125
4.46678 0.839855 3.08435
4.47391 0.843101 3.10125
4.47609 0.846454 3.12519
4.47022 0.84771 3.14222
4.46637 0.850009 3.16221
4.46956 0.853376 3.18714
4.46169 0.853634 3.2042
4.4658 0.856838 3.21812
4.46094 0.858123 3.23714
4.45609 0.859407 3.25616
4.45224 0.861706 3.27616
4.45644 0.866088 3.30207
4.45158 0.867373 3.32109
4.44774 0.869686 3.34209
4.447 0.87419 3.37603
4.44718 0.876545 3.4
4.44435 0.878872 3.42199
4.43949 0.881157 3.44099
4.43593 0.888018 3.49893
4.42706 0.889261 3.51498
4.41893 0.902969 3.62985
4.42104 0.905189 3.6448
4.41639 0.910873 3.69076
4.40893 0.918914 3.76071
4.39804 0.920144 3.77577
4.40318 0.923407 3.79369
4.38827 0.922595 3.80582
4.38746 0.925966 3.83078
4.79021 0.686445 -0.0352469
4.82003 0.787968 -0.201997
4.81854 0.788976 -0.133992
4.81765 0.789199 -0.118986
4.80599 0.787874 -0.0738725
4.81311 0.790106 -0.057957
4.80916 0.789212 -0.0509131
4.79828 0.787443 -0.0358027
4.79939 0.787664 -0.0208123
4.8005 0.788885 -0.00583673
4.80562 0.790118 0.0101086
4.79473 0.788334 0.0242191
4.80285 0.790564 0.040127
4.79602 0.789895 0.0621915
4.79713 0.790117 0.0771819
4.79124 0.789343 0.0922398
4.78635 0.789569 0.107275
4.78947 0.789789 0.122251
4.78558 0.790014 0.137279
4.78864 0.79113 0.14524
4.78575 0.790354 0.160276
4.78187 0.790579 0.175304
4.78298 0.7908 0.190294
4.77108 0.789017 0.204412
4.77921 0.791247 0.22032
4.77431 0.791458 0.234356
4.77337 0.791577 0.242362
4.77148 0.791801 0.257375
4.76571 0.791249 0.287431
4.76982 0.792468 0.302384
4.76794 0.792692 0.317397
4.76405 0.792917 0.332425
4.75321 0.791236 0.353534
4.76145 0.794703 0.385425
4.75868 0.79515 0.415444
4.75479 0.795375 0.430472
4.75284 0.79548 0.437486
4.75696 0.796714 0.453439
4.75408 0.796938 0.468459
4.74818 0.796149 0.482517
4.7533 0.798382 0.498448
4.75042 0.798607 0.513468
4.75054 0.798844 0.529466
4.74659 0.79895 0.536495
4.74269 0.79916 0.550523
4.74293 0.800619 0.581504
4.74405 0.801855 0.59748
4.73922 0.802184 0.619514
4.73332 0.801396 0.633572
4.73256 0.802855 0.664561
4.73167 0.803078 0.679566
4.73079 0.804316 0.695557
4.7309 0.805538 0.71054
4.72442 0.807564 0.779568
4.72165 0.80901 0.809572
4.71782 0.809353 0.832599
4.71329 0.81226 0.893598
4.7008 0.815276 0.961657
4.70293 0.816526 0.978625
4.69356 0.820776 1.06264
4.68685 0.821344 1.10069
4.68621 0.825055 1.14865
4.67957 0.827755 1.19566
4.67674 0.829098 1.21867
4.67586 0.829335 1.23467
4.6731 0.831811 1.26666
4.6632 0.831011 1.27975
4.66639 0.833378 1.3047
4.6575 0.832592 1.31878
4.65674 0.835067 1.35075
4.65385 0.836291 1.36576
4.64997 0.83653 1.38178
4.64709 0.837755 1.39679
4.65919 0.840938 1.40965
4.64928 0.840138 1.42274
4.64941 0.841374 1.43872
4.63863 0.841826 1.4688
4.64979 0.846114 1.48866
4.64697 0.847471 1.51266
4.64108 0.847698 1.52771
4.63519 0.847909 1.54175
4.64234 0.8512 1.56165
4.63645 0.851426 1.57669
4.62467 0.851865 1.60578
4.62674 0.852996 1.61475
4.62486 0.854234 1.63075
4.628 0.856498 1.64869
4.62111 0.856726 1.66374
4.61521 0.856937 1.67778
4.61836 0.859216 1.69673
4.61146 0.859428 1.71078
4.60853 0.859549 1.7188
4.61367 0.861826 1.73773
4.60791 0.864304 1.76974
4.60302 0.86453 1.78478
4.60316 0.866796 1.80275
4.59828 0.867022 1.81778
4.60035 0.869168 1.82774
4.59472 0.872897 1.87673
4.58984 0.873138 1.89277
4.59506 0.877563 1.92166
4.58329 0.878016 1.95175
4.57681 0.884027 2.01972
4.57414 0.88868 2.06368
4.60698 0.926327 1.90585
4.60511 0.92758 1.92285
4.59621 0.927779 1.93591
4.59835 0.930058 1.95487
4.58343 0.928232 1.96601
4.58558 0.930512 1.98496
4.58364 0.931632 1.99296
4.59683 0.936992 2.01778
4.5799 0.934138 2.02696
4.57602 0.935377 2.04297
4.57128 0.938884 2.07696
4.56875 0.945818 2.13988
4.66478 0.925021 1.34736
4.6639 0.925259 1.36336
4.65099 0.924446 1.37547
4.65312 0.925696 1.39244
4.65124 0.926934 1.40844
4.65732 0.929092 1.41936
4.64554 0.929531 1.44845
4.63764 0.929729 1.46151
4.63777 0.93098 1.47849
4.6379 0.932232 1.49547
4.632 0.932443 1.50952
4.57329 0.980848 2.07432
4.81959 0.914948 -0.271883
4.81776 0.915275 -0.249871
4.81499 0.914736 -0.218838
4.81722 0.916178 -0.188872
4.80833 0.914407 -0.173777
4.80838 0.914511 -0.166778
4.80307 0.915862 -0.0757453
4.80024 0.91519 -0.053711
4.79246 0.91464 -0.0236401
4.80158 0.91687 -0.00773962
4.8087 0.919102 0.00817586
4.79486 0.916423 0.0293227
4.78997 0.915649 0.0443731
4.78909 0.915872 0.0593785
4.78254 0.916765 0.119423
4.79161 0.918891 0.128324
4.7767 0.916095 0.14148
4.78194 0.91855 0.172408
4.76916 0.915989 0.201547
4.77222 0.917105 0.209508
4.77456 0.919785 0.255457
4.76178 0.918224 0.284581
4.76189 0.918446 0.299578
4.75717 0.918997 0.336611
4.84321 0.960111 -0.327737
4.8336 0.957903 -0.274625
4.82572 0.956131 -0.259537
4.82383 0.956355 -0.244524
4.82506 0.956813 -0.213536
4.81512 0.954924 -0.206432
4.81834 0.956366 -0.176474
4.81746 0.956603 -0.160468
4.81269 0.956051 -0.13042
4.80397 0.954606 -0.093328
4.81309 0.957836 -0.0774423
4.80931 0.957283 -0.0474015
4.80843 0.957505 -0.0323961
4.8007 0.957059 0.00467379
4.79693 0.956506 0.0347146
4.79404 0.95673 0.0497351
4.79328 0.95719 0.0807383
4.78933 0.956297 0.0877822
4.78256 0.955746 0.117846
4.78667 0.957965 0.132784
4.78289 0.957412 0.162825
4.78207 0.958753 0.185814
4.77317 0.956967 0.19991
4.77729 0.958201 0.215862
4.77941 0.959421 0.23083
4.76963 0.958858 0.259917
4.77281 0.960211 0.283876
4.77292 0.961433 0.298859
4.77103 0.961656 0.313872
4.76214 0.95987 0.327967
4.76325 0.961092 0.342943
4.76937 0.963324 0.358866
4.75642 0.960422 0.365007
4.76054 0.961656 0.38096
4.76366 0.963891 0.396906
4.75076 0.961093 0.410046
4.75499 0.963549 0.440982
4.7431 0.961765 0.4551
4.74816 0.96288 0.463047
4.74527 0.963104 0.478067
4.73937 0.962315 0.492125
4.7366 0.963762 0.522129
4.73484 0.965222 0.553125
4.73589 0.965325 0.560116
4.73701 0.966561 0.576092
4.73412 0.966785 0.591112
4.73124 0.967009 0.606133
4.72634 0.96722 0.620169
4.72463 0.968784 0.658164
4.72575 0.97002 0.674139
4.71885 0.969232 0.688205
4.7152 0.970916 0.734214
4.71526 0.972034 0.742198
4.7175 0.974492 0.773149
4.70772 0.973928 0.802235
4.70077 0.982991 0.941172
4.67874 0.987917 1.07028
4.67139 0.993195 1.15627
4.64706 1.00747 1.37627
4.53487 1.51519 2.63178
-4.8594 -0.48259 7.87585
-4.82909 -0.476914 7.51749
-4.71274 -0.461077 6.49823
-4.54325 -0.439861 4.96643
-4.49053 -0.433372 4.52888
-4.4439 -0.428042 4.08039
-4.43636 -0.42795 4.01932
-4.42097 -0.426161 3.93817
-4.42514 -0.426499 3.9152
-4.41759 -0.426378 3.85613
-4.40922 -0.424629 3.77203
-4.40435 -0.424899 3.754
-4.40057 -0.424331 3.72496
-4.39778 -0.423733 3.69792
-4.39796 -0.424088 3.67392
-4.39038 -0.422938 3.61684
-4.38271 -0.42258 3.57377
-4.3809 -0.422952 3.54876
-4.3781 -0.422354 3.52173
-4.37331 -0.421772 3.49368
-4.36256 -0.421269 3.46059
-4.36472 -0.421593 3.43861
-4.36092 -0.420981 3.41256
-4.3601 -0.421337 3.38856
-4.35522 -0.420577 3.37251
-4.35341 -0.419949 3.34748
-4.3486 -0.420337 3.32145
-4.35275 -0.419631 3.30147
-4.34298 -0.420082 3.2714
-4.34515 -0.419406 3.2494
-4.33346 -0.419037 3.2073
-4.3338 -0.418703 3.16229
-4.32004 -0.418187 3.13018
-4.31821 -0.417529 3.10715
-4.3144 -0.417902 3.08212
-4.30868 -0.417454 3.04507
-4.31083 -0.417749 3.02509
-4.31497 -0.417012 3.0071
-4.30717 -0.417418 2.98005
-4.30931 -0.416698 2.96105
-4.29853 -0.416135 2.93196
-4.29961 -0.416283 2.92196
-4.2873 -0.415654 2.82985
-4.28561 -0.415277 2.78783
-4.28301 -0.415049 2.7358
-4.27122 -0.414473 2.70769
-4.27364 -0.414315 2.6507
-4.25568 -0.413372 2.51253
-4.25377 -0.413536 2.50152
-4.23868 -0.412339 2.38037
-4.23092 -0.411834 2.3473
-4.23205 -0.412085 2.33031
-4.22749 -0.411947 2.27227
-4.22662 -0.412214 2.25426
-4.21873 -0.411427 2.24019
-4.21912 -0.411197 2.18818
-4.20844 -0.410827 2.14609
-4.20558 -0.41111 2.12707
-4.21872 -0.411382 2.10817
-4.19993 -0.410796 2.08102
-4.20405 -0.41103 2.06505
-4.1972 -0.410331 2.04498
-4.20331 -0.410549 2.03003
-4.19945 -0.410818 2.012
-4.19752 -0.409968 2.00198
-4.18968 -0.410284 1.98092
-4.19279 -0.410504 1.96594
-4.1979 -0.410723 1.95098
-4.18508 -0.410073 1.92787
-4.18134 -0.409594 1.89283
-4.18452 -0.409947 1.86886
-4.17866 -0.410232 1.84982
-4.17978 -0.409469 1.83381
-4.1809 -0.409705 1.81782
-4.17623 -0.409345 1.77477
-4.17448 -0.409835 1.74176
-4.1569 -0.408677 1.68561
-4.16499 -0.408849 1.67367
-4.16405 -0.408968 1.66566
-4.16118 -0.409237 1.64764
-4.15842 -0.408713 1.61561
-4.1528 -0.409457 1.56557
-4.15685 -0.409543 1.5596
-4.14611 -0.409069 1.52451
-4.13925 -0.408356 1.50544
-4.15233 -0.409494 1.49556
-5.39791 -0.474401 12.5934
-5.36223 -0.470989 12.2851
-5.34928 -0.469072 12.1449
-5.32844 -0.467368 11.9907
-5.31252 -0.465497 11.8476
-5.25736 -0.461136 11.469
-5.24431 -0.460026 11.3419
-5.23519 -0.458766 11.2248
-5.22411 -0.457581 11.1027
-5.21988 -0.456095 11.0006
-5.20187 -0.454063 10.8684
-5.1776 -0.453517 10.7712
-5.16253 -0.45235 10.6481
-5.1553 -0.450881 10.545
-5.1461 -0.449457 10.4389
-5.13886 -0.448958 10.3378
-5.12769 -0.447596 10.2277
-5.11942 -0.446053 10.1296
-5.09512 -0.445448 10.0364
-5.08882 -0.44383 9.94329
-5.07956 -0.443289 9.8452
-5.06439 -0.441929 9.73505
-5.05805 -0.441252 9.64598
-5.04681 -0.439741 9.54586
-5.04048 -0.439064 9.45679
-5.00976 -0.436604 9.28649
-5.00044 -0.435958 9.1954
-4.99702 -0.435101 9.11835
-4.98572 -0.433487 9.02523
-4.97638 -0.432797 8.93714
-4.9367 -0.429403 8.62775
-4.92734 -0.428653 8.54365
-4.91696 -0.42789 8.46055
-4.91052 -0.427006 8.38548
-4.88701 -0.424955 8.18724
-4.87859 -0.424087 8.11116
-4.80264 -0.417095 7.43839
-4.69305 -0.407764 6.45229
-4.68844 -0.407537 6.40024
-4.68382 -0.406296 6.34918
-4.66022 -0.405053 6.16396
-4.65955 -0.404705 6.11995
-4.65294 -0.40448 6.06789
-4.65028 -0.404148 6.02285
-4.62362 -0.401819 5.8436
-4.6259 -0.401365 5.8066
-4.52345 -0.39434 4.9346
-4.51317 -0.393754 4.8395
-4.50472 -0.392842 4.76642
-4.50198 -0.393362 4.7314
-4.49749 -0.392372 4.66334
-4.48991 -0.392192 4.60827
-4.48021 -0.391807 4.56719
-4.48541 -0.391188 4.54122
-4.47395 -0.391263 4.46912
-4.47516 -0.390677 4.44112
-4.4636 -0.390544 4.38302
-4.45984 -0.390021 4.35098
-4.44858 -0.38948 4.25287
-4.44195 -0.389226 4.20281
-4.43819 -0.388702 4.17077
-4.43365 -0.388609 4.10973
-4.42889 -0.388086 4.07768
-4.41848 -0.387249 3.99958
-4.4157 -0.387681 3.97056
-4.42205 -0.387372 3.9236
-4.41927 -0.386804 3.89456
-4.41461 -0.387473 3.84953
-4.40208 -0.386416 3.78641
-4.3965 -0.386249 3.73036
-4.39471 -0.38565 3.70334
-4.379 -0.385239 3.66421
-4.39707 -0.386359 3.65536
-4.38226 -0.385741 3.63023
-4.38741 -0.386048 3.60927
-4.36972 -0.384653 3.56911
-4.37405 -0.385316 3.52415
-4.37721 -0.384625 3.50316
-4.37731 -0.384818 3.49016
-4.36854 -0.384268 3.46008
-4.36673 -0.384655 3.43407
-4.35101 -0.384214 3.39694
-4.35814 -0.384461 3.38
-4.36229 -0.384754 3.36003
-4.3565 -0.384173 3.33197
-4.34021 -0.383577 3.23783
-4.33739 -0.382949 3.2128
-4.3417 -0.383553 3.17183
-4.3398 -0.383747 3.15882
-4.33002 -0.383184 3.12973
-4.32737 -0.382867 3.0837
-4.32355 -0.38324 3.05867
-4.32769 -0.382503 3.04069
-4.32089 -0.382908 3.01364
-4.31501 -0.38215 2.99759
-4.31716 -0.382429 2.9786
-4.30539 -0.381897 2.9475
-4.30753 -0.382177 2.92852
-4.30968 -0.382471 2.90854
-4.30983 -0.381768 2.88853
-4.29615 -0.3814 2.84641
-4.30028 -0.381648 2.82944
-4.29859 -0.382272 2.78744
-4.28435 -0.381778 2.68631
-4.27238 -0.380801 2.55018
-4.2566 -0.380256 2.52005
-4.25575 -0.380553 2.50005
-4.26087 -0.380772 2.48509
-4.25539 -0.380812 2.41504
-5.27678 -0.401062 11.5403
-5.26373 -0.399938 11.4142
-5.19078 -0.395943 10.7415
-5.17864 -0.394641 10.6273
-5.12338 -0.391042 10.1298
-5.11117 -0.390606 10.0247
-5.0493 -0.386781 9.47508
-5.03999 -0.386151 9.38299
-4.98076 -0.383599 8.88244
-4.9704 -0.38288 8.79633
-4.96399 -0.38204 8.71826
-4.9482 -0.381436 8.55711
-4.9178 -0.379598 8.34483
-4.91134 -0.379669 8.27277
-4.8664 -0.37673 7.86533
-4.8544 -0.375708 7.73221
-4.82067 -0.374205 7.42989
-4.72038 -0.369474 6.53794
-4.54093 -0.362338 5.00127
-4.26948 -0.357042 2.53381
-5.34884 -0.302424 12.1875
-5.32998 -0.302674 12.0363
-5.31307 -0.302833 11.8912
-5.29713 -0.302933 11.75
-5.28412 -0.302898 11.6179
-5.27404 -0.302712 11.4958
-5.23874 -0.303084 11.2695
-5.22962 -0.302809 11.1534
-5.21557 -0.302685 11.0273
-5.20444 -0.302411 10.9112
-5.1943 -0.303107 10.7971
-5.1871 -0.302697 10.69
-5.15362 -0.302698 10.4888
-5.14244 -0.303335 10.3787
-5.13127 -0.302972 10.2686
-5.12106 -0.30352 10.1645
-5.10985 -0.303098 10.0584
-5.10455 -0.303479 9.96533
-5.08318 -0.302724 9.88215
-5.06898 -0.303319 9.77503
-5.06464 -0.30361 9.68799
-5.05536 -0.303039 9.5919
-5.05001 -0.303316 9.50585
-5.0417 -0.303685 9.41378
-5.03239 -0.304054 9.32171
-5.01196 -0.30318 9.24653
-5.00362 -0.303489 9.15846
-4.99726 -0.303752 9.0734
-4.98891 -0.304032 8.98733
-4.98054 -0.304282 8.90326
-4.97317 -0.303517 8.82018
-4.96577 -0.303707 8.74012
-4.94827 -0.303697 8.67398
-4.94087 -0.303887 8.59391
-4.93445 -0.304032 8.51686
-4.92605 -0.304223 8.43679
-4.92257 -0.304247 8.36775
-4.9181 -0.304302 8.29671
-4.89314 -0.304364 8.1585
-4.86233 -0.304681 7.86824
-4.86079 -0.304601 7.80621
-4.84124 -0.304503 7.74606
-4.83377 -0.304545 7.67599
-4.82925 -0.304482 7.61295
-4.8267 -0.305372 7.55293
-4.82119 -0.305339 7.48788
-4.81665 -0.305245 7.42684
-4.81111 -0.305168 7.36479
-4.70769 -0.306172 6.4909
-4.70407 -0.30593 6.43986
-4.69846 -0.306704 6.38783
-4.69187 -0.306508 6.33377
-4.69121 -0.30619 6.28775
-4.66794 -0.306643 6.19057
-4.66431 -0.306357 6.14253
-4.66066 -0.307056 6.09551
-4.65603 -0.306785 6.04646
-4.64544 -0.306607 5.99137
-4.64872 -0.307152 5.9544
-4.63714 -0.30699 5.8983
-4.63135 -0.307409 5.87026
-4.54486 -0.309267 5.00552
-4.51586 -0.309258 4.87228
-4.52106 -0.309639 4.84632
-4.50556 -0.309643 4.77919
-4.49536 -0.30922 4.6731
-4.49262 -0.30974 4.63808
-4.48789 -0.309277 4.60203
-4.48404 -0.309561 4.583
-4.4758 -0.310063 4.48194
-4.47305 -0.310554 4.44892
-4.46532 -0.310107 4.41185
-4.46952 -0.310489 4.38588
-4.46081 -0.310058 4.3478
-4.45617 -0.310787 4.29877
-4.44369 -0.310818 4.22967
-4.44093 -0.311279 4.19865
-4.43518 -0.310787 4.1646
-4.43053 -0.311472 4.11856
-4.42876 -0.310917 4.08854
-4.42697 -0.311348 4.05953
-4.4252 -0.311794 4.02952
-4.4244 -0.311194 4.0025
-4.41766 -0.311702 3.96845
-4.40743 -0.31222 3.86637
-4.40265 -0.311668 3.83632
-4.39987 -0.3121 3.8073
-4.39808 -0.312516 3.77929
-4.39221 -0.311772 3.76223
-4.3934 -0.312141 3.73724
-4.38862 -0.312589 3.70721
-4.38782 -0.312974 3.6812
-4.38502 -0.312376 3.65417
-4.3872 -0.312715 3.63119
-4.37943 -0.31318 3.60013
-4.37059 -0.312498 3.57905
-4.37077 -0.312853 3.55506
-4.37095 -0.313208 3.53106
-4.37412 -0.313532 3.50909
-4.36933 -0.31295 3.48104
-4.36951 -0.313305 3.45704
-4.35586 -0.313011 3.40993
-4.362 -0.313288 3.39097
-4.35323 -0.313739 3.36091
-4.3544 -0.314078 3.33792
-4.3496 -0.313467 3.31187
-4.34878 -0.313823 3.28787
-4.33926 -0.313778 3.22379
-4.33446 -0.314181 3.19675
-4.33662 -0.31449 3.17577
-4.32983 -0.314895 3.14872
-4.33795 -0.315126 3.13279
-4.32618 -0.314594 3.10168
-4.32428 -0.314788 3.08867
-4.3135 -0.31524 3.05859
-4.31963 -0.314487 3.04163
-4.32079 -0.314797 3.02064
-4.31299 -0.315203 2.99358
-4.31912 -0.31545 2.97663
-4.3143 -0.315809 2.95259
-4.30544 -0.315082 2.93451
-4.30261 -0.315425 2.91149
-4.29978 -0.315767 2.88847
-4.29497 -0.316126 2.86444
-4.29512 -0.315437 2.84343
-4.29429 -0.315764 2.82142
-4.29742 -0.316028 2.80345
-4.29054 -0.316255 2.7884
-4.29567 -0.316503 2.77144
-4.28885 -0.315878 2.74637
-4.28303 -0.316238 2.72233
-4.28319 -0.316534 2.70233
-4.28234 -0.316831 2.68233
-4.2805 -0.317158 2.66032
-4.2746 -0.316355 2.64726
-4.27276 -0.316667 2.62625
-4.26694 -0.317027 2.60221
-4.27107 -0.317275 2.58524
-4.26623 -0.317605 2.5632
-4.26737 -0.316885 2.5442
-4.26752 -0.317167 2.5252
-4.26262 -0.317363 2.51217
-4.26276 -0.317644 2.49317
-4.25508 -0.318286 2.45011
-4.25821 -0.317536 2.43312
-4.2484 -0.317913 2.40805
-4.24377 -0.318642 2.35902
-4.23935 -0.318786 2.28198
-4.23756 -0.319202 2.25397
-4.22887 -0.318815 2.21289
-4.22715 -0.319364 2.17588
-4.21419 -0.320432 2.03678
-4.21239 -0.320818 2.01077
-4.19809 -0.321206 1.91765
-4.19131 -0.320641 1.88859
-4.19256 -0.321128 1.8556
-4.18384 -0.321683 1.81854
-4.18109 -0.322188 1.78452
-4.18115 -0.321307 1.77651
-4.17941 -0.321811 1.7425
-4.17367 -0.322334 1.70746
-4.17279 -0.322571 1.69145
-4.16899 -0.322959 1.66543
-4.1701 -0.32318 1.65044
-4.16923 -0.322433 1.63342
-4.15838 -0.322737 1.61334
-4.16248 -0.322941 1.59937
-4.15973 -0.323432 1.56635
-4.1568 -0.323567 1.55733
-4.15891 -0.323788 1.54235
-4.15405 -0.324058 1.52431
-4.14519 -0.323346 1.50523
-4.1524 -0.323755 1.47729
-5.30144 -0.235633 11.702
-5.19162 -0.239827 10.7482
-5.06044 -0.246263 9.5761
-4.98458 -0.250418 8.89349
-4.93103 -0.252255 8.43405
-4.89536 -0.254857 8.12478
-4.88296 -0.25505 8.04468
-4.8732 -0.255486 7.88059
-4.6668 -0.266381 6.07295
-4.37263 -0.283587 3.43762
-4.36594 -0.284199 3.39657
-4.32929 -0.284877 3.21728
-4.33061 -0.285513 3.1743
-4.33376 -0.285807 3.15432
-4.33293 -0.286133 3.13232
-4.32613 -0.286538 3.10527
-4.31345 -0.286169 3.06316
-4.31261 -0.286495 3.04116
-4.31377 -0.286805 3.02017
-4.31195 -0.287147 2.99716
-4.3141 -0.287442 2.97717
-4.30431 -0.287864 2.9491
-4.31341 -0.288064 2.93517
-4.30362 -0.287486 2.90709
-4.29873 -0.287697 2.89305
-4.29491 -0.288055 2.86902
-4.29605 -0.288336 2.85003
-4.29323 -0.288678 2.82701
-4.28642 -0.289054 2.80197
-4.28756 -0.288334 2.78296
-4.27968 -0.288577 2.7669
-4.27784 -0.288904 2.74489
-4.28694 -0.28909 2.73196
-4.28312 -0.289433 2.70893
-4.2743 -0.28981 2.68387
-4.26749 -0.290185 2.65882
-4.27461 -0.290402 2.64387
-4.26771 -0.289614 2.62981
-4.27383 -0.289847 2.61386
-4.26005 -0.290286 2.58475
-4.2582 -0.290584 2.56474
-4.256 -0.291155 2.45872
-4.25116 -0.291485 2.43669
-4.24832 -0.291783 2.41667
-4.24447 -0.292097 2.39564
-4.24661 -0.292361 2.37766
-4.23971 -0.292559 2.3646
-4.23686 -0.292857 2.34459
-4.22632 -0.292768 2.2835
-4.23641 -0.292939 2.27157
-4.2236 -0.293318 2.24648
-4.22466 -0.293451 2.23749
-4.22394 -0.293984 2.20148
-4.22208 -0.294267 2.18247
-4.204 -0.295102 2.05933
-4.19916 -0.295401 2.0393
-4.19842 -0.29592 2.00429
-4.14279 -0.299595 1.55587
-4.13546 -0.300903 1.46782
-5.40646 -0.132958 12.6204
-5.36056 -0.136108 12.3421
-5.32385 -0.139637 12.0378
-5.30791 -0.141736 11.8967
-5.29099 -0.142866 11.7536
-5.27897 -0.1448 11.6235
-5.26693 -0.145704 11.4954
-5.18424 -0.154204 10.7898
-5.09882 -0.163225 10.0492
-4.51874 -0.225132 4.88006
-4.49526 -0.22814 4.6779
-4.47272 -0.230029 4.48373
-4.36537 -0.243123 3.46897
-4.19713 -0.261407 2.03878
-4.15972 -0.265513 1.69551
-4.72514 -0.166271 6.54997
-4.34736 -0.220093 3.20146
-4.26171 -0.231654 2.49189
-5.35921 0.0134082 12.2409
-5.3443 0.0102651 12.0968
-5.32543 0.00703026 11.9467
-5.31342 0.00406698 11.8146
-5.29649 0.000966836 11.6735
-5.28838 -0.00180111 11.5545
-5.26946 -0.00493231 11.4114
-5.24719 -0.00738479 11.3142
-5.23021 -0.0103961 11.1791
-5.22796 -0.0118786 11.0791
-5.20997 -0.014861 10.946
-5.20278 -0.0174506 10.839
-5.18376 -0.0203894 10.7088
-5.17951 -0.0228731 10.6088
-5.15423 -0.025313 10.5127
-5.14405 -0.0279196 10.4046
-5.13386 -0.0295263 10.2965
-5.12661 -0.0319974 10.1975
-5.11639 -0.0345448 10.0935
-5.10913 -0.0369863 9.99643
-5.10283 -0.0383681 9.90339
-5.07849 -0.0406888 9.81522
-5.0643 -0.0432834 9.70814
-5.05107 -0.0448183 9.60505
-5.04672 -0.0470948 9.51904
-5.04236 -0.0493566 9.43403
-5.03109 -0.0507863 9.33795
-5.00133 -0.0552511 9.17277
-4.97827 -0.0610733 8.91565
-4.9699 -0.0623233 8.83159
-4.9635 -0.0644977 8.75256
-4.92082 -0.0710746 8.4453
-4.9144 -0.0732194 8.36827
-4.905 -0.0744109 8.28821
-4.89657 -0.0765423 8.21216
-4.84868 -0.0856777 7.79988
-4.84614 -0.0865828 7.73887
-4.81401 -0.0922784 7.49067
-4.80494 -0.0951063 7.36763
-4.69396 -0.114973 6.43596
-4.70517 -0.116379 6.40806
-4.69462 -0.117275 6.34799
-4.69001 -0.118034 6.29696
-4.68059 -0.120181 6.21991
-4.67201 -0.121016 6.16385
-4.67827 -0.121515 6.1299
-4.66404 -0.124051 6.02681
-4.65545 -0.125856 5.97277
-4.65377 -0.126494 5.92976
-4.63808 -0.127113 5.88864
-4.63175 -0.12942 5.80062
-4.5427 -0.146168 5.01109
-4.53329 -0.14833 4.93304
-4.54047 -0.148695 4.90809
-4.53278 -0.149308 4.86704
-4.52906 -0.149858 4.83001
-4.52249 -0.151692 4.77398
-4.52173 -0.152181 4.74098
-4.50832 -0.153346 4.66289
-4.49467 -0.155037 4.6168
-4.49402 -0.155734 4.5698
-4.49028 -0.15624 4.53577
-4.48654 -0.156761 4.50075
-4.48478 -0.158221 4.46975
-4.47806 -0.158789 4.43171
-4.48424 -0.159125 4.40875
-4.46946 -0.15958 4.37865
-4.46472 -0.160087 4.34461
-4.4699 -0.160438 4.32065
-4.4485 -0.162638 4.24051
-4.46162 -0.162851 4.22561
-4.439 -0.163623 4.17445
-4.43712 -0.164846 4.15945
-4.43733 -0.165275 4.13045
-4.44349 -0.165582 4.1095
-4.43179 -0.166168 4.07042
-4.43894 -0.166474 4.04947
-4.43121 -0.166998 4.01442
-4.43042 -0.168413 3.98643
-4.41384 -0.169239 3.93131
-4.40808 -0.169717 3.89927
-4.40529 -0.170149 3.87025
-4.40648 -0.170518 3.84526
-4.4037 -0.171949 3.81626
-4.40488 -0.172304 3.79227
-4.39912 -0.172782 3.76023
-4.39326 -0.173053 3.74218
-4.39742 -0.173361 3.72122
-4.39066 -0.173839 3.68917
-4.39283 -0.174178 3.66619
-4.39004 -0.17558 3.63918
-4.38129 -0.176075 3.60612
-4.38336 -0.176222 3.59614
-4.36865 -0.176795 3.55803
-4.37081 -0.177119 3.53605
-4.37993 -0.17735 3.52012
-4.38111 -0.177689 3.49713
-4.37036 -0.179186 3.46406
-4.36458 -0.179634 3.43402
-4.36567 -0.179796 3.42303
-4.3531 -0.18065 3.36594
-4.34532 -0.181099 3.33589
-4.35344 -0.18233 3.31996
-4.3397 -0.182844 3.28586
-4.34484 -0.183121 3.2669
-4.32274 -0.1859 3.14776
-4.32887 -0.186147 3.13081
-4.3171 -0.186614 3.09972
-4.30325 -0.189875 2.94764
-4.28636 -0.192064 2.80053
-4.27594 -0.194227 2.72247
-4.27809 -0.194521 2.70249
-4.248 -0.19929 2.4493
-4.24643 -0.200135 2.39229
-4.21966 -0.203568 2.22912
-4.21409 -0.205416 2.1721
-4.20188 -0.206965 2.06801
-4.20001 -0.207233 2.05
-4.20027 -0.207736 2.016
-4.17762 -0.211418 1.83586
-4.176 -0.212159 1.78586
-4.15874 -0.214623 1.68775
-4.15406 -0.215248 1.64572
-4.14843 -0.215993 1.59568
-4.14674 -0.216586 1.55567
-4.1421 -0.217301 1.50764
-4.14045 -0.218998 1.46064
-5.34211 0.0945209 12.1135
-5.32325 0.0902713 11.9624
-5.30828 0.086232 11.8254
-5.29626 0.0822984 11.6953
-5.2793 0.0782576 11.5582
-5.26725 0.0743832 11.4322
-5.25715 0.071599 11.3121
-5.20873 0.0615148 10.9709
-5.19464 0.0587129 10.8498
-5.18743 0.055153 10.7448
-5.18121 0.0526234 10.6417
-5.14673 0.0466074 10.4395
-5.13752 0.0440459 10.3345
-5.12435 0.0404225 10.2254
-5.11315 0.0378448 10.1194
-5.10587 0.0354181 10.0233
-5.09957 0.0320365 9.93032
-5.06794 0.0273335 9.74913
-5.05965 0.0249356 9.65509
-5.04839 0.0214764 9.55704
-5.045 0.0192747 9.47604
-5.03471 0.0168753 9.38198
-5.02935 0.0146128 9.29696
-4.99024 0.0078679 9.04573
-4.9809 0.00557291 8.95869
-4.97254 0.00230837 8.87366
-4.96317 7.25846e-05 8.79061
-4.96466 -0.000888843 8.72563
-4.92937 -0.00727562 8.49842
-4.92392 -0.00936046 8.4254
-4.91058 -0.0126582 8.33834
-4.90611 -0.0136981 8.26831
-4.89669 -0.0158598 8.19026
-4.84622 -0.0288113 7.72301
-4.8111 -0.0365384 7.47283
-4.79905 -0.039398 7.34776
-4.81209 -0.0394774 7.34186
-4.68833 -0.065767 6.38218
-4.67907 -0.0692395 6.28315
-4.67445 -0.0699833 6.23312
-4.64282 -0.0786556 5.91897
-4.26194 -0.165239 2.58692
-4.22185 -0.173984 2.20069
-4.21601 -0.174299 2.17965
-4.20479 -0.176833 2.07659
-4.20006 -0.177369 2.04056
-4.19714 -0.177534 2.02954
-4.19727 -0.178786 2.01255
-4.20835 -0.178941 2.00164
-4.19566 -0.179557 1.96054
-4.188 -0.180229 1.91549
-4.19237 -0.181936 1.86754
-4.18352 -0.182254 1.84648
-4.18664 -0.182474 1.8315
-4.17312 -0.183431 1.76741
-4.17137 -0.184921 1.73441
-4.17747 -0.185109 1.72146
-4.16463 -0.185444 1.69936
-4.17266 -0.185498 1.69542
-4.1729 -0.185971 1.66343
-4.15233 -0.18783 1.60629
-4.15644 -0.188035 1.59232
-4.14664 -0.188441 1.56525
-4.15274 -0.18863 1.5523
-4.144 -0.189154 1.51724
-4.14224 -0.190614 1.48624
-4.1433 -0.190732 1.47825
-4.14142 -0.19097 1.46224
-4.13156 -0.191259 1.44316
-5.32099 0.183659 11.988
-5.31391 0.179833 11.865
-5.30091 0.174869 11.733
-5.28495 0.169829 11.5959
-5.27291 0.165925 11.4679
-5.26479 0.162187 11.3508
-5.2488 0.157206 11.2178
-5.21247 0.148908 10.9966
-5.20331 0.145243 10.8846
-5.19514 0.141623 10.7755
-5.18793 0.138063 10.6705
-5.1758 0.134337 10.5545
-5.16562 0.13073 10.4464
-5.14231 0.127366 10.3553
-5.13112 0.122759 10.2473
-5.12288 0.119272 10.1472
-5.11759 0.116862 10.0522
-5.10933 0.11342 9.95519
-5.06943 0.10326 9.67601
-5.05817 0.0998008 9.57796
-5.04888 0.0964023 9.48393
-5.04255 0.0940799 9.3949
-5.0352 0.0908013 9.30888
-5.02688 0.0874627 9.21886
-4.99711 0.0820277 9.05569
-4.99074 0.0787942 8.97268
-4.98237 0.0765444 8.88864
-4.97993 0.073447 8.81465
-4.96958 0.0711661 8.7286
-4.93924 0.0628868 8.50846
-4.93184 0.0607117 8.42943
-4.91849 0.0574287 8.34336
-4.91402 0.0553742 8.27235
-4.91448 0.0534713 8.21137
-4.86714 0.0412252 7.85915
-4.86362 0.0392899 7.79614
-4.85911 0.0363243 7.73114
-4.83604 0.0324715 7.60701
-4.83053 0.0305199 7.54299
-4.82402 0.0275529 7.47797
-4.82146 0.0256775 7.41897
-4.8104 0.0218334 7.29493
-4.70592 -0.00703498 6.43045
-4.69307 -0.0122948 6.27841
-4.66679 -0.0196897 6.05029
-4.66315 -0.0213883 6.00328
-4.65257 -0.0232251 5.94722
-4.5284 -0.0576693 4.90965
-4.52516 -0.0601672 4.80865
-4.52057 -0.0619848 4.75364
-4.5089 -0.06363 4.71057
-4.51112 -0.0650577 4.6816
-4.50343 -0.0656704 4.64055
-4.50366 -0.0671292 4.60957
-4.48901 -0.0688209 4.56347
-4.49343 -0.0706468 4.50753
-4.47272 -0.0712246 4.46937
-4.48187 -0.072514 4.44946
-4.47712 -0.0730209 4.41543
-4.4704 -0.0745736 4.37839
-4.47955 -0.0748631 4.35846
-4.4629 -0.0765563 4.31236
-4.46103 -0.0768094 4.29535
-4.46223 -0.0782082 4.26837
-4.44757 -0.0788704 4.22426
-4.45175 -0.0802226 4.20031
-4.44501 -0.0807458 4.16526
-4.44422 -0.0821609 4.13728
-4.45138 -0.0824667 4.11633
-4.43362 -0.0839386 4.08522
-4.43085 -0.0843996 4.0542
-4.43006 -0.0858147 4.02621
-4.41954 -0.0877699 3.96215
-4.42471 -0.088092 3.94019
-4.41895 -0.0895699 3.90816
-4.40058 -0.0918122 3.82505
-4.39878 -0.0922134 3.79804
-4.40096 -0.0935523 3.77507
-4.39917 -0.0939682 3.74706
-4.39141 -0.0954476 3.71502
-4.38554 -0.0957184 3.69697
-4.38593 -0.0974732 3.646
-4.38412 -0.0978447 3.62098
-4.38728 -0.0981682 3.59901
-4.38052 -0.0996321 3.56798
-4.37772 -0.100034 3.54096
-4.37483 -0.101258 3.52595
-4.37302 -0.10163 3.50094
-4.36625 -0.102079 3.47089
-4.36643 -0.103434 3.44691
-4.36164 -0.103852 3.41888
-4.35785 -0.105254 3.39186
-4.36597 -0.105485 3.37593
-4.35512 -0.105804 3.35485
-4.34834 -0.107239 3.32581
-4.34652 -0.107595 3.3018
-4.33974 -0.10903 3.27277
-4.34505 -0.109633 3.23181
-4.33156 -0.111635 3.16473
-4.32278 -0.11307 3.13568
-4.32692 -0.113349 3.11671
-4.32609 -0.113675 3.09471
-4.32328 -0.115047 3.0697
-4.31747 -0.115436 3.04366
-4.31755 -0.115584 3.03366
-4.31274 -0.115973 3.00763
-4.30992 -0.117316 2.98463
-4.31406 -0.117594 2.96566
-4.30527 -0.118015 2.93759
-4.30244 -0.119357 2.91459
-4.30459 -0.119637 2.89561
-4.2977 -0.119864 2.88056
-4.29488 -0.121207 2.85755
-4.29404 -0.121533 2.83555
-4.29817 -0.121782 2.81858
-4.29037 -0.123173 2.79254
-4.29052 -0.123483 2.77154
-4.28868 -0.123796 2.75053
-4.27882 -0.124069 2.73246
-4.28195 -0.125334 2.7145
-4.2811 -0.12563 2.69449
-4.27926 -0.125943 2.67348
-4.27145 -0.127318 2.64844
-4.27757 -0.127551 2.63248
-4.27374 -0.12788 2.61046
-4.27281 -0.128028 2.60045
-4.267 -0.129388 2.57642
-4.2562 -0.129795 2.54935
-4.27027 -0.129933 2.53945
-4.26658 -0.130543 2.49843
-4.25976 -0.131889 2.47539
-4.25186 -0.132102 2.46133
-4.25301 -0.132382 2.44234
-4.25116 -0.13368 2.42235
-4.25727 -0.133897 2.40739
-4.24248 -0.134323 2.37929
-4.24959 -0.134525 2.36534
-4.24375 -0.135855 2.34331
-4.24084 -0.13602 2.33229
-4.23799 -0.136333 2.31127
-4.23016 -0.136664 2.28922
-4.22831 -0.137962 2.26922
-4.22745 -0.138229 2.25121
-4.23555 -0.13843 2.23727
-4.2327 -0.138714 2.21825
-4.2248 -0.138927 2.2042
-4.22095 -0.140225 2.18418
-4.22108 -0.140477 2.16719
-4.22022 -0.140759 2.14818
-4.22633 -0.140962 2.13423
-4.2165 -0.14231 2.11117
-4.21763 -0.14256 2.09418
-4.21172 -0.142742 2.08214
-4.21086 -0.14301 2.06413
-4.21099 -0.143261 2.04713
-4.21111 -0.143513 2.03014
-4.20427 -0.144829 2.0091
-4.21038 -0.145032 1.99515
-4.20652 -0.145316 1.97612
-4.19663 -0.14553 1.96205
-4.19576 -0.146783 1.94506
-4.20187 -0.147 1.93011
-4.19402 -0.147302 1.91005
-4.19913 -0.147506 1.89609
-4.19228 -0.147822 1.87504
-4.19838 -0.14801 1.86208
-4.19446 -0.149161 1.85207
-4.18163 -0.149511 1.82898
-4.18874 -0.149713 1.81503
-4.18985 -0.149934 1.80004
-4.17802 -0.151268 1.77797
-4.18113 -0.151488 1.76299
-4.17434 -0.151908 1.73494
-4.17945 -0.152111 1.72098
-4.17669 -0.152602 1.68797
-4.17383 -0.15387 1.66996
-4.16609 -0.154394 1.6349
-4.17114 -0.15448 1.62894
-4.16839 -0.15497 1.59593
-4.15655 -0.15629 1.57485
-4.1518 -0.156782 1.54182
-4.15889 -0.156969 1.52887
-4.1491 -0.158376 1.50182
-4.14224 -0.158662 1.48277
-4.14546 -0.159089 1.45379
-4.89311 0.100162 8.12351
-4.87776 0.0968778 8.03743
-4.85544 0.0826057 7.68242
-4.71512 0.0384921 6.53286
-4.71347 0.0367951 6.48587
-4.68856 0.0266758 6.20879
-4.68294 0.0249314 6.15877
-4.67732 0.023187 6.10874
-4.6707 0.0214419 6.05871
-4.65197 0.014941 5.89065
-4.64731 0.0132565 5.84463
-4.5439 -0.0197292 4.97222
-4.49318 -0.0352066 4.537
-4.4889 -0.0386162 4.44201
-4.47555 -0.0418992 4.35595
-4.46152 -0.0458194 4.22688
-4.45687 -0.0475039 4.18086
-4.44736 -0.0504731 4.11583
-4.43188 -0.052506 4.04673
-4.4167 -0.057116 3.93867
-4.42007 -0.0578539 3.8887
-4.41272 -0.0611178 3.80368
-4.41102 -0.0627112 3.76369
-4.38712 -0.0678902 3.61756
-4.37945 -0.0695325 3.57452
-4.38956 -0.0697472 3.5596
-4.37619 -0.0720007 3.47552
-4.36453 -0.0736754 3.43045
-4.3667 -0.0749995 3.40849
-4.3591 -0.0767898 3.35545
-4.36423 -0.0770526 3.33749
-4.35357 -0.0787118 3.29343
-4.35076 -0.079084 3.26841
-4.34098 -0.0805353 3.23835
-4.34314 -0.0808447 3.21737
-4.32873 -0.08401 3.1393
-4.32599 -0.0855301 3.10429
-4.31538 -0.087293 3.05323
-4.31753 -0.0875876 3.03325
-4.31371 -0.0879457 3.00922
-4.31884 -0.0891936 2.99228
-4.29836 -0.0912302 2.92314
-4.3005 -0.09151 2.90416
-4.29369 -0.092885 2.87913
-4.29087 -0.0932277 2.85611
-4.29599 -0.0934757 2.83915
-4.29217 -0.0948189 2.81614
-4.29125 -0.0949825 2.80513
-4.29538 -0.0952312 2.78816
-4.28191 -0.0982774 2.7181
-4.28404 -0.0985423 2.70011
-4.27417 -0.0988013 2.68304
-4.27332 -0.100098 2.66305
-4.27859 -0.100627 2.62709
-4.27477 -0.100971 2.60407
-4.26112 -0.102676 2.55698
-4.25721 -0.103857 2.54497
-4.25437 -0.10417 2.52395
-4.24897 -0.106358 2.44393
-4.24932 -0.108039 2.39795
-4.24547 -0.108338 2.37792
-4.25059 -0.108571 2.36196
-4.24178 -0.109933 2.33791
-4.24987 -0.11012 2.32498
-4.23807 -0.110513 2.29889
-4.23017 -0.111711 2.28585
-4.2323 -0.111961 2.26886
-4.23044 -0.112244 2.24985
-4.23158 -0.11351 2.23188
-4.22088 -0.114125 2.1908
-4.23097 -0.114295 2.17887
-4.2252 -0.115743 2.14885
-4.22732 -0.115979 2.13287
-4.21776 -0.117844 2.07481
-4.21988 -0.11808 2.05883
-4.20501 -0.119342 2.04174
-4.21708 -0.118482 2.03181
-4.20825 -0.119814 2.00976
-4.19842 -0.120162 1.98669
-4.19954 -0.121398 1.97071
-4.20664 -0.121585 1.95777
-4.19482 -0.121934 1.93468
-4.20297 -0.122239 1.91374
-4.18828 -0.123857 1.87265
-4.19538 -0.124044 1.85971
-4.18355 -0.125378 1.83763
-4.18473 -0.125733 1.81365
-4.18286 -0.125986 1.79663
-4.18697 -0.126205 1.78166
-4.18423 -0.127711 1.74766
-4.17737 -0.127997 1.72861
-4.16659 -0.129434 1.69955
-4.17492 -0.13008 1.65561
-4.16619 -0.130604 1.62055
-4.16836 -0.131943 1.59758
-4.15962 -0.132468 1.56252
-4.15487 -0.13396 1.5295
-4.14912 -0.134453 1.49646
-4.15018 -0.13457 1.48847
-4.15229 -0.134776 1.47449
-4.15152 -0.136236 1.4435
-4.14388 -0.136952 1.39545
-5.31325 0.323987 11.8069
-5.30417 0.319175 11.6849
-5.29017 0.31321 11.5528
-5.27223 0.30611 11.4118
-5.26115 0.301295 11.2897
-5.2157 0.285273 10.9526
-5.20851 0.280684 10.8456
-5.19344 0.274852 10.7225
-5.18623 0.270292 10.6175
-5.14354 0.256746 10.3124
-5.13827 0.252306 10.2154
-5.12115 0.246561 10.0983
-5.11586 0.242181 10.0053
-5.06965 0.225669 9.63519
-5.05939 0.221211 9.53716
-5.05305 0.217918 9.45015
-5.04177 0.213489 9.35412
-4.99732 0.197467 9.01698
-4.98996 0.194203 8.93196
-4.98357 0.191014 8.85195
-4.97125 0.186673 8.7619
-4.96288 0.182423 8.67789
-4.94511 0.176012 8.51583
-4.93449 0.173249 8.46479
-4.92906 0.170135 8.38978
-4.91472 0.165822 8.30172
-4.90533 0.16263 8.22169
-4.90677 0.159773 8.16374
-4.85446 0.144449 7.80652
-4.86083 0.141743 7.7586
-4.83952 0.137366 7.66649
-4.84587 0.13569 7.62056
-4.82751 0.132418 7.53546
-4.80579 0.124885 7.36538
-4.69994 0.0838026 6.41906
-4.68461 0.0794739 6.33
-4.68 0.0767155 6.279
-4.67538 0.0749719 6.22898
-4.66975 0.0732275 6.17896
-4.6681 0.0705454 6.13298
-4.6595 0.0687544 6.07993
-4.65174 0.067275 6.04789
-4.64612 0.0655306 5.99787
-4.64049 0.0628159 5.94986
-4.63882 0.0611633 5.90586
-4.63912 0.0595713 5.86588
-4.62853 0.0567642 5.81184
-4.53281 0.0223766 4.97951
-4.52526 0.0194977 4.92049
-4.52055 0.0179169 4.88147
-4.52079 0.0164433 4.84949
-4.51608 0.0148773 4.81147
-4.51434 0.0143725 4.77746
-4.51259 0.0128827 4.74447
-4.50875 0.011569 4.72346
-4.50502 0.0100334 4.68745
-4.50227 0.008528 4.65344
-4.49655 0.00697604 4.61642
-4.49679 0.00651717 4.58542
-4.48809 0.00391873 4.54539
-4.49229 0.00353678 4.51942
-4.49041 0.00328369 4.50241
-4.47576 0.00059207 4.45633
-4.475 -0.000867428 4.42534
-4.48414 -0.00114212 4.40641
-4.47246 -0.00277245 4.36435
-4.47168 -0.00421715 4.33436
-4.46893 -0.0057077 4.30135
-4.45118 -0.00719438 4.26924
-4.45358 -0.00899215 4.21527
-4.44189 -0.0106077 4.1742
-4.44408 -0.0119762 4.14924
-4.44925 -0.012313 4.12628
-4.43656 -0.0139144 4.0862
-4.4317 -0.0151992 4.06718
-4.43687 -0.0155212 4.04522
-4.42933 -0.0184298 3.9842
-4.42159 -0.0199536 3.94916
-4.41286 -0.0214781 3.91411
-4.41206 -0.0218785 3.88711
-4.41216 -0.022071 3.87411
-4.40242 -0.0245961 3.83907
-4.40063 -0.025012 3.81106
-4.41076 -0.0252564 3.79413
-4.39506 -0.0278451 3.75505
-4.39625 -0.0282144 3.73006
-4.38859 -0.0298863 3.68502
-4.38778 -0.0312718 3.65903
-4.38697 -0.0316425 3.63403
-4.38157 -0.0348161 3.55502
-4.36992 -0.0365204 3.50795
-4.36513 -0.0379384 3.47993
-4.36035 -0.0393564 3.45192
-4.35655 -0.039759 3.42489
-4.3607 -0.041052 3.40494
-4.35193 -0.0425026 3.37489
-4.35219 -0.0430207 3.33989
-4.3426 -0.045827 3.28586
-4.34178 -0.046183 3.26185
-4.32581 -0.0512082 3.12579
-4.31818 -0.0529541 3.07575
-4.31835 -0.0542796 3.05377
-4.31255 -0.0556687 3.02774
-4.31362 -0.055816 3.01775
-4.31411 -0.0577633 2.95377
-4.30631 -0.0591687 2.92673
-4.2901 -0.0627351 2.82165
-4.28528 -0.0640939 2.79763
-4.28169 -0.065896 2.74362
-4.27403 -0.0675678 2.69858
-4.2705 -0.0694884 2.63657
-4.26568 -0.0708472 2.61255
-4.22436 -0.0831333 2.25737
-4.20479 -0.088946 2.06829
-4.15804 -0.103361 1.63709
-4.1364 -0.109042 1.45698
-5.32684 0.413684 11.8526
-5.23223 0.370105 11.0075
-5.21913 0.363334 10.8885
-5.07193 0.297026 9.59114
-5.00347 0.266079 8.99
-4.94355 0.239056 8.45088
-4.93317 0.234835 8.36885
-4.92574 0.230704 8.29285
-4.89057 0.218096 8.05073
-4.87489 0.209509 7.87672
-4.83035 0.19365 7.55057
-4.82977 0.190821 7.4946
-4.82168 0.185038 7.37461
-4.70619 0.142208 6.51326
-4.72136 0.140878 6.49039
-4.71297 0.137688 6.41036
-4.68558 0.126515 6.19729
-4.66855 0.120607 6.06923
-4.65659 0.113556 5.93123
-4.53482 0.068299 4.97385
-4.54597 0.0670111 4.95395
-4.5245 0.0580049 4.75189
-4.44764 0.026867 4.07068
-4.34005 -0.0107657 3.22231
-4.34121 -0.0120758 3.20133
-4.3326 -0.0138371 3.15029
-4.33889 -0.0154099 3.11135
-4.33515 -0.0169308 3.07634
-4.31361 -0.0198348 3.01621
-4.32486 -0.0203301 2.9823
-4.31333 -0.0232563 2.92025
-4.29322 -0.0280032 2.80315
-4.29743 -0.0294146 2.7752
-4.28362 -0.0357639 2.61717
-4.25733 -0.0401747 2.52302
-4.25848 -0.0404552 2.50403
-4.26281 -0.0421035 2.46008
-4.24368 -0.04682 2.34499
-4.24408 -0.0486192 2.29102
-4.22119 -0.0538123 2.1439
-4.19859 -0.0615677 1.95882
-4.19168 -0.0657049 1.81481
-4.18694 -0.0672265 1.77979
-4.17185 -0.0720141 1.65973
-4.16148 -0.0742654 1.57568
-4.1356 -0.0804754 1.42755
-4.14868 -0.0796289 1.41664
-4.12985 -0.0809683 1.39451
-5.28956 0.479184 11.6174
-5.27557 0.471205 11.4844
-5.26647 0.464437 11.3654
-5.25341 0.457577 11.2404
-5.2443 0.450838 11.1234
-5.19878 0.431935 10.7943
-5.18765 0.425239 10.6803
-5.17749 0.418574 10.5683
-5.17321 0.413164 10.4733
-5.11732 0.390039 10.0622
-5.10808 0.384552 9.96217
-5.10277 0.379201 9.8712
-5.04624 0.35335 9.41109
-5.03694 0.347982 9.31909
-5.02959 0.342703 9.2331
-5.01929 0.337334 9.14109
-4.98609 0.323787 8.90301
-4.97575 0.319476 8.81498
-4.96837 0.314257 8.73299
-4.96887 0.31128 8.66703
-4.95556 0.305924 8.576
-4.94716 0.301733 8.49598
-4.93974 0.296603 8.41999
-4.92123 0.293627 8.35489
-4.91282 0.288466 8.27689
-4.90933 0.285457 8.2089
-4.89499 0.280174 8.12286
-4.86495 0.265303 7.86282
-4.86144 0.262338 7.79782
-4.851 0.258235 7.7238
-4.84452 0.254224 7.6558
-4.84692 0.251441 7.60285
-4.83547 0.247352 7.52981
-4.82798 0.24334 7.46181
-4.8104 0.240513 7.40671
-4.71349 0.189556 6.4686
-4.70148 0.181623 6.33861
-4.6711 0.170418 6.12352
-4.66299 0.16468 6.00653
-4.4749 0.0752582 4.2982
-4.45758 0.0709132 4.20812
-4.45481 0.0694522 4.17712
-4.45424 0.0666228 4.12115
-4.40737 0.0464449 3.70604
-4.37824 0.0337671 3.45897
-4.35471 0.0248778 3.2649
-4.33997 0.0233489 3.2298
-4.35207 0.0231653 3.2169
-4.34031 0.0206831 3.18484
-4.33957 0.0191791 3.15085
-4.33709 0.0161558 3.08187
-4.30702 0.00434396 2.82578
-4.28728 -0.003128 2.65972
-4.2799 -0.00636221 2.5767
-4.27202 -0.00758996 2.56166
-4.25923 -0.00901379 2.53358
-4.25738 -0.00931129 2.51357
-4.25802 -0.0125693 2.42861
-4.23672 -0.0219159 2.20355
-4.22896 -0.0233805 2.17251
-4.23307 -0.0235996 2.15755
-4.17088 -0.0441067 1.65331
-4.14871 -0.0537205 1.41025
-5.31761 0.569912 11.8673
-5.30461 0.560963 11.7363
-5.29554 0.554136 11.6133
-5.25926 0.538734 11.3852
-5.23414 0.524045 11.1372
-5.21712 0.515108 11.0072
-5.21092 0.508549 10.9022
-5.19682 0.501777 10.7832
-5.18043 0.496566 10.7022
-5.16106 0.482355 10.4862
-5.14496 0.475597 10.3682
-5.13574 0.46905 10.2642
-5.12751 0.462549 10.1632
-5.11107 0.457442 10.0891
-5.09158 0.445467 9.88914
-5.07502 0.433643 9.69916
-5.05785 0.427002 9.58911
-5.05348 0.42177 9.50615
-4.99973 0.394366 9.07609
-4.99729 0.390283 9.00312
-4.98697 0.384943 8.91311
-4.93987 0.361225 8.52905
-4.91616 0.350691 8.35901
-4.81217 0.293893 7.43194
-4.79439 0.284497 7.27092
-4.74283 0.256724 6.81588
-4.73528 0.253845 6.75686
-4.7376 0.25121 6.71391
-4.7075 0.236473 6.46286
-4.70289 0.2327 6.41088
-4.69927 0.229972 6.36188
-4.69448 0.228554 6.33386
-4.68392 0.224673 6.27483
-4.68623 0.223067 6.23387
-4.66873 0.218078 6.1678
-4.67401 0.216548 6.13186
-4.67629 0.214988 6.0939
-4.66769 0.211197 6.04088
-4.6434 0.205788 5.94676
-4.64371 0.203196 5.9068
-4.63707 0.20048 5.85878
-4.53729 0.146285 4.9047
-4.52761 0.143642 4.86166
-4.52191 0.14106 4.82265
-4.51521 0.138463 4.78263
-4.51445 0.136989 4.75065
-4.50775 0.134407 4.71163
-4.52075 0.135401 4.71071
-4.49718 0.13154 4.65358
-4.50436 0.130205 4.63065
-4.4949 0.126132 4.55863
-4.49017 0.124611 4.52361
-4.48103 0.117917 4.40963
-4.47728 0.116425 4.37662
-4.47154 0.114903 4.34159
-4.47275 0.113504 4.31462
-4.44847 0.107065 4.21852
-4.44273 0.105558 4.18449
-4.4469 0.104221 4.16154
-4.44612 0.102805 4.13355
-4.43264 0.0987742 4.0645
-4.42699 0.0960891 4.01849
-4.43136 0.094352 3.96854
-4.4256 0.0928889 3.93752
-4.41686 0.0903645 3.90248
-4.41735 0.0874173 3.83852
-4.41457 0.085986 3.80952
-4.41773 0.0846626 3.78756
-4.40998 0.0831684 3.75452
-4.39129 0.0805479 3.71341
-4.39347 0.0791942 3.68944
-4.39574 0.0776777 3.65448
-4.39096 0.0762301 3.62446
-4.37524 0.073671 3.58737
-4.3776 0.0709769 3.54043
-4.37028 0.0666392 3.45042
-4.35573 0.0637552 3.39135
-4.35888 0.0624614 3.37139
-4.34938 0.0594774 3.30535
-4.34359 0.0580586 3.27732
-4.34078 0.0566865 3.25232
-4.34028 0.0526943 3.18537
-4.32313 0.0470238 3.0733
-4.3155 0.0442929 3.02428
-4.30512 0.0410713 2.94224
-4.30543 0.0384646 2.90127
-4.3046 0.0381382 2.87927
-4.29572 0.0368949 2.86322
-4.29588 0.0355842 2.84224
-4.29434 0.0326652 2.78026
-4.28654 0.0312746 2.75422
-4.29388 0.0296137 2.70929
-4.28607 0.0282379 2.68425
-4.27428 0.0268148 2.65618
-4.27343 0.0255182 2.63619
-4.26974 0.0239085 2.59518
-4.25575 0.0179144 2.46114
-4.24516 0.0151073 2.4071
-4.24629 0.0138565 2.39012
-4.23747 0.0124948 2.36607
-4.23762 0.0122136 2.34708
-4.23583 0.0107978 2.31908
-4.23099 0.00948337 2.29806
-4.22715 0.00916961 2.27703
-4.22827 0.0079188 2.26006
-4.23937 0.00774918 2.24814
-4.23552 0.00745022 2.22811
-4.22967 0.00613511 2.20709
-4.22576 0.00596937 2.19606
-4.22689 0.00471856 2.17908
-4.22018 0.00313628 2.14005
-4.22529 0.00291789 2.12509
-4.22443 0.00165082 2.1071
-4.20564 0.000222628 2.07898
-4.2077 0.000120468 2.07199
-4.21479 -6.68681e-05 2.05905
-4.21194 -0.00135019 2.04004
-4.2031 -0.00268229 2.01799
-4.20025 -0.00396561 1.99899
-4.20934 -0.0031368 1.98704
-4.19453 -0.00551756 1.96196
-4.1916 -0.00566777 1.95194
-4.20866 -0.00477392 1.94405
-4.18886 -0.00717313 1.91794
-4.19596 -0.00737527 1.90399
-4.19534 -0.00911601 1.854
-4.18743 -0.0102994 1.84196
-4.17859 -0.0116167 1.82091
-4.1817 -0.0118365 1.80594
-4.1878 -0.0120246 1.79298
-4.17995 -0.0133263 1.77294
-4.1721 -0.0136282 1.75288
-4.17522 -0.014848 1.73792
-4.18125 -0.0139177 1.73295
-4.17739 -0.015187 1.71494
-4.16655 -0.0165057 1.69388
-4.16966 -0.0167108 1.6799
-4.17177 -0.0169313 1.66492
-4.16691 -0.0182013 1.6469
-4.17101 -0.0184056 1.63293
-4.15337 -0.0211142 1.58583
-4.16445 -0.0212691 1.57491
-4.14674 -0.0228593 1.5358
-4.15085 -0.0230637 1.52183
-4.15389 -0.0231503 1.51585
-4.15402 -0.024387 1.49987
-4.14416 -0.0246756 1.4808
-4.15424 -0.0248311 1.46987
-4.13653 -0.0274065 1.43177
-5.32527 0.65647 11.9041
-5.30736 0.646326 11.76
-5.29731 0.638468 11.6351
-5.27742 0.628293 11.4891
-5.23201 0.604183 11.146
-5.22191 0.596429 11.028
-5.21177 0.588734 10.9141
-5.19966 0.579978 10.7961
-5.19148 0.573374 10.6881
-5.17312 0.567117 10.604
-5.15571 0.552981 10.3931
-5.13862 0.544192 10.2731
-5.1363 0.537858 10.1831
-5.12116 0.530175 10.0701
-5.08858 0.517368 9.88205
-5.09214 0.512276 9.80814
-5.07499 0.504605 9.69611
-5.07063 0.499344 9.61114
-5.05445 0.491733 9.50312
-5.04812 0.485411 9.41415
-5.04571 0.480255 9.3362
-5.02332 0.475055 9.2561
-5.01499 0.468746 9.16812
-5.00567 0.462407 9.07813
-4.99535 0.457067 8.98812
-4.9929 0.451985 8.91516
-4.98257 0.445675 8.82717
-4.9742 0.440425 8.74317
-4.95769 0.435466 8.67911
-4.94437 0.429124 8.58909
-4.93795 0.42398 8.51211
-4.93252 0.419865 8.43712
-4.93003 0.414872 8.37016
-4.91866 0.409635 8.28714
-4.91518 0.404611 8.21818
-4.89863 0.400711 8.15811
-4.8708 0.381442 7.87114
-4.86235 0.376371 7.79914
-4.83928 0.368533 7.67607
-4.83773 0.364644 7.61611
-4.83025 0.359632 7.54812
-4.81979 0.355573 7.47709
-4.8202 0.351774 7.42314
-4.81566 0.347868 7.36215
-4.79807 0.344041 7.30707
-4.79551 0.340195 7.2501
-4.78799 0.336243 7.18609
-4.77949 0.331259 7.12009
-4.78085 0.32855 7.07214
-4.77332 0.324627 7.01013
-4.76579 0.320703 6.94812
-4.75312 0.317043 6.90408
-4.74854 0.314225 6.84908
-4.74792 0.310485 6.79912
-4.73542 0.306499 6.73307
-4.73677 0.303819 6.68712
-4.73416 0.300047 6.63515
-4.72659 0.296198 6.57814
-4.71291 0.293566 6.53607
-4.71129 0.289825 6.48611
-4.70667 0.287082 6.4361
-4.70107 0.283278 6.38211
-4.7024 0.280643 6.33915
-4.69778 0.277884 6.28815
-4.69019 0.274094 6.23515
-4.68144 0.271585 6.20111
-4.66494 0.267596 6.13504
-4.66625 0.26499 6.09408
-4.66953 0.262444 6.05714
-4.65995 0.258623 6.00211
-4.65729 0.255955 5.95713
-4.64685 0.251852 5.8831
-4.63558 0.245423 5.7871
-4.62894 0.241708 5.73909
-4.61367 0.236261 5.64205
-4.61694 0.233745 5.6071
-4.61114 0.232341 5.58008
-4.59854 0.228547 5.52703
-4.5458 0.19419 4.96507
-4.5282 0.190392 4.91198
-4.48596 0.167958 4.54694
