4.73373 -0.158782 -0.177237
4.74484 -0.158568 -0.162322
4.73207 -0.158114 -0.132228
4.73018 -0.157906 -0.118215
4.7214 -0.157455 -0.0881514
4.73446 -0.157346 -0.0802503
4.72679 -0.156689 -0.0361962
4.70918 -0.156921 0.014947
4.70451 -0.156266 0.0589786
4.70162 -0.156042 0.0739991
4.6969 -0.15549 0.111032
4.69501 -0.155282 0.125045
4.69123 -0.154835 0.155071
4.69535 -0.154615 0.170039
4.68373 -0.153852 0.221122
4.68496 -0.153408 0.25111
4.67906 -0.153197 0.265153
4.67734 -0.152648 0.302163
4.67356 -0.152216 0.331189
4.6709 -0.151547 0.376206
4.6634 -0.150564 0.442257
4.65951 -0.150339 0.457285
4.65662 -0.15013 0.471305
4.65367 -0.150024 0.478327
4.65478 -0.149803 0.493317
4.65289 -0.149579 0.50833
4.66001 -0.148348 0.524261
4.65112 -0.148134 0.538327
4.64835 -0.147688 0.568345
4.6474 -0.147583 0.575352
4.6425 -0.147373 0.589387
4.63761 -0.148162 0.603438
4.64273 -0.146928 0.619383
4.64786 -0.14668 0.636343
4.64096 -0.146483 0.649394
4.64007 -0.14626 0.664399
4.63212 -0.146166 0.670459
4.63235 -0.145707 0.701455
4.62745 -0.145496 0.71549
4.63358 -0.145249 0.732443
4.62869 -0.145038 0.746478
4.62579 -0.144828 0.760499
4.63587 -0.144687 0.770422
4.62997 -0.144476 0.784466
4.62508 -0.144265 0.798501
4.61919 -0.144053 0.812545
4.6183 -0.143831 0.82755
4.6104 -0.143618 0.841608
4.61971 -0.142017 0.88252
4.61983 -0.141795 0.897518
4.61794 -0.141572 0.912531
4.60615 -0.141149 0.940617
4.61228 -0.140901 0.95757
4.60833 -0.140795 0.964599
4.60644 -0.140571 0.979612
4.60757 -0.140335 0.995602
4.59466 -0.140148 1.0077
4.59578 -0.139912 1.02369
4.59106 -0.139346 1.06172
4.58629 -0.138898 1.09175
4.59142 -0.13865 1.10871
4.58953 -0.138427 1.12373
4.57561 -0.138254 1.13483
4.58069 -0.138109 1.14479
4.57592 -0.136662 1.17481
4.58406 -0.136386 1.19375
4.57816 -0.136189 1.20679
4.56838 -0.135753 1.23586
4.55953 -0.135435 1.25693
4.55965 -0.135199 1.27293
4.5698 -0.13491 1.29285
4.55188 -0.134749 1.30298
4.55099 -0.134526 1.31799
4.55914 -0.134251 1.33692
4.54917 -0.134169 1.342
4.54529 -0.133944 1.35703
4.55945 -0.132644 1.3779
4.54653 -0.132471 1.389
4.54879 -0.13197 1.42298
4.53587 -0.131797 1.43408
4.53593 -0.131679 1.44208
4.53241 -0.130729 1.5061
4.53768 -0.129199 1.54204
4.51041 -0.127743 1.63924
4.48277 -0.120089 1.95237
4.46049 -0.117666 2.04752
4.45394 -0.116787 2.10656
4.44739 -0.114894 2.16659
4.44365 -0.114373 2.20162
4.43992 -0.113852 2.23664
4.43818 -0.112333 2.27164
4.42863 -0.111437 2.33171
4.42039 -0.107951 2.43173
4.40992 -0.106906 2.5018
4.41014 -0.105477 2.53079
4.40742 -0.104913 2.5688
4.39566 -0.10443 2.60089
4.40393 -0.102918 2.63581
4.39 -0.10276 2.64591
4.38715 -0.102476 2.66493
4.39233 -0.101125 2.68888
4.38057 -0.100643 2.72096
4.37971 -0.100361 2.73997
4.38482 -0.100157 2.75393
4.37492 -0.0999424 2.768
4.38815 -0.0985079 2.79788
4.36919 -0.0984053 2.80403
4.37153 -0.0967555 2.84799
4.36573 -0.0963515 2.87503
4.37494 -0.0959436 2.90296
4.36504 -0.0957439 2.91603
4.35615 -0.0955153 2.9311
4.32712 -0.0876297 3.19224
4.31481 -0.0852733 3.28331
4.32002 -0.0838626 3.31125
4.30269 -0.0815322 3.40036
4.3059 -0.0811347 3.42733
4.29902 -0.0798781 3.44437
4.29664 -0.0776622 3.52637
4.28576 -0.0774321 3.54145
4.27606 -0.0758329 3.5815
4.27241 -0.075149 3.62753
4.27653 -0.0739152 3.64348
4.26784 -0.073287 3.68554
4.26602 -0.0719452 3.70854
4.26559 -0.0698195 3.78452
4.26085 -0.0693126 3.81855
4.24896 -0.068082 3.83363
4.24915 -0.0677119 3.85862
4.24028 -0.0674389 3.87669
4.23293 -0.0641751 3.96171
4.23917 -0.063691 3.99466
4.21794 -0.0601801 4.09578
4.2252 -0.0586672 4.13071
4.20727 -0.0595208 4.13986
4.20892 -0.0562487 4.22581
4.19457 -0.052965 4.31188
4.19882 -0.0524646 4.34584
4.18717 -0.0507751 4.39191
4.1874 -0.050331 4.42191
4.17238 -0.0503645 4.41902
4.17563 -0.0488635 4.45298
4.16298 -0.0471733 4.49906
4.16725 -0.0466433 4.53502
4.16179 -0.0435882 4.60603
4.16202 -0.0431293 4.63702
4.14435 -0.0414798 4.68014
4.14156 -0.0410631 4.70816
4.13675 -0.0396747 4.73418
4.13398 -0.0392285 4.76419
4.13006 -0.0380628 4.77521
4.12829 -0.0376173 4.80522
4.12552 -0.0361712 4.83522
4.13384 -0.0345406 4.87814
4.13107 -0.0340943 4.90816
4.12223 -0.0327622 4.93021
3.99631 -0.000782638 5.86881
4.00474 0.00105517 5.92573
3.99394 0.00144805 5.95181
3.98921 0.00298446 5.98783
3.99073 0.00599009 6.05578
3.97759 0.00968754 6.16984
3.97186 0.0112247 6.20587
3.93407 0.0215903 6.49904
3.90884 0.0300732 6.73314
3.87863 0.0386189 6.97127
3.76745 0.0720693 7.87474
3.75528 0.075692 7.98379
3.71862 0.0873232 8.29494
3.69116 0.0953487 8.49805
3.661 0.103983 8.74219
3.57057 0.131961 9.47956
3.51653 0.147804 9.87178
3.50917 0.151067 9.9568
3.49465 0.153026 10.0209
3.48668 0.158045 10.1569
3.48037 0.162412 10.2489
3.46282 0.164298 10.308
3.45346 0.167563 10.393
3.44003 0.170683 10.4681
3.43171 0.174037 10.5591
3.43217 0.17594 10.6201
3.42389 0.180337 10.7141
3.40741 0.182386 10.7842
3.39813 0.186799 10.8792
3.38171 0.188936 10.9553
3.36935 0.192204 11.0404
3.36064 0.199742 11.2114
3.34423 0.201908 11.2895
3.33196 0.206353 11.3865
4.63969 -0.119048 0.610992
4.63397 -0.118496 0.648032
4.6273 -0.117839 0.692079
4.61591 -0.116632 0.773158
4.61726 -0.114937 0.820129
4.60841 -0.114634 0.840194
4.60854 -0.114397 0.856192
4.60015 -0.113177 0.938248
4.30419 -0.0495586 3.33087
3.76462 0.120363 7.75903
3.72281 0.138641 8.18113
3.70559 0.142193 8.28522
3.67984 0.149655 8.45033
3.65546 0.158856 8.66541
3.64692 0.16175 8.72543
3.64549 0.164876 8.80141
3.6448 0.166484 8.8424
3.63321 0.169292 8.89645
3.6257 0.17226 8.96147
3.6182 0.174242 9.02751
3.60764 0.177123 9.08655
3.59813 0.180078 9.15059
3.58758 0.181974 9.21065
3.59099 0.184771 9.26459
3.57944 0.187667 9.32464
3.56995 0.190666 9.39168
3.54894 0.195621 9.52278
3.53244 0.204579 9.7218
3.51891 0.207507 9.78387
3.50946 0.210595 9.8569
4.74317 -0.0979957 -0.124201
4.72779 -0.0967851 -0.0430913
4.72812 -0.0961189 0.00190247
4.7234 -0.0955676 0.038935
4.63269 -0.0851212 0.740561
4.56126 -0.072096 1.34699
4.54451 -0.0715803 1.38111
4.543 -0.0696168 1.4461
4.53122 -0.0662242 1.60716
4.52558 -0.0645095 1.65519
4.50204 -0.0596198 1.84932
4.48324 -0.0592211 1.87546
4.41173 -0.0374048 2.60278
4.2581 0.00708088 3.84445
4.20069 0.0251701 4.32068
4.1998 0.0263779 4.33467
4.18288 0.0315223 4.47874
4.17148 0.0347002 4.55779
4.15302 0.0377648 4.62889
4.14807 0.0438262 4.76786
4.14427 0.0452287 4.79487
4.14048 0.0456461 4.8229
4.1396 0.0468835 4.83889
4.12017 0.0500081 4.914
4.11841 0.0514831 4.94599
4.10984 0.0533333 5.00304
4.10471 0.0590395 5.11801
4.09717 0.0609482 5.17905
4.07143 0.0684393 5.34615
4.07273 0.0700158 5.38512
4.06595 0.07145 5.41416
4.06305 0.0716594 5.42818
4.04635 0.0792032 5.59922
4.03249 0.0804945 5.6183
4.03871 0.0819193 5.64724
4.02921 0.0849182 5.71428
4.02752 0.0865116 5.75427
4.02377 0.0880177 5.78828
4.01313 0.0897213 5.83534
4.00771 0.0938651 5.91233
3.99825 0.0969232 5.98337
3.98678 0.0999827 6.05442
3.98223 0.102859 6.11342
3.93703 0.11937 6.48357
3.90976 0.129795 6.71365
3.54069 0.275965 9.74769
3.50567 0.28887 10.0098
3.49217 0.292856 10.0758
3.48279 0.296092 10.1589
3.46623 0.298963 10.217
3.47076 0.302996 10.2869
3.46345 0.307348 10.3779
3.44899 0.31141 10.4489
3.43761 0.315647 10.532
3.42419 0.318782 10.608
3.41282 0.323019 10.6911
3.39739 0.327155 10.7671
3.40401 0.331364 10.849
3.38858 0.334486 10.9241
3.37623 0.339783 11.0112
3.36289 0.34408 11.0982
3.34854 0.348364 11.1843
3.32142 0.36107 11.4333
3.30711 0.365427 11.5244
3.2354 0.393874 12.0916
4.75887 -0.0716165 -0.300734
4.76293 -0.071501 -0.292765
4.75926 -0.0708468 -0.248741
4.74848 -0.0703947 -0.218662
4.72394 -0.0685188 -0.0254783
4.71094 -0.0665398 0.107609
4.71406 -0.0663052 0.123584
4.698 -0.0644425 0.248695
4.63773 -0.0560688 0.744093
4.62552 -0.0545199 0.848176
4.62363 -0.0542964 0.863189
4.59557 -0.0514399 0.987376
4.59622 -0.0491669 1.07335
4.57983 -0.0479408 1.15547
4.58096 -0.0477047 1.17146
4.57748 -0.0456657 1.24146
4.55768 -0.0452662 1.26761
4.56281 -0.0450182 1.28457
4.56418 -0.0432938 1.33354
4.55333 -0.0429897 1.35362
4.56147 -0.0427143 1.37256
4.55057 -0.0425138 1.38564
4.53896 -0.0417354 1.43772
4.53663 -0.038416 1.5267
4.53688 -0.0379275 1.5597
4.53199 -0.0377018 1.57473
4.52253 -0.0356437 1.64578
4.51764 -0.035418 1.66082
4.52279 -0.0341405 1.67976
4.51289 -0.0339408 1.69284
4.511 -0.0337173 1.70785
4.50718 -0.0333591 1.73188
4.5043 -0.0331201 1.7479
4.50443 -0.0318686 1.76488
4.50756 -0.0316043 1.78285
4.49491 -0.0309139 1.82895
4.48921 -0.0293176 1.86897
4.4077 -0.00549425 2.59633
4.40476 -0.00537364 2.60435
4.4019 -0.00510501 2.62237
4.39748 -0.0019618 2.69937
4.38664 -0.00162814 2.72145
4.38696 -6.54285e-06 2.76343
4.37722 0.00150391 2.79749
4.37451 0.0020834 2.8365
4.36988 0.00479733 2.88451
4.37205 0.00513633 2.90749
4.36718 0.00639151 2.92451
4.3269 0.0137966 3.15273
4.33511 0.0152052 3.18065
4.31536 0.0216772 3.34673
4.30298 0.0249003 3.42879
4.30032 0.0265685 3.47379
4.29941 0.0277319 3.48478
4.28119 0.031285 3.58888
4.27937 0.0326268 3.61188
4.27417 0.0371999 3.71786
4.26146 0.0387865 3.75694
4.25269 0.0392372 3.787
4.25489 0.0406353 3.81397
4.25711 0.042063 3.84294
4.25025 0.0433492 3.86197
4.24541 0.0436637 3.88301
4.24471 0.0452416 3.92199
4.23181 0.0454435 3.93509
4.22637 0.0485578 4.01009
4.22074 0.0512725 4.0581
4.21802 0.0528371 4.09611
4.21945 0.0556799 4.15306
4.21382 0.0574094 4.20208
4.21213 0.0590177 4.24308
4.2055 0.0617479 4.2921
4.19083 0.0633952 4.33519
4.19407 0.0648666 4.36715
4.19115 0.0650316 4.37817
4.18455 0.0678062 4.43018
4.16505 0.0698124 4.49731
4.15857 0.0738386 4.56631
4.14895 0.0755859 4.61636
4.15424 0.0771446 4.6543
4.14161 0.0798792 4.70336
4.145 0.0826465 4.75531
4.12909 0.0828358 4.76742
4.11129 0.0902027 4.92647
4.11559 0.0917769 4.96542
4.11079 0.0931801 4.99244
4.09616 0.0949163 5.04153
4.10249 0.0975482 5.08445
4.09987 0.10029 5.13444
4.09105 0.100652 5.1585
4.0689 0.106341 5.2716
4.0741 0.107722 5.29754
4.0686 0.110703 5.36355
4.03976 0.124958 5.6496
4.01688 0.132166 5.79768
4.01719 0.133788 5.83966
4.01043 0.135251 5.87069
4.00064 0.136673 5.89875
4.0008 0.137984 5.91973
3.97008 0.145508 6.08888
3.97548 0.149289 6.14179
3.97058 0.1495 6.15582
3.96992 0.152166 6.20079
3.95306 0.152445 6.21892
3.94972 0.15675 6.30689
3.94602 0.15933 6.34589
3.93828 0.160854 6.38093
3.93515 0.166559 6.49588
3.92843 0.168112 6.53292
3.92476 0.170751 6.57591
3.91501 0.172246 6.60897
3.90526 0.173742 6.64202
3.91255 0.176314 6.68094
3.90483 0.177867 6.71798
3.89712 0.179436 6.75602
3.89144 0.182061 6.79803
3.89285 0.184875 6.85298
3.88311 0.186385 6.88704
3.87562 0.190397 6.95504
3.8659 0.191952 6.9921
3.86226 0.19465 7.03909
3.85761 0.19635 7.08611
3.84587 0.198861 7.12016
3.84631 0.20172 7.17813
3.83761 0.203318 7.21817
3.83728 0.208621 7.30611
3.82961 0.210278 7.35015
3.81789 0.212835 7.38721
3.81429 0.215622 7.4402
3.80561 0.21725 7.48225
3.80124 0.221497 7.56623
3.79563 0.22427 7.61824
3.79002 0.22703 7.66924
3.78645 0.230876 7.72622
3.77678 0.232534 7.77028
3.76611 0.235179 7.81332
3.76383 0.239587 7.90829
3.75622 0.242362 7.96031
3.74963 0.245166 8.01433
3.73593 0.247768 8.0544
3.73037 0.250631 8.11241
3.72277 0.253421 8.16543
3.63584 0.297357 8.96754
3.59911 0.31384 9.26862
3.57806 0.319706 9.39371
3.52804 0.341589 9.78882
3.51962 0.345721 9.86483
3.50957 0.352593 9.99082
3.49709 0.356624 10.0599
3.48463 0.360684 10.1309
3.47217 0.364759 10.2029
3.46177 0.368936 10.282
3.44934 0.373055 10.357
3.45387 0.377088 10.4269
3.44043 0.381193 10.501
3.43007 0.385459 10.586
3.41561 0.389521 10.6571
3.40323 0.394744 10.7391
3.39291 0.399083 10.8291
3.38206 0.408341 10.9811
3.3687 0.412609 11.0661
3.35534 0.417877 11.1512
3.342 0.422175 11.2382
3.32869 0.427532 11.3293
3.31695 0.436998 11.4952
3.30263 0.442355 11.5863
3.28629 0.446655 11.6733
3.23297 0.473903 12.1604
3.21671 0.479351 12.2575
4.74699 -0.0444035 -0.287045
4.7571 -0.0431889 -0.272137
4.75722 -0.0429668 -0.257139
4.74933 -0.0437388 -0.242066
4.74444 -0.0435132 -0.227031
4.74661 -0.043189 -0.205049
4.73372 -0.0429575 -0.189953
4.73583 -0.0427369 -0.17497
4.72705 -0.0433009 -0.145892
4.73422 -0.0419657 -0.122962
4.72944 -0.0415328 -0.0939287
4.73056 -0.0413115 -0.0789383
4.72367 -0.0420842 -0.0638729
4.71777 -0.0418726 -0.0498297
4.71889 -0.0416513 -0.0348393
4.72595 -0.0405381 -0.0269078
4.71505 -0.0413227 -0.0128122
4.71128 -0.0408758 0.0172138
4.71039 -0.040653 0.0322192
4.71551 -0.0404346 0.0471795
4.71662 -0.0402133 0.0621699
4.71367 -0.0401075 0.0691915
4.70878 -0.0398818 0.0842271
4.69989 -0.039668 0.0982929
4.707 -0.0394511 0.113238
4.69911 -0.039238 0.127296
4.70022 -0.0390167 0.142287
4.69033 -0.0398021 0.156375
4.70439 -0.0386792 0.165254
4.6905 -0.0384617 0.179357
4.69161 -0.0382404 0.194347
4.69573 -0.0380213 0.209315
4.68995 -0.0375877 0.238356
4.69212 -0.0372487 0.261338
4.69023 -0.0370252 0.276351
4.68834 -0.0368165 0.290364
4.68468 -0.0361475 0.335388
4.67973 -0.0360402 0.342425
4.68184 -0.0358196 0.357408
4.66794 -0.035617 0.370511
4.67806 -0.0353874 0.386434
4.66416 -0.0351848 0.399537
4.67128 -0.0349531 0.415482
4.6734 -0.0347177 0.431465
4.66445 -0.0346223 0.437532
4.65755 -0.03441 0.451583
4.66078 -0.0339681 0.481556
4.65689 -0.0337431 0.496584
4.66 -0.0335233 0.511559
4.65411 -0.0333117 0.525603
4.65417 -0.0331933 0.533602
4.64049 -0.0325466 0.576701
4.63399 -0.0315645 0.642745
4.64713 -0.0303076 0.660629
4.64023 -0.0300953 0.67468
4.63545 -0.0296624 0.703714
4.63456 -0.0294396 0.718719
4.62661 -0.029345 0.724779
4.61971 -0.0301325 0.738844
4.62083 -0.0289113 0.75382
4.61605 -0.0284636 0.783853
4.61528 -0.0280188 0.813857
4.62336 -0.0268767 0.82378
4.60466 -0.0272559 0.864932
4.61681 -0.0259835 0.883825
4.60107 -0.0254538 0.91894
4.59729 -0.0250216 0.947966
4.59942 -0.0247714 0.964949
4.59104 -0.0225363 1.04799
4.58515 -0.0223247 1.06203
4.57466 -0.021325 1.12911
4.567 -0.0196531 1.17415
4.56612 -0.0194156 1.19015
4.56417 -0.0193105 1.19717
4.55493 -0.0168083 1.29821
4.54827 -0.0161371 1.34326
4.54218 -0.0123559 1.46327
4.53428 -0.0121428 1.47732
4.38912 0.0263007 2.64901
4.37729 0.0326041 2.80403
4.37861 0.034225 2.846
4.36283 0.0346807 2.87612
4.33312 0.0471735 3.1782
4.33924 0.0484058 3.19413
4.3213 0.0485374 3.20227
4.31476 0.0504601 3.2643
4.324 0.0529122 3.2952
4.30514 0.0532073 3.31434
4.31236 0.0546314 3.34326
4.30869 0.0562855 3.38727
4.30383 0.0565556 3.40531
4.29797 0.0578411 3.42434
4.28919 0.0582621 3.4524
4.30062 0.0621123 3.51026
4.28671 0.0623001 3.52237
4.27902 0.0639127 3.56341
4.28425 0.0653531 3.59335
4.28635 0.065544 3.60634
4.27163 0.0671025 3.64343
4.28089 0.0695991 3.67733
4.27704 0.0699128 3.69835
4.26543 0.0726763 3.74941
4.26664 0.0740899 3.77738
4.24971 0.0732356 3.78652
4.25494 0.0756906 3.81745
4.25231 0.077418 3.86645
4.23971 0.0802118 3.91951
4.22702 0.0818281 3.96059
4.23429 0.0833409 3.99552
4.23348 0.0847264 4.02151
4.23359 0.0849337 4.0355
4.22069 0.0851355 4.0486
4.21888 0.0865218 4.0746
4.21204 0.0878228 4.09463
4.21829 0.0893216 4.12857
4.21044 0.0906234 4.14861
4.20069 0.0921042 4.18067
4.20594 0.0936038 4.21461
4.20616 0.0950329 4.24359
4.20335 0.0964051 4.26859
4.19046 0.0966218 4.28269
4.18665 0.0979946 4.3077
4.18284 0.0993675 4.33271
4.18194 0.0995754 4.34672
4.17254 0.103752 4.42574
4.16873 0.104125 4.45077
4.16717 0.107999 4.50973
4.1569 0.112428 4.60575
4.14059 0.116787 4.69683
4.12365 0.123887 4.83787
4.12088 0.125333 4.86787
4.11495 0.125485 4.87791
4.11117 0.126917 4.90693
4.06691 0.145309 5.26904
4.06069 0.150838 5.37202
4.04929 0.155016 5.45105
4.03976 0.158955 5.51407
4.0209 0.166204 5.66513
4.00193 0.173232 5.80119
4.00073 0.179787 5.90611
3.98689 0.180108 5.92722
3.98722 0.182759 5.97118
3.98351 0.185324 6.00918
3.97372 0.186746 6.03723
3.97101 0.188325 6.07623
3.97862 0.193504 6.15611
3.96581 0.194883 6.18119
3.96717 0.197593 6.22915
3.95335 0.197958 6.25325
3.9456 0.200452 6.28627
3.93888 0.202005 6.32331
3.93924 0.204715 6.37127
3.93336 0.205942 6.3863
3.94082 0.208839 6.44721
3.92396 0.210133 6.46632
3.91826 0.211729 6.50634
3.91358 0.214354 6.54835
3.90826 0.21969 6.63832
3.90541 0.220988 6.65833
3.89669 0.222543 6.69537
3.89303 0.225211 6.74037
3.8833 0.226737 6.77542
3.8827 0.230522 6.82838
3.87702 0.232148 6.8704
3.87722 0.234547 6.89737
3.86852 0.236131 6.93642
3.86183 0.238757 6.97843
3.86226 0.241586 7.0344
3.85964 0.244343 7.08538
3.84384 0.245739 7.11149
3.84124 0.249526 7.16446
3.84452 0.251071 7.20141
3.83278 0.253598 7.23647
3.82714 0.256298 7.28348
3.82456 0.259114 7.33846
3.81487 0.261728 7.3795
3.80517 0.263327 7.41956
3.80081 0.268588 7.50453
3.65042 0.342498 8.77474
3.64289 0.346436 8.83775
3.63743 0.350491 8.90874
3.62687 0.354357 8.96677
3.62822 0.357037 9.01272
3.60611 0.3638 9.13081
3.59355 0.367668 9.18885
3.59323 0.373 9.27879
3.58067 0.375868 9.33685
3.56914 0.379794 9.39889
3.57361 0.383709 9.4608
3.56003 0.386548 9.51687
3.5516 0.391664 9.59187
3.54521 0.395868 9.67287
3.52452 0.39849 9.71399
3.51712 0.403665 9.79298
3.50974 0.408884 9.87497
3.50811 0.41161 9.92395
3.49869 0.415742 9.99997
3.4893 0.420948 10.081
3.45138 0.437047 10.3561
3.44408 0.443414 10.448
3.43065 0.447549 10.5241
3.42031 0.452844 10.6111
3.38367 0.472489 10.9231
3.37236 0.477844 11.0141
3.35696 0.482025 11.0932
4.72103 -0.0104193 -0.0193156
4.71286 -0.00876971 0.0917368
4.68242 -0.00669698 0.297964
4.68381 -0.0049281 0.349935
4.67915 -0.00425834 0.394966
4.67153 -0.00349759 0.446019
4.64824 -0.00308857 0.540201
4.64447 -0.00264158 0.570227
4.64263 -0.00231447 0.592239
4.64197 -0.000647746 0.637226
4.64108 -0.000424981 0.652231
4.6353 8.65974e-06 0.681273
4.63736 0.000125624 0.689256
4.64248 0.00135872 0.705202
4.6376 0.00158439 0.720237
4.62881 0.00100552 0.748316
4.62792 0.00222818 0.763307
4.62804 0.00246502 0.779304
4.61908 0.00154569 0.784386
4.63122 0.00280329 0.802279
4.61041 0.00220356 0.828448
4.61253 0.00343883 0.844416
4.61683 0.00502791 0.884365
4.61194 0.00523879 0.898401
4.60604 0.0044357 0.911459
4.59437 0.00509574 0.955544
4.59448 0.00631767 0.970527
4.58988 0.00710584 1.02356
4.59112 0.00857869 1.05553
4.58316 0.00765863 1.0606
4.57927 0.00788358 1.07563
4.58051 0.00934162 1.10661
4.57085 0.010015 1.15167
4.55488 0.0140551 1.28875
4.55112 0.0145169 1.31978
4.54076 0.016783 1.40484
4.53799 0.018244 1.43584
4.53316 0.0185881 1.45887
4.53542 0.0200898 1.49284
4.53868 0.0215908 1.5268
4.53491 0.0220526 1.55782
4.51429 0.022808 1.60797
4.51442 0.0230596 1.62497
4.50307 0.0263559 1.71202
4.48987 0.0299202 1.81708
4.36428 0.0725049 2.93155
4.33767 0.0802484 3.11566
4.33574 0.080383 3.12468
4.29103 0.0939162 3.42886
4.28068 0.0981969 3.51488
4.29084 0.0995004 3.53579
4.28599 0.1008 3.55581
4.28215 0.101099 3.57584
4.27427 0.102356 3.59288
4.27044 0.102685 3.61491
4.2687 0.104204 3.6499
4.26989 0.105574 3.67488
4.26103 0.106846 3.69293
4.26021 0.108202 3.71692
4.25637 0.108516 3.73794
4.25153 0.10983 3.75896
4.25273 0.111229 3.78594
4.24678 0.111322 3.79198
4.24697 0.112707 3.81796
4.23547 0.115693 3.88401
4.22893 0.118586 3.94403
3.86453 0.288084 6.93268
3.85906 0.293138 7.00365
3.85035 0.294707 7.0417
3.84672 0.298435 7.09068
3.84107 0.30112 7.13669
3.82876 0.306476 7.22772
3.82638 0.311692 7.30967
3.81466 0.314248 7.34672
3.65468 0.406932 8.80376
3.64208 0.410711 8.8558
3.63762 0.41478 8.92779
3.62095 0.417429 8.97088
3.61753 0.422571 9.04784
3.60901 0.42651 9.11085
3.60425 0.428987 9.14286
3.59984 0.434145 9.22083
3.58726 0.437983 9.27687
3.58491 0.443258 9.36282
3.56725 0.445937 9.40792
3.56492 0.452241 9.49586
3.56325 0.454879 9.53884
3.55583 0.460024 9.61583
3.54227 0.463892 9.67388
3.53692 0.469169 9.75986
3.51726 0.47185 9.80497
3.51394 0.478184 9.89491
3.50288 0.487028 10.0189
3.48735 0.490957 10.081
3.48001 0.49625 10.1679
3.46346 0.50015 10.228
3.45714 0.506487 10.318
3.4323 0.51677 10.471
3.43276 0.520657 10.531
3.42443 0.526981 10.62
3.40898 0.531073 10.693
3.39967 0.537427 10.784
3.36413 0.559263 11.109
3.34671 0.564401 11.1851
3.33644 0.570844 11.2821
3.27974 0.600339 11.7181
3.26956 0.607945 11.8261
3.19606 0.647806 12.4211
4.73832 0.0141437 -0.115823
4.73471 0.0149163 -0.0637998
4.73093 0.0153485 -0.0347737
4.72155 0.0165696 0.0472902
4.71377 0.0160048 0.0763612
4.71198 0.0164355 0.105372
4.70938 0.0172074 0.157388
4.70082 0.0180873 0.216447
4.68921 0.018851 0.26753
4.66304 0.0224832 0.511707
4.58324 0.0337742 1.06822
4.58867 0.0366141 1.12514
4.58408 0.0374171 1.17917
4.57152 0.0392998 1.23825
4.56575 0.0397482 1.26829
4.55979 0.0398414 1.27433
4.56393 0.0401049 1.2923
4.55414 0.0405267 1.32037
4.55025 0.0407516 1.3354
4.5584 0.0420269 1.35432
4.54649 0.0422133 1.36641
4.55168 0.0435944 1.39236
4.54077 0.0427802 1.40445
4.53889 0.0440183 1.42045
4.53501 0.0442433 1.43548
4.53413 0.0444809 1.45148
4.53632 0.0458494 1.47645
4.52754 0.0463 1.50651
4.52378 0.0467618 1.53754
4.51901 0.0482242 1.56856
4.51532 0.0498339 1.60957
4.50955 0.0502823 1.63961
4.51 0.0521704 1.69959
4.39898 0.0879462 2.62502
4.3345 0.114846 3.22319
4.33266 0.116159 3.24419
4.31853 0.121871 3.35922
4.31468 0.12317 3.37924
4.30882 0.123441 3.39728
4.30799 0.124782 3.42027
4.29288 0.13054 3.53831
4.28191 0.130592 3.5414
4.28145 0.134659 3.61335
4.28366 0.136057 3.64032
4.27598 0.137699 3.68336
4.27023 0.140191 3.71637
4.25531 0.139351 3.72649
4.25953 0.141791 3.75643
4.12938 0.198252 4.79472
4.12067 0.200821 4.83275
4.11916 0.204785 4.89771
4.10884 0.210124 4.98772
4.09084 0.218091 5.11976
4.08028 0.220958 5.1778
4.08069 0.224757 5.23175
4.06913 0.227624 5.2898
4.06768 0.232705 5.36275
4.05353 0.239388 5.47577
4.04776 0.241837 5.50578
4.04431 0.24592 5.57876
4.03349 0.247283 5.60283
4.03396 0.251186 5.66377
4.01708 0.251435 5.6799
4.01637 0.254013 5.71887
4.01264 0.256548 5.75487
4.00721 0.261662 5.82984
4.00737 0.262973 5.85082
4.00364 0.265509 5.88682
3.99689 0.267002 5.91985
3.99924 0.270681 5.96579
3.98542 0.271032 5.98889
3.98474 0.274669 6.03185
3.98204 0.277248 6.07083
3.98323 0.278617 6.09581
3.97851 0.281168 6.13281
3.97278 0.282706 6.16884
3.96604 0.285229 6.20386
3.96437 0.287866 6.24683
3.95257 0.289275 6.27391
3.94887 0.291869 6.3139
3.94806 0.293225 6.33789
3.94271 0.299502 6.42385
3.93295 0.300983 6.45591
3.93333 0.304723 6.50585
3.91647 0.305016 6.52498
3.92276 0.308574 6.56288
3.91909 0.311213 6.60588
3.90731 0.312666 6.63595
3.90061 0.315263 6.67597
3.89795 0.317931 6.72095
3.89227 0.321557 6.76295
3.88254 0.323082 6.79801
3.89289 0.32677 6.84488
3.88011 0.328209 6.87396
3.87648 0.331922 6.92194
3.87589 0.335722 6.97589
3.8682 0.338334 7.01692
3.85847 0.339874 7.05297
3.85079 0.343516 7.09598
3.84942 0.348746 7.17893
3.83972 0.35133 7.21797
3.83205 0.353987 7.26199
3.8254 0.356673 7.30801
3.82891 0.361662 7.37492
3.81109 0.363045 7.40004
3.63717 0.463827 8.86306
3.63307 0.471592 8.98199
3.60992 0.479266 9.09406
3.60859 0.48557 9.18199
3.58887 0.488147 9.22011
3.5628 0.505925 9.47408
3.56049 0.513289 9.566
3.5449 0.5161 9.62008
3.53852 0.522303 9.70105
3.51288 0.534986 9.88108
3.50655 0.541308 9.97005
3.49101 0.545208 10.0301
3.48365 0.551471 10.1151
3.46813 0.556415 10.1781
3.47369 0.561506 10.252
3.4633 0.567713 10.333
3.45191 0.572905 10.4131
3.43335 0.576777 10.4711
3.42504 0.583145 10.5631
3.40176 0.599522 10.7901
3.39251 0.606994 10.8891
3.37504 0.612043 10.9591
3.36884 0.619616 11.0651
3.32634 0.643532 11.3951
3.29877 0.657335 11.5831
2.92468 0.889336 14.7399
4.7431 0.045708 -0.280349
4.67628 0.0509606 0.274154
4.66139 0.0531482 0.421254
4.64144 0.0562357 0.561378
4.6445 0.0563519 0.569354
4.64361 0.0565599 0.583359
4.63783 0.0570083 0.6134
4.63695 0.0572311 0.628406
4.63022 0.0577691 0.664454
4.63434 0.0590029 0.680406
4.62745 0.0592152 0.694457
4.63057 0.0594499 0.710432
4.62278 0.0598702 0.738489
4.6269 0.0601041 0.754456
4.61818 0.0606584 0.791519
4.61729 0.061881 0.80651
4.61139 0.0610927 0.820568
4.61251 0.0623139 0.835543
4.60479 0.0628674 0.872598
4.60189 0.0630769 0.886619
4.59812 0.0635239 0.916645
4.59641 0.0650877 0.95464
4.59175 0.0657723 1.00067
4.57371 0.0686659 1.12778
4.57 0.0702312 1.16579
4.37784 0.129586 2.73458
4.3599 0.135672 2.87464
4.36207 0.138011 2.89759
4.32028 0.151364 3.18975
4.31751 0.153825 3.22074
4.31041 0.159592 3.33972
4.28833 0.166399 3.46081
4.29464 0.169001 3.50173
4.2725 0.174705 3.61582
4.26765 0.176005 3.63584
4.25359 0.182851 3.75987
4.19609 0.209746 4.22297
4.11239 0.253184 4.92405
4.10483 0.256048 4.98207
4.08986 0.265072 5.11807
4.08912 0.267576 5.15204
4.07377 0.27286 5.23809
4.06611 0.275532 5.28312
4.04574 0.290729 5.49808
4.02843 0.296104 5.59014
4.01893 0.300073 5.65516
4.01332 0.303847 5.70715
3.98132 0.321778 5.97117
3.64426 0.52295 8.73611
3.62819 0.531782 8.85912
3.61898 0.539328 8.96309
3.60843 0.544224 9.0231
3.60092 0.549191 9.0881
3.56939 0.574025 9.41301
3.54939 0.583993 9.54503
3.52842 0.595036 9.68204
3.5079 0.609937 9.87701
3.49644 0.614996 9.94803
4.03501 0.337176 5.66249
3.88726 0.427371 6.88444
3.46438 0.700697 10.3311
3.45297 0.706845 10.4081
3.43066 0.725177 10.632
3.4049 0.738608 10.795
3.39254 0.745875 10.88
3.3802 0.753172 10.967
3.37867 0.758076 11.0279
3.36942 0.766562 11.1279
3.34279 0.781246 11.3079
3.32946 0.788573 11.3969
3.31208 0.794784 11.478
3.30245 0.81047 11.6588
3.2882 0.818946 11.7578
3.26983 0.825188 11.8409
3.25558 0.833663 11.9399
3.24137 0.842228 12.0449
3.22575 0.857918 12.2258
3.21259 0.86757 12.3368
3.19331 0.874991 12.4318
3.12836 0.919941 12.9657
4.75724 0.101899 -0.267285
4.7593 0.102001 -0.260301
4.75141 0.101229 -0.245228
4.74252 0.101458 -0.230163
4.75064 0.101674 -0.215225
4.74203 0.10245 -0.163164
4.74514 0.10267 -0.148189
4.74325 0.102893 -0.133176
4.73036 0.10211 -0.119065
4.73159 0.102554 -0.089077
4.7367 0.102772 -0.0741167
4.72386 0.102107 -0.0520071
4.73098 0.103324 -0.0370767
4.72809 0.103548 -0.0220561
4.71781 0.104977 0.0740134
4.71203 0.104411 0.103069
4.7112 0.104752 0.126074
4.70087 0.106063 0.214144
4.69326 0.106838 0.266197
4.64066 0.115555 0.717527
4.61689 0.118986 0.880678
4.61134 0.120878 0.9407
4.60757 0.121325 0.970726
4.60173 0.121655 0.992768
4.59985 0.121879 1.00778
4.59908 0.123338 1.03877
4.59319 0.12355 1.05281
4.59035 0.123878 1.07483
4.59448 0.125126 1.09178
4.58759 0.125339 1.10584
4.58281 0.125786 1.13587
4.58105 0.126247 1.16688
4.5712 0.12655 1.18695
4.57333 0.1278 1.20392
4.57846 0.129063 1.22187
4.55965 0.128447 1.24702
4.56779 0.129722 1.26594
4.56184 0.129815 1.27199
4.56597 0.130064 1.28895
4.56108 0.13029 1.30399
4.55731 0.131737 1.334
4.54546 0.132041 1.35409
4.5516 0.133318 1.37303
4.54972 0.133542 1.38804
4.54282 0.133754 1.40209
4.53605 0.134203 1.43214
4.53724 0.135572 1.45711
4.53159 0.137272 1.50414
4.53873 0.138548 1.52307
4.53184 0.138761 1.53712
4.53096 0.138998 1.55312
4.52413 0.139329 1.57517
4.52225 0.140567 1.59117
4.52751 0.142081 1.62611
4.50959 0.141243 1.63626
4.52275 0.143559 1.65813
4.51178 0.142611 1.66123
4.51291 0.143877 1.6792
4.50501 0.144075 1.69226
4.51918 0.145405 1.71514
4.50125 0.144552 1.72429
4.50038 0.145804 1.74128
4.50151 0.147055 1.75825
4.5096 0.147227 1.77019
4.49568 0.1474 1.78129
4.4908 0.147625 1.79633
4.49895 0.14893 1.81725
4.49608 0.150169 1.83326
4.39395 0.184762 2.61162
4.39017 0.186179 2.63963
4.39936 0.188557 2.66553
4.38544 0.187715 2.67565
4.38172 0.190266 2.71265
4.39394 0.192686 2.74152
4.376 0.191818 2.74967
4.37422 0.193263 2.77967
4.38141 0.195628 2.80458
4.37151 0.195827 2.81766
4.3767 0.197194 2.8426
4.37284 0.198463 2.86061
4.36101 0.198812 2.8837
4.36535 0.202475 2.92862
4.36652 0.2038 2.95059
4.34377 0.212259 3.11566
4.34017 0.216046 3.16864
4.33127 0.21626 3.18271
4.32441 0.216532 3.20076
4.3276 0.218899 3.2257
4.31972 0.219142 3.24176
4.32785 0.221402 3.25967
4.32198 0.221658 3.27671
4.31613 0.222944 3.29574
4.31932 0.224312 3.3207
4.31345 0.225582 3.33872
4.30759 0.225853 3.35677
4.30675 0.227179 3.37876
4.30685 0.228357 3.39074
4.29997 0.229613 3.40778
4.30217 0.230997 3.43374
4.30234 0.232337 3.45672
4.29649 0.233623 3.47575
4.28761 0.233866 3.49182
4.28478 0.235194 3.51382
4.28788 0.236399 3.52778
4.28606 0.237741 3.55078
4.2802 0.239026 3.56981
4.28139 0.240395 3.59478
4.27453 0.241681 3.61382
4.26565 0.241925 3.62988
4.26593 0.244472 3.66685
4.26109 0.245787 3.68787
4.26027 0.248142 3.71184
4.25946 0.249498 3.73583
4.25361 0.250799 3.75586
4.24876 0.251098 3.77589
4.24896 0.253483 3.80186
4.24805 0.253661 3.81387
4.23937 0.256304 3.8569
4.23957 0.258689 3.88287
4.24481 0.261159 3.91479
4.23292 0.261375 3.92888
4.22819 0.263911 3.96489
4.22234 0.265211 3.98491
4.21118 0.271863 4.09591
4.20551 0.284457 4.2708
4.18657 0.284604 4.27994
4.17413 0.299662 4.48584
4.15085 0.305085 4.58094
4.15222 0.308795 4.62889
4.14059 0.311529 4.67794
4.13199 0.31532 4.73096
4.13134 0.319016 4.77791
4.12175 0.322822 4.83194
4.1056 0.330492 4.94396
4.00875 0.391581 5.7559
3.93989 0.433727 6.30287
3.93352 0.43996 6.38583
3.91558 0.451031 6.52483
3.91127 0.458396 6.61676
3.88669 0.474181 6.80374
3.86399 0.487743 6.97573
3.85652 0.49277 7.04472
3.84578 0.496296 7.07976
3.84622 0.501154 7.13769
3.82827 0.51221 7.27568
3.82488 0.519411 7.35661
3.64967 0.638599 8.77936
3.64113 0.643508 8.84036
3.61898 0.653182 8.9524
3.60025 0.667668 9.11935
3.59685 0.674839 9.19828
3.58529 0.679721 9.25731
3.57275 0.684618 9.31734
3.56426 0.690616 9.38432
3.55579 0.696673 9.4553
3.54772 0.707484 9.57722
3.53723 0.713483 9.64422
3.52573 0.719483 9.71123
3.48699 0.744922 10.0092
3.48434 0.74959 10.0541
3.47495 0.756796 10.1351
3.46455 0.762972 10.2141
3.41836 0.796497 10.585
3.40904 0.803836 10.675
3.36009 0.839821 11.0769
3.35496 0.850512 11.1908
3.28288 0.896216 11.7077
3.2564 0.91421 11.9087
4.74636 0.128096 -0.254589
4.75358 0.129535 -0.224661
4.74786 0.129087 -0.187606
4.74898 0.130309 -0.17263
4.73031 0.128974 -0.128464
4.73281 0.130964 -0.061503
4.72354 0.131393 0.0345738
4.71298 0.132274 0.0936484
4.7007 0.132705 0.189748
4.69898 0.134254 0.226743
4.68393 0.136116 0.351846
4.65981 0.136866 0.469033
4.66704 0.13832 0.499961
4.65514 0.137521 0.513064
4.65937 0.138977 0.544015
4.65153 0.139293 0.565073
4.65176 0.139752 0.596068
4.64727 0.141747 0.663082
4.63059 0.141382 0.705219
4.63671 0.142629 0.722156
4.62181 0.141818 0.734282
4.63394 0.143075 0.752175
4.63499 0.144178 0.759152
4.61731 0.143813 0.801296
4.62356 0.145297 0.834231
4.61065 0.144484 0.846343
4.61672 0.145613 0.855281
4.61282 0.145823 0.869309
4.60493 0.146036 0.883368
4.60304 0.146259 0.898381
4.60316 0.146481 0.913379
4.61129 0.147742 0.931301
4.60946 0.148084 0.954313
4.60357 0.148296 0.968356
4.59567 0.148494 0.981415
4.5998 0.149742 0.998367
4.5969 0.149952 1.01239
4.59313 0.150399 1.04241
4.5883 0.150743 1.06545
4.58954 0.152201 1.09642
4.58866 0.153438 1.11241
4.56903 0.153178 1.16157
4.56714 0.153402 1.17658
4.56425 0.154626 1.19159
4.56537 0.154862 1.20758
4.5675 0.156112 1.22455
4.57069 0.15748 1.24951
4.56593 0.157942 1.28054
4.55213 0.158352 1.30764
4.5503 0.158694 1.33065
4.54064 0.160368 1.37571
4.54277 0.160618 1.39269
4.54201 0.162092 1.42468
4.53731 0.163673 1.4637
4.53041 0.163885 1.47775
4.53355 0.165149 1.49571
4.52276 0.165572 1.52379
4.52684 0.166717 1.53374
4.51631 0.168657 1.5968
4.52145 0.16992 1.61474
4.51261 0.170252 1.63681
4.51073 0.170476 1.65182
4.50785 0.170715 1.66784
4.51601 0.173019 1.68875
4.50141 0.174815 1.74184
4.49175 0.175503 1.78791
4.48887 0.176742 1.80391
4.33228 0.248241 3.18123
4.32156 0.249782 3.21729
4.31762 0.250903 3.2253
4.31193 0.252514 3.26633
4.31814 0.254924 3.29425
4.30943 0.257508 3.33328
4.30256 0.257764 3.35033
4.30183 0.260283 3.38531
4.29899 0.261596 3.40631
4.30218 0.263978 3.43225
4.29129 0.264194 3.44634
4.29147 0.265549 3.47032
4.29669 0.267974 3.49925
4.28268 0.26697 3.49837
4.28507 0.270723 3.5493
4.27134 0.273266 3.58537
4.26952 0.274607 3.60837
4.27685 0.278253 3.65226
4.27201 0.279568 3.67328
4.26111 0.279783 3.68737
4.26332 0.282181 3.71432
4.25748 0.283496 3.73534
4.25968 0.284894 3.76231
4.25273 0.284988 3.76836
4.2499 0.286331 3.79137
4.25211 0.288743 3.81932
4.24344 0.291386 3.86235
4.23981 0.295114 3.91133
4.24214 0.298749 3.95426
4.2373 0.300078 3.97628
4.22642 0.300323 3.99236
4.22663 0.302722 4.01933
4.21394 0.304339 4.06041
4.21203 0.305518 4.07241
4.21929 0.30903 4.10731
4.2056 0.310647 4.14839
4.19797 0.314363 4.1964
4.2002 0.31682 4.22735
4.19528 0.316972 4.23739
4.19347 0.319358 4.26337
4.19672 0.32183 4.29531
4.18686 0.323118 4.31437
4.17655 0.329472 4.40537
4.16918 0.335706 4.48834
4.16056 0.339453 4.53836
4.15385 0.342035 4.57737
4.15006 0.343437 4.60439
4.14246 0.348227 4.65738
4.13424 0.355758 4.76034
4.13145 0.358174 4.78833
4.12565 0.359563 4.81436
4.11985 0.361967 4.84137
4.1124 0.367038 4.91336
4.11165 0.369542 4.94734
4.10511 0.374435 5.00732
4.0909 0.381985 5.11133
4.08409 0.38436 5.13635
4.08133 0.386835 5.16834
4.07583 0.391816 5.23432
4.06845 0.398035 5.31629
4.05963 0.400397 5.34033
4.05689 0.402902 5.37431
4.05545 0.408998 5.44824
4.03325 0.416569 5.55331
4.02748 0.419032 5.58433
4.02202 0.425086 5.65529
4.00018 0.437367 5.80829
3.99544 0.439888 5.84329
3.99272 0.443438 5.88027
3.9804 0.449764 5.96928
3.97568 0.453315 6.00627
3.95125 0.470412 6.21423
3.91451 0.494834 6.51118
3.89192 0.511618 6.69813
3.88624 0.514244 6.74014
3.88057 0.518884 6.78312
3.87792 0.522582 6.83009
3.87024 0.526194 6.8711
3.86456 0.529835 6.9141
3.86215 0.536991 6.99202
3.85345 0.539575 7.03105
3.84012 0.546887 7.11906
3.83547 0.551586 7.16603
3.8224 0.562416 7.28898
3.81879 0.566173 7.33996
3.81114 0.57086 7.38596
3.64574 0.69567 8.78355
3.63924 0.701652 8.84952
3.61711 0.711355 8.96356
3.58992 0.733912 9.20246
3.58653 0.741098 9.28239
3.57092 0.745879 9.33444
3.56449 0.751994 9.40941
3.54454 0.765051 9.54739
3.54287 0.769703 9.59134
3.53649 0.776921 9.67329
3.52603 0.78398 9.74428
3.5166 0.790097 9.81927
3.49468 0.803229 9.96226
3.49306 0.807955 10.0112
3.48366 0.816146 10.0912
3.47326 0.823323 10.1701
3.46184 0.830456 10.2461
3.42912 0.857934 10.547
3.41674 0.866142 10.628
3.40334 0.873321 10.707
3.38069 0.889972 10.885
3.36064 0.91479 11.1418
3.34321 0.920927 11.2178
3.32989 0.930254 11.3068
4.75098 0.156305 -0.308049
4.75909 0.157521 -0.293126
4.7602 0.157743 -0.278136
4.75043 0.157194 -0.24805
4.75054 0.157416 -0.233052
4.73871 0.156751 -0.21095
4.74582 0.157967 -0.196019
4.74793 0.158188 -0.181036
4.73904 0.157402 -0.166956
4.74144 0.159185 -0.113993
4.73577 0.158841 -0.0699391
4.727 0.159291 -0.0398755
4.72805 0.159394 -0.032884
4.71827 0.158831 -0.00379795
4.716 0.160269 0.0932112
4.71122 0.160702 0.122245
4.70461 0.161476 0.17429
4.69611 0.16246 0.240349
4.69222 0.162685 0.255377
4.68644 0.162119 0.284433
4.68455 0.162342 0.299446
4.68678 0.163785 0.329412
4.68383 0.163891 0.336434
4.67816 0.164546 0.380473
4.66537 0.16397 0.408581
4.66349 0.164194 0.423594
4.67055 0.165322 0.432526
4.66566 0.165533 0.446561
4.66978 0.165767 0.462529
4.65098 0.16518 0.489683
4.65527 0.16674 0.527633
4.64837 0.165952 0.541698
4.65661 0.168405 0.572604
4.64971 0.167617 0.58667
4.64293 0.168052 0.615719
4.64299 0.16817 0.623717
4.6401 0.16838 0.637738
4.64122 0.169616 0.653714
4.63833 0.169825 0.667734
4.64345 0.170058 0.683694
4.62654 0.169248 0.695836
4.62765 0.17047 0.710811
4.62972 0.170601 0.719795
4.62081 0.1698 0.732876
4.62294 0.171036 0.748843
4.63006 0.172267 0.764774
4.61815 0.171469 0.777877
4.61326 0.171679 0.791913
4.61043 0.172007 0.813932
4.61856 0.173268 0.831855
4.60665 0.172454 0.843958
4.60577 0.173677 0.858949
4.60789 0.173912 0.874932
4.606 0.174136 0.889945
4.5981 0.174334 0.903003
4.60217 0.175464 0.911957
4.60028 0.175688 0.92697
4.60039 0.17591 0.941968
4.59651 0.176135 0.956996
4.59774 0.177593 0.987969
4.59379 0.177699 0.994998
4.59591 0.177935 1.01098
4.58913 0.179369 1.04001
4.58925 0.179606 1.05601
4.57646 0.18003 1.08411
4.58253 0.180159 1.09306
4.57463 0.180357 1.10612
4.57575 0.180593 1.12211
4.56998 0.182041 1.15214
4.5665 0.18408 1.22214
4.56162 0.184306 1.23718
4.55696 0.18599 1.28319
4.55301 0.186082 1.28922
4.55113 0.18732 1.30522
4.55438 0.188806 1.33818
4.54259 0.18923 1.36626
4.54271 0.189467 1.38226
4.54177 0.189586 1.39027
4.53688 0.189797 1.4043
4.54302 0.191073 1.42324
4.53525 0.192523 1.45328
4.53336 0.192747 1.4683
4.53066 0.194341 1.5083
4.52577 0.194552 1.52233
4.5249 0.195804 1.53932
4.51925 0.197504 1.58635
4.51931 0.197622 1.59435
4.51343 0.197849 1.60939
4.50609 0.202157 1.69739
4.5012 0.202382 1.71243
4.50033 0.203635 1.72942
4.49645 0.20386 1.74445
4.49269 0.205336 1.77646
4.49276 0.205469 1.78546
4.33112 0.279883 3.15676
4.33523 0.281087 3.17072
4.33741 0.282441 3.19468
4.33557 0.284753 3.21567
4.32165 0.283926 3.22678
4.31478 0.285183 3.24382
4.32502 0.287649 3.27571
4.32125 0.290096 3.30571
4.30752 0.291624 3.34079
4.30971 0.293992 3.36574
4.30283 0.294249 3.38279
4.30302 0.296604 3.40676
4.3052 0.297972 3.43173
4.29825 0.298066 3.43778
4.30145 0.300449 3.46372
4.29559 0.301734 3.48275
4.29275 0.303047 3.50376
4.29394 0.304416 3.52873
4.28918 0.306894 3.56073
4.27628 0.307095 3.57383
4.27747 0.308465 3.5988
4.27866 0.310834 3.62376
4.27785 0.313204 3.64874
4.26394 0.312392 3.66086
4.26815 0.314804 3.68879
4.26724 0.315982 3.70079
4.26541 0.317324 3.72378
4.26863 0.319736 3.75173
4.25875 0.32098 3.76778
4.25592 0.322322 3.79079
4.24907 0.323609 3.80982
4.25129 0.326036 3.83878
4.24352 0.327501 3.86982
4.24673 0.329913 3.89776
4.23888 0.3312 3.9168
4.22619 0.333816 3.95787
4.23142 0.336271 3.98879
4.22266 0.338736 4.01983
4.22287 0.34015 4.04781
4.21501 0.341437 4.06685
4.20938 0.345167 4.11585
4.20668 0.348746 4.15482
4.20084 0.350061 4.17585
4.19602 0.35142 4.19987
4.1932 0.352777 4.22387
4.18378 0.358909 4.29986
4.18792 0.360187 4.31881
4.08119 0.42552 5.14676
4.08047 0.429053 5.18272
4.07454 0.429191 5.19177
4.07784 0.432781 5.23169
4.07206 0.435214 5.26071
4.07031 0.437704 5.29369
4.06655 0.44018 5.32568
4.06077 0.442613 5.35469
4.05701 0.44509 5.38669
4.0612 0.447457 5.41163
4.05341 0.449862 5.43865
4.04663 0.452296 5.46767
4.04793 0.455887 5.50762
4.03164 0.46329 5.60164
4.02805 0.468077 5.65461
4.01249 0.472947 5.71266
3.92864 0.532072 6.39251
3.89867 0.55606 6.66042
3.87979 0.56925 6.80738
3.87452 0.577689 6.90431
3.85592 0.594426 7.08823
3.84846 0.601482 7.15919
3.82904 0.607636 7.23626
3.8259 0.61831 7.34914
3.63498 0.756071 8.80974
3.63429 0.759678 8.8507
3.62576 0.765587 8.91168
3.62029 0.772642 8.98263
3.60973 0.778493 9.03963
3.60124 0.784491 9.10661
3.59376 0.791518 9.17558
3.59105 0.795082 9.21355
3.58868 0.803312 9.29646
3.57918 0.810296 9.36243
3.56562 0.815164 9.42047
3.55511 0.821133 9.48547
3.54667 0.82822 9.55844
3.53516 0.83519 9.62343
3.53655 0.839959 9.67536
3.52812 0.848075 9.75031
3.51869 0.855192 9.82529
3.50621 0.861207 9.8933
3.49677 0.868309 9.96728
3.48737 0.876485 10.0462
3.48044 0.890577 10.1871
3.46697 0.897622 10.2571
3.45555 0.90477 10.3341
3.44415 0.912933 10.4121
3.42968 0.919979 10.4821
3.41829 0.927186 10.5631
3.41046 0.943471 10.7169
3.39604 0.950606 10.7929
3.84873 0.644996 7.05853
3.8354 0.653308 7.14652
3.81566 0.668779 7.31246
3.53224 0.902259 9.62746
4.59816 0.234387 0.906114
4.58513 0.238291 1.03417
3.99972 0.578255 5.86722
3.9663 0.598343 6.0742
3.95972 0.603177 6.13019
3.95232 0.611351 6.20913
3.90699 0.645593 6.56101
3.58041 0.926638 9.24969
3.57092 0.933636 9.31666
4.74804 0.247312 -0.308374
4.75227 0.248753 -0.278423
4.75244 0.249094 -0.255426
4.73866 0.247533 -0.226295
4.73377 0.247759 -0.21126
4.74389 0.248974 -0.196352
4.73 0.247206 -0.181219
4.74711 0.249415 -0.166379
4.72916 0.247532 -0.159214
4.73028 0.248754 -0.144239
4.7295 0.249198 -0.114235
4.72061 0.248412 -0.100155
4.72672 0.24863 -0.0852021
4.71783 0.247859 -0.0701217
4.72589 0.248971 -0.0621978
4.717 0.248185 -0.0481172
4.73012 0.250412 -0.0322468
4.71723 0.249629 -0.0181361
4.70944 0.249064 0.0109349
4.70656 0.249288 0.0259554
4.70561 0.249393 0.0329619
4.71184 0.250832 0.0628978
4.70929 0.251723 0.122912
4.70745 0.25205 0.144924
4.69189 0.25192 0.203051
4.69906 0.253255 0.225981
4.68039 0.251906 0.269147
4.68851 0.253137 0.28507
4.67461 0.25234 0.298188
4.68673 0.254567 0.314066
4.66988 0.252876 0.334221
4.66599 0.253101 0.349249
4.66421 0.253532 0.37826
4.67145 0.255 0.410188
4.66261 0.255318 0.431253
4.65983 0.255749 0.460272
4.65505 0.256182 0.489305
4.66017 0.257415 0.505251
4.65722 0.257521 0.512272
4.64844 0.256957 0.541351
4.65267 0.258413 0.572302
4.64288 0.258834 0.600373
4.64106 0.259176 0.623385
4.63928 0.260622 0.653381
4.63049 0.260043 0.68146
4.63556 0.261172 0.690406
4.62466 0.260373 0.703502
4.6388 0.262629 0.721364
4.62389 0.261818 0.73349
4.61511 0.262254 0.762554
4.6115 0.263026 0.814577
4.61963 0.265287 0.832485
4.60872 0.264472 0.844581
4.61102 0.266048 0.883545
4.60512 0.26626 0.897589
4.60124 0.266485 0.912617
4.59156 0.267128 0.955686
4.59575 0.268495 0.980638
4.58832 0.271626 1.05666
4.58443 0.271836 1.07069
4.5855 0.271969 1.07968
4.57559 0.272154 1.09175
4.58597 0.274901 1.14264
4.57306 0.274073 1.15375
4.5802 0.276349 1.17266
4.56734 0.27564 1.19177
4.56157 0.276089 1.22182
4.5598 0.277549 1.25281
4.57001 0.279956 1.2807
4.54544 0.280803 1.33688
4.54267 0.282264 1.36789
4.54085 0.282606 1.3909
4.5431 0.285107 1.42485
4.53934 0.286569 1.45586
4.52774 0.288362 1.50893
4.52598 0.289837 1.54092
4.52416 0.291194 1.56492
4.51364 0.293134 1.62798
4.49372 0.300266 1.77104
4.37207 0.366697 2.87513
4.36821 0.367981 2.89414
4.35317 0.376872 3.02114
4.26119 0.437691 3.81504
4.24617 0.448611 3.94401
4.21299 0.469187 4.18399
4.20176 0.477705 4.28596
4.19907 0.481314 4.32694
4.18283 0.489806 4.42695
4.16697 0.504037 4.57688
4.16138 0.508855 4.63186
4.15267 0.512424 4.66987
4.1341 0.53022 4.85778
4.11898 0.540947 4.97375
4.08968 0.561299 5.1987
4.07853 0.572964 5.31063
4.01735 0.622453 5.81342
3.99522 0.633156 5.92745
3.9802 0.646091 6.05739
3.85731 0.75797 7.1238
3.85449 0.761327 7.14778
3.83507 0.768481 7.22483
3.81669 0.776693 7.30586
3.63842 0.94867 8.84887
4.746 0.276192 -0.316787
4.75211 0.277409 -0.301849
4.74616 0.276518 -0.29479
4.74728 0.277739 -0.279815
4.7495 0.278181 -0.249834
4.74362 0.277408 -0.234776
4.74873 0.278626 -0.219831
4.73884 0.277856 -0.204743
4.73689 0.276961 -0.197714
4.73101 0.277187 -0.182671
4.73012 0.27741 -0.167665
4.73823 0.278626 -0.152742
4.73135 0.277853 -0.137677
4.73145 0.278061 -0.123679
4.73657 0.279294 -0.107733
4.72663 0.278405 -0.100644
4.72573 0.278613 -0.0866387
4.73396 0.280066 -0.055718
4.72307 0.279281 -0.0416223
4.72718 0.2795 -0.0266545
4.71829 0.278714 -0.0125739
4.70934 0.277824 -0.00549233
4.71846 0.279054 0.0104229
4.70957 0.278268 0.0245035
4.70868 0.278491 0.039509
4.70979 0.279712 0.0544846
4.7049 0.278923 0.0685351
4.70101 0.279148 0.0835631
4.69706 0.278255 0.0906071
4.70318 0.279472 0.105545
4.70429 0.280694 0.120521
4.7034 0.280916 0.135526
4.70352 0.281138 0.150524
4.69462 0.280352 0.164605
4.69874 0.281571 0.179558
4.69179 0.28068 0.186624
4.69891 0.281912 0.202554
4.68712 0.281335 0.230656
4.69424 0.282567 0.246586
4.68846 0.283 0.275627
4.68551 0.282106 0.282664
4.68963 0.28334 0.298616
4.67773 0.282541 0.31172
4.67784 0.282763 0.326718
4.67396 0.282988 0.341746
4.68208 0.284219 0.357668
4.67418 0.283432 0.371742
4.67924 0.284547 0.379688
4.67836 0.28477 0.394693
4.66645 0.283971 0.407797
4.67457 0.285202 0.42372
4.6698 0.28565 0.453753
4.65806 0.286177 0.488839
4.66118 0.286411 0.504814
4.66041 0.287856 0.534802
4.65151 0.287055 0.547883
4.64768 0.287384 0.56991
4.6528 0.288617 0.585856
4.6459 0.288829 0.599906
4.64301 0.289053 0.614927
4.65014 0.290285 0.630857
4.6463 0.290613 0.652884
4.63741 0.289827 0.666965
4.64353 0.29106 0.682903
4.63163 0.290261 0.696006
4.63575 0.291495 0.711959
4.63096 0.291928 0.740992
4.62602 0.292035 0.748029
4.63214 0.293267 0.763967
4.62725 0.293493 0.779002
4.61835 0.292692 0.792083
4.62047 0.293927 0.808051
4.62058 0.294149 0.823049
4.61168 0.293349 0.83613
4.62076 0.29549 0.846031
4.61787 0.295714 0.861052
4.61598 0.295937 0.876064
4.59918 0.295335 0.902204
4.59729 0.295558 0.917217
4.59941 0.296794 0.933185
4.59547 0.2969 0.940214
4.59558 0.297122 0.955212
4.60272 0.298383 0.973142
4.59493 0.298818 1.0022
4.59606 0.300055 1.01817
4.58314 0.299227 1.02928
4.58119 0.299332 1.0363
4.58231 0.300568 1.05227
4.57554 0.301017 1.08232
4.57276 0.302463 1.11233
4.57195 0.302819 1.13633
4.56517 0.304254 1.16536
4.56929 0.305502 1.18232
4.56251 0.305937 1.21137
4.55963 0.306161 1.22639
4.56194 0.308766 1.26734
4.54192 0.313705 1.39743
4.52585 0.318553 1.5215
4.52698 0.319804 1.53847
4.52209 0.320015 1.55251
4.51288 0.325576 1.65751
4.50611 0.327025 1.68754
4.40195 0.379483 2.59168
4.40403 0.380644 2.60265
4.39815 0.381885 2.61867
4.39227 0.382126 2.63472
4.39142 0.383408 2.65371
4.38369 0.385947 2.68973
4.38987 0.388297 2.71365
4.38291 0.388376 2.71871
4.38508 0.3907 2.74066
4.38724 0.392024 2.76263
4.37146 0.393465 2.79173
4.37162 0.394776 2.81271
4.36281 0.396152 2.83776
4.36799 0.398504 2.86169
4.35624 0.400001 2.89476
4.3554 0.402312 2.91573
4.35053 0.402568 2.93277
4.35463 0.404772 2.94671
4.34178 0.416016 3.09766
4.33893 0.417314 3.11766
4.3411 0.419653 3.14062
4.32719 0.419841 3.15272
4.3334 0.422236 3.17964
4.33357 0.424561 3.20161
4.32762 0.424669 3.20865
4.32477 0.425967 3.22866
4.32594 0.428307 3.25162
4.31505 0.428522 3.2657
4.31623 0.430862 3.28866
4.31356 0.434515 3.33263
4.31667 0.43572 3.34659
4.30477 0.435936 3.36068
4.29689 0.437178 3.37672
4.30512 0.440616 3.40661
4.3053 0.442971 3.43058
4.30246 0.444284 3.45159
4.30264 0.446639 3.47555
4.29971 0.446775 3.48457
4.29385 0.44806 3.5036
4.29303 0.450401 3.52658
4.28836 0.454056 3.57056
4.28654 0.456397 3.59355
4.2847 0.457724 3.61554
4.27895 0.460202 3.64755
4.27127 0.463844 3.69056
4.26844 0.465172 3.71257
4.26561 0.467514 3.73556
4.26177 0.468828 3.75657
4.26389 0.471049 3.77152
4.26307 0.473404 3.7955
4.26024 0.474747 3.8185
4.25138 0.47602 3.83655
4.24473 0.479705 3.88256
4.24089 0.482034 3.90455
4.24704 0.48431 3.92348
4.23616 0.484555 3.93956
4.23132 0.48687 3.96056
4.23253 0.489283 3.98852
4.22568 0.490584 4.00856
4.22287 0.492956 4.03355
4.22207 0.495341 4.05952
4.22519 0.497576 4.07547
4.21936 0.498906 4.09749
4.22158 0.502333 4.12643
4.21171 0.502592 4.1435
4.20285 0.50388 4.16255
4.20106 0.506281 4.18953
4.2062 0.508558 4.20846
4.19936 0.510874 4.22948
4.19656 0.513261 4.25547
4.19475 0.515647 4.28146
4.18993 0.516991 4.30448
4.19116 0.520449 4.33542
4.18635 0.522807 4.35942
4.18141 0.522944 4.36846
4.17659 0.525303 4.39246
4.17178 0.527662 4.41647
4.16797 0.530034 4.44147
4.17122 0.533535 4.47539
4.16338 0.534852 4.49644
4.15958 0.537239 4.52243
4.16878 0.540617 4.54832
4.15792 0.541892 4.56638
4.15008 0.543223 4.58843
4.15436 0.547752 4.62433
4.1445 0.549041 4.64339
4.14196 0.554945 4.70433
4.14107 0.556153 4.71832
4.13224 0.558485 4.74036
4.13046 0.560931 4.77034
4.12313 0.570238 4.85827
4.11644 0.57385 4.89927
4.11871 0.577381 4.9352
4.10686 0.578671 4.95428
4.10208 0.582103 4.98327
4.10031 0.584563 5.01425
4.09351 0.586953 5.04027
4.09593 0.593765 5.09516
4.08509 0.595084 5.11622
4.08031 0.597517 5.14523
4.07957 0.601035 5.18018
4.07276 0.60341 5.2052
4.06625 0.610362 5.26916
4.06437 0.6116 5.28516
4.06566 0.616161 5.32308
4.06292 0.619667 5.35706
4.04761 0.629024 5.44805
4.04776 0.63032 5.46803
4.03997 0.633725 5.49504
4.03925 0.637274 5.532
4.02569 0.643157 5.59102
4.0214 0.653536 5.68391
4.01463 0.655985 5.71393
4.00888 0.659477 5.74693
4.00142 0.666533 5.81789
3.98705 0.675772 5.90087
3.97994 0.688523 6.01875
3.97016 0.69096 6.0478
3.95989 0.701373 6.14273
3.9582 0.705981 6.18368
3.95046 0.70949 6.21769
3.92306 0.731632 6.4286
3.89009 0.761622 6.69644
3.86596 0.789279 6.94225
3.85623 0.792805 6.97728
3.8526 0.798532 7.02622
3.82716 0.821584 7.2311
4.58865 0.330182 1.09379
4.54087 0.348539 1.52094
4.53034 0.351464 1.58299
4.52853 0.352836 1.60798
4.51285 0.353484 1.6511
4.51512 0.356 1.68605
4.51919 0.357145 1.696
4.50291 0.361563 1.79107
4.50699 0.362708 1.80103
4.50512 0.363961 1.81802
4.39381 0.419143 2.70317
4.38446 0.425423 2.78916
4.37034 0.434135 2.90415
4.3403 0.45399 3.16312
4.17638 0.572794 4.49278
4.16409 0.581179 4.58576
4.15751 0.586998 4.64073
4.15674 0.590457 4.67169
4.14827 0.597484 4.74066
4.13287 0.604665 4.81968
4.13009 0.60811 4.84965
4.12367 0.61524 4.92561
4.11989 0.618672 4.95459
4.11712 0.621118 4.98458
