-4.317 1.79869 18.7094
-4.37324 1.79628 18.6788
-4.43235 1.7961 18.6643
-4.4905 1.79584 18.6447
-4.55349 1.7969 18.6462
-4.61554 1.79785 18.6396
-4.67757 1.79883 18.6361
-4.70954 1.7999 18.6393
-4.77354 1.80195 18.6398
-4.8346 1.80187 18.6322
-4.90053 1.80505 18.6417
-4.96936 1.80841 18.6631
2.90044 1.75979 18.6116
2.83839 1.75873 18.6051
2.77946 1.75892 18.6155
2.7153 1.75566 18.595
2.68527 1.75462 18.5913
2.62215 1.75243 18.5758
2.56217 1.75151 18.5782
2.49902 1.74926 18.5587
2.43694 1.74714 18.5482
2.37589 1.74608 18.5417
2.31694 1.74623 18.5492
-5.83801 1.79009 17.1198
2.76695 1.75318 17.4845
2.7079 1.75212 17.478
2.64985 1.75008 17.4724
2.59073 1.74788 17.4569
2.56064 1.74573 17.4452
2.50257 1.74462 17.4356
2.44764 1.7448 17.445
2.38855 1.74266 17.4335
2.33042 1.74045 17.417
2.27449 1.74063 17.4264
2.21745 1.73959 17.4219
2.18946 1.73863 17.4231
-4.36543 1.77446 16.3958
-4.42825 1.77986 16.4202
-4.49203 1.78432 16.4486
-4.54803 1.78635 16.448
-4.577 1.78743 16.4522
-4.62816 1.78616 16.4316
-4.6764 1.78372 16.4
-4.72364 1.78128 16.3684
-4.77284 1.77991 16.3418
-4.82398 1.77969 16.3242
-4.87122 1.77725 16.2925
-4.90216 1.77937 16.2997
-4.95234 1.77807 16.2771
-5.01031 1.78015 16.2805
-5.06145 1.77991 16.2619
-5.11941 1.78203 16.2673
-5.17056 1.78177 16.2477
-5.22756 1.78381 16.2481
-5.25363 1.78268 16.2383
-5.31552 1.78695 16.2537
-5.36863 1.78676 16.2391
-5.42172 1.78762 16.2275
-5.47874 1.78862 16.2249
-5.53575 1.79063 16.2233
-5.56964 1.79386 16.2376
-5.62275 1.79368 16.223
-5.67684 1.79454 16.2113
-5.72994 1.79439 16.1987
-5.78892 1.79746 16.2011
-5.844 1.79734 16.1906
2.9312 1.74583 16.4543
2.87616 1.74379 16.4497
2.81799 1.74051 16.4282
2.76086 1.73728 16.4107
2.70896 1.73851 16.424
2.67251 1.73067 16.3654
2.52518 1.73908 16.4544
2.48168 1.74609 16.5206
2.30218 1.75118 16.5869
2.24502 1.74791 16.5664
2.18886 1.74464 16.5459
2.13277 1.74249 16.5333
2.07763 1.74026 16.5158
2.02254 1.73813 16.5042
1.99342 1.73591 16.4885
1.93938 1.73488 16.4839
-3.88904 1.76714 15.5162
-3.94009 1.76808 15.5096
-3.99504 1.77021 15.5159
-4.02397 1.77236 15.5251
-4.08182 1.7757 15.5455
-4.13385 1.77768 15.5419
-4.24181 1.78081 15.5466
-4.29093 1.78061 15.531
-4.34492 1.78267 15.5324
-4.37387 1.78379 15.5396
-4.42787 1.78582 15.539
-4.47892 1.78675 15.5323
-4.53293 1.78777 15.5317
-3.76706 1.76122 14.7162
-3.82387 1.76562 14.7406
-3.84306 1.76326 14.7158
-3.89695 1.76651 14.7301
-3.94017 1.76513 14.7025
-3.98822 1.76506 14.6959
-4.04602 1.77048 14.7222
-4.09701 1.77252 14.7226
-4.14703 1.77353 14.7209
-4.17106 1.77347 14.7161
-4.22206 1.77551 14.7165
-4.26623 1.7742 14.6938
-4.32212 1.77746 14.7092
-4.37214 1.77945 14.7065
-4.42316 1.78045 14.7039
-4.47318 1.78144 14.7013
-3.71123 1.75601 14.0288
-3.75728 1.75695 14.0231
-3.80821 1.76012 14.0325
-3.8572 1.76217 14.0338
-3.90813 1.76433 14.0422
-3.95808 1.76745 14.0485
-3.98695 1.77073 14.0657
-4.03207 1.76954 14.051
-4.083 1.77269 14.0594
-4.12906 1.77361 14.0517
-4.18197 1.77682 14.064
-4.22903 1.77774 14.0564
-3.80871 1.75327 13.4345
-3.85373 1.75426 13.4318
-3.89877 1.7552 13.4261
-3.9286 1.75955 13.4483
-3.97364 1.76051 13.4436
-4.01967 1.76148 13.44
-4.07056 1.76572 13.4543
-4.11466 1.76556 13.4416
-4.1636 1.7687 13.4489
-4.21157 1.7708 13.4533
-4.23753 1.77189 13.4585
-4.28453 1.77391 13.4578
-5.87125 1.78064 12.9686
-5.86283 1.77053 12.8936
-5.88038 1.76146 12.8209
-3.26234 1.74481 12.8184
-3.30539 1.74474 12.8117
-3.32931 1.7469 12.8219
-3.37233 1.74789 12.8192
-3.41925 1.75107 12.8295
-3.46325 1.7531 12.8298
-3.50727 1.75409 12.8271
-3.55418 1.75728 12.8384
-3.59918 1.75932 12.8387
-3.62217 1.76036 12.8409
-3.66811 1.7625 12.8482
-3.71604 1.76567 12.8575
-3.75518 1.76442 12.8388
-3.80212 1.76757 12.8472
-5.03069 1.77332 12.5093
-5.05413 1.76648 12.4516
-5.08837 1.76405 12.4208
-5.11082 1.75718 12.3611
1.27396 1.71934 12.9756
1.23302 1.72048 12.9839
1.18998 1.71944 12.9793
-2.55091 1.7403 12.3411
-3.58942 1.74602 12.1438
-3.63533 1.74922 12.1551
-3.68125 1.75341 12.1664
-3.72325 1.75444 12.1667
-3.77404 1.76086 12.193
-4.07313 1.75193 12.0503
-2.35367 1.73475 11.9746
-2.39463 1.73684 11.9789
-2.41368 1.73676 11.973
-2.45465 1.73784 11.9763
-2.50142 1.74433 12.0076
-2.53274 1.73872 11.9649
-2.5708 1.73863 11.9572
-2.61179 1.73967 11.9585
-2.64502 1.73625 11.9288
-2.70408 1.73716 11.9202
-2.91544 1.7366 11.8738
-3.24491 1.7389 11.8122
-3.28397 1.73881 11.8045
-3.32302 1.73973 11.7978
-3.364 1.74179 11.8001
-3.38696 1.7439 11.8062
-3.42211 1.74163 11.7865
-3.46797 1.74691 11.8038
-3.50704 1.74681 11.7951
-3.54999 1.74993 11.8014
-3.59491 1.75312 11.8127
-3.63397 1.75403 11.8049
-3.65886 1.75724 11.8181
-3.70084 1.75932 11.8214
-3.74382 1.76138 11.8237
-3.95429 1.7616 11.7622
-3.96306 1.74611 11.6615
-1.87035 1.73019 11.484
-1.92638 1.73117 11.4804
-1.96151 1.72893 11.4627
-2.00144 1.73209 11.4719
-2.03848 1.73203 11.4662
-2.07745 1.73312 11.4705
-2.11544 1.73516 11.4717
-2.1354 1.73625 11.4769
-2.17053 1.73402 11.4602
-2.20951 1.73609 11.4634
-2.24655 1.73603 11.4577
-2.2894 1.74036 11.478
-2.32451 1.73916 11.4633
-2.36638 1.74344 11.4805
-2.38538 1.74446 11.4806
-2.42437 1.74549 11.4809
-2.45855 1.74217 11.4582
-2.49561 1.74208 11.4505
-2.52976 1.74081 11.4308
-2.56488 1.7386 11.4151
-2.60095 1.73847 11.4053
-2.61612 1.73516 11.3835
-2.65316 1.73611 11.3788
-2.68826 1.73493 11.365
-2.72534 1.7348 11.3543
-2.75946 1.73358 11.3386
-2.79653 1.73348 11.3299
-2.88867 1.73326 11.3116
-3.00081 1.73506 11.2934
-3.0398 1.73711 11.2947
-3.05978 1.73816 11.2978
-3.09685 1.73804 11.2881
-3.13291 1.73795 11.2803
-3.169 1.7378 11.2686
-3.20897 1.73987 11.2719
-3.24506 1.73972 11.2602
-3.28115 1.73959 11.2494
-3.306 1.74388 11.2686
-3.3421 1.7427 11.2548
-3.38012 1.74369 11.2521
-3.42402 1.74791 11.2654
-3.46109 1.7478 11.2567
-3.50009 1.74983 11.2569
-3.54107 1.75189 11.2592
-3.56299 1.75506 11.2693
-3.603 1.75707 11.2686
-3.85708 1.74612 11.1267
1.5142 1.70904 11.4128
1.4994 1.71345 11.4398
1.46349 1.71364 11.4511
1.42652 1.71373 11.4554
1.38955 1.71382 11.4596
1.3558 1.71931 11.4918
1.3146 1.71396 11.4662
1.27655 1.7129 11.4605
1.25968 1.71515 11.4766
1.22378 1.71637 11.4899
1.18681 1.71645 11.4941
1.14982 1.71649 11.4954
1.11391 1.71771 11.5087
1.07695 1.71881 11.5139
1.03895 1.71783 11.5132
1.0199 1.71675 11.5074
0.982941 1.71685 11.5127
0.944903 1.71581 11.508
0.906835 1.7137 11.4993
0.869837 1.71373 11.4996
0.833929 1.71493 11.5118
0.777945 1.715 11.5142
0.73987 1.71288 11.5046
0.665933 1.71405 11.5131
0.629041 1.71629 11.5274
0.553974 1.71421 11.5189
0.536027 1.71533 11.5261
0.460984 1.71429 11.5206
-3.49825 1.73176 10.307
-3.54503 1.73921 10.3353
-3.57812 1.73906 10.3235
-3.6112 1.73892 10.3128
-3.64724 1.73987 10.3081
-3.67348 1.73542 10.2763
-2.0587 1.71998 9.97633
-2.09365 1.72211 9.98356
-2.12667 1.72309 9.9808
-2.15875 1.72195 9.97005
-2.17574 1.72299 9.97217
-2.20779 1.72291 9.96541
-2.24082 1.72386 9.96064
-2.27192 1.72269 9.94789
-2.304 1.72156 9.93815
-2.33506 1.72145 9.92938
-3.40481 1.73072 9.70027
-3.43786 1.73164 9.69351
-3.46601 1.72938 9.67475
-3.501 1.73141 9.67499
-3.53307 1.7323 9.66621
-3.56516 1.73214 9.65446
-3.58939 1.72772 9.6247
1.69426 1.70341 9.9593
1.66333 1.70457 9.96852
1.64423 1.70139 9.95571
1.61121 1.70037 9.95297
1.57719 1.69935 9.95024
-1.51893 1.71426 9.54529
-1.54997 1.71421 9.54052
-1.61395 1.71629 9.54298
-1.64404 1.71513 9.53122
-1.69201 1.71722 9.53555
-1.75409 1.71711 9.52502
-1.78414 1.71704 9.51924
-1.81615 1.71703 9.51748
-1.83216 1.71803 9.51659
-1.86512 1.72013 9.52181
-1.89328 1.71684 9.50107
-1.92624 1.71894 9.50628
-1.96112 1.72318 9.52149
-1.99314 1.72416 9.51871
-2.0232 1.72307 9.51095
-2.04209 1.72729 9.52503
-2.0712 1.7251 9.51128
-2.1042 1.72712 9.5115
-2.13619 1.72816 9.51273
-2.16822 1.72811 9.50797
-2.19539 1.72481 9.48622
-2.22642 1.72577 9.48244
-2.23953 1.72356 9.46757
-2.26962 1.72242 9.45681
-2.29773 1.72121 9.44204
1.81615 1.69524 9.41243
1.79247 1.70287 9.4545
1.77751 1.70296 9.45961
1.74132 1.69763 9.43596
1.71036 1.69773 9.44119
1.67935 1.69674 9.44044
1.65048 1.69901 9.45763
1.61848 1.69802 9.45688
1.58646 1.697 9.45414
1.57252 1.69812 9.46223
1.54152 1.69716 9.46347
1.51161 1.69835 9.47468
1.47853 1.69622 9.46496
1.44965 1.69747 9.48016
1.41762 1.69643 9.47642
1.37273 1.69767 9.49074
1.34068 1.6966 9.485
1.27876 1.6968 9.49546
1.2168 1.69693 9.50193
0.0527488 1.70266 9.23258
0.0227954 1.70377 9.23879
-0.0371489 1.70592 9.24621
-0.0971936 1.70387 9.24069
-0.307217 1.70497 9.23826
-0.337201 1.70602 9.24047
-0.3681 1.70823 9.25367
-0.397214 1.70603 9.23892
-0.428076 1.70932 9.2571
-0.457242 1.70602 9.23537
-0.487249 1.70602 9.2346
-0.50321 1.70711 9.2397
-0.533224 1.7071 9.23793
-0.563239 1.70709 9.23615
-0.592253 1.70709 9.23437
-0.62316 1.70929 9.24657
-0.653166 1.71029 9.24578
-0.683227 1.7082 9.23804
-0.698249 1.70816 9.23515
-0.728271 1.70814 9.23238
-0.788292 1.70814 9.22983
-0.818306 1.70813 9.22806
-0.85106 1.71563 9.2602
-0.881097 1.71558 9.25542
-0.895165 1.71345 9.24656
-0.953346 1.71014 9.22304
-0.983399 1.70906 9.21629
-1.01244 1.70899 9.21051
-1.04342 1.71006 9.21372
-1.07621 1.71648 9.24088
-1.09034 1.71324 9.22403
-1.15129 1.71537 9.23046
-1.18037 1.71423 9.21969
-1.21226 1.71848 9.23487
-1.2423 1.71741 9.22911
-1.25732 1.71739 9.22723
-1.28736 1.71732 9.22145
-1.31735 1.71836 9.22266
-1.34738 1.71832 9.21889
-1.37933 1.72045 9.2261
-1.4084 1.71932 9.21634
-1.43844 1.71927 9.21156
-1.4544 1.72036 9.21667
-1.48348 1.71923 9.2069
-1.51445 1.7213 9.2101
-1.54352 1.72018 9.20134
-1.57357 1.7201 9.19457
-1.6036 1.72007 9.19079
-1.63553 1.72322 9.19999
-1.64482 1.71567 9.16216
-1.67963 1.72205 9.18634
-1.70581 1.71773 9.16359
-1.73968 1.723 9.18077
-1.76973 1.72192 9.17401
-1.79493 1.71754 9.14727
-1.82498 1.71747 9.14149
-1.83902 1.71741 9.1366
-1.86905 1.71737 9.13282
-1.90005 1.71838 9.13204
-1.93202 1.72046 9.13625
-1.96492 1.72468 9.14944
-1.99304 1.72246 9.13368
-2.02695 1.72666 9.14588
-2.04294 1.72669 9.147
-2.06813 1.72332 9.12123
-2.09914 1.72433 9.12045
-2.12529 1.72105 9.1007
-2.15533 1.722 9.09591
-2.18053 1.71763 9.07016
-2.21443 1.72184 9.08235
-2.28372 1.71732 9.04494
1.86635 1.69769 9.03996
1.84362 1.70324 9.07606
1.82656 1.70113 9.06821
1.80282 1.70765 9.1023
1.76454 1.69913 9.06571
1.73768 1.70143 9.08488
1.70771 1.7015 9.08811
1.67982 1.70374 9.10328
1.6488 1.70172 9.10055
1.63798 1.70608 9.12457
1.60693 1.704 9.11783
1.57592 1.70301 9.11708
1.54802 1.70422 9.13027
1.51494 1.70109 9.11957
1.48702 1.70325 9.12975
1.45706 1.70336 9.13597
1.44205 1.70236 9.1351
1.41104 1.70135 9.13335
1.38313 1.70355 9.14553
1.3521 1.70152 9.14179
1.32316 1.70265 9.14999
1.29318 1.70171 9.15224
1.26426 1.70388 9.16242
1.24715 1.70068 9.1486
1.2172 1.70079 9.15482
1.1872 1.70083 9.15605
1.15828 1.702 9.16625
1.12829 1.70103 9.16749
1.09724 1.69997 9.16174
1.06828 1.70006 9.16695
1.05332 1.70115 9.17205
1.02327 1.69907 9.16531
0.993276 1.6981 9.16655
0.96436 1.70029 9.17774
0.93546 1.7025 9.19092
0.903346 1.6983 9.17623
0.875469 1.70156 9.19239
0.859401 1.69944 9.18354
0.828363 1.69839 9.17879
0.799456 1.70058 9.19098
0.769418 1.69853 9.18623
0.739449 1.69861 9.19046
0.710495 1.69972 9.19666
0.680496 1.69975 9.19689
0.665504 1.69977 9.198
0.636604 1.70198 9.21119
0.605528 1.69986 9.20145
0.575544 1.69991 9.20368
0.546613 1.70106 9.21288
0.515584 1.70003 9.20913
0.471661 1.70221 9.21943
0.35171 1.70238 9.22633
0.321688 1.70136 9.22357
0.291742 1.70249 9.23078
0.276773 1.70356 9.23488
0.216691 1.70144 9.22436
0.0977324 1.7026 9.23024
0.057099 1.71343 8.87934
0.0278934 1.70805 8.85263
-0.00096082 1.71135 8.8718
-0.0291282 1.70705 8.85008
-0.0578745 1.71456 8.88319
-0.0721421 1.70705 8.8484
-0.10195 1.71244 8.87355
-0.130117 1.70814 8.85182
-0.159094 1.7082 8.85504
-0.188055 1.7093 8.86024
-0.216076 1.70927 8.85745
-0.245167 1.70712 8.8457
-0.260068 1.70932 8.85878
-0.288074 1.70933 8.858
-0.317096 1.7093 8.85521
-0.346125 1.70926 8.85143
-0.375056 1.71142 8.86062
-0.403124 1.70931 8.85186
-0.432199 1.70818 8.8421
-0.447084 1.71141 8.85716
-0.476121 1.71036 8.8524
-0.505013 1.71359 8.86657
-0.534089 1.71146 8.85682
-0.562118 1.71142 8.85303
-0.591147 1.71138 8.84925
-0.620116 1.71246 8.85345
-0.634154 1.7114 8.84857
-0.663175 1.71138 8.84579
-0.693098 1.71355 8.85598
-0.720204 1.71136 8.84222
-0.749256 1.71028 8.83545
-0.779171 1.71346 8.84663
-0.80817 1.71348 8.84685
-0.821284 1.71127 8.83198
-0.849306 1.71124 8.82919
-0.878282 1.71231 8.83239
-0.907319 1.71126 8.82763
-0.936287 1.71334 8.83181
-0.964409 1.71012 8.81607
-0.994345 1.71326 8.82425
-1.00931 1.71433 8.82835
-1.03643 1.71113 8.8136
-1.06637 1.71427 8.82178
-1.09632 1.71638 8.82798
-1.12343 1.71318 8.81322
-1.15246 1.71314 8.80944
-1.18052 1.71304 8.80165
-1.19454 1.71201 8.79878
-1.22352 1.71407 8.80196
-1.25352 1.71409 8.80219
-1.28153 1.71509 8.80039
-1.31056 1.71505 8.7966
-1.33955 1.71608 8.79781
-1.36953 1.71715 8.80102
-1.38357 1.71707 8.79513
-1.41163 1.71597 8.78735
-1.43967 1.71592 8.78256
-1.46775 1.71478 8.77179
-1.49674 1.71581 8.77299
-1.52672 1.71688 8.7762
-1.55669 1.71894 8.7794
-1.5717 1.71894 8.77851
-1.59783 1.71671 8.76174
-1.62878 1.71883 8.76894
-1.65584 1.71872 8.76015
-1.68392 1.71759 8.75037
-1.71773 1.72397 8.77454
-1.74675 1.72396 8.77275
-1.76177 1.72393 8.76987
-1.79272 1.72704 8.77606
-1.82174 1.72703 8.77427
-1.84787 1.72479 8.7565
-1.87977 1.729 8.76968
-1.90978 1.72999 8.76789
-1.93881 1.72996 8.76411
-1.97897 1.72767 8.74345
-2.00896 1.72871 8.74466
-2.03895 1.73075 8.74585
-2.0641 1.72747 8.72609
-2.0912 1.7263 8.71331
-2.11732 1.72408 8.69754
-2.13136 1.72401 8.69264
-2.15554 1.71968 8.66888
-2.18263 1.71853 8.6581
-2.20678 1.71624 8.63732
-2.23289 1.71405 8.62354
-2.26387 1.71611 8.62575
-2.30206 1.71376 8.60107
-3.11371 1.71707 8.3851
1.94294 1.69194 8.58741
1.94243 1.70489 8.65123
1.67694 1.70906 8.71918
1.64691 1.70704 8.71643
1.59205 1.70934 8.73481
1.57601 1.70726 8.72896
1.54912 1.70951 8.74413
1.51907 1.70742 8.73739
1.49218 1.70965 8.75156
1.46318 1.70867 8.7518
1.43525 1.70983 8.76099
1.40621 1.70779 8.75724
1.39332 1.711 8.77129
1.36225 1.70788 8.76157
1.33428 1.70796 8.76578
1.30742 1.71125 8.78394
1.27629 1.70703 8.76823
1.2515 1.71145 8.79536
1.21934 1.70616 8.77467
1.20541 1.7083 8.78375
1.17638 1.70627 8.78
1.1506 1.71171 8.80911
1.11836 1.70426 8.77746
1.08938 1.70433 8.78068
1.06143 1.70544 8.78688
1.0346 1.70978 8.80902
1.01743 1.70447 8.78722
0.960428 1.70351 8.78767
0.932497 1.70467 8.79686
0.906773 1.71222 8.83295
0.875598 1.7069 8.81026
0.848766 1.71025 8.83241
0.832583 1.7049 8.80861
0.804721 1.70819 8.82677
0.776829 1.71142 8.84094
0.745608 1.70501 8.81226
0.718815 1.71043 8.83939
0.688701 1.70623 8.82468
0.661877 1.71059 8.84782
0.645648 1.70416 8.81803
0.616641 1.70416 8.81725
0.589925 1.71173 8.85434
0.559719 1.70535 8.82766
0.530712 1.70536 8.82688
0.501712 1.70438 8.82711
0.473705 1.70439 8.82632
0.458683 1.70335 8.82345
0.430768 1.70554 8.83463
0.402922 1.70985 8.85478
0.372647 1.70234 8.81911
0.344923 1.70889 8.85523
0.314648 1.70138 8.81957
0.286802 1.7057 8.83972
0.27281 1.70572 8.84082
0.243796 1.70572 8.83904
0.215995 1.71112 8.86517
0.186866 1.70689 8.84845
0.157797 1.70478 8.8397
0.128921 1.70804 8.85587
0.114844 1.7059 8.84601
0.0860674 1.71235 8.87513
0.0578907 1.69817 8.32148
0.0178461 1.69711 8.3158
-0.0361066 1.69823 8.32219
-0.0640826 1.6993 8.32538
-0.0910975 1.69829 8.3236
-0.118089 1.69932 8.32479
-0.158111 1.69831 8.32211
-0.186094 1.69936 8.3243
-0.213055 1.70045 8.32949
-0.240093 1.6994 8.32471
-0.266992 1.70261 8.33786
-0.294075 1.70047 8.3271
-0.321075 1.70049 8.3273
-0.335059 1.70153 8.32939
-0.362058 1.70155 8.32959
-0.38911 1.70046 8.32281
-0.416071 1.70156 8.328
-0.444009 1.70369 8.33618
-0.471069 1.7026 8.3284
-0.498107 1.70154 8.32362
-0.512022 1.70371 8.33469
-0.539066 1.70364 8.3289
-0.567004 1.70578 8.33708
-0.593095 1.70362 8.3253
-0.619186 1.70147 8.31353
-0.647139 1.70258 8.31973
-0.674199 1.70148 8.31194
-0.688183 1.70252 8.31403
-0.715137 1.70362 8.32022
-0.743128 1.70466 8.32142
-0.769203 1.70353 8.31163
-0.797148 1.70565 8.31881
-0.850253 1.70349 8.30524
-0.892175 1.70666 8.31551
-0.94628 1.7045 8.30195
-0.973302 1.70447 8.29915
-1.00125 1.70658 8.30533
-1.02731 1.7055 8.29854
-1.04225 1.70763 8.30663
-1.09539 1.70538 8.28806
-1.12334 1.70749 8.29424
-1.14943 1.70533 8.28246
-1.17548 1.70525 8.27566
-1.21648 1.70628 8.27595
-1.24446 1.70734 8.27915
-1.27053 1.70621 8.26936
-1.29756 1.70617 8.26556
-1.32555 1.70722 8.26776
-1.3526 1.70714 8.26096
-1.37963 1.7071 8.25717
-1.39645 1.71245 8.28022
-1.4216 1.70919 8.26145
-1.44669 1.70803 8.24966
-1.47565 1.71013 8.25485
-1.50267 1.7101 8.25205
-1.53066 1.71214 8.25323
-1.5548 1.70887 8.23446
-1.57075 1.71099 8.24155
-1.5968 1.7099 8.23476
-1.62384 1.70985 8.22996
-1.65279 1.71296 8.23614
-1.67789 1.71078 8.22336
-1.70684 1.71389 8.22953
-1.73775 1.71709 8.24172
-1.74886 1.71488 8.22683
-1.77878 1.71805 8.23701
-1.80484 1.71795 8.22921
-1.83286 1.71794 8.22742
-1.85987 1.71893 8.22561
-1.88884 1.72101 8.22979
-1.91491 1.7209 8.22099
-1.93279 1.72413 8.23608
-1.95691 1.72191 8.22029
-1.98202 1.72072 8.2065
-2.00518 1.71742 8.18472
-2.03222 1.71736 8.17992
-2.05734 1.71514 8.16414
-2.08243 1.71398 8.15235
-2.09545 1.71396 8.15044
-2.11957 1.71174 8.13466
-2.14565 1.7106 8.12387
-2.1717 1.71052 8.11707
2.00415 1.69243 8.08287
1.97819 1.69254 8.08906
1.96156 1.70226 8.13705
1.93357 1.7013 8.13828
1.91851 1.6992 8.13142
1.89468 1.70253 8.15255
1.86768 1.70155 8.15277
1.83864 1.69951 8.14902
1.81273 1.7007 8.1602
1.78471 1.69969 8.15843
1.75773 1.69874 8.16064
1.74684 1.70095 8.17469
1.71988 1.70105 8.1799
1.68875 1.69683 8.16419
1.66487 1.69907 8.17934
1.63583 1.69702 8.17459
1.61094 1.69926 8.18974
1.58398 1.69935 8.19495
1.56995 1.6983 8.19107
1.54194 1.69631 8.19031
1.51601 1.69746 8.19949
1.48693 1.69432 8.18875
1.45998 1.69443 8.19495
1.43505 1.69659 8.20511
1.40707 1.69564 8.20734
1.39409 1.6957 8.21043
1.36815 1.69683 8.21861
1.34117 1.69688 8.22082
1.31212 1.69482 8.21507
1.28722 1.69601 8.22724
1.25917 1.69394 8.22148
1.23324 1.6951 8.23066
1.21819 1.69402 8.22479
1.1933 1.69624 8.23894
1.16635 1.69737 8.24613
1.13828 1.69424 8.23639
1.11239 1.69648 8.25155
1.08433 1.69438 8.24379
1.05737 1.69448 8.24899
1.04332 1.69338 8.24212
1.01637 1.69351 8.24932
0.989365 1.69351 8.24852
0.962388 1.69358 8.25172
0.936473 1.69476 8.2629
0.910534 1.69589 8.27108
0.882497 1.69484 8.26631
0.868497 1.69385 8.26643
0.841528 1.69493 8.27062
0.814521 1.69393 8.26983
0.788567 1.69504 8.27601
0.76379 1.70049 8.30512
0.73463 1.6962 8.2844
0.706599 1.69416 8.28065
0.693638 1.69524 8.28573
0.639669 1.69534 8.29013
0.61267 1.69536 8.29034
0.585655 1.69435 8.28856
0.558664 1.69439 8.28976
0.546832 1.69872 8.31179
0.517665 1.69442 8.29007
0.491741 1.69558 8.30025
0.464765 1.69665 8.30343
0.437789 1.69671 8.30664
0.409721 1.6946 8.29788
0.383882 1.69893 8.31901
0.369783 1.69575 8.30616
0.315845 1.6969 8.31455
0.2888 1.69584 8.30877
0.234847 1.69696 8.31516
0.206802 1.6959 8.30939
0.166857 1.69703 8.31667
0.0858899 1.69815 8.32127
-2.12788 1.72619 7.82646
-2.15587 1.72722 7.82766
-2.16791 1.72714 7.82175
-2.19396 1.72706 7.81495
-2.21415 1.72272 7.79116
-2.2431 1.72583 7.79733
-2.26428 1.72149 7.77355
-2.29225 1.72457 7.77772
-2.30139 1.72029 7.75885
-2.32841 1.72228 7.75702
-2.35247 1.72117 7.74822
-2.38047 1.72319 7.7484
-2.40359 1.72098 7.7336
-2.42671 1.71976 7.71779
-2.45274 1.71972 7.71399
-2.46477 1.71967 7.71008
-2.49081 1.7206 7.70426
-2.51392 1.7184 7.68947
-2.53996 1.71934 7.68465
-2.56697 1.72033 7.68284
-2.59302 1.72125 7.67602
-2.61417 1.71798 7.65722
-2.62719 1.71894 7.65431
-2.6542 1.71993 7.6525
-2.67634 1.71768 7.63469
-2.70238 1.71863 7.62988
-2.73134 1.72171 7.63405
-2.75151 1.7184 7.61225
-2.77756 1.71831 7.60544
-2.79155 1.71934 7.60653
-2.81662 1.71922 7.59772
-2.83777 1.71694 7.57791
-2.86282 1.71686 7.5711
-2.89377 1.72098 7.57828
-2.9149 1.71873 7.56047
-2.93507 1.71542 7.53866
-2.95594 1.72069 7.55575
-2.9761 1.71739 7.53494
-2.99822 1.71617 7.51913
-3.02819 1.71925 7.52331
-3.04735 1.71594 7.5015
-3.07634 1.71898 7.50267
-3.10437 1.71995 7.49987
-3.1164 1.71989 7.49496
-3.1395 1.71971 7.48213
-3.16357 1.71958 7.47231
-3.18176 1.71522 7.44751
-3.20291 1.71296 7.4287
-3.23189 1.71601 7.43088
-3.25205 1.71371 7.41006
-3.26606 1.71371 7.40916
-3.298 1.71883 7.41633
-3.31421 1.71343 7.38853
2.06246 1.6971 7.72531
-1.0408 1.71865 7.70037
-1.13997 1.71638 7.67814
-1.22994 1.7205 7.68276
-2.02095 1.72504 7.55064
-2.06713 1.72272 7.52702
-2.09118 1.72263 7.5202
-2.1172 1.7236 7.51738
-2.1273 1.72042 7.5045
-2.15039 1.71927 7.49369
-2.17348 1.71811 7.48188
-2.1985 1.71909 7.47905
-2.21964 1.71582 7.46026
-2.24761 1.7189 7.46442
-2.27168 1.71878 7.45561
-2.28176 1.71663 7.44471
-2.30679 1.71759 7.44089
-2.33086 1.71647 7.43208
-2.35394 1.71533 7.42127
-2.38288 1.71945 7.42843
-2.4011 1.71405 7.40064
-2.42514 1.71498 7.39481
-2.4401 1.71706 7.39989
-2.46417 1.71595 7.39109
-2.48823 1.71585 7.38327
-2.51522 1.71788 7.38444
-2.53439 1.71455 7.36163
-2.55845 1.71445 7.35382
-2.5874 1.71756 7.35999
-2.59455 1.71429 7.34109
-2.61568 1.71205 7.32428
-2.64366 1.7141 7.32646
-2.66379 1.71186 7.30964
-2.68983 1.71281 7.30482
-2.71583 1.71481 7.30399
-2.73696 1.71258 7.28718
-2.74411 1.7093 7.26828
-2.77794 1.71663 7.28943
-2.79809 1.71335 7.26963
-2.81823 1.7111 7.25181
-2.84328 1.71102 7.245
-2.87127 1.71405 7.24616
-2.89139 1.71183 7.23035
-2.90637 1.71388 7.23343
-2.92357 1.70951 7.20762
-2.95056 1.71153 7.20779
-2.9815 1.71567 7.21597
-3.00065 1.71339 7.19614
-3.03061 1.71649 7.20132
-3.05467 1.71738 7.19349
-3.06669 1.71735 7.19058
-3.08978 1.71719 7.17875
-3.10991 1.71495 7.16194
2.13648 1.67922 7.33096
2.12589 1.69101 7.38388
0.990979 1.70686 7.66423
0.715221 1.70852 7.69729
0.602323 1.70979 7.71112
0.476379 1.70999 7.71907
0.299475 1.7113 7.73238
0.0422993 1.71019 7.4443
0.0182234 1.70806 7.43451
-0.00571438 1.71019 7.44266
-0.017714 1.7102 7.44275
-0.0917044 1.71027 7.44431
-0.11565 1.71239 7.45146
-0.164717 1.71029 7.44286
-0.176748 1.70924 7.43896
-0.2257 1.71137 7.4453
-0.249722 1.71134 7.44248
-0.273714 1.71137 7.44366
-0.297843 1.70714 7.4269
-0.322742 1.71135 7.44003
-0.334689 1.71246 7.4471
-0.358818 1.70923 7.43033
-0.4318 1.71031 7.43287
-0.456784 1.71136 7.43504
-0.480752 1.71244 7.4392
-0.493698 1.71455 7.44627
-0.517766 1.71243 7.43748
-0.56581 1.71238 7.43184
-0.590748 1.71452 7.44
-0.615777 1.71447 7.43619
-0.639753 1.71554 7.43936
-0.650891 1.71128 7.4215
-0.700835 1.71442 7.42883
-0.774817 1.7165 7.43136
-0.798839 1.71647 7.42854
-0.809877 1.71541 7.42364
-0.833937 1.71431 7.41583
-0.858913 1.71537 7.41901
-0.882919 1.71637 7.41817
-0.907941 1.71635 7.41536
-0.931963 1.71632 7.41254
-0.956008 1.71525 7.40674
-0.968969 1.71633 7.41182
-0.992052 1.71519 7.40101
-1.01608 1.71514 7.39719
-1.04106 1.71621 7.40036
-1.06603 1.71828 7.40452
-1.09007 1.71721 7.39872
-1.11509 1.71719 7.39591
-1.1252 1.71499 7.38201
-1.19825 1.71594 7.37555
-1.24534 1.71479 7.36392
-1.25929 1.71589 7.37001
-1.3083 1.71791 7.36935
-1.33233 1.71787 7.36553
-1.93712 1.72271 7.262
-1.98325 1.72149 7.24536
-2.00338 1.71924 7.22755
-2.03131 1.72239 7.23671
-2.03751 1.71701 7.21083
-2.05766 1.71373 7.19103
-2.08754 1.71899 7.20718
-2.10571 1.71466 7.18438
-2.12977 1.71458 7.17756
-2.15476 1.7166 7.17772
-2.17199 1.71018 7.14894
-2.18302 1.71011 7.14402
-2.21195 1.71427 7.15318
-2.22817 1.70885 7.12438
-2.24831 1.7056 7.10658
-2.28112 1.71298 7.13072
-2.29541 1.70544 7.09393
-2.32139 1.70849 7.09608
-2.33537 1.70954 7.09917
-2.35353 1.70623 7.07735
-2.3766 1.70512 7.06854
-2.39868 1.70498 7.05871
-2.52697 1.70548 7.01967
2.17214 1.67758 7.01968
2.15946 1.68621 7.06165
1.32331 1.70239 7.30874
1.2514 1.70261 7.32028
1.11852 1.70194 7.3373
0.963766 1.70553 7.37041
0.927797 1.70561 7.37468
0.903836 1.7057 7.37986
0.854875 1.70581 7.38523
0.830861 1.7058 7.38341
0.781822 1.70276 7.37883
0.769907 1.70593 7.38987
0.745915 1.70497 7.39107
0.720808 1.70078 7.37732
0.697947 1.70506 7.39543
0.648994 1.70618 7.40178
0.625002 1.70622 7.40296
0.613071 1.70736 7.41204
0.587949 1.70314 7.39628
0.565057 1.70636 7.41041
0.541111 1.70748 7.41758
0.516019 1.70433 7.40581
0.468143 1.7076 7.42212
0.407136 1.70663 7.4216
0.38316 1.70769 7.42476
0.358115 1.70562 7.41898
0.2982 1.70782 7.4304
0.273224 1.70889 7.43358
0.249156 1.70677 7.42479
0.225179 1.70683 7.42797
0.201256 1.709 7.43812
0.176211 1.70793 7.43232
0.140251 1.70903 7.43758
0.115205 1.70696 7.43179
0.0912672 1.70909 7.43994
0.0672835 1.71014 7.44211
-2.20866 1.72189 6.92501
-2.22782 1.71861 6.9052
-2.24988 1.71849 6.89637
-2.27487 1.72054 6.89853
-2.29695 1.71939 6.88771
-2.31706 1.71718 6.87289
-2.32906 1.71819 6.87297
-2.35016 1.71701 6.86014
-2.37419 1.71797 6.85631
-2.3982 1.71896 6.85447
-2.42125 1.71889 6.84865
-2.43646 1.71349 6.82084
-2.46049 1.71444 6.817
-2.47739 1.71865 6.83007
-2.49553 1.71638 6.81124
-2.51468 1.71311 6.79243
-2.54457 1.71833 6.80558
-2.55782 1.71186 6.77377
-2.5789 1.71072 6.76294
-2.59875 1.71701 6.782
-2.61593 1.71368 6.75918
-2.63896 1.71463 6.75434
-2.65906 1.71245 6.74152
-2.68016 1.71127 6.72869
-2.70321 1.7122 6.72285
-2.7233 1.71102 6.71002
-2.73925 1.71414 6.71709
-2.75835 1.71194 6.70327
-2.77748 1.7097 6.68644
-2.80249 1.71171 6.6856
-2.82554 1.71262 6.67876
-2.84858 1.71355 6.67292
-2.86869 1.71136 6.6591
-2.88267 1.7134 6.66118
-2.9018 1.71117 6.64535
-2.9268 1.71418 6.6445
-2.94985 1.71409 6.63767
-2.96897 1.71288 6.62283
-2.98808 1.71067 6.60801
-3.01211 1.71263 6.60416
-3.0332 1.71147 6.59233
-3.0403 1.70928 6.57942
-3.06236 1.70918 6.57158
-3.0805 1.70691 6.55275
-3.1006 1.70573 6.53992
2.22798 1.67429 6.73226
2.21525 1.68182 6.76725
2.20765 1.69361 6.82014
0.0288528 1.69846 6.85449
0.00687666 1.69952 6.85764
-0.0160455 1.70269 6.86777
-0.0381986 1.69741 6.84801
-0.0611521 1.69851 6.85417
-0.0721437 1.69954 6.85524
-0.0951123 1.70061 6.85939
-0.117043 1.70276 6.86853
-0.140073 1.70172 6.86472
-0.16208 1.70172 6.86388
-0.185056 1.70278 6.86704
-0.207209 1.6975 6.84728
-0.219093 1.70173 6.86231
-0.241115 1.7017 6.85948
-0.263138 1.70067 6.85666
-0.287037 1.70488 6.86978
-0.309136 1.70171 6.85699
-0.332066 1.70386 6.86613
-0.354134 1.70174 6.85733
-0.365142 1.70173 6.85641
-0.387241 1.69856 6.84362
-0.410178 1.70169 6.85175
-0.432185 1.70169 6.85092
-0.455199 1.70168 6.84909
-0.478106 1.70487 6.86122
-0.501952 1.71019 6.88132
-0.511228 1.70166 6.84551
-0.536028 1.70806 6.87161
-0.556195 1.70375 6.84982
-0.580987 1.71117 6.8769
-0.601278 1.70162 6.83919
-0.624238 1.70371 6.84433
-0.646238 1.70373 6.8445
-0.68119 1.70684 6.85072
-0.704143 1.70795 6.85687
-0.726234 1.70579 6.84507
-0.751079 1.7121 6.86517
-0.769363 1.70257 6.82844
-0.7961 1.71209 6.86251
-0.804331 1.70465 6.83267
-0.82916 1.711 6.85477
-0.849344 1.70566 6.831
-0.875143 1.71306 6.85709
-0.895311 1.70775 6.83531
-0.919272 1.70984 6.84046
-0.941308 1.70978 6.83563
-0.948531 1.70236 6.80679
-0.97533 1.70976 6.83289
-0.998313 1.71181 6.83503
-1.0175 1.70647 6.81125
-1.04147 1.70754 6.81541
-1.06065 1.7022 6.79164
-1.08839 1.71273 6.82569
-1.09752 1.70848 6.80882
-1.12338 1.71377 6.82694
-1.14348 1.71157 6.81312
-1.15979 1.70199 6.77338
-1.18855 1.71047 6.80448
-1.21153 1.71252 6.80662
-1.22974 1.70613 6.77985
-1.23982 1.70399 6.76996
-1.26473 1.70817 6.78108
-1.28581 1.70604 6.77127
-1.3136 1.71446 6.79836
-1.32698 1.70273 6.74863
-1.35094 1.70482 6.75378
-1.37685 1.70902 6.76591
-1.38593 1.70686 6.75501
-1.40604 1.70467 6.74119
-1.4329 1.70995 6.75932
-1.45687 1.71202 6.76247
-1.5029 1.71399 6.75879
-1.52398 1.71184 6.74798
-1.79233 1.71634 6.70293
-1.81146 1.7131 6.68612
-1.82248 1.71307 6.6832
-1.84454 1.71197 6.67538
-1.86463 1.7108 6.66355
-1.88376 1.70757 6.64674
-1.90676 1.70858 6.6469
-1.92685 1.70742 6.63506
-1.94597 1.7042 6.61925
-1.95699 1.70416 6.61633
-1.98001 1.70515 6.61449
-1.9962 1.70079 6.58968
-2.04028 1.70064 6.57801
2.22484 1.67909 6.44818
2.21415 1.68869 6.48812
1.65749 1.69668 6.66722
1.62454 1.69681 6.67447
1.60155 1.69584 6.67566
1.5775 1.69277 6.66988
1.55761 1.69599 6.68399
1.51163 1.69406 6.68636
1.47866 1.69316 6.69162
1.45566 1.69217 6.69181
1.43785 1.69754 6.71587
1.4138 1.69445 6.7091
1.39391 1.69769 6.7242
1.37093 1.69775 6.72737
1.35787 1.69464 6.71952
1.33483 1.69259 6.71472
1.31495 1.69582 6.72982
1.29198 1.6959 6.734
1.2679 1.69177 6.72424
1.247 1.69396 6.73636
1.2271 1.69717 6.74947
1.213 1.69299 6.73664
1.19523 1.70044 6.76666
1.17221 1.69843 6.76487
1.14606 1.69215 6.74515
1.12516 1.69536 6.75826
1.10213 1.69332 6.75447
1.07911 1.69131 6.75267
1.06917 1.69342 6.75972
1.04617 1.69245 6.7609
1.02629 1.69568 6.77601
1.00331 1.69575 6.77918
0.980243 1.69263 6.7704
0.958282 1.69372 6.77555
0.937421 1.698 6.79364
0.923274 1.69173 6.77484
0.902321 1.69283 6.78098
0.881475 1.69814 6.80106
0.855244 1.68872 6.7714
0.837514 1.69825 6.8064
0.813429 1.69411 6.79564
0.790407 1.69308 6.79283
0.779445 1.69416 6.79789
0.758522 1.69632 6.80802
0.734477 1.69425 6.80223
0.714646 1.69959 6.8243
0.690554 1.69543 6.81255
0.668616 1.69757 6.82068
0.645524 1.69341 6.80891
0.635655 1.69766 6.82593
0.611547 1.69348 6.81217
0.589594 1.69458 6.81832
0.569795 1.70198 6.84436
0.544572 1.69357 6.81567
0.523703 1.69783 6.83277
0.500688 1.69682 6.83096
0.489688 1.69683 6.83104
0.466673 1.69582 6.82923
0.445843 1.70116 6.85131
0.42172 1.69694 6.83555
0.400852 1.70121 6.85265
0.377767 1.69806 6.84187
0.354729 1.696 6.83707
0.343814 1.69917 6.84811
0.321861 1.70028 6.85426
0.298738 1.69606 6.83849
0.276908 1.7014 6.86058
0.253824 1.69825 6.8498
0.231886 1.70039 6.85793
0.208948 1.70252 6.86608
0.197879 1.7004 6.85719
0.175926 1.7015 6.86334
0.152842 1.69836 6.85256
0.130965 1.70261 6.86866
0.107843 1.69839 6.8529
0.0848512 1.69842 6.85407
0.0628675 1.69947 6.85622
0.0518063 1.69736 6.84833
0.0388359 1.69849 6.58638
0.0167907 1.69741 6.58056
0.00577533 1.69639 6.57866
-0.0161468 1.69955 6.58878
-0.037177 1.69851 6.58495
-0.0591224 1.70063 6.59209
-0.0802297 1.69644 6.5783
-0.102129 1.70065 6.59141
-0.124097 1.70172 6.59556
-0.135205 1.69752 6.5817
-0.15712 1.7007 6.59282
-0.178157 1.69964 6.588
-0.200202 1.69857 6.58218
-0.222125 1.70173 6.5923
-0.243186 1.69963 6.58449
-0.265147 1.70072 6.58964
-0.27523 1.69857 6.57874
-0.297192 1.69966 6.58389
-0.319198 1.69966 6.58306
-0.340236 1.6986 6.57823
-0.362197 1.70069 6.58337
-0.382373 1.69436 6.56061
-0.405234 1.69965 6.57871
-0.417102 1.70491 6.59572
-0.438201 1.70173 6.58292
-0.459324 1.69751 6.56714
-0.481269 1.69963 6.57428
-0.503206 1.70276 6.5824
-0.52519 1.70381 6.58455
-0.54722 1.70276 6.58073
-0.557304 1.70061 6.56984
-0.578318 1.70059 6.56799
-0.60121 1.70482 6.58211
-0.623186 1.70588 6.58526
-0.644285 1.7027 6.57246
-0.665315 1.70266 6.56862
-0.686391 1.70052 6.55881
-0.696444 1.69843 6.55191
-0.719358 1.70261 6.56303
-0.74045 1.69945 6.55123
-0.76238 1.70259 6.56035
-0.78534 1.70468 6.56549
-0.806424 1.70254 6.55468
-0.827453 1.70249 6.55084
-0.837491 1.70143 6.54593
-0.860459 1.7035 6.55007
-0.882435 1.70456 6.55323
-0.902557 1.70134 6.53742
-0.921672 1.69813 6.52261
-0.944632 1.70022 6.52775
-0.968523 1.70445 6.54187
-0.978561 1.70338 6.53696
-0.99866 1.7012 6.52415
-1.02258 1.70437 6.53428
-1.04173 1.7001 6.51549
-1.06276 1.70004 6.51064
-1.0876 1.70637 6.53174
-1.10772 1.70316 6.51694
-1.11775 1.70311 6.51301
-1.14073 1.70416 6.51517
-1.15986 1.70092 6.49836
-1.18565 1.70934 6.52543
-1.20481 1.70404 6.50465
-1.22776 1.70716 6.51178
-1.24878 1.70712 6.50794
-1.25883 1.70604 6.50203
-1.27987 1.70596 6.49619
-1.30573 1.71226 6.51529
-1.32582 1.7101 6.50348
-1.34782 1.71112 6.50363
-1.36791 1.70895 6.49181
-1.38991 1.70995 6.49096
-1.39802 1.70675 6.47707
-1.42195 1.7099 6.4862
-1.44686 1.7151 6.49831
-1.76351 1.71104 6.41375
-1.78553 1.712 6.4099
-1.80462 1.70985 6.39907
-1.81176 1.70559 6.38119
-1.83182 1.70548 6.37334
-1.85384 1.70544 6.3695
-1.86806 1.69904 6.3417
-1.88813 1.6979 6.33187
-1.90918 1.69783 6.32603
-1.93022 1.69776 6.32019
2.28333 1.67012 6.11482
2.27361 1.67866 6.15078
2.26287 1.68717 6.18474
1.86493 1.69351 6.32666
1.82298 1.69265 6.33399
1.80101 1.69172 6.33817
1.79207 1.69283 6.34522
1.70721 1.69318 6.36486
1.6543 1.69238 6.37627
1.63435 1.6935 6.3834
1.61544 1.69569 6.39552
1.59141 1.69265 6.39174
1.57043 1.69271 6.3949
1.54948 1.69281 6.40106
1.52645 1.69077 6.39726
1.51648 1.69083 6.40133
1.49863 1.69514 6.42141
1.47457 1.69203 6.41263
1.45361 1.69213 6.41879
1.43472 1.69535 6.43289
1.40962 1.69018 6.42015
1.38866 1.69027 6.42531
1.38179 1.69452 6.4423
1.35775 1.69247 6.43751
1.33676 1.69151 6.43968
1.3179 1.69578 6.45676
1.29486 1.69373 6.45297
1.27286 1.69174 6.45216
1.25294 1.69391 6.46328
1.24191 1.69286 6.45938
1.21681 1.68769 6.44664
1.19898 1.69303 6.4687
1.17696 1.69201 6.46688
1.15601 1.69212 6.47304
1.13611 1.69532 6.48615
1.10991 1.68696 6.46046
1.10102 1.69017 6.47448
1.08317 1.69548 6.49454
1.05908 1.69132 6.48278
1.03915 1.69247 6.49192
1.0182 1.69359 6.49906
0.993065 1.68834 6.48133
0.973127 1.68947 6.48946
0.964227 1.69267 6.50248
0.939089 1.68742 6.48475
0.919174 1.6896 6.49587
0.899251 1.69176 6.50598
0.876182 1.68865 6.4972
0.856305 1.6919 6.51331
0.836382 1.69406 6.52343
0.824321 1.69195 6.51555
0.801267 1.68886 6.50877
0.781344 1.69103 6.51889
0.758314 1.68998 6.51507
0.738391 1.69215 6.52519
0.716407 1.69219 6.52736
0.693276 1.68696 6.51061
0.68443 1.69226 6.5306
0.663446 1.69231 6.53276
0.641477 1.69238 6.53692
0.620508 1.69346 6.54106
0.599593 1.69563 6.55219
0.576462 1.6904 6.53544
0.554439 1.68937 6.53262
0.54557 1.69363 6.54963
0.523578 1.69366 6.55079
0.501563 1.69265 6.54897
0.48171 1.69794 6.56805
0.458511 1.69057 6.54233
0.436565 1.69169 6.54948
0.415634 1.69384 6.55861
0.40462 1.69382 6.55669
0.383589 1.69178 6.55288
0.362743 1.69709 6.57296
0.339559 1.69075 6.54922
0.318621 1.69288 6.55735
0.29663 1.69291 6.55852
0.286607 1.69188 6.55561
0.264669 1.69401 6.56374
0.243677 1.69404 6.5649
0.221654 1.69301 6.56208
0.200801 1.69831 6.58116
0.178701 1.69413 6.56839
0.156756 1.69625 6.57552
0.146787 1.69732 6.57958
0.12468 1.69313 6.56581
0.102711 1.6942 6.56996
0.0818347 1.69845 6.58606
0.0597198 1.69425 6.57128
-0.232026 1.70599 6.33927
-0.754235 1.70893 6.31316
-0.775226 1.70996 6.3143
-0.806271 1.70889 6.30855
-0.847323 1.70882 6.30186
-0.889336 1.70982 6.30016
-0.910358 1.70979 6.29732
-0.920357 1.7098 6.2974
-0.942349 1.71083 6.29855
-0.9834 1.71076 6.29186
-1.00251 1.70756 6.27805
-1.02544 1.7107 6.28617
-1.09656 1.70951 6.27073
-1.11856 1.71053 6.27088
-1.13956 1.71154 6.27102
-1.1596 1.71148 6.26617
-1.18061 1.71147 6.26433
-1.25272 1.71132 6.25087
-1.34392 1.70898 6.22459
-1.38788 1.71307 6.22886
-1.78755 1.71503 6.14183
-1.80664 1.71287 6.13001
-1.82181 1.70755 6.1082
-1.84282 1.70854 6.10634
-1.85383 1.70953 6.10541
-1.87097 1.70628 6.08758
-1.8871 1.70304 6.07075
-1.91008 1.70508 6.07289
-1.92524 1.70078 6.05207
-1.95016 1.70495 6.0622
-1.95725 1.70278 6.05028
-1.97926 1.70378 6.04943
-1.99248 1.69736 6.02062
-2.01251 1.69732 6.01677
-2.03451 1.69932 6.01591
-2.07264 1.69809 5.99921
-2.0817 1.697 5.99229
2.34409 1.67066 5.81632
2.33024 1.67496 5.83636
2.32153 1.68452 5.87329
2.29645 1.67939 5.86355
0.798535 1.69944 6.2776
0.466809 1.7012 6.31508
0.0371675 1.69228 6.09942
0.0161141 1.69019 6.0926
-0.00388528 1.6902 6.09275
-0.0239155 1.68916 6.08892
-0.033892 1.69021 6.09198
-0.0539071 1.68919 6.09015
-0.0737904 1.69443 6.10522
-0.093852 1.69133 6.09742
-0.113851 1.69134 6.09757
-0.134812 1.69343 6.10269
-0.154834 1.6934 6.09985
-0.164819 1.69344 6.10192
-0.183926 1.68924 6.08813
-0.204871 1.69136 6.09525
-0.224878 1.69136 6.0944
-0.2449 1.69133 6.09155
-0.264877 1.69239 6.09469
-0.285822 1.69451 6.10182
-0.294914 1.69134 6.08993
-0.315882 1.69341 6.09406
-0.33492 1.69135 6.08923
-0.355004 1.68921 6.07841
-0.375934 1.69135 6.08754
-0.395949 1.69134 6.08569
-0.415924 1.6934 6.08881
-0.425963 1.69133 6.08392
-0.445016 1.69024 6.07708
-0.465922 1.69443 6.08917
-0.487806 1.69967 6.10426
-0.506936 1.69443 6.08748
-0.525989 1.69334 6.08064
-0.546988 1.69336 6.0808
-0.55788 1.69757 6.09482
-0.576041 1.69228 6.07403
-0.596994 1.69438 6.08016
-0.617023 1.69434 6.07631
-0.637023 1.69435 6.07646
-0.657999 1.69641 6.07959
-0.678029 1.69537 6.07576
-0.687051 1.69533 6.07282
-0.708934 1.70057 6.08791
-0.726173 1.69112 6.05718
-0.746164 1.69315 6.0583
-0.768078 1.69633 6.06942
-0.786231 1.69105 6.04963
-0.807191 1.69413 6.05474
-0.817168 1.69519 6.0578
-0.837206 1.69413 6.05297
-0.854374 1.68881 6.03117
-0.875334 1.6909 6.0363
-0.895356 1.69087 6.03345
-0.916317 1.69296 6.03858
-0.9354 1.69081 6.02775
-0.945408 1.69081 6.02683
-0.96636 1.69391 6.03294
-0.986382 1.69388 6.03009
-1.00642 1.69282 6.02526
-1.02549 1.6907 6.01643
-1.06552 1.69166 6.01172
-1.07551 1.69269 6.01378
-1.09457 1.69159 6.00594
-1.11557 1.6926 6.00608
-1.13365 1.69045 5.99525
-1.15752 1.69672 6.01234
-1.19466 1.69347 5.99366
-1.20468 1.69345 5.99174
-1.22469 1.69343 5.98989
-1.24666 1.69551 5.99403
-1.26379 1.69227 5.9772
-1.28476 1.69433 5.98033
-1.30576 1.69536 5.98147
-1.3248 1.69528 5.97562
-1.33675 1.69738 5.98167
-1.35483 1.69524 5.97184
-1.37584 1.69624 5.97098
-1.39487 1.69618 5.96613
-1.42069 1.70556 5.99019
-1.43686 1.69923 5.9674
-1.45977 1.70442 5.9795
-1.46784 1.70228 5.96959
-1.49467 1.71064 5.99267
-1.51276 1.70848 5.98084
-1.55473 1.71255 5.98409
-1.57187 1.7083 5.96628
-1.58188 1.70829 5.96536
-1.61805 1.70498 5.94268
-1.63518 1.70074 5.92587
-1.64937 1.69438 5.90106
-1.67232 1.6985 5.90818
-1.68844 1.69527 5.89234
-1.69844 1.69527 5.89142
-1.71751 1.69415 5.88258
2.3585 1.67252 5.60515
2.34977 1.68105 5.6401
2.33182 1.68116 5.64723
2.31798 1.68547 5.66727
1.93107 1.68987 5.81314
1.88213 1.68904 5.82253
1.86012 1.68602 5.82074
1.82531 1.69042 5.84594
1.80533 1.69048 5.84909
1.7664 1.68964 5.85839
1.75538 1.6886 5.85549
1.73542 1.68871 5.86164
1.71648 1.68882 5.86878
1.6755 1.6869 5.87212
1.65858 1.68907 5.88322
1.63862 1.68916 5.88837
1.63068 1.69029 5.89641
1.61072 1.69037 5.90156
1.57075 1.68946 5.90588
1.5477 1.68538 5.89911
1.5308 1.68758 5.91221
1.51289 1.69077 5.9243
1.50186 1.68872 5.92041
1.48188 1.68778 5.92357
1.46191 1.68784 5.92672
1.44195 1.68794 5.93287
1.42196 1.68697 5.93404
1.40093 1.68493 5.93023
1.38097 1.68603 5.93636
1.37097 1.68502 5.93545
1.35204 1.68619 5.94558
1.33517 1.69045 5.96265
1.31309 1.6863 5.95187
1.29207 1.68429 5.95006
1.27315 1.68645 5.96017
1.25315 1.68546 5.96034
1.24525 1.68866 5.97335
1.2242 1.68559 5.96755
1.20425 1.68669 5.97369
1.18324 1.68468 5.97188
1.16534 1.68788 5.98497
1.14533 1.68688 5.98413
1.1243 1.68484 5.98032
1.11536 1.68597 5.98837
1.09537 1.68599 5.98952
1.07537 1.68502 5.99069
1.0554 1.6851 5.99484
1.03438 1.68407 5.99201
1.0165 1.68732 6.0081
1.00544 1.68419 5.99923
0.985467 1.68527 6.00336
0.967597 1.68853 6.02045
0.944428 1.68122 5.99873
0.926551 1.68547 6.0148
0.904482 1.68236 6.00602
0.88449 1.68139 6.00718
0.875544 1.6835 6.01422
0.855552 1.68252 6.01538
0.835552 1.68254 6.01553
0.81666 1.68576 6.02963
0.797722 1.68789 6.03774
0.776684 1.68583 6.03293
0.75666 1.6838 6.03011
0.745653 1.6828 6.02921
0.72673 1.68596 6.03931
0.706746 1.686 6.04146
0.686715 1.68396 6.03764
0.6667 1.68294 6.0358
0.646716 1.68299 6.03795
0.626778 1.68512 6.04607
0.615662 1.67991 6.03123
0.596809 1.6852 6.0503
0.576778 1.68316 6.04648
0.556763 1.68214 6.04464
0.536779 1.68219 6.04679
0.517895 1.68642 6.06188
0.496787 1.68223 6.04809
0.486818 1.6833 6.05216
0.467919 1.6865 6.06525
0.446903 1.68549 6.06342
0.426912 1.68552 6.06458
0.406889 1.68449 6.06174
0.387974 1.68766 6.07284
0.367967 1.68666 6.072
0.356929 1.6856 6.0671
0.33689 1.68354 6.06228
0.316945 1.68566 6.0694
0.296961 1.6857 6.07155
0.276907 1.68361 6.06473
0.256977 1.68576 6.07385
0.236962 1.68575 6.072
0.226954 1.68474 6.07109
0.207016 1.68687 6.07921
0.187009 1.68687 6.07836
0.16701 1.68688 6.07852
0.146995 1.68587 6.07668
0.127088 1.68906 6.08878
0.107065 1.68803 6.08595
0.0970196 1.68695 6.08004
0.0770202 1.68697 6.08019
0.0570973 1.68913 6.09031
0.0425557 1.6901 5.88538
0.0226335 1.69326 5.89548
0.00350286 1.68803 5.8787
-0.00639645 1.69223 5.89172
-0.0253808 1.69227 5.89386
-0.045411 1.69123 5.89002
-0.0643716 1.69331 5.89514
-0.0843321 1.6954 5.90026
-0.103409 1.69227 5.89045
-0.122455 1.69019 5.88462
-0.132469 1.69017 5.8827
-0.152446 1.69123 5.88583
-0.171445 1.69124 5.88597
-0.191337 1.69546 5.90006
-0.210444 1.69127 5.88627
-0.230451 1.69127 5.88542
-0.249442 1.6923 5.88655
-0.259488 1.69022 5.88065
-0.278449 1.69231 5.88576
-0.298418 1.69338 5.8899
-0.317463 1.6923 5.88406
-0.337462 1.69232 5.88421
-0.356439 1.69338 5.88734
-0.376461 1.69335 5.88449
-0.385499 1.69228 5.87957
-0.40546 1.69337 5.8847
-0.425428 1.69544 5.88882
-0.444442 1.69543 5.88697
-0.463496 1.69334 5.88014
-0.483503 1.69334 5.87929
-0.503471 1.69541 5.88341
-0.513393 1.69857 5.89344
-0.530608 1.69116 5.86568
-0.552476 1.69643 5.88277
-0.570576 1.69325 5.86995
-0.591475 1.69746 5.88305
-0.609605 1.69322 5.86624
-0.630504 1.69743 5.87934
-0.637642 1.69217 5.86147
-0.658602 1.69526 5.86658
-0.677601 1.69527 5.86672
-0.698562 1.69736 5.87185
-0.715715 1.69208 5.85206
-0.734714 1.69309 5.85218
-0.753775 1.69099 5.84436
-0.765651 1.69623 5.86037
-0.783758 1.69304 5.84655
-0.802765 1.69304 5.8457
-0.822787 1.69301 5.84285
-0.841809 1.69298 5.83999
-0.861769 1.69606 5.8451
-0.881745 1.69712 5.84823
-0.889875 1.69288 5.83135
-0.908906 1.69183 5.82751
-0.927928 1.6918 5.82466
-0.94695 1.69177 5.8218
-0.968848 1.69698 5.83489
-0.986955 1.69378 5.82107
-1.00501 1.69269 5.81422
-1.01694 1.69584 5.82327
-1.03501 1.69472 5.81442
-1.05785 1.70103 5.8345
-1.07308 1.6926 5.80474
-1.09401 1.69674 5.81383
-1.11115 1.69249 5.79602
-1.12113 1.69353 5.79808
-1.14016 1.69348 5.79423
-1.16018 1.69447 5.79236
-1.17724 1.69235 5.78352
-1.19726 1.69233 5.78167
-1.21629 1.69229 5.77781
-1.23532 1.69224 5.77396
-1.24533 1.69222 5.77203
-1.26531 1.69528 5.77514
-1.28338 1.69314 5.76531
-1.3034 1.69413 5.76344
-1.32436 1.69622 5.76857
-1.34049 1.69198 5.75175
-1.35951 1.69295 5.74888
-1.37338 1.69921 5.76589
-1.3905 1.69498 5.75008
-1.41144 1.6991 5.75718
-1.43048 1.69904 5.75232
-1.4534 1.70321 5.76244
-1.46759 1.69685 5.73764
-1.48857 1.69891 5.74076
-1.49953 1.70099 5.74582
-1.5205 1.70406 5.74993
-1.54147 1.70612 5.75306
-1.55857 1.70394 5.74022
-1.58246 1.71017 5.75431
-1.59666 1.70379 5.7285
-1.60692 1.6943 5.69472
-1.61984 1.69845 5.70475
-1.63694 1.69527 5.69193
-1.69502 1.69717 5.68234
2.36778 1.67114 5.37707
2.34881 1.6702 5.38023
2.32924 1.68404 5.43618
1.82559 1.68704 5.61795
1.78868 1.68723 5.62923
1.75278 1.68847 5.64348
1.66797 1.68888 5.66812
1.65105 1.69106 5.67922
1.63207 1.69112 5.68236
1.61107 1.68912 5.68155
1.58105 1.68611 5.67982
1.5652 1.69142 5.69986
1.54417 1.68836 5.69507
1.52519 1.68742 5.69822
1.50621 1.68747 5.70136
1.4883 1.68966 5.71347
1.47725 1.68657 5.7066
1.45931 1.6877 5.71472
1.44137 1.68883 5.72284
1.41828 1.68367 5.71108
1.40138 1.68688 5.72417
1.38346 1.68904 5.73427
1.37346 1.68806 5.73536
1.35345 1.68704 5.73353
1.33552 1.68821 5.74365
1.31654 1.68825 5.74579
1.29863 1.69043 5.75689
1.2786 1.6884 5.75407
1.25965 1.6885 5.76021
1.24966 1.68852 5.76129
1.22965 1.68752 5.76046
1.2117 1.68864 5.76758
1.19066 1.68556 5.76178
1.17376 1.68877 5.77486
1.15271 1.68569 5.76906
1.13479 1.68787 5.78017
1.12479 1.68788 5.78024
1.10479 1.68589 5.78042
1.0837 1.68173 5.76864
1.06789 1.6881 5.79267
1.04684 1.68502 5.78687
1.02889 1.68614 5.79399
1.00786 1.68408 5.78918
0.99887 1.68412 5.79125
0.979917 1.68522 5.79738
0.961971 1.68634 5.8045
0.941979 1.68637 5.80565
0.923033 1.68748 5.81277
0.903009 1.68545 5.80995
0.885087 1.68861 5.82004
0.87401 1.68448 5.81019
0.855041 1.68555 5.81431
0.837134 1.68874 5.8264
0.81711 1.68671 5.82358
0.798157 1.68781 5.82971
0.780265 1.69103 5.8438
0.757018 1.68058 5.81213
0.749142 1.68582 5.82811
0.729149 1.68485 5.82928
0.711211 1.68698 5.83738
0.69115 1.68388 5.82958
0.672196 1.68498 5.8357
0.65215 1.6829 5.82988
0.633258 1.68612 5.84398
0.623235 1.68509 5.84107
0.603205 1.68404 5.83724
0.584189 1.68203 5.83541
0.565213 1.68309 5.83854
0.546244 1.68416 5.84267
0.527298 1.68528 5.84979
0.507306 1.6853 5.85094
0.497299 1.6853 5.85002
0.47943 1.68956 5.86709
0.459369 1.68646 5.85929
0.439331 1.6854 5.85445
0.420316 1.68438 5.85261
0.401409 1.68757 5.86471
0.381347 1.68447 5.8569
0.372455 1.68868 5.87091
0.353533 1.69185 5.88101
0.333441 1.68768 5.86922
0.314418 1.68665 5.86638
0.294395 1.68562 5.86354
0.275403 1.68565 5.86469
0.255419 1.6857 5.86684
0.246427 1.68572 5.8679
0.227505 1.68888 5.878
0.207505 1.68889 5.87815
0.188498 1.68789 5.87731
0.16856 1.69103 5.88542
0.14946 1.68685 5.87262
0.129522 1.68898 5.88074
0.120553 1.69005 5.88479
0.100554 1.69006 5.88494
0.0815853 1.69113 5.88907
0.0616324 1.69324 5.89519
0.038449 1.68893 5.73841
0.0193642 1.68478 5.72761
0.000403608 1.68687 5.73272
-0.0185651 1.68794 5.73685
-0.0377032 1.68269 5.71907
-0.0565251 1.69004 5.74211
-0.065602 1.6869 5.73222
-0.08454 1.68903 5.74033
-0.103616 1.6869 5.7305
-0.122608 1.68693 5.73165
-0.141669 1.68482 5.72382
-0.160553 1.68906 5.7389
-0.179675 1.68484 5.72311
-0.188621 1.68695 5.73014
-0.208567 1.68906 5.73726
-0.226619 1.68797 5.73042
-0.246549 1.69112 5.73952
-0.265556 1.69112 5.73866
-0.28361 1.68903 5.73183
-0.302617 1.68903 5.73097
-0.312663 1.68695 5.72508
-0.330762 1.68377 5.71226
-0.349692 1.68691 5.72136
-0.369661 1.68799 5.72549
-0.387683 1.68796 5.72263
-0.407651 1.68903 5.72676
-0.426658 1.68903 5.72591
-0.43565 1.69005 5.72696
-0.453734 1.6869 5.71614
-0.473718 1.68795 5.71828
-0.493609 1.69317 5.73235
-0.510754 1.6879 5.71356
-0.530723 1.68897 5.71769
-0.548783 1.68787 5.70984
-0.55783 1.68579 5.70394
-0.595843 1.68678 5.70221
-0.614819 1.68784 5.70534
-0.634803 1.68889 5.70747
-0.652848 1.68781 5.70163
-0.672801 1.69091 5.70773
-0.680885 1.68776 5.69684
-0.6999 1.68774 5.69498
-0.717953 1.68665 5.68813
-0.755958 1.68766 5.6874
-0.774973 1.68765 5.68555
-0.803956 1.6887 5.68775
-0.841031 1.68758 5.67804
-0.898051 1.68957 5.67544
-0.908058 1.68957 5.67452
-0.925142 1.68742 5.66368
-0.945133 1.68844 5.66481
-0.963155 1.68841 5.66195
-1.04824 1.68931 5.65158
-1.10625 1.69131 5.64898
-1.14235 1.69014 5.63627
-1.18941 1.69006 5.62862
-1.22647 1.68997 5.6209
-1.24452 1.68888 5.61406
-1.27353 1.69088 5.61324
-1.3106 1.68976 5.60354
-1.33058 1.69182 5.60666
-1.34958 1.69384 5.60677
-1.38666 1.6927 5.59607
-1.39955 1.69792 5.61009
-1.41761 1.69681 5.60224
-1.43565 1.69675 5.59738
-1.45661 1.69984 5.60249
-1.47565 1.69978 5.59763
-1.49564 1.70181 5.59875
-1.51756 1.70597 5.60886
-1.53047 1.71014 5.6199
-1.54561 1.70589 5.60207
-1.55978 1.70057 5.58025
2.42446 1.67149 5.20061
2.40547 1.66954 5.20279
2.39872 1.67801 5.23472
1.89032 1.68749 5.44844
1.87236 1.68759 5.45457
1.86133 1.68553 5.44968
1.82646 1.68681 5.46693
1.77055 1.68604 5.48036
1.75567 1.68927 5.49543
1.74259 1.68513 5.48559
1.72668 1.68732 5.49768
1.70772 1.6874 5.50182
1.68872 1.68642 5.50298
1.67079 1.68757 5.5121
1.64769 1.6814 5.49936
1.64487 1.68774 5.52229
1.62488 1.68677 5.52346
1.60485 1.68474 5.52064
1.58795 1.68694 5.53373
1.56896 1.68597 5.53489
1.55202 1.6871 5.543
1.53306 1.68719 5.54815
1.52406 1.6872 5.54821
1.50406 1.68521 5.54839
1.48406 1.68422 5.54856
1.47021 1.68853 5.5686
1.4471 1.68334 5.55485
1.42815 1.68344 5.56099
1.4102 1.68455 5.56711
1.40533 1.6888 5.58409
1.38326 1.68468 5.57531
1.36325 1.68368 5.57448
1.34736 1.68692 5.58955
1.32837 1.68595 5.59071
1.30834 1.6839 5.58689
1.29042 1.68506 5.59701
1.28246 1.68614 5.60206
1.26142 1.68408 5.59724
1.24345 1.68416 5.60138
1.22653 1.68633 5.61248
1.20857 1.68642 5.61761
1.18755 1.68439 5.6148
1.17165 1.68759 5.62787
1.15854 1.6824 5.61405
1.14264 1.6856 5.62712
1.12056 1.68147 5.61735
1.10261 1.68257 5.62347
1.08468 1.68472 5.63257
1.06567 1.68271 5.63174
1.04461 1.67961 5.62395
1.03668 1.68175 5.63298
1.01975 1.6839 5.64207
1.00076 1.68292 5.64323
0.982841 1.6861 5.65432
0.962802 1.68304 5.64952
0.94378 1.68201 5.64668
0.924818 1.6821 5.65182
0.914795 1.68106 5.64891
0.897895 1.68427 5.66199
0.877841 1.68118 5.65519
0.86095 1.6854 5.66925
0.840926 1.68337 5.66643
0.821926 1.68238 5.66659
