-5.79437 0.93852 9.72528
-5.77911 0.928074 9.62831
-5.7688 0.91972 9.53734
-5.75549 0.910363 9.44636
-5.74417 0.901023 9.3564
-5.72172 0.892927 9.28335
-5.70742 0.88357 9.19236
-5.69607 0.875289 9.10639
-5.68966 0.86813 9.02844
-5.67435 0.858772 8.93745
-5.66397 0.850551 8.85548
-5.63504 0.835443 8.71446
-5.61576 0.826038 8.62045
-5.60535 0.818876 8.54246
-5.59396 0.810684 8.46249
-5.59243 0.804751 8.39956
-5.57509 0.795465 8.31355
-5.5327 0.774297 8.10151
-5.53015 0.768407 8.04157
-5.50728 0.7542 7.89359
-5.47786 0.733101 7.68565
-5.46124 0.727334 7.63461
-5.45768 0.722473 7.57664
-5.43929 0.714276 7.49662
-5.42225 0.702384 7.36965
-5.39451 0.685922 7.20466
-5.37311 0.676723 7.12462
-5.35207 0.664843 6.99862
-5.3409 0.654207 6.88868
-5.31506 0.639938 6.73668
-5.29892 0.628254 6.62371
-5.2844 0.622297 6.55968
-5.2778 0.617522 6.50769
-5.2613 0.610533 6.44166
-5.26244 0.609253 6.42269
-5.24594 0.602279 6.35766
-5.21948 0.583256 6.15471
-5.22573 0.580772 6.12179
-5.19745 0.57133 6.02571
-5.17626 0.560746 5.91969
-5.18151 0.558262 5.88676
-5.16892 0.552454 5.83274
-5.15634 0.54763 5.77771
-5.13058 0.532184 5.61373
-5.12194 0.527483 5.56672
-5.11852 0.520341 5.48979
-5.08008 0.501264 5.28376
-5.07267 0.494119 5.2068
-4.75046 0.32201 3.25565
-4.73318 0.314606 3.16161
-4.72937 0.312233 3.13662
-4.72175 0.308473 3.08561
-4.71893 0.307115 3.0616
-4.70874 0.298539 2.95564
-4.69796 0.296087 2.92559
-4.69515 0.29373 2.9016
-4.69025 0.292519 2.88758
-4.68958 0.289882 2.84461
-4.67796 0.286134 2.79457
-4.67812 0.283823 2.7736
-4.66733 0.281401 2.74555
-4.6655 0.280074 2.72355
-4.65693 0.276224 2.66654
-4.65907 0.274944 2.64757
-4.65028 0.272538 2.62054
-4.64545 0.270194 2.59753
-4.64958 0.269945 2.58056
-4.63617 0.263781 2.50254
-4.62437 0.261373 2.47549
-4.62851 0.26011 2.45753
-4.62268 0.258765 2.43451
-4.62276 0.257617 2.42452
-4.59653 0.242134 2.19052
-4.56377 0.229683 2.02644
-4.52506 0.217138 1.85631
-4.52259 0.2131 1.78634
-4.50883 0.210617 1.75427
-4.51694 0.210415 1.74033
-4.50424 0.206829 1.70128
-4.50835 0.20661 1.68631
-4.49073 0.202857 1.63623
-4.49409 0.200149 1.58829
-4.49223 0.198881 1.57029
-4.48138 0.197577 1.55023
-4.48749 0.197359 1.53527
-4.47758 0.196175 1.52322
-4.47372 0.194905 1.5052
-4.48082 0.194718 1.49226
-4.46598 0.192382 1.47018
-4.46823 0.190909 1.43821
-4.46635 0.189656 1.42121
-4.46641 0.189553 1.41421
-4.45756 0.18825 1.39416
-4.45469 0.186997 1.37716
-4.46178 0.186809 1.36421
-4.45393 0.185522 1.34517
-4.44607 0.183235 1.32614
-4.4442 0.182982 1.30913
-4.43352 0.179353 1.2671
-4.44461 0.180183 1.25517
-4.42678 0.177845 1.23306
-4.42191 0.17659 1.21604
-4.42507 0.176266 1.19407
-4.42419 0.175029 1.17808
-4.43029 0.174841 1.16513
-4.41744 0.173535 1.14504
-4.42066 0.172108 1.11609
-4.40482 0.169786 1.095
-4.4169 0.170632 1.08408
-4.402 0.168429 1.07099
-4.40012 0.168205 1.05598
-4.39824 0.166967 1.03998
-4.39336 0.165727 1.02396
-4.39547 0.165506 1.00898
-4.39958 0.165302 0.995012
-4.38965 0.164146 0.984953
-4.38977 0.162924 0.969969
-4.3829 0.161668 0.952934
-4.38411 0.161239 0.923945
-4.37636 0.15876 0.891919
-4.37846 0.158554 0.877936
-4.37973 0.157022 0.841964
-4.36388 0.155729 0.822861
-4.3094 0.13876 0.489655
-4.25404 0.124538 0.1394
-4.24241 0.121804 0.0903465
-4.24061 0.121403 0.0633352
-4.23217 0.119301 -0.0107075
-4.22938 0.117899 -0.0377115
-4.22358 0.116495 -0.0647381
-4.22272 0.116213 -0.083743
-4.21403 0.1146 -0.12479
-4.22013 0.115412 -0.137758
-4.20723 0.11421 -0.150839
-4.21128 0.114109 -0.157808
-4.20538 0.112913 -0.170837
-4.20148 0.112717 -0.183865
-4.20858 0.113515 -0.197825
-5.87219 1.05667 10.1362
-5.83159 1.03691 9.95213
-5.81437 1.02538 9.84916
-5.81 1.01716 9.76724
-5.77993 1.00332 9.6442
-5.78145 0.996313 9.57631
-5.76519 0.985851 9.47832
-5.73485 0.975556 9.39224
-5.72055 0.96617 9.29925
-5.71611 0.958071 9.22533
-5.69984 0.947654 9.13035
-5.69341 0.940539 9.0554
-5.67513 0.930105 8.9594
-5.67266 0.923082 8.89048
-5.64524 0.913938 8.81439
-5.64471 0.908005 8.75147
-5.62147 0.896509 8.65145
-5.62491 0.891667 8.59454
-5.60066 0.880185 8.49551
-5.59617 0.87319 8.42857
-5.5741 0.860354 8.30558
-5.54785 0.848885 8.20754
-5.54631 0.842981 8.14661
-5.53883 0.835954 8.07764
-5.51199 0.819685 7.92566
-5.47642 0.799863 7.73666
-5.46298 0.791773 7.66367
-5.45348 0.785789 7.59768
-5.43844 0.771899 7.47075
-5.43388 0.766037 7.4128
-5.41466 0.755499 7.30979
-5.38733 0.745177 7.22173
-5.39166 0.741544 7.17881
-5.37025 0.733374 7.10076
-5.37656 0.729786 7.06085
-5.35513 0.721646 6.9848
-5.35631 0.719307 6.96184
-5.33623 0.706501 6.84086
-5.31777 0.699437 6.76982
-5.32306 0.695864 6.73091
-5.30359 0.687814 6.66087
-5.2866 0.674833 6.52792
-5.26316 0.666721 6.45385
-5.26052 0.662024 6.40689
-5.24895 0.656187 6.35088
-5.21272 0.632697 6.11693
-5.2051 0.626952 6.06695
-5.19549 0.62219 6.01594
-5.18489 0.616398 5.96294
-5.19214 0.61393 5.93102
-5.16582 0.604579 5.84095
-5.16215 0.59994 5.79799
-5.15252 0.595208 5.74898
-5.14884 0.591583 5.707
-5.14318 0.586913 5.66202
-5.13156 0.581165 5.61201
-5.11612 0.574059 5.53799
-5.10945 0.569403 5.494
-5.10873 0.566855 5.45703
-5.10008 0.562182 5.41202
-5.04848 0.530454 5.09506
-5.01017 0.50914 4.87306
-5.00246 0.505557 4.83405
-5.00073 0.502038 4.79908
-4.99513 0.49725 4.7461
-4.98392 0.487702 4.64215
-4.96529 0.481964 4.59308
-4.95856 0.478426 4.55708
-4.95769 0.477189 4.54109
-4.95197 0.473637 4.50409
-4.94149 0.467608 4.43509
-4.93179 0.463024 4.39608
-4.92903 0.460548 4.36409
-4.92329 0.457041 4.3301
-4.92141 0.455803 4.3141
-4.88693 0.436803 4.11309
-4.87196 0.424779 3.97714
-4.86918 0.422348 3.94815
-4.85646 0.418791 3.9111
-4.84126 0.409226 3.80612
-4.78723 0.375385 3.41416
-4.75341 0.361067 3.25909
-4.7468 0.356307 3.20811
-4.7391 0.35271 3.1681
-4.7275 0.347917 3.11507
-4.72287 0.344203 3.06708
-4.70487 0.333221 2.93409
-4.70321 0.330569 2.89011
-4.67989 0.32222 2.80005
-4.65678 0.312457 2.682
-4.45926 0.220796 1.4307
-4.44696 0.214425 1.33869
-4.42965 0.209051 1.24663
-4.40482 0.198753 1.09257
-4.40892 0.198549 1.0786
-4.39635 0.195711 1.02254
-4.38948 0.194454 1.00551
-4.3937 0.193028 0.976554
-4.38776 0.19189 0.967525
-4.38388 0.191665 0.952497
-4.38599 0.190445 0.937529
-4.37623 0.188964 0.905473
-4.37035 0.187723 0.889445
-4.37351 0.186414 0.868485
-4.35987 0.183709 0.821416
-4.36497 0.183505 0.807455
-4.33994 0.176592 0.679352
-4.34105 0.176385 0.665361
-4.3381 0.17528 0.658354
-4.33322 0.174039 0.642334
-4.32744 0.172606 0.613307
-4.32183 0.170847 0.562284
-4.30164 0.165233 0.4542
-4.29596 0.163607 0.412176
-4.28554 0.16046 0.335133
-4.2608 0.152969 0.168035
-4.24827 0.150057 0.106975
-4.23688 0.146849 0.0259252
-4.23398 0.14664 0.0119046
-4.22054 0.143535 -0.0621609
-4.21209 0.141448 -0.135204
-4.20355 0.139553 -0.195248
-4.20764 0.140363 -0.208231
-5.82981 1.10539 9.9161
-5.79315 1.08476 9.74011
-5.77889 1.07431 9.64314
-5.76758 1.06395 9.5522
-5.75429 1.05357 9.45924
-5.73606 1.04205 9.35726
-5.73164 1.03292 9.28135
-5.69685 1.01453 9.12134
-5.68451 1.00524 9.03537
-5.67415 0.995994 8.95142
-5.66772 0.987879 8.87648
-5.65338 0.977581 8.78951
-5.61952 0.960337 8.63949
-5.61207 0.952251 8.56654
-5.60068 0.944059 8.48657
-5.59323 0.935974 8.41362
-5.57687 0.925719 8.32964
-5.5704 0.918678 8.25968
-5.53944 0.902643 8.12367
-5.53097 0.895601 8.0537
-5.52052 0.887528 7.98173
-5.51006 0.879455 7.90976
-5.50356 0.872489 7.84481
-5.49407 0.865476 7.77683
-5.48064 0.856356 7.70185
-5.4581 0.849452 7.64178
-5.45653 0.843622 7.58584
-5.45198 0.836731 7.5259
-5.43555 0.828609 7.45089
-5.42901 0.821702 7.38993
-5.41951 0.814733 7.32496
-5.41296 0.808855 7.26599
-5.38742 0.800934 7.2049
-5.38186 0.795071 7.14694
-5.36738 0.787055 7.07894
-5.36379 0.781253 7.02499
-5.35722 0.775405 6.96802
-5.34868 0.769511 6.90803
-5.33615 0.762569 6.84503
-5.32841 0.758061 6.81104
-5.30798 0.749951 6.73699
-5.30336 0.744193 6.68604
-5.2958 0.738344 6.62906
-5.30306 0.735831 6.59415
-5.28161 0.72675 6.52211
-5.28689 0.724206 6.48518
-5.25569 0.711615 6.37912
-5.22361 0.684862 6.12724
-5.20691 0.680258 6.08717
-5.1993 0.674498 6.03619
-5.19366 0.669799 5.98921
-5.18604 0.665053 5.93922
-5.18732 0.661506 5.90228
-5.17474 0.654684 5.84728
-5.16597 0.651218 5.81626
-5.15734 0.646502 5.76826
-5.14672 0.640739 5.71725
-5.148 0.637193 5.68031
-5.13044 0.631322 5.62226
-5.14362 0.629991 5.59937
-5.12308 0.622073 5.53833
-5.11231 0.618622 5.50829
-5.10295 0.610372 5.42433
-5.09132 0.604638 5.37532
-5.08861 0.601074 5.33735
-5.07996 0.596387 5.29135
-5.07725 0.592822 5.25338
-5.07056 0.588196 5.21139
-5.05906 0.582226 5.14638
-5.03973 0.571909 5.05838
-5.04295 0.569468 5.02843
-5.02833 0.564732 4.97939
-5.02262 0.560151 4.9404
-5.00265 0.547138 4.80543
-4.99122 0.539005 4.72945
-4.99146 0.536547 4.69849
-4.96823 0.526035 4.59745
-4.95303 0.515455 4.49148
-4.94333 0.510871 4.45247
-4.93374 0.506065 4.39846
-4.91752 0.495529 4.29548
-4.87761 0.469415 4.01953
-4.81919 0.436356 3.68053
-4.72365 0.38257 3.09153
-4.44676 0.244762 1.36124
-4.44389 0.243509 1.34424
-4.4442 0.241917 1.30426
-4.43058 0.238152 1.2532
-4.4239 0.235525 1.21119
-4.42026 0.232827 1.16419
-4.41338 0.23157 1.14716
-4.40781 0.227737 1.09116
-4.40228 0.224815 1.02916
-4.39141 0.222541 1.0111
-4.39946 0.223458 1.00515
-4.38571 0.22096 0.97208
-4.39181 0.220757 0.958127
-4.37618 0.217035 0.910058
-4.37236 0.215677 0.886046
-4.36847 0.214452 0.871033
-4.36381 0.211782 0.826031
-4.35711 0.2102 0.786998
-4.35144 0.207545 0.742989
-4.3304 0.200649 0.615915
-4.32168 0.198095 0.578882
-4.3179 0.196663 0.549871
-4.29882 0.190843 0.427796
-4.27399 0.18353 0.272696
-4.2693 0.18192 0.231679
-4.26667 0.180207 0.183678
-4.25389 0.178769 0.154599
-4.24644 0.175668 0.0805783
-4.23681 0.17395 0.0325245
-4.22931 0.171953 -0.0345117
-4.22846 0.170656 -0.0545016
-4.21767 0.169248 -0.0815659
-4.21287 0.167845 -0.108585
-4.21408 0.167446 -0.135574
-4.21212 0.167356 -0.141588
-4.20752 0.166568 -0.194618
-5.67376 1.07165 8.9953
-5.66635 1.06351 8.91835
-5.64707 1.05209 8.82336
-5.64656 1.04412 8.75847
-5.63912 1.03604 8.68552
-5.61564 1.027 8.61647
-5.60623 1.01786 8.53952
-5.59679 1.00975 8.46556
-5.58439 1.00058 8.38659
-5.57199 0.991397 8.30763
-5.56848 0.983448 8.24371
-5.55705 0.975315 8.16773
-5.53651 0.967412 8.10769
-5.52408 0.958293 8.03272
-5.51857 0.951342 7.96877
-5.50712 0.943254 7.89579
-5.49864 0.935241 7.82784
-5.49015 0.927244 7.76088
-5.48263 0.920291 7.69692
-5.45612 0.911325 7.63284
-5.4496 0.904388 7.56989
-5.44703 0.898558 7.51395
-5.43554 0.890543 7.44597
-5.429 0.88365 7.38602
-5.40799 0.868697 7.25506
-5.38839 0.861913 7.20301
-5.37886 0.854989 7.14103
-5.37032 0.848095 7.08106
-5.3687 0.842339 7.03012
-5.36115 0.835475 6.97216
-5.35358 0.829626 6.91518
-5.32539 0.816022 6.80816
-5.33366 0.813496 6.77225
-5.31223 0.804385 6.69821
-5.3086 0.798657 6.64926
-5.27973 0.781446 6.50128
-5.28304 0.777842 6.46035
-5.26355 0.769836 6.39332
-5.25 0.761939 6.33332
-5.23129 0.743424 6.16443
-5.15781 0.692505 5.70057
-5.14619 0.686757 5.65056
-5.12819 0.67179 5.51863
-5.12139 0.6694 5.49261
-5.1031 0.659011 5.39961
-5.09299 0.646272 5.28271
-5.07056 0.637131 5.20666
-5.05374 0.620825 5.05176
-5.04133 0.612662 4.97377
-5.03576 0.606829 4.91781
-5.01541 0.597557 4.83278
-5.01266 0.594052 4.79881
-5.00421 0.58698 4.72684
-4.9867 0.57902 4.66282
-4.9909 0.577624 4.63587
-4.98319 0.573056 4.59787
-4.97249 0.568456 4.55785
-4.95706 0.560335 4.48285
-4.95618 0.559098 4.46685
-4.92552 0.540471 4.29087
-4.90896 0.533601 4.23284
-4.89788 0.521802 4.11192
-4.88538 0.514816 4.04592
-4.8847 0.511194 4.00396
-4.87695 0.5077 3.97095
-4.87517 0.505269 3.94197
-4.87338 0.502854 3.91399
-4.86484 0.49696 3.854
-4.86096 0.49472 3.838
-4.8542 0.491242 3.806
-4.84466 0.485347 3.74601
-4.83292 0.48182 3.71097
-4.83311 0.47945 3.686
-4.82833 0.476018 3.65701
-4.82644 0.474809 3.64301
-4.8157 0.471298 3.60898
-4.81589 0.468928 3.58401
-4.80415 0.465417 3.54997
-4.80831 0.464109 3.52902
-4.7896 0.458518 3.48995
-4.79973 0.458274 3.47303
-4.7869 0.454939 3.45098
-4.79702 0.45471 3.43506
-4.79422 0.452323 3.40907
-4.78047 0.44881 3.37501
-4.77585 0.444066 3.32504
-4.76527 0.438245 3.27004
-4.76735 0.438098 3.26006
-4.75974 0.433323 3.20806
-4.73803 0.427745 3.16998
-4.74716 0.4275 3.15305
-4.73837 0.424079 3.12503
-4.74045 0.423933 3.11504
-4.73365 0.421528 3.08802
-4.73283 0.419187 3.06505
-4.72006 0.415719 3.034
-4.72719 0.415473 3.01706
-4.70846 0.410941 2.98198
-4.70772 0.407437 2.94802
-4.70489 0.406095 2.92501
-4.70322 0.402442 2.88105
-4.69443 0.399037 2.85403
-4.68978 0.395352 2.80804
-4.67707 0.390766 2.76901
-4.66645 0.386033 2.71999
-4.67555 0.385832 2.70606
-4.67173 0.384474 2.68205
-4.66507 0.379804 2.63706
-4.66216 0.379639 2.62604
-4.65136 0.376231 2.59901
-4.6555 0.374968 2.58105
-4.6437 0.37256 2.554
-4.64286 0.370248 2.53302
-4.63604 0.367903 2.51
-4.64316 0.367671 2.49406
-4.62531 0.364362 2.47397
-4.63741 0.365179 2.46105
-4.61864 0.360721 2.43097
-4.62177 0.359457 2.41301
-4.61096 0.357079 2.38796
-4.62107 0.356879 2.37403
-4.61225 0.354518 2.35
-4.6163 0.354417 2.34303
-4.60863 0.350775 2.30002
-4.59383 0.347379 2.27396
-4.60692 0.348211 2.26204
-4.5981 0.34585 2.23801
-4.59027 0.343504 2.21498
-4.59034 0.34237 2.20599
-4.59845 0.342169 2.19206
-4.5808 0.337461 2.14499
-4.57396 0.335145 2.12397
-4.56933 0.331431 2.07598
-4.55751 0.329067 2.05192
-4.56462 0.32885 2.03698
-4.55281 0.325487 2.01294
-4.5619 0.326301 1.99999
-4.55307 0.323969 1.97795
-4.54836 0.320403 1.93997
-4.54145 0.31922 1.92793
-4.54271 0.317718 1.89396
-4.54596 0.315217 1.86001
-4.52716 0.311819 1.83392
-4.52828 0.311582 1.81793
-4.52037 0.309399 1.8059
-4.52051 0.308133 1.78792
-4.51565 0.306848 1.7689
-4.52974 0.307695 1.75799
-4.5189 0.305377 1.73694
-4.51106 0.30306 1.71591
-4.51218 0.301824 1.69994
-4.50726 0.301658 1.6889
-4.50639 0.300406 1.67191
-4.49854 0.298104 1.65188
-4.49667 0.296851 1.63488
-4.50078 0.296632 1.61992
-4.49393 0.294331 1.5999
-4.48708 0.293045 1.58086
-4.49212 0.292959 1.5749
-4.48826 0.29169 1.55689
-4.48639 0.290437 1.53989
-4.47954 0.288136 1.51987
-4.47766 0.287898 1.50386
-4.48178 0.286679 1.4889
-4.4819 0.286427 1.4719
-4.48096 0.285308 1.46391
-4.4771 0.284039 1.4459
-4.47622 0.282802 1.42991
-4.46537 0.280498 1.40986
-4.46849 0.280278 1.39488
-4.45781 0.276634 1.35185
-4.45307 0.275127 1.31783
-4.45219 0.273889 1.30184
-4.45043 0.272414 1.26985
-4.43676 0.268768 1.22679
-4.44086 0.268564 1.21282
-4.43799 0.26731 1.19582
-4.42215 0.264003 1.17575
-4.42625 0.263798 1.16178
-4.42936 0.263578 1.1468
-4.42449 0.262338 1.13078
-4.42654 0.262236 1.1238
-4.42167 0.260981 1.10678
-4.41691 0.258504 1.07477
-4.41414 0.257043 1.04377
-4.40827 0.255787 1.02674
-4.40633 0.254667 1.01874
-4.39159 0.252153 0.984664
-4.38283 0.249673 0.952631
-4.39592 0.25052 0.941715
-4.39404 0.249281 0.925717
-4.38211 0.248125 0.915643
-4.38223 0.246903 0.90066
-4.37446 0.244438 0.869634
-4.37568 0.24401 0.840645
-4.36886 0.24265 0.816611
-4.35711 0.239167 0.784569
-4.3682 0.239998 0.772639
-4.35532 0.237737 0.755573
-4.36242 0.238549 0.742613
-4.34855 0.236288 0.725539
-4.34772 0.234961 0.70355
-4.33994 0.233512 0.673508
-4.33417 0.231063 0.643497
-4.34326 0.231892 0.631551
-4.33744 0.230548 0.608524
-4.32855 0.229319 0.593473
-4.33166 0.229114 0.579498
-4.32377 0.226886 0.564469
-4.33686 0.228718 0.552539
-4.316 0.225437 0.534428
-4.32809 0.226268 0.522505
-4.32914 0.226165 0.515514
-4.31227 0.223901 0.498418
-4.31347 0.222502 0.471444
-4.31358 0.222295 0.457446
-4.31768 0.22209 0.443478
-4.31274 0.221983 0.436441
-4.30795 0.22055 0.407422
-4.30206 0.219339 0.393394
-4.28839 0.216678 0.349324
-4.30248 0.21751 0.337417
-4.28955 0.215382 0.329349
-4.28565 0.215172 0.315321
-4.28176 0.213947 0.300308
-4.29485 0.214779 0.288393
-4.28097 0.213547 0.273304
-4.27707 0.212337 0.259291
-4.27418 0.211128 0.245285
-4.27723 0.212041 0.239294
-4.26934 0.210813 0.22425
-4.26845 0.209605 0.21026
-4.26854 0.209413 0.197261
-4.26565 0.209204 0.183241
-4.26175 0.207993 0.169227
-4.26885 0.208806 0.156267
-4.25991 0.207696 0.149215
-4.25301 0.206484 0.135179
-4.25811 0.206295 0.122219
-4.26122 0.20609 0.108243
-4.24632 0.204872 0.0941469
-4.25452 0.204478 0.0672108
-4.25757 0.204391 0.0612342
-4.24977 0.202986 0.0341926
-4.23888 0.201771 0.0201266
-4.24108 0.201373 -0.00685467
-4.23024 0.200054 -0.0279197
-4.22834 0.19986 -0.040933
-4.23344 0.199671 -0.0538936
-4.22854 0.19846 -0.0679145
-4.21974 0.197069 -0.0939638
-4.22385 0.197865 -0.107947
-4.21695 0.196667 -0.120983
-4.22699 0.197586 -0.126921
-4.2091 0.195366 -0.141025
-4.21819 0.19618 -0.153971
-4.2043 0.193962 -0.168044
-4.20959 0.194389 -0.207016
-4.21365 0.194288 -0.213985
-5.56012 1.05106 8.28465
-5.55167 1.04198 8.21271
-5.53926 1.03282 8.13474
-5.53475 1.02487 8.07082
-5.51935 1.01568 7.99083
-5.47336 0.982752 7.72793
-5.46289 0.974708 7.65796
-5.45339 0.966725 7.592
-5.4528 0.959925 7.53809
-5.40927 0.936038 7.34509
-5.4037 0.92919 7.28814
-5.38726 0.920084 7.21414
-5.3817 0.913236 7.15719
-5.35194 0.892788 6.99325
-5.34142 0.885863 6.93126
-5.33484 0.879029 6.8753
-5.33025 0.873227 6.82135
-5.32169 0.866363 6.76338
-5.28987 0.847046 6.6084
-5.27768 0.834469 6.50248
-5.26909 0.828663 6.4485
-5.26249 0.821874 6.39554
-5.21738 0.792172 6.1476
-5.21007 0.78182 6.05669
-5.21236 0.778259 6.01875
-5.19071 0.771563 5.97268
-5.18011 0.765771 5.91968
-5.17744 0.761133 5.87673
-5.17476 0.756509 5.83477
-5.16613 0.750778 5.78578
-5.15552 0.744016 5.73479
-5.1568 0.740454 5.69685
-5.1391 0.734865 5.6578
-5.13075 0.725601 5.57286
-5.11616 0.718791 5.51884
-5.11445 0.715227 5.48088
-5.11076 0.710618 5.43991
-5.09814 0.704869 5.38989
-5.08935 0.701448 5.36187
-5.08269 0.695792 5.3179
-5.0723 0.686586 5.23695
-5.06959 0.683022 5.19898
-5.05497 0.676272 5.14896
-5.05721 0.6738 5.11701
-5.04543 0.669362 5.08798
-5.02934 0.656589 4.96903
-5.0152 0.643907 4.8561
-4.99397 0.632382 4.75409
-4.98528 0.627769 4.71309
-4.9865 0.624341 4.68415
-4.98078 0.620789 4.64715
-4.9701 0.61616 4.60513
-4.96426 0.612845 4.58414
-4.96351 0.610371 4.55216
-4.95128 0.598853 4.45023
-4.94158 0.594269 4.41122
-4.93088 0.589669 4.3712
-4.92326 0.584923 4.3212
-4.92547 0.582511 4.29325
-4.90526 0.570957 4.18926
-4.9035 0.567497 4.15829
-4.88892 0.560673 4.10327
-4.89409 0.559336 4.08033
-4.87662 0.551287 4.01031
-4.87484 0.548857 3.98133
-4.87008 0.545395 3.95034
-4.85946 0.539647 3.90034
-4.85966 0.537262 3.87437
-4.84893 0.532722 3.83835
-4.84813 0.530337 3.81238
-4.84635 0.527906 3.78339
-4.83461 0.52338 3.74837
-4.82875 0.521109 3.73036
-4.82596 0.518693 3.70237
-4.8192 0.515229 3.67136
-4.82038 0.512875 3.6474
-4.82058 0.51149 3.62142
-4.80983 0.506994 3.5884
-4.812 0.505655 3.56544
-4.79927 0.501128 3.5304
-4.7934 0.498872 3.51339
-4.78961 0.496455 3.48539
-4.79576 0.495163 3.46545
-4.785 0.491682 3.43342
-4.79513 0.490453 3.41751
-4.78139 0.486925 3.38246
-4.77851 0.484701 3.36747
-4.77371 0.482297 3.34046
-4.76295 0.478831 3.30943
-4.76313 0.476476 3.28546
-4.74956 0.470623 3.22844
-4.75371 0.469329 3.20848
-4.74286 0.466041 3.18945
-4.74005 0.463669 3.16446
-4.73326 0.461249 3.13644
-4.73542 0.45994 3.11547
-4.72863 0.456521 3.08747
-4.72184 0.454116 3.06045
-4.724 0.451807 3.0395
-4.72109 0.450612 3.02649
-4.70949 0.445834 2.97447
-4.70169 0.442429 2.94745
-4.69987 0.440088 2.92447
-4.69407 0.437699 2.89846
-4.69224 0.435357 2.87548
-4.69538 0.434078 2.85652
-4.6885 0.432851 2.84148
-4.68766 0.430525 2.81951
-4.67803 0.425807 2.7715
-4.66641 0.421059 2.72147
-4.66557 0.418748 2.7005
-4.65585 0.415193 2.66347
-4.65501 0.413881 2.64248
-4.65815 0.412602 2.62352
-4.65034 0.410227 2.5985
-4.64751 0.407899 2.57651
-4.64567 0.406587 2.55551
-4.64077 0.404376 2.5415
-4.63694 0.403048 2.51949
-4.6341 0.400735 2.4985
-4.63127 0.398407 2.47651
-4.62246 0.396031 2.45148
-4.62061 0.394734 2.43148
-4.618 0.389977 2.38052
-4.60648 0.384021 2.31652
-4.60264 0.382708 2.2955
-4.59581 0.380362 2.27248
-4.5939 0.379198 2.26148
-4.58635 0.374305 2.20149
-4.5845 0.372007 2.18151
-4.5808 0.369427 2.14251
-4.57695 0.367129 2.12252
-4.56707 0.3659 2.10746
-4.56422 0.363602 2.08747
-4.56933 0.363383 2.07251
-4.55951 0.361021 2.04846
-4.56662 0.360819 2.03452
-4.56675 0.359552 2.01654
-4.55792 0.35722 1.9945
-4.557 0.356072 1.98451
-4.55826 0.353555 1.94955
-4.55641 0.352272 1.93055
-4.54857 0.349955 1.90953
-4.55069 0.349705 1.89254
-4.53787 0.346356 1.86949
-4.53893 0.346238 1.8615
-4.53508 0.343939 1.8415
-4.53123 0.342655 1.82249
-4.53435 0.342421 1.80652
-4.52763 0.338853 1.76851
-4.52676 0.337601 1.75152
-4.52284 0.33645 1.74151
-4.52198 0.335183 1.72352
-4.51712 0.333898 1.7045
-4.51825 0.332648 1.68752
-4.51538 0.331379 1.66952
-4.51351 0.330126 1.65252
-4.50972 0.327724 1.62552
-4.49726 0.322649 1.5535
-4.4876 0.318976 1.50847
-4.46827 0.311659 1.42042
-4.47039 0.310424 1.40445
-4.46758 0.309052 1.37945
-4.45809 0.304053 1.31244
-4.45434 0.302562 1.27943
-4.44067 0.297901 1.23539
-4.43779 0.296662 1.21939
-4.43204 0.295169 1.18636
-4.41872 0.288842 1.09734
-4.41784 0.287605 1.08135
-4.41302 0.286246 1.05733
-4.40715 0.28499 1.0403
-4.41325 0.284802 1.02735
-4.40838 0.283547 1.01033
-4.39873 0.279844 0.963305
-4.40278 0.279743 0.956336
-4.39702 0.27828 0.92531
-4.38915 0.276023 0.908282
-4.38538 0.274561 0.877271
-4.3835 0.273338 0.862273
-4.37889 0.270565 0.810272
-4.36813 0.268083 0.778223
-4.37124 0.267878 0.764248
-4.35953 0.265293 0.725193
-4.35765 0.264069 0.710194
-4.35476 0.262845 0.695189
-4.35298 0.262414 0.666178
-4.34809 0.261189 0.651157
-4.34327 0.258845 0.628152
-4.34337 0.258638 0.614154
-4.33649 0.257396 0.598118
-4.3356 0.257188 0.584113
-4.33671 0.255981 0.570137
-4.33975 0.256895 0.564146
-4.32899 0.254428 0.533097
-4.3241 0.253202 0.518076
-4.32531 0.251789 0.490102
-4.32342 0.25158 0.476089
-4.31958 0.250252 0.454077
-4.3118 0.248817 0.425035
-4.30492 0.24659 0.410014
-4.30238 0.24467 0.348015
-4.29571 0.243028 0.304983
-4.29382 0.24182 0.290985
-4.28697 0.240504 0.26995
-4.28818 0.240105 0.242961
-4.27629 0.237875 0.227903
-4.2795 0.237477 0.200929
-4.27261 0.23625 0.185893
-4.26966 0.236144 0.178872
-4.27287 0.235747 0.151898
-4.27196 0.234554 0.138907
-4.26418 0.233134 0.110865
-4.25943 0.231627 0.0768473
-4.25764 0.231226 0.0498359
-4.2461 0.228314 -0.0112163
-4.22986 0.223807 -0.112286
-4.20462 0.219308 -0.212423
-4.20671 0.219117 -0.225406
-5.5252 1.07491 8.00599
-5.51374 1.06585 7.93503
-5.50922 1.0579 7.87111
-5.49678 1.04881 7.79814
-5.48828 1.03983 7.7322
-5.46515 1.02513 7.61823
-5.45466 1.01713 7.55126
-5.4501 1.01027 7.49332
-5.43169 0.999099 7.41533
-5.42911 0.993283 7.36039
-5.41861 0.984314 7.29543
-5.41107 0.977406 7.23447
-5.39083 0.963911 7.13451
-5.37834 0.955911 7.06752
-5.36682 0.94797 7.00454
-5.36422 0.941199 6.95262
-5.32287 0.913958 6.73568
-5.31628 0.907155 6.68172
-5.30374 0.899243 6.62074
-5.29054 0.88668 6.51581
-5.23914 0.844582 6.174
-5.21316 0.82758 6.04003
-5.21049 0.822927 5.99608
-5.16256 0.789883 5.72517
-5.14896 0.783089 5.67216
-5.14924 0.778541 5.63522
-5.13664 0.771763 5.58322
-5.13592 0.768215 5.54626
-5.13024 0.763574 5.50328
-5.10785 0.752374 5.42327
-5.10514 0.74881 5.3853
-5.10641 0.745293 5.35035
-5.09279 0.738543 5.30034
-5.08611 0.733917 5.25836
-5.08339 0.729353 5.2204
-5.07771 0.724742 5.17942
-5.05899 0.719181 5.14235
-5.05429 0.714601 5.10338
-5.05751 0.712159 5.07344
-5.04685 0.7065 5.02943
-5.04611 0.702982 4.99448
-5.04139 0.698431 4.9575
-5.0347 0.693834 4.91751
-5.01597 0.688303 4.88245
-5.02117 0.685907 4.85552
-5.0095 0.680247 4.81151
-5.00577 0.676727 4.77653
-5.00502 0.673238 4.74357
-5.00426 0.669764 4.71161
-4.98763 0.663041 4.66358
-4.98377 0.660757 4.64458
-4.97507 0.656174 4.60558
-4.96736 0.651606 4.56758
-4.9656 0.648131 4.53562
-4.96384 0.645656 4.50364
-4.95116 0.640026 4.46162
-4.95039 0.636581 4.43166
-4.94157 0.634235 4.40862
-4.93484 0.629697 4.37264
-4.9291 0.62619 4.33864
-4.93031 0.622776 4.3107
-4.92359 0.619239 4.27469
-4.92479 0.61584 4.24775
-4.92103 0.613364 4.21575
-4.91518 0.610078 4.19675
-4.90546 0.605524 4.15974
-4.8997 0.602046 4.12775
-4.89198 0.598508 4.09174
-4.89516 0.596155 4.06779
-4.89239 0.592709 4.03782
-4.88663 0.589231 4.00582
-4.88583 0.586831 3.97885
-4.87004 0.58242 3.95179
-4.8623 0.578911 3.91778
-4.87243 0.577652 3.89987
-4.8617 0.573127 3.86485
-4.85991 0.570711 3.83687
-4.85415 0.567248 3.80587
-4.84729 0.564962 3.78685
-4.83854 0.560467 3.75385
-4.83774 0.558082 3.72788
-4.83495 0.555665 3.69989
-4.83813 0.553328 3.67694
-4.8244 0.548785 3.6409
-4.82359 0.546414 3.61593
-4.81574 0.544127 3.5969
-4.80997 0.540679 3.5669
-4.81115 0.538325 3.54294
-4.81232 0.536985 3.51997
-4.80157 0.532489 3.48695
-4.79778 0.530087 3.45995
-4.78802 0.525606 3.42794
-4.78612 0.524413 3.41494
-4.78829 0.523074 3.39197
-4.78251 0.519655 3.36398
-4.77771 0.517252 3.33697
-4.77292 0.513849 3.30998
-4.77011 0.511477 3.28499
-4.7683 0.509106 3.26001
-4.76648 0.506749 3.23603
-4.75463 0.503445 3.21599
-4.74784 0.501026 3.18797
-4.74901 0.498701 3.16601
-4.74918 0.49736 3.14303
-4.74637 0.495003 3.11904
-4.74455 0.492647 3.09505
-4.73875 0.489258 3.06906
-4.72888 0.486984 3.05101
-4.72209 0.48358 3.02401
-4.72524 0.482286 3.00405
-4.71446 0.478849 2.97502
-4.71661 0.477555 2.95505
-4.7118 0.475181 2.93004
-4.70898 0.472824 2.90605
-4.70608 0.47163 2.89305
-4.6963 0.468208 2.86502
-4.69577 0.462275 2.8021
-4.69196 0.459917 2.7781
-4.68116 0.45651 2.75106
-4.67427 0.455283 2.73603
-4.68155 0.452741 2.69912
-4.66777 0.449302 2.67006
-4.66793 0.447006 2.65009
-4.66908 0.445711 2.63012
-4.6543 0.442271 2.60105
-4.66234 0.442188 2.59511
-4.64756 0.438748 2.56605
-4.64771 0.437467 2.54707
-4.64985 0.436187 2.5281
-4.63906 0.43278 2.50106
-4.63024 0.429418 2.47704
-4.6326 0.426709 2.4291
-4.62976 0.424396 2.40811
-4.63091 0.423116 2.38913
-4.60815 0.418626 2.35702
-4.62024 0.418457 2.34511
-4.61555 0.414847 2.30413
-4.61264 0.413682 2.29312
-4.61079 0.412385 2.27312
-4.59201 0.407942 2.24404
-4.60709 0.40879 2.23314
-4.59726 0.406442 2.2101
-4.59442 0.404144 2.19011
-4.59264 0.401714 2.16113
-4.57585 0.398287 2.13305
-4.57399 0.397005 2.11405
-4.58011 0.395787 2.09911
-4.58024 0.394521 2.08113
-4.56664 0.389741 2.02909
-4.56478 0.388459 2.01009
-4.56392 0.387192 1.9921
-4.5622 0.383643 1.95514
-4.55455 0.379942 1.90813
-4.5517 0.378658 1.88912
-4.54585 0.376358 1.86911
-4.52551 0.368056 1.78207
-4.51481 0.364471 1.74303
-4.50822 0.360667 1.68903
-4.51631 0.36048 1.6761
-4.50441 0.358279 1.66304
-4.50566 0.355792 1.63008
-4.50778 0.355556 1.6141
-4.49994 0.353255 1.59407
-4.49321 0.350717 1.55805
-4.49333 0.34948 1.54207
-4.48841 0.348329 1.53205
-4.48653 0.347076 1.51505
-4.48466 0.345823 1.49805
-4.47019 0.339776 1.42802
-4.45754 0.336101 1.38297
-4.46663 0.335915 1.37004
-4.46375 0.334676 1.35404
-4.44991 0.332355 1.33296
-4.44311 0.329966 1.30695
-4.44622 0.328746 1.29198
-4.43748 0.326236 1.25795
-4.44359 0.326033 1.244
-4.44669 0.325828 1.23002
-4.42891 0.322386 1.20094
-4.42716 0.319911 1.16895
-4.42063 0.315974 1.10596
-4.42468 0.315888 1.09999
-4.4228 0.31565 1.08397
-4.40296 0.312325 1.06287
-4.41305 0.312154 1.05095
-4.40729 0.310676 1.01892
-4.3926 0.306059 0.977873
-4.39671 0.305855 0.963905
-4.39494 0.304409 0.933909
-4.38507 0.303136 0.915851
-4.38319 0.301912 0.900853
-4.37731 0.300671 0.884825
-4.37947 0.299347 0.862858
-4.37359 0.298106 0.84683
-4.36794 0.295436 0.80182
-4.36411 0.294092 0.778808
-4.35634 0.291643 0.748782
-4.35645 0.291421 0.733784
-4.34868 0.288971 0.703757
-4.35178 0.288766 0.689782
-4.34385 0.287627 0.680738
-4.33896 0.286401 0.665717
-4.33807 0.285194 0.651726
-4.34118 0.284989 0.637751
-4.33429 0.283762 0.622715
-4.32941 0.282521 0.606694
-4.33351 0.282332 0.593726
-4.34155 0.283249 0.587772
-4.32468 0.279985 0.570691
-4.32989 0.279589 0.543733
-4.31502 0.277326 0.526652
-4.31512 0.277119 0.512654
-4.32321 0.277947 0.500701
-4.31328 0.275807 0.491656
-4.31738 0.276617 0.478673
-4.3146 0.275186 0.44967
-4.30271 0.272956 0.434611
-4.31081 0.273769 0.421658
-4.30092 0.27154 0.406615
-4.29498 0.270417 0.398585
-4.2952 0.270003 0.370589
-4.29729 0.269812 0.357606
-4.2954 0.268603 0.343608
-4.3005 0.269414 0.330632
-4.28662 0.267167 0.314559
-4.28788 0.265665 0.280586
-4.27599 0.264434 0.265512
-4.27319 0.263032 0.238508
-4.2693 0.261822 0.224495
-4.26746 0.26151 0.203483
-4.27056 0.26132 0.190507
-4.26866 0.260111 0.176509
-4.26776 0.259918 0.163503
-4.26287 0.258707 0.149482
-4.26796 0.259518 0.136507
-4.25608 0.257288 0.121448
-4.26612 0.258206 0.11551
-4.25733 0.256785 0.0874605
-4.24444 0.254569 0.0733943
-4.25753 0.2564 0.0614641
-4.24265 0.254168 0.0463829
-4.2398 0.25287 0.0263779
-4.2329 0.251657 0.012342
-4.232 0.251464 -0.000663723
-4.2371 0.251275 -0.0136243
-4.2322 0.251065 -0.02766
-4.2263 0.249868 -0.0406885
-4.23141 0.250664 -0.0546638
-4.23266 0.250176 -0.0876517
-4.22376 0.247978 -0.100688
-4.21896 0.247574 -0.127722
-4.22231 0.246896 -0.173693
-4.20641 0.244677 -0.187782
-4.21651 0.245492 -0.20072
-5.44752 1.06734 7.56546
-5.44494 1.06051 7.50953
-5.4295 1.0504 7.43556
-5.42198 1.04246 7.37261
-5.39781 1.02683 7.26364
-5.3883 1.01888 7.19968
-5.3867 1.0131 7.14675
-5.36628 1.00196 7.07075
-5.36666 0.996232 7.02183
-5.35612 0.988321 6.96086
-5.32336 0.966886 6.79791
-5.31118 0.953279 6.69
-5.29469 0.944276 6.623
-5.29701 0.939656 6.58108
-5.27474 0.92622 6.4851
-5.26814 0.919445 6.43314
-5.20217 0.868494 6.03434
-5.19555 0.862764 5.98537
-5.1899 0.857065 5.93841
-5.18327 0.85035 5.89045
-5.15922 0.834483 5.76549
-5.14097 0.822004 5.66652
-5.14125 0.818457 5.62957
-5.12865 0.810679 5.57758
-5.09519 0.785651 5.37467
-4.65395 0.473919 2.64459
-5.38896 1.07251 7.10688
-4.74168 0.560297 3.07103
-4.73124 0.553194 2.99704
-4.71574 0.545221 2.93204
-4.70926 0.538195 2.86308
-4.69879 0.531152 2.7931
-4.68128 0.523192 2.72908
-4.67577 0.517226 2.66411
-4.65939 0.508015 2.58312
-4.65173 0.503344 2.53812
-4.64299 0.49882 2.50312
-4.64513 0.497555 2.48515
-4.6413 0.495226 2.46315
-4.62965 0.490537 2.41713
-4.63093 0.486976 2.37918
-4.62503 0.485779 2.36616
-4.61024 0.481369 2.33911
-4.60754 0.477775 2.29913
-4.60512 0.471648 2.22319
-4.59039 0.467105 2.18715
-4.58669 0.463525 2.14817
-4.58882 0.462275 2.1312
-4.57814 0.457631 2.08818
-4.57336 0.455198 2.05918
-4.57151 0.453916 2.04018
-4.55584 0.448253 1.99614
-4.5581 0.445752 1.96219
-4.55219 0.44457 1.95016
-4.54648 0.441003 1.91216
-4.53877 0.437435 1.87415
-4.54887 0.43725 1.86123
-4.53604 0.433901 1.83818
-4.54109 0.4348 1.8312
-4.51557 0.42685 1.76812
-4.51284 0.42333 1.73315
-4.51103 0.421944 1.70715
-4.50219 0.419626 1.68612
-4.51228 0.419456 1.67419
-4.50743 0.418171 1.65517
-4.49759 0.414853 1.63414
-4.50469 0.414666 1.6212
-4.49485 0.412348 1.60016
-4.49204 0.409961 1.57417
-4.49815 0.409759 1.56021
-4.49529 0.40849 1.54221
-4.49541 0.407253 1.52623
-4.48955 0.405968 1.5072
-4.48568 0.403713 1.4902
-4.48288 0.402326 1.4642
-4.483 0.40109 1.44821
-4.47526 0.397566 1.4132
-4.47339 0.396313 1.3962
-4.46753 0.395042 1.37818
-4.46665 0.393805 1.36219
-4.46571 0.392686 1.35419
-4.45586 0.390383 1.33415
-4.45311 0.387907 1.30216
-4.44354 0.384042 1.24414
-4.44666 0.382822 1.22918
-4.44378 0.381583 1.21317
-4.43592 0.379311 1.19515
-4.43233 0.376494 1.14015
-4.41036 0.365465 1.00413
-4.33095 0.333391 0.529942
-4.32617 0.331958 0.500923
-4.32828 0.331753 0.48694
-4.30609 0.324138 0.378871
-4.30136 0.322616 0.343853
-4.29768 0.320992 0.301844
-4.29777 0.319799 0.28886
-4.29099 0.31838 0.260826
-4.29109 0.318173 0.246828
-4.28126 0.31584 0.224786
-4.27936 0.315646 0.211772
-4.28057 0.314233 0.183799
-4.27567 0.314022 0.169763
-4.26183 0.310701 0.148705
-4.26614 0.310112 0.10874
-4.26124 0.309901 0.0947047
-4.24945 0.307478 0.0666479
-4.2585 0.308396 0.0607017
-4.2576 0.308188 0.0466961
-4.2547 0.306993 0.0336901
-4.25381 0.306785 0.0196845
-4.25191 0.305591 0.00668603
-4.24901 0.305382 -0.00733459
-4.23612 0.303165 -0.0214009
-4.24326 0.303889 -0.0403604
-4.23237 0.301674 -0.0544116
-4.22747 0.300463 -0.0684325
-4.23357 0.301275 -0.0814003
-4.23467 0.301083 -0.094391
-4.22078 0.298866 -0.108465
-4.23082 0.300785 -0.114418
-4.22512 0.299188 -0.154443
-4.21922 0.297991 -0.167472
-5.30559 1.06532 6.62429
-5.30197 1.05859 6.57536
-5.29241 1.05072 6.51739
-5.29174 1.04507 6.47347
-5.27128 1.03402 6.40347
-5.22846 0.994743 6.11669
-5.20713 0.981441 6.02971
-5.2005 0.974711 5.98075
-5.20377 0.971181 5.94482
-5.18256 0.955627 5.84088
-5.16546 0.939868 5.72297
-5.1598 0.934213 5.679
-5.15316 0.927513 5.63205
-5.11205 0.893799 5.3832
-5.10934 0.889235 5.34524
-5.10267 0.882579 5.30129
-5.0757 0.864577 5.16733
-5.06021 0.854575 5.10035
-5.05848 0.850041 5.0644
-5.05873 0.846553 5.03145
-5.04435 0.835329 4.9495
-5.02973 0.828593 4.90048
-5.01422 0.81962 4.83549
-5.01049 0.8151 4.80052
-5.01669 0.81272 4.7746
-5.0003 0.801524 4.69463
-4.99855 0.798035 4.66166
-4.98787 0.791406 4.61968
-4.97707 0.788013 4.59364
-4.98225 0.785647 4.56871
-4.97057 0.779017 4.52672
-4.96783 0.775512 4.49274
-4.96408 0.771021 4.45978
-4.96034 0.766515 4.42581
-4.94765 0.760899 4.38479
-4.95075 0.759724 4.37283
-4.93629 0.750648 4.30085
-4.92183 0.740587 4.22988
-4.90371 0.726873 4.11493
-4.90293 0.723443 4.08597
-4.89917 0.718981 4.055
-4.89739 0.716551 4.02602
-4.8819 0.706534 3.95804
-4.87009 0.70317 3.934
-4.8697 0.693971 3.85312
-4.86393 0.690523 3.82313
-4.8542 0.685998 3.78811
-4.8525 0.681405 3.74816
-4.8368 0.675802 3.70812
-4.83203 0.672369 3.67913
-4.83041 0.666613 3.6282
-4.81888 0.658702 3.56722
-4.81319 0.654092 3.52624
-4.79865 0.646179 3.46524
-4.80281 0.643871 3.4443
-4.79125 0.637019 3.38731
-4.78438 0.634762 3.37029
-4.77498 0.625587 3.29134
-4.76836 0.619827 3.24037
-4.76058 0.616392 3.21136
-4.75605 0.609487 3.15042
-4.74545 0.603694 3.09742
-4.73013 0.593366 3.00844
-4.72929 0.59104 2.98647
-4.72548 0.587668 2.96149
-4.69821 0.575242 2.86645
-4.70533 0.574996 2.84951
-4.70449 0.572684 2.82853
-4.68922 0.562267 2.73356
-4.68731 0.561088 2.72156
-4.67966 0.555402 2.67558
-4.66305 0.548621 2.62355
-4.66618 0.548371 2.60657
-4.65348 0.542785 2.56755
-4.65562 0.541505 2.54859
-4.64596 0.536833 2.50358
-4.64313 0.534505 2.48159
-4.63768 0.527435 2.40964
-4.63384 0.525107 2.38764
-4.61706 0.520666 2.35858
-4.58605 0.494766 2.09669
-4.57238 0.48912 2.05367
-4.57173 0.485438 2.00771
-4.5229 0.45817 1.72171
-4.51917 0.45465 1.68672
-4.50566 0.448678 1.6217
-4.50204 0.44492 1.57072
-4.28591 0.347492 0.268358
-4.27854 0.343257 0.185354
-4.25957 0.337215 0.0482814
-5.21943 1.03075 6.11708
-5.23064 1.02836 6.0902
-5.22203 1.02158 6.03823
-5.20732 1.01502 6.00121
-5.20564 1.0094 5.95927
-5.19107 1.00055 5.90229
-5.18443 0.994846 5.85532
-5.18472 0.989284 5.8174
-5.17312 0.981491 5.76442
-5.16661 0.97254 5.70049
-5.15698 0.965808 5.65151
-5.14933 0.959122 5.60555
-5.11388 0.931078 5.40167
-5.10523 0.924406 5.35669
-5.09115 0.907606 5.23582
-5.07395 0.89304 5.13089
-5.05263 0.880707 5.0419
-5.05189 0.876189 5.00696
-5.04346 0.866088 4.93303
-5.02894 0.857145 4.87005
-5.01926 0.851502 4.82705
-5.01851 0.847028 4.79511
-5.00708 0.83691 4.72016
-4.98781 0.824476 4.62419
-4.97812 0.817862 4.58321
-4.98331 0.815496 4.55828
-4.96567 0.808788 4.51124
-4.96491 0.804329 4.48029
-4.96039 0.797379 4.41635
-4.94858 0.793 4.39132
-4.94108 0.784018 4.32539
-4.93733 0.780542 4.29341
-4.92684 0.771543 4.22646
-4.9191 0.76702 4.19146
-4.9202 0.764828 4.1785
-4.90353 0.75818 4.13547
-4.90374 0.75578 4.1085
-4.89997 0.751319 4.07753
-4.89124 0.746795 4.04253
-4.87288 0.735539 3.95855
-4.88004 0.734233 3.93762
-4.87527 0.729786 3.90764
-4.86752 0.725277 3.87364
-4.85917 0.715013 3.78872
-4.8533 0.712758 3.77171
-4.84295 0.702478 3.68577
-4.82445 0.693502 3.62076
-4.82275 0.688924 3.58181
-4.81001 0.683397 3.54679
-4.81119 0.681043 3.52283
-4.80161 0.674222 3.46785
-4.79981 0.671836 3.44187
-4.7923 0.663869 3.37692
-4.78074 0.657017 3.31993
-4.77612 0.651274 3.26997
-4.77132 0.647886 3.24398
-4.76445 0.644629 3.22697
-4.76362 0.642288 3.204
-4.75086 0.637806 3.17196
-4.72063 0.611351 2.9401
-4.69815 0.602313 2.87105
-4.70544 0.598756 2.83315
-4.70162 0.596398 2.80916
-4.68824 0.58719 2.72818
-4.67761 0.581457 2.67918
-4.64605 0.559623 2.48924
-4.63624 0.556246 2.46421
-4.64337 0.556014 2.44827
-4.64244 0.554865 2.43827
-4.62212 0.544534 2.34926
-4.62141 0.540971 2.3113
-4.58982 0.521195 2.12533
-4.56181 0.506236 1.99432
-4.55053 0.497837 1.90035
-4.30719 0.372882 0.361155
-5.17364 1.04636 5.82247
-5.17393 1.04178 5.78353
-5.15936 1.03294 5.72755
-5.15667 1.02733 5.6866
-5.15994 1.02282 5.65169
-5.14634 1.01502 5.59869
-5.13756 1.00959 5.56971
-5.1309 1.00393 5.52573
-5.12523 0.997293 5.48278
-5.11856 0.990638 5.43882
-5.11587 0.986044 5.39887
-5.10423 0.978325 5.35089
-5.10351 0.973777 5.31394
-5.0967 0.969403 5.28895
-5.08209 0.961637 5.23795
-5.07542 0.954997 5.19499
-5.08064 0.952571 5.16606
-5.068 0.944867 5.11908
-5.06231 0.939256 5.07811
-5.06256 0.934768 5.04518
-5.04086 0.928175 5.0061
-5.04013 0.923657 4.97116
-5.04335 0.920215 4.94123
-5.03169 0.913556 4.89724
-5.02202 0.906913 4.85426
-5.01755 0.897874 4.78435
-4.9998 0.891373 4.7513
-5.006 0.888993 4.72538
-4.99433 0.882348 4.68239
-4.99456 0.87889 4.65144
-4.98983 0.873368 4.61648
-4.97915 0.867739 4.57447
-4.96747 0.861109 4.53248
-4.97056 0.859934 4.52052
-4.95491 0.852242 4.47451
-4.95713 0.849829 4.44656
-4.95139 0.844308 4.41159
-4.9387 0.838692 4.37057
-4.94389 0.835326 4.34566
-4.92657 0.822996 4.2567
-4.92182 0.818505 4.22372
-4.91708 0.814013 4.19075
-4.90934 0.809489 4.15575
-4.91154 0.806106 4.12982
-4.89785 0.80049 4.08879
-4.88703 0.796142 4.06577
-4.8912 0.793805 4.04283
-4.8785 0.788218 4.00381
-4.87772 0.784789 3.97485
-4.87693 0.781389 3.9479
-4.86818 0.775879 3.91391
-4.86342 0.772417 3.88292
-4.85458 0.7691 3.8619
-4.8518 0.764669 3.83294
-4.852 0.762284 3.80697
-4.84127 0.756759 3.77197
-4.83848 0.753343 3.74399
-4.84066 0.750989 3.72004
-4.84086 0.748604 3.69407
-4.83112 0.743094 3.66008
-4.82624 0.740854 3.64407
-4.82345 0.737438 3.6161
-4.8127 0.731942 3.58309
-4.80992 0.728525 3.55512
-4.80414 0.725092 3.52612
-4.8073 0.722769 3.50418
-4.79746 0.719466 3.48415
-4.79665 0.717095 3.45918
-4.78689 0.711615 3.42718
-4.79105 0.710307 3.40623
-4.78725 0.706905 3.37924
-4.78246 0.703502 3.35225
-4.77569 0.699053 3.32227
-4.77478 0.697875 3.31027
-4.767 0.69344 3.28128
-4.7642 0.691053 3.25529
-4.7594 0.68765 3.2283
-4.7546 0.684262 3.20231
-4.74782 0.679843 3.17432
-4.74898 0.677518 3.15236
-4.74012 0.675246 3.13432
-4.74029 0.672905 3.11136
-4.74245 0.670596 3.0904
-4.73566 0.667192 3.0634
-4.73185 0.663819 3.03842
-4.72704 0.660446 3.01343
-4.72323 0.658073 2.98843
-4.72041 0.654716 2.96446
-4.7205 0.653553 2.95347
-4.70276 0.648037 2.91942
-4.70789 0.646775 2.90147
-4.7001 0.643369 2.87446
-4.70324 0.64209 2.8555
-4.69545 0.637685 2.8285
-4.68268 0.633232 2.79847
-4.68077 0.632053 2.78647
-4.67993 0.629742 2.76549
-4.67511 0.626383 2.7415
-4.67427 0.625057 2.71951
-4.66547 0.620666 2.69351
-4.66578 0.61706 2.65256
-4.65607 0.612505 2.61555
-4.65523 0.610194 2.59457
-4.65239 0.607866 2.57258
-4.65154 0.60557 2.55261
-4.63876 0.601146 2.52457
-4.64787 0.600931 2.50964
-4.635 0.59767 2.49259
-4.63316 0.595358 2.47161
-4.63829 0.59411 2.45466
-4.62848 0.590733 2.42964
-4.62166 0.587373 2.40563
-4.62878 0.587156 2.39069
-4.62694 0.584844 2.3697
-4.61008 0.58155 2.35062
-4.60624 0.579237 2.32963
-4.61137 0.577989 2.31268
-4.60753 0.575675 2.29168
-4.61266 0.574428 2.27474
-4.59288 0.568984 2.24566
-4.59402 0.567704 2.22669
-4.59814 0.56747 2.21072
-4.58627 0.564225 2.19468
-4.58939 0.562975 2.17772
-4.58256 0.560645 2.1557
-4.58171 0.558363 2.13672
-4.58782 0.558145 2.12177
-4.58596 0.555863 2.10279
-4.57814 0.552517 2.07977
-4.56625 0.550286 2.06472
-4.57337 0.550069 2.04977
-4.56453 0.546738 2.02775
-4.56666 0.545487 2.01078
-4.55983 0.543157 1.98876
-4.54814 0.537542 1.94775
-4.55618 0.538474 1.9428
-4.55432 0.537191 1.9238
-4.54549 0.533859 1.90178
-4.53964 0.531559 1.88177
-4.54177 0.530309 1.8648
-4.53393 0.526992 1.84379
-4.53904 0.526774 1.82883
-4.52815 0.524559 1.81478
-4.53127 0.523324 1.79882
-4.52442 0.521024 1.77879
-4.52555 0.519788 1.76282
-4.5177 0.517471 1.74179
-4.52083 0.516237 1.72583
-4.52693 0.516034 1.71188
-4.51604 0.513819 1.69783
-4.51815 0.512598 1.68286
-4.51031 0.509282 1.66185
-4.50844 0.508029 1.64485
-4.51156 0.507794 1.62887
-4.49493 0.502072 1.58083
-4.4882 0.497534 1.54484
-4.49032 0.497299 1.52885
-4.4877 0.493557 1.47888
-4.47393 0.489103 1.44884
-4.48103 0.488916 1.4359
-4.47529 0.486394 1.40088
-4.46344 0.483089 1.38084
-4.46469 0.480616 1.34888
-4.46175 0.479481 1.33988
-4.46287 0.47926 1.32489
-4.459 0.477005 1.30789
-4.45613 0.475752 1.29088
-4.45138 0.47326 1.25788
-4.43572 0.467583 1.21284
-4.43782 0.467377 1.19886
-4.43806 0.464918 1.16789
-4.42539 0.460273 1.12486
-4.4255 0.460051 1.10986
-4.42761 0.45883 1.09489
-4.42074 0.457573 1.07786
-4.42185 0.456352 1.06288
-4.40518 0.451704 1.01982
-4.40242 0.449243 0.988829
-4.40053 0.44802 0.973831
-4.38978 0.444523 0.940797
-4.39089 0.444302 0.925807
-4.39694 0.444218 0.919853
-4.37809 0.440908 0.899757
-4.38518 0.440736 0.887811
-4.38929 0.440531 0.873843
-4.37343 0.437239 0.85477
-4.37754 0.437034 0.840802
-4.37365 0.43581 0.825789
-4.37471 0.435707 0.818797
-4.36007 0.430986 0.77075
-4.36517 0.430797 0.75779
-4.37026 0.431608 0.744814
-4.35241 0.427314 0.725741
-4.35951 0.428127 0.71278
-4.36355 0.428041 0.706811
-4.35467 0.425798 0.690775
-4.3498 0.424557 0.674755
-4.35289 0.424367 0.661779
-4.35201 0.424144 0.646774
-4.34712 0.421919 0.631768
-4.34917 0.421817 0.624784
-4.3423 0.420575 0.608748
-4.34439 0.420384 0.595765
-4.33752 0.418142 0.579744
-4.33662 0.417934 0.565738
-4.33174 0.416694 0.549718
-4.33584 0.416504 0.53675
-4.32496 0.41426 0.520699
-4.33001 0.414174 0.514737
-4.32523 0.412742 0.485718
-4.32055 0.410102 0.442716
-4.30967 0.407857 0.426665
-4.31072 0.407769 0.420674
-4.31482 0.407565 0.406706
-4.30294 0.405334 0.391647
-4.30104 0.404125 0.377649
-4.30714 0.404937 0.364681
-4.30725 0.40473 0.350683
-4.30336 0.403505 0.33567
-4.28853 0.400169 0.313604
-4.28685 0.398546 0.27161
-4.29194 0.399357 0.258634
-4.28605 0.397146 0.244621
-4.28032 0.395623 0.209595
-4.27753 0.394207 0.181591
-4.27673 0.392806 0.154602
-4.26689 0.390489 0.13356
-4.266 0.390281 0.119554
-4.2531 0.388064 0.105488
-4.2642 0.389879 0.0925428
-4.2653 0.389688 0.0795521
-4.25141 0.386456 0.0644933
-4.25477 0.385762 0.0175224
-4.25386 0.385569 0.00451662
-4.24707 0.384165 -0.0225175
-4.23763 0.381062 -0.0965529
-4.22089 0.377547 -0.130632
-4.22398 0.377356 -0.143607
-4.22809 0.378152 -0.15759
-5.03558 1.02664 4.90159
-5.0259 1.02001 4.85961
-4.2996 0.4979 0.294238
-4.29776 0.496588 0.273241
-4.28429 0.492556 0.20419
-4.28439 0.491349 0.190206
-4.28344 0.491245 0.1832
-4.27965 0.489842 0.156188
-4.27575 0.488632 0.142175
-4.27286 0.488423 0.128154
-4.26997 0.487214 0.114148
-4.26613 0.4859 0.0931361
-4.26522 0.485707 0.0801303
-4.25853 0.483095 0.0391129
-4.24964 0.480881 0.0250768
-4.25674 0.481694 0.0121164
-4.25179 0.480587 0.00509459
-4.24409 0.478989 -0.0349453
-4.2424 0.477381 -0.0759399
-4.23645 0.476288 -0.0819694
-4.23355 0.476078 -0.09599
-4.22965 0.474883 -0.109004
-4.22676 0.473674 -0.123009
-4.23286 0.474486 -0.135977
-4.22596 0.473288 -0.149013
-4.22805 0.473097 -0.161996
-4.22016 0.471884 -0.17604
-4.2222 0.472797 -0.182039
-4.92806 1.00576 4.30701
-4.9253 1.00129 4.27505
-4.92949 0.99892 4.25011
-4.92077 0.993381 4.21412
-4.90144 0.979065 4.12618
-4.8947 0.974557 4.09219
-4.89987 0.972221 4.06926
-4.89313 0.966713 4.03529
-4.89334 0.963314 4.00833
-4.87954 0.957919 3.98231
-4.87378 0.953442 3.95033
-4.87101 0.949996 3.92035
-4.86922 0.94558 3.8924
-4.86545 0.942133 3.86242
-4.86267 0.937702 3.83346
-4.85988 0.934286 3.80548
-4.85005 0.929954 3.78347
-4.85124 0.926585 3.75853
-4.84349 0.922106 3.72653
-4.83872 0.917658 3.69656
-4.83891 0.914289 3.6716
-4.83134 0.90644 3.61466
-4.82358 0.901976 3.58366
-4.81274 0.897657 3.56264
-4.81094 0.894271 3.53667
-4.80516 0.889823 3.50669
-4.80138 0.886406 3.47871
-4.79857 0.883019 3.45273
-4.80174 0.880696 3.43079
-4.78692 0.876345 3.40774
-4.79108 0.874037 3.3868
-4.79126 0.871682 3.36283
-4.77752 0.86517 3.32882
-4.77671 0.862799 3.30385
-4.77092 0.858381 3.27586
-4.76414 0.853961 3.24788
-4.76223 0.852768 3.23488
-4.76042 0.849411 3.21091
-4.75762 0.846025 3.18493
-4.74784 0.841574 3.15492
-4.74702 0.838233 3.13196
-4.75116 0.836955 3.11301
-4.74438 0.832535 3.08502
-4.73751 0.830279 3.068
-4.73766 0.827968 3.04703
-4.73088 0.823549 3.01904
-4.72508 0.82016 2.99305
-4.72027 0.816787 2.96806
-4.71944 0.813446 2.9451
-4.71861 0.81112 2.92312
-4.71878 0.808794 2.90115
-4.7109 0.805552 2.88514
-4.71205 0.804257 2.86517
-4.69829 0.798774 2.83314
-4.69945 0.796478 2.81318
-4.69463 0.79312 2.78919
-4.69081 0.789762 2.76521
-4.68898 0.787435 2.74322
-4.68508 0.78524 2.73023
-4.67827 0.781865 2.70522
-4.67942 0.77957 2.68526
-4.67559 0.777227 2.66226
-4.67276 0.774899 2.64027
-4.66397 0.770494 2.61327
-4.66313 0.768182 2.59229
-4.65623 0.76597 2.57827
-4.65439 0.763658 2.55729
-4.65355 0.761347 2.53631
-4.64774 0.757987 2.51232
-4.64788 0.755706 2.49335
-4.64306 0.752363 2.47036
-4.6452 0.751083 2.45139
-4.63531 0.747854 2.43636
-4.63048 0.745525 2.41436
-4.62366 0.742165 2.39035
-4.62182 0.739867 2.37037
-4.62495 0.738603 2.35241
-4.62609 0.736338 2.33445
-4.61927 0.732978 2.31045
-4.61337 0.730781 2.29743
-4.60953 0.728468 2.27643
-4.60868 0.726186 2.25746
-4.60484 0.723872 2.23646
-4.60399 0.721576 2.21649
-4.60313 0.720294 2.1975
-4.60028 0.717996 2.17751
-4.59943 0.715714 2.15853
-4.59153 0.713501 2.1445
-4.59665 0.712283 2.12956
-4.58882 0.708937 2.10654
-4.58996 0.707671 2.08857
-4.5745 0.69861 2.01758
-4.57564 0.697344 1.9996
-4.57179 0.695045 1.9796
-4.56123 0.688179 1.92162
-4.55559 0.68348 1.87464
-4.54975 0.680165 1.85364
-4.54887 0.678913 1.83665
-4.54702 0.67663 1.81767
-4.54316 0.674346 1.79867
-4.53638 0.670912 1.76966
-4.53551 0.66966 1.75267
-4.53166 0.667376 1.73368
-4.5288 0.665093 1.71469
-4.52308 0.661556 1.67869
-4.5087 0.652332 1.59671
-4.50882 0.651095 1.58072
-4.50596 0.649827 1.56272
-4.50309 0.647558 1.54473
-4.49119 0.644358 1.53168
-4.49531 0.644138 1.51672
-4.48969 0.63938 1.46574
-4.48782 0.638127 1.44874
-4.47903 0.634706 1.42072
-4.47916 0.633469 1.40474
-4.47142 0.628946 1.36974
-4.46955 0.627693 1.35274
-4.46081 0.624183 1.31872
-4.46392 0.622963 1.30376
-4.45712 0.620574 1.27775
-4.45624 0.619336 1.26175
-4.4485 0.615827 1.22774
-4.44463 0.613573 1.21075
-4.43982 0.6112 1.18574
-4.44093 0.609978 1.17077
-4.43717 0.607502 1.13877
-4.4343 0.606248 1.12176
-4.42057 0.601721 1.08672
-4.42461 0.601635 1.08075
-4.41387 0.598124 1.04672
-4.41997 0.597936 1.03377
-4.41321 0.594457 1.00176
-4.40734 0.593201 0.984735
-4.40452 0.590859 0.961745
-4.39865 0.589603 0.944717
-4.40275 0.589399 0.930749
-4.3859 0.585105 0.911683
-4.387 0.584899 0.897692
-4.38518 0.582557 0.87471
-4.38928 0.582353 0.860742
-4.38252 0.579889 0.829723
-4.38063 0.578666 0.814725
-4.36588 0.574167 0.781676
-4.36594 0.574063 0.774677
-4.37303 0.574876 0.761717
-4.36716 0.572635 0.745703
-4.36427 0.571411 0.730698
-4.36537 0.571204 0.716707
-4.3575 0.568947 0.699679
-4.35661 0.567739 0.685688
-4.35772 0.567532 0.671698
-4.34579 0.564376 0.661653
-4.35089 0.565187 0.648678
-4.34601 0.562947 0.632672
-4.34712 0.56274 0.618681
-4.34323 0.561516 0.603668
-4.33835 0.56029 0.588647
-4.3384 0.559187 0.581663
-4.33351 0.557961 0.566642
-4.33362 0.557754 0.552644
-4.33073 0.55653 0.537639
-4.32385 0.554303 0.522618
-4.33194 0.555116 0.509665
-4.32506 0.552889 0.494644
-4.32117 0.551664 0.479631
-4.32222 0.551561 0.472639
-4.31534 0.550334 0.457603
-4.31344 0.549126 0.443605
-4.31555 0.54892 0.429622
-4.31665 0.548713 0.415631
-4.30877 0.546486 0.400603
-4.30488 0.545276 0.38659
-4.30194 0.544155 0.378583
-4.30203 0.543963 0.365585
-4.30014 0.542754 0.351586
-4.29625 0.541529 0.336573
-4.28837 0.540302 0.32153
-4.29047 0.540111 0.308547
-4.28857 0.538902 0.294548
-4.28762 0.538798 0.287542
-4.28174 0.536572 0.272528
-4.28184 0.536379 0.25953
-4.28094 0.536171 0.245525
