3.91705 -0.417918 3.75833
3.92228 -0.418462 3.78931
3.90957 -0.41889 3.82741
3.9137 -0.418642 3.84438
3.90684 -0.419355 3.86345
3.90805 -0.418941 3.89143
3.89716 -0.418726 3.90552
3.89535 -0.419355 3.93054
3.88546 -0.419125 3.94561
3.88768 -0.419683 3.97561
3.88586 -0.420326 3.99964
3.89101 -0.420033 4.0196
3.88114 -0.419789 4.03567
3.87832 -0.420432 4.0597
3.8755 -0.420059 4.08472
3.87471 -0.420659 4.11174
3.86181 -0.420457 4.12484
3.86807 -0.420943 4.1598
3.85729 -0.421491 4.1899
3.85146 -0.421161 4.21194
3.85471 -0.421675 4.24493
3.84808 -0.421929 4.29499
3.83732 -0.422462 4.32608
3.8307 -0.422702 4.37714
3.81804 -0.423026 4.42225
3.73849 -0.427185 4.88097
3.69758 -0.429038 5.15934
3.68689 -0.429423 5.20044
3.67835 -0.430513 5.26153
3.6642 -0.431815 5.37567
3.65063 -0.431961 5.43278
3.64314 -0.432948 5.50086
3.63162 -0.433992 5.56497
3.62906 -0.434131 5.623
3.61451 -0.435232 5.68313
3.59439 -0.436484 5.80032
3.58594 -0.437397 5.87341
3.55442 -0.439456 6.0707
3.54398 -0.440352 6.1448
3.51259 -0.44316 6.35911
3.50182 -0.443693 6.39021
3.49042 -0.4445 6.47031
3.48169 -0.44496 6.50639
3.47418 -0.445992 6.57147
3.46748 -0.44641 6.61054
3.46079 -0.446797 6.6516
3.45614 -0.447098 6.69864
3.44844 -0.4475 6.73871
3.44073 -0.447917 6.77778
3.43326 -0.449874 6.84788
3.38643 -0.45356 7.13732
3.34716 -0.456125 7.36769
3.35249 -0.457477 7.41168
3.34486 -0.457746 7.46074
3.3291 -0.45826 7.49287
3.32352 -0.459442 7.54794
3.3159 -0.459681 7.59901
3.30624 -0.460007 7.64409
3.30169 -0.461115 7.70415
3.28798 -0.461542 7.74227
4.27478 -0.388184 1.45888
4.2644 -0.387962 1.54097
4.21661 -0.385589 1.83433
4.21372 -0.385364 1.84935
4.21083 -0.38614 1.86439
4.20701 -0.385797 1.88741
4.20425 -0.385321 1.91943
4.19559 -0.384633 1.96549
4.1919 -0.385024 2.00653
4.19002 -0.384785 2.02255
4.17648 -0.384872 2.08366
4.17467 -0.3845 2.10867
4.1738 -0.384248 2.12567
4.1679 -0.384036 2.13972
4.16233 -0.384188 2.19677
4.15016 -0.383565 2.30587
3.93927 -0.382522 3.65063
3.93946 -0.382152 3.67562
3.93561 -0.381839 3.69665
3.9237 -0.381652 3.70874
3.92389 -0.382282 3.73375
3.92106 -0.381954 3.75577
3.92025 -0.382569 3.78179
3.92135 -0.382377 3.79478
3.90763 -0.381819 3.83188
3.91084 -0.382407 3.85987
3.90399 -0.382105 3.87992
3.89915 -0.382791 3.90097
3.90035 -0.382392 3.92796
3.89098 -0.383141 4.01205
3.88211 -0.382898 4.02811
3.87728 -0.382553 4.05115
3.87275 -0.383617 4.11421
3.87094 -0.383246 4.13922
3.85523 -0.383671 4.17735
3.85443 -0.383271 4.20435
3.85757 -0.383992 4.22334
3.84871 -0.383719 4.24141
3.8423 -0.383559 4.31947
3.81954 -0.384068 4.35165
3.31657 -0.404413 7.54918
3.13063 -0.415431 8.75591
4.56457 -0.391371 -0.297498
4.55868 -0.391159 -0.283455
4.56273 -0.391059 -0.276486
4.55385 -0.39083 -0.26142
4.55995 -0.390627 -0.247467
4.55217 -0.390192 -0.218411
4.55027 -0.389984 -0.204398
4.54138 -0.38977 -0.190332
4.54743 -0.38967 -0.183378
4.53754 -0.389456 -0.169305
4.54265 -0.389238 -0.154345
4.53876 -0.389027 -0.140316
4.53186 -0.388815 -0.126266
4.52897 -0.388606 -0.112245
4.52507 -0.388396 -0.0982169
4.53219 -0.388179 -0.0832717
4.51823 -0.38708 -0.077182
4.51934 -0.386873 -0.0631914
4.52845 -0.387658 -0.0482464
4.52556 -0.387448 -0.0342258
4.51366 -0.386232 -0.0201522
4.52077 -0.38703 -0.00619199
4.51293 -0.385713 0.0148505
4.50803 -0.385503 0.0288862
4.51114 -0.385298 0.0428617
4.50535 -0.384879 0.070903
4.50446 -0.384656 0.0859084
4.49951 -0.384563 0.0919452
4.49261 -0.384351 0.105996
4.49272 -0.384144 0.119994
4.48982 -0.383934 0.134015
4.49093 -0.383728 0.148005
4.48503 -0.383516 0.162048
4.48014 -0.383306 0.176084
4.48225 -0.3831 0.190067
4.48331 -0.382982 0.198059
4.48641 -0.382777 0.212034
4.47651 -0.382577 0.225107
4.47573 -0.382147 0.254111
4.46783 -0.381949 0.267169
4.46793 -0.381742 0.281167
4.47099 -0.381626 0.289144
4.46109 -0.381426 0.302217
4.4593 -0.38101 0.330228
4.45541 -0.3808 0.344257
4.45551 -0.380593 0.358255
4.45457 -0.380488 0.365261
4.44666 -0.38029 0.37832
4.45878 -0.380062 0.394227
4.44888 -0.379862 0.407301
4.44198 -0.379665 0.420351
4.43809 -0.379454 0.43438
4.4422 -0.379235 0.449347
4.43635 -0.378935 0.46939
4.43546 -0.378712 0.484395
4.42755 -0.378529 0.496454
4.42667 -0.378306 0.511459
4.43078 -0.378087 0.526427
4.42004 -0.377575 0.560505
4.41324 -0.377171 0.587554
4.41435 -0.376949 0.602544
4.40745 -0.376752 0.615595
4.40366 -0.376335 0.643622
4.40572 -0.376218 0.651605
4.40282 -0.376023 0.664626
4.40193 -0.3758 0.679632
4.39904 -0.375591 0.693652
4.40415 -0.375372 0.708613
4.39124 -0.375185 0.720709
4.3933 -0.375068 0.728693
4.3884 -0.374872 0.741728
4.39252 -0.374638 0.757696
4.38962 -0.374444 0.770717
4.38773 -0.37422 0.78573
4.38082 -0.374037 0.797781
4.37799 -0.37371 0.8198
4.38411 -0.373477 0.835753
4.37319 -0.373306 0.846834
4.37142 -0.372861 0.876845
4.36952 -0.372652 0.890858
4.36379 -0.37213 0.925899
4.35699 -0.371725 0.952948
4.3551 -0.372501 0.967975
4.36624 -0.372243 0.98589
4.34831 -0.372082 0.996024
4.34848 -0.371756 1.01802
4.34258 -0.371559 1.03106
4.33968 -0.37135 1.04509
4.3398 -0.371128 1.06008
4.34091 -0.370906 1.07507
4.33701 -0.370696 1.0891
4.34208 -0.370567 1.09806
4.33217 -0.370382 1.11014
4.33229 -0.37016 1.12513
4.3314 -0.369937 1.14014
4.3265 -0.369741 1.15318
4.32561 -0.369518 1.16818
4.3308 -0.370152 1.19315
4.32389 -0.368969 1.20519
4.31109 -0.368575 1.23129
4.31221 -0.369338 1.24729
4.31032 -0.369115 1.2623
4.31143 -0.368894 1.27729
4.30654 -0.368683 1.29133
4.3096 -0.368552 1.30031
4.31072 -0.36833 1.3153
4.30683 -0.368106 1.33032
4.29892 -0.367922 1.34238
4.29302 -0.367725 1.35543
4.29013 -0.367516 1.36945
4.29025 -0.367279 1.38544
4.30234 -0.368095 1.39837
4.28641 -0.36695 1.40747
4.29266 -0.367466 1.44044
4.28275 -0.367281 1.45251
4.28689 -0.367018 1.47048
4.28795 -0.3669 1.47847
4.27904 -0.366716 1.49053
4.27715 -0.366492 1.50555
4.28028 -0.366243 1.52252
4.27338 -0.366045 1.53557
4.27261 -0.365586 1.56658
4.27468 -0.365439 1.57656
4.26376 -0.365283 1.58664
4.2669 -0.366019 1.60463
4.26011 -0.365584 1.63368
4.23124 -0.364357 1.7829
4.22371 -0.363419 1.84595
4.2249 -0.363049 1.87094
4.22302 -0.362811 1.88695
4.22013 -0.363587 1.90199
4.21123 -0.362388 1.91504
4.21537 -0.363109 1.93402
4.2155 -0.362858 1.95102
4.20659 -0.362673 1.96309
4.20665 -0.362555 1.97109
4.20678 -0.362303 1.98808
4.20289 -0.362078 2.00311
4.19901 -0.361839 2.01914
4.19714 -0.3616 2.03515
4.18622 -0.36143 2.04623
4.19137 -0.362137 2.06621
4.18353 -0.361806 2.08826
4.18668 -0.361526 2.10724
4.1838 -0.361287 2.12326
4.17187 -0.361131 2.13335
4.17402 -0.360851 2.15233
4.17013 -0.360626 2.16736
4.16424 -0.360414 2.1814
4.1623 -0.361294 2.18943
4.16745 -0.360987 2.21039
4.15955 -0.360789 2.22345
4.15064 -0.360605 2.23551
4.1548 -0.360297 2.25648
4.15192 -0.360058 2.2725
4.14904 -0.359819 2.28852
4.15514 -0.360631 2.30149
4.14121 -0.360472 2.31159
4.14235 -0.360207 2.32958
4.14249 -0.35994 2.34758
4.13358 -0.359741 2.36065
4.14377 -0.360378 2.38558
4.13085 -0.359221 2.39567
4.12489 -0.359143 2.40071
4.12503 -0.359861 2.41972
4.12416 -0.359594 2.43773
4.11727 -0.359382 2.45178
4.12043 -0.359073 2.47275
4.11554 -0.358847 2.48779
4.1126 -0.358727 2.49581
4.10872 -0.358487 2.51184
4.10686 -0.359219 2.52986
4.08956 -0.358829 2.623
4.0887 -0.358547 2.64201
4.08985 -0.358252 2.662
4.08396 -0.358025 2.67704
4.07157 -0.357832 2.75714
4.06569 -0.35759 2.77318
4.05996 -0.357053 2.80922
4.0591 -0.357771 2.82824
4.05632 -0.35734 2.85726
4.05144 -0.357099 2.8733
4.03822 -0.356549 2.9774
4.02763 -0.356742 3.03149
4.01512 -0.35677 3.0966
4.00772 -0.35658 3.17666
3.98551 -0.356024 3.28084
3.79944 -0.355324 4.46839
3.80169 -0.354822 4.50237
3.79273 -0.354742 4.50744
3.79095 -0.355311 4.53646
3.78714 -0.354923 4.56249
3.77753 -0.355161 4.61357
3.77675 -0.355716 4.64359
3.77094 -0.355341 4.66863
3.77713 -0.354976 4.69358
3.77536 -0.35553 4.72361
3.76045 -0.355327 4.73672
3.75869 -0.355866 4.76775
3.75591 -0.35542 4.79777
3.74606 -0.355132 4.81684
3.74632 -0.355613 4.85185
3.74847 -0.355319 4.87183
3.73964 -0.355986 4.89391
3.73585 -0.355554 4.92294
3.73612 -0.356036 4.95795
3.73031 -0.355647 4.98399
3.71644 -0.355385 5.00109
3.71367 -0.355924 5.03212
3.71785 -0.355572 5.05609
3.71307 -0.356153 5.08414
3.71133 -0.355634 5.11915
3.70554 -0.356215 5.1472
3.69773 -0.355839 5.17226
3.69498 -0.356348 5.20529
3.6902 -0.3559 5.23533
3.68038 -0.356553 5.25841
3.68356 -0.3562 5.28239
3.67474 -0.356823 5.30747
3.67706 -0.356203 5.34945
3.66723 -0.356855 5.37253
3.66247 -0.356377 5.40457
3.65165 -0.357029 5.42766
3.64284 -0.356652 5.45273
3.6521 -0.357141 5.48767
3.64633 -0.356677 5.51871
3.63551 -0.357314 5.5428
3.6338 -0.35675 5.58081
3.62703 -0.357301 5.61088
3.61521 -0.356937 5.63496
3.61552 -0.357315 5.67697
3.61365 -0.357062 5.69398
3.60892 -0.357525 5.73003
3.60621 -0.357946 5.76906
3.59743 -0.357524 5.79713
3.58763 -0.357118 5.8242
3.58593 -0.357524 5.86422
3.57919 -0.358015 5.89829
3.58544 -0.358516 5.93225
3.57565 -0.358095 5.96032
3.56992 -0.358557 5.99638
3.56115 -0.358107 6.02644
3.55239 -0.358626 6.05852
3.55172 -0.358974 6.10254
3.54297 -0.358479 6.1356
3.5472 -0.359023 6.16658
3.54047 -0.358485 6.20263
3.53578 -0.358874 6.24367
3.52602 -0.359408 6.27476
3.52132 -0.358798 6.31579
3.51258 -0.359288 6.34987
3.51378 -0.359903 6.37587
3.51011 -0.359234 6.4209
3.49833 -0.359796 6.45
3.49366 -0.360156 6.49305
3.48492 -0.359631 6.52811
3.47925 -0.359976 6.57216
3.47153 -0.360422 6.60923
3.46282 -0.360853 6.64731
3.46606 -0.360381 6.67928
3.4604 -0.360711 6.72434
3.44864 -0.361228 6.75644
3.44195 -0.360601 6.79848
3.43325 -0.361017 6.83756
3.42862 -0.361288 6.88661
3.42217 -0.362188 6.96068
3.36215 -0.363279 7.3572
3.34687 -0.363846 7.45334
3.13391 -0.370934 8.78923
3.11417 -0.370417 8.82338
3.05487 -0.373057 9.18291
3.00732 -0.374209 9.50833
4.28138 -0.332054 1.39999
4.25471 -0.329414 1.57718
4.25484 -0.329177 1.59318
4.25006 -0.329729 1.62322
4.24522 -0.329415 1.64426
4.21954 -0.326805 1.81944
4.22362 -0.327645 1.83042
4.21873 -0.327434 1.84446
4.20881 -0.327264 1.85553
4.21597 -0.326958 1.87647
4.20907 -0.32676 1.88953
4.20436 -0.326179 1.92856
4.19068 -0.325533 1.97166
4.18304 -0.324831 2.01871
4.17734 -0.325235 2.05877
4.17459 -0.324744 2.09178
4.17572 -0.324478 2.10977
4.16681 -0.324294 2.12184
4.16601 -0.323908 2.14784
4.15536 -0.323219 2.19392
4.14873 -0.323489 2.24298
4.14679 -0.323369 2.25099
4.14692 -0.323103 2.26899
4.0893 -0.319426 2.71743
4.07016 -0.318709 2.83258
4.05492 -0.317203 2.93369
4.04171 -0.316653 3.0378
4.02423 -0.316604 3.10794
4.02054 -0.315994 3.14896
4.00904 -0.316008 3.21506
4.00334 -0.315411 3.2551
3.99646 -0.31517 3.27115
3.9937 -0.314708 3.30216
3.9838 -0.314494 3.31624
3.98598 -0.31514 3.34023
3.98515 -0.314814 3.36224
3.97022 -0.314655 3.37235
3.97644 -0.31423 3.4013
3.97058 -0.313959 3.41934
3.97368 -0.313754 3.43332
3.97084 -0.314441 3.45435
3.96498 -0.31417 3.4724
3.96314 -0.313843 3.49441
3.95727 -0.313587 3.51145
3.95242 -0.313287 3.53149
3.95068 -0.313782 3.56551
3.95187 -0.313413 3.5905
3.92525 -0.312669 3.77472
3.91758 -0.312026 3.81777
3.91182 -0.311534 3.85081
3.89365 -0.310891 3.96095
3.89083 -0.311534 3.98499
3.88408 -0.31104 4.01803
3.87723 -0.310739 4.03808
3.87844 -0.310325 4.06607
3.87462 -0.310982 4.08912
3.86798 -0.310266 4.13716
3.86506 -0.310101 4.14818
3.8546 -0.310027 4.22027
3.84978 -0.309683 4.2433
3.84596 -0.309325 4.26733
3.7642 -0.307883 4.69899
3.75638 -0.307536 4.72204
3.7536 -0.30709 4.75206
3.7517 -0.306896 4.76507
3.74993 -0.307451 4.7951
3.74918 -0.306961 4.8281
3.72772 -0.30688 4.90027
3.72595 -0.306419 4.93128
3.72231 -0.30672 4.97832
3.7155 -0.30633 5.00437
3.7097 -0.305941 5.03041
3.70896 -0.306422 5.06543
3.69912 -0.306104 5.0865
3.68666 -0.306029 5.15861
3.67914 -0.30509 5.22166
3.65342 -0.304554 5.39187
3.64086 -0.304671 5.45097
3.63134 -0.304716 5.51505
3.62877 -0.303871 5.57207
3.61522 -0.303972 5.63218
3.44043 -0.300703 6.7236
3.40602 -0.300553 6.93488
3.38425 -0.300123 7.09806
3.34493 -0.299792 7.32139
3.34924 -0.300173 7.36337
3.34467 -0.29934 7.41939
3.32888 -0.299899 7.44853
3.32532 -0.299038 7.50655
3.31364 -0.299407 7.54865
3.31009 -0.299516 7.60868
3.29839 -0.298915 7.64877
3.13281 -0.297238 8.76815
3.11782 -0.297212 8.76926
3.94673 -0.284723 3.56911
3.94984 -0.284504 3.58409
3.947 -0.284176 3.60611
3.93849 -0.284207 3.67118
3.93465 -0.283893 3.69221
3.92322 -0.282759 3.76829
3.91435 -0.282501 3.78535
3.9085 -0.282216 3.8044
3.9089 -0.282431 3.8574
3.79924 -0.276807 4.43523
3.80149 -0.277319 4.46822
3.8006 -0.277097 4.48323
3.78996 -0.276393 4.5303
3.78415 -0.276018 4.55534
3.77958 -0.276171 4.61239
3.77275 -0.275825 4.63544
3.76984 -0.275646 4.64746
3.76731 -0.274726 4.70947
3.76175 -0.274848 4.76852
3.75102 -0.274322 4.8036
3.7485 -0.274372 4.86763
3.74169 -0.273997 4.89268
3.73184 -0.273694 4.91275
3.71721 -0.272957 4.96186
3.72469 -0.273015 5.02581
3.71512 -0.272164 5.08288
3.70934 -0.27173 5.11192
3.70557 -0.272268 5.14296
3.69674 -0.271921 5.16603
3.68907 -0.271264 5.21008
3.67881 -0.270806 5.30816
3.67507 -0.270299 5.34219
3.65947 -0.270503 5.39532
3.65314 -0.269181 5.48436
3.64232 -0.268817 5.50844
3.62674 -0.268977 5.56456
3.62402 -0.268427 5.60158
3.61774 -0.268015 5.69664
3.60522 -0.267058 5.76073
3.58614 -0.266238 5.88287
3.56858 -0.266351 5.94202
3.56321 -0.265103 6.02605
3.54216 -0.264222 6.15221
3.52871 -0.264131 6.22532
3.52706 -0.263449 6.27133
3.5175 -0.263583 6.32941
3.50406 -0.263463 6.40452
3.48699 -0.262629 6.52766
3.44503 -0.260585 6.79898
3.43735 -0.259957 6.84103
3.38745 -0.258789 7.12043
3.11419 -0.247549 8.81356
3.10163 -0.247666 8.87266
3.10404 -0.246868 8.92664
3.09148 -0.246985 8.98574
3.07894 -0.247072 9.04685
3.0664 -0.24616 9.10794
3.05591 -0.246145 9.17603
3.04236 -0.245262 9.23512
3.04482 -0.245345 9.29711
3.03128 -0.244432 9.35821
3.01983 -0.244343 9.4313
3.00631 -0.2444 9.49442
2.99179 -0.243442 9.55852
2.98137 -0.243294 9.63561
2.9663 -0.242461 9.75873
2.95077 -0.242517 9.82185
2.93631 -0.241455 9.89296
2.92389 -0.241291 9.97106
2.85844 -0.238283 10.4416
3.92633 -0.244573 3.64568
3.87078 -0.240719 3.97109
3.86695 -0.240391 3.99311
3.86333 -0.239633 4.04414
3.8596 -0.239097 4.08016
3.85477 -0.238768 4.1022
3.84893 -0.238438 4.12424
3.84309 -0.238123 4.14528
3.83645 -0.237407 4.19333
3.83375 -0.236828 4.23235
3.83195 -0.237426 4.25937
3.82814 -0.237053 4.2844
3.82936 -0.23661 4.31439
3.81849 -0.236365 4.33047
3.81064 -0.236063 4.35052
3.29709 -0.195651 7.59824
3.28844 -0.194949 7.6453
3.13341 -0.182184 8.70343
4.51671 -0.274291 -0.0248328
4.5034 -0.272934 0.06626
4.50267 -0.2724 0.102263
4.47778 -0.270205 0.249438
4.47588 -0.269997 0.263451
4.46062 -0.268534 0.361558
4.45204 -0.267699 0.417618
4.45015 -0.26749 0.431631
4.10906 -0.235982 2.54503
4.10547 -0.235165 2.60005
4.09865 -0.23482 2.6231
4.09779 -0.234538 2.6421
4.09593 -0.234255 2.66112
4.07952 -0.233103 2.73823
4.07967 -0.232807 2.75823
4.0689 -0.23234 2.78931
4.05466 -0.229834 2.89039
4.05381 -0.229537 2.9104
4.05296 -0.229241 2.9304
4.04306 -0.229041 2.94348
4.04724 -0.228688 2.96744
4.03642 -0.22834 2.99052
4.0307 -0.227773 3.02856
4.03187 -0.227448 3.05055
4.027 -0.227193 3.06759
4.02112 -0.226937 3.08463
4.02624 -0.226718 3.09959
4.01952 -0.226166 3.13664
4.01767 -0.225853 3.15765
4.00979 -0.225626 3.17271
4.00593 -0.225341 3.19173
3.99804 -0.225114 3.20679
4.00332 -0.224569 3.24375
3.98773 -0.223758 3.29786
3.98187 -0.223488 3.31591
3.98103 -0.223161 3.33791
3.98112 -0.222984 3.34991
3.97224 -0.222755 3.36497
3.96838 -0.222471 3.384
3.96855 -0.22213 3.407
3.96571 -0.221817 3.42802
3.96213 -0.220986 3.48404
3.95526 -0.220729 3.50109
3.95141 -0.22043 3.52112
3.94252 -0.220201 3.53618
3.01508 -0.125012 9.45258
2.98748 -0.121237 9.63876
2.97505 -0.120118 9.71384
2.96465 -0.118926 9.79391
2.9471 -0.118039 9.85304
2.93159 -0.117065 9.91815
2.90522 -0.113833 10.1353
2.89183 -0.112624 10.2164
2.87228 -0.111736 10.2756
2.85787 -0.10957 10.3537
2.38268 -0.0604157 13.3829
3.93577 -0.184756 3.56571
3.92991 -0.184485 3.58376
3.93311 -0.183088 3.61072
3.93935 -0.182633 3.64167
3.92241 -0.182502 3.64979
3.91664 -0.182039 3.68083
3.91601 -0.181313 3.72983
3.90733 -0.180685 3.7719
3.90954 -0.179272 3.79986
3.90973 -0.178902 3.82486
3.90296 -0.178438 3.85591
3.89611 -0.178137 3.87596
3.88723 -0.177893 3.89202
3.8844 -0.177551 3.91504
3.87755 -0.177264 3.93409
3.88874 -0.176902 3.95901
3.87986 -0.176644 3.97607
3.87242 -0.174558 4.04911
3.86254 -0.174299 4.06618
3.86174 -0.173913 4.09218
3.85903 -0.173334 4.1312
3.84858 -0.17126 4.20326
3.84273 -0.170945 4.2243
3.8185 -0.169417 4.32648
3.82175 -0.168931 4.35945
3.76297 -0.162535 4.65384
3.73706 -0.159369 4.79901
3.70291 -0.154716 5.04423
3.68741 -0.153727 5.11034
3.6673 -0.150965 5.22847
3.65689 -0.148803 5.30652
3.6527 -0.147201 5.41455
3.63408 -0.145447 5.46467
3.62731 -0.144998 5.49472
3.62403 -0.143574 5.59073
3.60814 -0.14334 5.60585
3.59391 -0.140819 5.70793
3.58816 -0.140326 5.74098
3.59035 -0.139958 5.76596
3.58561 -0.138436 5.80097
3.57582 -0.138029 5.82805
3.5721 -0.137479 5.86507
3.56332 -0.137028 5.89513
3.55793 -0.134825 5.97615
3.55608 -0.134527 5.99617
3.5463 -0.134106 6.02424
3.54259 -0.133525 6.06326
3.5281 -0.131508 6.13135
3.5244 -0.130913 6.17138
3.51888 -0.129976 6.23441
3.51723 -0.128294 6.28041
3.50238 -0.127972 6.30152
3.49972 -0.127304 6.34653
3.48591 -0.126923 6.37163
3.48264 -0.1245 6.46764
3.47065 -0.124461 6.46973
3.46231 -0.123167 6.55678
3.45258 -0.121627 6.59284
3.4479 -0.120987 6.63587
3.43919 -0.120418 6.67393
3.43939 -0.120033 6.69993
3.44286 -0.118102 6.76288
3.43111 -0.117605 6.79597
3.41834 -0.117152 6.82606
3.41674 -0.115351 6.88005
3.40397 -0.114897 6.91015
3.38885 -0.112169 7.02624
3.34771 -0.107481 7.27351
3.34109 -0.106736 7.32356
3.33852 -0.104876 7.38156
3.32377 -0.104376 7.41467
3.31613 -0.103675 7.46172
3.31258 -0.101784 7.52173
3.30699 -0.10098 7.57576
3.30826 -0.100433 7.61275
3.29048 -0.0990056 7.64087
3.12761 -0.0759247 8.7199
3.11979 -0.0755637 8.74396
3.92152 -0.148328 3.6613
3.91081 -0.146743 3.70036
3.90242 -0.145537 3.78141
3.3786 -0.0607453 7.12157
3.34471 -0.0565441 7.26878
3.34622 -0.0545531 7.33575
3.33045 -0.0540826 7.36686
3.32382 -0.0523523 7.4159
3.31519 -0.0506205 7.46494
3.29159 -0.0458641 7.65007
3.27583 -0.045364 7.68319
3.03054 -0.00322027 9.23563
4.53807 -0.188648 -0.251293
4.51597 -0.186855 -0.131136
4.52609 -0.18664 -0.116214
4.50546 -0.1859 -0.0670623
4.50656 -0.185693 -0.0530717
4.50177 -0.185275 -0.025038
4.49214 -0.185543 0.0240453
4.49346 -0.184907 0.0670319
4.48656 -0.184709 0.0800827
4.47114 -0.183558 0.157193
4.46441 -0.183035 0.19224
4.46663 -0.182607 0.221221
4.37004 -0.173874 0.806901
4.36129 -0.173364 0.840963
4.35461 -0.172737 0.88301
4.33078 -0.169425 1.03816
4.32811 -0.168771 1.08218
4.31937 -0.168247 1.11724
4.31648 -0.168037 1.13126
4.3137 -0.167606 1.16028
4.30992 -0.167173 1.18931
4.30796 -0.167083 1.19532
4.30507 -0.166859 1.21034
4.2984 -0.165217 1.25337
4.30057 -0.164878 1.27636
4.29769 -0.164654 1.29138
4.28889 -0.164248 1.31844
4.29502 -0.163986 1.33639
4.28121 -0.163606 1.36149
4.28127 -0.163487 1.36949
4.28339 -0.163252 1.38548
4.28351 -0.163015 1.40147
4.28163 -0.161792 1.41647
4.26782 -0.162411 1.44159
4.26593 -0.161188 1.45659
4.26498 -0.161084 1.46359
4.27413 -0.160794 1.48352
4.26835 -0.16036 1.51256
4.25744 -0.16019 1.52365
4.26458 -0.159913 1.54259
4.25566 -0.159744 1.55366
4.25679 -0.159493 1.57065
4.24517 -0.15873 1.62173
4.23927 -0.158533 1.63477
4.25144 -0.157216 1.65666
4.20976 -0.153594 1.83195
4.21591 -0.153303 1.8519
4.20493 -0.15325 1.85498
4.2161 -0.152933 1.8769
4.20217 -0.152789 1.886
4.20832 -0.152497 1.90595
4.19539 -0.15234 1.91605
4.20456 -0.151021 1.93796
4.19565 -0.150837 1.95003
4.19075 -0.150626 1.96407
4.1858 -0.150533 1.9701
4.19095 -0.150241 1.99006
4.17803 -0.150084 2.00016
4.19021 -0.149737 2.02407
4.17427 -0.149607 2.03219
4.17741 -0.149328 2.05116
4.16668 -0.148787 2.08724
4.16581 -0.147535 2.10423
4.16494 -0.147282 2.12123
4.16306 -0.147044 2.13725
4.15315 -0.146859 2.14932
4.16534 -0.146498 2.17423
4.15235 -0.146474 2.17532
4.1585 -0.146167 2.19628
4.15362 -0.144941 2.2113
4.15174 -0.144703 2.22731
4.149 -0.144183 2.26233
4.13701 -0.144159 2.26342
4.14217 -0.143852 2.28438
4.13427 -0.143654 2.29744
4.13842 -0.143346 2.3184
4.12966 -0.141881 2.34945
4.11888 -0.141443 2.37853
4.11593 -0.141338 2.38555
4.11909 -0.141029 2.40653
4.11119 -0.140831 2.41958
4.12138 -0.139468 2.44449
4.10659 -0.139043 2.4726
4.09803 -0.138163 2.53166
4.09114 -0.13795 2.54571
4.08827 -0.137682 2.56373
4.0864 -0.136429 2.58073
4.08353 -0.136175 2.59775
4.08375 -0.135746 2.62674
4.07786 -0.135519 2.64179
4.08002 -0.13521 2.66277
4.06639 -0.133474 2.71185
4.06446 -0.13334 2.72087
4.06662 -0.13303 2.74185
4.04625 -0.130772 2.82598
4.04346 -0.130355 2.854
4.04864 -0.129004 2.87794
4.04276 -0.128762 2.89399
4.03201 -0.128266 2.92706
4.03008 -0.128131 2.93608
4.02621 -0.127877 2.95311
4.02435 -0.127594 2.97212
4.02149 -0.126311 2.99112
4.01376 -0.125787 3.02618
4.01392 -0.125461 3.04818
4.01417 -0.123988 3.08016
4.00426 -0.123788 3.09323
3.99855 -0.123221 3.13127
3.98319 -0.120951 3.21636
3.98135 -0.120639 3.23738
3.97179 -0.118773 3.29543
3.95947 -0.116417 3.3865
3.95663 -0.116104 3.40752
3.95278 -0.11482 3.42653
3.94902 -0.114343 3.45856
3.94031 -0.113759 3.49762
3.7875 -0.0865374 4.4515
3.79188 -0.0848003 4.50145
3.78932 -0.0829397 4.55945
3.77364 -0.0822915 4.60256
3.7648 -0.0809742 4.62361
3.75886 -0.0808515 4.63166
3.76012 -0.0803489 4.66564
3.75935 -0.0788894 4.69663
3.75177 -0.0770695 4.75167
3.74216 -0.0762925 4.80374
3.74154 -0.0745518 4.85372
3.73675 -0.0731338 4.88174
3.7269 -0.0728305 4.90182
3.71732 -0.0709944 4.95787
3.71253 -0.070591 4.9849
3.69298 -0.0686884 5.04503
3.67125 -0.0641851 5.21315
3.65867 -0.0623468 5.26922
3.66503 -0.0606408 5.31716
3.64972 -0.0572823 5.40824
3.62822 -0.0552894 5.47438
3.62478 -0.0531764 5.54938
3.62206 -0.0526266 5.5864
3.61326 -0.0512353 5.61245
3.61342 -0.0509244 5.63345
3.58433 -0.0471117 5.75463
3.42913 -0.013704 6.78844
3.15258 0.0399125 8.43896
3.08353 0.0577211 8.96329
3.07303 0.0607058 9.02933
3.06151 0.062647 9.0924
3.04998 0.0645882 9.15547
3.0395 0.0666027 9.22353
3.02699 0.0685742 9.2886
3.01489 0.0733448 9.40764
3.0024 0.0753607 9.47571
2.98991 0.0773619 9.54278
2.97334 0.0792179 9.59989
2.9619 0.0823218 9.67394
2.94637 0.0842659 9.73704
2.92298 0.0914366 9.95014
2.90649 0.0934406 10.0172
2.89304 0.0965459 10.0913
2.87655 0.09855 10.1584
2.86262 0.103663 10.3005
2.84616 0.105726 10.3716
4.54269 -0.165424 -0.303679
4.53228 -0.164262 -0.225607
4.51887 -0.164097 -0.147497
4.51208 -0.163677 -0.119448
4.51118 -0.163469 -0.105443
4.36914 -0.149698 0.818551
4.35583 -0.148341 0.909644
4.3384 -0.147203 0.985769
4.33451 -0.146993 0.999797
4.32788 -0.146247 1.04984
4.327 -0.145025 1.06483
4.32031 -0.144398 1.10688
4.32349 -0.144045 1.13085
4.31458 -0.143861 1.14292
4.31392 -0.143194 1.18792
4.30419 -0.142668 1.22299
4.2984 -0.14225 1.25103
4.2955 -0.14204 1.26505
4.29061 -0.141829 1.27909
4.28884 -0.140384 1.30909
4.287 -0.140057 1.3311
4.28912 -0.139821 1.34708
4.28033 -0.1394 1.37514
4.26959 -0.138889 1.40922
4.27172 -0.138639 1.42621
4.26594 -0.138205 1.45525
4.26122 -0.136654 1.49226
4.25933 -0.136431 1.50728
4.25644 -0.136221 1.5213
4.25756 -0.13597 1.53829
4.25568 -0.135747 1.5533
4.25178 -0.135537 1.56733
4.24989 -0.135313 1.58234
4.24199 -0.13513 1.5944
4.24205 -0.134996 1.6034
4.24719 -0.133734 1.62134
4.21178 -0.129584 1.83258
4.21392 -0.129319 1.85056
4.20199 -0.129162 1.86065
4.20011 -0.128924 1.87666
4.20419 -0.127779 1.88662
4.19227 -0.127607 1.89771
4.20244 -0.127289 1.91963
4.19968 -0.126813 1.95165
4.1909 -0.126362 1.98171
4.18702 -0.125137 1.99672
4.18306 -0.125046 2.00275
4.17918 -0.124821 2.01778
4.17227 -0.124623 2.03083
4.18044 -0.124303 2.05277
4.18358 -0.124024 2.07174
4.16577 -0.123641 2.09687
4.16182 -0.123549 2.1029
4.15994 -0.122311 2.1189
4.16122 -0.121764 2.15589
4.15532 -0.121552 2.16993
4.15445 -0.1213 2.18694
4.14547 -0.121249 2.19
4.14862 -0.12097 2.20898
4.1499 -0.119423 2.24595
4.14012 -0.118972 2.27602
4.13724 -0.118733 2.29204
4.13243 -0.117374 2.31606
4.12869 -0.116853 2.35109
4.12882 -0.116587 2.36909
4.12013 -0.114988 2.40913
4.11438 -0.11448 2.44317
4.11064 -0.113974 2.4772
4.10188 -0.112494 2.50925
4.10109 -0.112079 2.53725
4.10339 -0.110488 2.57722
4.08157 -0.110132 2.60038
4.07676 -0.109758 2.62541
4.07404 -0.109208 2.66243
4.06443 -0.107431 2.71448
4.04817 -0.104969 2.81258
4.03594 -0.101435 2.91564
4.02056 -0.0992241 2.99673
3.99276 -0.0948496 3.1559
3.98722 -0.0929276 3.21792
3.94032 -0.0847772 3.49619
3.78313 -0.0523532 4.53104
3.77225 -0.0521084 4.54712
3.76454 -0.0505253 4.58616
3.762 -0.0486351 4.64616
3.75239 -0.0468582 4.69821
3.7568 -0.0450471 4.75316
3.73231 -0.0430372 4.82032
3.72791 -0.0398496 4.90032
3.71152 -0.0376532 4.98042
3.70701 -0.0356875 5.04543
3.70324 -0.0342258 5.07645
3.19204 0.079799 8.23004
3.18144 0.0825914 8.28309
3.18379 0.0842707 8.32905
3.09123 0.106044 8.91751
3.06922 0.110999 9.04862
2.87039 0.158118 10.2636
2.84157 0.164463 10.4207
2.82824 0.167776 10.5088
2.82571 0.17071 10.5718
2.79495 0.177161 10.7359
2.78271 0.18065 10.836
2.7653 0.183833 10.9151
2.74998 0.187176 11.0052
2.7285 0.190213 11.0743
2.71837 0.194923 11.1893
2.71283 0.196831 11.2503
2.69963 0.201409 11.3564
2.67925 0.204638 11.4385
2.66092 0.207955 11.5266
2.64263 0.21136 11.6207
2.60168 0.222402 11.8919
2.58656 0.227145 12.0089
2.56526 0.230537 12.1021
3.75398 -0.0117074 4.64067
3.6742 0.00961216 5.19903
3.65757 0.0113498 5.24814
3.65381 0.012841 5.28115
3.60692 0.0230059 5.56039
3.60522 0.0245846 5.59939
3.59945 0.0260477 5.63041
3.56985 0.0338082 5.81555
3.56107 0.034244 5.84461
3.55736 0.0358241 5.88362
3.54034 0.0417463 6.01268
3.52953 0.0421392 6.03876
3.52482 0.0437052 6.07677
3.50766 0.0483611 6.18785
3.49909 0.0512111 6.24488
3.49237 0.0527638 6.28191
3.48564 0.0543017 6.31795
3.48095 0.0559121 6.35896
3.47628 0.0575522 6.40198
3.45615 0.0622842 6.51808
3.45432 0.0626261 6.54109
3.44965 0.0652661 6.58409
3.44093 0.0668202 6.62114
3.42653 0.0700003 6.70021
3.41882 0.0715833 6.73925
3.41541 0.0747406 6.81724
3.40772 0.0763532 6.85828
3.39496 0.0778362 6.89036
3.39032 0.0795355 6.93738
3.38671 0.081308 6.98938
3.37802 0.0829214 7.03043
3.37034 0.0855635 7.07346
3.33893 0.0936955 7.2836
3.3313 0.0964264 7.33263
3.32466 0.0981419 7.38066
3.32491 0.0996303 7.41364
3.31169 0.104165 7.51668
3.30001 0.105795 7.55875
3.28933 0.107425 7.60082
3.28172 0.1102 7.65284
3.27309 0.111932 7.70189
3.27438 0.113508 7.74086
3.26678 0.115284 7.7929
3.25614 0.118002 7.84094
3.24855 0.119807 7.89498
3.23792 0.12254 7.94403
3.22932 0.124331 7.99707
3.20838 0.130434 8.13816
3.20082 0.133298 8.19618
3.18614 0.134931 8.23827
3.18167 0.13797 8.30827
3.1605 0.142614 8.41838
3.15675 0.144105 8.45139
3.15026 0.147117 8.5194
3.13458 0.14875 8.5615
3.12709 0.151762 8.62952
3.11449 0.153556 8.6826
3.10599 0.156539 8.74863
3.10533 0.159206 8.7936
3.09378 0.161088 8.85267
3.08018 0.163883 8.90574
3.07377 0.167042 8.98375
3.06222 0.169939 9.0438
3.05173 0.172938 9.11084
3.03613 0.174734 9.16394
3.03858 0.177621 9.22389
3.00206 0.186549 9.42006
2.98959 0.189595 9.49012
2.97914 0.192683 9.56316
2.96257 0.194539 9.62027
2.95262 0.201589 9.75826
2.93709 0.203533 9.82135
2.92467 0.207667 9.8974
2.91123 0.210773 9.97146
2.89267 0.21366 10.0306
2.86223 0.222732 10.2367
2.84885 0.225955 10.3188
2.83547 0.229179 10.4008
2.81904 0.233301 10.4759
2.77445 0.247071 10.7961
2.75807 0.251297 10.8781
2.71212 0.263343 11.1493
2.67295 0.273954 11.3915
4.55169 -0.107511 -0.309604
4.544 -0.107884 -0.267535
4.52359 -0.106714 -0.189388
4.51918 -0.105555 -0.111361
4.5055 -0.105923 -0.0692467
4.50377 -0.105389 -0.0332367
4.50998 -0.104979 -0.00528566
4.50108 -0.104765 0.00878013
4.4884 -0.104134 0.0508721
4.49657 -0.103814 0.0728089
4.47766 -0.104623 0.084965
4.48688 -0.1032 0.113878
4.47197 -0.103997 0.127004
4.48136 -0.102248 0.177915
4.45887 -0.102225 0.246093
4.44914 -0.1017 0.281164
4.45062 -0.100753 0.345147
4.44215 -0.0987103 0.415191
4.42718 -0.0996252 0.420318
4.4393 -0.0983972 0.43621
4.42493 -0.0971577 0.519312
4.40796 -0.098086 0.523454
4.30747 -0.0841885 1.25511
4.30252 -0.0840961 1.26114
4.30074 -0.0826506 1.29114
4.27631 -0.0815223 1.36632
4.28269 -0.0797866 1.41625
4.27696 -0.0792494 1.45229
4.24788 -0.0764217 1.57448
2.88088 0.29194 10.1835
2.8675 0.296164 10.2656
2.7921 0.320266 10.7418
2.77673 0.32452 10.8259
2.72419 0.34037 11.1511
2.7079 0.345773 11.2452
2.69163 0.350206 11.3412
2.67227 0.354479 11.4263
2.65153 0.362951 11.5924
2.63324 0.368356 11.6865
2.61293 0.372733 11.7786
2.59467 0.377197 11.8766
2.57646 0.38275 11.9807
2.55594 0.392667 12.1768
2.53364 0.398045 12.2689
2.51345 0.403658 12.3769
2.49329 0.409301 12.487
2.39068 0.445931 13.2003
4.55374 -0.0804564 -0.30602
4.54895 -0.0800235 -0.276986
4.54906 -0.0798163 -0.262988
4.53311 -0.0807009 -0.255854
4.54123 -0.0794848 -0.240931
4.54333 -0.079279 -0.226948
4.53454 -0.0798579 -0.198869
4.53466 -0.0796358 -0.183871
4.51575 -0.0794296 -0.17073
4.52581 -0.0793184 -0.162807
4.52392 -0.0791097 -0.148793
4.51902 -0.0788989 -0.134758
4.52414 -0.0786805 -0.119797
4.51535 -0.0782594 -0.0917336
4.50645 -0.0790604 -0.0786528
4.50851 -0.0789434 -0.070669
4.50272 -0.0785246 -0.0426277
4.50393 -0.0781108 -0.0146391
4.48903 -0.0779075 -0.00152801
4.50415 -0.0776815 0.0143569
4.49319 -0.0775847 0.0204389
4.4923 -0.0773768 0.0344444
4.48561 -0.07675 0.0764913
4.47972 -0.0765383 0.0905346
4.49083 -0.0763243 0.10545
4.47993 -0.0761239 0.118531
4.47498 -0.0770165 0.125582
4.46619 -0.0766103 0.152646
4.4693 -0.0763904 0.167621
4.46541 -0.0761803 0.18165
4.46451 -0.0759723 0.195655
4.45756 -0.0758784 0.201707
4.46968 -0.0746504 0.2176
4.45677 -0.0754632 0.229711
4.45487 -0.0752545 0.243724
4.46499 -0.0740251 0.259632
4.45108 -0.0748371 0.27175
4.45921 -0.0736062 0.287673
4.45826 -0.0735019 0.294679
4.45836 -0.0732947 0.308677
4.45146 -0.074097 0.321743
4.44166 -0.0736901 0.348815
4.43403 -0.0729589 0.397868
4.42724 -0.0725542 0.424917
4.43135 -0.072335 0.439885
4.42345 -0.0721368 0.452943
4.42456 -0.0719155 0.467934
4.41866 -0.0717187 0.480977
4.29278 -0.0556182 1.2928
4.29496 -0.0552644 1.31678
4.29218 -0.053833 1.34578
4.27955 -0.0530834 1.39588
4.26875 -0.0526906 1.42195
4.26686 -0.0524671 1.43697
4.26899 -0.051217 1.45394
4.26019 -0.0508108 1.481
4.26332 -0.0505613 1.49797
4.2684 -0.0504169 1.50794
4.25471 -0.0487851 1.55002
4.24881 -0.0485883 1.56306
4.23902 -0.0481666 1.59114
4.20379 -0.0416762 1.82534
4.21194 -0.041386 1.84527
4.20423 -0.0398178 1.88331
4.18691 -0.0374577 1.97442
4.17859 -0.0341192 2.06445
4.14617 -0.028001 2.27363
4.13431 -0.0277111 2.29272
4.12984 -0.0246715 2.36272
4.11002 -0.0243016 2.38686
4.11217 -0.0240219 2.40585
4.11626 -0.0238471 2.41781
4.10046 -0.0224359 2.44492
4.11065 -0.0210733 2.46982
4.10979 -0.0207913 2.48883
4.09801 -0.0203533 2.51791
4.09205 -0.0202749 2.52296
4.10124 -0.0189115 2.54787
4.09148 -0.0174306 2.57993
4.09062 -0.0171635 2.59793
4.08272 -0.0169504 2.61199
4.07288 -0.0166323 2.63306
4.07218 -0.0150544 2.67205
4.07233 -0.0137584 2.69203
4.06644 -0.013532 2.70708
4.06357 -0.0132782 2.7241
4.06667 -0.012088 2.73706
4.0641 -0.0102422 2.79406
4.04816 -0.0101122 2.80218
4.04243 -0.00857502 2.8382
4.0456 -0.00825155 2.86018
4.04181 -0.00683428 2.88819
4.03995 -0.00655157 2.9072
4.04011 -0.00524083 2.92818
4.0292 -0.00505519 2.94026
4.02332 -0.00481398 2.95631
4.01365 -0.0031555 3.00036
4.01985 -0.00177512 3.0263
4.01096 -0.00156132 3.04036
4.01212 -0.000236512 3.06234
4.00121 -5.08722e-05 3.07442
4.00239 0.00128875 3.09739
4.00649 0.00149307 3.11136
4.00363 0.0017765 3.13038
3.99088 0.00327434 3.16346
3.98803 0.00355777 3.18248
3.97829 0.00508303 3.21754
3.97838 0.00626055 3.22952
3.98156 0.00661362 3.25349
3.97469 0.00787026 3.27053
3.96833 0.0111185 3.35454
3.96172 0.0128933 3.40657
3.94981 0.0130796 3.41866
3.94522 0.0158824 3.47266
3.93788 0.0191906 3.56068
3.92716 0.0207462 3.59774
3.92744 0.0222938 3.63472
3.91774 0.023893 3.67478
3.91511 0.0266055 3.72276
3.89633 0.0270634 3.7529
3.90167 0.0297109 3.79683
3.8948 0.0299824 3.81488
3.88392 0.0302125 3.82996
3.88613 0.0316254 3.85793
3.88632 0.0329953 3.88291
3.88259 0.034531 3.91892
3.86788 0.0361043 3.95701
3.87109 0.0375313 3.98597
3.86727 0.0378747 4.009
3.84984 0.0410126 4.08509
3.83052 0.0453442 4.17418
3.82701 0.0483239 4.24018
3.82523 0.0497397 4.26817
3.80851 0.0512996 4.30528
3.80694 0.0541594 4.36326
3.80223 0.0557254 4.40128
3.79135 0.0559703 4.41736
3.78677 0.0587879 4.47236
3.786 0.0602474 4.50335
3.77245 0.0631307 4.56241
3.76206 0.0663375 4.64345
3.75625 0.0677118 4.66848
3.75649 0.0691854 4.70046
3.75181 0.0708254 4.74348
3.73136 0.0749061 4.81558
3.71838 0.0809142 4.95061
3.69795 0.0840543 5.02673
3.67925 0.0926142 5.19877
3.65597 0.0970376 5.29389
3.64746 0.100006 5.35892
3.64371 0.101497 5.39193
3.63895 0.103974 5.42393
3.62382 0.109688 5.53898
3.60756 0.114136 5.63605
3.59673 0.114484 5.65913
3.58945 0.119896 5.75412
3.58471 0.121403 5.78813
3.57221 0.124404 5.85519
3.56545 0.125882 5.88723
3.47482 0.15549 6.46455
2.84155 0.368145 10.3977
2.75087 0.400663 10.969
2.68107 0.423991 11.3932
2.66375 0.429336 11.4833
2.64545 0.434711 11.5754
2.62579 0.444346 11.7524
2.60752 0.450795 11.8495
2.58722 0.455172 11.9416
2.57007 0.461842 12.0536
2.54875 0.46719 12.1437
2.52953 0.472743 12.2478
2.51119 0.485999 12.4667
2.48787 0.490348 12.5569
2.46463 0.495845 12.657
2.4445 0.502562 12.772
2.39589 0.521275 13.0882
4.21678 -0.0147478 1.82084
4.20003 -0.014247 1.85396
4.18836 -0.012587 1.89803
4.1856 -0.0111113 1.93004
4.1787 -0.0109138 1.94309
4.18706 -0.00920918 1.991
4.17313 -0.00906577 2.00011
4.17326 -0.00881412 2.01711
4.16266 -0.00700689 2.07117
4.16581 -0.00571313 2.09113
4.1549 -0.00654219 2.10222
4.15743 -0.00349289 2.17317
4.14271 -0.00194919 2.20926
4.13681 -0.00173758 2.2233
3.91993 0.0512594 3.56434
3.91609 0.0515732 3.58537
3.91618 0.0527507 3.59735
3.91335 0.0530785 3.61937
3.90807 0.0584887 3.71434
3.8904 0.060153 3.75846
3.88695 0.0632363 3.83145
3.88524 0.0648001 3.86944
3.8814 0.0661286 3.89145
3.87172 0.0677574 3.93351
3.85499 0.0693026 3.96962
3.86327 0.0718294 4.00552
3.85248 0.0722667 4.0346
3.84967 0.0736241 4.05861
3.85392 0.0761094 4.09154
3.84001 0.0762972 4.10365
3.83214 0.0765695 4.1217
3.83842 0.0790978 4.15762
3.82955 0.0793708 4.17569
3.83572 0.080692 4.19763
3.82584 0.0809361 4.2137
3.82405 0.0823519 4.24169
3.82023 0.08371 4.26571
3.81059 0.0864128 4.31275
3.80879 0.0878138 4.33974
3.79221 0.0896402 4.39485
3.79445 0.0911123 4.42681
3.78963 0.0924711 4.45083
3.78886 0.0939306 4.48182
3.77306 0.095327 4.50792
3.77532 0.0968287 4.54189
3.7647 0.0995766 4.59194
3.75787 0.100922 4.61497
3.76114 0.102453 4.65093
3.74762 0.105395 4.71399
3.74888 0.107912 4.74895
3.72994 0.10803 4.75609
3.73626 0.109662 4.79903
3.73146 0.11105 4.82505
3.7326 0.112331 4.84402
3.72882 0.113763 4.87303
3.7119 0.113923 4.88316
3.7152 0.116513 4.9231
3.70939 0.117902 4.94913
3.70158 0.119278 4.97417
3.70488 0.120853 5.01313
3.69592 0.120948 5.0192
3.69344 0.124956 5.08716
3.68967 0.126418 5.11818
3.68085 0.127765 5.14123
3.67708 0.129227 5.17224
3.66726 0.130589 5.19629
3.66147 0.132008 5.22432
3.66466 0.133361 5.24828
3.65107 0.136185 5.30335
3.65036 0.137748 5.34134
3.63577 0.140573 5.39641
3.63204 0.143094 5.43141
3.62269 0.147374 5.51743
3.61288 0.148751 5.54248
3.60509 0.150171 5.57052
3.60136 0.151692 5.60553
3.59661 0.154199 5.63954
3.59677 0.155509 5.66052
3.59406 0.157074 5.69852
3.58629 0.158524 5.72856
3.57852 0.159988 5.7596
3.57784 0.162611 5.80158
3.5731 0.165132 5.83658
3.5542 0.165338 5.84972
3.56552 0.167952 5.8916
3.55776 0.169431 5.92364
3.55203 0.170968 5.95967
3.53383 0.177551 6.06572
3.53014 0.17916 6.10673
3.50913 0.1871 6.23679
3.3527 0.235078 7.10638
3.15579 0.313954 8.43988
3.14523 0.316835 8.49893
3.13262 0.3196 8.54999
3.07827 0.34082 8.90013
3.06673 0.344732 8.96117
3.05254 0.351341 9.06919
3.02113 0.363457 9.27828
3.00863 0.367443 9.34432
2.94261 0.391324 9.73852
2.91673 0.400548 9.8876
2.87389 0.417798 10.1727
2.84303 0.427056 10.3238
2.8307 0.432368 10.4118
2.79943 0.44678 10.6409
2.76462 0.45613 10.798
2.75443 0.462721 10.905
2.73397 0.467787 10.9761
2.68465 0.489063 11.3302
2.6684 0.495555 11.4303
2.64698 0.500696 11.5064
2.6297 0.506129 11.6024
2.62731 0.511315 11.6824
2.61322 0.519102 11.8024
2.59291 0.524479 11.8945
2.57364 0.530914 11.9905
2.55235 0.536321 12.0846
2.53315 0.542889 12.1897
2.53085 0.548267 12.2826
2.51583 0.557188 12.4116
2.48839 0.561303 12.4858
2.47034 0.569182 12.6118
2.3985 0.595407 13.0291
4.53194 -0.0251208 -0.284672
4.54004 -0.0249194 -0.270734
4.53415 -0.0247078 -0.256691
4.53625 -0.024502 -0.242708
4.52937 -0.0242749 -0.227657
4.53147 -0.0240691 -0.213674
4.52163 -0.0247508 -0.192587
4.51684 -0.0243327 -0.164553
4.51795 -0.0241114 -0.149563
4.51806 -0.0239042 -0.135565
4.51711 -0.0237998 -0.128558
4.50432 -0.0243758 -0.100449
4.50264 -0.0237526 -0.05844
4.49974 -0.0235432 -0.0444194
4.4958 -0.0234367 -0.0373903
4.50402 -0.0220133 -0.00846927
4.49712 -0.0228009 0.00559627
4.50223 -0.0215974 0.0195419
4.49533 -0.022385 0.0336075
4.47754 -0.0229721 0.060754
4.4866 -0.0218603 0.0686703
4.47969 -0.0226627 0.081736
4.47881 -0.0224399 0.0967415
4.4749 -0.0222446 0.10977
4.47412 -0.0218146 0.138773
4.46227 -0.0215098 0.158861
4.47739 -0.0202988 0.173731
4.46681 -0.0194618 0.229806
4.45496 -0.0201569 0.249908
4.44506 -0.0199572 0.262982
4.44528 -0.019528 0.291978
4.42505 -0.0189879 0.395137
4.42717 -0.0177674 0.410105
4.42321 -0.0176757 0.416134
4.41942 -0.0172583 0.44416
4.28473 -0.000781224 1.28105
4.28485 0.000455509 1.29703
4.2653 0.00532746 1.49013
4.24413 0.00895672 1.59925
4.23823 0.00916833 1.6133
4.21473 0.0151319 1.81241
4.18802 0.0216683 1.98254
4.18225 0.0221315 2.01358
4.12618 0.0309478 2.26891
4.13134 0.031255 2.28987
4.12846 0.032494 2.30587
4.12558 0.032733 2.32189
4.12264 0.0328536 2.32991
4.11775 0.0340792 2.34494
4.11688 0.0343315 2.36194
4.12004 0.0356401 2.3829
4.10711 0.0347829 2.39201
4.10323 0.0360225 2.40802
4.10351 0.0375701 2.445
4.0997 0.0389578 2.47102
4.09094 0.0394232 2.50208
4.08706 0.0396629 2.51811
4.08319 0.0409174 2.53512
4.08132 0.0411705 2.55213
4.08038 0.0413044 2.56114
4.04208 0.0506635 2.78632
4.04023 0.0519461 2.80532
4.03735 0.0521999 2.82234
4.03349 0.0534691 2.84035
4.01353 0.0595119 2.97743
4.00487 0.0611993 3.02348
3.91988 0.0851076 3.55384
3.8236 0.11743 4.17917
3.82 0.120203 4.23116
3.81708 0.120368 4.24218
3.80822 0.120641 4.26025
3.80744 0.12307 4.28922
3.80463 0.124443 4.31423
3.78624 0.128655 4.39532
3.78545 0.13007 4.4233
3.78064 0.131444 4.44832
3.77582 0.132803 4.47234
3.77202 0.13419 4.49835
3.7567 0.138534 4.58842
3.73077 0.146655 4.73051
3.60105 0.193036 5.56092
3.57142 0.203737 5.74201
3.5525 0.212868 5.88504
3.54592 0.215701 5.94105
3.54526 0.218353 5.98502
3.53583 0.22347 6.06003
3.51591 0.223648 6.07118
3.51424 0.2263 6.11516
3.51461 0.229025 6.16412
3.50502 0.232832 6.21814
3.4983 0.235384 6.25516
3.48423 0.242215 6.37818
3.47346 0.244667 6.40823
3.44887 0.255453 6.59528
3.44016 0.258022 6.63332
3.43447 0.260633 6.67433
3.41262 0.269899 6.82638
3.40493 0.272512 6.8674
3.39724 0.275124 6.90842
2.63894 0.585484 11.6262
2.61758 0.591743 11.7103
2.52208 0.63162 12.3055
2.50292 0.639277 12.4165
2.47964 0.645685 12.5106
2.45616 0.659693 12.7126
2.43708 0.668497 12.8337
2.41181 0.674937 12.9298
2.39177 0.683831 13.0568
4.54982 -0.000388268 -0.302175
4.54593 -0.000178121 -0.288147
4.54314 0.000238533 -0.260128
4.53736 -0.000327718 -0.231072
4.53141 -0.000219732 -0.224028
4.53352 -1.3954e-05 -0.210045
4.52673 0.000405612 -0.181996
4.5171 0.000153125 -0.131913
4.52121 0.00135734 -0.11796
4.50831 0.000574148 -0.103849
4.51142 0.000779198 -0.0898737
4.51553 0.000998323 -0.0749058
4.50263 0.00120022 -0.0618098
4.49774 0.000411204 -0.0477593
4.49779 0.000514821 -0.0407603
4.49689 0.000722784 -0.0267547
4.50001 0.00194253 -0.0117941
4.50311 0.00214758 0.00218136
4.49221 0.00134813 0.0152772
4.48932 0.00155755 0.0292978
4.48442 0.00176842 0.0433335
4.47747 0.000877253 0.0504
4.48058 0.00208219 0.0643607
4.47569 0.00129318 0.0784112
4.47379 0.00150187 0.0924243
4.4729 0.00170983 0.10643
4.474 0.00291622 0.120406
4.47612 0.0031368 0.135388
4.47016 0.0022301 0.141448
4.46226 0.00242836 0.154506
4.46937 0.00364519 0.169436
4.45947 0.00284501 0.182525
4.45657 0.00305443 0.196545
4.46279 0.00447922 0.225481
4.45484 0.00357398 0.231556
4.45695 0.00379456 0.246538
4.44905 0.00399282 0.259597
4.44716 0.00420151 0.27361
4.45127 0.00442063 0.288578
4.44337 0.00461889 0.301636
4.44748 0.00483801 0.316604
4.43953 0.00493265 0.322663
4.44664 0.00514959 0.337609
4.43674 0.00534931 0.350682
4.44285 0.00556698 0.365635
4.42694 0.00575625 0.377754
4.42705 0.00596349 0.391752
4.42515 0.00617218 0.405765
4.42341 0.00669172 0.440775
4.41952 0.00690187 0.454803
4.41262 0.0070994 0.467854
4.41072 0.00730809 0.481867
4.29965 0.0240275 1.26857
4.29086 0.0254336 1.29561
4.28495 0.0246305 1.30867
4.28413 0.0259716 1.33166
4.27923 0.0261676 1.3447
4.28737 0.027443 1.36362
4.27645 0.0266139 1.37472
4.26778 0.0282569 1.41776
4.27084 0.0283879 1.42674
4.25604 0.0287837 1.45285
4.26218 0.0300456 1.47079
4.25828 0.0302558 1.48481
4.2584 0.0304778 1.49981
4.25764 0.0319521 1.5318
4.25469 0.0320579 1.53882
4.25292 0.0335034 1.56882
4.25103 0.0337268 1.58383
4.2138 0.0412334 1.81903
4.21092 0.0414576 1.83405
4.20602 0.0416685 1.84809
4.20414 0.0429067 1.86409
4.19235 0.0433151 1.89117
4.1926 0.0448182 1.92515
4.19668 0.0449634 1.93512
4.182 0.0466107 1.97821
4.17523 0.0470599 2.00826
4.18038 0.0483522 2.02821
4.17242 0.048432 2.03327
4.16002 0.0516106 2.11233
4.15332 0.0522078 2.15237
4.15044 0.0534467 2.16838
4.15157 0.0537125 2.18637
4.15271 0.0549781 2.20434
4.14481 0.0551763 2.2174
4.14187 0.0552969 2.22542
4.13899 0.0565358 2.24143
4.13725 0.0580553 2.27642
4.13438 0.0582943 2.29244
4.12661 0.0597589 2.32349
4.1307 0.0599336 2.33545
4.11878 0.0601052 2.34654
4.11892 0.0613715 2.36453
4.11604 0.0616105 2.38055
4.11518 0.0618925 2.39955
4.1103 0.0631181 2.41457
4.10742 0.0633571 2.43059
4.10655 0.0646242 2.44858
4.09557 0.0636619 2.45068
4.09371 0.0649297 2.46868
4.1049 0.0663064 2.49458
4.096 0.0665054 2.50764
4.09614 0.0677717 2.52562
4.09327 0.0680404 2.54364
4.08429 0.0680913 2.54671
4.08947 0.069428 2.56966
4.09062 0.0707233 2.58963
4.07166 0.069826 2.59579
4.08 0.0724713 2.63969
4.06406 0.0726013 2.64781
4.07017 0.072819 2.66276
4.0673 0.0740727 2.67977
4.06845 0.0753679 2.69974
4.05855 0.0755677 2.71282
4.06172 0.076891 2.73478
4.06202 0.078483 2.77476
4.05405 0.078548 2.77882
4.04127 0.0790016 2.80891
4.04847 0.0813811 2.83482
4.03168 0.081808 2.86295
4.02434 0.0861013 2.94995
4.00771 0.0878389 2.99906
4.00007 0.0905402 3.04608
3.99938 0.0921625 3.08807
4.00659 0.0945717 3.11598
3.99686 0.0960969 3.15104
3.9894 0.0991535 3.22206
3.98655 0.100452 3.24206
3.97389 0.102127 3.28714
3.97221 0.104765 3.33012
3.96635 0.105036 3.34816
3.96351 0.106349 3.36917
3.95579 0.107917 3.40721
3.95791 0.109137 3.42218
3.94801 0.109352 3.43625
3.95222 0.110748 3.4632
3.94333 0.111977 3.47825
3.94351 0.113332 3.50223
3.93866 0.113617 3.52127
3.93884 0.114987 3.54625
3.92803 0.116365 3.57132
3.92922 0.117734 3.59629
3.92236 0.119006 3.61433
3.91449 0.119263 3.63138
3.91065 0.120577 3.6524
3.91286 0.12199 3.68036
3.91093 0.122139 3.69038
3.89942 0.126095 3.75441
3.8879 0.129051 3.81846
3.89103 0.1303 3.83542
3.83319 0.145576 4.12167
3.82556 0.148292 4.1697
3.8223 0.153745 4.26765
3.8094 0.153947 4.28075
3.80053 0.15522 4.2988
3.79291 0.157966 4.34882
3.78708 0.15931 4.37185
3.77577 0.164666 4.46287
3.77399 0.166096 4.49187
3.76616 0.167428 4.51391
3.76134 0.168787 4.53793
3.75956 0.170217 4.56693
3.74982 0.172742 4.60197
3.75512 0.175316 4.64089
3.74855 0.178164 4.69791
3.73491 0.180885 4.74598
3.73302 0.182093 4.75998
3.7363 0.184639 4.79692
3.72039 0.184828 4.80904
3.7247 0.187432 4.84997
3.71687 0.188778 4.87301
3.71409 0.190209 4.90202
3.70628 0.191585 4.92706
3.70843 0.19288 4.94703
3.70568 0.195355 4.97902
3.69381 0.19563 4.9971
3.69307 0.198134 5.03108
3.67468 0.202347 5.11216
3.66298 0.204933 5.15122
3.65242 0.208799 5.20925
3.64794 0.212823 5.27823
3.64014 0.214229 5.30528
3.64347 0.216863 5.34822
3.63957 0.218073 5.36223
3.62701 0.221941 5.42028
3.61246 0.224825 5.47935
3.60497 0.229837 5.54734
3.60444 0.23374 5.6083
3.58888 0.236625 5.66738
3.57739 0.241625 5.7344
3.57012 0.248066 5.83137
3.53824 0.256265 5.97851
2.58234 0.673122 11.9364
2.561 0.67944 12.0244
2.50219 0.710714 12.4455
2.48101 0.719328 12.5535
2.45672 0.725737 12.6476
2.43556 0.734395 12.7587
2.43022 0.740672 12.8446
2.4112 0.74961 12.9747
2.38807 0.758329 13.0897
2.37228 0.770694 13.2487
4.19307 0.0747187 1.8507
4.18334 0.0752589 1.88677
4.17193 0.078422 1.96482
4.16998 0.0785271 1.97183
4.15576 0.0830623 2.07489
4.14235 0.0862417 2.15395
4.14771 0.0889336 2.20088
4.13278 0.0880778 2.21
4.13191 0.0893301 2.22699
4.12039 0.0912861 2.29106
4.11658 0.0926589 2.31607
4.11872 0.0939386 2.33504
4.09738 0.0972422 2.42216
4.06219 0.107821 2.66231
3.94266 0.144611 3.38576
3.90637 0.156983 3.61188
3.90088 0.160994 3.67987
3.87876 0.166727 3.79597
3.87027 0.17074 3.86399
3.86634 0.171876 3.873
3.86351 0.173204 3.895
3.86473 0.174632 3.92398
3.85303 0.177233 3.96403
3.85424 0.178647 3.99201
3.84871 0.182568 4.054
3.83681 0.18277 4.06709
3.83198 0.184114 4.09011
3.83522 0.18657 4.12105
3.82837 0.187871 4.14109
3.82376 0.190629 4.19209
3.82185 0.191808 4.20409
3.81803 0.193166 4.2281
3.81421 0.194525 4.25211
3.80232 0.194755 4.2672
3.79391 0.199901 4.3442
3.79626 0.202595 4.39115
3.78135 0.202784 4.40326
3.77653 0.204143 4.42728
3.77778 0.206615 4.45923
3.77093 0.207931 4.48027
3.76702 0.209097 4.49128
3.76143 0.211915 4.54629
3.76369 0.214417 4.58024
3.75585 0.215733 4.60128
3.75242 0.220846 4.67624
3.73549 0.221006 4.68637
3.73878 0.223566 4.72431
3.73499 0.224969 4.75133
3.72412 0.226243 4.76939
3.72236 0.228703 4.80037
3.72161 0.230192 4.83336
3.70973 0.231438 4.84943
3.71492 0.232819 4.87538
3.71012 0.235207 4.90138
3.7023 0.236568 4.92542
3.69751 0.237986 4.95344
3.69676 0.240475 4.98642
3.69805 0.243037 5.02437
3.6872 0.244326 5.04344
3.69138 0.245678 5.06739
3.67951 0.246953 5.08546
3.67676 0.249444 5.11845
3.67024 0.253381 5.18145
3.66041 0.254729 5.20451
3.65867 0.257233 5.23849
3.65578 0.258442 5.2525
3.65 0.259891 5.28252
3.63542 0.263716 5.33758
3.62762 0.265106 5.36362
3.62994 0.267726 5.40557
3.62705 0.26895 5.42058
3.62533 0.271499 5.45756
3.62259 0.274019 5.49255
3.61177 0.275368 5.51561
3.605 0.277817 5.54563
3.58942 0.280657 5.60172
3.59667 0.28414 5.63461
3.59395 0.28669 5.6716
3.58415 0.288096 5.69866
3.58043 0.290647 5.73565
3.56489 0.294546 5.79572
3.56117 0.297097 5.83272
3.54884 0.303423 5.92173
3.54413 0.305989 5.95973
3.53434 0.307411 5.98779
3.31483 0.407071 7.37316
3.30821 0.410816 7.42316
3.29957 0.414518 7.47018
3.26531 0.431947 7.70021
3.2577 0.435707 7.75122
3.19173 0.465676 8.15132
2.86124 0.623229 10.1998
2.83139 0.634486 10.3508
2.75602 0.672646 10.8309
2.73968 0.67993 10.9169
2.66984 0.713168 11.335
2.6536 0.72066 11.4351
2.63732 0.728078 11.5301
2.61663 0.741639 11.7021
2.58116 0.758654 11.9041
2.56086 0.766045 11.9972
2.54165 0.773599 12.1012
2.52138 0.781034 12.1973
2.52113 0.7895 12.2962
2.47973 0.806668 12.5082
2.4575 0.815179 12.6093
2.43735 0.823851 12.7213
2.3877 0.848476 13.0314
4.50782 0.0555015 -0.0416499
4.4934 0.0566522 0.0354523
4.45514 0.0581009 0.266751
4.44745 0.0587137 0.307806
4.22036 0.0952897 1.75517
2.38393 0.917841 13.0554
4.5302 0.0832537 -0.260259
4.51758 0.0830034 -0.210154
4.51079 0.0834229 -0.182105
4.50611 0.0840631 -0.139073
4.50237 0.0835842 -0.104033
4.50148 0.0837922 -0.0900276
4.49269 0.0842132 -0.0619637
4.4898 0.0844226 -0.0479431
4.48495 0.0837372 -0.0268936
4.47827 0.084364 0.0151533
4.47738 0.084572 0.0291589
4.47448 0.0847814 0.0431795
4.47159 0.0849908 0.0572002
4.47175 0.0853017 0.0781973
4.46517 0.0861357 0.134242
4.46022 0.0852431 0.141294
4.46143 0.0866567 0.169268
4.46154 0.0868639 0.183266
4.44674 0.0862746 0.21039
4.45085 0.0864938 0.225357
