3.62982 0.51712 4.69572
3.63601 0.520485 4.72063
3.62717 0.522802 4.74167
3.6254 0.525262 4.77265
3.62566 0.529765 4.80658
3.61783 0.531097 4.82863
3.61101 0.533471 4.85365
3.6052 0.535846 4.87866
3.6104 0.539227 4.90457
3.59853 0.540487 4.92165
3.59778 0.543976 4.9546
3.58996 0.546337 4.97863
3.58316 0.548726 5.00465
3.57535 0.551102 5.02968
3.57865 0.555691 5.06959
3.57576 0.556901 5.0836
3.56896 0.559291 5.10962
3.56419 0.562738 5.1396
3.55738 0.565128 5.16562
3.54004 0.573413 5.25164
3.53917 0.57568 5.26962
3.53643 0.579185 5.30359
3.53066 0.582633 5.33359
3.52388 0.585067 5.36261
3.52115 0.589587 5.39757
3.27063 0.754144 6.90923
3.27088 0.758617 6.94116
3.26525 0.764346 6.99013
3.25757 0.768973 7.03212
3.24584 0.772514 7.06816
3.23717 0.777157 7.11117
3.22109 0.791959 7.23209
3.21449 0.797748 7.28506
3.20787 0.803493 7.33503
3.20023 0.809209 7.38301
3.18955 0.813823 7.42403
3.18193 0.819583 7.475
3.1733 0.8253 7.52299
3.17153 0.82876 7.55396
3.1629 0.834476 7.60195
3.15123 0.839121 7.64497
3.1467 0.847042 7.7069
3.13707 0.852774 7.75589
3.12221 0.870004 7.90577
3.10854 0.87565 7.94879
3.09689 0.880354 7.99582
3.08933 0.887218 8.05378
3.07771 0.892966 8.10379
3.04728 0.918037 8.30968
4.03102 0.352043 2.34482
4.02915 0.353296 2.36182
4.00054 0.36604 2.54587
3.98705 0.370042 2.61292
3.94877 0.38643 2.84
3.93924 0.391369 2.90301
3.92865 0.396161 2.95602
3.68998 0.529446 4.45005
3.68137 0.535222 4.50204
3.66226 0.546967 4.61903
3.60776 0.580876 4.94798
3.59819 0.586726 5.00497
3.59443 0.590187 5.03596
3.58155 0.591434 5.05204
3.57041 0.604129 5.16595
3.56767 0.607619 5.19892
3.5548 0.608895 5.217
3.54643 0.618129 5.29994
3.54471 0.621663 5.33591
3.53996 0.626155 5.36888
3.52709 0.626431 5.38698
3.52538 0.630994 5.42493
3.52554 0.634305 5.44588
3.51706 0.641317 5.51385
3.25142 0.828585 7.1403
3.24174 0.833199 7.18131
3.23435 0.843403 7.26223
3.21604 0.853748 7.35223
3.2008 0.866253 7.45317
3.18151 0.877644 7.54616
3.15393 0.900416 7.73205
3.14737 0.907279 7.79001
3.13367 0.911881 7.83005
3.12304 0.917599 7.87805
3.11068 0.927865 7.96301
3.09904 0.933569 8.01002
3.26621 0.849158 6.97686
3.25651 0.853743 7.01587
3.24884 0.859399 7.05985
3.25111 0.86393 7.09578
3.24347 0.870631 7.14274
3.23072 0.874129 7.17579
3.22308 0.87983 7.22277
3.21646 0.886574 7.27273
3.2035 0.903611 7.40959
3.1918 0.908196 7.44862
3.53439 0.71289 5.41764
3.27263 0.912902 7.02688
3.26294 0.917516 7.06789
3.24817 0.92097 7.09795
3.25249 0.927589 7.13983
3.23874 0.931072 7.17188
4.17562 0.392301 1.49002
4.15845 0.397942 1.60008
4.09803 0.417034 1.9413
4.06469 0.4313 2.16037
4.01977 0.450403 2.43546
4.00692 0.450694 2.45456
4.00044 0.45672 2.52353
3.99864 0.45912 2.55051
3.99405 0.463923 2.60448
3.99118 0.465177 2.62148
3.98831 0.46643 2.63849
3.97639 0.466587 2.64858
3.97948 0.467763 2.66054
3.97963 0.470058 2.68051
3.97489 0.47258 2.71551
3.96599 0.472779 2.72858
3.96413 0.475047 2.74656
3.95623 0.47526 2.76062
3.95058 0.47893 2.80561
3.94686 0.48248 2.84259
3.95104 0.485832 2.86652
3.94717 0.487086 2.88353
3.94221 0.487179 2.88956
3.94052 0.490772 2.92953
3.93564 0.492013 2.94555
3.93177 0.493267 2.96256
3.92992 0.495564 2.98255
3.92504 0.496805 2.99857
3.92327 0.49925 3.02855
3.92142 0.501547 3.04853
3.91051 0.501733 3.06061
3.9157 0.505099 3.08553
3.90781 0.505327 3.10058
3.89892 0.506541 3.11464
3.90504 0.508773 3.13056
3.90319 0.51107 3.15054
3.89044 0.512553 3.18262
3.89564 0.515949 3.20953
3.88473 0.516134 3.22162
3.87584 0.517348 3.23567
3.886 0.520651 3.25654
3.88415 0.521949 3.27654
3.87425 0.523148 3.2896
3.87442 0.525489 3.31257
3.87157 0.527787 3.33256
3.86066 0.527972 3.34464
3.86789 0.531411 3.37454
3.86211 0.533844 3.40355
3.85726 0.536129 3.42255
3.85542 0.538456 3.44454
3.83828 0.549141 3.55752
3.82857 0.55271 3.59555
3.82491 0.557379 3.64051
3.82299 0.558543 3.65151
3.81531 0.56317 3.69351
3.81046 0.564455 3.71253
3.79895 0.571425 3.77752
3.79036 0.57723 3.83151
3.78673 0.581943 3.87947
3.78189 0.584258 3.90048
3.76566 0.594779 4.00246
3.75125 0.602944 4.08045
3.73115 0.615704 4.19843
3.72733 0.619062 4.22242
3.70994 0.627259 4.30244
3.70814 0.630659 4.3294
3.70266 0.63867 4.39734
3.69023 0.646789 4.47232
3.68643 0.649176 4.49832
3.68162 0.65255 4.52331
3.67592 0.657146 4.56329
3.67111 0.659519 4.58829
3.65948 0.665253 4.6373
3.65569 0.668655 4.66428
3.65391 0.672085 4.69325
3.64507 0.673402 4.7143
3.63762 0.682488 4.78723
3.62426 0.692726 4.87019
3.60935 0.692929 4.8833
3.61858 0.697366 4.91317
3.60496 0.703116 4.9632
3.60018 0.706549 4.99218
3.5954 0.709966 5.02017
3.58456 0.712285 5.04122
3.5828 0.71576 5.07319
3.57716 0.721459 5.12016
3.57339 0.725921 5.15112
3.57267 0.730454 5.18707
3.56283 0.732787 5.20911
3.55301 0.735134 5.23215
3.5523 0.739697 5.27009
3.54535 0.739806 5.27714
3.55072 0.747512 5.325
3.54291 0.749902 5.35102
3.53916 0.754393 5.38399
3.53644 0.758928 5.41995
3.5246 0.761247 5.44101
3.52085 0.764738 5.47399
3.51899 0.767006 5.49197
3.94995 0.506638 2.85321
3.93387 0.51844 2.97418
3.92421 0.522113 3.0192
3.89759 0.538826 3.20118
3.88677 0.541175 3.22423
3.84667 0.564904 3.47421
3.84308 0.57172 3.52915
3.81729 0.587092 3.68814
3.81144 0.589377 3.70715
3.80477 0.594033 3.75114
3.79579 0.593084 3.75422
3.77984 0.609138 3.89212
3.7743 0.616045 3.95307
3.76946 0.617359 3.97409
3.76181 0.623045 4.02007
3.75708 0.626566 4.05506
3.74079 0.636969 4.14904
3.72587 0.637128 4.15915
3.72519 0.64275 4.20108
3.72261 0.649581 4.257
3.7188 0.651939 4.281
3.71398 0.654297 4.30501
3.7013 0.658943 4.34804
3.70345 0.661222 4.36699
3.70266 0.664637 4.39495
3.69584 0.667982 4.41796
3.6814 0.676088 4.49195
3.68264 0.679561 4.5239
3.6729 0.684071 4.55791
3.66204 0.685345 4.57597
3.66532 0.68989 4.61289
3.6595 0.693249 4.63689
3.65066 0.695567 4.65792
3.64687 0.697984 4.68592
3.64409 0.702415 4.71488
3.64422 0.704666 4.73184
3.62857 0.709344 4.7769
3.63489 0.71496 4.81877
3.62807 0.717321 4.84279
3.61418 0.718553 4.85788
3.61836 0.721905 4.8818
3.60677 0.728697 4.9348
3.59996 0.731087 4.96082
3.60226 0.736662 4.99972
3.5904 0.737937 5.0178
3.58461 0.741356 5.04579
3.59385 0.746822 5.07765
3.57592 0.746969 5.08678
3.57317 0.750459 5.11976
3.57144 0.754978 5.15471
3.55381 0.760701 5.20276
3.54905 0.764178 5.23475
3.55122 0.767502 5.25669
3.54544 0.771935 5.28567
3.5427 0.776455 5.32063
3.52742 0.787857 5.41459
3.51776 0.79353 5.45958
4.10594 0.47077 1.92344
4.08379 0.478459 2.03651
4.07346 0.484769 2.12451
4.06475 0.487338 2.16254
4.05885 0.487549 2.17658
4.05724 0.492305 2.22753
4.04847 0.493756 2.25758
4.04652 0.494861 2.26458
4.03373 0.495285 2.29267
4.03688 0.497579 2.31262
4.03903 0.499858 2.33157
4.0271 0.500015 2.34166
4.02724 0.501281 2.35964
4.02243 0.503655 2.38465
4.02759 0.505962 2.40558
4.02184 0.508454 2.43859
4.01695 0.50968 2.45361
4.0181 0.51196 2.47257
4.01013 0.511025 2.47664
4.01128 0.51332 2.4966
4.0074 0.51456 2.51262
4.00351 0.515785 2.52763
3.99662 0.515997 2.54168
3.98685 0.517463 2.57274
3.99698 0.520707 2.58961
3.98908 0.521905 2.60266
3.98621 0.523159 2.61966
3.97932 0.523372 2.63371
3.97644 0.524625 2.65072
3.97357 0.525879 2.66773
3.97473 0.529189 2.68867
3.97481 0.529337 2.69867
3.96892 0.530563 2.7137
3.97209 0.533886 2.73563
3.96721 0.534127 2.75166
3.96132 0.535338 2.76569
3.95946 0.537621 2.78467
3.95567 0.540023 2.81167
3.9538 0.541291 2.82967
3.94792 0.542532 2.8457
3.94204 0.543758 2.86072
3.94119 0.546055 2.8807
3.93531 0.546296 2.89674
3.93144 0.54855 2.91374
3.93454 0.54974 2.9267
3.93369 0.552037 2.94668
3.9268 0.553249 2.96071
3.92193 0.554519 2.97873
3.92108 0.556816 2.99871
3.92728 0.560196 3.02462
3.9204 0.561423 3.03965
3.91444 0.561516 3.0457
3.91057 0.562771 3.06271
3.91073 0.565081 3.08368
3.90587 0.566351 3.1017
3.90603 0.568662 3.12266
3.9072 0.572001 3.14561
3.90334 0.573285 3.16462
3.89839 0.573378 3.17066
3.89067 0.576931 3.20767
3.88581 0.578201 3.22569
3.88194 0.58047 3.24369
3.88312 0.58281 3.26665
3.87926 0.585093 3.28564
3.87935 0.586256 3.29663
3.87952 0.588596 3.3196
3.87366 0.590867 3.33761
3.86695 0.594449 3.37661
3.86126 0.599045 3.41659
3.86035 0.600223 3.42858
3.85567 0.604848 3.47056
3.84393 0.607375 3.50561
3.8411 0.609703 3.5276
3.83624 0.611987 3.54661
3.82782 0.620118 3.62256
3.826 0.62346 3.64553
3.81629 0.627044 3.68455
3.81841 0.629264 3.69951
3.80569 0.631821 3.73657
3.79739 0.643203 3.82948
3.79063 0.646667 3.86048
3.78277 0.647939 3.87852
3.7751 0.652596 3.92252
3.77329 0.655967 3.94748
3.76654 0.65946 3.98049
3.74358 0.675504 4.11744
3.7447 0.677725 4.1324
3.73404 0.682399 4.17742
3.73223 0.68477 4.2024
3.72258 0.690458 4.2484
3.7218 0.693887 4.27736
3.7209 0.69608 4.29033
3.71304 0.697367 4.30938
3.70722 0.699712 4.33239
3.69859 0.706443 4.38136
3.69175 0.707759 4.4024
3.69502 0.713274 4.43729
3.69133 0.718884 4.47824
3.67767 0.723559 4.52328
3.67386 0.726932 4.54827
3.6741 0.730405 4.58022
3.66525 0.732708 4.60025
3.66437 0.73493 4.61523
3.6487 0.739578 4.65828
3.64995 0.74408 4.69221
3.6492 0.748554 4.72416
3.64238 0.750914 4.74818
3.63656 0.754274 4.77217
3.63973 0.757597 4.7941
3.62685 0.758843 4.81018
3.62711 0.763346 4.84412
3.62435 0.767806 4.87508
3.61348 0.769081 4.89315
3.61071 0.772527 4.92312
3.60492 0.775945 4.95112
3.60708 0.779239 4.97105
3.60533 0.783729 5.004
3.59549 0.786047 5.02505
3.59273 0.790522 5.05701
3.58593 0.793912 5.08301
3.5852 0.798445 5.11895
3.57739 0.801821 5.14397
3.57145 0.801943 5.15201
3.57377 0.808548 5.1929
3.55686 0.808753 5.20603
3.55817 0.814344 5.24594
3.55543 0.818849 5.2799
3.54864 0.822268 5.3079
3.53679 0.824558 5.32696
3.5381 0.830163 5.36787
3.53117 0.831302 5.37691
3.53046 0.836864 5.41484
3.52165 0.839256 5.44087
3.51216 0.848239 5.50682
4.20178 0.537429 1.36365
4.19788 0.53764 1.37768
4.19499 0.538849 1.39169
4.1931 0.539072 1.4067
4.1882 0.539268 1.41974
4.19133 0.541518 1.43668
4.18548 0.541818 1.45673
4.18359 0.543041 1.47172
4.17592 0.544684 1.51476
4.17409 0.546026 1.53776
4.1702 0.547235 1.55177
4.16831 0.547459 1.56679
4.16152 0.548878 1.59482
4.15562 0.549075 1.60786
4.15675 0.551326 1.62482
4.15781 0.551444 1.63282
4.15492 0.552668 1.64782
4.14047 0.556744 1.71988
4.13263 0.557061 1.74094
4.13275 0.558298 1.75692
4.13388 0.560548 1.77388
4.13099 0.560773 1.7889
4.12823 0.563233 1.81989
4.12126 0.562313 1.82496
4.11837 0.563522 1.83896
4.1185 0.564773 1.85595
4.11662 0.566012 1.87194
4.11173 0.567222 1.88596
4.10984 0.567446 1.90098
4.10695 0.56867 1.91598
4.10501 0.568775 1.923
4.10426 0.572279 1.95696
4.10238 0.573517 1.97295
4.09347 0.573686 1.98402
4.08857 0.573897 1.99806
4.08669 0.575135 2.01405
4.09279 0.577308 2.02598
4.0889 0.577533 2.04101
4.08501 0.578758 2.05602
4.08615 0.581024 2.07398
4.07724 0.580208 2.08606
4.07636 0.581445 2.10205
4.07549 0.583698 2.11903
4.07355 0.583817 2.12704
4.06966 0.585042 2.14205
4.06577 0.585252 2.15608
4.05586 0.585437 2.16815
4.06202 0.587744 2.18908
4.06416 0.590023 2.20803
4.05225 0.590195 2.21912
4.04943 0.591552 2.24312
4.05258 0.594846 2.26305
4.05272 0.596112 2.28104
4.03878 0.595255 2.29015
4.03691 0.596509 2.30715
4.03906 0.598788 2.32611
4.0341 0.59888 2.33214
4.03825 0.601173 2.35208
4.0374 0.603455 2.37105
4.03452 0.604694 2.38706
4.02059 0.603838 2.39618
4.02676 0.607159 2.41809
4.01182 0.605303 2.42723
4.01289 0.606435 2.4362
4.02007 0.609785 2.4601
4.00815 0.609942 2.47019
4.00829 0.611223 2.48918
4.01347 0.61456 2.51209
3.99954 0.613703 2.52121
3.99766 0.614956 2.53821
4.00276 0.617145 2.55114
3.99688 0.618371 2.56617
3.98797 0.618555 2.57823
3.99013 0.620864 2.59918
3.98223 0.621077 2.61324
3.98051 0.625611 2.64919
3.97261 0.625824 2.66325
3.9737 0.626986 2.67423
3.97887 0.630323 2.69714
3.96997 0.630522 2.71021
3.97314 0.633845 2.73214
3.96323 0.63403 2.74421
3.95936 0.635299 2.76223
3.95943 0.636432 2.77121
3.96059 0.638742 2.79217
3.95169 0.638941 2.80524
3.94898 0.642505 2.84321
3.94736 0.648246 2.89314
3.93645 0.648432 2.90522
3.92956 0.649659 2.92026
3.93072 0.651969 2.94122
3.92199 0.654493 2.97625
3.92415 0.657817 2.99819
3.92323 0.658966 3.00818
3.9155 0.662504 3.04419
3.91164 0.663774 3.0622
3.90677 0.665029 3.07923
3.90492 0.667326 3.09921
3.90308 0.669638 3.12019
3.90114 0.670758 3.12819
3.89426 0.672 3.14423
3.89443 0.674325 3.16619
3.88755 0.675567 3.18223
3.8857 0.677864 3.20221
3.88588 0.680205 3.22518
3.88009 0.682623 3.25319
3.88026 0.685963 3.27614
3.8764 0.687232 3.29416
3.87457 0.690559 3.31612
3.86668 0.690787 3.33118
3.86081 0.692043 3.34821
3.85797 0.694356 3.3692
3.86612 0.697646 3.38909
3.85723 0.698859 3.40314
3.85337 0.701143 3.42214
3.84852 0.702428 3.44116
3.85374 0.706853 3.47006
3.84082 0.707026 3.48116
3.84 0.709367 3.50413
3.84513 0.712614 3.52105
3.83826 0.713886 3.53908
3.83744 0.716227 3.56206
3.8356 0.719553 3.58402
3.8227 0.719741 3.59612
3.82288 0.72211 3.62109
3.81601 0.724367 3.63811
3.81813 0.726587 3.65306
3.8153 0.728915 3.67505
3.80742 0.730157 3.69109
3.81366 0.734626 3.72299
3.80478 0.73587 3.73904
3.79994 0.738184 3.76004
3.79409 0.740469 3.77905
3.7962 0.74169 3.79402
3.79237 0.745018 3.816
3.7845 0.74629 3.83405
3.78268 0.748632 3.85703
3.77582 0.750918 3.87605
3.77501 0.754288 3.90101
3.77219 0.756646 3.925
3.77835 0.759952 3.94591
3.7715 0.762238 3.96493
3.76364 0.76351 3.98297
3.75376 0.764754 3.99903
3.75699 0.76921 4.02994
3.74934 0.774897 4.07592
3.74138 0.774976 4.08098
3.74463 0.779462 4.1139
3.73194 0.784078 4.15493
3.7261 0.786393 4.17594
3.72229 0.788751 4.19994
3.71556 0.793289 4.23593
3.71376 0.796689 4.26289
3.71399 0.801133 4.29283
3.70054 0.809208 4.36482
3.69572 0.812567 4.38881
3.68978 0.812675 4.39586
3.69406 0.818219 4.43275
3.68116 0.819436 4.44683
3.6814 0.823894 4.47776
3.67356 0.826211 4.49879
3.66406 0.834194 4.56475
3.65648 0.841013 4.61972
3.6537 0.845444 4.64868
3.64586 0.847761 4.66971
3.63741 0.856832 4.74164
3.62579 0.862581 4.79165
4.19398 0.582771 1.38605
4.1961 0.584006 1.40201
4.19221 0.585216 1.41603
4.18925 0.585307 1.42205
4.19137 0.586542 1.43802
4.18246 0.585727 1.4501
4.18258 0.586949 1.46508
4.17367 0.587133 1.47715
4.17178 0.587356 1.49216
4.17491 0.589606 1.50911
4.17195 0.589696 1.51513
4.16605 0.589893 1.52817
4.16617 0.59113 1.54415
4.16729 0.592366 1.56013
4.16541 0.593589 1.57513
4.16351 0.594798 1.58913
4.16063 0.595022 1.60415
4.16169 0.59614 1.61212
4.1588 0.597364 1.62713
4.15089 0.596547 1.6392
4.149 0.597771 1.6542
4.1441 0.597967 1.66724
4.14021 0.599177 1.68125
4.14635 0.601454 1.70017
4.13763 0.602993 1.73622
4.13273 0.603204 1.75025
4.13385 0.60544 1.76622
4.12896 0.605651 1.78025
4.1311 0.607915 1.7982
4.12613 0.606993 1.80326
4.12827 0.609258 1.82121
4.12738 0.610481 1.8362
4.12149 0.610692 1.85024
4.1186 0.611916 1.86525
4.11872 0.613153 1.88123
4.10881 0.613323 1.8923
4.11389 0.614482 1.90325
4.11201 0.61572 1.91925
4.10209 0.61589 1.93032
4.09821 0.616115 1.94535
4.09645 0.61959 1.97732
4.09457 0.620828 1.99331
4.09376 0.623199 2.01829
4.08686 0.623396 2.03134
4.09 0.625661 2.04929
4.07205 0.623777 2.05645
4.0762 0.62607 2.07639
4.07633 0.627322 2.09337
4.07539 0.628441 2.10136
4.0715 0.629666 2.11637
4.07565 0.631959 2.13631
4.06473 0.631115 2.14641
4.05683 0.631313 2.15947
4.065 0.634633 2.18136
4.05709 0.634831 2.19442
4.05314 0.634923 2.20045
4.05629 0.638216 2.22038
4.04738 0.6374 2.23246
4.04551 0.639653 2.24944
4.05268 0.642974 2.27134
4.03975 0.642116 2.28045
4.03486 0.642342 2.29549
4.04799 0.646584 2.31233
4.03104 0.6447 2.31949
4.03017 0.645952 2.33648
4.03835 0.650301 2.36035
4.02643 0.649458 2.37046
4.02456 0.650711 2.38745
4.03072 0.654032 2.40936
4.01579 0.653176 2.41849
4.02491 0.656391 2.43337
4.02103 0.657631 2.44939
4.01413 0.657829 2.46244
4.00723 0.658041 2.47649
4.01441 0.662391 2.50037
3.99947 0.66052 2.50851
3.99955 0.661668 2.5185
4.0027 0.664962 2.53843
3.99782 0.666202 2.55445
3.99696 0.667469 2.57244
3.99912 0.670778 2.59338
3.98519 0.669922 2.6025
3.98633 0.672202 2.62146
3.99143 0.674391 2.63439
3.9775 0.673534 2.64351
3.97866 0.675844 2.66447
3.97881 0.67814 2.68443
3.97292 0.679351 2.69846
3.96703 0.679578 2.71351
3.96718 0.681874 2.73347
3.96827 0.684035 2.74443
3.96942 0.686345 2.76539
3.96756 0.688613 2.78338
3.96268 0.689853 2.7994
3.9568 0.69008 2.81444
3.9479 0.691293 2.82849
3.94805 0.693575 2.84746
3.94913 0.694737 2.85844
3.94527 0.696006 2.87645
3.93637 0.697205 2.8895
3.93753 0.699515 2.91046
3.93467 0.701798 2.92945
3.92778 0.702025 2.9445
3.92693 0.704307 2.96348
3.926 0.705455 2.97347
3.92214 0.707724 2.99147
3.91928 0.708993 3.00947
3.91944 0.712303 3.03042
3.91255 0.712531 3.04547
3.90869 0.714815 3.06447
3.90482 0.716069 3.08148
3.90692 0.71826 3.09444
3.90406 0.720528 3.11243
3.90624 0.723882 3.13637
3.89835 0.724109 3.15142
3.89651 0.726407 3.17141
3.88963 0.727649 3.18744
3.88778 0.729946 3.20743
3.88988 0.732137 3.22038
3.88602 0.734421 3.23938
3.87814 0.734648 3.25443
3.87427 0.736918 3.27243
3.87344 0.739244 3.29441
3.86757 0.7415 3.31142
3.86674 0.743826 3.3334
3.86784 0.746017 3.34636
3.866 0.748329 3.36734
3.86214 0.750613 3.38634
3.85929 0.752911 3.40633
3.8494 0.753126 3.4204
3.84372 0.757751 3.46238
3.84783 0.76097 3.4773
3.83996 0.762228 3.49435
3.84114 0.765582 3.51829
3.83327 0.766824 3.53434
3.83143 0.769151 3.55632
3.8286 0.771479 3.57831
3.82475 0.773778 3.5983
3.82988 0.777025 3.61522
3.82503 0.77931 3.63423
3.81816 0.780581 3.65226
3.81735 0.783952 3.67722
3.81048 0.785208 3.69426
3.80866 0.788565 3.71822
3.80179 0.789821 3.73526
3.80491 0.792056 3.75121
3.79805 0.794327 3.76923
3.80026 0.79774 3.79716
3.79542 0.800039 3.81717
3.78654 0.801283 3.83322
3.78775 0.805696 3.86115
3.77989 0.806968 3.87919
3.77898 0.809146 3.89117
3.77212 0.810432 3.9102
3.77534 0.814859 3.93912
3.76265 0.81946 3.97915
3.76588 0.823916 4.01006
3.75297 0.824104 4.02216
3.7551 0.827339 4.0381
3.75531 0.830753 4.06605
3.74442 0.831983 4.08112
3.73577 0.83767 4.1271
3.72824 0.845578 4.18805
3.72161 0.852307 4.23701
3.72285 0.856765 4.26794
4.06233 0.681237 2.2217
4.05858 0.684728 2.25468
4.01365 0.708801 2.5277
4.01178 0.710054 2.54469
4.00217 0.714816 2.5957
3.96776 0.735934 2.80468
3.9659 0.737216 2.82368
3.95623 0.741859 2.86669
3.93512 0.753606 2.98369
3.93242 0.7582 3.02365
3.93057 0.760497 3.04363
3.92578 0.7639 3.07062
3.91789 0.764128 3.08568
3.91419 0.769723 3.12563
3.91436 0.772048 3.14759
3.90563 0.775587 3.18361
3.89801 0.781318 3.23259
3.89047 0.788226 3.29355
3.87129 0.800838 3.40153
3.86644 0.803123 3.42053
3.86569 0.807626 3.45448
3.86084 0.809911 3.47348
3.85113 0.81348 3.51151
3.84929 0.815807 3.53349
3.8396 0.820406 3.5735
3.83301 0.82721 3.62746
3.82451 0.836193 3.6934
3.81966 0.838492 3.7134
3.80139 0.849926 3.80938
3.79655 0.852225 3.82939
3.79685 0.857817 3.86931
3.78999 0.860103 3.88833
3.78234 0.865774 3.93331
3.77548 0.868061 3.95233
3.77669 0.871474 3.98027
3.76479 0.872675 3.99335
3.75694 0.874962 4.01238
3.76814 0.879353 4.03923
3.75322 0.879512 4.04934
3.75142 0.882898 4.07531
3.75265 0.887341 4.10524
3.74175 0.888556 4.1193
3.73693 0.8919 4.14229
3.74006 0.894164 4.16024
3.92239 0.7941 3.01619
3.89459 0.811458 3.17416
3.86986 0.831947 3.34107
4.21642 0.746448 1.29644
4.20698 0.750536 1.36946
4.19723 0.752046 1.40352
4.19735 0.753283 1.4195
4.19747 0.754505 1.43448
4.19257 0.754701 1.44752
4.19269 0.756937 1.46349
4.18879 0.757133 1.47652
4.18785 0.757252 1.48452
4.18395 0.758462 1.49854
4.18118 0.760908 1.52852
4.16825 0.759066 1.53865
4.16447 0.761498 1.56765
4.17256 0.763654 1.57856
4.17168 0.764892 1.59455
4.16879 0.766116 1.60955
4.16313 0.769771 1.65355
4.15722 0.769968 1.66659
4.1554 0.77231 1.68957
4.15452 0.773547 1.70556
4.15163 0.774771 1.72057
4.14585 0.776205 1.7496
4.134 0.776495 1.76868
4.13813 0.778758 1.78662
4.13324 0.779969 1.80064
4.13047 0.78243 1.83163
4.12269 0.783865 1.86067
4.12075 0.78497 1.86767
4.11397 0.786404 1.8967
4.11309 0.788641 1.91268
4.11422 0.790907 1.93064
4.10531 0.790091 1.94272
4.10845 0.793355 1.96065
4.0986 0.793644 1.97972
4.09069 0.793842 1.99278
4.10288 0.798188 2.01663
4.08994 0.797331 2.02574
4.09108 0.799596 2.0437
4.08418 0.799794 2.05675
4.09228 0.80298 2.06965
4.08035 0.801137 2.07977
4.07861 0.805641 2.11372
4.07773 0.806879 2.12971
4.07686 0.809131 2.14668
4.07097 0.809343 2.16073
4.07418 0.813754 2.18864
4.05824 0.811885 2.19679
4.05737 0.813137 2.21378
4.06454 0.817457 2.23566
4.05462 0.817627 2.24674
4.05676 0.819907 2.26569
4.06086 0.822081 2.27763
4.05295 0.822265 2.28969
4.04605 0.822477 2.30374
4.05121 0.826784 2.32464
4.0393 0.825956 2.33574
4.03943 0.828222 2.35371
4.04259 0.831515 2.37364
4.04065 0.831635 2.38165
4.03374 0.832833 2.39469
4.03791 0.836155 2.41661
4.03101 0.836353 2.42966
4.02211 0.836551 2.44273
4.03029 0.840901 2.46661
4.01636 0.840044 2.47573
4.01844 0.842205 2.48668
4.01657 0.843458 2.50368
4.0137 0.845712 2.52067
4.01284 0.847979 2.53864
3.99703 0.848375 2.56476
3.99919 0.851684 2.5857
3.99639 0.855071 2.61167
3.99051 0.856297 2.6267
3.99467 0.85962 2.64862
3.98779 0.860847 2.66366
3.98492 0.8621 2.68066
3.97221 0.865687 2.71971
3.98343 0.871093 2.74755
3.97352 0.871293 2.76063
3.96461 0.871477 2.77269
3.96275 0.873744 2.79067
3.95594 0.876119 2.81569
3.96415 0.881513 2.84256
3.95238 0.88398 2.87361
3.9811 0.912409 2.70095
3.97824 0.913677 2.71896
3.96971 0.921601 2.78091
3.95408 0.926337 2.82997
4.06683 0.90692 2.26633
4.05591 0.906076 2.27642
4.04714 0.909541 2.30744
4.04319 0.909633 2.31347
4.05137 0.913982 2.33735
4.04145 0.913152 2.34844
4.03155 0.913337 2.36051
4.0347 0.91663 2.38044
4.02679 0.916814 2.3925
4.02586 0.917948 2.40149
4.03102 0.922269 2.42339
4.19928 0.872987 1.39871
4.19639 0.873196 1.41273
4.1925 0.874406 1.42675
4.19374 0.877879 1.45869
4.18902 0.88043 1.49569
4.17609 0.878588 1.50582
4.17119 0.878784 1.51885
4.18335 0.884085 1.53969
4.16753 0.883452 1.56382
4.16859 0.88457 1.5718
4.16695 0.889267 1.61874
4.15144 0.89324 1.68381
4.15357 0.89549 1.70076
4.14189 0.89812 1.74282
4.13204 0.898424 1.76289
4.13919 0.902714 1.78278
4.17973 0.92578 1.5861
4.1609 0.924119 1.60827
4.16704 0.928396 1.62717
4.16722 0.930751 1.65113
4.16735 0.932987 1.6671
4.14852 0.931342 1.69027
4.15065 0.933592 1.70722
4.14488 0.93604 1.73723
4.13991 0.936118 1.74227
4.14807 0.939408 1.76216
4.13113 0.937539 1.77032
4.13325 0.939789 1.78727
4.1384 0.943066 1.80619
4.12867 0.945606 1.84223
-5.0721 -0.441337 3.76934
-5.03503 -0.439156 3.513
-4.98237 -0.435815 3.20051
-4.80651 -0.428984 2.25095
-4.80857 -0.429101 2.24296
-4.80573 -0.428414 2.22193
-4.80587 -0.428695 2.20293
-4.80501 -0.427977 2.18391
-4.7932 -0.428356 2.15883
-4.79733 -0.428605 2.14186
-4.78452 -0.427984 2.11675
-4.7816 -0.428149 2.10573
-4.78173 -0.427416 2.08772
-4.77291 -0.427763 2.06465
-4.77704 -0.428011 2.04768
-4.77816 -0.427263 2.03068
-4.77133 -0.427593 2.00863
-4.77146 -0.42786 1.99063
-4.76555 -0.427042 1.97857
-4.75288 -0.426688 1.93547
-4.76098 -0.426889 1.92153
-4.74616 -0.426256 1.8974
-4.75129 -0.426489 1.88144
-4.74544 -0.426804 1.8604
-4.7485 -0.426905 1.85343
-4.73866 -0.426239 1.83134
-4.73082 -0.426555 1.81028
-4.73196 -0.426821 1.79229
-4.72909 -0.42609 1.77426
-4.72823 -0.426357 1.75625
-4.71147 -0.425858 1.72311
-4.7146 -0.426107 1.70614
-4.71473 -0.426359 1.68914
-4.71187 -0.425628 1.67111
-4.71 -0.425896 1.65309
-4.70514 -0.42618 1.63406
-4.69431 -0.425514 1.61196
-4.69544 -0.425765 1.59497
-4.69749 -0.425867 1.58799
-4.69263 -0.425152 1.56894
-4.68877 -0.425422 1.55091
-4.68192 -0.425723 1.53086
-4.67606 -0.425008 1.51181
-4.68317 -0.425211 1.49786
-4.6793 -0.42548 1.47983
-4.67837 -0.425614 1.47083
-4.68248 -0.425833 1.45586
-4.66665 -0.42517 1.43373
-4.67077 -0.425404 1.41776
-4.66591 -0.425674 1.39972
-4.67002 -0.425894 1.38476
-4.66915 -0.425146 1.36774
-4.65425 -0.425349 1.35462
-4.66534 -0.425519 1.34271
-4.6495 -0.424856 1.32058
-4.64364 -0.425127 1.30253
-4.64875 -0.425346 1.28757
-4.64301 -0.424853 1.25352
-4.64618 -0.425192 1.23054
-4.62846 -0.424753 1.1934
-4.63357 -0.424971 1.17844
-4.61585 -0.424532 1.14129
-4.6199 -0.424633 1.13432
-4.61802 -0.424871 1.11831
-4.61315 -0.425126 1.10128
-4.61327 -0.425363 1.08528
-4.6104 -0.424617 1.06824
-4.60664 -0.425094 1.03622
-4.60376 -0.425333 1.0202
-4.59783 -0.424485 1.01014
-4.59795 -0.424707 0.995141
-4.58609 -0.424997 0.976053
-4.58832 -0.42544 0.946072
-4.58244 -0.424696 0.929015
-4.57657 -0.424952 0.911972
-4.58262 -0.425036 0.906018
-4.57275 -0.425295 0.888945
-4.56987 -0.424534 0.87291
-4.56799 -0.424773 0.856897
-4.5691 -0.424994 0.841907
-4.56721 -0.425217 0.826894
-4.56234 -0.425473 0.809858
-4.56239 -0.425576 0.802859
-4.55652 -0.424833 0.785802
-4.56761 -0.425002 0.773886
-4.55874 -0.42526 0.756821
-4.55386 -0.425501 0.740785
-4.55198 -0.425739 0.724773
-4.53911 -0.425 0.707662
-4.55215 -0.425065 0.702761
-4.53528 -0.425344 0.684635
-4.5344 -0.425566 0.66963
-4.54349 -0.425752 0.6567
-4.53063 -0.425028 0.638589
-4.53173 -0.425235 0.624599
-4.53484 -0.42544 0.610623
-4.52192 -0.425597 0.600527
-4.52735 -0.426452 0.542572
-4.52346 -0.425677 0.52753
-4.50576 -0.426268 0.4884
-4.50088 -0.425508 0.472349
-4.50298 -0.425714 0.458366
-4.4991 -0.425939 0.443338
-4.49321 -0.426165 0.428295
-4.50331 -0.426351 0.415372
-4.48744 -0.425614 0.398239
-4.49248 -0.426699 0.392293
-4.48659 -0.425926 0.377235
-4.48282 -0.426373 0.347209
-4.48093 -0.426581 0.333196
-4.48703 -0.426784 0.319243
-4.47515 -0.42703 0.303155
-4.46621 -0.426155 0.295073
-4.4833 -0.42732 0.283218
-4.46542 -0.42657 0.26707
-4.46154 -0.426795 0.252042
-4.45475 -0.427229 0.222993
-4.45786 -0.427434 0.209017
-4.45003 -0.426766 0.186946
-4.45612 -0.426954 0.173992
-4.45523 -0.427162 0.159987
-4.44035 -0.42741 0.143876
-4.44345 -0.4276 0.130901
-4.44256 -0.427823 0.115895
-4.43872 -0.428137 0.0948679
-4.43982 -0.428343 0.0808774
-4.43493 -0.427554 0.0668269
-4.44004 -0.428758 0.0528812
-4.42031 -0.428305 0.0167209
-4.42741 -0.428507 0.00277552
-5.85522 -0.439139 8.27483
-5.78232 -0.435294 7.86217
-5.76789 -0.434415 7.78704
-5.70668 -0.430955 7.41547
-5.69518 -0.429941 7.34936
-5.68466 -0.428896 7.28526
-5.62326 -0.426065 6.93871
-5.6137 -0.424931 6.88061
-5.60512 -0.424782 6.82353
-5.55908 -0.422666 6.56312
-5.54852 -0.421533 6.50502
-5.53398 -0.421447 6.4439
-5.52934 -0.421161 6.39585
-5.48683 -0.419125 6.19747
-5.47821 -0.417886 6.14638
-5.47653 -0.418524 6.10337
-5.4699 -0.417255 6.0543
-5.45831 -0.417063 6.0002
-5.45265 -0.416734 5.95515
-5.44303 -0.416496 5.90406
-5.43029 -0.416009 5.86996
-5.4286 -0.415617 5.82893
-5.41301 -0.415443 5.7738
-5.40736 -0.415129 5.72775
-5.40664 -0.414692 5.68973
-5.38709 -0.41358 5.63056
-5.38538 -0.413159 5.59154
-5.37561 -0.41361 5.56147
-5.36496 -0.412314 5.51436
-5.35928 -0.411955 5.47131
-5.35559 -0.412565 5.43028
-5.34692 -0.412223 5.3862
-5.34025 -0.411865 5.34314
-5.34249 -0.411352 5.31015
-5.32675 -0.410867 5.27602
-5.30099 -0.409329 5.11078
-5.29728 -0.408895 5.07274
-5.28562 -0.40857 5.02764
-5.2711 -0.408528 4.96352
-5.25198 -0.407275 4.84634
-5.24229 -0.406904 4.80426
-5.23955 -0.40641 4.77023
-5.23173 -0.406771 4.74617
-5.21157 -0.405444 4.63398
-5.21081 -0.405919 4.60198
-5.05933 -0.399855 3.73463
-5.05753 -0.399256 3.7076
-5.04679 -0.399767 3.67352
-5.05593 -0.399027 3.65558
-5.01042 -0.397993 3.45719
-5.0115 -0.398155 3.4462
-5.00372 -0.397605 3.41613
-4.99179 -0.397702 3.27502
-4.95386 -0.396847 3.1317
-4.95304 -0.396203 3.10769
-4.81138 -0.393777 2.26447
-4.81152 -0.394043 2.24647
-4.8017 -0.39342 2.22138
-4.80498 -0.393966 2.18441
-4.80207 -0.394131 2.17339
-4.79225 -0.393494 2.1493
-4.79637 -0.393742 2.13233
-4.78968 -0.393354 2.09127
-4.78285 -0.393685 2.06922
-4.78597 -0.39392 2.05325
-4.77608 -0.393149 2.03816
-4.77921 -0.393399 2.02118
-4.77935 -0.393665 2.00319
-4.76454 -0.393061 1.97706
-4.76866 -0.393295 1.9611
-4.75299 -0.392958 1.91697
-4.76402 -0.394009 1.91306
-4.76017 -0.393308 1.89302
-4.75432 -0.393609 1.87298
-4.75148 -0.393907 1.85296
-4.75061 -0.393174 1.83494
-4.73912 -0.393175 1.76784
-4.72842 -0.393775 1.72777
-4.71598 -0.393895 1.65266
-4.65768 -0.394239 1.29418
-4.63564 -0.394151 1.166
-4.61458 -0.394017 1.04082
-4.58464 -0.395112 0.90059
-4.53681 -0.396427 0.611209
-4.53193 -0.395667 0.595159
-4.51906 -0.395929 0.578063
-4.50957 -0.395942 0.509982
-4.50769 -0.396166 0.494969
-4.50979 -0.396372 0.480986
-4.50891 -0.396595 0.465981
-4.50302 -0.396821 0.450938
-4.50113 -0.397044 0.435925
-4.50418 -0.397131 0.429948
-4.49231 -0.396392 0.412846
-4.4984 -0.397579 0.399907
-4.48852 -0.396824 0.383819
-4.49063 -0.39703 0.369836
-4.49473 -0.397234 0.355869
-4.48885 -0.39746 0.340825
-4.48791 -0.397579 0.332819
-4.48002 -0.397807 0.317761
-4.47813 -0.398031 0.302748
-4.47524 -0.39724 0.288712
-4.47335 -0.397464 0.273699
-4.46747 -0.39769 0.258656
-4.46457 -0.3979 0.244636
-4.46362 -0.398004 0.237629
-4.46573 -0.39821 0.223646
-4.46284 -0.398434 0.208626
-4.45696 -0.39866 0.193583
-4.46405 -0.398848 0.180637
-4.45317 -0.398078 0.165542
-4.45427 -0.398284 0.151551
-4.45332 -0.398389 0.144544
-4.44644 -0.398616 0.129494
-4.44155 -0.398842 0.114458
-4.44366 -0.399047 0.100475
-4.43876 -0.399258 0.0864396
-4.43787 -0.399466 0.072434
-4.43697 -0.399674 0.0584284
-4.42809 -0.398903 0.043348
-4.43413 -0.399987 0.0374088
-4.42924 -0.399213 0.0223584
-4.42435 -0.399424 0.0083227
-4.42045 -0.399634 -0.00570546
-4.42356 -0.399839 -0.019681
-4.41867 -0.40005 -0.0337166
-5.47665 -0.313891 6.07782
-5.46139 -0.314353 5.9797
-5.45177 -0.314101 5.92962
-5.42304 -0.314625 5.76039
-5.40548 -0.314496 5.70224
-5.40179 -0.315121 5.66022
-5.40008 -0.3147 5.62119
-5.38747 -0.315464 5.5701
-5.37981 -0.315136 5.52503
-5.35938 -0.315277 5.44887
-5.35866 -0.315825 5.41187
-5.35595 -0.315405 5.37284
-5.3463 -0.315093 5.32675
-5.34556 -0.315612 5.29175
-5.29364 -0.315737 5.01532
-5.28893 -0.316303 4.97729
-5.26559 -0.316623 4.88911
-5.25007 -0.316583 4.82498
-5.23665 -0.316733 4.74787
-5.22247 -0.317342 4.63976
-5.21563 -0.316673 4.6177
-5.21487 -0.317133 4.58669
-5.20517 -0.317732 4.54662
-5.08097 -0.319226 3.7756
-5.06417 -0.319638 3.74848
-5.05641 -0.320117 3.71642
-5.05362 -0.319534 3.68839
-5.05779 -0.319857 3.66642
-5.054 -0.320274 3.6384
-5.04425 -0.31977 3.60531
-5.03947 -0.320218 3.57528
-5.02962 -0.320521 3.5552
-5.02583 -0.320939 3.52718
-5.02601 -0.320294 3.50317
-5.01924 -0.320743 3.47312
-5.01644 -0.321145 3.4461
-5.01563 -0.320516 3.42108
-5.00885 -0.32095 3.39203
-4.99122 -0.320689 3.34289
-4.98742 -0.321077 3.31686
-4.9876 -0.321432 3.29286
-4.98081 -0.321866 3.26382
-4.97701 -0.321254 3.23777
-4.97321 -0.321642 3.21175
-4.97339 -0.321997 3.18775
-4.96352 -0.322271 3.16968
-4.96469 -0.321596 3.14767
-4.9569 -0.322016 3.11962
-4.94929 -0.321792 3.06755
-4.8378 -0.325713 2.33467
-4.82415 -0.326404 2.28857
-4.81769 -0.326461 2.21751
-4.80901 -0.327104 2.17445
-4.70904 -0.330099 1.63867
-4.68121 -0.331415 1.48345
-4.6824 -0.331784 1.45847
-4.67268 -0.331339 1.42138
-4.66096 -0.33191 1.3833
-4.66919 -0.332349 1.35336
-4.65541 -0.332788 1.32426
-4.65154 -0.332058 1.30622
-4.64979 -0.332548 1.27321
-4.63595 -0.332869 1.2521
-4.63706 -0.33309 1.23711
-4.63313 -0.333226 1.22808
-4.63824 -0.333444 1.21312
-4.62939 -0.333732 1.19406
-4.62451 -0.332988 1.17701
-4.62563 -0.333224 1.16102
-4.62077 -0.333494 1.14298
-4.62687 -0.333697 1.12903
-4.61496 -0.333868 1.11794
-4.60534 -0.334616 1.06787
-4.60745 -0.334836 1.05289
-4.60058 -0.334108 1.03483
-4.6007 -0.334345 1.01883
-4.59277 -0.334484 1.00977
-4.59289 -0.334721 0.993771
-4.59501 -0.334941 0.978788
-4.59512 -0.335163 0.96379
-4.58027 -0.33547 0.94368
-4.58138 -0.335692 0.928689
-4.58749 -0.335894 0.914736
-4.57363 -0.335186 0.895619
-4.58167 -0.336254 0.890695
-4.5738 -0.335526 0.872622
-4.57691 -0.335732 0.858647
-4.57104 -0.335988 0.841604
-4.56616 -0.336228 0.825568
-4.56228 -0.336468 0.809541
-4.56339 -0.336689 0.79455
-4.55547 -0.336843 0.784491
-4.55458 -0.337066 0.769486
-4.55469 -0.337288 0.754488
-4.54981 -0.337528 0.738452
-4.54493 -0.336769 0.722402
-4.54804 -0.336974 0.708427
-4.55115 -0.337194 0.693451
-4.53923 -0.33735 0.683362
-4.54233 -0.337555 0.669387
-4.53545 -0.337797 0.653337
-4.54056 -0.338001 0.639376
-4.54067 -0.338223 0.624378
-4.52181 -0.338503 0.606238
-4.52092 -0.338726 0.591232
-4.52619 -0.339255 0.555275
-4.39695 -0.347663 -0.20968
-5.07584 -0.286026 3.78907
-4.81016 -0.297462 2.28503
-4.81735 -0.297842 2.25909
-4.81251 -0.298156 2.23806
-4.81465 -0.298421 2.22007
-4.80881 -0.298751 2.19803
-4.79501 -0.299146 2.17193
-4.80411 -0.299347 2.158
-4.80426 -0.299628 2.139
-4.79238 -0.298874 2.1229
-4.79052 -0.299157 2.10389
-4.77871 -0.299536 2.0788
-4.78283 -0.29977 2.06283
-4.78098 -0.300067 2.04282
-4.77015 -0.300416 2.01974
-4.7683 -0.300698 2.00073
-4.76645 -0.300996 1.98072
-4.75654 -0.300196 1.96763
-4.75469 -0.300478 1.94861
-4.74898 -0.30106 1.90957
-4.7541 -0.301293 1.89361
-4.73828 -0.30166 1.8695
-4.73643 -0.301943 1.85049
-4.73749 -0.302075 1.84149
-4.74261 -0.302294 1.82653
-4.72879 -0.301659 1.80242
-4.73191 -0.301894 1.78644
-4.72905 -0.302177 1.76742
-4.71723 -0.302526 1.74433
-4.72932 -0.302695 1.73243
-4.71456 -0.30318 1.70032
-4.70299 -0.304032 1.64324
-4.69446 -0.303972 1.58016
-4.68474 -0.304527 1.54309
-4.68001 -0.305063 1.50706
-4.6802 -0.305433 1.48206
-4.66861 -0.305241 1.42796
-4.66075 -0.305528 1.40891
-4.65789 -0.305797 1.39089
-4.66001 -0.306032 1.3749
-4.65508 -0.306184 1.36487
-4.64635 -0.306709 1.32981
-4.64659 -0.307197 1.29681
-4.63698 -0.307959 1.24574
-4.61769 -0.308366 1.15159
-4.59938 -0.309741 1.05946
-4.59662 -0.310217 1.02744
-4.56683 -0.311623 0.866215
-4.5582 -0.31234 0.818154
-4.55105 -0.313033 0.704094
-5.92552 -0.180156 8.74159
-5.91214 -0.18138 8.6595
-5.90567 -0.181421 8.58944
-5.88733 -0.182738 8.50131
-5.87888 -0.18381 8.42925
-5.86844 -0.184928 8.35418
-5.84711 -0.185262 8.26501
-5.83545 -0.185936 8.21993
-5.82402 -0.187055 8.14485
-5.80563 -0.188283 8.06271
-5.79913 -0.189265 7.99667
-5.78667 -0.18934 7.92457
-5.77422 -0.190416 7.85248
-5.77562 -0.1912 7.7995
-5.75306 -0.19209 7.74033
-5.74059 -0.193135 7.67024
-5.73009 -0.194135 7.60317
-5.72355 -0.194043 7.54211
-5.71304 -0.195013 7.47704
-5.70056 -0.196029 7.40895
-5.694 -0.196908 7.3499
-5.66783 -0.197556 7.2397
-5.65631 -0.198512 7.17562
-5.64876 -0.199406 7.11557
-5.64021 -0.200286 7.05651
-5.62966 -0.201182 6.99643
-5.61517 -0.202185 6.92933
-5.60642 -0.201695 6.89525
-5.59588 -0.202591 6.83518
-5.58235 -0.203534 6.77208
-5.5817 -0.204215 6.72608
-5.57709 -0.204989 6.67405
-5.56453 -0.205871 6.61496
-5.53927 -0.206341 6.51676
-5.53365 -0.207086 6.46672
-5.52802 -0.207815 6.41769
-5.51646 -0.208683 6.3596
-5.50884 -0.209443 6.30855
-5.50322 -0.210188 6.25851
-5.48583 -0.210415 6.17637
-5.47623 -0.211192 6.12431
-5.46266 -0.212046 6.06721
-5.458 -0.21273 6.02118
-5.45235 -0.213416 5.97514
-5.44075 -0.214209 5.92205
-5.44798 -0.214663 5.89111
-5.42235 -0.215392 5.84292
-5.41371 -0.215124 5.79385
-5.41301 -0.215702 5.75484
-5.39969 -0.217059 5.66375
-5.38906 -0.217793 5.61468
-5.37744 -0.218541 5.56459
-5.36595 -0.219542 5.49751
-5.34962 -0.219887 5.40738
-5.34989 -0.220405 5.37239
-5.28362 -0.224814 5.0099
-5.07283 -0.240078 3.78537
-5.05453 -0.241468 3.69224
-4.75939 -0.262946 1.9841
-4.6445 -0.272055 1.30627
-4.62053 -0.274101 1.16911
-4.58696 -0.276939 0.978869
-4.54194 -0.279851 0.716536
-5.31836 -0.187364 5.17363
-5.3077 -0.188038 5.12856
-5.84367 -0.0725205 8.1793
-5.82431 -0.0747783 8.09518
-5.75175 -0.0845833 7.63872
-5.74026 -0.0855986 7.57063
-5.67403 -0.094081 7.20321
-5.66647 -0.0949602 7.14416
-5.58886 -0.105665 6.69467
-5.53685 -0.110612 6.43032
-5.48437 -0.118596 6.09599
-5.42978 -0.125359 5.77664
-5.42014 -0.126077 5.72857
-5.41646 -0.126716 5.68554
-5.34907 -0.134889 5.33911
-5.3128 -0.139306 5.10987
-5.30611 -0.140918 5.06884
-5.29147 -0.141639 5.02073
-5.28217 -0.144008 4.92868
-5.26752 -0.144715 4.88158
-5.26578 -0.14522 4.84757
-5.23747 -0.147588 4.75638
-5.25359 -0.147828 4.7395
-5.22463 -0.150877 4.60231
-5.22188 -0.151368 4.56929
-5.21118 -0.151983 4.52821
-5.07286 -0.168219 3.77531
-5.07813 -0.168748 3.73935
-5.07235 -0.169196 3.70931
-5.05783 -0.17114 3.64622
-5.06 -0.171479 3.62324
-5.05224 -0.171958 3.59118
-5.0404 -0.172278 3.57009
-5.03563 -0.172726 3.54006
-5.03283 -0.173113 3.51404
-5.03699 -0.173435 3.49207
-5.02922 -0.174885 3.46203
-5.02642 -0.175287 3.43501
-5.00283 -0.176104 3.38084
-5.004 -0.176444 3.35785
-4.99442 -0.178265 3.3028
-4.99161 -0.178652 3.27678
-4.99279 -0.178992 3.25379
-4.98103 -0.179474 3.2217
-4.97316 -0.179732 3.20465
-4.97134 -0.180088 3.18063
-4.97847 -0.18035 3.16269
-4.96273 -0.181864 3.12859
-4.95893 -0.182252 3.10256
-4.95014 -0.182688 3.0735
-4.95728 -0.182949 3.05555
-4.80063 -0.199531 2.2125
-4.7958 -0.20086 2.19048
-4.79708 -0.201407 2.1535
-4.78732 -0.201903 2.12042
-4.77665 -0.202548 2.07735
-4.7849 -0.203045 2.04341
-4.76624 -0.203725 1.99828
-4.75948 -0.205189 1.96724
-4.7569 -0.20602 1.91123
-4.74322 -0.206652 1.86913
-4.74342 -0.207052 1.84213
-4.73471 -0.207636 1.80307
-4.72402 -0.20825 1.76199
-4.7183 -0.209802 1.72497
-4.7205 -0.210186 1.69899
-4.70594 -0.211055 1.64088
-4.67711 -0.214386 1.48469
-4.65985 -0.21585 1.38657
-4.65418 -0.216491 1.34353
-5.92109 0.00448798 8.64881
-5.91561 0.00246235 8.57979
-5.82444 -0.0121257 8.07125
-5.74788 -0.0249332 7.6148
-5.73541 -0.026964 7.54573
-5.66815 -0.0364026 7.18131
-5.66454 -0.0381751 7.1293
-5.655 -0.0400852 7.06825
-5.64248 -0.0410273 7.00516
-5.63095 -0.0429537 6.94309
-5.60489 -0.0468234 6.81794
-5.60209 -0.0472105 6.79192
-5.58955 -0.0491228 6.73084
-5.58493 -0.0508664 6.68083
-5.5704 -0.0518099 6.61772
-5.5552 -0.0553904 6.51165
-5.54957 -0.0561201 6.46261
-5.53388 -0.0577385 6.42151
-5.52131 -0.0595916 6.36443
-5.51173 -0.060413 6.30937
-5.50608 -0.062113 6.26234
-5.49053 -0.0640127 6.20224
-5.48985 -0.0646351 6.16024
-5.48222 -0.0663662 6.1112
-5.45223 -0.0693722 5.977
-5.42832 -0.0735217 5.83287
-5.42067 -0.0752231 5.78583
-5.4092 -0.076268 5.71575
-5.37361 -0.0820627 5.52854
-5.34009 -0.0869893 5.33233
-4.4817 -0.206427 0.341944
-4.47692 -0.20686 0.31291
-4.41072 -0.214402 -0.058528
-4.4025 -0.215948 -0.162581
-5.40591 -0.0227424 5.61592
-5.38292 -0.0277431 5.4818
-5.35881 -0.031493 5.36466
-5.34842 -0.0336999 5.2836
-5.30951 -0.0388602 5.13936
-5.31969 -0.0392082 5.11544
-5.27317 -0.046144 4.91917
-5.25019 -0.0501744 4.78303
-5.23029 -0.0553357 4.63794
-5.08583 -0.0822631 3.77113
-5.07807 -0.0827426 3.73907
-5.05768 -0.0859567 3.65796
-5.06583 -0.0862469 3.63802
-5.06005 -0.0866805 3.60898
-5.03936 -0.0883026 3.56784
-5.03477 -0.0901055 3.51383
-5.03287 -0.0903142 3.49981
-5.01714 -0.0918586 3.46371
-5.01633 -0.0922294 3.43871
-5.02845 -0.0924575 3.4228
-5.00775 -0.09405 3.38366
-5.01788 -0.0942943 3.36674
-5.00016 -0.095855 3.32963
-4.99437 -0.0962739 3.30158
-4.99545 -0.0964359 3.29059
-4.9827 -0.0979338 3.25751
-4.98188 -0.0982898 3.23351
-4.98802 -0.0985667 3.21456
-4.97129 -0.100097 3.17945
-4.97743 -0.100374 3.1605
-4.9796 -0.101698 3.13853
-4.96376 -0.102035 3.11641
-4.95598 -0.103455 3.08837
-4.81822 -0.126816 2.25957
-4.81439 -0.127144 2.23754
-4.81553 -0.12741 2.21955
-4.81766 -0.128675 2.20158
-4.80877 -0.128889 2.18752
-4.80393 -0.129218 2.16548
-4.80707 -0.129482 2.14751
-4.80521 -0.129765 2.12849
-4.79838 -0.131095 2.10646
-4.79554 -0.131408 2.08544
-4.79176 -0.131855 2.05541
-4.78094 -0.133204 2.03235
-4.7781 -0.133517 2.01133
-4.77438 -0.135082 1.97332
-4.76668 -0.13568 1.93326
-4.76077 -0.135862 1.92122
-4.75892 -0.136145 1.90221
-4.75606 -0.137428 1.8832
-4.75534 -0.137976 1.8462
-4.74052 -0.138343 1.82209
-4.73169 -0.139675 1.80004
-4.73375 -0.139792 1.79206
-4.73588 -0.140042 1.77507
-4.73003 -0.140342 1.75503
-4.73415 -0.140576 1.73906
-4.72631 -0.141893 1.71802
-4.71946 -0.142194 1.69797
-4.72557 -0.142412 1.68302
-4.71474 -0.142745 1.66094
-4.71081 -0.142896 1.65091
-4.70995 -0.144163 1.63292
-4.70608 -0.144433 1.61489
-4.70335 -0.144968 1.57887
-4.6975 -0.145253 1.55983
-4.69171 -0.146672 1.53181
-4.68785 -0.146941 1.51378
-4.677 -0.14726 1.4927
-4.68012 -0.147495 1.47672
-4.68424 -0.147714 1.46176
-4.68037 -0.148983 1.44374
-4.67452 -0.149269 1.4247
-4.66561 -0.149453 1.41263
-4.65887 -0.150976 1.3776
-4.65414 -0.151498 1.34257
-4.66124 -0.1517 1.32862
-4.64939 -0.152005 1.30854
-4.6436 -0.152409 1.28149
-4.63697 -0.154154 1.23146
-4.63012 -0.15444 1.21241
-4.62625 -0.154695 1.19538
-4.6303 -0.154796 1.18842
-4.6344 -0.155 1.17445
-4.61856 -0.156322 1.15335
-4.6208 -0.15678 1.12236
-4.62403 -0.157236 1.09139
-4.60426 -0.158695 1.06126
-4.6005 -0.159172 1.02923
-4.59363 -0.159443 1.01118
-4.60272 -0.159614 0.999254
-4.58999 -0.160142 0.96416
-4.60103 -0.160208 0.959244
-4.58817 -0.161498 0.940164
-4.58928 -0.16172 0.925173
-4.5874 -0.161958 0.90916
-4.58952 -0.162179 0.894177
-4.57366 -0.162471 0.87506
-4.58076 -0.162659 0.862114
-4.57295 -0.163035 0.837057
-4.57018 -0.164496 0.806054
-4.5693 -0.164733 0.790049
-4.56342 -0.164974 0.774006
-4.55256 -0.165249 0.755925
-4.55461 -0.165351 0.748941
-4.5657 -0.165521 0.737026
-4.54884 -0.166814 0.717915
-4.54596 -0.167053 0.701895
-4.54907 -0.167258 0.687919
-4.54618 -0.167482 0.672899
-4.5453 -0.167705 0.657894
-4.54736 -0.167822 0.64991
-4.54048 -0.168064 0.633859
-4.5356 -0.168305 0.617824
-4.53071 -0.16853 0.602788
-4.51535 -0.170785 0.518694
-4.50747 -0.171028 0.502636
-4.51057 -0.171233 0.488661
-4.50081 -0.172699 0.457605
-4.50097 -0.173025 0.435608
-4.4932 -0.173475 0.405552
-4.48731 -0.173701 0.390509
-4.48942 -0.173907 0.376525
-4.48353 -0.174133 0.361482
-4.48963 -0.174336 0.34753
-4.47881 -0.174684 0.32445
-4.48202 -0.175097 0.296476
-4.47225 -0.176548 0.26642
-4.46336 -0.176777 0.251354
-4.4764 -0.176856 0.245453
-4.46562 -0.177293 0.216374
-4.46174 -0.177518 0.201346
-4.46484 -0.177723 0.187371
-4.45395 -0.177953 0.17229
-4.45206 -0.178162 0.158277
-4.45023 -0.178489 0.136265
-4.44533 -0.1797 0.122244
-4.44245 -0.179924 0.107224
-4.44155 -0.180132 0.0932179
-4.43466 -0.180344 0.0791672
-4.44376 -0.180545 0.0652369
-4.43287 -0.18076 0.051156
-4.44491 -0.18084 0.0452471
-4.43203 -0.181072 0.0301514
-4.43113 -0.18128 0.0161458
-4.42224 -0.181508 0.00108017
-4.43734 -0.18169 -0.0118052
-4.42646 -0.18192 -0.0268859
-4.42456 -0.182129 -0.040899
-4.41161 -0.183242 -0.047981
-4.42172 -0.182442 -0.0619187
-4.41093 -0.183864 -0.0899828
-4.3993 -0.184598 -0.139066
-4.39941 -0.184805 -0.153064
-4.39551 -0.185015 -0.167093
-4.39561 -0.185208 -0.180091
-4.39271 -0.185417 -0.194111
-4.39482 -0.185623 -0.208094
-4.39893 -0.185827 -0.222062
-4.38898 -0.185938 -0.229137
-4.39108 -0.186129 -0.24212
-5.08063 -0.04793 3.79359
-5.07884 -0.0493458 3.76559
-5.07724 -0.050117 3.71358
-5.0648 -0.0532216 3.63952
-5.04846 -0.0565364 3.55144
-5.03391 -0.0584354 3.49135
-5.01927 -0.0601419 3.44426
-5.01167 -0.061947 3.39022
-5.01584 -0.0622697 3.36825
-5.01104 -0.0636729 3.34123
-4.99748 -0.0655267 3.28415
-4.99277 -0.0661077 3.24512
-4.98399 -0.0675434 3.21607
-4.98814 -0.0678365 3.1961
-4.9676 -0.0707545 3.13498
-4.96098 -0.0724996 3.08495
-4.96703 -0.071599 3.07798
-4.9483 -0.0731308 3.04286
-4.80831 -0.0990332 2.24508
-4.80547 -0.100346 2.22407
-4.80661 -0.100627 2.20508
-4.81074 -0.100875 2.18812
-4.79985 -0.101091 2.17403
-4.79003 -0.102453 2.14998
-4.79416 -0.102702 2.13301
-4.78334 -0.103065 2.10893
-4.78347 -0.104331 2.09095
-4.78077 -0.104911 2.05193
-4.78197 -0.10531 2.02494
-4.76617 -0.106706 1.99884
-4.77727 -0.106891 1.98592
-4.76359 -0.108537 1.94284
-4.75277 -0.108886 1.91976
-4.76486 -0.109069 1.90685
-4.74599 -0.110335 1.88973
-4.74812 -0.110585 1.87274
-4.74554 -0.112401 1.81774
-4.73271 -0.112751 1.79465
-4.74081 -0.112952 1.78071
-4.72806 -0.114435 1.74863
-4.72633 -0.11497 1.71262
-4.71961 -0.116522 1.67559
-4.71382 -0.116941 1.64755
-4.70012 -0.118544 1.60746
-4.70224 -0.118779 1.59148
-4.70038 -0.119047 1.57347
-4.69353 -0.119348 1.55342
-4.70462 -0.119518 1.5415
-4.67615 -0.122575 1.47132
-4.68924 -0.121743 1.45941
-4.67939 -0.123046 1.43935
-4.6825 -0.123266 1.42438
-4.6706 -0.123467 1.41129
-4.67371 -0.123687 1.39631
-4.66 -0.12526 1.35823
-4.6701 -0.125445 1.3453
-4.64927 -0.1268 1.32216
-4.65538 -0.127003 1.30821
-4.66242 -0.126087 1.30225
-4.64771 -0.12766 1.26416
-4.64683 -0.127898 1.24815
-4.64496 -0.128151 1.23114
-4.6351 -0.129439 1.21208
-4.63422 -0.129677 1.19607
-4.63434 -0.129914 1.18008
-4.62455 -0.131321 1.15302
-4.62467 -0.131558 1.13702
-4.61704 -0.132289 1.08797
-4.61722 -0.132644 1.06397
-4.61446 -0.13412 1.03197
-4.59972 -0.134649 0.996861
-4.60882 -0.134835 0.983931
-4.59802 -0.136227 0.957866
-4.59526 -0.136703 0.925848
-4.58551 -0.137199 0.892777
-4.57376 -0.138696 0.859706
-4.58679 -0.138761 0.854805
-4.57105 -0.139276 0.820689
-4.56851 -0.141181 0.75969
-4.56856 -0.141284 0.752691
-4.56568 -0.141523 0.73667
-4.55039 -0.143911 0.643578
-4.54844 -0.144016 0.636564
-4.53968 -0.144497 0.6045
-4.53391 -0.145945 0.574474
-4.52204 -0.146205 0.557386
-4.5182 -0.146534 0.535359
-4.51454 -0.147203 0.490335
-4.51865 -0.147407 0.476367
-4.51687 -0.148838 0.447371
-4.50305 -0.149203 0.423269
-4.50116 -0.149427 0.408256
-4.49327 -0.149655 0.393198
-4.48739 -0.150881 0.37817
-4.49748 -0.150066 0.365232
-4.49865 -0.150391 0.343242
-4.49476 -0.151616 0.328229
-4.48588 -0.151845 0.313164
-4.474 -0.15209 0.297075
-4.4841 -0.152275 0.284152
-4.46622 -0.153525 0.268034
-4.48131 -0.152707 0.255134
-4.47837 -0.152813 0.248112
-4.46848 -0.154042 0.233054
-4.47759 -0.153243 0.219109
-4.4728 -0.154675 0.19009
-4.45992 -0.154907 0.174994
-4.46802 -0.155094 0.162056
-4.45608 -0.155221 0.153967
-4.45718 -0.155427 0.139976
-4.45729 -0.155634 0.125978
-4.4464 -0.155865 0.110898
-4.43773 -0.157507 0.0678507
-4.44083 -0.157713 0.0538752
-4.43088 -0.157823 0.0468009
-4.43199 -0.15803 0.0328104
-4.43509 -0.158235 0.0188349
-4.42331 -0.158673 -0.0102514
-4.42741 -0.158863 -0.0232195
-4.43052 -0.159068 -0.037195
-4.42257 -0.159177 -0.0442542
-4.42168 -0.159385 -0.0582598
-4.41689 -0.160803 -0.0862788
-4.408 -0.161032 -0.101344
-4.40211 -0.161243 -0.115388
-4.39747 -0.161957 -0.163419
-4.39468 -0.162374 -0.191437
-4.38678 -0.162572 -0.204496
-4.38693 -0.162883 -0.225493
-4.39104 -0.163087 -0.239461
-5.53042 0.0969832 6.33418
-5.52281 0.0942227 6.28316
-5.47861 0.083667 6.04495
-5.47098 0.0819359 5.99591
-5.46433 0.0802353 5.94888
-5.41138 0.0681846 5.67762
-5.41068 0.0665919 5.63763
-5.39905 0.0648579 5.58856
-5.39437 0.0632327 5.54655
-5.36855 0.0559044 5.39044
-5.35393 0.0541535 5.34035
-5.34725 0.052512 5.29732
-5.34553 0.0509629 5.26032
-5.30773 0.0435963 5.10212
-5.30203 0.0419999 5.0621
-5.30327 0.041527 5.03011
-5.29261 0.0388531 4.98506
-5.28492 0.0372405 4.94402
-5.2792 0.0356885 4.907
-5.26754 0.0340138 4.86193
-5.25971 0.0326676 4.83889
-5.26492 0.0322568 4.81093
-5.25325 0.0306116 4.76786
-5.24852 0.0290752 4.73184
-5.24975 0.027632 4.70187
-5.23211 0.0259085 4.65375
-5.23235 0.0244349 4.62177
-5.22353 0.023088 4.59872
-5.06213 -0.0119693 3.72391
-5.05735 -0.0134021 3.69489
-5.06351 -0.0137086 3.67393
-5.04898 -0.0156519 3.61084
-5.04817 -0.0170226 3.58586
-5.03643 -0.0185345 3.55178
-5.03951 -0.0186952 3.54081
-5.02975 -0.020176 3.50875
-5.02496 -0.021594 3.48073
-5.0154 -0.0234449 3.42368
-5.0106 -0.0248481 3.39666
-5.00482 -0.0252818 3.36762
-4.99505 -0.0267478 3.33657
-4.99135 -0.0283279 3.29755
-4.98555 -0.0297318 3.27053
-4.97894 -0.0315066 3.2185
-4.97017 -0.0319572 3.18843
-4.97333 -0.0332657 3.16747
-4.96762 -0.0348325 3.12945
-4.961 -0.0365924 3.07842
-4.95122 -0.0380289 3.04936
-4.79586 -0.0691562 2.16953
-4.77201 -0.0744389 2.01641
-4.76432 -0.0760367 1.97637
-4.75947 -0.0763512 1.95533
-4.7527 -0.0778002 1.9253
-4.74627 -0.0799154 1.85027
-4.73843 -0.0812468 1.82823
-4.73464 -0.0816642 1.8002
-4.73106 -0.0834811 1.7452
-4.71723 -0.0848316 1.72211
-4.701 -0.0873538 1.62001
-4.66963 -0.0945599 1.40485
-4.66289 -0.0950831 1.3698
-4.65504 -0.0963848 1.34976
-4.65236 -0.0970087 1.30774
-4.65049 -0.0972618 1.29073
-4.64961 -0.0984993 1.27474
-4.63501 -0.100295 1.22165
-4.63008 -0.100446 1.21161
-4.6312 -0.100682 1.19562
-4.62246 -0.102192 1.16157
-4.62083 -0.102919 1.11257
-4.61003 -0.104326 1.0855
-4.61215 -0.104547 1.07052
-4.60328 -0.10482 1.05245
-4.60053 -0.106296 1.02045
-4.58508 -0.108403 0.946355
-4.5892 -0.108622 0.931387
-4.57933 -0.108896 0.913315
