3.84853 -0.254345 2.84629
3.8428 -0.253823 2.88133
3.84395 -0.254513 2.90233
3.83119 -0.254044 2.93342
3.82932 -0.253777 2.95144
3.8304 -0.253614 2.96243
3.82252 -0.253387 2.97749
3.82468 -0.253062 2.99947
3.81493 -0.252567 3.03254
3.81006 -0.252311 3.04957
3.80418 -0.25207 3.06562
3.80929 -0.251852 3.08058
3.80946 -0.251526 3.10257
3.80157 -0.251313 3.11663
3.79769 -0.251058 3.13366
3.79082 -0.250817 3.14971
3.79501 -0.250435 3.17568
3.79014 -0.250179 3.19271
3.78921 -0.250031 3.20272
3.77528 -0.249887 3.21182
3.77561 -0.249236 3.25582
3.76487 -0.248725 3.28989
3.76714 -0.248193 3.32587
3.71981 -0.245886 3.54723
3.71101 -0.24548 3.57429
3.66206 -0.241416 3.84664
3.66347 -0.240618 3.90062
3.65055 -0.240445 3.91172
3.65176 -0.240032 3.93971
3.65096 -0.239646 3.96571
3.64813 -0.240303 3.98875
3.64239 -0.239796 4.02279
3.63251 -0.239552 4.03886
3.62767 -0.239222 4.06089
3.62586 -0.238851 4.0859
3.61619 -0.238192 4.12997
3.61631 -0.23797 4.14497
3.61047 -0.237655 4.16601
3.60867 -0.237254 4.19303
3.60686 -0.236882 4.21804
3.60001 -0.236581 4.23809
3.59317 -0.236265 4.25914
3.5925 -0.235613 4.30314
3.58991 -0.234797 4.35815
3.57601 -0.234594 4.37126
3.57119 -0.234235 4.39529
3.57849 -0.233648 4.43523
3.56054 -0.233546 4.44137
3.56671 -0.23421 4.46433
3.56493 -0.233779 4.49335
3.5581 -0.233449 4.51539
3.55656 -0.232544 4.5764
3.5376 -0.232442 4.58254
3.53784 -0.231968 4.61454
3.53202 -0.231608 4.63858
3.52911 -0.231429 4.6506
3.52129 -0.231082 4.67366
3.52154 -0.230579 4.70765
3.51673 -0.230205 4.73269
3.50688 -0.229917 4.75176
3.50612 -0.229428 4.78476
3.50551 -0.228672 4.83576
3.49667 -0.228354 4.85683
3.49289 -0.227922 4.88586
3.48101 -0.227662 4.90294
3.47926 -0.228172 4.93597
3.4769 -0.226911 5.02098
3.46605 -0.226622 5.04006
3.45823 -0.226261 5.06412
3.45548 -0.22577 5.09713
3.45272 -0.22528 5.13015
3.44087 -0.22499 5.14924
3.44216 -0.224413 5.18823
3.43827 -0.224203 5.20226
3.43146 -0.223813 5.2283
3.42771 -0.223322 5.26133
3.42396 -0.22283 5.29436
3.41514 -0.222468 5.31842
3.41241 -0.222933 5.35445
3.4036 -0.222557 5.37952
3.40477 -0.222232 5.40151
3.40608 -0.221611 5.44349
3.3902 -0.221377 5.45861
3.38646 -0.220856 5.49364
3.38678 -0.220234 5.53563
3.37594 -0.219901 5.55771
3.37627 -0.219249 5.6017
3.37643 -0.218939 5.6227
3.36663 -0.218546 5.64877
3.36392 -0.217982 5.68679
3.35614 -0.217532 5.71685
3.34735 -0.218111 5.74493
3.33655 -0.217718 5.771
3.33283 -0.217152 5.80903
3.33199 -0.216841 5.83003
3.33031 -0.216218 5.87204
3.32559 -0.215666 5.90908
3.31783 -0.215187 5.94113
3.30603 -0.214793 5.96722
3.25544 -0.211018 6.28759
2.97781 -0.1905 7.9316
2.95762 -0.189901 8.03876
2.94497 -0.189196 8.08585
2.90196 -0.185255 8.35015
2.8914 -0.185389 8.40824
2.87879 -0.18461 8.46033
2.8455 -0.181224 8.68757
2.83601 -0.181225 8.75465
2.82551 -0.180225 8.82172
2.80887 -0.179517 8.86884
2.78319 -0.176907 9.04402
2.7717 -0.176891 9.11212
2.76124 -0.175818 9.18419
2.74363 -0.17505 9.23532
2.73012 -0.174062 9.30141
2.72749 -0.17335 9.34943
2.50805 -0.158398 10.62
2.49068 -0.157142 10.7042
2.47435 -0.156827 10.7923
2.45594 -0.155643 10.8714
2.45556 -0.154429 10.9534
2.43616 -0.15323 11.0336
2.4168 -0.152972 11.1177
2.39953 -0.151523 11.2148
2.33817 -0.147281 11.5663
2.3007 -0.144247 11.7695
2.2282 -0.139323 12.2341
3.27667 -0.177592 6.18192
2.37441 -0.0918829 11.4592
2.35513 -0.0904473 11.5553
2.33484 -0.0890406 11.6495
2.29101 -0.0837589 11.9367
2.26872 -0.0823359 12.0319
2.2454 -0.0809862 12.1221
3.88291 -0.203619 2.62625
3.88715 -0.203149 2.65821
3.86993 -0.200611 2.76132
3.86226 -0.199969 2.80437
3.83894 -0.198604 2.89554
3.79848 -0.194554 3.09981
3.74319 -0.187198 3.45917
3.73833 -0.186913 3.4782
3.73155 -0.186479 3.50725
3.72065 -0.186278 3.52033
3.71698 -0.185624 3.56436
3.71735 -0.184899 3.61335
3.70736 -0.184877 3.61443
3.71158 -0.18345 3.64338
3.70471 -0.183179 3.66143
3.70591 -0.182795 3.68742
3.69601 -0.18258 3.70149
3.6962 -0.18221 3.72649
3.67974 -0.181147 3.79761
3.6769 -0.180819 3.81962
3.66721 -0.179205 3.86068
3.66842 -0.178791 3.88867
3.66167 -0.178312 3.92072
3.66388 -0.177899 3.9487
3.65803 -0.177584 3.96974
3.64815 -0.17734 3.98581
3.64835 -0.176955 4.01181
3.63949 -0.176682 4.02987
3.64272 -0.175225 4.06083
3.64282 -0.175033 4.07383
3.62205 -0.174559 4.10498
3.62933 -0.174016 4.14193
3.61686 -0.172971 4.21202
3.61113 -0.171433 4.24804
3.60552 -0.170659 4.30008
3.59082 -0.170056 4.34019
3.59207 -0.169583 4.37217
3.59016 -0.169404 4.38419
3.56328 -0.166178 4.53336
3.56239 -0.16597 4.54737
3.55657 -0.165611 4.57141
3.54973 -0.16428 4.59344
3.54038 -0.163 4.67951
3.53253 -0.162698 4.69957
3.52306 -0.160655 4.76962
3.50565 -0.159487 4.84774
3.49619 -0.158414 4.91981
3.46823 -0.155365 5.05699
3.4656 -0.153623 5.10699
3.43871 -0.151426 5.25418
3.33521 -0.138511 5.85185
3.31719 -0.135588 5.98096
2.94801 -0.0902535 8.08136
2.94357 -0.0891545 8.15539
2.93399 -0.0873184 8.21144
2.91729 -0.0867287 8.25057
2.89752 -0.0833007 8.41369
2.88798 -0.0813758 8.47574
2.87231 -0.0807276 8.51885
2.86075 -0.0798455 8.57794
2.85161 -0.0771509 8.69198
2.836 -0.0753844 8.74308
2.82855 -0.074298 8.81613
2.81703 -0.072342 8.8802
2.8004 -0.0716043 8.92932
2.78991 -0.0705898 8.99739
2.79032 -0.0687905 9.05137
2.77781 -0.0678189 9.11646
2.7643 -0.0658615 9.18054
2.7477 -0.0650498 9.23466
2.73213 -0.0641944 9.29177
2.72172 -0.0620319 9.36983
2.70617 -0.0611321 9.42994
2.5111 -0.0344732 10.6142
2.49269 -0.0323049 10.6923
2.47737 -0.0309462 10.7834
2.44372 -0.0262861 10.9616
2.38527 -0.0192239 11.301
4.09447 -0.198345 1.3704
3.87706 -0.172367 2.64283
3.87922 -0.172057 2.66381
3.86845 -0.171605 2.69389
3.86357 -0.171365 2.70993
3.87184 -0.170838 2.74586
3.85589 -0.170722 2.75298
3.85603 -0.170441 2.77198
3.85534 -0.168849 2.81196
3.84356 -0.168396 2.84205
3.83861 -0.168303 2.84809
3.84883 -0.167881 2.87701
3.84193 -0.167669 2.89106
3.84108 -0.167372 2.91106
3.82816 -0.167215 2.92116
3.82344 -0.165663 2.95818
3.8215 -0.165544 2.96619
3.82166 -0.165233 2.98719
3.81377 -0.165005 3.00225
3.80889 -0.164764 3.01828
3.81123 -0.1631 3.06325
3.80837 -0.162816 3.08227
3.80744 -0.162682 3.09127
3.80861 -0.162343 3.11426
3.79367 -0.162213 3.12237
3.80088 -0.161804 3.15032
3.793 -0.161576 3.16537
3.78712 -0.161335 3.18142
3.77922 -0.161122 3.19548
3.7794 -0.159782 3.21846
3.77847 -0.159633 3.22846
3.77059 -0.159405 3.24352
3.76925 -0.157101 3.33151
3.45535 -0.115167 5.06949
3.39515 -0.10563 5.44086
3.35672 -0.100508 5.6501
3.34725 -0.0984643 5.72015
3.33848 -0.0980137 5.75021
3.31941 -0.0951638 5.87433
3.31269 -0.0936259 5.91037
3.30897 -0.0930605 5.94839
3.30327 -0.0914789 5.98742
3.25271 -0.0836447 6.31173
3.24195 -0.0821631 6.34379
3.24622 -0.0816331 6.37975
3.24053 -0.0800219 6.42078
3.23078 -0.0795262 6.45385
3.21944 -0.0772297 6.54091
3.21175 -0.0756171 6.58195
3.19692 -0.0752657 6.60506
3.18888 -0.0723794 6.7321
2.99375 -0.043794 7.77629
2.9913 -0.0417114 7.84929
2.98854 -0.0412503 7.88031
2.96833 -0.037681 7.98542
2.96284 -0.03667 8.05345
2.9451 -0.0351538 8.08757
2.93758 -0.0332007 8.15161
2.92495 -0.0324659 8.2007
2.91471 -0.0299777 8.30075
2.89462 -0.0261716 8.42186
2.88613 -0.0241585 8.48991
2.87457 -0.0222914 8.54797
2.85791 -0.0216129 8.5931
2.85929 -0.0198588 8.64407
2.83419 -0.0170785 8.76323
2.82062 -0.0152395 8.81931
2.81219 -0.013108 8.89536
2.79557 -0.0113408 8.94646
2.78406 -0.0103847 9.01054
2.77362 -0.00828146 9.0846
2.77405 -0.00642303 9.14258
2.76052 -0.00449519 9.20466
2.74803 -0.00247926 9.27273
2.72839 -0.00176899 9.31988
2.71798 0.000393509 9.39794
2.50148 0.0361925 10.6582
2.48515 0.0385222 10.7473
2.4678 0.0408082 10.8334
4.18392 -0.175433 0.895322
4.18229 -0.174706 0.94433
4.17849 -0.174303 0.971356
4.16278 -0.173729 1.00947
4.1679 -0.172496 1.02542
4.162 -0.172299 1.03846
4.15926 -0.171779 1.07348
4.15247 -0.171374 1.10053
4.14968 -0.170958 1.12855
4.14672 -0.170867 1.13457
4.13435 -0.169628 1.21765
4.1246 -0.169133 1.25072
4.12371 -0.16891 1.26573
4.11897 -0.168388 1.30076
4.11808 -0.16718 1.31475
4.11218 -0.166984 1.3278
4.10159 -0.166161 1.38287
4.09468 -0.165979 1.39492
4.09876 -0.165834 1.40489
4.09397 -0.165415 1.43293
4.09007 -0.16522 1.44595
4.08841 -0.164553 1.49096
4.08356 -0.164238 1.512
4.06697 -0.162426 1.5661
4.06715 -0.162086 1.5891
4.06324 -0.161891 1.60213
4.06437 -0.16164 1.61912
4.05245 -0.161483 1.62921
4.05958 -0.161222 1.64715
4.0587 -0.160984 1.66316
4.04577 -0.160841 1.67225
4.04985 -0.160696 1.68222
4.05298 -0.159447 1.69918
4.04105 -0.16029 1.70929
4.03816 -0.160081 1.72331
4.04229 -0.158817 1.74126
4.03639 -0.15862 1.7543
4.03751 -0.158384 1.77029
4.03556 -0.158279 1.77731
4.03468 -0.158042 1.79331
4.0338 -0.157819 1.80832
4.02601 -0.157399 1.83637
4.02212 -0.157174 1.8514
4.01722 -0.156978 1.86444
4.01026 -0.156898 1.86949
4.00736 -0.156689 1.88351
4.00949 -0.155439 1.90048
4.0046 -0.155228 1.91451
4.00472 -0.154991 1.93051
4.00397 -0.154502 1.96352
3.997 -0.154423 1.96857
4.00215 -0.154145 1.98753
3.99323 -0.153976 1.99859
3.98432 -0.153792 2.01066
3.98946 -0.152514 2.0296
3.98256 -0.152317 2.04265
3.97465 -0.152133 2.05471
3.98677 -0.151905 2.07062
3.97083 -0.15179 2.07774
3.97698 -0.151483 2.09869
3.96029 -0.150879 2.13881
3.96042 -0.150613 2.15681
3.95848 -0.150507 2.16383
3.95257 -0.149311 2.17685
3.96074 -0.148991 2.19879
3.95585 -0.148765 2.21383
3.94493 -0.148609 2.22391
3.94205 -0.14837 2.23993
3.94024 -0.147999 2.26494
3.93735 -0.147774 2.27996
3.93749 -0.146508 2.29794
3.93273 -0.146031 2.32998
3.92483 -0.145833 2.34304
3.92998 -0.145525 2.36399
3.92402 -0.145447 2.36904
3.92014 -0.145207 2.38507
3.91237 -0.143757 2.41511
3.9105 -0.143504 2.43212
3.91265 -0.14321 2.4521
3.90474 -0.143026 2.46416
3.91285 -0.14281 2.4791
3.91112 -0.141291 2.51409
3.89518 -0.141161 2.52221
3.89933 -0.140853 2.54318
3.72234 -0.113014 3.60525
3.72051 -0.112687 3.62726
3.71382 -0.11106 3.66929
3.6937 -0.108328 3.78542
3.68027 -0.106193 3.8615
3.66121 -0.102343 3.9856
3.64208 -0.099626 4.10072
3.56244 -0.0859793 4.54618
3.55585 -0.0841601 4.60121
3.54434 -0.0821893 4.66628
2.7026 0.073537 9.47398
2.51636 0.113847 10.6349
2.49897 0.116045 10.7151
2.46282 0.124698 10.9602
2.44345 0.127956 11.0443
2.42614 0.131331 11.1364
2.40677 0.133574 11.2196
2.38745 0.13692 11.3097
2.36886 0.143703 11.4967
2.34648 0.145933 11.5789
2.32618 0.149325 11.672
4.19165 -0.153003 0.856926
4.19376 -0.152783 0.871909
4.1868 -0.152704 0.876961
4.1869 -0.152497 0.890959
4.1771 -0.152104 0.917031
4.16439 -0.151518 0.956123
4.17748 -0.151364 0.967024
4.17558 -0.151156 0.981037
4.16567 -0.150985 0.992111
4.16577 -0.150778 1.00611
4.14995 -0.150411 1.03023
4.15708 -0.150165 1.04717
4.15312 -0.150088 1.0522
4.14722 -0.149891 1.06524
4.15634 -0.149646 1.08217
4.14955 -0.149241 1.10922
4.15066 -0.14802 1.1242
4.14381 -0.147719 1.14425
4.13389 -0.148549 1.15534
4.14102 -0.147302 1.17227
4.1242 -0.146949 1.19539
4.13634 -0.146677 1.2143
4.11545 -0.14644 1.22945
4.12057 -0.146206 1.24541
4.11166 -0.146037 1.25648
4.10988 -0.145606 1.28549
4.10124 -0.144874 1.33455
4.09846 -0.144443 1.36357
4.09155 -0.14426 1.37562
4.09367 -0.143025 1.39159
4.08677 -0.142842 1.40364
4.09407 -0.14224 1.44458
4.07713 -0.14211 1.45271
4.07347 -0.141455 1.49673
4.07753 -0.141325 1.5057
4.07464 -0.141116 1.51972
4.06673 -0.140932 1.53178
4.06796 -0.139474 1.56275
4.05805 -0.139304 1.57383
4.05616 -0.139081 1.58884
4.05427 -0.138872 1.60285
4.05131 -0.138781 1.60888
4.04854 -0.138335 1.6389
4.04966 -0.138098 1.65489
4.04276 -0.137901 1.66794
4.04588 -0.136652 1.6849
4.03502 -0.136377 1.70298
4.03213 -0.136153 1.718
4.02924 -0.135943 1.73202
4.02747 -0.135483 1.76303
4.02458 -0.135274 1.77705
4.03368 -0.134088 1.78996
4.02878 -0.133877 1.804
4.01686 -0.13472 1.8141
4.01597 -0.133498 1.8291
4.02011 -0.133234 1.84706
4.0083 -0.13284 1.87315
4.00642 -0.132602 1.88916
4.0036 -0.132259 1.91218
4.00171 -0.132036 1.92719
3.99782 -0.130811 1.94221
3.99292 -0.130615 1.95524
3.99305 -0.130363 1.97224
3.98715 -0.130167 1.98528
3.98721 -0.130048 1.99328
3.99236 -0.129756 2.01324
3.98143 -0.1296 2.02332
3.97755 -0.129375 2.03835
3.97566 -0.128151 2.05335
3.98383 -0.127832 2.07529
3.96989 -0.127688 2.08439
3.97799 -0.127502 2.09733
3.9721 -0.12729 2.11137
3.96921 -0.127066 2.12639
3.96733 -0.125828 2.14239
3.9566 -0.125287 2.17847
3.94997 -0.124571 2.22652
3.9442 -0.123108 2.25754
3.94634 -0.122828 2.27652
3.93442 -0.122671 2.28661
3.93951 -0.122497 2.29857
3.93964 -0.122231 2.31657
3.93777 -0.120978 2.33357
3.92585 -0.121821 2.34367
3.92498 -0.120569 2.36066
3.92425 -0.120035 2.39667
3.92532 -0.119903 2.40566
3.90951 -0.119506 2.43177
3.90764 -0.118253 2.44877
3.90778 -0.117987 2.46677
3.90088 -0.117789 2.47982
3.91007 -0.117411 2.50575
3.89448 -0.1156 2.55985
3.88557 -0.115416 2.57191
3.88183 -0.114895 2.60694
3.72042 -0.084897 3.61285
3.71355 -0.0846402 3.6299
3.70366 -0.0844109 3.64497
3.70202 -0.082699 3.69297
3.69414 -0.0824564 3.70902
3.70533 -0.0810944 3.73392
3.69948 -0.0808088 3.75296
3.6906 -0.0805654 3.76903
3.68595 -0.0788662 3.81605
3.67606 -0.0786517 3.83012
3.67324 -0.0772943 3.85412
3.67636 -0.0770597 3.8701
3.67656 -0.07666 3.8971
3.66062 -0.0765299 3.90522
3.65699 -0.0748018 3.95422
3.6453 -0.0731863 3.99529
3.6446 -0.0715936 4.03528
3.63897 -0.0708639 4.08432
3.63638 -0.0680626 4.13831
3.62459 -0.0676394 4.16639
3.60349 -0.0638621 4.28551
3.58735 -0.0601624 4.39959
3.54822 -0.0514621 4.64779
2.55788 0.163835 10.4329
2.47059 0.183168 10.9243
2.43492 0.189814 11.1015
2.41871 0.193366 11.2056
2.39698 0.200869 11.3737
2.37564 0.204173 11.4608
2.35741 0.207696 11.5629
2.33397 0.210809 11.637
2.28909 0.222002 11.9182
2.27412 0.227041 12.0553
2.25084 0.231464 12.1504
4.18268 -0.12797 0.858623
4.183 -0.126334 0.901603
4.17024 -0.12585 0.933696
4.16645 -0.125448 0.960722
4.17357 -0.125216 0.976667
4.1471 -0.124146 1.04786
4.14241 -0.123535 1.08889
4.11555 -0.12028 1.24007
4.10113 -0.118144 1.31616
4.08302 -0.116368 1.43528
4.01972 -0.108021 1.79368
3.97858 -0.101349 2.03993
3.97106 -0.0994107 2.10297
3.96327 -0.0989757 2.13202
3.94322 -0.0950955 2.25813
3.93558 -0.0943939 2.30519
3.92493 -0.0927051 2.35125
3.71908 -0.0546101 3.5644
3.70653 -0.0527126 3.62448
3.70983 -0.0511228 3.66444
3.69994 -0.0508935 3.67951
3.70316 -0.0494813 3.70747
3.69831 -0.0491817 3.7275
3.6874 -0.0489812 3.74058
3.67972 -0.0473538 3.78262
3.6768 -0.0472036 3.79264
3.67901 -0.0457907 3.82061
3.67114 -0.0455184 3.83867
3.66932 -0.0441766 3.86167
3.66952 -0.0437769 3.88866
3.66165 -0.0425196 3.9057
3.66388 -0.042077 3.93569
3.66598 -0.0408713 3.94965
3.66417 -0.0404998 3.97466
3.66135 -0.0391424 3.99867
3.65551 -0.0388272 4.01971
3.64462 -0.038612 4.03379
3.64281 -0.0372406 4.05879
3.63394 -0.0369676 4.07685
3.63213 -0.0355962 4.10185
3.63627 -0.0353178 4.12082
3.6264 -0.0340738 4.13688
3.62964 -0.0336023 4.16885
3.62279 -0.0323013 4.18888
3.62099 -0.0319002 4.2159
3.61144 -0.029005 4.27593
3.60763 -0.028632 4.30096
3.59574 -0.028416 4.31505
3.6 -0.0269009 4.35
3.59418 -0.0255562 4.37303
3.5833 -0.0253114 4.38911
3.5768 -0.0223147 4.45612
3.57223 -0.0204823 4.51214
3.56337 -0.0201945 4.5312
3.5626 -0.018735 4.56219
3.55085 -0.0172527 4.59426
3.54806 -0.016836 4.62228
3.54528 -0.0154047 4.65128
3.53238 -0.015188 4.66538
3.53466 -0.0136418 4.70234
3.53188 -0.0122105 4.73135
3.52 -0.0119649 4.74744
3.52013 -0.0107134 4.76442
3.52241 -0.00916726 4.80138
3.51255 -0.00887873 4.82046
3.50675 -0.00848949 4.8465
3.50702 -0.00695671 4.88248
3.49211 -0.00576827 4.89457
3.49036 -0.00527833 4.92758
3.49555 -0.00391202 4.95253
3.48571 -0.00259399 4.97359
3.48294 -0.00213294 5.0046
3.47816 -0.000700131 5.03362
3.46832 -0.000381999 5.0547
3.47063 0.00222323 5.09564
3.46484 0.00264206 5.12369
3.46093 0.0028226 5.13572
3.45515 0.00425614 5.16474
3.44662 0.00718022 5.22677
3.44387 0.00767089 5.25979
3.4371 0.00911995 5.28982
3.4303 0.0105246 5.31686
3.41384 0.0125878 5.38796
3.40909 0.0140799 5.42098
3.40737 0.0156437 5.45897
3.39553 0.0169632 5.48005
3.38977 0.0174412 5.51209
3.38619 0.0202581 5.56708
3.38449 0.0218515 5.60707
3.37874 0.0233443 5.6401
3.36894 0.0237364 5.66617
3.3642 0.025258 5.70119
3.35744 0.0267367 5.73322
3.35862 0.0280911 5.7572
3.34815 0.0311351 5.82724
3.32995 0.0347029 5.93234
3.32016 0.0361246 5.9604
3.2399 0.0565115 6.45577
3.09429 0.0921426 7.30245
3.0463 0.103116 7.56869
3.03972 0.10595 7.6247
3.01668 0.110847 7.75182
3.00912 0.113711 7.80985
2.99848 0.115414 7.85691
2.98787 0.118192 7.90895
2.97929 0.120027 7.965
2.92663 0.13364 8.27424
2.78373 0.168707 9.08291
2.77226 0.171751 9.15296
2.73423 0.183628 9.4131
2.71972 0.186601 9.47818
2.7052 0.189559 9.54225
2.69278 0.192693 9.61831
2.69018 0.195495 9.6723
2.67776 0.198629 9.74835
2.64991 0.2049 9.90049
2.63445 0.208977 9.97256
2.62106 0.212186 10.0536
2.60562 0.215292 10.1277
2.58713 0.218298 10.1948
2.58869 0.221407 10.2698
2.56917 0.224354 10.3329
2.55379 0.228579 10.4149
2.53948 0.231937 10.506
2.51999 0.234958 10.5741
2.50631 0.243558 10.7491
2.48586 0.246639 10.8212
2.46748 0.249867 10.9033
2.45222 0.254329 11.0014
2.39378 0.27039 11.3407
2.37342 0.273663 11.4258
4.18812 -0.097148 0.914134
4.13934 -0.0907444 1.20945
4.11884 -0.0897521 1.2756
4.10458 -0.0872907 1.37368
4.08815 -0.0861533 1.4498
4.0728 -0.0838836 1.53489
4.04699 -0.0795105 1.69404
4.03762 -0.0772748 1.77709
4.02582 -0.0768812 1.80318
4.02713 -0.0752751 1.84415
4.00377 -0.0739994 1.92932
3.96933 -0.0679094 2.13652
3.95303 -0.0645206 2.2296
3.94332 -0.0639508 2.26767
3.9407 -0.0621938 2.31867
3.92672 -0.0571849 2.45372
3.90704 -0.0565486 2.49587
3.77361 -0.0315247 3.23461
3.77001 -0.0297374 3.28761
3.76247 -0.0268289 3.34864
3.76467 -0.0264454 3.37462
3.7609 -0.0249986 3.40463
2.51979 0.313415 10.672
2.50035 0.317525 10.7461
2.46527 0.330326 11.0012
2.44592 0.334613 11.0873
2.42966 0.340075 11.1853
2.41032 0.344378 11.2724
2.38999 0.348695 11.3605
2.37071 0.35413 11.4566
2.36833 0.358346 11.5386
2.34907 0.362796 11.6357
2.32675 0.368145 11.7258
2.30753 0.372683 11.8289
4.18881 -0.0717881 0.870747
4.18329 -0.0708512 0.933784
4.17949 -0.0694487 0.960795
4.17954 -0.0693451 0.967794
4.17364 -0.0691483 0.980838
4.17185 -0.0687324 1.00885
4.16521 -0.0680168 1.05689
4.1583 -0.067834 1.06895
4.15039 -0.0676506 1.081
4.15663 -0.0661962 1.11194
4.15073 -0.0669993 1.125
4.14392 -0.0656094 1.15103
4.14498 -0.0654917 1.15902
4.13328 -0.0648909 1.19911
4.12838 -0.0646948 1.21214
4.13156 -0.0643566 1.23512
4.12677 -0.0629386 1.26314
4.11819 -0.0621031 1.3192
4.11824 -0.0619994 1.3262
4.11635 -0.0617908 1.34021
4.10944 -0.061608 1.35226
4.10855 -0.0613853 1.36727
4.11067 -0.06015 1.38323
4.10176 -0.0599806 1.3943
4.09496 -0.0595758 1.42135
4.09613 -0.0592361 1.44434
4.08332 -0.0588566 1.46943
4.08155 -0.0574112 1.49943
4.07163 -0.058241 1.51052
4.07971 -0.0570841 1.52144
4.07481 -0.056888 1.53448
4.07605 -0.0554299 1.56545
4.07126 -0.054997 1.59448
4.06536 -0.0548002 1.60753
4.05148 -0.0545532 1.62363
4.0506 -0.0543156 1.63964
4.06276 -0.0530136 1.66053
4.05987 -0.0528042 1.67455
4.05698 -0.05258 1.68957
4.05101 -0.0525164 1.69361
4.0431 -0.052333 1.70567
4.04937 -0.0508193 1.74061
4.02652 -0.0515064 1.76079
4.03065 -0.050243 1.77875
4.02977 -0.0500054 1.79475
4.03397 -0.0486236 1.8207
4.02819 -0.04819 1.84974
4.02442 -0.0467283 1.88075
4.02153 -0.0465189 1.89477
4.0187 -0.0461762 1.91779
4.0118 -0.0459787 1.93084
4.00301 -0.0445578 1.95889
4.00615 -0.0442935 1.97687
4.00427 -0.0440552 1.99288
4.00031 -0.0439635 1.99891
3.99843 -0.0427401 2.01391
3.99278 -0.04204 2.06095
3.98688 -0.0408433 2.07398
3.9852 -0.0402202 2.11599
3.97226 -0.0400775 2.12508
3.97742 -0.0387852 2.14503
3.9675 -0.0386151 2.1561
3.96361 -0.0383901 2.17113
3.96073 -0.0381659 2.18615
3.95891 -0.0367945 2.21115
3.96206 -0.0365154 2.23012
3.94926 -0.0361063 2.25722
3.94337 -0.0358947 2.27126
3.93948 -0.0346699 2.28627
3.94256 -0.0345092 2.29725
3.93968 -0.034285 2.31227
3.93693 -0.0327796 2.34627
3.93117 -0.0313017 2.3783
3.9285 -0.0296631 2.4213
3.92864 -0.0293967 2.4393
3.91283 -0.0290002 2.46541
3.91901 -0.0276642 2.48835
3.91218 -0.0273186 2.5114
3.90528 -0.0271211 2.52445
3.89853 -0.0256276 2.55748
3.89363 -0.0254168 2.57152
3.89515 -0.0224111 2.63947
3.88351 -0.020692 2.68754
3.87784 -0.0190364 2.73157
3.86204 -0.0186251 2.75868
3.85382 -0.0140942 2.86169
3.84522 -0.0123033 2.91474
3.83671 -0.0103494 2.97878
3.82479 -0.0101779 2.98987
3.81661 -0.00555819 3.09888
3.81376 -0.00427487 3.11788
3.79939 -0.00102076 3.20196
3.77992 0.00102987 3.27208
3.74355 0.0102542 3.48825
3.73503 0.0132079 3.55228
3.72056 0.0152401 3.62137
3.72074 0.01661 3.64635
3.71224 0.0195785 3.71138
3.70527 0.0196576 3.71643
3.66337 0.0318039 3.9946
3.64233 0.0376994 4.12169
3.60113 0.0482529 4.35988
3.58723 0.0484555 4.37298
3.57502 0.0530189 4.47802
3.56475 0.0574477 4.57405
3.49555 0.0749905 4.94536
3.43926 0.0923314 5.30358
2.74865 0.305331 9.32518
2.57833 0.36248 10.3408
2.56091 0.366618 10.4168
2.50928 0.384304 10.731
2.49397 0.389662 10.8221
2.47457 0.393861 10.9022
2.45619 0.398088 10.9842
2.43955 0.40875 11.1632
2.42021 0.414052 11.2503
2.40089 0.418398 11.3404
2.38362 0.424847 11.4375
2.36226 0.429106 11.5216
2.33963 0.439802 11.7026
2.31829 0.44412 11.7907
2.29909 0.450688 11.8958
2.27785 0.456199 11.9969
2.24376 0.470954 12.2489
4.13961 -0.0422457 1.10771
3.9912 -0.0182114 1.9816
3.84015 0.0155197 2.90236
3.81786 0.0199275 2.99648
3.79962 0.0234214 3.09658
3.78811 0.0264069 3.16263
3.78241 0.0279884 3.20165
3.77529 0.0337109 3.31764
3.76438 0.0338966 3.32972
3.75483 0.0367918 3.38976
3.74603 0.0371832 3.41582
3.74336 0.0398365 3.45981
3.73602 0.0431447 3.54783
3.73309 0.04428 3.55683
3.71917 0.0444382 3.56694
3.71954 0.0461634 3.61592
3.70763 0.0463498 3.628
3.70984 0.0477627 3.65597
3.71013 0.0503249 3.69394
3.70427 0.0506106 3.71298
3.69235 0.0507821 3.72407
3.69678 0.0546078 3.77998
3.68387 0.0547949 3.79208
3.68709 0.0562219 3.82104
3.68729 0.0576215 3.84802
3.68033 0.0577006 3.85307
3.67447 0.0579862 3.87212
3.67165 0.0593435 3.89612
3.6658 0.0606438 3.91615
3.65693 0.0608872 3.93221
3.65511 0.0622586 3.95721
3.65936 0.0637293 3.98916
3.65947 0.0649512 4.00414
3.64858 0.0651665 4.01822
3.64899 0.0679804 4.07319
3.63911 0.0682245 4.08926
3.63227 0.0695403 4.1103
3.63754 0.0720546 4.14522
3.62574 0.072463 4.17231
3.61789 0.0737647 4.19235
3.61833 0.0766231 4.25031
3.61553 0.07801 4.27632
3.60768 0.0793118 4.29636
3.60678 0.0795197 4.31037
3.59815 0.0822366 4.3584
3.58627 0.0824822 4.37449
3.58145 0.0838409 4.39851
3.57282 0.0855727 4.44755
3.58203 0.0879804 4.47545
3.56914 0.0882119 4.49055
3.56231 0.0895425 4.51258
3.55951 0.0909443 4.53959
3.55015 0.0951947 4.6236
3.54168 0.0982371 4.69363
3.5379 0.100669 4.72263
3.53033 0.103518 4.77965
3.52351 0.103879 4.8037
3.5206 0.105059 4.81571
3.50219 0.109227 4.8938
3.50145 0.110731 4.92778
3.49667 0.112163 4.9568
3.48277 0.112381 4.97091
3.49202 0.114862 5.0038
3.47942 0.117656 5.05686
3.4641 0.121985 5.14593
3.44589 0.127553 5.251
3.43059 0.132926 5.34305
3.41346 0.138641 5.45811
3.4087 0.140133 5.49112
3.40092 0.141553 5.51917
3.38434 0.144394 5.57526
3.38281 0.148313 5.63722
3.37132 0.152313 5.70426
3.35476 0.155198 5.76335
3.35511 0.157879 5.80931
3.3455 0.160641 5.86035
3.33775 0.162135 5.89339
3.32731 0.166238 5.96742
3.06685 0.254018 7.49429
3.03998 0.262258 7.64439
3.03139 0.266064 7.69841
3.01872 0.267709 7.74149
3.00604 0.27034 7.78355
2.99123 0.27969 7.94154
2.97757 0.282366 7.98661
2.96696 0.285129 8.03766
2.95433 0.287863 8.08672
2.92702 0.302199 8.31074
2.91236 0.304876 8.35582
2.90181 0.307757 8.41487
2.89025 0.311624 8.4729
2.86956 0.3222 8.64593
2.84341 0.328892 8.75904
2.83294 0.332936 8.82907
2.82244 0.33692 8.8951
2.81875 0.33953 8.93609
2.80829 0.343589 9.00712
2.79168 0.346356 9.05821
2.78122 0.351429 9.13023
2.76668 0.354343 9.1913
2.75728 0.359519 9.27031
2.74378 0.363506 9.33636
2.72723 0.367391 9.39543
2.73078 0.371469 9.46836
2.71627 0.375442 9.53342
2.70386 0.380606 9.61144
2.68836 0.384594 9.67751
2.6739 0.38867 9.74957
2.65947 0.393776 9.82361
2.64298 0.397795 9.89169
2.64555 0.401918 9.96762
2.63011 0.407024 10.0417
2.61677 0.412322 10.1287
2.5962 0.415181 10.1858
2.58184 0.420435 10.2699
2.5644 0.425543 10.3439
2.54756 0.43482 10.4969
2.53431 0.44131 10.597
2.51072 0.444126 10.6511
2.4985 0.45066 10.7541
2.44308 0.471748 11.0953
2.42164 0.476859 11.1694
2.4075 0.483542 11.2824
4.19881 -0.0188604 0.865888
4.1919 -0.0186777 0.877939
4.19001 -0.018469 0.891952
4.19011 -0.0172619 0.905935
4.19217 -0.0171449 0.913919
4.18236 -0.0167676 0.938991
4.17646 -0.0165708 0.952034
4.17457 -0.0163621 0.966047
4.16866 -0.0161801 0.978091
4.16676 -0.0159714 0.992104
4.16993 -0.0156479 1.01408
4.157 -0.0154904 1.02417
4.15622 -0.0150604 1.05318
4.16134 -0.0138274 1.06912
4.15053 -0.0134493 1.0942
4.14658 -0.0143575 1.10025
4.14669 -0.0131355 1.11523
4.1498 -0.0129157 1.13021
4.15092 -0.0116945 1.14518
4.14802 -0.0114851 1.1592
4.1312 -0.0121321 1.18234
4.13125 -0.0120285 1.18934
4.13058 -0.0103766 1.23333
4.12869 -0.0101679 1.24734
4.12278 -0.00998587 1.25938
4.11788 -0.0097898 1.27242
4.11894 -0.00967211 1.28041
4.11604 -0.0084628 1.29442
4.12016 -0.00822887 1.31038
4.10446 -0.00763993 1.3495
4.10251 -0.00753485 1.35651
4.10262 -0.00731282 1.37151
4.09972 -0.00611831 1.38452
4.09281 -0.00693547 1.39658
4.09605 -0.00546408 1.42854
4.09316 -0.00525467 1.44256
4.09327 -0.00403274 1.45755
4.0843 -0.00496687 1.46163
4.08341 -0.00375901 1.47562
4.08665 -0.00228763 1.50758
4.08075 -0.00209083 1.52062
4.06811 -0.00137084 1.56871
4.07525 -9.4801e-05 1.58764
4.06333 -0.000937928 1.59774
4.05152 -0.000559129 1.62283
4.05665 0.000703564 1.64078
4.04491 0.00121558 1.67486
4.05506 0.00250425 1.69477
4.04715 0.0026877 1.70683
4.04827 0.0039237 1.7228
4.03434 0.00306723 1.73192
4.04042 0.00422557 1.74286
4.03051 0.00439568 1.75393
4.03464 0.00465922 1.7719
4.02774 0.00485674 1.78495
4.02384 0.00505209 1.79798
4.01995 0.00627693 1.81299
4.01706 0.00648635 1.82701
4.02113 0.00663146 1.83698
4.02728 0.00790823 1.85592
4.01837 0.00809241 1.86799
4.01171 0.00976351 1.91302
4.00687 0.0100928 1.93505
3.99808 0.0115137 1.9631
4.00021 0.0117639 1.98008
3.98654 0.0134105 2.02317
3.98673 0.0137806 2.04817
3.98082 0.0139774 2.06121
3.97505 0.0154257 2.09123
3.97463 0.018566 2.1682
3.9574 0.0230886 2.27028
3.94587 0.025015 2.33235
3.94106 0.0253887 2.35738
3.93443 0.0281189 2.4064
3.91647 0.0272061 2.41155
3.92766 0.0285829 2.43744
3.86867 0.039564 2.70376
3.86208 0.0413683 2.75779
3.86114 0.0414875 2.7658
3.8623 0.0427975 2.78678
3.85843 0.0440519 2.80379
3.84952 0.0442361 2.81585
3.84193 0.0460411 2.86989
3.83798 0.0461477 2.87692
3.83241 0.0489956 2.93393
3.82552 0.0492079 2.94798
3.82266 0.0504912 2.96698
3.81879 0.0507458 2.98401
3.81987 0.0519078 2.99499
3.8222 0.0545426 3.03794
3.81431 0.0547705 3.053
3.80742 0.0549976 3.06805
3.80456 0.0562661 3.08605
3.80271 0.0565636 3.10606
3.79994 0.0580098 3.13607
3.79507 0.0592649 3.15309
3.79019 0.0595202 3.17012
3.78147 0.0610596 3.20617
3.78775 0.0636175 3.24409
3.78188 0.0638735 3.26113
3.77417 0.0654417 3.29917
3.76343 0.0669529 3.33324
3.75655 0.0681947 3.34927
3.7647 0.0694848 3.3692
3.7548 0.0696845 3.38227
3.75799 0.0710671 3.40823
3.74608 0.0712535 3.42032
3.74727 0.0726079 3.44429
3.74139 0.0738638 3.46132
3.7358 0.0756674 3.51534
3.71537 0.0797925 3.59045
3.71171 0.0814614 3.63545
3.71079 0.0826249 3.64645
3.68381 0.0886284 3.78058
3.67896 0.0899279 3.8006
3.67714 0.0912845 3.8246
3.65886 0.0957191 3.92068
3.62395 0.11083 4.19676
3.6161 0.112117 4.2158
3.61924 0.113396 4.23476
3.61744 0.114782 4.26076
3.60959 0.115084 4.28082
3.60375 0.116414 4.30284
3.59993 0.117772 4.32685
3.59714 0.119174 4.35386
3.58727 0.120433 4.37092
3.5904 0.120697 4.38889
3.58862 0.123128 4.41787
3.57977 0.123415 4.43694
3.57394 0.12476 4.45997
3.57215 0.126176 4.48796
3.5633 0.127464 4.50701
3.55861 0.129074 4.54803
3.55279 0.130434 4.57206
3.54697 0.131793 4.59608
3.53533 0.134512 4.64414
3.53179 0.138418 4.70511
3.52888 0.138597 4.71714
3.52308 0.139987 4.74316
3.51247 0.142749 4.79421
3.50565 0.14411 4.81824
3.4351 0.170911 5.27444
3.39455 0.181783 5.46661
3.39082 0.183304 5.50162
3.3239 0.208392 5.90981
3.25416 0.234808 6.34
3.24847 0.236419 6.38103
3.244 0.241459 6.451
3.22857 0.245595 6.52706
3.10118 0.292657 7.26843
3.06793 0.3071 7.4995
3.05725 0.309745 7.54254
3.02005 0.325295 7.78063
3.00943 0.329028 7.82966
2.99574 0.330645 7.87074
2.95973 0.348564 8.13379
2.95017 0.352429 8.19181
2.9396 0.356281 8.24884
2.92526 0.361579 8.33588
2.90413 0.369311 8.45194
2.89462 0.373266 8.51596
2.88306 0.377147 8.575
2.87049 0.380986 8.63105
2.85996 0.384911 8.69308
2.81016 0.404255 8.98421
2.79868 0.40827 9.05224
2.78617 0.413241 9.11727
2.77205 0.420968 9.23328
2.74505 0.429942 9.36537
2.71808 0.438975 9.50146
2.70975 0.444298 9.59045
2.67617 0.457091 9.77754
2.6648 0.462342 9.86156
2.64727 0.467273 9.92363
2.63696 0.472627 10.0146
2.61639 0.476486 10.0717
2.60252 0.486702 10.2207
2.57278 0.49818 10.3868
2.55742 0.50345 10.4718
2.53482 0.507251 10.525
2.52156 0.513696 10.622
2.5201 0.518763 10.6939
2.5058 0.52515 10.787
2.48433 0.530202 10.8571
2.47011 0.536722 10.9591
2.43443 0.548338 11.1342
2.43202 0.554495 11.2121
2.41683 0.562089 11.3192
2.39543 0.567274 11.3983
2.37717 0.573738 11.4963
2.35476 0.578909 11.5744
2.33654 0.585447 11.6775
2.29062 0.604536 11.9516
2.27249 0.612252 12.0666
4.18535 0.00616849 0.934628
4.18746 0.00738897 0.949596
4.16522 0.00890076 1.05076
4.16634 0.010122 1.06573
4.16344 0.0103314 1.07975
4.12666 0.0137569 1.242
4.12878 0.0139775 1.25698
4.12895 0.0153179 1.27997
4.12103 0.0154865 1.29102
4.11624 0.0159046 1.31906
4.11636 0.0161267 1.33406
4.11547 0.0163494 1.34906
4.10951 0.0164278 1.35411
4.11163 0.0176631 1.37007
4.10483 0.0180678 1.39712
4.10695 0.0183032 1.41311
4.10306 0.0195133 1.42712
4.09615 0.0186961 1.43918
4.09721 0.0198137 1.44716
4.09532 0.0200224 1.46117
4.09142 0.0202325 1.4752
4.08451 0.0204153 1.48725
4.09165 0.0216765 1.50518
4.08976 0.0219 1.5202
4.07683 0.0220427 1.52929
4.08197 0.0223055 1.54725
4.06798 0.0223453 1.54936
4.08014 0.0236473 1.57025
4.06331 0.0230002 1.59339
4.06762 0.025604 1.63432
4.06172 0.0258008 1.64737
4.05381 0.0259842 1.65943
4.04589 0.0261529 1.67048
4.04903 0.0264172 1.68846
4.04614 0.0266266 1.70248
4.04726 0.0278626 1.71846
4.04644 0.0292185 1.74244
4.04354 0.0294279 1.75647
4.03061 0.0285707 1.76558
4.03074 0.0298222 1.78256
4.0399 0.0311264 1.80347
4.037 0.0313358 1.81749
4.02407 0.0314785 1.82659
4.02916 0.0316377 1.83755
4.01924 0.0318078 1.84863
4.01735 0.0320313 1.86364
4.0235 0.0333229 1.88358
4.00956 0.0334515 1.89168
4.01974 0.0347845 1.91459
4.01089 0.0350871 1.93465
4.00799 0.0352966 1.94867
4.0021 0.0355082 1.96272
4.00021 0.0367316 1.97771
3.99331 0.0369291 1.99077
3.98841 0.0371252 2.0038
3.98452 0.0373501 2.01883
3.99262 0.0385366 2.03175
3.99376 0.0398022 2.04973
3.99388 0.0400391 2.06573
3.98095 0.0401965 2.07582
3.98007 0.0404341 2.09183
3.97418 0.0406457 2.10587
3.98429 0.0418604 2.12078
3.97035 0.041989 2.12888
3.96947 0.0422265 2.14489
3.96459 0.0434521 2.15991
3.96572 0.0437178 2.1779
3.96196 0.0451943 2.20991
3.95714 0.0465383 2.23293
3.95627 0.0467907 2.24993
3.94936 0.0469882 2.26298
3.94347 0.0471998 2.27703
3.94072 0.0486904 2.31003
3.94186 0.0499708 2.32901
3.93489 0.0500351 2.33306
3.93503 0.0513014 2.35104
3.93631 0.0528483 2.38801
3.92754 0.0533137 2.41908
3.92869 0.0545941 2.43805
3.91697 0.0561652 2.47612
3.91208 0.0563761 2.49016
3.90317 0.0565603 2.50222
3.89929 0.0577999 2.51824
3.89943 0.0580812 2.53724
3.8985 0.059215 2.54623
3.89663 0.0594681 2.56324
3.89074 0.0596797 2.57728
3.88399 0.0611732 2.61032
3.87832 0.0638286 2.65433
3.84785 0.0728562 2.85745
3.83849 0.0771066 2.94147
3.8326 0.077333 2.95651
3.81504 0.0802044 3.01461
3.82325 0.0816129 3.04253
3.81637 0.0818549 3.05858
3.78924 0.0875771 3.17372
3.78757 0.0902148 3.2167
3.77892 0.091917 3.26374
3.77274 0.0975203 3.37172
3.76696 0.0989539 3.40075
3.74496 0.105924 3.53283
3.73221 0.107437 3.56691
3.73158 0.110148 3.61488
3.72673 0.111462 3.6359
3.70824 0.114467 3.703
3.70762 0.118208 3.75296
3.70176 0.118494 3.772
3.66062 0.13215 4.01714
3.63152 0.137933 4.13629
3.61736 0.144587 4.24732
3.60065 0.146176 4.28642
3.59504 0.14995 4.33842
3.59034 0.152531 4.37742
3.58172 0.155277 4.42745
3.57691 0.156651 4.45247
3.56907 0.156967 4.47353
3.55956 0.160937 4.53855
3.55475 0.162325 4.56457
3.54792 0.163656 4.5866
3.54312 0.165044 4.61262
3.54134 0.167489 4.6426
3.53856 0.168921 4.67161
3.53895 0.172675 4.72256
3.52809 0.17295 4.74064
3.52431 0.175382 4.76963
3.51546 0.175699 4.7907
3.51674 0.178231 4.82666
3.50284 0.179448 4.84074
3.50615 0.182053 4.88169
3.50149 0.184708 4.92569
3.49367 0.186083 4.95073
3.48889 0.187516 4.97975
3.47804 0.188805 4.99881
3.42457 0.208788 5.33297
3.42113 0.213886 5.40693
3.41131 0.215264 5.43199
3.39622 0.223051 5.552
3.37356 0.225733 5.59714
3.36512 0.23082 5.67014
3.36664 0.234841 5.73907
3.3501 0.238756 5.80015
3.33458 0.242699 5.86322
2.98753 0.38514 7.97101
2.69823 0.503174 9.64868
2.62352 0.534652 10.0828
2.56049 0.563515 10.4759
2.54204 0.568594 10.548
2.52879 0.576069 10.647
2.50832 0.58112 10.7171
2.492 0.587464 10.8071
2.49162 0.593678 10.8891
2.47326 0.599935 10.9731
2.45386 0.605118 11.0522
2.43557 0.612523 11.1462
2.39896 0.625259 11.3294
2.39659 0.631504 11.4133
2.37731 0.638924 11.5083
2.35495 0.645183 11.5924
2.33676 0.65278 11.6995
2.27068 0.681542 12.0856
3.74529 0.137573 3.44134
3.7243 0.145557 3.5744
3.71679 0.149524 3.63941
3.70406 0.151067 3.67549
3.7005 0.154928 3.73347
3.68394 0.157798 3.79156
3.68212 0.159155 3.81555
3.67757 0.163046 3.87554
3.6701 0.167088 3.94554
3.65065 0.171168 4.01764
3.64178 0.172441 4.03569
3.64098 0.173827 4.06168
3.63615 0.175156 4.0837
3.63456 0.178956 4.13766
3.62861 0.179064 4.14471
3.62479 0.180422 4.16872
3.62602 0.182865 4.19868
3.61412 0.183081 4.21276
3.60929 0.184411 4.23479
3.61254 0.186897 4.26773
3.60268 0.18717 4.2858
3.60077 0.188349 4.2978
3.60503 0.190864 4.33274
3.59516 0.192123 4.34979
3.59337 0.193524 4.37679
3.58956 0.194912 4.4028
3.57589 0.197558 4.44587
3.58307 0.199908 4.46979
3.56941 0.202584 4.51485
3.56258 0.202915 4.5369
3.55396 0.206676 4.58792
3.55118 0.208108 4.61692
3.53842 0.210576 4.64799
3.54473 0.213178 4.68891
3.52881 0.213352 4.70003
3.52501 0.215755 4.72702
3.52426 0.217229 4.75901
3.50961 0.219935 4.80609
3.51682 0.222345 4.834
3.50395 0.223591 4.85008
3.49916 0.225009 4.8781
3.50042 0.227526 4.91306
3.49362 0.228916 4.9391
3.49288 0.23142 4.97307
3.49315 0.233952 5.00903
3.48216 0.23399 5.01112
3.25563 0.329611 6.3936
3.24384 0.332034 6.42165
3.24121 0.335761 6.47063
3.23045 0.337243 6.50269
3.22172 0.339767 6.53772
3.22499 0.342298 6.57367
3.21729 0.345881 6.61268
3.20755 0.348406 6.64772
3.19885 0.350989 6.68675
3.18811 0.353501 6.7208
3.18448 0.357243 6.77078
3.17172 0.358711 6.80186
3.17195 0.36117 6.83282
3.16529 0.364826 6.87682
3.15457 0.367382 6.91387
3.14894 0.371111 6.96287
3.14026 0.373739 7.0049
3.13057 0.377353 7.04592
3.12189 0.379996 7.08896
3.12723 0.383658 7.13387
3.11754 0.386272 7.17491
3.10583 0.388843 7.21296
3.0982 0.392559 7.26097
3.08751 0.396174 7.302
3.07989 0.399919 7.35201
3.07227 0.40368 7.40302
3.0756 0.407314 7.44595
3.06798 0.411074 7.49696
3.05323 0.412573 7.53005
3.04259 0.416277 7.57708
3.03397 0.420023 7.6271
3.02229 0.423668 7.67014
3.01705 0.431152 7.77008
3.00438 0.433798 7.81314
2.9958 0.438633 7.86915
2.98722 0.442453 7.92416
2.97457 0.446143 7.97021
2.96294 0.449877 8.01925
2.95335 0.453683 8.07327
2.95266 0.45729 8.11423
2.94205 0.461068 8.16626
2.93045 0.464861 8.2193
2.92396 0.469857 8.28628
2.91033 0.473592 8.33534
2.89977 0.478458 8.39335
2.88921 0.482325 8.45138
2.89061 0.487093 8.50331
2.88108 0.491018 8.56533
2.86851 0.495871 8.62236
2.85287 0.499593 8.67043
2.84645 0.505722 8.7464
2.82278 0.519344 8.9224
2.81025 0.524271 8.98443
2.79467 0.528097 9.0395
2.78728 0.534301 9.12047
2.76861 0.537951 9.16357
2.75614 0.542996 9.23359
2.74716 0.554001 9.36852
2.72752 0.556711 9.41563
2.71918 0.564004 9.5026
2.6892 0.574024 9.6377
2.64839 0.597332 9.9267
2.61645 0.608427 10.0668
2.60105 0.614608 10.1458
2.56976 0.631975 10.3718
2.55131 0.638054 10.4439
2.53595 0.644324 10.5289
2.52266 0.65171 10.6219
4.18253 0.0594609 0.953863
4.15572 0.0638199 1.11202
4.14056 0.0664745 1.22311
4.12814 0.0686236 1.30019
4.08962 0.0745537 1.49641
4.07025 0.0767968 1.57954
4.07155 0.0793879 1.6195
4.04446 0.0831844 1.73966
4.0224 0.0870512 1.86479
3.99197 0.0961528 2.07291
3.97466 0.0995127 2.164
3.93368 0.112495 2.43116
3.92605 0.114226 2.4802
3.8595 0.130071 2.80451
2.57897 0.688303 10.3939
2.52634 0.714974 10.707
2.51003 0.722333 10.798
2.49268 0.729618 10.884
2.47535 0.736933 10.9721
2.45807 0.745352 11.0671
2.43628 0.758736 11.2271
2.41905 0.767243 11.3281
2.39769 0.774502 11.4122
2.37736 0.781834 11.5012
2.35705 0.789196 11.5923
2.33343 0.804906 11.7743
2.31212 0.812269 11.8653
4.19986 0.0860977 0.862326
4.19207 0.0865032 0.889382
4.18115 0.086674 0.900463
4.17919 0.0867643 0.906478
4.18141 0.0871921 0.935459
4.17099 0.089325 1.01152
4.15917 0.0897038 1.0366
4.15148 0.0903165 1.07766
4.14763 0.0916154 1.09767
4.15276 0.0918486 1.11363
4.14084 0.0920201 1.12472
4.14696 0.0932525 1.14066
4.14507 0.0934612 1.15467
4.14016 0.0936573 1.16771
4.13621 0.093749 1.17373
4.14234 0.0949962 1.19067
4.13041 0.094153 1.20078
4.12551 0.0943491 1.21381
4.13063 0.0955822 1.22976
4.12774 0.0957916 1.24378
4.12088 0.0960779 1.26283
4.12702 0.0973399 1.28077
4.11609 0.0964961 1.29086
4.12022 0.0977447 1.30781
4.1103 0.0979148 1.31889
4.1054 0.0981109 1.33192
4.10551 0.0983329 1.34692
4.10362 0.0995415 1.36092
4.10568 0.0996585 1.3689
4.09676 0.0998278 1.37997
4.09989 0.100077 1.39695
4.09031 0.101913 1.453
4.08747 0.103226 1.474
4.08671 0.104686 1.50499
4.08481 0.104895 1.519
4.0779 0.105077 1.53106
4.07401 0.105287 1.54508
4.07306 0.105392 1.55209
4.06427 0.106798 1.57914
4.07141 0.108074 1.59807
4.05559 0.107441 1.6222
4.06066 0.10857 1.63115
4.05689 0.110017 1.66116
4.05499 0.110226 1.67517
4.04809 0.110423 1.68822
4.0472 0.111646 1.70321
4.04331 0.111856 1.71724
4.04248 0.113197 1.74023
4.03457 0.112381 1.7523
4.04072 0.114658 1.77123
4.02891 0.115051 1.79731
4.02715 0.116511 1.82831
4.02721 0.11663 1.83631
4.02031 0.116827 1.84936
4.02056 0.118316 1.88234
4.01779 0.119777 1.91334
4.00786 0.119932 1.92342
4.00592 0.120037 1.93043
4.00918 0.122553 1.96537
3.99826 0.121724 1.97647
3.99638 0.122947 1.99147
3.99249 0.123172 2.0065
3.99462 0.124422 2.02346
3.98879 0.124752 2.04551
3.98402 0.126215 2.07653
3.98013 0.127439 2.09154
3.97423 0.127636 2.10458
3.97436 0.128888 2.12156
3.97141 0.128993 2.12859
3.97066 0.130483 2.16157
3.9708 0.131749 2.17956
3.95787 0.130892 2.18867
3.959 0.132157 2.20664
3.96416 0.133464 2.22759
3.95129 0.133726 2.24468
3.94841 0.134964 2.26069
3.94365 0.136442 2.29271
3.94881 0.137749 2.31365
3.94499 0.139107 2.33766
3.93708 0.13929 2.34972
3.92818 0.139489 2.36279
3.92075 0.143605 2.43779
3.92692 0.144941 2.46073
3.92117 0.146419 2.49276
3.90335 0.146802 2.51789
3.90551 0.148097 2.53786
3.90069 0.14947 2.56288
3.88891 0.150908 2.59195
3.89307 0.152216 2.6129
3.88518 0.152429 2.62696
3.88238 0.153816 2.65296
3.87649 0.155042 2.66799
3.8719 0.157845 2.72199
3.86601 0.158071 2.73703
3.86615 0.159352 2.75602
3.85934 0.160727 2.78105
3.86352 0.163065 2.80399
3.8526 0.163236 2.81507
3.8598 0.164615 2.841
3.84586 0.164744 2.8491
3.85003 0.166081 2.87205
3.84609 0.166203 2.88008
3.85127 0.168554 2.90401
3.84036 0.168725 2.91509
3.83448 0.168966 2.93114
3.83967 0.171332 2.95607
3.83277 0.171545 2.97012
3.82286 0.17173 2.98219
3.82496 0.17292 2.99516
3.82411 0.174217 3.01515
3.81924 0.175472 3.03217
3.8194 0.176783 3.05315
3.81755 0.17808 3.07315
3.80764 0.178265 3.08522
3.81485 0.18066 3.11214
3.81291 0.180794 3.12115
3.81107 0.182092 3.14115
3.80318 0.18232 3.15621
3.80234 0.183631 3.1772
3.8015 0.184943 3.19819
3.80166 0.187253 3.21915
3.78874 0.186426 3.23026
3.79185 0.187631 3.24423
3.791 0.189942 3.2652
3.78413 0.190184 3.28125
3.77322 0.190369 3.29333
3.77943 0.192779 3.32125
3.77557 0.194063 3.34027
3.7697 0.194319 3.35731
3.77097 0.196851 3.39327
3.75924 0.199378 3.42832
3.75034 0.199592 3.44239
3.74549 0.200877 3.46141
3.74264 0.202175 3.48141
3.7419 0.204693 3.51639
3.73907 0.206021 3.53839
3.73421 0.207291 3.55641
3.73237 0.208618 3.57841
3.72852 0.209917 3.59842
3.7267 0.211259 3.62142
3.71974 0.211338 3.62647
3.71406 0.213978 3.66948
3.70436 0.216578 3.70952
3.71161 0.219061 3.74243
3.69668 0.219205 3.75154
3.701 0.222823 3.79346
3.69616 0.224138 3.81448
3.67456 0.226938 3.86761
3.67477 0.228338 3.89459
3.67991 0.230615 3.91352
3.66398 0.22976 3.92266
3.67023 0.233259 3.95656
3.65934 0.233474 3.97065
3.65067 0.236131 4.01468
3.6529 0.238574 4.04463
3.641 0.238775 4.05772
3.6401 0.239968 4.07071
3.64333 0.242425 4.10165
3.62942 0.242612 4.11376
3.63367 0.246098 4.14668
3.6193 0.251337 4.22972
3.61145 0.252624 4.24876
3.61368 0.255081 4.27971
3.58833 0.260372 4.36584
3.57679 0.264284 4.42687
3.56336 0.270404 4.50189
3.55665 0.272971 4.53991
3.55488 0.275416 4.56989
3.55258 0.282794 4.66282
3.53994 0.285514 4.71088
3.52996 0.285551 4.71295
3.51935 0.289328 4.76498
3.49929 0.298178 4.88902
3.49957 0.300711 4.92499
3.49578 0.303143 4.95398
3.48898 0.305533 4.98
3.25076 0.415753 6.40236
3.23695 0.418134 6.42743
3.2266 0.425414 6.51341
3.22094 0.429084 6.55841
3.20452 0.435221 6.63445
3.20473 0.437635 6.66242
3.19602 0.440219 6.70145
3.18777 0.448675 6.7994
3.17344 0.456003 6.88841
3.15583 0.459771 6.9395
3.14918 0.464471 6.98649
3.14356 0.468215 7.03648
3.12265 0.480347 7.17948
3.10788 0.482802 7.20956
3.10812 0.485275 7.24152
3.08879 0.492606 7.33057
3.09033 0.499656 7.40146
3.07051 0.501011 7.4246
3.07205 0.507075 7.49651
3.0512 0.508372 7.51565
3.04489 0.516738 7.60758
3.02361 0.524159 7.70265
3.01398 0.528892 7.75166
3.00948 0.533857 7.81663
2.9961 0.54108 7.89863
2.99058 0.547017 7.96159
2.97282 0.549503 7.99369
2.96323 0.554309 8.0477
2.95571 0.559262 8.1117
2.94206 0.562938 8.15675
2.93759 0.569992 8.22769
2.92499 0.573771 8.27974
2.92838 0.578538 8.33165
2.91475 0.583273 8.38069
2.90625 0.588256 8.44668
2.89674 0.59421 8.51068
2.88107 0.597858 8.55375
2.86952 0.602755 8.61377
2.85834 0.612361 8.72173
2.84784 0.618346 8.78773
2.83428 0.623214 8.84577
2.81865 0.62795 8.89482
2.80817 0.633964 8.96282
2.79567 0.63895 9.02885
2.79402 0.643632 9.0748
2.78152 0.649618 9.14081
2.77003 0.655633 9.20882
2.75653 0.66062 9.27486
2.71448 0.683439 9.53087
2.69998 0.689426 9.5969
2.59844 0.742203 10.185
4.18011 0.110569 0.893117
4.18222 0.111789 0.908085
4.18033 0.111998 0.922098
4.17269 0.113699 0.969137
4.16879 0.113909 0.983165
4.16009 0.114508 1.02323
4.15619 0.114703 1.03626
4.15335 0.115016 1.05727
4.15345 0.116223 1.07126
4.15958 0.117471 1.0882
4.14967 0.116641 1.09928
4.14376 0.116823 1.11133
4.14008 0.118462 1.15434
4.13556 0.120413 1.21835
4.12181 0.120897 1.25045
4.12493 0.122131 1.26641
4.11601 0.122301 1.27748
4.11033 0.122942 1.32052
4.10158 0.124437 1.35357
4.0997 0.12466 1.36858
4.10081 0.125881 1.38355
4.09301 0.126287 1.41061
4.09809 0.127431 1.42056
4.07381 0.12987 1.51672
4.07487 0.129988 1.52471
4.08001 0.131251 1.54265
4.06719 0.131615 1.56675
4.07546 0.134127 1.60165
4.06353 0.134284 1.61174
4.05668 0.134585 1.63179
4.05279 0.134795 1.64582
4.04423 0.137675 1.70485
4.04831 0.13782 1.71482
4.03562 0.139436 1.7559
4.03185 0.140883 1.78591
4.02695 0.141094 1.79994
4.02625 0.142687 1.83993
4.00685 0.145871 1.91904
4.00296 0.147081 1.93305
3.99543 0.150004 1.99508
3.96845 0.156037 2.13121
3.94948 0.162064 2.26728
3.89186 0.17877 2.58251
3.82121 0.204364 3.02473
3.80381 0.208561 3.10481
3.79709 0.211114 3.14182
3.79927 0.212467 3.16579
3.78652 0.21395 3.19787
3.78577 0.216439 3.23084
3.78006 0.219021 3.26985
3.76758 0.223036 3.3379
3.76289 0.226647 3.37888
3.75298 0.226846 3.39196
3.75014 0.228159 3.41296
3.7483 0.229471 3.43396
3.74655 0.231961 3.46694
3.73867 0.232204 3.483
3.74087 0.234587 3.50895
3.73235 0.239541 3.57295
3.72659 0.241004 3.60398
3.73182 0.243444 3.63391
3.71525 0.2473 3.69098
3.69273 0.251263 3.7551
3.69294 0.252663 3.78208
3.68607 0.25392 3.79912
3.67356 0.257891 3.86416
3.67083 0.261426 3.90014
3.67003 0.262811 3.92612
3.65632 0.265384 3.96419
3.64866 0.269055 4.0092
3.65201 0.272748 4.05613
3.6401 0.272935 4.06822
3.63426 0.27425 4.08925
3.63044 0.275608 4.11326
3.61898 0.280667 4.18428
3.62011 0.282918 4.20124
3.60306 0.291781 4.32626
3.59556 0.296763 4.39225
3.58313 0.302882 4.46726
3.56453 0.305695 4.52137
3.55391 0.309443 4.5714
3.55316 0.312917 4.60336
3.54152 0.315636 4.65141
3.5438 0.319182 4.68835
3.53684 0.319276 4.6944
3.5371 0.322779 4.72835
3.52625 0.323068 4.74743
3.51766 0.327888 4.80243
3.50721 0.332962 4.87444
3.50269 0.338897 4.9374
3.49588 0.340287 4.96343
3.48604 0.341605 4.98449
3.49239 0.346281 5.03038
3.25551 0.456212 6.36572
3.25978 0.459742 6.40164
3.24029 0.464748 6.46872
3.23666 0.469461 6.51669
3.22997 0.473073 6.55769
3.22329 0.476699 6.59969
3.21763 0.480369 6.64469
3.19276 0.493593 6.7937
3.18407 0.497206 6.83472
3.17234 0.499747 6.87077
3.16466 0.503374 6.91278
3.14655 0.514119 7.02978
3.13991 0.517834 7.07778
3.13634 0.523666 7.13373
3.12055 0.525092 7.16183
3.1129 0.529778 7.20782
3.10451 0.536983 7.28879
3.09485 0.540656 7.33382
3.08929 0.546518 7.39178
3.07862 0.550162 7.43481
3.06897 0.55385 7.48083
3.05934 0.558582 7.52984
3.04561 0.561125 7.56591
3.05101 0.566906 7.6188
3.02972 0.574298 7.71186
3.01705 0.578943 7.75489
3.01153 0.584894 7.81885
2.99886 0.58854 7.8619
3.00021 0.59222 7.90784
2.98755 0.596895 7.95288
2.97897 0.60173 8.00888
2.96634 0.606464 8.05791
2.96087 0.61249 8.12687
2.94619 0.616137 8.16993
2.93766 0.62206 8.23192
2.92538 0.630475 8.3269
2.91279 0.635269 8.37993
2.90429 0.641267 8.44692
2.89171 0.64709 8.50193
2.87811 0.651869 8.55397
2.86962 0.657882 8.62195
2.87 0.662621 8.67189
2.85746 0.668519 8.7319
2.84799 0.674561 8.8019
2.8334 0.679386 8.85694
2.82496 0.686473 8.92991
2.81041 0.691356 8.98896
2.79993 0.698385 9.05794
2.7823 0.703123 9.10701
2.78889 0.710258 9.18386
2.76921 0.713909 9.22696
2.75674 0.720954 9.29696
2.74223 0.726911 9.36099
2.73185 0.734132 9.44298
2.71531 0.740032 9.50302
2.70698 0.748356 9.59197
2.70335 0.753083 9.64094
2.68994 0.760233 9.71794
2.6724 0.766148 9.779
2.65796 0.772254 9.85303
2.61527 0.801784 10.157
2.59472 0.806672 10.216
2.58244 0.816087 10.311
2.51342 0.853953 10.704
2.49711 0.862312 10.795
2.40822 0.914383 11.336
2.23432 1.01732 12.4039
4.15735 0.141981 1.05485
4.15255 0.142384 1.08188
4.14286 0.143983 1.12193
4.1336 0.147456 1.22097
4.12669 0.147639 1.23302
4.09807 0.153354 1.41517
4.08437 0.153956 1.45527
4.08259 0.155387 1.48427
4.08288 0.157964 1.52323
4.07509 0.15837 1.55029
4.06434 0.159866 1.58335
4.03559 0.166345 1.7495
3.99533 0.176779 1.97968
3.83255 0.228035 2.93528
3.81724 0.234393 3.02631
3.80001 0.240901 3.12736
3.80117 0.242226 3.14933
3.80126 0.243403 3.16132
3.80545 0.24577 3.18625
3.79857 0.246012 3.2023
3.78665 0.246169 3.21239
3.78581 0.247495 3.23438
3.78195 0.248764 3.2524
3.77709 0.250034 3.27042
3.7812 0.251253 3.28537
3.77633 0.252508 3.30239
3.78053 0.254905 3.32933
3.76762 0.255077 3.34042
3.76375 0.256347 3.35844
3.76494 0.257716 3.38341
3.75504 0.258915 3.39647
3.75027 0.260363 3.42649
3.75247 0.262746 3.45244
3.74559 0.263988 3.46847
3.74577 0.265343 3.49246
3.73587 0.265543 3.50553
3.73523 0.270254 3.55347
3.72826 0.269318 3.55754
3.73449 0.272758 3.58744
3.73065 0.274071 3.60846
3.71975 0.274272 3.62154
3.7169 0.275585 3.64254
3.71811 0.277983 3.6695
3.70931 0.279389 3.69655
3.70749 0.281731 3.71953
3.70265 0.283045 3.74055
3.69275 0.28326 3.75463
3.69799 0.286715 3.78554
3.69516 0.288057 3.80854
3.6883 0.289329 3.82658
3.69243 0.290577 3.84353
3.68154 0.291807 3.8586
3.67467 0.293064 3.87563
3.67286 0.294435 3.90063
3.65935 0.299407 3.96567
3.65945 0.3006 3.97865
3.65764 0.301971 4.00365
3.65078 0.303257 4.02268
3.64393 0.304544 4.04172
3.64414 0.306958 4.06969
3.64537 0.309401 4.09964
3.63256 0.311795 4.12571
3.63177 0.313195 4.1527
3.62412 0.316896 4.19971
3.61931 0.319255 4.22371
3.61043 0.320513 4.24076
