3.55896 -0.306631 4.23859
3.54359 -0.306391 4.32172
3.54179 -0.30599 4.34873
3.53899 -0.306588 4.37576
3.53316 -0.306258 4.3978
3.53125 -0.306079 4.40982
3.52946 -0.305663 4.43783
3.5206 -0.305375 4.45689
3.51478 -0.306015 4.48095
3.51199 -0.305613 4.50797
3.50617 -0.305254 4.53201
3.50439 -0.305823 4.56104
3.49553 -0.305535 4.5801
3.49768 -0.305241 4.60008
3.49186 -0.304881 4.62413
3.47997 -0.30465 4.63921
3.48022 -0.305162 4.67222
3.47441 -0.304787 4.69727
3.46961 -0.304399 4.7233
3.46379 -0.305024 4.74836
3.46898 -0.304673 4.77232
3.46317 -0.304283 4.79836
3.45434 -0.303951 4.82042
3.44853 -0.304562 4.84648
3.44576 -0.304115 4.8765
3.43894 -0.303755 4.90055
3.43732 -0.303999 4.95157
3.42647 -0.303695 4.97165
3.4237 -0.303248 5.00167
3.42399 -0.303686 5.03968
3.41515 -0.303354 5.06174
3.41038 -0.302906 5.09177
3.4056 -0.303473 5.12082
3.40271 -0.303249 5.13584
3.39793 -0.302816 5.16488
3.39721 -0.303267 5.20189
3.38232 -0.303034 5.21701
3.38159 -0.302501 5.25301
3.37279 -0.303109 5.27909
3.37106 -0.302575 5.3151
3.36715 -0.302394 5.32713
3.36746 -0.302772 5.36913
3.35968 -0.302352 5.39719
3.35693 -0.301847 5.43121
3.35218 -0.302354 5.46426
3.34236 -0.301992 5.48833
3.33459 -0.301542 5.51838
3.33879 -0.302145 5.54537
3.32796 -0.301797 5.56845
3.28218 -0.301409 5.86282
3.27441 -0.300945 5.89388
3.26868 -0.300422 5.92892
3.26213 -0.300529 5.98898
3.25374 -0.300323 6.07005
3.23825 -0.300305 6.13818
3.22479 -0.300229 6.21029
3.21993 -0.299959 6.22832
3.21727 -0.30029 6.27335
3.10572 -0.298487 6.99827
3.09601 -0.298902 7.03735
3.07893 -0.298083 7.15949
3.07027 -0.29841 7.20456
3.05092 -0.298108 7.29172
3.04635 -0.298275 7.34776
3.88845 -0.296395 2.17467
3.87692 -0.295469 2.23676
3.88201 -0.295295 2.24872
3.88515 -0.295015 2.26769
3.87623 -0.294846 2.27876
3.87637 -0.29458 2.29676
3.8765 -0.294313 2.31475
3.86157 -0.294184 2.32286
3.85969 -0.293946 2.33888
3.87383 -0.294674 2.35778
3.85587 -0.294587 2.36292
3.85399 -0.294334 2.37993
3.86519 -0.293957 2.40585
3.85326 -0.293815 2.41493
3.85441 -0.29352 2.43492
3.84348 -0.293379 2.44401
3.85058 -0.293177 2.45795
3.84771 -0.292923 2.47497
3.84584 -0.29267 2.49198
3.84397 -0.292417 2.509
3.83807 -0.292205 2.52304
3.8352 -0.291951 2.54006
3.83038 -0.292592 2.56411
3.82362 -0.292113 2.59616
3.82377 -0.291817 2.61615
3.81788 -0.291606 2.6302
3.80911 -0.29114 2.66126
3.81119 -0.290979 2.67224
3.80632 -0.290738 2.68828
3.80344 -0.290485 2.7053
3.80661 -0.290161 2.72727
3.79971 -0.289949 2.74133
3.79699 -0.290399 2.77836
3.79606 -0.290265 2.78736
3.79621 -0.289969 2.80736
3.78444 -0.289516 2.83745
3.77956 -0.289276 2.85348
3.78172 -0.288951 2.87546
3.77282 -0.288752 2.88853
3.78297 -0.288478 2.90745
3.77909 -0.288224 2.92448
3.77421 -0.287983 2.94052
3.66067 -0.283149 3.53238
3.65883 -0.282822 3.55439
3.64729 -0.281925 3.61448
3.64656 -0.281376 3.65148
3.63969 -0.282119 3.66854
3.63201 -0.281492 3.7106
3.63018 -0.28115 3.73361
3.61968 -0.280165 3.79968
3.62178 -0.280959 3.81368
3.61897 -0.280602 3.8377
3.6004 -0.279729 3.89584
3.59083 -0.278893 3.9519
3.58901 -0.279521 3.97693
3.58518 -0.279193 3.99896
3.58539 -0.278778 4.02695
3.57954 -0.278478 4.04699
3.57268 -0.278192 4.06604
3.572 -0.277569 4.10805
3.56414 -0.278282 4.12712
3.56435 -0.277868 4.15512
3.55952 -0.277538 4.17715
3.5529 -0.276778 4.2282
3.55212 -0.277348 4.25721
3.5492 -0.277198 4.26723
3.54438 -0.276839 4.29127
3.54157 -0.276467 4.31629
3.53271 -0.276179 4.33535
3.54001 -0.275592 4.3753
3.52611 -0.275389 4.3884
3.51825 -0.276102 4.40747
3.52746 -0.275694 4.4354
3.51558 -0.275464 4.45049
3.5138 -0.275033 4.4795
3.50393 -0.274759 4.49757
3.49229 -0.27404 4.54566
3.49354 -0.274552 4.57866
3.49771 -0.274229 4.60062
3.48583 -0.273984 4.61671
3.48405 -0.273538 4.64672
3.48431 -0.274035 4.68073
3.47345 -0.27376 4.69881
3.46865 -0.273357 4.72585
3.46587 -0.272925 4.75487
3.47106 -0.272559 4.77983
3.46019 -0.272285 4.79791
3.45539 -0.272881 4.82495
3.44959 -0.272492 4.851
3.44481 -0.272059 4.88003
3.4481 -0.271484 4.919
3.43422 -0.271237 4.9351
3.43334 -0.271999 4.95112
3.42783 -0.271033 5.01616
3.42507 -0.270557 5.04818
3.41523 -0.270239 5.06925
3.4135 -0.270719 5.10428
3.39195 -0.269815 5.16443
3.39456 -0.269617 5.24542
3.38677 -0.269197 5.27348
3.3739 -0.268936 5.29057
3.36929 -0.269162 5.34262
3.37163 -0.268498 5.3876
3.3608 -0.268149 5.41068
3.35807 -0.267614 5.4467
3.34927 -0.268223 5.47277
3.33371 -0.267352 5.53089
3.32742 -0.266941 5.62594
3.27561 -0.264594 5.91734
3.27497 -0.264897 5.96435
3.26823 -0.264374 5.9994
3.25763 -0.263582 6.05248
3.24519 -0.263477 6.12658
3.2287 -0.262458 6.1947
3.22808 -0.262717 6.24471
3.21426 -0.262351 6.26881
3.02745 -0.255118 7.35726
3.01399 -0.255042 7.42938
3.00741 -0.254208 7.48542
2.99777 -0.254505 7.5325
3.89746 -0.26342 2.17312
3.87251 -0.261343 2.31229
3.86775 -0.261866 2.34434
3.84718 -0.261007 2.40149
3.8409 -0.259581 2.49753
3.83608 -0.259237 2.52057
3.82055 -0.258293 2.58368
3.8148 -0.2578 2.61672
3.81099 -0.257427 2.64175
3.79584 -0.255742 2.75485
3.78593 -0.255558 2.76692
3.7891 -0.255234 2.7889
3.78723 -0.254966 2.80691
3.77754 -0.254352 2.84798
3.76779 -0.253856 2.88105
3.77096 -0.253533 2.90303
3.76508 -0.253292 2.91907
3.44057 -0.228594 4.84341
3.20383 -0.210298 6.33913
3.18596 -0.208049 6.49025
3.16183 -0.207328 6.60544
3.14463 -0.205746 6.71156
3.1323 -0.204419 6.80065
3.11853 -0.203965 6.83075
3.10984 -0.203352 6.87181
3.10725 -0.203535 6.92684
3.1024 -0.203235 6.94688
3.09676 -0.202521 6.99491
3.08606 -0.201935 7.03399
3.07637 -0.201321 7.07506
3.06667 -0.200707 7.11613
3.05902 -0.20002 7.16218
3.05649 -0.1991 7.2242
3.05165 -0.198786 7.24523
3.04096 -0.199171 7.28633
3.91878 -0.2428 2.08064
3.74925 -0.228017 3.07183
3.74639 -0.227733 3.09085
3.02594 -0.158269 7.41385
3.01937 -0.157435 7.4699
3.00462 -0.156935 7.503
2.98972 -0.153748 7.65009
2.98114 -0.152927 7.70515
2.96845 -0.152311 7.74624
2.95782 -0.151562 7.79632
2.95129 -0.15064 7.85836
2.9465 -0.150222 7.88639
2.93691 -0.149415 7.94046
2.93039 -0.148462 8.00451
2.91467 -0.147903 8.04162
2.90612 -0.147008 8.10168
2.89862 -0.146026 8.16773
2.87986 -0.145538 8.19987
2.88327 -0.144741 8.25384
2.87577 -0.142758 8.31988
2.86112 -0.142052 8.36698
2.84956 -0.141184 8.42507
2.83901 -0.140288 8.48514
2.82438 -0.139552 8.53425
2.81424 -0.137856 8.64831
2.79861 -0.137119 8.69743
2.78709 -0.136163 8.76151
2.75342 -0.130563 9.07072
3.87689 -0.211626 2.22551
3.8801 -0.210214 2.25347
3.86932 -0.209791 2.28155
3.86355 -0.209328 2.31259
3.86275 -0.208942 2.3386
3.85296 -0.20852 2.36667
3.85109 -0.208267 2.38368
3.84345 -0.207536 2.43273
3.84251 -0.207417 2.44074
3.83561 -0.20722 2.45379
3.84982 -0.206815 2.48168
3.83288 -0.206699 2.48881
3.83904 -0.206378 2.51076
3.83717 -0.206125 2.52777
3.82531 -0.204835 2.54685
3.82747 -0.20454 2.56683
3.81856 -0.204356 2.57889
3.81985 -0.20378 2.61788
3.80505 -0.203384 2.64399
3.80311 -0.203264 2.652
3.80828 -0.202927 2.67496
3.80038 -0.202729 2.68802
3.7965 -0.202489 2.70405
3.79176 -0.201967 2.73908
3.79004 -0.201418 2.77609
3.78308 -0.201339 2.78114
3.78624 -0.200016 2.8031
3.78438 -0.199748 2.82112
3.77648 -0.19955 2.83418
3.77864 -0.199226 2.85616
3.68257 -0.189441 3.37781
3.61952 -0.181605 3.76922
3.61094 -0.180785 3.82428
3.56878 -0.176141 4.06856
3.5563 -0.17411 4.13764
3.53911 -0.172498 4.24576
3.54034 -0.172055 4.27575
3.52284 -0.170065 4.34186
3.45509 -0.161634 4.7733
3.42721 -0.158407 4.92249
3.4227 -0.156441 4.9875
3.41387 -0.156109 5.00956
3.40808 -0.15569 5.03761
3.39186 -0.154138 5.14172
3.38607 -0.15272 5.16975
3.38131 -0.152257 5.20078
3.36802 -0.150841 5.29587
3.36817 -0.150545 5.31587
3.30666 -0.142628 5.64526
3.26462 -0.137748 5.90554
3.26313 -0.13574 5.97353
3.25842 -0.135159 6.01256
3.23316 -0.133689 6.11075
3.22136 -0.132296 6.13682
3.21788 -0.131272 6.20584
3.20241 -0.129224 6.27593
3.20483 -0.128397 6.33191
3.09394 -0.114276 7.01063
3.07482 -0.111545 7.12675
3.04783 -0.108541 7.26093
3.0351 -0.107999 7.29702
3.03637 -0.106467 7.33299
4.18107 -0.215037 0.387019
4.17526 -0.214648 0.41306
4.17246 -0.214261 0.439079
4.16481 -0.213574 0.485133
3.88394 -0.182575 2.22903
3.87402 -0.182405 2.2401
3.87515 -0.182154 2.25709
3.87529 -0.180887 2.27508
3.86839 -0.18069 2.28813
3.87254 -0.180397 2.3081
3.85693 -0.179615 2.36021
3.85707 -0.179349 2.37821
3.84735 -0.178779 2.41628
3.84146 -0.178568 2.43032
3.83858 -0.178329 2.44634
3.83081 -0.176864 2.47738
3.83713 -0.176247 2.51933
3.82419 -0.176119 2.52743
3.8303 -0.175901 2.54238
3.82038 -0.175746 2.55245
3.8165 -0.175506 2.56848
3.81075 -0.174998 2.60252
3.82095 -0.173621 2.62843
3.82016 -0.173206 2.65643
3.80924 -0.173035 2.66751
3.80149 -0.172555 2.69957
3.79675 -0.172034 2.7346
3.79783 -0.170872 2.74558
3.78491 -0.171714 2.75569
3.78621 -0.170123 2.79566
3.77831 -0.169925 2.80872
3.77257 -0.169402 2.84376
3.77497 -0.167619 2.89672
3.7711 -0.167365 2.91375
3.15874 -0.076681 6.58053
3.15613 -0.0749092 6.63253
3.14538 -0.0744127 6.66561
3.13872 -0.0727416 6.71064
3.13691 -0.0723701 6.73565
3.12516 -0.070873 6.76872
3.12155 -0.0701003 6.82074
3.10981 -0.0685884 6.85481
3.09908 -0.0680327 6.89189
3.09245 -0.0663172 6.93992
3.07969 -0.0658341 6.97202
3.084 -0.0652153 7.01398
3.07534 -0.0635427 7.05903
3.06565 -0.0629285 7.1001
3.057 -0.0612412 7.14614
3.04834 -0.0595686 7.19119
3.03765 -0.0589537 7.23227
3.03106 -0.0571494 7.2863
2.74469 -0.00818529 9.09498
4.29108 -0.193953 -0.278214
4.28923 -0.193656 -0.258202
4.28433 -0.19346 -0.245166
4.28643 -0.193254 -0.231183
4.28453 -0.19306 -0.218169
4.28264 -0.192851 -0.204156
4.27384 -0.192445 -0.177092
4.27789 -0.192359 -0.171123
4.27499 -0.19215 -0.157103
4.27309 -0.191956 -0.144089
4.2742 -0.191749 -0.130099
4.26429 -0.19255 -0.117011
4.2754 -0.19135 -0.10311
4.2725 -0.191156 -0.0900893
4.26454 -0.192061 -0.0840152
4.25965 -0.19185 -0.0699795
4.26075 -0.191658 -0.0569888
4.26285 -0.191453 -0.0430058
4.26595 -0.190263 -0.0300449
4.25505 -0.191062 -0.0169491
4.24615 -0.190863 -0.00388324
4.24524 -0.19067 0.0091225
4.24539 -0.190374 0.0291197
4.2525 -0.190172 0.0430651
4.23759 -0.189983 0.0551764
4.23069 -0.189786 0.0682272
4.2418 -0.189572 0.0831424
4.23285 -0.189476 0.0892093
4.24195 -0.189276 0.10314
4.23705 -0.189079 0.116175
4.23315 -0.188884 0.129204
4.23425 -0.188692 0.142194
4.22945 -0.188289 0.169228
4.2325 -0.188188 0.176205
4.22559 -0.188005 0.188256
4.2218 -0.187602 0.215282
4.20898 -0.187223 0.240377
4.19899 -0.185246 0.373441
4.18618 -0.184852 0.399535
4.19029 -0.184647 0.413503
4.18638 -0.184467 0.425532
4.17247 -0.184279 0.437635
4.17663 -0.183971 0.458602
4.17973 -0.183766 0.472578
4.17783 -0.183572 0.485591
4.17493 -0.183378 0.498612
4.17413 -0.182977 0.525616
4.16517 -0.182897 0.530683
4.15826 -0.182714 0.542734
4.16637 -0.182498 0.557671
4.15146 -0.182324 0.568783
4.15456 -0.182119 0.582758
4.15567 -0.181912 0.596749
4.14876 -0.18173 0.6088
4.1398 -0.181649 0.613867
4.1389 -0.181441 0.627872
4.14201 -0.181236 0.641848
4.1371 -0.181055 0.653884
4.1322 -0.180859 0.66692
4.1333 -0.180652 0.68091
4.1304 -0.180458 0.693931
4.14047 -0.180332 0.702855
4.13356 -0.180149 0.714906
4.13477 -0.179735 0.742894
4.12586 -0.179551 0.75496
4.11894 -0.179383 0.766011
4.12306 -0.179164 0.780979
4.11609 -0.179085 0.786031
4.1162 -0.178878 0.800029
4.1094 -0.178488 0.826078
4.10349 -0.178306 0.838122
4.10259 -0.178098 0.852127
4.09885 -0.177592 0.886153
4.08813 -0.177021 0.92423
4.08634 -0.176605 0.952242
4.09141 -0.17549 0.960188
4.0875 -0.175295 0.973216
4.08761 -0.175088 0.987214
4.0817 -0.174906 0.999258
4.07379 -0.174722 1.01132
4.07189 -0.174528 1.02433
4.07701 -0.174295 1.04029
4.07316 -0.173996 1.06032
4.06826 -0.1738 1.07335
4.06836 -0.173593 1.08735
4.06267 -0.172982 1.12839
4.05782 -0.172697 1.14743
4.05302 -0.172294 1.17446
4.05714 -0.17206 1.19043
4.04522 -0.171903 1.20052
4.04432 -0.171695 1.21452
4.0514 -0.170552 1.22445
4.04471 -0.16994 1.2655
4.03178 -0.169783 1.2756
4.02999 -0.169367 1.30361
4.02704 -0.169276 1.30963
4.03016 -0.169041 1.3256
4.02526 -0.168845 1.33864
4.02536 -0.168638 1.35264
4.01845 -0.168455 1.36469
4.02057 -0.16822 1.38067
4.00976 -0.167842 1.40575
4.00881 -0.167737 1.41276
4.00792 -0.167529 1.42676
4.00915 -0.166071 1.45774
3.99633 -0.165706 1.48183
3.99645 -0.165484 1.49683
3.99249 -0.165393 1.50286
3.99161 -0.16517 1.51786
3.99372 -0.164949 1.53285
3.98581 -0.164766 1.54491
3.98592 -0.164544 1.5599
3.99307 -0.164268 1.57885
3.98013 -0.164125 1.58794
3.9842 -0.163995 1.59691
3.98031 -0.163785 1.61094
3.97741 -0.163575 1.62496
3.9715 -0.163393 1.63701
3.97062 -0.16217 1.652
3.96672 -0.16196 1.66602
3.97693 -0.161553 1.69395
3.95709 -0.161228 1.71509
3.95521 -0.161004 1.73011
3.95154 -0.160335 1.77513
3.94281 -0.158811 1.81018
3.93042 -0.157602 1.89126
3.92552 -0.157406 1.9043
3.90736 -0.154735 2.01641
3.74138 -0.128874 3.08043
3.73953 -0.127591 3.09943
3.72459 -0.127462 3.10754
3.73482 -0.12701 3.13846
3.7239 -0.12684 3.14954
3.72314 -0.12538 3.18053
3.71425 -0.125151 3.19559
3.71743 -0.124798 3.21957
3.7176 -0.124473 3.24156
3.70669 -0.124287 3.25364
3.70384 -0.122989 3.27365
3.69997 -0.12272 3.29168
3.70006 -0.122557 3.30268
3.70225 -0.122188 3.32766
3.68748 -0.120718 3.35875
3.68765 -0.120378 3.38175
3.68883 -0.120023 3.40574
3.688 -0.118697 3.42773
3.68204 -0.118619 3.43277
3.68423 -0.118235 3.45875
3.67233 -0.118049 3.47084
3.67149 -0.117723 3.49285
3.67268 -0.116353 3.51782
3.6648 -0.116111 3.53388
3.66095 -0.115812 3.55391
3.66507 -0.115578 3.56987
3.66122 -0.114279 3.58989
3.65838 -0.113966 3.61091
3.65555 -0.113638 3.63292
3.64061 -0.113509 3.64104
3.63979 -0.113153 3.66504
3.63494 -0.111853 3.68506
3.63604 -0.111662 3.69805
3.63018 -0.111376 3.71709
3.62432 -0.111105 3.73514
3.61846 -0.10982 3.75416
3.62168 -0.109393 3.78314
3.61985 -0.109051 3.80615
3.613 -0.107764 3.82519
3.6131 -0.107572 3.83818
3.61531 -0.107159 3.86616
3.6034 -0.106958 3.87925
3.60462 -0.105544 3.90723
3.59574 -0.105301 3.92329
3.59392 -0.104929 3.9483
3.58808 -0.103629 3.96833
3.58919 -0.103408 3.98332
3.58334 -0.103107 4.00336
3.5785 -0.102793 4.0244
3.57972 -0.101364 4.05337
3.57286 -0.101078 4.07242
3.565 -0.100791 4.09148
3.55815 -0.100505 4.11053
3.56331 -0.0991974 4.13147
3.5514 -0.0989962 4.14456
3.5468 -0.097223 4.19658
3.54016 -0.0965074 4.24463
3.53332 -0.0951915 4.26566
3.53545 -0.0949265 4.28364
3.52962 -0.0945965 4.30568
3.52379 -0.0932666 4.32771
3.51919 -0.0924636 4.38174
3.51034 -0.0911759 4.40079
3.51158 -0.090703 4.43278
3.5007 -0.0904581 4.44886
3.51193 -0.0890074 4.47976
3.49398 -0.0889055 4.48589
3.4932 -0.0884607 4.5159
3.49648 -0.0869153 4.55285
3.48157 -0.0867415 4.56397
3.48888 -0.085125 4.60589
3.4842 -0.0844997 4.64792
3.47257 -0.0827657 4.69699
3.45767 -0.0825624 4.7101
3.45793 -0.0810592 4.74408
3.44529 -0.0803392 4.79218
3.44239 -0.0791447 4.80518
3.4467 -0.0785407 4.84615
3.44494 -0.0770657 4.87814
3.428 -0.0769201 4.88727
3.4303 -0.0753443 4.92623
3.4245 -0.0749551 4.95227
3.41305 -0.0728511 5.02634
3.40524 -0.0714901 5.05038
3.40349 -0.0709854 5.08439
3.39973 -0.0695237 5.1154
3.39018 -0.0676284 5.17546
3.38728 -0.067419 5.18948
3.38454 -0.0669135 5.22349
3.38079 -0.0654222 5.25651
3.37501 -0.0649886 5.28555
3.36822 -0.0635691 5.31358
3.35942 -0.0631777 5.33964
3.34195 -0.0611137 5.41076
3.34834 -0.0593633 5.46169
3.33042 -0.0591873 5.47282
3.3348 -0.0574502 5.52277
3.3189 -0.0572314 5.53689
3.31822 -0.055609 5.57888
3.25101 -0.0440818 5.94926
3.2381 -0.0389404 6.0933
3.22871 -0.0367342 6.17435
3.21527 -0.0336289 6.24842
3.20266 -0.0328497 6.30051
3.01965 0.00194835 7.35952
3.00369 0.00698833 7.49658
2.98894 0.00750255 7.53069
2.98032 0.00924911 7.58074
2.97274 0.0110838 7.63678
2.96107 0.0127289 7.67984
2.95248 0.0145347 7.73389
2.9449 0.0163693 7.78993
2.94623 0.0180198 7.8339
2.93357 0.0196953 7.87898
2.92091 0.0213707 7.92405
2.91439 0.0233231 7.98808
2.8768 0.0291044 8.1743
2.85769 0.0328654 8.29241
2.81073 0.0418973 8.56267
2.63336 0.0809495 9.70658
4.30485 -0.17144 -0.310655
4.28526 -0.171626 -0.256498
4.27661 -0.170923 -0.209436
4.27471 -0.170729 -0.196423
4.27392 -0.170329 -0.169419
4.28097 -0.170231 -0.162473
4.26717 -0.169821 -0.135371
4.26057 -0.169031 -0.0823259
4.26262 -0.168929 -0.0753419
4.25082 -0.169535 -0.0492404
4.24237 -0.168448 0.0238172
4.24257 -0.168048 0.0508135
4.22597 -0.167266 0.102934
4.22412 -0.166969 0.122947
4.21931 -0.16658 0.148981
4.21441 -0.166384 0.162016
4.21451 -0.166192 0.175015
4.21161 -0.165997 0.188035
4.21466 -0.165896 0.195012
4.21386 -0.165495 0.222016
4.19406 -0.163126 0.381152
4.18715 -0.162944 0.393203
4.17724 -0.162759 0.405276
4.18135 -0.162555 0.419244
4.17545 -0.162358 0.432288
4.17254 -0.162163 0.445308
4.16759 -0.162071 0.451345
4.16969 -0.161865 0.465328
4.16288 -0.16149 0.490377
4.16409 -0.161076 0.518366
4.15719 -0.160893 0.530417
4.15423 -0.160802 0.536439
4.14933 -0.160606 0.549475
4.14853 -0.160206 0.576478
4.15564 -0.159989 0.591424
4.15073 -0.159808 0.60346
4.14589 -0.159508 0.623495
4.151 -0.159289 0.638455
4.14008 -0.159119 0.649536
4.13517 -0.158937 0.661572
4.13227 -0.158743 0.674593
4.13738 -0.158524 0.689553
4.13047 -0.158342 0.701604
4.13654 -0.158213 0.710558
4.13163 -0.158031 0.722594
4.12272 -0.157847 0.73466
4.12483 -0.157642 0.748643
4.12193 -0.157447 0.761664
4.11502 -0.157264 0.773715
4.11311 -0.15707 0.786728
4.11021 -0.156876 0.799749
4.11427 -0.15676 0.807717
4.10837 -0.156563 0.820761
4.10747 -0.15637 0.833767
4.09866 -0.155994 0.858831
4.10478 -0.154761 0.874769
4.10483 -0.154658 0.881768
4.10705 -0.15423 0.910749
4.08911 -0.155098 0.918898
4.08722 -0.15389 0.932896
4.09133 -0.15367 0.947864
4.08342 -0.153487 0.959922
4.08558 -0.153178 0.980904
4.08078 -0.152774 1.00794
4.07688 -0.152579 1.02097
4.06897 -0.152396 1.03303
4.06422 -0.151903 1.06606
4.06143 -0.151487 1.09408
4.05975 -0.150864 1.13609
4.05088 -0.150591 1.15415
4.0423 -0.14877 1.2092
4.03086 -0.147651 1.28428
4.02144 -0.145504 1.36133
3.9618 -0.138826 1.67472
3.92463 -0.133216 1.91695
3.89123 -0.128052 2.12916
3.9004 -0.127718 2.15208
3.84111 -0.11836 2.51144
3.70927 -0.0991507 3.19525
3.69685 -0.0970015 3.27232
3.68049 -0.094731 3.35742
3.66653 -0.0896777 3.49547
3.64436 -0.0870328 3.60561
3.63384 -0.0850923 3.66867
3.62726 -0.0832584 3.7247
3.62058 -0.0816169 3.76773
3.6117 -0.0813735 3.7838
3.60404 -0.0797165 3.82784
3.60221 -0.0793746 3.85085
3.59535 -0.0790882 3.8699
3.59444 -0.07791 3.88189
3.59768 -0.0774533 3.91286
3.58396 -0.0758955 3.94995
3.59022 -0.0743819 3.98488
3.57349 -0.0738515 4.02001
3.57056 -0.0737012 4.03003
3.57077 -0.0722869 4.05801
3.57019 -0.0704721 4.113
3.55952 -0.0688129 4.15706
3.53427 -0.0663287 4.25622
3.52743 -0.0650128 4.27726
3.52015 -0.0625861 4.37329
3.5123 -0.0612991 4.39233
3.50165 -0.0595955 4.4394
3.50897 -0.057979 4.48132
3.50213 -0.0576482 4.50337
3.49037 -0.0571806 4.53446
3.49162 -0.0556782 4.56843
3.48075 -0.0554185 4.58551
3.46711 -0.0537127 4.6326
3.46445 -0.0520297 4.6786
3.46091 -0.050124 4.7396
3.46219 -0.0485771 4.77658
3.44324 -0.0484745 4.78272
3.43405 -0.0448687 4.89075
3.42549 -0.0430038 4.94879
3.42679 -0.0414273 4.98777
3.40811 -0.0397771 5.03089
3.39741 -0.0381771 5.07095
3.38512 -0.0357911 5.16402
3.3844 -0.034228 5.20201
3.37169 -0.0326561 5.24009
3.37503 -0.0309923 5.28504
3.36045 -0.0291674 5.34013
3.35771 -0.0276472 5.37514
3.35397 -0.0261411 5.40915
3.34719 -0.0256919 5.4392
3.34634 -0.0244101 5.45819
3.24575 -0.00367548 6.04372
3.23737 -0.00147004 6.12476
3.21235 0.00347288 6.25489
3.18308 0.00693035 6.35208
3.14418 0.0170746 6.63026
2.98898 0.0505126 7.53105
2.97835 0.0522458 7.58012
2.98168 0.0548948 7.62406
2.97206 0.0566569 7.67511
2.95736 0.058245 7.7142
2.9549 0.060298 7.7852
2.93609 0.0616966 7.81133
2.93162 0.0637363 7.88134
2.91997 0.0654258 7.92741
2.92132 0.0681058 7.97337
2.91175 0.0699567 8.03042
2.89809 0.0716329 8.0755
2.89262 0.074688 8.14651
2.87692 0.075277 8.18562
2.86738 0.078187 8.24666
2.85615 0.0817054 8.34871
2.84049 0.083383 8.39381
2.83506 0.0865122 8.46981
2.81839 0.0881609 8.51292
2.81401 0.091393 8.59591
2.78685 0.0960561 8.70707
2.78518 0.0977088 8.75106
2.77674 0.10081 8.82509
4.17705 -0.138176 0.37691
4.17514 -0.137982 0.389923
4.17335 -0.137581 0.416935
4.1647 -0.136894 0.462996
4.16479 -0.136701 0.475994
4.1659 -0.136495 0.489985
4.15599 -0.13631 0.502058
4.15324 -0.135819 0.535076
4.15334 -0.135627 0.548074
4.14643 -0.135429 0.561125
4.15154 -0.135225 0.575086
4.14664 -0.135029 0.588122
4.14568 -0.13494 0.594128
4.14679 -0.134733 0.608119
4.14299 -0.133331 0.63513
4.13407 -0.134161 0.646211
4.13028 -0.133759 0.673238
4.13338 -0.132554 0.687199
4.12252 -0.133279 0.705294
4.12563 -0.132074 0.719254
4.11682 -0.131683 0.745318
4.11392 -0.131488 0.758339
4.09482 -0.129712 0.877473
3.66137 -0.0600326 3.47107
3.64505 -0.0566882 3.56115
3.64138 -0.0550341 3.60516
3.63268 -0.0534504 3.64421
3.63416 -0.0515039 3.70818
3.61356 -0.0497042 3.76131
3.60295 -0.0479265 3.81337
3.58962 -0.0445991 3.90244
3.58096 -0.0429414 3.94648
3.58105 -0.042749 3.95948
3.57137 -0.0411201 4.00154
3.56755 -0.039762 4.02555
3.56574 -0.0393905 4.05056
3.55989 -0.0380902 4.07059
3.56122 -0.0364545 4.11356
3.55055 -0.0347953 4.15762
3.53505 -0.0328068 4.22372
3.52832 -0.0312689 4.25975
3.52753 -0.0308537 4.28775
3.52472 -0.0294816 4.31276
3.52092 -0.0280939 4.33877
3.51407 -0.0277928 4.35882
3.50848 -0.0259892 4.41284
3.50859 -0.0247673 4.42783
3.50075 -0.0244506 4.44888
3.49694 -0.0230777 4.4739
3.48149 -0.0209856 4.54699
3.47668 -0.0195972 4.57301
3.47377 -0.0194322 4.58403
3.47705 -0.0178868 4.62099
3.46137 -0.0162387 4.66409
3.45658 -0.0148355 4.69111
3.45177 -0.014447 4.71714
3.45216 -0.0126922 4.76812
3.3953 -0.00144613 5.05242
3.38488 0.00170145 5.12946
3.3791 0.00313499 5.15849
3.37331 0.00355383 5.18653
3.36277 0.00644976 5.24658
3.3544 0.00969951 5.3306
3.34083 0.0115533 5.38768
3.31118 0.0192102 5.56582
3.26437 0.0305526 5.85704
3.25559 0.0319883 5.88609
3.24516 0.0351063 5.96114
3.2376 0.0369706 6.01917
3.23086 0.0384937 6.05421
3.22516 0.0400752 6.09323
3.21741 0.0415694 6.12627
3.21475 0.0432524 6.17227
3.20397 0.0446748 6.20034
3.19541 0.0475544 6.25937
3.18668 0.049079 6.29442
3.18099 0.0506901 6.33544
4.27902 -0.116205 -0.161258
4.27247 -0.115312 -0.101213
4.26588 -0.114508 -0.0471681
4.25997 -0.114326 -0.0351246
4.05416 -0.0951251 1.18531
4.04473 -0.0929929 1.26136
4.03799 -0.0924846 1.29541
4.02127 -0.0919097 1.33353
4.02155 -0.0903769 1.36951
4.01274 -0.0899855 1.39558
4.01007 -0.089332 1.43959
4.01136 -0.0877703 1.47756
3.98937 -0.0847702 1.6117
3.97354 -0.0844181 1.63482
3.96817 -0.0821852 1.71784
3.95441 -0.0807014 1.74993
3.94373 -0.0800717 1.792
3.94038 -0.0777959 1.87801
3.93573 -0.0761115 1.92402
3.91997 -0.0756261 1.95614
3.91231 -0.0739543 2.00118
3.73847 -0.0388224 3.08312
3.40559 0.04206 5.0867
3.25054 0.0837931 6.00738
3.09362 0.127764 6.94404
3.07832 0.132152 7.03711
3.06685 0.136197 7.10714
3.05921 0.137913 7.15518
3.05157 0.140614 7.2022
3.03429 0.145033 7.29728
3.02667 0.147779 7.34731
3.01599 0.149424 7.39037
2.98737 0.158139 7.57248
2.95852 0.16541 7.72461
2.91841 0.17814 7.97476
2.91086 0.181034 8.03478
2.86583 0.193916 8.29496
2.85324 0.196739 8.35003
2.84473 0.199708 8.41506
2.82806 0.201371 8.45916
2.82946 0.20414 8.51112
2.80635 0.209904 8.62922
2.79277 0.212728 8.68429
2.78023 0.215655 8.74635
2.76461 0.218407 8.79643
2.75413 0.221421 8.86448
2.75761 0.225366 8.9284
2.74306 0.22825 8.98748
2.72542 0.229973 9.03559
2.71498 0.234076 9.10962
2.67757 0.244213 9.31978
2.66147 0.251001 9.43982
2.65008 0.255193 9.51985
2.63253 0.258094 9.57995
2.57322 0.275408 9.93619
4.27199 -0.090292 -0.167589
4.27609 -0.0901025 -0.154621
4.27414 -0.0899974 -0.147607
4.26724 -0.0897999 -0.134556
4.27334 -0.089597 -0.120603
4.26044 -0.090395 -0.107492
4.26154 -0.0902033 -0.0945017
4.26164 -0.0899961 -0.0805036
4.25674 -0.0898 -0.0674678
4.24979 -0.0897061 -0.061416
4.26189 -0.0895076 -0.0475082
4.25099 -0.0893072 -0.0344272
4.2581 -0.089105 -0.0204818
4.25229 -0.0887158 0.00555973
4.2474 -0.0885049 0.0195954
4.23954 -0.0882178 0.038653
4.24174 -0.0878196 0.0656342
4.23604 -0.0872232 0.105674
4.22529 -0.0877414 0.137767
4.2285 -0.0863292 0.165726
4.21969 -0.0869525 0.190805
4.21794 -0.0854478 0.2248
4.18063 -0.0831036 0.449078
4.16632 -0.0817308 0.541178
4.16342 -0.0815362 0.554199
4.14236 -0.07867 0.679332
4.12945 -0.0794976 0.690443
4.13856 -0.0782822 0.705359
4.12564 -0.0791098 0.71647
4.13371 -0.0779825 0.725394
4.1211 -0.0772033 0.777484
4.12522 -0.0769842 0.792452
4.12131 -0.0768037 0.80448
4.11044 -0.0765292 0.822561
4.11656 -0.0762967 0.838513
4.11366 -0.0761021 0.851534
4.10976 -0.0759068 0.864562
4.10786 -0.0757129 0.877576
4.103 -0.075428 0.896611
4.0991 -0.0752326 0.909639
4.0992 -0.0740255 0.923622
4.0914 -0.0736348 0.949679
4.08549 -0.0734528 0.961722
4.0836 -0.0732441 0.975735
4.08766 -0.0731286 0.983704
4.08175 -0.0729466 0.995748
4.08687 -0.0727134 1.01171
4.08096 -0.0725314 1.02375
4.08407 -0.0723116 1.03873
4.07415 -0.0721415 1.0498
4.0644 -0.0716605 1.08187
4.05549 -0.0714763 1.09394
4.07063 -0.0702061 1.11281
4.05871 -0.0700494 1.1229
4.06182 -0.0698295 1.13787
4.0519 -0.0696594 1.14895
4.06298 -0.0695046 1.15986
4.04905 -0.0693612 1.16896
4.04816 -0.0691532 1.18297
4.03925 -0.068969 1.19504
4.04838 -0.0687239 1.21197
4.03746 -0.0685531 1.22305
4.04559 -0.0673074 1.23997
4.03763 -0.0672275 1.24503
4.03472 -0.0670329 1.25805
4.03584 -0.0668116 1.27304
4.03294 -0.066617 1.28606
4.03706 -0.0663683 1.30303
4.03015 -0.0662003 1.31408
4.01822 -0.0660436 1.32417
4.0214 -0.0647054 1.34713
4.02953 -0.0644448 1.36507
4.01661 -0.0642873 1.37516
4.01873 -0.0640519 1.39115
4.01382 -0.0638707 1.40318
4.01003 -0.0624534 1.43119
4.00407 -0.0633749 1.43625
4.00217 -0.0621663 1.45025
4.00429 -0.0619309 1.46623
3.99839 -0.0617341 1.47928
4.0005 -0.0615135 1.49426
3.99661 -0.0613034 1.50829
4.00068 -0.0601732 1.51724
3.99678 -0.0599631 1.53127
3.98397 -0.0595983 1.55536
3.99412 -0.0593096 1.57529
3.9852 -0.0591402 1.58635
3.98136 -0.0578265 1.60736
3.98449 -0.0575771 1.62434
3.97356 -0.057421 1.63442
3.96978 -0.0569889 1.66345
3.96387 -0.0568069 1.67549
3.97001 -0.0555301 1.69443
3.95826 -0.0550329 1.72751
3.95035 -0.0548642 1.73857
3.95862 -0.0533373 1.77449
3.95572 -0.0531278 1.78851
3.94279 -0.0529851 1.79761
3.94486 -0.0528534 1.80659
3.94096 -0.0526432 1.82062
3.94711 -0.0513665 1.83956
3.94221 -0.0511704 1.85259
3.93229 -0.0510003 1.86367
3.93241 -0.0507634 1.87967
3.92556 -0.0504623 1.89972
3.9287 -0.0491833 1.91868
3.92882 -0.0489465 1.93467
3.91689 -0.0488045 1.94376
3.92404 -0.0475137 1.96369
3.90941 -0.0467775 2.0128
3.91055 -0.0455119 2.03077
3.89862 -0.0463698 2.03988
3.9118 -0.0450241 2.06376
3.80061 -0.0235118 2.70137
3.78768 -0.0233691 2.71047
3.79092 -0.0218977 2.74242
3.7892 -0.0203487 2.77942
3.77943 -0.0188826 2.81048
3.76867 -0.0184009 2.84255
3.76518 -0.0154065 2.90954
3.76533 -0.0141105 2.92953
3.76448 -0.0138137 2.94953
3.73986 -0.0120555 2.9997
3.74707 -0.0106463 3.02763
3.73833 -0.00913654 3.06168
3.73152 -0.00876138 3.08672
3.73084 -0.00712426 3.12971
3.72798 -0.00585574 3.14772
3.72411 -0.00558638 3.16574
3.71924 -0.00433121 3.18276
3.71136 -0.00410335 3.19782
3.71647 -0.00388495 3.21278
3.69885 -0.00213183 3.2629
3.70607 0.000306931 3.29281
3.69415 -0.000536198 3.30291
3.68735 0.000868456 3.32995
3.68687 0.00387553 3.39792
3.67815 0.00542967 3.43496
3.66283 0.00878812 3.52604
3.64653 0.013162 3.61811
3.64268 0.013461 3.63814
3.63335 0.0177853 3.72716
3.61405 0.0221762 3.82025
3.60921 0.0224759 3.84029
3.58833 0.0296969 3.98936
3.56505 0.0331204 4.0845
3.52305 0.0450742 4.34967
3.49909 0.0521198 4.48677
3.47831 0.0595333 4.64884
3.461 0.0638931 4.73992
3.45242 0.0667284 4.79595
3.44674 0.0683543 4.83797
3.44094 0.0697435 4.864
3.42556 0.0729687 4.94608
3.41977 0.0743874 4.9741
3.4131 0.0770436 5.01812
3.37476 0.0873285 5.23829
3.35643 0.0916446 5.32637
3.35572 0.0942076 5.36435
3.34083 0.0944406 5.37946
3.3413 0.0973581 5.44142
3.3244 0.0975629 5.45455
3.31692 0.10159 5.52355
3.29137 0.111451 5.71562
3.27248 0.118641 5.86268
3.25612 0.122911 5.94775
3.24468 0.127015 6.02179
3.2339 0.128437 6.04985
3.22367 0.133969 6.15286
3.20618 0.136974 6.21996
3.19213 0.14385 6.34598
3.14668 0.153917 6.5512
3.0826 0.174678 6.93743
3.0734 0.180254 7.04343
3.06473 0.181897 7.08648
3.05404 0.184512 7.12753
3.0474 0.187227 7.17554
3.03392 0.190244 7.24361
3.02935 0.194091 7.30059
3.01765 0.195692 7.34066
3.00495 0.198278 7.37973
2.99834 0.201053 7.43174
2.99102 0.205391 7.52175
2.98139 0.208123 7.57078
2.96767 0.209681 7.60787
2.96212 0.213573 7.66786
2.94639 0.215103 7.70296
2.93881 0.217937 7.75899
2.93022 0.220743 7.81302
2.93461 0.224509 7.86493
2.92502 0.227316 7.91897
2.9144 0.230064 7.96902
2.90074 0.23174 8.0141
2.89627 0.235779 8.08409
2.88161 0.238456 8.12916
2.8751 0.242423 8.19416
2.85874 0.246678 8.27824
2.84612 0.249428 8.3283
2.83455 0.252295 8.38635
2.82604 0.256248 8.45036
2.80089 0.26194 8.56348
2.78971 0.268546 8.67149
2.77408 0.271283 8.72057
2.76565 0.2754 8.79558
2.71289 0.291835 9.09278
2.70141 0.29485 9.16083
2.67751 0.303014 9.30591
2.6365 0.317952 9.57003
2.62203 0.321998 9.64009
4.2124 -0.0625422 0.150493
4.20865 -0.0620508 0.183518
4.20184 -0.0626607 0.209582
4.16858 -0.0592307 0.439814
4.15887 -0.0586461 0.478884
4.13971 -0.0569885 0.590019
4.14281 -0.0557835 0.60398
4.13295 -0.0565097 0.622067
4.11479 -0.0538381 0.73418
4.10234 -0.052748 0.807268
3.82305 -0.00362549 2.49188
3.79911 0.00147953 2.633
3.78948 0.00321202 2.68205
3.78468 0.00460042 2.70807
3.78109 0.00741725 2.76307
3.77543 0.00908762 2.80809
3.75405 0.0123172 2.89022
3.72644 0.0200614 3.07433
3.69948 0.0251094 3.21148
3.68715 0.029436 3.30052
3.6843 0.0307341 3.32053
3.67659 0.0323023 3.35857
3.66511 0.0353322 3.42762
3.66327 0.0356445 3.44863
3.66181 0.0396966 3.51959
3.64715 0.0413736 3.56468
3.64147 0.0430143 3.60771
3.64569 0.0454405 3.63664
3.62105 0.0461544 3.68383
3.61933 0.0487033 3.72081
3.62455 0.0501436 3.75075
3.60761 0.0502596 3.75788
3.60377 0.0505882 3.7799
3.59923 0.0544797 3.83989
3.60244 0.0559066 3.86885
3.59075 0.0575074 3.90892
3.58894 0.0588788 3.93391
3.59115 0.0603065 3.96288
3.5834 0.0617859 3.99492
3.5707 0.0633873 4.035
3.55216 0.0663039 4.0961
3.55148 0.0689261 4.13808
3.55169 0.0703405 4.16606
3.54586 0.0706705 4.1881
3.53699 0.0719434 4.20615
3.53722 0.0733873 4.23613
3.52454 0.0750184 4.27821
3.52263 0.0761974 4.29021
3.52209 0.0791008 4.35118
3.51244 0.0818036 4.39822
3.50079 0.0834932 4.44428
3.49788 0.0846729 4.45629
3.49509 0.0860746 4.48329
3.48724 0.0863913 4.50435
3.47459 0.0890814 4.55041
3.47283 0.0905417 4.58141
3.47611 0.0920871 4.61837
3.46916 0.0931957 4.6254
3.45906 0.0989647 4.74441
3.44213 0.0991103 4.75354
3.44137 0.100585 4.78553
3.43657 0.101988 4.81255
3.42815 0.106119 4.88856
3.4183 0.107422 4.90862
3.42262 0.110056 4.95155
3.41582 0.111445 4.97758
3.41206 0.112907 5.0086
3.41219 0.114174 5.02658
3.3983 0.114391 5.04068
3.39859 0.116953 5.07865
3.38571 0.117214 5.09574
3.38904 0.119848 5.13868
3.3785 0.122759 5.19973
3.37288 0.125503 5.24974
3.35697 0.125693 5.26186
3.35828 0.128299 5.30281
3.35151 0.129748 5.33285
3.34776 0.132254 5.36684
3.33795 0.132631 5.39191
3.34115 0.135013 5.41786
3.33538 0.136477 5.44889
3.32759 0.137882 5.47593
3.32184 0.139375 5.50895
3.31506 0.140824 5.53899
3.31235 0.143388 5.57697
3.26578 0.161174 5.89811
3.25194 0.161495 5.91921
3.24927 0.164148 5.9632
3.24151 0.166613 5.99422
3.2297 0.167007 6.02031
3.23212 0.170819 6.07524
3.23028 0.172131 6.09624
3.2195 0.173583 6.1263
3.21278 0.175136 6.16333
3.20403 0.177631 6.19637
3.2024 0.180342 6.24435
3.19366 0.181867 6.2794
3.18797 0.184478 6.32041
3.19021 0.18595 6.35237
3.17944 0.188402 6.38242
3.17072 0.189956 6.41947
3.16198 0.191481 6.45452
3.15733 0.194165 6.50052
3.1476 0.19669 6.53556
3.14702 0.199519 6.59153
3.13751 0.203489 6.65655
3.12984 0.206131 6.69958
3.11809 0.207628 6.73265
3.10884 0.2141 6.83163
3.09609 0.215598 6.86471
3.08865 0.219713 6.93972
3.07693 0.22227 6.97677
3.07334 0.225072 7.03077
3.05857 0.226527 7.06086
3.04686 0.229112 7.09992
3.04024 0.231843 7.14893
3.04049 0.234346 7.1829
3.03389 0.23712 7.23491
3.02728 0.239895 7.28693
3.01457 0.242467 7.32499
2.99426 0.247829 7.41608
2.97526 0.254811 7.54914
2.96462 0.257515 7.59618
2.85065 0.297442 8.26154
4.26597 -0.038397 -0.175313
4.27506 -0.0382111 -0.162383
4.26917 -0.0379995 -0.148339
4.26227 -0.037802 -0.135289
4.25937 -0.0386072 -0.122253
4.26142 -0.0375052 -0.115284
4.26652 -0.0373016 -0.101323
4.25662 -0.0381018 -0.088235
4.26172 -0.0369131 -0.0752893
4.25282 -0.037714 -0.0622085
4.25202 -0.0373136 -0.0352047
4.24017 -0.0370236 -0.0161171
4.24327 -0.0368186 -0.00214158
4.25038 -0.0366164 0.0118038
4.24547 -0.0364203 0.0248397
4.23367 -0.0370266 0.0509412
4.23277 -0.0368335 0.0639469
4.22692 -0.0365331 0.0839893
4.23802 -0.0353339 0.0978898
4.21431 -0.0357539 0.13608
4.22737 -0.034645 0.143966
4.22047 -0.0354474 0.157032
4.21256 -0.0352639 0.16909
4.21777 -0.0348531 0.197049
4.20485 -0.0346808 0.208145
4.18636 -0.0317057 0.408268
4.17339 -0.0316371 0.412365
4.1775 -0.0314327 0.426333
4.17871 -0.031019 0.454322
4.1728 -0.030837 0.466365
4.16088 -0.0316653 0.477469
4.16504 -0.0303575 0.498421
4.16815 -0.0301376 0.513397
4.16124 -0.0299549 0.525448
4.16045 -0.0295545 0.552451
4.14953 -0.0293837 0.563533
4.15264 -0.0291786 0.577508
4.15569 -0.0290624 0.585485
4.15079 -0.0288811 0.59752
4.14388 -0.0286836 0.610571
4.13217 -0.0281124 0.648656
4.14229 -0.0268829 0.664564
4.14134 -0.0267934 0.670571
4.13843 -0.0265988 0.683592
4.13152 -0.0274159 0.695657
4.12461 -0.0272332 0.707708
4.12673 -0.0270126 0.722691
4.12783 -0.0258062 0.736667
4.12092 -0.0266234 0.748733
4.11697 -0.0265317 0.754762
4.11507 -0.0263378 0.767775
4.11227 -0.024936 0.794779
4.11147 -0.0245356 0.821783
4.10457 -0.0243529 0.833834
4.10863 -0.0242374 0.841803
4.10673 -0.0240287 0.855816
4.10884 -0.022823 0.869784
4.10494 -0.0226277 0.882813
4.10003 -0.0224464 0.894849
4.09212 -0.0232629 0.906922
4.09623 -0.0220438 0.921875
4.09628 -0.0219402 0.928874
4.08436 -0.0227686 0.939978
4.08045 -0.022588 0.952006
4.08257 -0.0213675 0.966974
4.08067 -0.0211737 0.979987
4.07487 -0.0207696 1.00703
4.07492 -0.020666 1.01403
4.06701 -0.0204973 1.02509
4.06812 -0.020276 1.04008
4.06923 -0.0190696 1.05405
4.06332 -0.0198875 1.06611
4.05741 -0.0196907 1.07915
4.06053 -0.018471 1.09411
4.05662 -0.0182756 1.10714
4.05367 -0.0181846 1.11316
4.05177 -0.0179908 1.12618
4.0619 -0.0167317 1.14409
4.05399 -0.0165482 1.15614
4.05221 -0.0161323 1.18416
4.04424 -0.0160673 1.18821
4.03632 -0.0168985 1.19929
4.04646 -0.0156247 1.2182
4.04066 -0.0142355 1.24422
4.03375 -0.0150527 1.25629
4.02885 -0.0148566 1.26932
4.03091 -0.0137398 1.27729
4.02199 -0.0145703 1.28837
4.03013 -0.0133098 1.3063
4.0192 -0.0131538 1.31638
4.02132 -0.0129184 1.33236
4.0114 -0.0127631 1.34243
4.01257 -0.0114234 1.36541
4.0187 -0.0111762 1.38236
4.00978 -0.0110068 1.39343
4.00098 -0.0106154 1.41949
4.00611 -0.00936748 1.43644
3.99417 -0.0102254 1.44554
4.00533 -0.00893748 1.46544
3.99636 -0.00887172 1.46951
4.00048 -0.00762309 1.48646
3.99658 -0.00742775 1.49949
3.98577 -0.00704968 1.52457
3.99392 -0.00577437 1.54349
3.98299 -0.00661822 1.55359
3.97502 -0.00655319 1.55765
3.97725 -0.00509588 1.58861
3.97838 -0.00485977 1.6046
3.9717 -0.00321827 1.64763
3.96473 -0.00315397 1.65169
3.96484 -0.00293193 1.66668
3.96898 -0.0016685 1.68464
3.95605 -0.00252571 1.69375
3.95516 -0.00130305 1.70874
3.95026 -0.00110698 1.72178
3.94737 -0.000882759 1.7368
3.94642 -0.000778414 1.7438
3.94767 0.000694427 1.77578
3.93975 0.000863078 1.78683
3.94389 0.0021265 1.80479
3.93297 0.00129745 1.81588
3.94312 0.00258611 1.83579
3.93214 0.00263853 1.83887
3.92724 0.0028346 1.85191
3.92736 0.00307144 1.86791
3.91397 0.00628042 1.94897
3.91611 0.00754529 1.96694
3.90342 0.00816166 2.00803
3.9006 0.00951899 2.03203
3.89369 0.00970172 2.04409
3.89381 0.00993856 2.06008
3.88892 0.0101494 2.07412
3.88226 0.0118353 2.12015
3.88334 0.0129825 2.13013
3.88246 0.0132201 2.14613
3.88573 0.0147507 2.18209
3.87481 0.0149067 2.19217
3.87091 0.0151169 2.2062
3.87105 0.0163832 2.22418
3.86836 0.0179922 2.26518
3.85844 0.0181623 2.27626
3.85871 0.0196803 2.31124
3.84684 0.0199554 2.32933
3.84396 0.0211944 2.34533
3.83847 0.0231904 2.41235
3.82976 0.0247741 2.4514
3.81926 0.0277589 2.51744
3.82256 0.0303338 2.55639
3.81659 0.0294123 2.56145
3.80682 0.0308635 2.5915
3.80308 0.0323696 2.62551
3.80632 0.033841 2.65747
3.77888 0.0369565 2.73164
3.77716 0.0385056 2.76864
3.78528 0.0397365 2.78456
3.78141 0.039991 2.80159
3.76747 0.0401196 2.80969
3.77266 0.041486 2.83464
3.76878 0.0417257 2.85066
3.7639 0.0429661 2.86668
3.76204 0.043234 2.8847
3.76111 0.0443826 2.89469
3.75623 0.0446231 2.91072
3.7584 0.0459472 2.93269
3.74748 0.046118 2.94377
3.75469 0.0475125 2.9707
3.74075 0.0476559 2.97981
3.74098 0.0490999 3.00979
3.7351 0.0493411 3.02583
3.72737 0.0508649 3.06087
3.72552 0.0521623 3.08087
3.72592 0.0549466 3.13383
3.71702 0.0551456 3.1469
3.71214 0.0564007 3.16392
3.70527 0.0566427 3.17997
3.69854 0.0581954 3.217
3.6957 0.0594935 3.237
3.70182 0.0607258 3.25294
3.69393 0.0609537 3.268
3.68704 0.0611808 3.28305
3.68923 0.0625493 3.30802
3.69142 0.0639178 3.33298
3.68454 0.0651597 3.34902
3.68169 0.0654579 3.36904
3.68278 0.0666347 3.38102
3.67188 0.0668203 3.3931
3.67608 0.068217 3.42005
3.67021 0.0694729 3.43708
3.66233 0.0697155 3.45314
3.65848 0.0710144 3.47315
3.65966 0.0723688 3.49712
3.65371 0.072462 3.50317
3.65691 0.0738594 3.53012
3.65205 0.0751441 3.54915
3.64518 0.0754009 3.5662
3.63931 0.0756569 3.58324
3.63244 0.0769135 3.60027
3.62768 0.0783907 3.63229
3.63291 0.0798311 3.66224
3.621 0.0800174 3.67432
3.62724 0.0824865 3.70624
3.62744 0.0838713 3.73223
3.6125 0.0840006 3.74034
3.60966 0.0853283 3.76234
3.60875 0.0854919 3.77335
3.60593 0.0868492 3.79735
3.59725 0.0894773 3.83939
3.59138 0.0897481 3.85743
3.58372 0.092405 3.90145
3.58886 0.0936825 3.9204
3.582 0.0939688 3.93945
3.57515 0.0952551 3.95848
3.57334 0.0966265 3.98348
3.56365 0.0982554 4.02554
3.55308 0.102107 4.08257
3.54644 0.103807 4.1296
3.51725 0.117382 4.36965
3.51054 0.118949 4.40768
3.50471 0.120279 4.42971
3.50191 0.121681 4.45671
3.49003 0.122911 4.47179
3.49431 0.125456 4.50872
3.48343 0.125716 4.5258
3.48064 0.127117 4.55281
3.47976 0.128355 4.5688
3.48101 0.129842 4.60177
3.47115 0.131131 4.62083
3.46533 0.13249 4.64485
3.46154 0.133893 4.67187
3.46078 0.135367 4.70385
3.45308 0.137965 4.74388
3.44829 0.139368 4.7709
3.43944 0.140671 4.79095
3.43364 0.14206 4.81698
3.4258 0.143391 4.83902
3.42506 0.144895 4.87301
3.41084 0.15143 4.97603
3.24114 0.207839 5.94161
3.23643 0.210419 5.98061
3.2213 0.217133 6.09564
3.2109 0.22231 6.17465
3.19993 0.222377 6.17873
3.20642 0.226334 6.24364
3.19057 0.227627 6.26274
3.17308 0.231646 6.33082
3.17248 0.235417 6.38278
3.16476 0.236985 6.42082
3.15887 0.238196 6.43485
3.1532 0.240837 6.47785
3.14548 0.243405 6.51588
3.14186 0.246148 6.56587
3.13416 0.248731 6.6049
3.1285 0.251416 6.65091
3.12387 0.25513 6.69889
3.11539 0.259157 6.76791
3.10669 0.261741 6.80694
3.09698 0.264325 6.84598
3.08422 0.265808 6.87806
3.07757 0.268494 6.92408
3.0689 0.271137 6.96711
3.06812 0.273582 6.99708
3.06249 0.276296 7.04509
3.05484 0.279997 7.0921
3.04415 0.282612 7.13315
3.03753 0.285357 7.18316
3.02581 0.287913 7.22022
3.01514 0.290558 7.26327
3.00752 0.293303 7.31329
3.00674 0.295748 7.34327
3.00015 0.299552 7.39727
2.99255 0.302342 7.45029
2.97985 0.304929 7.48935
2.97326 0.308748 7.54435
2.96669 0.312581 7.60035
2.95431 0.317804 7.68238
2.94469 0.320551 7.73242
2.92139 0.326945 7.82551
2.91589 0.330926 7.8915
2.90322 0.333586 7.93557
2.89364 0.337408 7.99059
2.89804 0.341189 8.04351
2.88643 0.343952 8.09456
2.87482 0.34773 8.1466
2.86321 0.350509 8.19865
2.84959 0.354244 8.24771
2.84107 0.358197 8.31172
2.82983 0.364686 8.41173
2.81828 0.368582 8.47176
2.80672 0.372449 8.5298
2.79414 0.376273 8.58485
2.77311 0.385183 8.71289
2.75788 0.391704 8.81492
2.74844 0.396806 8.88893
2.73282 0.399557 8.93901
2.71088 0.408646 9.07906
2.68225 0.42136 9.26112
2.67287 0.426566 9.34212
2.65528 0.430393 9.3972
2.64385 0.435512 9.47222
2.60607 0.454876 9.76526
2.5731 0.463913 9.9014
4.27014 -0.0150916 -0.154687
4.26659 -0.0142005 -0.0946648
4.24934 -0.013707 0.00547159
4.2369 -0.012617 0.0785593
4.12126 -0.00200432 0.790372
4.10279 -0.000939509 0.861505
4.10111 0.000683541 0.903499
4.08375 0.00195486 0.988623
4.08302 0.00348837 1.02461
4.07632 0.00408556 1.06466
4.06841 0.00425421 1.07572
4.06551 0.00446363 1.08974
4.06556 0.00456725 1.09674
4.06077 0.00497056 1.12377
4.05808 0.00659434 1.16577
4.04733 0.00707603 1.19785
4.04442 0.00727064 1.21087
4.04263 0.00868646 1.23887
4.04275 0.00890849 1.25387
4.03985 0.00911791 1.26789
4.0379 0.00920818 1.2739
4.03222 0.0108341 1.31592
4.02731 0.0110154 1.32796
4.02341 0.0112256 1.34199
4.01867 0.0127324 1.37601
4.01299 0.0133733 1.41905
4.01411 0.0145945 1.43402
3.98864 0.0156644 1.50521
3.99076 0.0168996 1.52118
3.9959 0.0171624 1.53914
3.98704 0.0174502 1.5582
3.99016 0.0186848 1.57416
3.97924 0.0188408 1.58424
3.97835 0.0190636 1.59925
3.98148 0.0203129 1.61621
3.98059 0.0205357 1.63121
3.97765 0.0206415 1.63824
3.97374 0.0208368 1.65126
3.96984 0.0210322 1.66429
3.96193 0.0212156 1.67635
3.96016 0.0226611 1.70635
3.96229 0.0229112 1.72333
3.9499 0.0261195 1.80439
3.94198 0.0262882 1.81544
3.93708 0.0264842 1.82848
3.93011 0.0265485 1.83253
3.93425 0.0268269 1.8515
3.93638 0.0280769 1.86847
3.92759 0.0284832 1.89553
3.92571 0.0297213 1.91153
3.92075 0.029799 1.91657
3.92287 0.0300492 1.93355
3.92601 0.0313133 1.95151
3.91321 0.0317077 1.9776
3.91835 0.0329852 1.99655
3.90944 0.0331694 2.00861
3.91151 0.0333011 2.0176
3.90862 0.0345252 2.0326
3.90171 0.034708 2.04466
3.90586 0.036001 2.06461
3.90398 0.0362245 2.07962
3.89921 0.0376869 2.11064
3.88923 0.0367239 2.11273
3.88835 0.0379613 2.12872
3.88848 0.0382278 2.14672
3.88258 0.0384246 2.15976
3.8807 0.0396628 2.17576
3.87581 0.0398736 2.18979
3.88297 0.0411941 2.21172
3.87707 0.0413909 2.22477
3.86521 0.0416661 2.24285
3.87339 0.0430154 2.26678
3.86749 0.0442121 2.2798
3.86561 0.0444504 2.29582
3.85268 0.0445931 2.30491
3.85683 0.0458861 2.32487
3.85589 0.0460052 2.33287
3.85014 0.047498 2.3659
3.85027 0.0477496 2.3829
3.84035 0.0479197 2.39397
3.83761 0.0494399 2.42897
3.84371 0.0506279 2.44191
3.83681 0.0508254 2.45496
3.83394 0.0520791 2.47197
3.83407 0.0523455 2.48997
3.83321 0.0536126 2.50796
3.81927 0.0537412 2.51606
3.82544 0.0550772 2.539
3.81948 0.0541557 2.54406
3.8166 0.0553946 2.56006
3.81072 0.055621 2.5751
3.8179 0.0569711 2.59903
3.80094 0.0570723 2.60516
3.80913 0.0584364 2.63008
3.80022 0.0586206 2.64215
3.80432 0.05981 2.6551
3.80648 0.0611193 2.67607
3.79757 0.0613034 2.68813
3.79384 0.0628391 2.72415
3.78493 0.0630233 2.73621
3.77502 0.0632082 2.74829
3.78918 0.0655087 2.76915
3.78732 0.0657766 2.78716
3.77842 0.0659756 2.80023
3.76648 0.0661175 2.80931
3.76478 0.0686961 2.84829
3.75898 0.0690853 2.87434
3.75711 0.0703531 2.89233
3.75123 0.0705943 2.90838
3.74736 0.0718487 2.92539
3.74752 0.0731595 2.94637
3.74279 0.0746959 2.98239
3.73482 0.0747461 2.98545
3.73297 0.0750436 3.00546
3.73011 0.076327 3.02447
3.73731 0.0777214 3.0514
3.72438 0.0778641 3.06049
3.72959 0.0802599 3.08742
3.71665 0.0794027 3.09653
3.71387 0.080834 3.12554
3.70515 0.0833733 3.16157
3.70045 0.0849689 3.20159
3.69868 0.0864291 3.23258
3.69096 0.0879825 3.26962
3.6945 0.0930309 3.34053
3.66222 0.0964609 3.43574
3.65552 0.0990579 3.47575
3.61985 0.115643 3.78382
3.54175 0.13637 4.16716
3.52256 0.142968 4.27422
3.51113 0.147101 4.35025
3.51249 0.150796 4.39719
3.4968 0.152414 4.43829
3.48717 0.155147 4.48733
3.48338 0.156564 4.51534
3.48159 0.15898 4.54333
3.4797 0.159189 4.55734
3.47817 0.163107 4.6193
3.46225 0.163282 4.63042
3.46048 0.165742 4.6614
3.45871 0.167187 4.6914
3.44987 0.168505 4.71245
3.44696 0.169684 4.72445
3.44924 0.17223 4.7614
3.43636 0.172477 4.7775
3.42576 0.175269 4.83054
3.41997 0.177673 4.85756
3.42024 0.179206 4.89354
3.42138 0.180486 4.91251
3.42266 0.183033 4.94947
3.40271 0.183136 4.95562
3.41209 0.186884 5.0065
3.39416 0.187031 5.01563
3.40153 0.19075 5.06453
3.3846 0.190896 5.07366
3.39487 0.193421 5.10955
3.39011 0.194884 5.14057
3.37349 0.197636 5.19066
3.36366 0.198984 5.21371
3.36396 0.201561 5.25268
3.35428 0.204204 5.29572
3.35256 0.206753 5.3327
3.34578 0.208188 5.36173
3.33799 0.210608 5.38976
3.33324 0.2121 5.42278
3.32679 0.21717 5.49476
3.3158 0.217208 5.49684
3.30903 0.218657 5.52688
3.25586 0.243232 5.90097
3.24931 0.247125 5.96097
3.22303 0.252535 6.0551
3.22647 0.257406 6.11401
3.21975 0.259944 6.15003
3.20734 0.265107 6.22805
3.19474 0.267901 6.28111
3.18396 0.270338 6.31016
3.1803 0.273022 6.35616
3.17098 0.279346 6.44515
3.11634 0.300004 6.7573
3.08285 0.312974 6.95638
3.07419 0.316646 7.0014
3.04082 0.330853 7.21647
3.02911 0.333439 7.25553
3.02047 0.337156 7.30354
3.00777 0.339742 7.34261
3.00906 0.342304 7.38056
2.99941 0.345007 7.4276
2.98422 0.352587 7.53362
2.97459 0.356319 7.58264
2.96088 0.358906 7.62171
2.95128 0.362683 7.67374
2.94503 0.369153 7.7727
2.93236 0.372813 7.81675
2.92686 0.376794 7.88274
2.91727 0.380601 7.93677
2.90462 0.384306 7.98381
2.89098 0.387011 8.03088
2.86366 0.403317 8.25288
2.85003 0.406052 8.30195
2.83949 0.410948 8.36196
2.83202 0.41499 8.43197
2.81774 0.422421 8.52798
2.79058 0.430084 8.63908
2.76752 0.438936 8.76314
2.75499 0.442863 8.82519
2.75643 0.44772 8.88311
2.74392 0.451677 8.94716
2.72936 0.456561 9.0062
2.7189 0.461619 9.07722
2.70439 0.465592 9.14228
2.69191 0.470608 9.21031
2.67739 0.475565 9.27435
2.6623 0.484353 9.39435
2.65504 0.490794 9.49132
2.63335 0.493416 9.53245
2.62505 0.500799 9.62542
2.60649 0.504671 9.68351
2.59514 0.510952 9.76952
2.59049 0.514636 9.8155
2.58227 0.522167 9.91847
2.55963 0.524879 9.9656
2.54732 0.531235 10.0566
2.52983 0.536254 10.1247
2.49657 0.553668 10.3537
2.46279 0.565091 10.5158
4.17127 0.0200626 0.391613
4.15681 0.0211245 0.462716
3.69758 0.121174 3.21507
3.66622 0.133424 3.43316
3.65247 0.134923 3.46625
3.6345 0.142949 3.60228
3.62901 0.146945 3.66927
3.61225 0.148431 3.70138
3.61436 0.149637 3.71535
3.60284 0.153592 3.77939
3.58931 0.15652 3.84145
3.5884 0.157698 3.85344
3.59164 0.160155 3.88439
3.58275 0.160383 3.89945
3.57609 0.163054 3.94447
3.56923 0.164341 3.96351
3.5645 0.165862 3.99852
3.56168 0.16722 4.02253
3.55706 0.170963 4.07251
3.55223 0.172292 4.09453
3.54559 0.175008 4.14255
3.55074 0.1763 4.1625
3.54491 0.17763 4.18452
3.52481 0.185406 4.30358
3.50697 0.185745 4.32571
3.51226 0.189303 4.36362
3.49478 0.193323 4.4317
3.48502 0.194803 4.46376
3.48425 0.197248 4.49373
3.47463 0.20001 4.54477
3.47184 0.202412 4.57176
3.46804 0.203814 4.59877
3.47145 0.207611 4.6527
3.45148 0.207685 4.65685
3.45072 0.209159 4.68884
3.45402 0.212734 4.72776
3.44239 0.215468 4.77682
3.43052 0.216743 4.79489
3.43571 0.218109 4.81983
3.42586 0.219397 4.83889
3.42208 0.221829 4.86789
3.40845 0.224565 4.91696
3.40468 0.226026 4.94797
3.39727 0.232186 5.02594
3.38642 0.232476 5.04502
3.3867 0.236038 5.08297
3.3789 0.237428 5.10902
3.37412 0.238861 5.13803
3.37051 0.242619 5.18901
3.3549 0.2464 5.24108
3.35317 0.248934 5.27706
3.3396 0.252787 5.33412
3.33384 0.25425 5.36514
3.33158 0.261703 5.46306
3.25958 0.289617 5.85925
3.25587 0.292182 5.89724
3.25015 0.294734 5.93425
3.24137 0.296169 5.9633
3.23362 0.298663 5.99633
3.22892 0.301259 6.03633
3.22118 0.303768 6.07036
3.21934 0.30508 6.09135
3.2116 0.307604 6.12638
3.20792 0.311228 6.16836
3.19714 0.312665 6.19742
3.1894 0.315189 6.23245
3.17925 0.323839 6.34341
3.16644 0.325233 6.36949
3.16178 0.328888 6.41348
3.15509 0.3315 6.4545
3.15143 0.335183 6.50047
3.12994 0.339191 6.56759
3.12912 0.341547 6.59156
3.12245 0.344188 6.63458
3.11171 0.346714 6.66963
3.10708 0.350428 6.71761
3.09069 0.356639 6.79866
3.08224 0.361725 6.87165
3.07459 0.365397 6.91666
3.0562 0.370609 6.99774
3.02944 0.383056 7.16178
3.02078 0.386728 7.20679
2.97481 0.406729 7.47488
2.91737 0.431759 7.81199
2.91083 0.436666 7.87297
2.85818 0.460293 8.18306
2.70685 0.528428 9.06332
2.64084 0.559323 9.45841
4.07814 0.054664 1.03589
4.04925 0.0588616 1.18307
