-3.36049 1.68278 3.49518
-3.36256 1.68064 3.48623
-3.37365 1.67947 3.47432
1.9429 1.6738 4.32547
1.93186 1.67072 4.3196
1.92912 1.68222 4.35346
1.71965 1.67941 4.42509
1.7098 1.6857 4.44407
1.69484 1.6858 4.45018
1.67885 1.68383 4.45133
1.66389 1.68391 4.45644
1.64196 1.68508 4.46659
1.6059 1.67798 4.45897
1.59708 1.68533 4.48193
1.58007 1.68333 4.48109
1.56715 1.68549 4.49115
1.55814 1.68448 4.49024
1.52104 1.67533 4.47865
1.49727 1.68377 4.50771
1.4653 1.68186 4.51198
1.43928 1.67785 4.51023
1.42842 1.68412 4.52822
1.41448 1.68525 4.53631
1.37736 1.67604 4.52073
1.36754 1.6834 4.5447
1.35956 1.68344 4.54676
1.3415 1.67935 4.53995
1.3327 1.68774 4.5659
1.31156 1.67949 4.54818
1.2997 1.68475 4.56519
1.2827 1.68276 4.56535
1.2698 1.68696 4.57838
1.24762 1.67664 4.5557
1.24479 1.68396 4.57762
1.22877 1.68195 4.57577
1.19265 1.67375 4.56116
1.16894 1.68532 4.59817
1.15501 1.68746 4.60725
1.14084 1.67814 4.58549
1.12896 1.68339 4.6015
1.11298 1.68243 4.60364
1.098 1.68249 4.60675
1.06397 1.67845 4.60306
1.05416 1.68683 4.62802
1.04205 1.68062 4.6132
1.02502 1.67757 4.60937
1.01316 1.68384 4.62737
0.995077 1.67871 4.61758
0.982201 1.68395 4.6336
0.964123 1.67882 4.62381
0.939115 1.67682 4.62303
0.928293 1.68417 4.64601
0.909169 1.67795 4.63024
0.896308 1.68323 4.64826
0.880324 1.68327 4.65038
0.846223 1.6761 4.63774
0.823277 1.67822 4.64489
0.81144 1.68454 4.66589
0.790199 1.6721 4.63523
0.779463 1.68461 4.66913
0.76137 1.67844 4.65735
0.747455 1.68261 4.6684
0.721339 1.67541 4.6537
0.709587 1.68689 4.68562
0.693548 1.68383 4.68079
0.676517 1.68178 4.67694
0.643463 1.67771 4.67025
0.620455 1.67671 4.66944
0.606626 1.68404 4.69144
0.590626 1.68305 4.69157
0.573509 1.67685 4.67679
0.542579 1.679 4.686
0.518564 1.67799 4.68419
0.486502 1.67389 4.67649
0.47379 1.68745 4.71339
0.455572 1.67605 4.68569
0.441712 1.68233 4.70371
0.433774 1.68545 4.71172
0.401689 1.68031 4.70104
0.386813 1.68556 4.71708
0.354713 1.68039 4.70439
0.338698 1.67937 4.70253
0.322745 1.68147 4.70862
0.298745 1.68049 4.70881
0.2678 1.68262 4.71602
0.252878 1.68577 4.72608
0.236839 1.68371 4.72123
0.220902 1.68684 4.72931
0.212902 1.68685 4.72937
0.181895 1.68586 4.72862
0.165872 1.68482 4.72575
0.149818 1.68173 4.71892
0.11785 1.68381 4.72313
0.0948733 1.68387 4.7263
0.0628899 1.68493 4.72853
0.0276479 1.67053 4.56498
0.020633 1.6705 4.56304
0.00478095 1.67779 4.58205
-0.0103818 1.66949 4.56129
-0.0252646 1.67573 4.57631
-0.0403652 1.67055 4.5635
-0.0713411 1.67161 4.56671
-0.0793716 1.67056 4.56279
-0.0943016 1.6737 4.57186
-0.109348 1.67163 4.566
-0.124363 1.67061 4.56413
-0.140308 1.67372 4.5712
-0.171244 1.67786 4.57938
-0.178368 1.67163 4.56352
-0.239412 1.67059 4.55799
-0.255334 1.67475 4.56805
-0.270325 1.67577 4.56915
-0.285395 1.67265 4.56031
-0.294278 1.67788 4.5753
-0.324323 1.67681 4.56954
-0.339346 1.67578 4.56667
-0.353485 1.66952 4.54887
-0.372142 1.68719 4.59275
-0.386313 1.67887 4.57098
-0.393375 1.67576 4.56308
-0.408389 1.67574 4.56119
-0.423396 1.67574 4.5603
-0.438481 1.67258 4.54946
-0.455317 1.68091 4.57047
-0.471316 1.68192 4.57057
-0.486323 1.68191 4.56969
-0.493393 1.67879 4.56079
-0.507462 1.67566 4.55194
-0.523476 1.67565 4.55006
-0.538484 1.67564 4.54917
-0.554459 1.6777 4.55226
-0.569481 1.67766 4.54937
-0.584496 1.67765 4.54749
-0.591535 1.67558 4.54257
-0.607503 1.67765 4.54666
-0.622564 1.67554 4.5388
-0.636625 1.67343 4.53094
-0.65164 1.67341 4.52905
-0.667608 1.67548 4.53314
-0.685498 1.6827 4.54717
-0.693505 1.68269 4.54623
-0.707567 1.67959 4.53838
-0.721612 1.67851 4.53251
-0.739526 1.68368 4.54357
-0.752618 1.67952 4.53172
-0.769562 1.68363 4.53879
-0.78267 1.67943 4.52495
-0.788763 1.67526 4.51306
-0.806669 1.68045 4.52512
-0.821691 1.68042 4.52223
-0.836705 1.6804 4.52034
-0.853673 1.68347 4.52443
-0.864835 1.67617 4.50362
-0.880811 1.67822 4.50671
-0.896817 1.67922 4.50581
-0.905762 1.68233 4.51283
-0.9208 1.68227 4.50795
-0.933908 1.67707 4.49412
-0.950852 1.68119 4.50119
-0.965882 1.68114 4.4973
-0.980904 1.6811 4.49442
-0.991787 1.68733 4.50941
-1.00296 1.679 4.48661
-1.01896 1.68101 4.4867
-1.03397 1.68201 4.4858
-1.04804 1.67889 4.47695
-1.06498 1.684 4.484
-1.08 1.68397 4.48112
-1.08511 1.67878 4.46823
-1.09916 1.67769 4.46135
-1.11516 1.6787 4.46146
-1.12824 1.67655 4.45059
-1.15005 1.68692 4.4746
-1.1651 1.68584 4.46873
-1.17429 1.67748 4.44392
-1.19513 1.6878 4.46493
-1.20023 1.68361 4.45202
-1.21524 1.68359 4.45014
-1.22347 1.67417 4.42134
-1.24432 1.68245 4.43937
-1.25935 1.6824 4.43549
-1.2705 1.67613 4.41666
-1.28843 1.68128 4.42572
-1.29449 1.67916 4.4178
-1.31244 1.68328 4.42487
-1.3226 1.67698 4.40404
-1.33957 1.68003 4.40712
-1.35556 1.68206 4.40821
-1.37255 1.68409 4.40931
-1.38661 1.68298 4.40143
-1.39753 1.68715 4.41245
-1.40962 1.68498 4.40058
-1.41489 1.67247 4.36579
-1.43383 1.6776 4.37386
-1.45178 1.6817 4.37994
-1.46778 1.6827 4.37904
-1.48282 1.68263 4.37416
-1.48788 1.68052 4.36623
-1.50291 1.68047 4.36234
-1.51793 1.68144 4.35944
-1.53296 1.68239 4.35554
-1.55093 1.68546 4.35963
-1.56597 1.6854 4.35474
-1.58001 1.68432 4.34886
-1.58704 1.68428 4.34591
-1.60107 1.68422 4.34102
-1.61611 1.68415 4.33613
-1.63212 1.68613 4.33422
-1.64812 1.68815 4.33432
-1.66023 1.68395 4.32047
-1.67427 1.68388 4.31557
-1.68327 1.68589 4.31561
-1.70023 1.68896 4.31969
-1.71528 1.68888 4.31381
-1.76036 1.69075 4.30312
-2.18171 1.69038 4.12527
-2.20588 1.68707 4.1035
-2.23102 1.68481 4.08472
-2.25013 1.68262 4.0709
-2.27501 1.69184 4.08495
-2.28314 1.68759 4.06807
-2.29916 1.68958 4.06616
-2.30434 1.68223 4.04231
-2.32036 1.68519 4.03938
-2.32948 1.68098 4.02451
-2.33455 1.67885 4.01558
-2.35351 1.68392 4.01965
-2.36362 1.68072 4.00577
-2.37175 1.67648 3.98889
-2.40059 1.68879 4.00893
-2.4038 1.67939 3.98209
-2.41784 1.68032 3.97618
-2.42586 1.68129 3.97423
-2.44878 1.68846 3.98429
-2.46505 1.67995 3.94954
-2.47021 1.67464 3.92865
-2.49018 1.6787 3.93174
-2.49831 1.67446 3.91487
-2.50434 1.6744 3.91091
-2.53344 1.67623 3.8981
-2.55144 1.67924 3.89819
-2.55758 1.67397 3.87931
-2.58963 1.67789 3.8725
-2.59272 1.67573 3.86155
-2.61367 1.68081 3.86663
-2.6309 1.67538 3.83684
-2.65089 1.67941 3.83793
-2.65802 1.67518 3.82204
-2.67404 1.67713 3.81814
-2.72817 1.68292 3.80146
-2.76538 1.68153 3.77375
-2.85296 1.67546 3.69749
-3.11639 1.67681 3.50743
-3.1536 1.67742 3.4797
-3.17973 1.67819 3.46288
1.91686 1.66977 4.18771
1.90699 1.67402 4.20372
1.9073 1.68862 4.24451
1.89626 1.68554 4.23864
1.8772 1.68045 4.23186
1.8551 1.67228 4.21914
1.84727 1.67861 4.24111
1.82924 1.67556 4.23729
1.81427 1.67463 4.24142
1.79827 1.67266 4.24257
1.79539 1.67788 4.25751
1.78041 1.67694 4.26064
1.76442 1.67497 4.26179
1.74946 1.67505 4.2669
1.73447 1.67409 4.26903
1.71949 1.67315 4.27216
1.70761 1.67738 4.28719
1.66455 1.66931 4.28063
1.65877 1.67872 4.30854
1.62167 1.66956 4.29595
1.60978 1.67278 4.31
1.60587 1.67696 4.32196
1.58681 1.67185 4.31418
1.57081 1.66986 4.31433
1.55583 1.66892 4.31746
1.54086 1.66899 4.32157
1.52691 1.6701 4.32866
1.51911 1.67849 4.3546
1.48999 1.66928 4.33895
1.46311 1.67253 4.35511
1.44712 1.67156 4.35625
1.43315 1.67163 4.36035
1.42127 1.67586 4.37538
1.39726 1.67288 4.3756
1.36527 1.66992 4.37689
1.33531 1.66901 4.38213
1.32546 1.67531 4.40211
1.31541 1.67222 4.39523
1.30354 1.67648 4.41226
1.26945 1.67034 4.40161
1.24364 1.67671 4.42571
1.19174 1.67694 4.4391
1.15764 1.66878 4.42648
1.1427 1.67091 4.43456
1.13184 1.67618 4.45257
1.10574 1.67002 4.44085
1.07891 1.67537 4.46298
1.06081 1.66917 4.4492
1.05001 1.67757 4.47516
1.02287 1.66932 4.45749
0.981052 1.67571 4.48171
0.966075 1.67576 4.48482
0.934036 1.67171 4.48013
0.916997 1.66865 4.4753
0.912113 1.67387 4.49026
0.899214 1.67808 4.5033
0.887385 1.68541 4.52528
0.851175 1.67304 4.49873
0.79926 1.67424 4.51011
0.782174 1.66909 4.49931
0.767236 1.67122 4.50739
0.73729 1.67234 4.5146
0.721259 1.6693 4.51077
0.714298 1.67137 4.51579
0.685375 1.67354 4.52598
0.668306 1.66942 4.51717
0.655437 1.67468 4.53419
0.637321 1.66848 4.51941
0.623407 1.67265 4.53046
0.600383 1.66962 4.52768
0.586484 1.67482 4.54071
0.556523 1.67492 4.54593
0.524461 1.67082 4.53823
0.457656 1.67824 4.56363
0.425493 1.66896 4.54301
0.387525 1.67004 4.54728
0.303642 1.67332 4.56286
0.288603 1.67126 4.55801
0.27379 1.67963 4.582
0.257604 1.67028 4.55825
0.242597 1.67028 4.55737
0.211651 1.67241 4.56457
0.20359 1.66929 4.55667
0.173629 1.67039 4.56189
0.158645 1.67143 4.56398
0.142622 1.6704 4.56112
0.112716 1.6746 4.57328
0.0897472 1.67567 4.57744
0.0586319 1.67047 4.56275
0.0276797 1.67462 4.4359
0.0127812 1.67982 4.44894
-0.00230374 1.67567 4.43812
-0.0172952 1.67669 4.43921
-0.032264 1.67776 4.44331
-0.0472635 1.67777 4.44342
-0.0541774 1.68294 4.4544
-0.0693094 1.6757 4.43762
-0.0841998 1.68192 4.45164
-0.0993003 1.67674 4.43883
-0.114323 1.6757 4.43596
-0.128323 1.67571 4.43606
-0.144252 1.67986 4.44512
-0.151314 1.67675 4.43722
-0.166244 1.67989 4.44629
-0.181235 1.68091 4.44739
-0.196266 1.67987 4.44352
-0.211304 1.6778 4.43866
-0.22621 1.68299 4.4507
-0.241287 1.67985 4.44085
-0.248272 1.67989 4.44291
-0.263325 1.6778 4.43605
-0.2792 1.68504 4.45206
-0.293293 1.67988 4.44025
-0.309168 1.68713 4.45626
-0.322354 1.67778 4.43249
-0.339205 1.68607 4.4515
-0.345306 1.68089 4.43862
-0.360289 1.68293 4.44071
-0.374367 1.67879 4.43087
-0.390303 1.68292 4.43893
-0.405318 1.6829 4.43704
-0.419372 1.67981 4.43019
-0.435293 1.68497 4.44024
-0.442355 1.68185 4.43234
-0.457323 1.68392 4.43642
-0.472361 1.68286 4.43155
-0.488306 1.68597 4.43862
-0.50143 1.67975 4.42281
-0.518312 1.68698 4.43784
-0.531467 1.6797 4.41804
-0.539435 1.68176 4.42207
-0.554419 1.6828 4.42417
-0.568473 1.68071 4.4173
-0.584417 1.68482 4.42436
-0.599447 1.68377 4.42049
-0.627547 1.6796 4.40776
-0.644445 1.68581 4.4208
-0.650545 1.68162 4.40791
-0.664576 1.68057 4.40403
-0.68052 1.68469 4.41109
-0.69555 1.68364 4.40722
-0.708666 1.67843 4.39239
-0.726478 1.68879 4.41637
-0.731618 1.68253 4.3985
-0.749492 1.68978 4.41453
-0.762585 1.68561 4.40269
-0.779514 1.68976 4.41176
-0.790707 1.6814 4.38696
-0.807628 1.68656 4.39702
-0.821658 1.68551 4.39314
-0.827728 1.68238 4.38423
-0.845633 1.68857 4.39627
-0.857756 1.68334 4.38044
-0.872771 1.68332 4.37855
-0.888723 1.68742 4.38461
-0.902792 1.6843 4.37576
-0.917799 1.6853 4.37486
-0.934736 1.68943 4.38293
-0.939844 1.68422 4.36904
-0.953881 1.68416 4.36415
-0.967919 1.6831 4.35927
-0.984856 1.68723 4.36734
-0.999878 1.68719 4.36445
-1.01392 1.68713 4.35956
-1.03594 1.68709 4.35572
-1.06502 1.68596 4.34596
-1.08196 1.69009 4.35402
-1.096 1.68901 4.34815
-1.10811 1.68481 4.3343
-1.12311 1.68682 4.33438
-1.13111 1.68683 4.33444
-1.14611 1.68884 4.33452
-1.16018 1.6867 4.32466
-1.17519 1.6867 4.32377
-1.20522 1.68865 4.31897
-1.22022 1.68966 4.31907
-1.23934 1.68645 4.30426
-1.25534 1.68746 4.30436
-1.27133 1.68949 4.30545
-1.27953 1.68111 4.27963
-1.29942 1.68833 4.29368
-1.31053 1.68312 4.27884
-1.3195 1.68618 4.28286
-1.33645 1.69028 4.28893
-1.3505 1.6892 4.28305
-1.39263 1.68798 4.26638
-1.40862 1.69001 4.26747
-1.41563 1.68998 4.26553
-1.42774 1.68579 4.25168
-1.47181 1.68767 4.24198
-1.50184 1.68963 4.23818
-1.55 1.68736 4.21757
-2.24614 1.6906 3.93473
-2.25427 1.68635 3.91785
-2.27941 1.6841 3.90007
-2.29642 1.6871 3.89915
-2.31537 1.69219 3.90422
-2.31956 1.68484 3.88036
-2.32857 1.68583 3.87941
-2.34753 1.6909 3.88348
-2.3596 1.68978 3.87459
-2.36378 1.68244 3.85172
-2.37782 1.68336 3.84582
-2.38693 1.68016 3.83193
-2.40591 1.6852 3.834
-2.4149 1.68723 3.83504
-2.42302 1.68299 3.81916
-2.43806 1.68493 3.81424
-2.45408 1.6869 3.81133
-2.46023 1.68162 3.79246
-2.47723 1.68462 3.79154
-2.49423 1.68763 3.79162
-2.49346 1.67719 3.76177
-2.50741 1.6823 3.7688
-2.51947 1.68219 3.76089
-2.52759 1.67896 3.745
-2.54657 1.683 3.74708
-2.56061 1.68394 3.74217
-2.56577 1.67863 3.72129
-2.5808 1.67957 3.71638
-2.59177 1.68364 3.72041
-2.59693 1.67834 3.70052
-2.61295 1.68031 3.69761
-2.62402 1.67917 3.68771
-2.63412 1.67699 3.67482
-2.64717 1.67789 3.6679
-2.66419 1.67988 3.666
-2.66825 1.67876 3.65805
-2.67833 1.6776 3.64714
-2.69337 1.67853 3.64124
-2.75163 1.68007 3.60765
-2.78288 1.67658 3.57393
-2.81305 1.67628 3.55216
-2.87339 1.67566 3.50762
-2.93165 1.67718 3.47303
-2.95876 1.67998 3.45819
-2.97182 1.67987 3.45029
-2.98695 1.67863 3.43342
-3.00496 1.68161 3.43151
-3.01307 1.67941 3.4176
-3.02513 1.67929 3.40869
-3.0372 1.68016 3.39977
-3.04927 1.68004 3.39086
-3.06529 1.68299 3.38694
-3.0644 1.67878 3.37299
-3.07845 1.6797 3.36708
-3.0925 1.68061 3.36017
-3.10754 1.68253 3.35426
-3.12159 1.68444 3.34733
-3.12771 1.68122 3.33243
-3.14473 1.68519 3.3295
-3.14879 1.68307 3.32156
-3.15094 1.67778 3.30165
-3.16401 1.67866 3.29273
-3.17806 1.67956 3.28582
-3.18517 1.67736 3.27191
-3.19624 1.67722 3.26199
-3.20931 1.6781 3.25308
-3.21237 1.67698 3.24512
1.95364 1.67235 4.02537
1.9407 1.67248 4.03347
1.92877 1.67462 4.04253
1.92297 1.68299 4.06745
1.909 1.68206 4.07157
1.89607 1.68322 4.08165
1.88007 1.68123 4.0818
1.87004 1.67818 4.07792
1.85812 1.68034 4.08798
1.84415 1.6794 4.0921
1.82918 1.67848 4.09623
1.81929 1.68269 4.11024
1.8033 1.68173 4.11238
1.78933 1.6808 4.1165
1.77725 1.67566 4.10666
1.76534 1.67783 4.11772
1.7473 1.67377 4.11292
1.73437 1.67491 4.122
1.72449 1.67916 4.13801
1.70645 1.6751 4.13321
1.69045 1.67311 4.13336
1.67647 1.67216 4.13648
1.67561 1.67943 4.15438
1.6586 1.67641 4.15255
1.64361 1.67445 4.15469
1.63169 1.67761 4.16474
1.61467 1.67459 4.16291
1.59969 1.67263 4.16505
1.59476 1.67577 4.17405
1.57875 1.67378 4.1742
1.56275 1.67178 4.17335
1.55287 1.67602 4.18936
1.53585 1.67301 4.18753
1.5229 1.67411 4.19361
1.50794 1.67419 4.19873
1.50095 1.67422 4.20078
1.48699 1.67431 4.20588
1.47201 1.67335 4.20801
1.45804 1.67343 4.21312
1.44305 1.67246 4.21424
1.43115 1.67566 4.22729
1.41821 1.67779 4.23535
1.40612 1.67162 4.22354
1.3942 1.67479 4.23458
1.3782 1.67279 4.23373
1.36217 1.66976 4.23089
1.3513 1.67502 4.2479
1.33939 1.67819 4.25895
1.32131 1.67205 4.24917
1.31536 1.67415 4.25519
1.30037 1.67319 4.25731
1.28643 1.6743 4.2644
1.27143 1.67333 4.26553
1.25953 1.67653 4.27857
1.24146 1.67141 4.26978
1.22362 1.67772 4.28983
1.20451 1.67052 4.27608
1.19259 1.67368 4.28612
1.17966 1.67584 4.29619
1.16058 1.66969 4.28542
1.14867 1.67387 4.29745
1.13679 1.6781 4.31248
1.11971 1.67297 4.30268
1.11272 1.673 4.30474
1.09981 1.67618 4.31579
1.08171 1.67001 4.30401
1.06776 1.67111 4.3101
1.05382 1.67324 4.31818
1.03882 1.67225 4.31831
1.0228 1.67022 4.31546
1.01994 1.67649 4.33339
1.00291 1.67344 4.32956
0.986875 1.67039 4.32573
0.974999 1.67564 4.34174
0.959976 1.6736 4.33888
0.942929 1.67053 4.33306
0.931061 1.67579 4.35007
0.923029 1.67373 4.34616
0.906998 1.67069 4.34233
0.896176 1.67903 4.36529
0.878068 1.67284 4.35151
0.863059 1.67084 4.35066
0.853262 1.68123 4.37658
0.835137 1.67301 4.36084
0.829238 1.6782 4.3738
0.815253 1.67824 4.37591
0.797144 1.67105 4.36215
0.782136 1.67004 4.36128
0.769253 1.67528 4.3763
0.753198 1.67118 4.36948
0.740276 1.67434 4.37953
0.733322 1.67643 4.38555
0.717268 1.67334 4.37872
0.703314 1.67444 4.38481
0.688314 1.67345 4.38494
0.672276 1.67139 4.38009
0.658345 1.67353 4.38916
0.644376 1.6746 4.39325
0.636368 1.67359 4.39233
0.620299 1.66947 4.38351
0.607415 1.6747 4.39853
0.5914 1.67369 4.39667
0.576369 1.67164 4.39281
0.562454 1.67481 4.40387
0.547439 1.67379 4.402
0.540501 1.67692 4.41
0.525485 1.6749 4.40815
0.51047 1.67388 4.40627
0.495439 1.67183 4.40242
0.480478 1.67292 4.40752
0.46547 1.67191 4.40664
0.451556 1.67608 4.41769
0.43654 1.67407 4.41583
0.429556 1.6751 4.41787
0.414548 1.6741 4.417
0.399549 1.67411 4.41711
0.384603 1.67622 4.42419
0.370611 1.67625 4.4253
0.354557 1.67316 4.41846
0.340595 1.67424 4.42355
0.333658 1.67736 4.43156
0.317589 1.67424 4.42272
0.302573 1.67222 4.42087
0.288752 1.68157 4.44384
0.272612 1.67432 4.42606
0.258644 1.67539 4.43015
0.251706 1.67851 4.43816
0.236714 1.67854 4.43927
0.22166 1.67544 4.43243
0.206753 1.67963 4.44448
0.191652 1.67445 4.43167
0.17663 1.67342 4.4288
0.161591 1.67136 4.42394
0.153646 1.67446 4.43096
0.139638 1.67346 4.43008
0.12474 1.67866 4.44311
0.109717 1.67763 4.44024
0.0948183 1.68283 4.45328
0.0796475 1.67352 4.43153
0.0647797 1.67978 4.44855
0.0577799 1.67979 4.4486
0.0427107 1.67666 4.43976
0.023755 1.6758 4.3129
0.00877927 1.67785 4.31598
-0.00522033 1.67786 4.31609
-0.0132515 1.67581 4.31218
-0.027189 1.67894 4.32024
-0.0421653 1.67999 4.32334
-0.0561957 1.67894 4.31946
-0.0711952 1.67895 4.31957
-0.0861559 1.68104 4.32465
-0.100117 1.68312 4.32973
-0.107155 1.68105 4.32481
-0.122201 1.67898 4.31895
-0.137146 1.68209 4.32602
-0.151185 1.68003 4.32116
-0.165215 1.67898 4.31728
-0.180238 1.67794 4.3144
-0.194284 1.67587 4.30854
-0.201299 1.67484 4.30661
-0.218042 1.68834 4.33954
-0.231213 1.68003 4.31776
-0.246126 1.6852 4.3288
-0.260165 1.68314 4.32393
-0.275203 1.68207 4.31906
-0.28921 1.68207 4.31817
-0.30417 1.68415 4.32325
-0.311201 1.6831 4.31932
-0.325286 1.67895 4.30848
-0.341161 1.68619 4.3245
-0.35523 1.68307 4.31565
-0.370152 1.68723 4.3257
-0.384229 1.68309 4.31587
-0.391221 1.68411 4.3169
-0.406243 1.68308 4.31403
-0.420242 1.68409 4.31412
-0.436164 1.68825 4.32418
-0.450194 1.6882 4.32029
-0.46517 1.68925 4.32339
-0.486247 1.68612 4.31359
-0.50123 1.68816 4.31567
-0.515284 1.68607 4.30881
-0.530268 1.68711 4.31091
-0.544329 1.685 4.30304
-0.559313 1.68604 4.30514
-0.573327 1.68602 4.30325
-0.586396 1.6829 4.29439
-0.59252 1.67767 4.27851
-0.610317 1.68806 4.30449
-0.637448 1.68283 4.28777
-0.652408 1.68592 4.29284
-0.668352 1.69003 4.2999
-0.680499 1.68276 4.2811
-0.689406 1.68794 4.29309
-0.702521 1.68273 4.27826
-0.733441 1.6889 4.28841
-0.745557 1.68369 4.27357
-0.758665 1.67949 4.25973
-0.77557 1.68568 4.27177
-0.781593 1.68464 4.26883
-0.796585 1.68567 4.26993
-0.81063 1.68459 4.26405
-0.838683 1.68351 4.25728
-0.85465 1.68658 4.26135
-0.868665 1.68656 4.25946
-0.874734 1.68343 4.25055
-0.890702 1.6865 4.25462
-0.90474 1.68543 4.24974
-0.918754 1.68542 4.24785
-0.934722 1.68849 4.25192
-0.961828 1.6853 4.23817
-0.97175 1.69045 4.24817
-0.985764 1.69043 4.24628
-0.996895 1.68519 4.22944
-1.01189 1.6862 4.22954
-1.02689 1.68721 4.22963
-1.04092 1.68718 4.22674
-1.05593 1.68816 4.22484
-1.06294 1.68815 4.22389
-1.07892 1.69019 4.22598
-1.10602 1.68802 4.21322
-1.11907 1.68692 4.20633
-1.14519 1.68271 4.19059
-1.15608 1.68992 4.20456
-1.16721 1.68469 4.18872
-1.19917 1.68979 4.19389
-1.21221 1.68871 4.188
-1.22721 1.68972 4.1881
-1.24027 1.68861 4.18021
-1.25432 1.68753 4.17434
-1.26328 1.6896 4.17837
-1.27438 1.68643 4.1665
-1.3155 1.68522 4.15083
-1.34455 1.68614 4.14403
-1.35252 1.68821 4.14806
-1.42463 1.69102 4.13256
-1.48484 1.68765 4.10506
-2.16182 1.6932 3.84404
-2.16785 1.69315 3.84009
-2.19199 1.6909 3.8223
-2.20602 1.69285 3.81838
-2.23114 1.69163 3.80258
-2.24617 1.69258 3.79868
-2.24924 1.68944 3.78875
-2.25933 1.68727 3.77686
-2.27929 1.69337 3.78292
-2.28642 1.68912 3.76603
-2.29256 1.68385 3.74715
-2.31153 1.68892 3.75122
-2.31866 1.68367 3.73435
-2.33061 1.68877 3.74037
-2.33774 1.68353 3.7235
-2.36166 1.69169 3.73356
-2.36482 1.68538 3.71267
-2.37097 1.68011 3.69379
-2.38008 1.67691 3.67991
-2.39696 1.68512 3.69391
-2.4031 1.67988 3.67704
-2.42505 1.68698 3.6831
-2.4292 1.68069 3.66322
-2.4472 1.6847 3.66329
-2.45333 1.67946 3.64642
-2.46934 1.68244 3.64449
-2.47242 1.67929 3.63456
-2.48546 1.68021 3.62864
-2.49358 1.677 3.61375
-2.53075 1.67668 3.59103
-2.54775 1.68068 3.5901
-2.58088 1.68145 3.57334
-2.58601 1.6772 3.55644
-2.61192 1.68639 3.5675
-2.61805 1.68214 3.5506
-2.62517 1.67791 3.53472
-2.64218 1.6819 3.53379
-2.64029 1.67668 3.51885
-2.6583 1.68068 3.51792
-2.6664 1.67749 3.50503
-2.67747 1.67735 3.49511
-2.72977 1.6758 3.45553
-2.74976 1.68084 3.4576
-2.7638 1.68276 3.45168
-2.77802 1.67634 3.42288
-2.79711 1.67618 3.41102
-2.81511 1.68119 3.41108
-2.82816 1.6821 3.40417
-2.84023 1.68197 3.39526
-2.8784 1.68366 3.37252
-2.8765 1.67847 3.35958
-2.90441 1.68965 3.37062
-2.90162 1.68025 3.34374
-2.91566 1.68117 3.33783
-2.92872 1.68206 3.32991
-2.93683 1.67986 3.31601
-2.9469 1.67872 3.3061
-2.97391 1.68571 3.3042
-2.98598 1.68558 3.29529
-2.99012 1.68032 3.2774
-2.9992 1.68017 3.26646
-3.01325 1.68107 3.25956
-3.02334 1.67992 3.24865
-3.02937 1.67986 3.24469
-3.04738 1.68484 3.24276
-3.04952 1.67957 3.22385
-3.0606 1.67943 3.21393
-3.07663 1.68138 3.21002
-3.09762 1.68741 3.21109
-3.10175 1.68314 3.19318
-3.10886 1.68094 3.17927
-3.12679 1.68809 3.1883
-3.12993 1.68382 3.17038
-3.14398 1.68473 3.16347
-3.15108 1.68253 3.14956
-3.16017 1.68137 3.13864
-3.18331 1.68211 3.1198
-3.18339 1.67895 3.10885
-3.19248 1.67779 3.09793
-3.21248 1.68279 3.09701
-3.21562 1.67852 3.07909
-3.22569 1.67838 3.06917
-3.24074 1.68031 3.06325
1.98349 1.67106 3.87214
1.98172 1.68149 3.90101
1.96878 1.68262 3.90909
1.95991 1.68688 3.9261
1.94594 1.68695 3.9302
1.93794 1.68495 3.93029
1.92193 1.68195 3.92946
1.91204 1.68616 3.94347
1.89399 1.68109 3.93768
1.88715 1.6874 3.95864
1.87013 1.68439 3.95681
1.86315 1.68442 3.95887
1.85123 1.68558 3.96894
1.83217 1.68049 3.96216
1.82431 1.68576 3.98014
1.81036 1.68586 3.98625
1.79943 1.68801 3.9963
1.7763 1.67878 3.97961
1.77236 1.6809 3.98761
1.7475 1.68419 4.00575
1.73454 1.68428 4.01184
1.71955 1.68231 4.01299
1.70661 1.68342 4.02007
1.69571 1.68662 4.0331
1.68974 1.68769 4.03713
1.67272 1.68467 4.03531
1.6618 1.68684 4.04636
1.63966 1.67759 4.02866
1.62774 1.67975 4.03872
1.61786 1.68399 4.05473
1.60493 1.68612 4.0628
1.59692 1.68411 4.06189
1.58397 1.68522 4.06897
1.57307 1.68942 4.08199
1.55502 1.68333 4.07522
1.54308 1.68546 4.08328
1.53013 1.68657 4.09036
1.51208 1.6815 4.08457
1.5051 1.68153 4.08662
1.49112 1.68159 4.08973
1.47817 1.68169 4.09583
1.4683 1.68694 4.11282
1.45229 1.68494 4.11197
1.44038 1.68813 4.12402
1.42537 1.68612 4.12316
1.40217 1.67376 4.09752
1.39829 1.67898 4.11247
1.38842 1.68424 4.12947
1.3734 1.68222 4.12761
1.35944 1.68231 4.13272
1.3465 1.68342 4.1398
1.3274 1.67626 4.12805
1.31343 1.67632 4.13215
1.3126 1.68465 4.15404
1.29453 1.67952 4.14425
1.2785 1.67648 4.14141
1.26452 1.67654 4.14452
1.24953 1.67456 4.14566
1.23763 1.67876 4.15869
1.22572 1.68194 4.16973
1.20167 1.67687 4.16399
1.1877 1.67693 4.16809
1.17373 1.677 4.1722
1.15977 1.67809 4.17729
1.14889 1.68333 4.1933
1.12874 1.67405 4.17358
1.12689 1.68135 4.19349
1.1119 1.68037 4.19462
1.09381 1.67421 4.18284
1.08191 1.67843 4.19687
1.06998 1.68055 4.20493
1.05291 1.67543 4.19614
1.03997 1.67758 4.2052
1.03198 1.6776 4.20626
1.01801 1.67765 4.20937
0.989029 1.67672 4.2126
0.972966 1.67261 4.20478
0.961098 1.67787 4.2218
0.944012 1.67272 4.211
0.939075 1.67584 4.21899
0.927214 1.68112 4.237
0.913237 1.68117 4.24011
0.896167 1.67705 4.2313
0.883221 1.67816 4.23838
0.867182 1.6761 4.23353
0.851135 1.67202 4.22771
0.845182 1.67412 4.23373
0.83122 1.6752 4.23882
0.818298 1.67836 4.24887
0.80536 1.68049 4.25693
0.786173 1.67015 4.23323
0.774282 1.67436 4.24726
0.761398 1.67959 4.26228
0.747413 1.67963 4.26438
0.739367 1.67655 4.25849
0.725398 1.67762 4.26258
0.709359 1.67456 4.25775
0.696429 1.6777 4.2668
0.683514 1.68187 4.27783
0.66746 1.67778 4.27102
0.647553 1.68197 4.2831
0.632545 1.67997 4.28225
0.616444 1.67379 4.26946
0.602545 1.67899 4.28249
0.588553 1.67901 4.28359
0.574599 1.68011 4.28968
0.566514 1.67596 4.2788
0.551545 1.67703 4.2829
0.537529 1.67501 4.28104
0.52363 1.67921 4.29408
0.508584 1.67713 4.28822
0.494592 1.67716 4.28933
0.480662 1.6793 4.2984
0.472608 1.6772 4.29149
0.457592 1.67518 4.28964
0.443631 1.67727 4.29471
0.428585 1.67419 4.28887
0.414678 1.67838 4.30092
0.399601 1.67424 4.29109
0.385623 1.6743 4.29419
0.378631 1.67432 4.29525
0.364772 1.68159 4.31324
0.349663 1.6754 4.29945
0.33464 1.67436 4.29658
0.320764 1.67961 4.31261
0.306757 1.6796 4.31171
0.291671 1.67445 4.3009
0.277882 1.68586 4.32784
0.269656 1.67344 4.29908
0.254664 1.67347 4.30019
0.241867 1.68386 4.32614
0.226844 1.68283 4.32327
0.21179 1.67973 4.31643
0.197798 1.67976 4.31753
0.182712 1.67461 4.30672
0.175875 1.68292 4.32765
0.160752 1.6767 4.31185
0.146698 1.6736 4.30501
0.131768 1.67775 4.31406
0.117799 1.67882 4.31815
0.102761 1.67675 4.31329
0.0888309 1.6799 4.32235
0.0817226 1.67469 4.30848
0.0668391 1.67993 4.32352
0.0527385 1.67475 4.3107
0.0378399 1.67995 4.32373
-2.12689 1.69307 3.70176
-2.15802 1.69285 3.685
-2.18411 1.69369 3.67318
-2.19221 1.6905 3.66029
-2.20822 1.69248 3.65838
-2.20931 1.68831 3.64645
-2.22138 1.68718 3.63755
-2.23738 1.69019 3.63763
-2.24549 1.68699 3.62373
-2.25656 1.68585 3.61383
-2.27552 1.69194 3.61889
-2.28561 1.68977 3.60699
-2.29175 1.68351 3.58913
-2.30073 1.68656 3.59215
-2.31477 1.68748 3.58624
-2.3209 1.68323 3.56935
-2.33691 1.68623 3.56843
-2.34797 1.6851 3.55953
-2.36003 1.68499 3.55162
-2.37307 1.68593 3.5467
-2.38207 1.68794 3.54674
-2.38325 1.67958 3.52287
-2.40321 1.68567 3.52793
-2.41231 1.68248 3.51504
-2.42042 1.67928 3.50115
-2.4384 1.68433 3.50321
-2.45244 1.68526 3.4983
-2.45945 1.68624 3.49634
-2.46361 1.67994 3.47646
-2.47863 1.68191 3.47355
-2.4887 1.68177 3.46362
-2.50768 1.68683 3.46669
-2.51381 1.68158 3.44981
-2.51993 1.67835 3.4339
-2.53287 1.68346 3.44093
-2.54592 1.68437 3.43401
-2.56095 1.68633 3.43109
-2.56411 1.68003 3.41021
-2.57617 1.67992 3.4023
-2.58426 1.67774 3.39039
-2.60621 1.68485 3.39645
-2.60334 1.6776 3.37954
-2.61836 1.68056 3.37661
-2.63437 1.68354 3.37468
-2.64743 1.68445 3.36777
-2.65256 1.6802 3.35086
-2.66362 1.68008 3.34195
-2.67369 1.67895 3.33304
-2.68567 1.683 3.33607
-2.6997 1.68495 3.33215
-2.70483 1.67969 3.31426
-2.71887 1.68163 3.30934
-2.73191 1.68255 3.30342
-2.74298 1.68242 3.29451
-2.75999 1.68642 3.29357
-2.75315 1.67811 3.27264
-2.77115 1.68212 3.27272
-2.78617 1.68507 3.26879
-2.78932 1.67879 3.2499
-2.80732 1.6838 3.24996
-2.81938 1.68469 3.24204
-2.82252 1.67842 3.22315
-2.84449 1.68549 3.22722
-2.84952 1.68543 3.22325
-2.85861 1.68426 3.21134
-2.86472 1.68105 3.19643
-2.8748 1.67991 3.18652
-2.88289 1.67773 3.17461
-2.90089 1.68273 3.17367
-2.91295 1.68362 3.16575
-2.918 1.68254 3.1598
-2.93104 1.68346 3.15389
-2.94806 1.68742 3.15096
-2.95021 1.68215 3.13205
-2.96128 1.68202 3.12313
-2.97928 1.68602 3.12221
-2.98639 1.68382 3.10829
-2.98547 1.67965 3.09735
-3.00546 1.68568 3.09841
-3.0086 1.68142 3.08049
-3.02364 1.68335 3.07558
-3.04263 1.68837 3.07564
-3.04875 1.68515 3.06074
-3.05981 1.68604 3.05281
-3.07179 1.69008 3.05484
-3.07691 1.68684 3.03892
-3.08103 1.68261 3.02301
-3.09408 1.68452 3.01608
-3.10119 1.68132 3.00218
-3.10929 1.68013 2.98926
-3.12432 1.68308 2.98533
-3.13546 1.68081 2.96644
-3.1515 1.68374 2.96152
-3.15462 1.67951 2.9456
-3.16866 1.68143 2.93968
-3.18668 1.68641 2.93774
-3.19874 1.68629 2.92883
-3.19187 1.68003 2.91187
-3.21485 1.68709 2.91494
-3.21302 1.67977 2.89303
-3.22508 1.68064 2.88411
-3.23615 1.68152 2.87518
2.03317 1.67142 3.69574
2.02629 1.67666 3.71172
2.02044 1.68294 3.73067
2.02259 1.69024 3.75055
1.83816 1.68748 3.82699
1.82622 1.68861 3.83506
1.79319 1.68158 3.83142
1.7744 1.69 3.85944
1.76538 1.68797 3.85654
1.75139 1.68601 3.85867
1.74049 1.68921 3.87171
1.72651 1.68825 3.87383
1.7006 1.68844 3.88602
1.68867 1.69058 3.89508
1.65271 1.6877 3.90139
1.62679 1.68787 3.91159
1.6118 1.68589 3.91273
1.58486 1.68603 3.92093
1.58094 1.68918 3.93092
1.54991 1.68316 3.92824
1.54104 1.68942 3.94522
1.49911 1.68658 3.95458
1.46315 1.6847 3.96088
1.45225 1.68788 3.97291
1.43622 1.68485 3.97008
1.4253 1.68701 3.98013
1.40229 1.68401 3.97935
1.39344 1.6903 3.99832
1.36343 1.6873 3.99759
1.33854 1.68953 4.01175
1.32148 1.68444 4.00495
1.31244 1.68137 4.00007
1.28756 1.68461 4.01521
1.27664 1.68778 4.02624
1.2337 1.68592 4.0336
1.21066 1.68187 4.02983
1.17387 1.6893 4.057
1.15885 1.68627 4.05416
1.14592 1.68841 4.06322
1.13583 1.68325 4.05238
1.12596 1.6885 4.06837
1.10785 1.68232 4.0556
1.09595 1.6855 4.06764
1.07107 1.68976 4.08377
1.05297 1.68258 4.07101
1.05009 1.68882 4.08694
1.00918 1.69001 4.09824
0.966209 1.6881 4.10259
0.931262 1.68823 4.10985
0.874292 1.68533 4.11432
-1.28528 1.68968 3.9125
-1.35339 1.69252 3.89897
-1.36642 1.69245 3.89407
-1.38647 1.69238 3.88822
-1.39852 1.69128 3.88133
-1.9682 1.69337 3.66056
-1.99538 1.69003 3.63681
-2.03448 1.69185 3.62307
-2.06068 1.68649 3.59735
-2.10274 1.69238 3.58857
-2.11579 1.6923 3.58267
-2.12686 1.69118 3.57377
-2.13486 1.69219 3.57382
-2.14789 1.69312 3.5689
-2.15698 1.69095 3.557
-2.15719 1.68055 3.53015
-2.17714 1.68665 3.53621
-2.1961 1.69274 3.54127
-2.19829 1.68439 3.5174
-2.21022 1.68951 3.52542
-2.22129 1.68839 3.51652
-2.22841 1.68517 3.50162
-2.24244 1.68612 3.49771
-2.2535 1.685 3.48881
-2.25864 1.67974 3.47092
-2.27761 1.68481 3.47499
-2.27969 1.68166 3.46505
-2.29273 1.68258 3.45913
-2.30477 1.6835 3.45321
-2.31485 1.68136 3.44332
-2.34292 1.68425 3.43448
-2.35199 1.68311 3.42457
-2.35703 1.68204 3.41962
-2.36613 1.67985 3.40672
-2.37817 1.68079 3.4018
-2.39931 1.67852 3.38299
-2.41235 1.67944 3.37707
-2.4244 1.68036 3.37115
-2.42548 1.6762 3.36021
-2.44051 1.67815 3.3563
-2.45156 1.67806 3.34938
-2.4656 1.67999 3.34446
-2.47864 1.68093 3.33954
-2.49366 1.68289 3.33663
-2.49978 1.67966 3.32072
-2.51479 1.68264 3.31879
-2.51885 1.68054 3.31185
-2.53188 1.68248 3.30692
-2.53997 1.67931 3.29502
-2.56309 1.67909 3.2792
-2.57416 1.67896 3.27028
-2.58522 1.67885 3.26237
-2.59916 1.68498 3.27038
-2.59835 1.67661 3.24549
-2.61337 1.67857 3.24258
-2.64656 1.67823 3.21783
-2.65763 1.6781 3.20891
-2.66068 1.677 3.20195
-2.67273 1.67791 3.19503
-2.68776 1.67986 3.19111
-2.70592 1.67756 3.17028
-2.73506 1.6783 3.15149
-2.74415 1.67713 3.13957
-2.80342 1.67964 3.10398
2.05631 1.67871 3.58144
2.04539 1.68087 3.59149
2.04257 1.68922 3.6154
1.83733 1.69085 3.71693
1.77253 1.69029 3.74343
1.75957 1.69037 3.74853
1.72768 1.6906 3.76277
1.68674 1.68776 3.77212
1.65381 1.68692 3.78138
1.63094 1.69019 3.79851
1.61799 1.6903 3.8056
1.60196 1.68726 3.80177
1.58303 1.6874 3.81091
1.54413 1.68762 3.8242
1.53321 1.68978 3.83425
1.51925 1.68986 3.83936
1.50628 1.68993 3.84346
1.48632 1.68904 3.84962
1.44742 1.68926 3.86291
1.43241 1.68725 3.86206
1.41246 1.68737 3.8692
1.40154 1.68953 3.87926
1.38857 1.6896 3.88335
1.37459 1.68864 3.88547
1.36061 1.68869 3.88858
1.33469 1.68886 3.89877
1.3287 1.68889 3.90082
1.31268 1.68586 3.89798
1.30073 1.68797 3.90504
1.24888 1.6893 3.92542
1.23078 1.68213 3.91266
1.22792 1.68938 3.92957
1.19991 1.6864 3.92983
1.18798 1.68854 3.93889
1.14705 1.6877 3.94821
1.14211 1.68981 3.95522
1.12812 1.68985 3.95732
1.11516 1.68994 3.96242
1.10117 1.68996 3.96353
1.0882 1.69003 3.96762
1.07317 1.68698 3.96378
-1.15085 1.68048 3.83761
-1.16388 1.68043 3.83371
-1.17788 1.68144 3.8338
-1.19091 1.68139 3.8299
-1.20394 1.68134 3.826
-1.21504 1.67716 3.81314
-1.223 1.68124 3.81814
-1.23701 1.68122 3.81625
-1.25003 1.6822 3.81433
-1.26207 1.68112 3.80844
-1.27413 1.68003 3.80154
-1.29204 1.6872 3.81257
-1.30507 1.68715 3.80867
-1.31029 1.67573 3.77988
-1.31631 1.6757 3.77792
-1.33128 1.67876 3.78099
-1.34724 1.68284 3.78605
-1.35735 1.67864 3.77219
-1.37429 1.68377 3.78024
-1.38341 1.67854 3.76438
-1.39936 1.68364 3.77043
-1.40635 1.68466 3.77147
-1.41645 1.68048 3.7586
-1.42851 1.67937 3.75071
-1.44348 1.68344 3.75476
-1.45848 1.68545 3.75485
-1.46661 1.6802 3.73798
-1.48258 1.68327 3.74206
-1.48762 1.6822 3.73711
-1.50261 1.68421 3.7372
-1.51074 1.67897 3.72033
-1.52475 1.67996 3.71942
-1.53777 1.68093 3.71651
-1.55472 1.68704 3.72354
-1.55782 1.68185 3.71064
-1.5728 1.68489 3.71271
-1.58584 1.68483 3.70781
-1.60377 1.69096 3.71585
-1.61483 1.68985 3.70795
-1.6259 1.68773 3.69907
-1.63794 1.68766 3.69416
-1.64496 1.68762 3.69121
-1.69806 1.69147 3.67855
-1.92586 1.68903 3.57229
-1.93398 1.68482 3.55741
-1.95193 1.69092 3.56346
-1.96595 1.69188 3.56055
-1.97209 1.68662 3.54267
-1.98107 1.68866 3.54471
-1.9882 1.68443 3.52882
-2.00025 1.68433 3.52191
-2.01425 1.68633 3.52099
-2.02433 1.68419 3.5111
-2.03737 1.68512 3.50618
-2.04743 1.684 3.49727
-2.05445 1.68397 3.49532
-2.06847 1.68594 3.4924
-2.08151 1.68687 3.48748
-2.08369 1.67853 3.46462
-2.10166 1.68359 3.46768
-2.11174 1.68145 3.45779
-2.12377 1.68239 3.45286
-2.12586 1.67821 3.44094
-2.13889 1.67918 3.43802
-2.15094 1.67908 3.43111
-2.16003 1.67691 3.41921
-2.17009 1.6758 3.4113
-2.18214 1.6757 3.40439
-2.1942 1.67561 3.39749
-2.20317 1.67866 3.40051
-2.21621 1.67959 3.39559
-2.22331 1.67639 3.38169
-2.26045 1.67815 3.36394
-2.32375 1.67761 3.32442
-2.36393 1.67727 3.29973
-2.44737 1.67647 3.24236
2.07936 1.67283 3.45534
2.06842 1.67396 3.46341
2.07564 1.68536 3.49119
2.06571 1.68752 3.50123
2.05884 1.69176 3.51722
2.03493 1.69196 3.5294
1.99705 1.69122 3.5457
1.96312 1.68838 3.555
1.95116 1.68848 3.56109
1.93819 1.68755 3.5652
1.92828 1.68972 3.57624
1.9143 1.68877 3.57936
1.90629 1.68676 3.57845
1.86943 1.68705 3.59673
1.85442 1.68405 3.59589
1.84043 1.68309 3.59801
1.8295 1.68423 3.60707
1.82252 1.68327 3.60914
1.80955 1.68334 3.61324
1.80572 1.69066 3.63516
1.78868 1.6866 3.63035
1.77775 1.68774 3.63942
1.76376 1.68678 3.64154
1.75386 1.68998 3.65456
1.74584 1.68694 3.65167
1.72983 1.68394 3.65084
1.71583 1.68195 3.65097
1.70795 1.68719 3.66695
1.69907 1.69142 3.68196
1.68405 1.6884 3.68012
1.66511 1.68854 3.68826
1.65009 1.68552 3.68642
1.63815 1.68663 3.69349
1.6262 1.68774 3.70057
1.61222 1.68578 3.7027
1.59517 1.68071 3.6969
1.58029 1.68495 3.71296
1.56529 1.68296 3.7131
1.55334 1.68406 3.71917
1.53935 1.6821 3.72131
1.5274 1.6832 3.72738
1.51545 1.68431 3.73446
1.50452 1.68645 3.74351
1.49957 1.68855 3.74952
1.48457 1.68556 3.74967
1.47057 1.68458 3.75079
1.44259 1.68163 3.75305
1.4296 1.68067 3.75516
1.41666 1.68178 3.76224
1.40367 1.68082 3.76435
1.39974 1.68396 3.77334
1.38676 1.68301 3.77645
1.37482 1.68514 3.78451
1.36186 1.68521 3.78861
1.34685 1.68221 3.78777
1.33488 1.68227 3.79185
1.32192 1.68337 3.79794
1.31287 1.67927 3.79106
1.30195 1.68245 3.8021
1.29102 1.68559 3.81114
1.27805 1.68565 3.81524
1.26406 1.68368 3.81637
1.2511 1.68476 3.82145
1.24308 1.68272 3.81854
1.23011 1.68279 3.82264
1.2202 1.68698 3.83465
-1.31279 1.68873 3.71269
-1.31996 1.68041 3.69087
-1.33395 1.68244 3.69194
-1.34893 1.68649 3.695
-1.35608 1.6782 3.67517
-1.36798 1.6864 3.68814
-1.3761 1.68017 3.67229
-1.39205 1.68527 3.67834
-1.40411 1.68316 3.67046
-1.4191 1.6862 3.67253
-1.43113 1.68614 3.66762
-1.44415 1.68712 3.6657
-1.44821 1.685 3.65776
-1.46025 1.68392 3.65187
-1.4772 1.69004 3.65891
-1.48435 1.68175 3.63908
-1.5013 1.68786 3.64612
-1.51137 1.68572 3.63622
-1.52732 1.68982 3.64229
-1.5335 1.6815 3.62045
-1.5454 1.68969 3.63242
-1.55548 1.68553 3.62156
-1.57144 1.69062 3.6266
-1.58154 1.68745 3.61472
-1.59555 1.68943 3.6128
-1.60757 1.68939 3.60989
-1.62355 1.69343 3.61195
-1.62467 1.68721 3.59705
-1.64063 1.6923 3.6021
-1.64874 1.68708 3.58723
-1.91653 1.69371 3.48314
-1.94368 1.69143 3.46337
-1.96974 1.69333 3.45554
-1.97981 1.69121 3.44665
-1.99305 1.68174 3.41488
-2.01495 1.69095 3.42791
-2.02513 1.68462 3.40508
-2.04111 1.68866 3.40714
-2.05612 1.69064 3.40522
-2.05731 1.68229 3.38135
-2.08218 1.69354 3.39738
-2.27913 1.68882 3.27291
-2.28228 1.68252 3.25303
-2.30321 1.69066 3.26107
-2.56379 1.67875 3.05418
-2.58376 1.68581 3.05722
-2.60571 1.69292 3.06328
-2.65398 1.69342 3.02764
-2.69135 1.68672 2.97901
-2.70142 1.68659 2.97009
-2.70753 1.68339 2.95618
-2.71858 1.6843 2.94925
3.81592 1.68519 1.66083
2.09551 1.67314 3.3422
2.07678 1.68368 3.37719
2.07497 1.69203 3.40108
1.74503 1.68536 3.54468
1.73409 1.68649 3.55275
1.71399 1.67831 3.54002
1.70306 1.67945 3.54909
1.69911 1.68256 3.55607
1.69124 1.6868 3.57207
1.67214 1.67864 3.56034
1.66018 1.67872 3.56542
1.64721 1.67879 3.56952
1.6383 1.68197 3.58154
1.61936 1.68209 3.58869
1.60128 1.67496 3.57893
1.59137 1.67814 3.59096
1.58451 1.68441 3.60892
1.5654 1.67522 3.5952
1.55651 1.67943 3.6092
1.53742 1.67228 3.59845
1.53347 1.67539 3.60543
1.52253 1.6755 3.61252
1.50955 1.67556 3.61561
1.49556 1.67358 3.61675
1.48769 1.67984 3.63372
1.47166 1.67579 3.6299
1.46378 1.68103 3.64588
1.4537 1.67589 3.63603
1.43287 1.68122 3.65711
1.41478 1.67407 3.64635
1.40997 1.68444 3.67124
1.38882 1.67316 3.65156
1.383 1.68152 3.67549
1.36387 1.67228 3.65877
1.35995 1.67645 3.66973
1.34697 1.67549 3.67185
1.3391 1.68074 3.68883
1.32305 1.67665 3.68201
1.30905 1.67468 3.68315
1.2971 1.67578 3.68922
1.29317 1.67891 3.69821
1.27813 1.67485 3.69338
1.2672 1.67699 3.70243
1.25013 1.67187 3.69363
1.22827 1.67717 3.71272
1.22247 1.68654 3.73763
-2.02703 1.69283 3.28396
-2.04815 1.69262 3.26912
-2.07933 1.68929 3.2454
-2.08633 1.69129 3.24542
-2.10133 1.69429 3.24449
-2.10647 1.68803 3.22662
-2.11948 1.69101 3.22467
-2.1325 1.69197 3.22175
-2.14258 1.69083 3.21185
-2.1487 1.68661 3.19695
-2.16162 1.69275 3.20596
-2.16576 1.68651 3.18908
-2.17878 1.68846 3.18515
-2.1928 1.69144 3.18321
-2.19891 1.68622 3.16833
-2.20996 1.68612 3.16142
-2.22605 1.68597 3.15054
-2.23216 1.68177 3.13664
-2.49357 1.67916 2.94963
-2.50363 1.67905 2.9417
-2.5287 1.68192 2.93185
-2.53481 1.67872 2.91794
-2.54982 1.68271 2.91699
-2.55889 1.68157 2.90708
-2.56195 1.67947 2.90013
-2.58305 1.68028 2.88628
-2.60715 1.6821 2.87343
-2.61324 1.67993 2.86151
-2.62528 1.68185 2.85557
-2.62932 1.68078 2.85061
-2.6364 1.67862 2.8397
-2.64745 1.67953 2.83276
-2.6605 1.68145 2.82683
-2.67863 1.68019 2.80899
-2.6887 1.68007 2.80006
-2.70676 1.68196 2.79217
-2.83062 1.68036 2.67911
-2.84975 1.68011 2.66126
-2.87979 1.68804 2.65536
-2.89701 1.68363 2.62656
-2.9262 1.68426 2.60076
-2.94136 1.68296 2.57989
-2.94945 1.68181 2.56897
-2.96156 1.68059 2.55408
-2.97559 1.68354 2.55014
-2.98069 1.68136 2.53721
-2.99075 1.68223 2.52827
-3.00777 1.68621 2.52634
-3.00988 1.68199 2.51141
-3.01492 1.68192 2.50645
-3.02498 1.68281 2.49851
-3.03008 1.68061 2.48458
-3.04213 1.68253 2.47864
-3.05914 1.68751 2.4767
-3.06126 1.68327 2.46078
-3.06834 1.68213 2.45084
-3.07933 1.68615 2.45187
-3.08145 1.68192 2.43594
-3.08754 1.68075 2.42401
-3.10853 1.68777 2.42506
-3.13475 1.68836 2.39624
-2.18758 1.69489 3.07911
-2.19861 1.69583 3.07418
-2.20769 1.69369 3.06427
-2.22673 1.69661 3.05837
-2.23382 1.69344 3.04647
-2.24488 1.69334 3.03956
-2.25197 1.69117 3.02764
-2.25905 1.68801 3.01674
-2.28106 1.693 3.01483
-2.60392 1.69058 2.77026
-2.61298 1.68945 2.76135
-2.61009 1.68425 2.7484
-2.61221 1.67902 2.73249
-2.63728 1.68289 2.72262
-2.64239 1.67969 2.70871
-2.65145 1.67957 2.70078
-2.67143 1.68662 2.70282
-2.67561 1.67928 2.67996
-2.68864 1.68222 2.67501
-2.70478 1.67995 2.65617
-2.72376 1.68699 2.65821
-2.73192 1.6817 2.63834
-2.74792 1.6867 2.63739
-2.75104 1.68248 2.62247
-2.77711 1.68735 2.6126
-2.77526 1.68005 2.59269
-2.78532 1.68095 2.58575
-2.80225 1.68908 2.59376
-2.79842 1.68076 2.57185
-2.81344 1.68372 2.56892
-2.82549 1.68564 2.56298
-2.83058 1.68347 2.55105
-2.85963 1.69037 2.54316
-2.84779 1.68007 2.52322
-2.86083 1.682 2.51829
-2.8818 1.69005 2.52033
-2.87697 1.68073 2.49943
-2.891 1.68467 2.49448
-2.909 1.68968 2.49454
-2.90715 1.6834 2.47561
-2.92111 1.68947 2.47963
-2.93416 1.69139 2.4737
-2.92833 1.68206 2.45179
-2.94732 1.68907 2.45183
-2.96631 1.6951 2.45288
-2.96744 1.68985 2.43597
-2.97353 1.68868 2.42403
-2.98849 1.69476 2.42905
-2.98961 1.69054 2.41412
-2.99471 1.68834 2.40019
-3.01768 1.69741 2.40423
-3.01682 1.69114 2.38631
-3.01992 1.68794 2.37238
-3.03197 1.68986 2.36644
-3.03203 1.68774 2.35847
-3.04507 1.68966 2.35254
-3.05016 1.68749 2.34061
-3.06023 1.68836 2.33167
-3.06433 1.68617 2.31874
-3.07936 1.69012 2.31479
-3.08644 1.68897 2.30386
-3.09451 1.68882 2.29392
-3.10451 1.69183 2.29395
-2.43058 1.69811 2.81385
-2.45876 1.69678 2.79008
-2.46981 1.69768 2.78315
-2.49396 1.69741 2.76333
-2.5111 1.69615 2.74548
-2.54225 1.69686 2.7247
-2.56839 1.69862 2.70687
-2.57745 1.6985 2.69894
-2.59161 1.69519 2.67709
-2.60267 1.69509 2.67017
-2.61775 1.69594 2.65927
-2.638 1.69047 2.6265
-2.65796 1.69854 2.63053
-2.66702 1.69843 2.6226
-2.66908 1.69633 2.61565
-2.67617 1.69415 2.60373
-2.69117 1.69915 2.60277
-2.68934 1.69084 2.58188
-2.70633 1.69585 2.58193
-2.7154 1.69572 2.573
-2.72248 1.69458 2.56307
-2.72949 1.69656 2.56109
-2.74861 1.69733 2.54522
-2.75272 1.69313 2.53131
-2.76674 1.69709 2.52836
-2.77282 1.69494 2.51744
-2.78189 1.69481 2.50851
-2.79896 1.69767 2.49859
-2.80307 1.69347 2.48468
-2.82912 1.69937 2.47679
-2.83026 1.69412 2.45987
-2.84634 1.69597 2.44897
-2.86136 1.69993 2.44602
-2.8765 1.69866 2.42715
-2.90469 1.70031 2.40234
-2.91276 1.69917 2.39241
-2.92189 1.69693 2.37551
-2.93293 1.69885 2.36957
-2.94709 1.69655 2.3487
-2.95716 1.69742 2.33976
-2.97932 1.69811 2.31792
-2.99943 1.7009 2.30303
-3.0136 1.69859 2.28116
-3.02465 1.70049 2.27422
-3.02272 1.69636 2.26526
-3.05488 1.70105 2.24343
-3.06805 1.69974 2.22155
4.18836 -0.426917 -0.0709547
4.16845 -0.425725 -0.0588207
4.18156 -0.426527 -0.0449056
4.18265 -0.426335 -0.0319149
4.17085 -0.425941 -0.00582822
4.1749 -0.425841 0.00114072
4.172 -0.425646 0.0141615
4.1711 -0.425453 0.0271672
4.1682 -0.425258 0.040188
4.16529 -0.425079 0.0522089
4.16449 -0.424678 0.0792127
4.16054 -0.423587 0.0852272
4.15863 -0.423393 0.0982404
4.15573 -0.423198 0.111261
4.15483 -0.423005 0.124267
4.15493 -0.422812 0.137265
4.15203 -0.422618 0.150286
4.14427 -0.422138 0.182342
4.13346 -0.42176 0.207421
4.13255 -0.421567 0.220427
4.13676 -0.42117 0.247393
4.1338 -0.421079 0.253415
4.12719 -0.420305 0.30546
4.12129 -0.420108 0.318504
4.11644 -0.419823 0.337539
4.11453 -0.419629 0.350552
4.11283 -0.41905 0.389561
4.10592 -0.418867 0.401612
4.10402 -0.418674 0.414626
4.10517 -0.418378 0.434615
4.07673 -0.417247 0.509823
4.08579 -0.417135 0.517754
4.08489 -0.416942 0.53076
4.085 -0.416735 0.544758
4.07318 -0.416371 0.568845
4.07228 -0.416178 0.581851
4.07939 -0.415961 0.596796
4.06662 -0.415492 0.62789
4.06773 -0.415286 0.64188
4.06683 -0.415093 0.654886
4.06592 -0.414899 0.667892
4.06497 -0.41481 0.673898
4.06007 -0.414614 0.686934
4.05616 -0.414433 0.698963
4.05526 -0.414225 0.712968
4.05035 -0.414044 0.725004
4.04945 -0.413851 0.73801
4.04755 -0.413657 0.751023
4.04865 -0.41445 0.765029
4.0467 -0.41436 0.771043
4.03378 -0.413203 0.781124
4.03488 -0.412996 0.795115
4.03098 -0.412801 0.808143
4.03218 -0.413402 0.835147
4.0383 -0.413169 0.8511
4.02633 -0.413116 0.854189
4.02643 -0.412909 0.868187
4.02152 -0.412728 0.880223
4.02363 -0.412522 0.894206
4.01572 -0.412338 0.906265
4.00981 -0.412156 0.918309
4.0069 -0.411977 0.930329
4.01798 -0.411822 0.941245
4.01418 -0.411434 0.967272
4.00025 -0.411276 0.977376
3.99634 -0.411095 0.989404
3.99445 -0.410887 1.00342
3.99856 -0.410668 1.01838
3.9946 -0.410591 1.02341
3.9897 -0.410395 1.03645
3.98389 -0.410005 1.06249
3.98109 -0.410618 1.08853
3.9822 -0.410397 1.10352
3.98047 -0.409877 1.13853
3.96965 -0.409514 1.16261
3.96896 -0.408892 1.20461
3.96902 -0.409788 1.21162
3.95809 -0.408632 1.22169
3.9552 -0.408422 1.23571
3.9514 -0.40902 1.26275
3.94375 -0.408318 1.3098
3.92774 -0.407367 1.44093
3.92195 -0.406963 1.46797
3.7152 -0.404611 2.69866
3.58043 -0.408265 3.52685
3.56431 -0.408521 3.64399
3.55561 -0.408922 3.68406
3.51641 -0.410339 3.92441
3.50774 -0.410681 3.96849
3.50008 -0.411009 4.01356
3.49727 -0.411637 4.03859
3.47343 -0.413338 4.19282
3.4658 -0.413607 4.24189
3.46187 -0.413456 4.25192
3.4446 -0.414022 4.34807
3.44382 -0.414577 4.37809
3.42748 -0.415277 4.46523
3.41987 -0.415501 4.5173
3.41303 -0.41617 4.53936
3.41025 -0.415739 4.56838
3.41644 -0.416373 4.59335
3.39875 -0.416753 4.63449
3.38915 -0.416961 4.68758
3.38636 -0.417544 4.71561
3.3827 -0.41786 4.76165
3.37588 -0.418499 4.78571
3.36428 -0.418706 4.83881
3.34803 -0.420228 4.93797
3.34628 -0.420723 4.97199
3.33948 -0.420333 4.99804
3.28125 -0.424826 5.3676
3.27852 -0.42529 5.40363
3.26871 -0.424913 5.4287
3.26397 -0.425406 5.46275
3.26174 -0.426879 5.5658
3.24382 -0.426718 5.57594
3.24821 -0.427951 5.62793
3.23334 -0.427688 5.64504
3.2276 -0.428166 5.6801
3.22322 -0.429948 5.76217
3.21629 -0.429795 5.77222
3.22171 -0.430969 5.8282
3.20787 -0.430648 5.8493
4.17735 -0.399956 -0.0742713
4.16945 -0.398773 -0.0622276
4.18055 -0.399573 -0.0482975
4.15609 -0.397504 0.022866
4.15334 -0.397014 0.055884
4.14643 -0.396831 0.0679351
4.15153 -0.396627 0.0818955
4.14863 -0.396433 0.0949163
4.14472 -0.396252 0.106945
4.14782 -0.396047 0.12092
4.13892 -0.395863 0.132986
4.13997 -0.39576 0.139978
4.14807 -0.395559 0.153916
4.14717 -0.395366 0.166921
4.13025 -0.39519 0.178048
4.13836 -0.394989 0.191986
4.13246 -0.394792 0.205029
4.12259 -0.394518 0.223102
4.11869 -0.394323 0.23613
4.12179 -0.394133 0.249106
4.11589 -0.393936 0.262149
4.12009 -0.393539 0.289115
4.11218 -0.393356 0.301174
4.11123 -0.393266 0.30718
4.11733 -0.393063 0.321133
4.11543 -0.39287 0.334147
4.11554 -0.392662 0.348145
4.10963 -0.39248 0.360188
4.09581 -0.392115 0.38429
4.09991 -0.39191 0.398258
4.10206 -0.391616 0.41824
4.08815 -0.391443 0.429344
4.08625 -0.391249 0.442357
4.08634 -0.391057 0.455356
4.09346 -0.39084 0.470301
4.08154 -0.390668 0.48139
4.08559 -0.390567 0.488359
4.07568 -0.390382 0.500432
4.07798 -0.389792 0.540412
4.07909 -0.389585 0.554402
4.07012 -0.38952 0.558469
4.06922 -0.389312 0.572475
4.06632 -0.389132 0.584496
4.06041 -0.38895 0.596539
4.05971 -0.388357 0.636541
4.04414 -0.387502 0.693654
4.03578 -0.386237 0.77871
4.02787 -0.386053 0.790768
4.02021 -0.385381 0.835822
4.01761 -0.38558 0.889852
4.00405 -0.384711 0.94795
3.9869 -0.38304 1.06007
3.98299 -0.382859 1.0721
3.98309 -0.382652 1.0861
3.97344 -0.382964 1.13218
3.96099 -0.381874 1.20527
3.94485 -0.381159 1.32039
3.88808 -0.37778 1.74883
3.88619 -0.377556 1.76384
3.87627 -0.377401 1.77392
3.87739 -0.377165 1.78991
3.86664 -0.377653 1.824
3.86901 -0.376944 1.87198
3.8611 -0.376761 1.88404
3.86422 -0.377511 1.90103
3.85726 -0.376432 1.90607
3.85562 -0.376735 1.95309
3.84871 -0.376552 1.96514
3.84223 -0.376526 2.0342
3.8313 -0.37637 2.04428
3.82169 -0.375593 2.09635
3.82496 -0.376077 2.13133
3.8153 -0.375403 2.1764
3.79878 -0.375429 2.24154
3.80306 -0.375884 2.27852
3.78945 -0.375104 2.33062
3.78871 -0.3756 2.36463
3.75877 -0.374505 2.50486
3.75689 -0.374251 2.52187
3.74567 -0.374718 2.62498
3.73568 -0.374696 2.62605
3.72576 -0.374526 2.63713
3.72792 -0.374216 2.65811
3.72705 -0.373949 2.67612
3.72317 -0.374709 2.69216
3.71426 -0.374525 2.70422
3.71743 -0.374202 2.7262
3.72052 -0.374026 2.73817
3.72167 -0.374731 2.75818
3.71679 -0.37449 2.77421
3.70787 -0.374321 2.78528
3.70098 -0.374109 2.79933
3.70214 -0.373798 2.82032
3.69827 -0.374544 2.83736
3.70236 -0.374354 2.85033
3.7005 -0.374086 2.86834
3.69863 -0.373818 2.88636
3.69577 -0.37455 2.90439
3.6919 -0.374295 2.92142
3.685 -0.374083 2.93547
3.67509 -0.373898 2.94754
3.68825 -0.374596 2.96846
3.67633 -0.37444 2.97855
3.6775 -0.3741 3.00154
3.67362 -0.37386 3.01756
3.66488 -0.37435 3.05164
3.66303 -0.374053 3.07165
3.66411 -0.373891 3.08265
3.65033 -0.374451 3.11176
3.65251 -0.374097 3.13574
3.64663 -0.373856 3.15179
3.64579 -0.374544 3.17281
3.64495 -0.374233 3.19381
3.63998 -0.374155 3.19885
3.64419 -0.374758 3.22583
3.64132 -0.37449 3.24385
3.63847 -0.374191 3.26387
3.62773 -0.37468 3.29796
3.62597 -0.374205 3.32997
3.61607 -0.374005 3.34304
3.61926 -0.374622 3.36903
3.60532 -0.374494 3.37714
3.60147 -0.374195 3.39716
3.61273 -0.374699 3.43109
3.59981 -0.374542 3.44119
3.60896 -0.374238 3.46212
3.59805 -0.374067 3.4732
3.59117 -0.37481 3.49026
3.59236 -0.374441 3.51525
3.58851 -0.375141 3.5353
3.58769 -0.3748 3.5583
3.57485 -0.374465 3.58039
3.56798 -0.374208 3.59745
3.56715 -0.374867 3.62046
3.56432 -0.374539 3.64248
3.55947 -0.375239 3.66253
3.55764 -0.374898 3.68555
3.55087 -0.374448 3.71559
3.54702 -0.375149 3.73564
3.54318 -0.374836 3.75666
3.54539 -0.375422 3.78466
3.53549 -0.375208 3.79873
3.53267 -0.374865 3.82175
3.52893 -0.375344 3.85679
3.52913 -0.375959 3.8828
3.52227 -0.375673 3.90185
3.51742 -0.375373 3.92189
3.51863 -0.375959 3.94989
3.50007 -0.376072 4.00904
3.49555 -0.376136 4.07208
3.48488 -0.376476 4.11618
3.48509 -0.376062 4.14417
3.4752 -0.376832 4.15926
3.4725 -0.376238 4.19928
3.46487 -0.376507 4.24835
3.45623 -0.376804 4.29542
3.45151 -0.377238 4.33347
3.43123 -0.377816 4.42864
3.21103 -0.386389 5.86663
3.09643 -0.391686 6.58467
3.08975 -0.392044 6.62773
3.06183 -0.393906 6.77099
3.04139 -0.393795 6.84515
4.06198 -0.367842 0.671225
