0.252194 1.66118 5.42461
0.235303 1.6664 5.43866
0.216141 1.65911 5.41791
0.181343 1.66752 5.44405
0.162158 1.65918 5.42031
0.14422 1.66131 5.42842
0.135174 1.66022 5.4225
0.117221 1.66133 5.42862
0.0993994 1.66968 5.45163
0.0632611 1.66344 5.434
0.0452999 1.66453 5.43912
0.0260855 1.67114 5.27714
0.00918636 1.67534 5.29021
-0.00894428 1.67011 5.27342
-0.026859 1.67328 5.28451
-0.0348977 1.67121 5.2796
-0.0529198 1.67118 5.27674
-0.0708032 1.67642 5.2918
-0.0878027 1.67643 5.29192
-0.104949 1.67016 5.27314
-0.12291 1.67125 5.27826
-0.14077 1.67753 5.29631
-0.148901 1.67228 5.27944
-0.166878 1.67334 5.28256
-0.183908 1.67229 5.27871
-0.201931 1.67126 5.27586
-0.218968 1.6702 5.271
-0.237782 1.67857 5.29502
-0.253975 1.67021 5.27026
-0.263805 1.67754 5.29223
-0.280912 1.67335 5.27842
-0.298903 1.67438 5.27954
-0.315887 1.67542 5.28166
-0.333848 1.67751 5.28676
-0.350079 1.66807 5.25702
-0.368869 1.67749 5.28402
-0.394907 1.67643 5.27924
-0.412906 1.67644 5.27937
-0.430875 1.67852 5.28348
-0.448882 1.67852 5.28261
-0.464966 1.67536 5.27178
-0.500979 1.67636 5.27003
-0.508995 1.67534 5.26811
-0.526955 1.67742 5.27321
-0.544947 1.67845 5.27433
-0.624028 1.67735 5.26395
-0.658072 1.67728 5.2582
-0.693139 1.67617 5.24948
-0.754152 1.67719 5.24793
-0.789189 1.67714 5.24319
-0.806226 1.67708 5.23832
-0.842224 1.67911 5.23856
-1.1887 1.67841 5.17717
-3.54888 1.67788 4.09781
-3.56495 1.67976 4.0889
-3.57506 1.67755 4.07401
-3.57925 1.67219 4.05012
1.73796 1.66282 4.98933
1.72405 1.66501 5.0014
1.71425 1.67239 5.02637
1.70446 1.67979 5.05334
1.66255 1.68002 5.06665
1.59267 1.67829 5.08221
1.57159 1.67316 5.07244
1.49987 1.67874 5.1089
1.48291 1.67984 5.11502
1.40504 1.67915 5.13261
1.38704 1.67816 5.13276
1.35415 1.6794 5.147
1.33717 1.67944 5.14912
1.32818 1.67947 5.15119
1.3071 1.67434 5.14142
1.29219 1.67651 5.15251
1.2593 1.67976 5.16771
1.24129 1.67774 5.16587
1.21222 1.67263 5.15717
1.19836 1.67792 5.1762
1.17935 1.67591 5.17437
1.1603 1.67283 5.16856
1.14747 1.67917 5.19056
1.11046 1.67617 5.18889
1.10353 1.6793 5.19789
1.08552 1.6773 5.19706
1.06649 1.67526 5.19323
1.04742 1.67115 5.18543
1.03255 1.6754 5.20149
1.01349 1.6723 5.19367
0.997594 1.67551 5.20775
0.988579 1.67449 5.20583
0.970555 1.67246 5.203
0.950463 1.6683 5.19121
0.935617 1.6736 5.21124
0.916555 1.6695 5.20345
0.898548 1.6685 5.2026
0.883664 1.67273 5.21765
0.873587 1.66959 5.20777
0.856671 1.67177 5.21887
0.840764 1.67495 5.23094
0.820648 1.66975 5.21617
0.806795 1.67504 5.2352
0.787757 1.67298 5.23037
0.768703 1.66989 5.22356
0.753865 1.67621 5.24458
0.724687 1.66689 5.22193
0.708819 1.67215 5.23898
0.691811 1.67115 5.23812
0.673811 1.67017 5.23827
0.656858 1.67227 5.24437
0.638873 1.67231 5.2465
0.629835 1.67024 5.2416
0.612873 1.67133 5.24671
0.595935 1.67346 5.25481
0.576827 1.66827 5.24103
0.560959 1.67353 5.25807
0.544029 1.67567 5.26717
0.534997 1.67362 5.26327
0.51699 1.67362 5.2624
0.500021 1.67369 5.26653
0.480929 1.66953 5.25474
0.465068 1.67581 5.27276
0.446991 1.67167 5.26296
0.428999 1.6717 5.2641
0.420991 1.67069 5.26317
0.404115 1.67594 5.27922
0.386085 1.67389 5.27539
0.368031 1.6718 5.26855
0.35107 1.67289 5.27367
0.332978 1.66872 5.26186
0.315009 1.6698 5.26598
0.307148 1.67607 5.28395
0.289025 1.66985 5.26818
0.270986 1.66778 5.26334
0.254095 1.673 5.2774
0.237111 1.67305 5.27952
0.219072 1.67098 5.27469
0.202135 1.67412 5.28277
0.193182 1.67621 5.28881
0.175128 1.67312 5.28199
0.158205 1.67628 5.29207
0.140152 1.67419 5.28524
0.123122 1.67314 5.28138
0.105114 1.67214 5.28053
0.0880837 1.6711 5.27668
0.0790143 1.66797 5.26779
0.0612313 1.6774 5.29579
0.0441 1.67116 5.27901
0.0365922 1.6662 5.07911
0.0195312 1.6641 5.07127
0.00260887 1.66726 5.08135
-0.0144063 1.66624 5.07949
-0.0225373 1.66099 5.06263
-0.0394979 1.66308 5.06773
-0.0564823 1.66312 5.06985
-0.090504 1.6631 5.06711
-0.107403 1.66731 5.08018
-0.124511 1.66311 5.06637
-0.132449 1.66524 5.0744
-0.14944 1.66626 5.07551
-0.166563 1.66104 5.05971
-0.18354 1.6621 5.06283
-0.200469 1.66524 5.07191
-0.216546 1.6621 5.06207
-0.233569 1.66107 5.05922
-0.242453 1.6663 5.07421
-0.25946 1.6663 5.07334
-0.276528 1.66418 5.0645
-0.293504 1.66523 5.06761
-0.310496 1.66626 5.06872
-0.326549 1.66417 5.06187
-0.344456 1.66836 5.07395
-0.352548 1.66519 5.06205
-0.36954 1.66522 5.06318
-0.386477 1.66835 5.07126
-0.402577 1.66517 5.05843
-0.420468 1.67039 5.07249
-0.436537 1.66726 5.06365
-0.452621 1.66411 5.05282
-0.462535 1.66828 5.06384
-0.480488 1.67038 5.06994
-0.497472 1.67143 5.07205
-0.514455 1.67347 5.07415
-0.530555 1.66929 5.06133
-0.546616 1.66718 5.05348
-0.563615 1.66819 5.0536
-0.572576 1.67027 5.05863
-0.588645 1.66715 5.0498
-0.605621 1.66921 5.0529
-0.62455 1.67336 5.06198
-0.640581 1.67231 5.05812
-0.655711 1.66707 5.04131
-0.67461 1.67227 5.05437
-0.682664 1.67018 5.04746
-0.69774 1.66804 5.03761
-0.716654 1.67222 5.04869
-0.731738 1.66906 5.03785
-0.749729 1.67009 5.03897
-0.766752 1.67006 5.0361
-0.783735 1.6711 5.03821
-0.792734 1.67211 5.03826
-0.80878 1.67103 5.0324
-0.823887 1.66684 5.01857
-0.841809 1.671 5.02865
-0.859785 1.67305 5.03175
-0.875846 1.67095 5.0239
-0.892852 1.67194 5.02302
-0.902797 1.67505 5.03005
-0.917873 1.67292 5.02019
-0.935865 1.67395 5.02131
-0.952864 1.67496 5.02142
-0.968917 1.67387 5.01456
-0.984978 1.67176 5.00671
-1.00295 1.67483 5.0108
-1.01 1.67273 5.00389
-1.02701 1.67272 5.00201
-1.04595 1.67685 5.0101
-1.06103 1.6747 4.99924
-1.07806 1.67466 4.99637
-1.09702 1.67775 5.00147
-1.11304 1.67772 4.99859
-1.12204 1.67773 4.99866
-1.1381 1.67662 4.99079
-1.15412 1.67659 4.98791
-1.17017 1.67551 4.98205
-1.18816 1.67752 4.98215
-1.20323 1.6754 4.9733
-1.22025 1.67538 4.97143
-1.24431 1.67528 4.96361
-1.26424 1.67943 4.9727
-1.27931 1.67729 4.96284
-1.29537 1.67619 4.95498
-1.31237 1.6772 4.95509
-1.32941 1.67714 4.95022
-1.34254 1.67289 4.93338
-1.35152 1.67393 4.93543
-1.37146 1.67906 4.94351
-1.38457 1.67485 4.92867
-1.40161 1.67479 4.92379
-1.41862 1.67579 4.92291
-1.43662 1.67678 4.92203
-1.4507 1.67465 4.91217
-1.4597 1.67565 4.91222
-1.47575 1.67456 4.90535
-1.49374 1.67659 4.90646
-1.50881 1.67547 4.89759
-1.52485 1.6754 4.89271
-1.54285 1.6764 4.89183
-1.55186 1.67739 4.89088
-1.56692 1.67629 4.88301
-1.58197 1.67519 4.87614
-1.60194 1.67827 4.88025
-1.63402 1.67813 4.86949
-1.66708 1.67903 4.86172
-1.69114 1.67893 4.85391
-2.25777 1.67812 4.64016
-2.28986 1.67895 4.62738
-2.31197 1.67776 4.61357
-2.32112 1.67248 4.59471
-2.35616 1.6764 4.58792
-2.37123 1.67528 4.57904
-2.38628 1.67519 4.57216
-2.39825 1.67826 4.5762
-2.4074 1.67398 4.55733
-2.4274 1.677 4.55744
-2.44048 1.67584 4.54655
-2.45358 1.67366 4.53368
-2.4637 1.66943 4.51782
-2.48369 1.67346 4.51891
-2.49171 1.67342 4.51597
-2.51072 1.67642 4.51507
-2.52578 1.67631 4.50718
-2.54084 1.67621 4.4993
-2.55392 1.67505 4.48841
-2.56602 1.67287 4.47553
-2.57715 1.66863 4.45868
-2.59306 1.6748 4.46971
-2.60811 1.67571 4.46281
-2.6212 1.67455 4.45192
-2.63626 1.67443 4.44304
-2.64836 1.67225 4.43016
-2.6654 1.67319 4.42527
-2.68047 1.67306 4.41639
-2.68157 1.66886 4.40245
-2.69861 1.6698 4.39757
-2.7117 1.66863 4.38568
-2.72478 1.66749 4.3758
-2.74182 1.66941 4.36989
-2.75985 1.67137 4.366
-2.77194 1.6692 4.35412
-2.77602 1.66705 4.34418
-2.79404 1.66902 4.34129
-2.80317 1.66576 4.3234
-2.82515 1.67082 4.3265
-2.83625 1.66864 4.31361
-2.85033 1.66748 4.30273
-2.86835 1.67045 4.29982
-2.86946 1.66625 4.28589
-2.88749 1.6682 4.282
-2.90155 1.66808 4.2731
-2.91563 1.66794 4.26321
-2.92774 1.66574 4.24933
-2.94476 1.66769 4.24543
-2.9618 1.66963 4.24053
-2.97093 1.66539 4.22366
-2.97895 1.66635 4.22071
-3.00292 1.67243 4.2248
-3.00315 1.66398 4.19492
-3.02315 1.66698 4.19403
-3.04019 1.66892 4.18913
-3.0513 1.66671 4.17424
-3.06735 1.66763 4.16835
-3.0734 1.66653 4.16141
-3.08648 1.66638 4.15051
-3.10352 1.66831 4.14561
-3.11759 1.66818 4.13571
-3.12672 1.66495 4.11983
-3.15465 1.67308 4.12792
-3.1618 1.66881 4.10903
-3.16684 1.66772 4.10309
-3.18785 1.67172 4.10218
-3.19401 1.66742 4.08129
-3.20511 1.66523 4.06841
-3.23403 1.67439 4.07749
-3.23425 1.66597 4.04961
-3.24524 1.669 4.05065
-3.2603 1.66887 4.04176
-3.28329 1.67392 4.04386
-3.28746 1.66858 4.02097
-3.30549 1.67154 4.01706
-3.32451 1.6745 4.01416
-3.33265 1.67124 3.99627
-3.34068 1.67119 3.99233
-3.35772 1.67311 3.98643
-3.3619 1.66778 3.96353
-3.37497 1.66764 3.95363
-3.39103 1.66853 3.94574
-3.40411 1.66838 3.93484
-3.4172 1.66823 3.92394
-3.43325 1.67012 3.91603
-3.44227 1.6711 3.91408
-3.45437 1.66991 3.90119
-3.46744 1.66977 3.89129
-3.47954 1.66959 3.87838
-3.49262 1.66944 3.86748
-3.49678 1.66413 3.84659
-3.50888 1.66395 3.83368
1.74644 1.66082 4.78727
1.72947 1.6609 4.79139
1.72252 1.66199 4.79743
1.71167 1.66729 4.81744
1.69264 1.66425 4.81362
1.67669 1.66536 4.82073
1.66586 1.67068 4.84173
1.64374 1.66348 4.82701
1.62984 1.66668 4.84007
1.62289 1.66777 4.8461
1.60589 1.6668 4.84724
1.58686 1.66375 4.84343
1.57295 1.66594 4.85551
1.55496 1.66497 4.85666
1.54208 1.66922 4.87269
1.52715 1.67035 4.88079
1.51712 1.66831 4.8779
1.49911 1.66631 4.87706
1.48521 1.66949 4.88912
1.46616 1.66542 4.88332
1.45331 1.67071 4.90234
1.43528 1.66768 4.89952
1.41726 1.66565 4.89669
1.40827 1.66568 4.89876
1.39745 1.67203 4.92175
1.37634 1.66584 4.908
1.36141 1.66798 4.91708
1.34444 1.66806 4.92121
1.32642 1.66503 4.91839
1.30841 1.66302 4.91755
1.29941 1.66303 4.91762
1.28343 1.66207 4.91975
1.26954 1.6663 4.9348
1.25359 1.6674 4.9409
1.23454 1.66333 4.93511
1.21859 1.66443 4.94121
1.20366 1.66657 4.95029
1.19464 1.66555 4.94838
1.17559 1.66248 4.94256
1.16171 1.66571 4.95762
1.14473 1.66575 4.95975
1.12568 1.66268 4.95394
1.11178 1.66588 4.967
1.07676 1.66286 4.96431
1.06672 1.66081 4.96041
1.05076 1.66089 4.96553
1.03792 1.6672 4.98554
1.02092 1.66623 4.98668
1.00291 1.66421 4.98484
0.984886 1.66318 4.982
0.967878 1.66118 4.98115
0.959893 1.66121 4.98321
0.927994 1.66443 4.99641
0.90994 1.66134 4.98959
0.892978 1.66142 4.99472
0.878071 1.66461 5.00678
0.867978 1.66044 4.99492
0.852071 1.66363 5.00699
0.836094 1.66369 5.01011
0.801071 1.66167 5.00741
0.784079 1.66069 5.00855
0.768125 1.6618 5.01465
0.760172 1.66389 5.02068
0.743148 1.66186 5.01784
0.726179 1.66293 5.02195
0.692172 1.66094 5.02124
0.676203 1.66201 5.02534
0.659226 1.66207 5.02847
0.650211 1.66104 5.02655
0.63321 1.66006 5.0267
0.618296 1.66423 5.03775
0.60028 1.66221 5.03591
0.584351 1.66536 5.04499
0.566281 1.66124 5.03619
0.550335 1.66335 5.04328
0.541266 1.66023 5.03439
0.524296 1.6603 5.03852
0.507289 1.6603 5.03764
0.492436 1.66559 5.05668
0.475413 1.66456 5.05382
0.458445 1.66563 5.05794
0.441422 1.6646 5.05508
0.432383 1.66253 5.05018
0.416438 1.66464 5.05727
0.399461 1.6647 5.06039
0.381383 1.66057 5.05059
0.365462 1.66472 5.06065
0.331407 1.66065 5.05397
0.322393 1.66062 5.05203
0.289486 1.66382 5.06424
0.272447 1.66176 5.05939
0.221503 1.6639 5.06675
0.213495 1.66289 5.06582
0.196456 1.66083 5.06098
0.179519 1.66396 5.06906
0.16245 1.66084 5.06024
0.14652 1.66399 5.06931
0.129512 1.66299 5.06845
0.112498 1.66297 5.06658
0.103529 1.66403 5.07063
0.0865293 1.66405 5.07076
0.0705912 1.66618 5.07885
0.0535459 1.6651 5.073
0.0305934 1.66924 4.94609
0.0146711 1.67239 4.95616
-0.00235917 1.67135 4.95231
-0.0183587 1.67136 4.95243
-0.0352729 1.67553 4.9635
-0.0513346 1.67243 4.95566
-0.0683341 1.67244 4.95579
-0.0765579 1.66302 4.92699
-0.0932944 1.67453 4.96095
-0.109286 1.67556 4.96205
-0.126347 1.67245 4.95423
-0.141571 1.66304 4.92548
-0.159323 1.67452 4.95744
-0.174563 1.66307 4.92672
-0.183415 1.67036 4.94569
-0.200291 1.67561 4.96174
-0.217313 1.67558 4.95887
-0.233343 1.67453 4.955
-0.248598 1.66305 4.92228
-0.265505 1.66724 4.93435
-0.281597 1.66308 4.92253
-0.289635 1.66201 4.91761
-0.306627 1.66304 4.91872
-0.322619 1.66306 4.91984
-0.33954 1.66722 4.92991
-0.356563 1.66619 4.92705
-0.372554 1.66722 4.92815
-0.388624 1.6641 4.91932
-0.396662 1.66303 4.9144
-0.412715 1.66094 4.90755
-0.429621 1.66613 4.9196
-0.446644 1.66509 4.91674
-0.462659 1.66508 4.91486
-0.479611 1.66818 4.92095
-0.495665 1.66609 4.9141
-0.504602 1.66921 4.92212
-0.519686 1.66606 4.91128
-0.535725 1.664 4.90643
-0.552724 1.66501 4.90654
-0.568754 1.66396 4.90268
-0.586683 1.66811 4.91175
-0.602721 1.66705 4.90689
-0.61072 1.66805 4.90693
-0.626759 1.66599 4.90208
-0.64375 1.66802 4.90318
-0.660718 1.67009 4.90728
-0.676764 1.66801 4.90143
-0.691825 1.6659 4.89357
-0.708839 1.66589 4.8917
-0.717808 1.66795 4.89574
-0.732884 1.66581 4.88588
-0.74986 1.66787 4.88898
-0.766835 1.66993 4.89208
-0.783811 1.67198 4.89518
-0.798911 1.6678 4.88235
-0.815879 1.66987 4.88645
-0.822956 1.66673 4.87655
-0.841862 1.67192 4.88862
-0.856938 1.66979 4.87876
-0.873929 1.67081 4.87987
-0.888967 1.66975 4.875
-0.906943 1.67181 4.87811
-0.922012 1.66969 4.86925
-0.937064 1.66859 4.86238
-0.947033 1.67066 4.86642
-0.964024 1.67169 4.86754
-0.979093 1.66956 4.85868
-0.994161 1.66744 4.84982
-1.01211 1.67154 4.8559
-1.02718 1.66942 4.84704
-1.04416 1.67148 4.85014
-1.05219 1.67042 4.84622
-1.07016 1.6735 4.85031
-1.08521 1.6714 4.84345
-1.10412 1.67658 4.85452
-1.11728 1.67129 4.83469
-1.13524 1.67337 4.8388
-1.14933 1.67121 4.82793
-1.15736 1.67016 4.82401
-1.1753 1.67428 4.83108
-1.1894 1.67109 4.81824
-1.20737 1.67317 4.82234
-1.22245 1.67103 4.81249
-1.24136 1.67621 4.82355
-1.24649 1.67096 4.80667
-1.26347 1.673 4.80876
-1.27853 1.67189 4.80089
-1.29554 1.67289 4.80001
-1.30964 1.66971 4.78716
-1.32857 1.67386 4.79624
-1.34559 1.67482 4.79335
-1.35967 1.67269 4.78349
-1.36867 1.67369 4.78354
-1.38469 1.67366 4.78066
-1.4017 1.67464 4.77878
-1.41871 1.67564 4.77789
-1.43376 1.67555 4.771
-1.44784 1.67341 4.76114
-1.46387 1.67335 4.75626
-1.47189 1.67332 4.75432
-1.48693 1.67224 4.74845
-1.50493 1.67426 4.74856
-1.52095 1.67522 4.74566
-1.53602 1.67312 4.73781
-1.55498 1.67719 4.74189
-1.57707 1.67504 4.73109
-1.59115 1.67289 4.72022
-1.61305 1.6801 4.73328
-1.62125 1.67171 4.70647
-1.64024 1.67475 4.70856
-1.65822 1.67679 4.71067
-1.67132 1.67461 4.6978
-1.6813 1.67666 4.70084
-1.71336 1.67655 4.69209
-1.72743 1.67543 4.68321
-1.74639 1.67951 4.68829
-1.7595 1.67632 4.67443
-1.77553 1.67627 4.67056
-1.78353 1.67726 4.6696
-1.79566 1.67302 4.65275
-1.81562 1.67711 4.65784
-1.8467 1.67798 4.64806
-1.85685 1.67169 4.62823
-1.87975 1.67889 4.6403
-1.88581 1.67779 4.63336
-1.90085 1.67771 4.62747
-1.91788 1.67766 4.6236
-2.26494 1.67881 4.48418
-2.27999 1.67872 4.47729
-2.28702 1.67867 4.47335
-2.30405 1.68062 4.46944
-2.31616 1.67742 4.45558
-2.32923 1.67628 4.44569
-2.33839 1.67099 4.42584
-2.35836 1.67505 4.42893
-2.37242 1.67494 4.42104
-2.37257 1.66866 4.40213
-2.3955 1.6748 4.41021
-2.40857 1.67467 4.40131
-2.41772 1.66938 4.38146
-2.4377 1.67344 4.38455
-2.45079 1.67227 4.37266
-2.45894 1.667 4.3538
-2.47287 1.67213 4.36183
-2.48596 1.66996 4.34996
-2.49707 1.66776 4.33607
-2.51508 1.66976 4.33518
-2.52717 1.66859 4.32328
-2.54025 1.66744 4.3124
-2.56122 1.6715 4.3155
-2.57712 1.6787 4.32851
-2.57838 1.66821 4.29567
-2.61019 1.68058 4.31873
-2.61045 1.67109 4.28587
-2.62058 1.66684 4.26901
-2.63958 1.67086 4.26909
-2.65069 1.66764 4.25422
-2.65981 1.66441 4.23833
-2.67277 1.6685 4.24337
-2.70263 1.67878 4.26145
-2.69695 1.66517 4.2206
-2.71497 1.66814 4.21769
-2.74409 1.66791 4.20091
-2.771 1.67611 4.21299
-2.78198 1.67915 4.21503
-2.78913 1.67386 4.19516
-2.80419 1.67476 4.18826
-2.81331 1.67152 4.17137
-2.83134 1.67349 4.16848
-2.84836 1.67544 4.16458
-2.87033 1.68051 4.16867
-2.85266 1.66487 4.12576
-2.88847 1.67825 4.14984
-2.88771 1.66879 4.11897
-2.9008 1.66863 4.10807
-2.9198 1.67163 4.10717
-2.93695 1.66835 4.08734
-2.952 1.67027 4.08143
-2.96903 1.67221 4.07652
-2.97816 1.66796 4.05965
-2.99222 1.66886 4.05175
-3.01123 1.67184 4.04984
-3.02333 1.67066 4.03695
-3.02937 1.67059 4.032
-3.04541 1.67151 4.0261
-3.05256 1.66723 4.00722
-3.07453 1.67229 4.01031
-3.08365 1.67006 3.99441
-3.10564 1.67409 3.99551
-3.11081 1.66979 3.97461
-3.12982 1.67277 3.97271
-3.13785 1.67372 3.96876
-3.15983 1.67876 3.97085
-3.16796 1.67552 3.95396
-3.18401 1.67643 3.94706
-3.19213 1.67319 3.93117
-3.21016 1.67615 3.92726
-3.23116 1.68016 3.92736
-3.23324 1.678 3.91641
-3.25028 1.67993 3.91051
-3.26435 1.6798 3.90161
-3.27249 1.67654 3.88372
-3.29151 1.67951 3.88082
-3.3137 1.67816 3.856
-3.3237 1.67915 3.85506
-3.3348 1.67796 3.84216
-3.33699 1.67161 3.81827
-3.35007 1.67146 3.80737
-3.36017 1.67027 3.79446
-3.37127 1.66907 3.78056
-3.38137 1.66789 3.76765
-3.40327 1.6761 3.7807
-3.40743 1.67079 3.7598
-3.42249 1.67268 3.75189
-3.43458 1.67151 3.74
-3.44171 1.66827 3.7231
-3.44785 1.66499 3.70419
-3.4748 1.6721 3.71029
1.78632 1.66559 4.63787
1.76831 1.66259 4.63705
1.75746 1.66888 4.65605
1.74456 1.67108 4.66911
1.73658 1.67113 4.67217
1.72368 1.67431 4.68422
1.70669 1.67236 4.68638
1.6856 1.66721 4.67561
1.67168 1.66937 4.68569
1.65573 1.66947 4.69181
1.63566 1.66436 4.68403
1.63278 1.66959 4.69898
1.61886 1.67076 4.71007
1.60187 1.66979 4.71121
1.58386 1.66777 4.70938
1.56993 1.66993 4.71945
1.55192 1.66793 4.71862
1.53186 1.66283 4.71084
1.52695 1.66601 4.72283
1.51612 1.67232 4.74382
1.50116 1.67342 4.74992
1.48315 1.67142 4.74909
1.47232 1.67774 4.77008
1.45224 1.67161 4.76032
1.43525 1.67064 4.76146
1.4041 1.66138 4.74283
1.38914 1.66248 4.74893
1.37317 1.66255 4.75305
1.35824 1.66368 4.76115
1.34227 1.66375 4.76526
1.30827 1.66079 4.76656
1.30339 1.66601 4.78153
1.27557 1.67239 4.80564
1.25959 1.67143 4.80778
1.2364 1.66109 4.7841
1.21274 1.67474 4.82709
1.20267 1.67062 4.81822
1.16455 1.66243 4.80363
1.14755 1.66144 4.80377
1.13674 1.66982 4.82873
1.10761 1.66159 4.81207
1.09266 1.6627 4.81917
1.07566 1.66171 4.81931
1.02879 1.664 4.83663
1.01387 1.66716 4.8467
1.00693 1.66927 4.85372
0.973964 1.66836 4.85898
0.958996 1.66943 4.86308
0.926057 1.67058 4.87131
0.910096 1.67066 4.87643
0.902088 1.67065 4.87549
0.885096 1.66968 4.87664
0.869103 1.66871 4.87777
0.848979 1.66249 4.86201
0.836157 1.66983 4.885
0.821235 1.67299 4.89507
0.80318 1.6689 4.88827
0.795204 1.66995 4.89131
0.763235 1.67004 4.89555
0.74308 1.66175 4.87582
0.729211 1.66702 4.89285
0.710103 1.66182 4.87907
0.690389 1.67338 4.91605
0.672289 1.66821 4.90326
0.654227 1.6651 4.89545
0.638258 1.66517 4.89957
0.621227 1.66312 4.89572
0.606328 1.66733 4.90878
0.580235 1.66217 4.89705
0.565375 1.66845 4.91507
0.547228 1.66118 4.89631
0.533421 1.66956 4.92129
0.498251 1.66026 4.89969
0.482368 1.66549 4.91474
0.473267 1.66031 4.90188
0.458414 1.6666 4.9209
0.442422 1.66662 4.92202
0.426461 1.66771 4.92713
0.409469 1.66774 4.92826
0.39457 1.67194 4.94131
0.37647 1.66776 4.9285
0.368462 1.66675 4.92758
0.35147 1.66678 4.92871
0.319532 1.66892 4.93692
0.302525 1.66792 4.93606
0.27058 1.67005 4.94327
0.253627 1.67215 4.94937
0.245604 1.67111 4.94644
0.229635 1.67218 4.95055
0.211419 1.66278 4.92282
0.195628 1.67219 4.9498
0.178535 1.66702 4.93801
0.161404 1.66079 4.92123
0.146613 1.6702 4.9482
0.138629 1.67123 4.95025
0.12173 1.67543 4.96331
0.104607 1.67021 4.94752
0.08846 1.66294 4.92875
0.0715923 1.66921 4.94578
0.0557088 1.67444 4.96083
0.0385932 1.66923 4.94603
0.0315417 1.67216 4.80602
0.0155033 1.6701 4.80117
-0.00138012 1.67533 4.81622
-0.0174412 1.67323 4.80837
-0.033371 1.67637 4.81745
-0.0415183 1.6691 4.79862
-0.0574168 1.6743 4.81166
-0.073432 1.67328 4.80979
-0.0894466 1.67326 4.80792
-0.105377 1.67641 4.81699
-0.121469 1.67224 4.80517
-0.137399 1.67539 4.81425
-0.145538 1.66913 4.7964
-0.161467 1.67327 4.80546
-0.178397 1.67642 4.81454
-0.194427 1.67537 4.81068
-0.210404 1.67643 4.81378
-0.225512 1.67123 4.79997
-0.242402 1.67745 4.81401
-0.250448 1.67537 4.8081
-0.265518 1.67224 4.79926
-0.282462 1.67536 4.80634
-0.298501 1.6733 4.80149
-0.314492 1.67432 4.8026
-0.329546 1.67223 4.79574
-0.347452 1.67742 4.8078
-0.355428 1.67847 4.81084
-0.371435 1.67847 4.80996
-0.386559 1.67324 4.79415
-0.403465 1.67743 4.80622
-0.434549 1.67529 4.79548
-0.450541 1.67532 4.7966
-0.458548 1.67531 4.79566
-0.475516 1.67738 4.79976
-0.491515 1.67839 4.79987
-0.505685 1.67108 4.77808
-0.523529 1.67839 4.79811
-0.539536 1.67838 4.79723
-0.554667 1.67314 4.78042
-0.571596 1.67729 4.78949
-0.578689 1.67312 4.7776
-0.595633 1.67723 4.78467
-0.609772 1.67098 4.76686
-0.627632 1.67826 4.78489
-0.644615 1.6793 4.78701
-0.66063 1.67928 4.78513
-0.675706 1.67714 4.77527
-0.684659 1.67924 4.78131
-0.698775 1.67503 4.76647
-0.714789 1.67501 4.7646
-0.730781 1.67603 4.7657
-0.747756 1.67809 4.7688
-0.762817 1.67598 4.76094
-0.777848 1.67494 4.75707
-0.786831 1.67697 4.75911
-0.802838 1.67697 4.75823
-0.818837 1.67798 4.75833
-0.83582 1.68002 4.76043
-0.850897 1.67688 4.75059
-0.865927 1.67684 4.7467
-0.875872 1.67995 4.75373
-0.905986 1.67675 4.73901
-0.921993 1.67674 4.73813
-0.937054 1.67464 4.73027
-0.955968 1.67981 4.74134
-0.970044 1.67768 4.73147
-0.994081 1.67762 4.72666
-1.01106 1.67966 4.72875
-1.02609 1.67963 4.72587
-1.09529 1.67528 4.69945
-1.17535 1.6782 4.69101
-1.21445 1.67704 4.67832
-1.23143 1.6791 4.68142
-1.26347 1.68003 4.67564
-1.2785 1.67998 4.67176
-1.30156 1.67888 4.66394
-1.31564 1.67674 4.65408
-1.34767 1.67869 4.64929
-1.36077 1.67551 4.63644
-1.39477 1.67853 4.63665
-1.40376 1.67955 4.6377
-1.43385 1.6784 4.62594
-1.44987 1.67837 4.62306
-1.4819 1.68033 4.61928
-1.49501 1.67713 4.60542
-1.52 1.68015 4.60556
-1.56612 1.67996 4.59091
-1.60521 1.6798 4.57821
-1.77771 1.67693 4.51254
-2.33044 1.67791 4.28566
-2.36053 1.67874 4.27287
-2.37459 1.67863 4.26498
-2.38965 1.67853 4.25709
-2.39569 1.67746 4.25215
-2.40975 1.67735 4.24426
-2.4549 1.67909 4.22457
-2.47091 1.68107 4.22266
-2.48104 1.67682 4.2058
-2.48906 1.6778 4.20384
-2.50312 1.67769 4.19595
-2.5152 1.67654 4.18506
-2.54727 1.67841 4.17527
-2.56034 1.67829 4.16637
-2.58242 1.67814 4.15554
-2.59352 1.67596 4.14265
-2.61054 1.67792 4.13975
-2.62165 1.67573 4.12586
-2.63373 1.67457 4.11497
-2.65076 1.67652 4.11107
-2.65284 1.67338 4.10113
-2.6669 1.67326 4.09224
-2.68788 1.67831 4.09532
-2.69799 1.6751 4.08044
-2.70908 1.67393 4.06854
-2.73303 1.68105 4.07562
-2.74215 1.67682 4.05974
-2.76214 1.68085 4.06084
-2.76126 1.67661 4.04489
-2.76841 1.67132 4.02502
-2.79631 1.68053 4.03809
-2.80345 1.67627 4.02021
-2.82147 1.67924 4.0173
-2.83454 1.67912 4.0084
-2.84464 1.67693 3.99551
-2.85562 1.67997 3.99754
-2.86969 1.67983 3.98765
-2.87485 1.67353 3.96678
-2.89979 1.68166 3.97485
-2.90792 1.67742 3.95797
-2.91209 1.67209 3.93608
-2.93704 1.6792 3.94216
-2.93911 1.67605 3.93222
-2.94824 1.67282 3.91634
-2.98525 1.67981 3.91351
-2.98942 1.67448 3.89162
-3.01041 1.67851 3.89272
-3.00666 1.66804 3.86084
-3.02556 1.67623 3.87286
-3.04458 1.67921 3.87096
-3.05171 1.67595 3.85306
-3.0628 1.67378 3.84118
-3.08479 1.67983 3.84325
-3.09093 1.67555 3.82436
-3.10499 1.67544 3.81647
-3.115 1.67743 3.81551
-3.12213 1.67419 3.79861
-3.13619 1.67508 3.7907
-3.17125 1.67997 3.78189
-3.18432 1.67983 3.77199
-3.21849 1.68053 3.75024
-3.25968 1.68218 3.72452
-3.28098 1.67562 3.68577
-3.30019 1.67222 3.65796
-3.31128 1.67105 3.64606
-3.32832 1.67398 3.64114
-3.33941 1.67281 3.62924
1.809 1.66198 4.46273
1.80426 1.67249 4.49662
1.79032 1.6736 4.50371
1.7774 1.67577 4.51477
1.76655 1.68106 4.53378
1.75056 1.6801 4.53591
1.73561 1.6802 4.54203
1.69364 1.67729 4.54639
1.66679 1.68059 4.56554
1.65082 1.67966 4.56968
1.60984 1.67674 4.57303
1.59694 1.67995 4.58708
1.57173 1.66856 4.55944
1.5609 1.67389 4.58144
1.54696 1.67602 4.58952
1.52893 1.67299 4.5867
1.51704 1.67621 4.60074
1.50702 1.67417 4.59785
1.49411 1.67736 4.6099
1.4771 1.67535 4.60906
1.45703 1.67022 4.59928
1.4431 1.67238 4.60936
1.43225 1.67767 4.62836
1.42425 1.67667 4.62844
1.40621 1.67361 4.62362
1.38819 1.67158 4.62078
1.37838 1.67896 4.64575
1.36136 1.67694 4.64391
1.34232 1.67287 4.63811
1.32837 1.67398 4.6452
1.31626 1.66778 4.63138
1.30646 1.67617 4.65734
1.28842 1.67311 4.65252
1.27244 1.67215 4.65465
1.25647 1.67223 4.65877
1.24252 1.67434 4.66585
1.22554 1.67338 4.66799
1.21442 1.66717 4.65316
1.20258 1.67349 4.67416
1.18659 1.67251 4.6753
1.17062 1.67258 4.67942
1.15257 1.66849 4.67261
1.14073 1.67581 4.69359
1.12164 1.67066 4.68281
1.11469 1.67176 4.68885
1.09973 1.67284 4.69395
1.08477 1.67293 4.69906
1.06982 1.67504 4.70614
1.05281 1.67303 4.7043
1.03267 1.66477 4.68657
1.02084 1.67211 4.70855
1.01181 1.67006 4.70465
0.994774 1.66701 4.70083
0.981921 1.6733 4.71983
0.964875 1.67022 4.714
0.949952 1.67338 4.72407
0.93499 1.67347 4.72918
0.915882 1.66727 4.71542
0.906866 1.66625 4.7135
0.893998 1.67151 4.73052
0.875921 1.66738 4.72072
0.859928 1.6664 4.72185
0.847091 1.67372 4.74284
0.829005 1.66857 4.73206
0.813013 1.6676 4.73319
0.807106 1.67178 4.74517
0.790067 1.66972 4.74033
0.77409 1.66978 4.74345
0.758106 1.66982 4.74557
0.742083 1.66779 4.74272
0.726129 1.66889 4.74883
0.711168 1.66997 4.75393
0.702106 1.66686 4.74604
0.687198 1.67005 4.75811
0.669106 1.66588 4.7463
0.656268 1.6722 4.76731
0.63923 1.67014 4.76247
0.62323 1.66915 4.7626
0.607284 1.67127 4.76969
0.591253 1.66922 4.76584
0.583245 1.66821 4.76492
0.568331 1.67239 4.77597
0.552347 1.67243 4.77809
0.535331 1.67041 4.77625
0.520401 1.67355 4.78531
0.504386 1.67254 4.78345
0.487339 1.66946 4.77762
0.478254 1.6653 4.76675
0.462278 1.66636 4.76986
0.447347 1.6685 4.77894
0.432448 1.67271 4.79199
0.416441 1.6727 4.79111
0.400433 1.6717 4.79025
0.384472 1.67279 4.79535
0.375364 1.66759 4.78149
0.360488 1.67283 4.79753
0.343333 1.66555 4.77777
0.327388 1.66766 4.78486
0.312497 1.67288 4.79889
0.295458 1.67082 4.79405
0.279489 1.67189 4.79816
0.271404 1.66774 4.78728
0.255382 1.6667 4.78441
0.239521 1.67298 4.80244
0.223483 1.67092 4.79759
0.207475 1.66991 4.79673
0.191476 1.66993 4.79685
0.175507 1.671 4.80095
0.167484 1.66996 4.79803
0.151469 1.66894 4.79616
0.135547 1.6731 4.80622
0.119462 1.66895 4.7954
0.103555 1.67314 4.80746
0.0875709 1.67318 4.80958
0.0716416 1.67732 4.81864
0.0635101 1.67108 4.8018
0.0475105 1.67109 4.80192
-0.0401513 1.67984 4.71343
-0.0951729 1.67883 4.71086
-0.12618 1.67884 4.7101
-0.158155 1.67991 4.71332
-0.189239 1.67677 4.7026
-0.307281 1.67676 4.69749
-0.331249 1.67884 4.70164
-0.46532 1.67979 4.69264
-2.86569 1.67987 3.8556
-3.42585 1.68202 3.43673
-3.43495 1.67983 3.42383
-3.42512 1.6715 3.40188
-3.44117 1.67341 3.39497
-3.44234 1.66808 3.37305
1.84623 1.67241 4.35828
1.623 1.68107 4.46085
1.52522 1.68059 4.4916
1.50822 1.67858 4.49076
1.39343 1.67708 4.51965
1.37951 1.67924 4.52972
1.36556 1.68035 4.53681
1.34958 1.68041 4.53993
1.32354 1.67635 4.53519
1.29567 1.67963 4.55235
1.2637 1.67769 4.55562
1.23867 1.67465 4.55185
1.17675 1.67286 4.56335
1.14992 1.67921 4.58546
1.14092 1.67821 4.58554
1.11099 1.67937 4.59475
1.09603 1.67945 4.59986
1.06093 1.6733 4.58822
1.03899 1.67444 4.59637
1.01013 1.67872 4.61452
0.993087 1.67565 4.6087
0.963156 1.6768 4.61791
0.949234 1.67996 4.62797
0.938148 1.67481 4.61713
0.924226 1.67796 4.62718
0.89221 1.67496 4.62547
0.878287 1.67812 4.63553
0.863365 1.68027 4.64561
0.846318 1.6772 4.63978
0.832411 1.68039 4.65184
0.820201 1.67 4.62509
0.809419 1.68042 4.65302
0.793426 1.67944 4.65415
0.760403 1.67642 4.65144
0.729449 1.67753 4.65766
0.703318 1.6703 4.64096
0.691535 1.67972 4.66892
0.67448 1.67663 4.66209
0.659527 1.67773 4.66819
0.627481 1.67467 4.66247
0.603457 1.67264 4.65968
0.571442 1.67064 4.65796
0.542628 1.67801 4.68207
0.526628 1.67702 4.6822
0.50369 1.67916 4.69034
0.486628 1.67605 4.68252
0.470621 1.67505 4.68165
0.439676 1.67717 4.68886
0.415629 1.6741 4.68308
0.384661 1.67519 4.6873
0.369715 1.6773 4.69438
0.35377 1.67941 4.70147
0.337762 1.67841 4.70061
0.313669 1.67325 4.68886
0.28277 1.67747 4.70203
0.267833 1.6806 4.7101
0.235787 1.67753 4.70439
0.196772 1.67653 4.7027
0.164719 1.67345 4.69598
0.132666 1.67137 4.68925
0.10979 1.67662 4.70535
0.0788528 1.67976 4.71354
0.0467916 1.67667 4.70583
0.0285567 1.66227 4.54315
0.0126739 1.6685 4.55818
0.00552661 1.66123 4.53934
-0.0103412 1.66749 4.55637
-0.0253564 1.66647 4.5545
-0.0403014 1.66959 4.56157
-0.0712616 1.67168 4.56677
-0.0854859 1.66126 4.53803
-0.0934003 1.66543 4.54903
-0.109338 1.66856 4.5571
-0.12433 1.66859 4.55821
-0.139376 1.66651 4.55236
-0.154398 1.66648 4.54947
-0.185436 1.66442 4.54473
-0.193389 1.66652 4.55076
-0.208458 1.6644 4.54191
-0.223403 1.66651 4.54899
-0.239294 1.67273 4.56302
-0.254418 1.6665 4.54722
-0.269393 1.66856 4.55031
-0.284486 1.66439 4.53848
-0.292447 1.66647 4.54351
-0.307439 1.6665 4.54462
-0.324313 1.67375 4.56064
-0.337453 1.66649 4.54285
-0.35432 1.67375 4.55987
-0.368475 1.66647 4.54008
-0.383466 1.66749 4.54118
-0.390504 1.66643 4.53625
-0.406481 1.66748 4.53935
-0.438385 1.67368 4.5515
-0.452455 1.67056 4.54265
-0.468469 1.67054 4.54077
-0.482562 1.66637 4.52894
-0.492398 1.67469 4.54989
-0.505569 1.66638 4.52811
-0.521506 1.67051 4.53617
-0.536505 1.67052 4.53629
-0.550605 1.66634 4.52345
-0.565635 1.66629 4.51957
-0.583479 1.6746 4.53958
-0.58861 1.66835 4.52271
-0.603671 1.66624 4.51485
-0.619616 1.66936 4.52193
-0.635585 1.67143 4.52602
-0.650615 1.67038 4.52215
-0.665629 1.67036 4.52026
-0.681636 1.67136 4.51937
-0.693791 1.66407 4.49956
-0.704642 1.67236 4.51852
-0.715859 1.66195 4.49076
-0.734679 1.67231 4.51375
-0.748756 1.66917 4.5039
-0.764731 1.67122 4.50699
-0.779762 1.67018 4.50312
-0.793799 1.67011 4.49823
-0.803737 1.67324 4.50626
-0.816814 1.6701 4.4964
-0.831859 1.66902 4.49053
-0.84878 1.67418 4.50058
-0.863825 1.6731 4.49471
-0.876895 1.66998 4.48585
-0.890971 1.66784 4.47599
-0.899908 1.67097 4.48401
-0.917829 1.67613 4.49407
-0.930937 1.67193 4.48023
-0.944975 1.67087 4.47535
-0.957113 1.66561 4.45752
-0.975035 1.66977 4.46759
-0.991987 1.67387 4.47366
-1.00093 1.67698 4.48068
-1.01402 1.67381 4.46883
-1.02811 1.67066 4.45798
-1.04601 1.67687 4.47102
-1.05816 1.67058 4.4512
-1.07511 1.67468 4.45727
-1.08724 1.66945 4.44144
-1.09715 1.67462 4.45244
-1.1112 1.67253 4.44557
-1.12526 1.67142 4.4377
-1.1432 1.67555 4.44577
-1.15725 1.67447 4.43989
-1.17034 1.67129 4.42704
-1.18438 1.67023 4.42216
-1.19141 1.66917 4.41822
-1.21129 1.67742 4.43425
-1.22339 1.67424 4.42139
-1.23649 1.67006 4.40855
-1.25442 1.6752 4.41761
-1.26556 1.66893 4.39878
-1.27863 1.66681 4.38991
-1.28954 1.67299 4.40191
-1.30262 1.66984 4.39105
-1.32059 1.67391 4.39512
-1.33852 1.67806 4.4042
-1.35159 1.67592 4.39433
-1.36369 1.67273 4.38146
-1.38261 1.6779 4.39153
-1.38866 1.67681 4.38559
-1.3998 1.67154 4.36675
-1.41873 1.6767 4.37682
-1.44488 1.67242 4.35708
-1.46186 1.67547 4.35916
-1.47395 1.6723 4.3473
-1.48194 1.67333 4.34934
-1.49893 1.67534 4.34944
-1.51396 1.67631 4.34654
-1.52605 1.67314 4.33468
-1.53911 1.67203 4.32679
-1.55611 1.67405 4.32689
-1.57211 1.67606 4.32698
-1.59416 1.67597 4.32014
-1.60624 1.67382 4.30927
-1.62225 1.67481 4.30837
-1.63728 1.67576 4.30447
-1.65622 1.68088 4.31154
-1.68743 1.6745 4.28486
-1.7054 1.67856 4.28794
-1.71944 1.6785 4.28305
-1.73447 1.67945 4.27914
-1.77661 1.6782 4.26048
-1.81664 1.68115 4.25574
-1.8297 1.68104 4.24783
-2.23612 1.67753 4.06092
-2.28726 1.6803 4.04326
-2.31535 1.68012 4.03048
-2.33445 1.67995 4.01762
-2.3426 1.67467 3.99876
-2.35368 1.67252 3.98787
-2.36871 1.67447 3.98396
-2.38573 1.67644 3.98105
-2.39582 1.67427 3.96916
-2.40987 1.67519 3.96325
-2.41294 1.67204 3.95332
-2.42503 1.66989 3.94244
-2.44895 1.67805 3.9525
-2.44523 1.6655 3.91566
-2.46027 1.66644 3.91075
-2.47925 1.67048 3.91284
-2.49626 1.67348 3.91192
-2.49735 1.6693 3.89999
-2.51732 1.67436 3.90307
-2.52151 1.66701 3.8792
-2.54444 1.67415 3.88727
-2.5506 1.66885 3.86739
-2.56562 1.67081 3.86348
-2.57376 1.66656 3.8466
-2.59264 1.67579 3.86161
-2.5968 1.66949 3.84073
-2.60097 1.66317 3.81885
-2.63281 1.67548 3.83891
-2.62709 1.66293 3.80205
-2.65618 1.66478 3.79024
-2.66122 1.66371 3.78529
-2.68022 1.66772 3.78538
-2.69942 1.66335 3.75958
-2.71248 1.66322 3.75068
-2.73246 1.66828 3.75376
-2.77253 1.67416 3.74397
-2.76878 1.66267 3.71111
-2.78184 1.66256 3.70321
-2.79985 1.66656 3.70228
-2.8329 1.67148 3.69546
-2.8431 1.66511 3.66963
-2.85219 1.66292 3.65672
-2.88109 1.67313 3.66979
-2.91938 1.66958 3.63113
-2.94669 1.66301 3.59143
-2.95777 1.66286 3.58051
-2.99786 1.66771 3.56874
-3.02496 1.66952 3.55491
-3.04812 1.66923 3.53409
-3.05128 1.66292 3.5132
-3.07325 1.66898 3.51628
-3.07632 1.66685 3.50733
-3.08939 1.66772 3.49842
-3.09848 1.66555 3.48652
-3.12244 1.67263 3.49059
-3.12461 1.66732 3.46969
-3.14659 1.67235 3.47078
-3.1547 1.67015 3.45687
-3.15579 1.66799 3.44591
-3.16984 1.66889 3.439
-3.17894 1.66771 3.42608
-3.19993 1.67172 3.42618
-3.20109 1.66641 3.40527
-3.21515 1.6673 3.39736
-3.2292 1.66921 3.39043
-3.23236 1.66392 3.37053
-3.23939 1.66386 3.36659
-3.25245 1.66474 3.35767
-3.26155 1.66355 3.34476
-3.29462 1.66844 3.33593
-3.30984 1.66401 3.30611
-3.32183 1.66805 3.30814
-3.33885 1.671 3.30422
-3.34795 1.66982 3.29131
-3.35507 1.6676 3.27639
-3.36119 1.66437 3.26048
1.83205 1.66311 4.20251
1.81911 1.66426 4.21159
1.80924 1.6695 4.22759
1.79836 1.67374 4.24361
1.78135 1.67074 4.24278
1.77538 1.67181 4.24681
1.75839 1.66983 4.24797
1.74544 1.66995 4.25506
1.73455 1.67416 4.26909
1.71754 1.67114 4.26726
1.7036 1.67229 4.27635
1.6968 1.68066 4.30128
1.68063 1.67035 4.27955
1.6728 1.67768 4.3015
1.64965 1.66842 4.28281
1.63878 1.67267 4.29983
1.62278 1.67069 4.29998
1.60679 1.66971 4.30112
1.6 1.67913 4.32903
1.5838 1.66776 4.30332
1.56882 1.66682 4.30645
1.56307 1.67829 4.33833
1.53787 1.66593 4.3127
1.52392 1.66604 4.3198
1.50687 1.66196 4.31399
1.49294 1.66409 4.32206
1.48103 1.66628 4.33412
1.47714 1.6715 4.34908
1.45805 1.66534 4.33731
1.44514 1.66853 4.34936
1.42914 1.66652 4.34851
1.42031 1.67386 4.37047
1.40021 1.66669 4.35873
1.38317 1.66363 4.3539
1.38237 1.67302 4.37977
1.36226 1.66582 4.36603
1.34831 1.66692 4.37212
1.33333 1.66596 4.37425
1.3235 1.67331 4.39721
1.30235 1.66403 4.37751
1.28841 1.66516 4.3856
1.2845 1.67034 4.39755
1.26645 1.66525 4.39076
1.25146 1.66529 4.39287
1.23545 1.66329 4.39202
1.22564 1.67065 4.41599
1.20551 1.66341 4.39925
1.20268 1.67074 4.42117
1.18357 1.66355 4.40741
1.16961 1.66463 4.4125
1.15979 1.67299 4.43646
1.14068 1.66579 4.42171
1.1288 1.67103 4.43772
1.11175 1.66695 4.43191
1.10274 1.66593 4.42999
1.07898 1.67541 4.46103
1.05573 1.66195 4.4294
1.04178 1.66307 4.43649
1.03095 1.6704 4.45847
1.01182 1.66216 4.44173
1.00383 1.66218 4.44279
0.991953 1.66743 4.45881
0.974891 1.66332 4.451
0.960969 1.66648 4.46105
0.949123 1.67278 4.48105
0.929968 1.6645 4.46132
0.916022 1.66562 4.46841
0.899983 1.66255 4.46357
0.893037 1.66466 4.47059
0.877029 1.66366 4.46973
0.864138 1.66788 4.48377
0.85437 1.67833 4.51369
0.819199 1.66803 4.4921
0.80213 1.66391 4.48329
0.795168 1.66499 4.48833
0.765199 1.66507 4.49256
0.749145 1.66197 4.48572
0.736292 1.66826 4.50473
0.7213 1.66729 4.50585
0.704245 1.6642 4.49903
0.701478 1.67564 4.52888
0.682269 1.66426 4.50219
0.667323 1.66637 4.50927
0.6513 1.66434 4.50643
0.638424 1.66959 4.52245
0.605284 1.66135 4.50482
0.598331 1.66344 4.51084
0.584416 1.66761 4.52188
0.568386 1.66556 4.51803
0.552362 1.66353 4.51518
0.53737 1.66356 4.5163
0.523425 1.66567 4.52337
0.510657 1.67612 4.55332
0.486525 1.66889 4.5366
0.453394 1.66166 4.51996
0.440588 1.67004 4.54493
0.424495 1.66588 4.53312
0.408418 1.66174 4.5233
0.371527 1.66597 4.53751
0.357798 1.6785 4.57244
0.340504 1.66395 4.53478
0.325535 1.66502 4.53887
0.310559 1.66608 4.54197
0.294512 1.663 4.53614
0.272559 1.66511 4.54227
0.256536 1.66407 4.53941
0.241529 1.66307 4.53854
0.21163 1.66728 4.5517
0.195529 1.6621 4.5389
0.187514 1.66208 4.53696
0.172561 1.66418 4.54304
0.157507 1.66109 4.5362
0.142616 1.6663 4.55024
0.127733 1.67154 4.56527
0.111593 1.66428 4.5475
0.104625 1.66635 4.55152
0.0735943 1.66431 4.54778
0.0585797 1.66429 4.5459
0.0438129 1.67575 4.57584
0.0276582 1.66949 4.42304
0.0126981 1.67258 4.4281
-0.00234094 1.66951 4.42326
-0.0173405 1.66952 4.42338
-0.0323476 1.66952 4.42249
-0.0463623 1.6695 4.42059
-0.0543313 1.67057 4.42464
-0.0693227 1.67159 4.42574
-0.0843066 1.67263 4.42783
-0.0992365 1.67578 4.4369
-0.113353 1.66957 4.4221
-0.128313 1.67265 4.42717
-0.14332 1.67265 4.42628
-0.150382 1.66953 4.41838
-0.165296 1.67371 4.42943
-0.18042 1.66748 4.41363
-0.195287 1.67474 4.43064
-0.21031 1.67371 4.42777
-0.225333 1.67268 4.4249
-0.240347 1.67266 4.42301
-0.247386 1.67059 4.41809
-0.2623 1.67476 4.42914
-0.277385 1.67161 4.4183
-0.292275 1.67783 4.43232
-0.307322 1.67475 4.42648
-0.32139 1.67263 4.41762
-0.337328 1.67576 4.42569
-0.344374 1.67367 4.41978
-0.358443 1.67055 4.41093
-0.374349 1.67574 4.42297
-0.389341 1.67677 4.42407
-0.403394 1.67467 4.41721
-0.419332 1.6778 4.42528
-0.433416 1.67465 4.41443
-0.4484 1.67569 4.41653
-0.455415 1.67467 4.4146
-0.471344 1.67981 4.42364
-0.484468 1.67358 4.40783
-0.501366 1.67979 4.42087
-0.514497 1.67355 4.40406
-0.530434 1.67768 4.41212
-0.54448 1.6756 4.40625
-0.552441 1.67768 4.41128
-0.566525 1.67452 4.40044
-0.59557 1.67346 4.39467
-0.611499 1.6776 4.40373
-0.625569 1.67448 4.39488
-0.647621 1.67339 4.38806
-0.663566 1.67751 4.39512
-0.676681 1.67229 4.3803
-0.692642 1.67438 4.38539
-0.707625 1.67642 4.38747
-0.722647 1.67639 4.38458
-0.736662 1.67637 4.38269
-0.758692 1.67632 4.37885
-0.775621 1.68047 4.38792
-0.78776 1.67421 4.3701
-0.817781 1.67519 4.36731
-0.839795 1.67618 4.36546
-0.855747 1.67928 4.37154
-0.869808 1.67717 4.36368
-0.88387 1.67506 4.35581
-0.898853 1.6771 4.35789
-0.927912 1.677 4.35011
-0.949942 1.67696 4.34628
-0.979947 1.67897 4.34548
-0.994016 1.67684 4.33661
-1.00804 1.67681 4.33372
-1.03201 1.67989 4.33785
-1.06008 1.67876 4.32808
-1.09012 1.67871 4.32331
-1.10512 1.68072 4.32339
-1.1262 1.67857 4.31258
-1.14023 1.67852 4.30869
-1.17026 1.67948 4.3049
-1.19833 1.67837 4.29612
-1.26444 1.67918 4.28061
-1.29252 1.67805 4.27083
-1.30849 1.68111 4.27391
-1.34264 1.67784 4.25421
-1.38571 1.67874 4.24552
-1.40483 1.67551 4.22971
-1.50896 1.68032 4.21242
-1.51598 1.68028 4.20948
-1.54407 1.68014 4.19869
-1.5581 1.68009 4.19479
-1.66243 1.67752 4.15161
-2.31357 1.67972 3.86845
-2.34669 1.68051 3.85268
-2.3839 1.67712 3.82501
-2.40299 1.67698 3.81415
-2.42097 1.68202 3.81621
-2.43304 1.68088 3.80632
-2.44215 1.67768 3.79244
-2.45422 1.67655 3.78354
-2.47123 1.67954 3.78163
-2.4833 1.67941 3.77272
-2.48735 1.67731 3.76578
-2.50557 1.6709 3.73701
-2.51763 1.67079 3.7291
-2.53761 1.67584 3.73217
-2.54671 1.67366 3.71927
-2.5568 1.67149 3.70738
-2.5648 1.67348 3.70641
-2.57688 1.67234 3.69652
-2.58696 1.67018 3.68562
-2.60891 1.67729 3.69168
-2.61505 1.67303 3.67379
-2.62614 1.67086 3.6619
-2.64216 1.67384 3.65998
-2.64522 1.67171 3.65103
-2.65828 1.6716 3.64313
-2.67627 1.67563 3.64421
-2.69033 1.67653 3.6373
-2.69053 1.66815 3.61142
-2.70952 1.67218 3.61251
-2.72059 1.67204 3.60259
-2.72662 1.67198 3.59864
-2.74364 1.67395 3.59573
-2.74976 1.67072 3.57983
-2.7658 1.67266 3.57492
-2.78083 1.67461 3.571
-2.7919 1.67347 3.5611
-2.80002 1.67125 3.54619
-2.80803 1.67224 3.54524
-2.82207 1.67316 3.53933
-2.8292 1.66992 3.52243
-2.8472 1.67393 3.5225
-2.85531 1.67071 3.50761
-2.86243 1.6675 3.49271
-2.88637 1.67562 3.49977
-2.88349 1.67038 3.48383
-2.8926 1.66718 3.46994
-2.90862 1.67015 3.46702
-2.9197 1.66999 3.4561
-2.93572 1.67196 3.45319
-2.9468 1.6718 3.44228
-2.96184 1.67374 3.43736
-2.96499 1.66846 3.41846
-2.97895 1.67355 3.42349
-2.98606 1.67033 3.40859
-3.00209 1.67328 3.40467
-3.01019 1.67108 3.39076
-3.02128 1.66993 3.37986
-3.04127 1.67495 3.38093
-3.05729 1.67791 3.37701
-3.05936 1.67577 3.36805
-3.07341 1.67668 3.36115
-3.08251 1.6755 3.34823
-3.09755 1.67743 3.34331
-3.11062 1.67831 3.3344
-3.11772 1.67511 3.3205
-3.13078 1.676 3.31258
-3.1388 1.67797 3.31061
-3.14294 1.6727 3.29172
-3.15897 1.67565 3.2878
-3.175 1.67858 3.28287
-3.1841 1.67741 3.27096
-3.19914 1.67934 3.26504
-3.20319 1.67824 3.25809
-3.21427 1.6781 3.24817
-3.21841 1.67383 3.23026
-3.2265 1.67165 3.21735
-3.23759 1.67149 3.20644
-3.24866 1.67135 3.19652
-3.25577 1.66915 3.18261
-3.26776 1.67317 3.18364
-3.27883 1.67303 3.17372
-3.28396 1.6698 3.15781
-3.299 1.67172 3.15189
-3.30512 1.66849 3.13598
-3.32313 1.67247 3.13406
-3.32727 1.66921 3.11614
-3.34529 1.67218 3.11323
-3.33941 1.66694 3.09726
-3.35447 1.66884 3.09034
1.87579 1.66361 4.03515
1.86387 1.66576 4.04521
1.86314 1.67828 4.08003
1.84596 1.66797 4.05831
1.8371 1.67324 4.0763
1.82517 1.67438 4.08538
1.81224 1.67653 4.09444
1.7993 1.67665 4.10254
1.78534 1.67674 4.10764
1.77341 1.67888 4.1167
1.76542 1.6779 4.11778
1.74942 1.67591 4.11793
1.7375 1.67808 4.12899
1.72048 1.67507 4.12716
1.70653 1.67517 4.13326
1.67655 1.67223 4.13653
1.66566 1.67645 4.15056
1.6546 1.67234 4.1427
1.6386 1.66935 4.14286
1.62871 1.67458 4.15786
1.61271 1.67259 4.15801
1.59978 1.67373 4.16709
1.58376 1.6707 4.16426
1.56878 1.66976 4.16739
1.56384 1.67288 4.17538
1.54886 1.67193 4.17851
1.53797 1.67515 4.19254
1.52298 1.67417 4.19367
1.51006 1.67633 4.20374
1.49404 1.67331 4.2019
1.47702 1.67028 4.19907
1.47208 1.6734 4.20707
1.45709 1.67244 4.20919
1.44313 1.67253 4.2143
1.42712 1.67053 4.21345
1.41317 1.67062 4.21955
1.39818 1.67067 4.22167
1.39223 1.67176 4.2277
1.37622 1.66976 4.22685
1.36328 1.67088 4.23493
1.34828 1.66989 4.23506
1.3374 1.67412 4.25008
1.32346 1.67625 4.25815
1.3064 1.67116 4.25135
1.30147 1.6743 4.26035
1.28547 1.6723 4.2595
1.2674 1.66718 4.25071
1.2555 1.67138 4.26374
1.24256 1.6725 4.27182
1.22553 1.66946 4.26799
1.21259 1.67159 4.27606
1.20356 1.66953 4.27216
1.19268 1.67478 4.28816
1.17459 1.66863 4.27739
1.16064 1.66973 4.28348
1.14873 1.67291 4.29552
1.13171 1.66988 4.2927
1.11775 1.67097 4.29778
1.10379 1.67205 4.30288
1.09474 1.66897 4.29699
1.08284 1.67217 4.31003
1.06681 1.67012 4.30618
1.05078 1.66707 4.30235
1.03787 1.67026 4.3144
1.02287 1.66927 4.31453
1.00788 1.6683 4.31565
1.00089 1.66832 4.31671
0.986939 1.67043 4.32378
0.968846 1.66427 4.31201
0.959039 1.67264 4.33696
0.944039 1.67165 4.33709
0.926961 1.66652 4.32729
0.911961 1.66553 4.32742
0.907077 1.67076 4.34238
0.891023 1.66766 4.33555
0.876046 1.66772 4.33866
0.863124 1.67088 4.34871
0.846046 1.66574 4.33891
0.834209 1.67306 4.3599
0.819185 1.67103 4.35704
0.810123 1.66692 4.34917
0.797209 1.67109 4.36021
0.782216 1.67011 4.36133
0.766161 1.66602 4.35451
0.751192 1.66709 4.35861
0.73827 1.67025 4.36866
0.72327 1.66926 4.36879
0.714208 1.66615 4.36091
0.701324 1.67138 4.37593
0.685239 1.66623 4.36512
0.670269 1.6663 4.36924
0.657386 1.67153 4.38426
0.642371 1.67051 4.38238
0.626316 1.66642 4.37557
0.621433 1.67264 4.39051
0.603278 1.66436 4.37077
0.590378 1.66856 4.38381
0.577495 1.67379 4.39883
0.560386 1.6676 4.38505
0.545371 1.66658 4.38317
0.532534 1.6739 4.40416
0.515394 1.66665 4.3864
0.508433 1.66773 4.39144
0.494503 1.67087 4.4005
0.478371 1.66363 4.38372
0.463363 1.66263 4.38285
0.451581 1.67305 4.41079
0.434418 1.66475 4.39004
0.420511 1.66894 4.40208
0.413574 1.67206 4.41009
0.397449 1.66484 4.39432
0.382489 1.66692 4.3994
0.368558 1.66907 4.40847
0.35352 1.667 4.40362
0.338559 1.66909 4.4087
0.331551 1.66808 4.40777
0.316543 1.66707 4.40689
0.30259 1.66917 4.41297
0.287583 1.66917 4.41208
0.271545 1.66711 4.40723
0.257552 1.66713 4.40834
0.242584 1.6682 4.41243
0.235591 1.66822 4.41349
0.22067 1.67238 4.42354
0.205639 1.67033 4.41968
0.190647 1.67036 4.4208
0.175577 1.66724 4.41195
0.160554 1.6652 4.4091
0.146655 1.67041 4.42213
0.138632 1.66937 4.4192
0.124749 1.6746 4.43423
0.108609 1.66734 4.41646
0.0945791 1.6663 4.41258
0.0796649 1.67047 4.42363
0.0646421 1.66944 4.42076
0.0497122 1.67258 4.42983
0.0427124 1.67258 4.42988
0.0237881 1.67378 4.30699
0.00874207 1.6717 4.30113
-0.00611005 1.67899 4.32014
-0.0132573 1.67171 4.30129
-0.0271716 1.67589 4.31234
-0.042109 1.67902 4.32041
-0.0562874 1.66969 4.29765
-0.0702481 1.67177 4.30272
-0.0852082 1.67486 4.30779
-0.100107 1.68006 4.32083
-0.114269 1.67176 4.30006
-0.1212 1.6749 4.30906
-0.136184 1.67594 4.31116
-0.151159 1.67799 4.31424
-0.165136 1.67905 4.31733
-0.179259 1.67282 4.30153
-0.19422 1.67491 4.30661
-0.20918 1.67799 4.31168
-0.215242 1.67488 4.30377
-0.230218 1.67593 4.30687
-0.245148 1.68008 4.31592
-0.259287 1.67282 4.29813
-0.274208 1.67798 4.30817
-0.288201 1.678 4.30927
-0.301363 1.6697 4.28849
-0.3093 1.67383 4.29649
-0.324245 1.67694 4.30356
-0.339252 1.67694 4.30267
-0.354236 1.67798 4.30477
-0.368228 1.679 4.30586
-0.39728 1.67792 4.2991
-0.40428 1.67792 4.29915
-0.419233 1.68002 4.30523
-0.446418 1.67169 4.28156
-0.461378 1.67477 4.28662
-0.475393 1.67475 4.28473
-0.491345 1.67785 4.2908
-0.498353 1.67785 4.28986
-0.526406 1.67576 4.2831
-0.541374 1.67783 4.28718
-0.556404 1.67778 4.28329
-0.571364 1.67987 4.28838
-0.584464 1.67569 4.27554
-0.591456 1.67671 4.27657
-0.60644 1.67775 4.27867
-0.621455 1.67773 4.27678
-0.6345 1.67665 4.2709
-0.650445 1.67976 4.27797
-0.664499 1.67767 4.27111
-0.678528 1.67762 4.26721
-0.726689 1.67135 4.24667
-0.758585 1.67956 4.25979
-0.772616 1.67851 4.25591
-0.80769 1.67739 4.24619
-0.822682 1.67841 4.24729
-0.864748 1.67831 4.2386
-0.87274 1.67933 4.23965
-0.887747 1.67933 4.23876
-0.902738 1.68135 4.23984
-0.915776 1.68029 4.23496
-0.965857 1.68016 4.22434
-0.992948 1.67801 4.21257
-1.00697 1.67797 4.20968
-1.03699 1.67895 4.20689
-1.05803 1.67889 4.20205
-1.19227 1.6795 4.17004
-1.2063 1.67945 4.16615
-1.31349 1.68116 4.14193
-2.30959 1.68172 3.73337
-2.40302 1.67995 3.67709
-2.4674 1.67624 3.62662
-2.48341 1.67922 3.6247
-2.4935 1.67706 3.61381
-2.5095 1.68006 3.61288
-2.5196 1.67788 3.59999
-2.53166 1.67777 3.59208
-2.54471 1.67869 3.58616
-2.54679 1.67553 3.57523
-2.5628 1.67851 3.5733
-2.56597 1.67119 3.55143
-2.58396 1.67621 3.55249
-2.60591 1.68232 3.55857
-2.60215 1.67086 3.5277
-2.61718 1.67281 3.52379
-2.63122 1.67474 3.51887
-2.6412 1.67778 3.5209
-2.6602 1.68179 3.52098
-2.66533 1.67755 3.50408
-2.67542 1.67538 3.49219
-2.68253 1.67217 3.47828
-2.7126 1.67605 3.46845
-2.71565 1.67495 3.46149
-2.7287 1.67485 3.45459
-2.7378 1.67267 3.44169
-2.76273 1.68182 3.45074
-2.76489 1.67551 3.42985
-2.77597 1.67437 3.41995
-2.79001 1.67629 3.41402
-2.78713 1.67005 3.39809
-2.80612 1.67508 3.39916
-2.82115 1.67703 3.39525
-2.83322 1.67691 3.38634
-2.8433 1.67575 3.37543
-2.8613 1.68076 3.37549
-2.85941 1.67554 3.36055
-2.86652 1.67234 3.34665
-2.88453 1.67634 3.34573
-2.89362 1.67517 3.33381
-2.9146 1.68121 3.33588
-2.91972 1.67698 3.31998
-2.94674 1.68295 3.31709
-2.95781 1.68283 3.30818
-2.97087 1.68272 3.30028
-2.97996 1.68155 3.28836
-2.99103 1.68141 3.27844
-3.0021 1.68128 3.26953
-3.01416 1.68217 3.2616
-3.02929 1.67993 3.24475
-3.04036 1.67979 3.23483
-3.04648 1.67657 3.21993
-3.05556 1.67642 3.20899
-3.07159 1.67937 3.20507
-3.08266 1.67923 3.19516
-3.09176 1.67704 3.18225
-3.10572 1.68213 3.18728
-3.11283 1.67993 3.17337
-3.12588 1.68083 3.16645
-3.13596 1.68068 3.15553
-3.14505 1.6795 3.14361
-3.14919 1.67524 3.12571
-3.17224 1.67915 3.11882
-3.18728 1.68108 3.1129
-3.19934 1.68197 3.10498
-3.20347 1.67772 3.08807
-3.20661 1.67345 3.07016
-3.22561 1.67845 3.06923
-3.22082 1.66906 3.04333
-3.24471 1.67927 3.05636
-3.24982 1.67706 3.04143
-3.25792 1.67487 3.02852
-3.26701 1.6737 3.0166
-3.27411 1.67251 3.00367
-3.28122 1.67031 2.98975
-3.29229 1.67018 2.98084
-3.30428 1.67421 2.98187
-3.30841 1.66996 2.96496
-3.31054 1.66569 2.94704
-3.3236 1.66758 2.93911
1.89989 1.67281 3.91481
1.88899 1.67601 3.92785
1.85421 1.68147 3.95703
1.84024 1.68154 3.96114
1.83327 1.68159 3.96419
1.81828 1.67963 3.96633
1.79136 1.67979 3.97654
1.77434 1.67678 3.97471
1.76139 1.67688 3.9808
1.7515 1.6811 3.99582
1.74451 1.68012 3.99689
1.73055 1.68022 4.00299
1.69955 1.67625 4.00328
1.68762 1.67739 4.01236
1.67075 1.68164 4.02842
1.65473 1.67862 4.02659
1.64178 1.67973 4.03367
1.62885 1.68087 4.04275
1.6118 1.6768 4.03694
1.60091 1.68101 4.05096
1.58695 1.6811 4.05607
1.56599 1.68019 4.06124
1.55406 1.68133 4.07031
1.5251 1.68044 4.07655
1.49717 1.68059 4.08575
1.49122 1.68169 4.09178
1.47621 1.67968 4.09093
1.45916 1.67561 4.08511
1.43225 1.6768 4.0973
1.41624 1.67379 4.09547
1.40534 1.67799 4.10849
1.38643 1.68018 4.1206
1.36837 1.67609 4.1138
1.35851 1.68135 4.13079
1.34041 1.67418 4.11904
1.32851 1.67838 4.13206
1.31351 1.67639 4.13221
1.29645 1.67129 4.12441
1.28948 1.67235 4.12845
1.2646 1.67661 4.14457
1.2527 1.67981 4.15762
1.21962 1.67268 4.14797
1.20666 1.67377 4.15305
