-5.40634 1.61109 15.5934
-5.52447 1.29005 12.5497
-5.53123 1.25269 12.1872
-5.54359 1.23403 12.0076
-5.54535 1.22357 11.9087
-5.56118 1.17209 11.4035
-5.56681 1.16388 11.3217
-5.5675 1.15454 11.2308
-5.40179 1.72102 15.6558
-5.52861 1.34479 12.2608
-5.53649 1.31812 12.0133
-5.54217 1.30779 11.9234
-5.54589 1.29739 11.8286
-5.55746 1.29029 11.7538
-5.55438 1.26256 11.5021
-5.39371 1.83202 15.6551
-5.39591 1.81268 15.4974
-5.40394 1.79669 15.3626
-5.42768 1.72347 14.7398
-5.43269 1.70751 14.6071
-5.44354 1.69486 14.4953
-5.45403 1.64106 14.0361
-5.46385 1.62847 13.9284
-5.47072 1.61479 13.8146
-5.47561 1.60106 13.6978
-5.47797 1.56446 13.3874
-5.48576 1.55293 13.2836
-5.49148 1.52657 13.057
-5.50318 1.51623 12.9662
-5.50827 1.48415 12.6907
-5.51107 1.4716 12.5859
-5.5178 1.46119 12.4901
-5.53041 1.452 12.4093
-5.5322 1.44047 12.3065
-5.52946 1.42102 12.1407
-5.53395 1.39812 11.9451
-5.54356 1.38993 11.8642
-5.54725 1.37958 11.7734
-5.5549 1.36933 11.6886
-5.40968 1.85322 14.9928
-5.4441 1.7657 14.2813
-5.46433 1.68053 13.5946
-5.47017 1.66689 13.4838
-5.49481 1.59287 12.874
-5.50354 1.58146 12.7782
-5.52283 1.51311 12.2143
-5.52854 1.50274 12.1215
-5.52934 1.49019 12.0167
-5.41422 1.91911 14.7818
-5.42218 1.90225 14.6561
-5.42718 1.8853 14.5244
-5.43803 1.87165 14.4127
-5.443 1.85578 14.2859
-5.44554 1.81184 13.9525
-5.45242 1.79712 13.8368
-5.45928 1.78346 13.724
-5.46614 1.76879 13.6113
-5.47394 1.75523 13.5055
-5.47783 1.7405 13.3888
-5.47428 1.71567 13.1981
-5.48492 1.6885 12.9835
-5.49167 1.67604 12.8847
-5.51206 1.65435 12.7022
-5.5007 1.64309 12.6183
-5.51021 1.61817 12.4207
-5.5169 1.60681 12.3289
-5.5236 1.59546 12.2371
-5.52736 1.583 12.1383
-5.53403 1.5717 12.0505
-5.53888 1.54109 11.807
-5.47082 1.91728 13.3731
-5.46978 1.89942 13.2473
-5.47363 1.88378 13.1366
-5.48532 1.87143 13.0448
-5.48565 1.84785 12.8712
-5.49438 1.83444 12.7754
-5.50112 1.82099 12.6776
-5.50491 1.80747 12.5749
-5.51262 1.79509 12.4811
-5.51562 1.7582 12.2186
-5.52035 1.7458 12.1238
-5.52014 1.73126 12.02
-5.51121 1.89886 12.1275
-5.51495 1.88543 12.0307
-5.91874 -0.466141 1.25507
-5.92336 -0.467322 1.04009
-5.9235 -0.467603 1.0211
-5.75977 -0.423532 6.16492
-5.76632 -0.423623 6.09096
-5.77119 -0.422322 5.97596
-5.76765 -0.422243 5.91393
-5.76695 -0.421836 5.87391
-5.77617 -0.422244 5.84598
-5.77646 -0.421821 5.80697
-5.77774 -0.421369 5.76997
-5.77632 -0.42151 5.69295
-5.77149 -0.420854 5.6699
-5.77772 -0.421309 5.63895
-5.77602 -0.420902 5.59892
-5.77431 -0.420466 5.5609
-5.78054 -0.420921 5.52995
-5.77982 -0.420469 5.49293
-5.77811 -0.420033 5.45491
-5.78419 -0.420192 5.44395
-5.77851 -0.419833 5.4009
-5.77976 -0.419321 5.3679
-5.78797 -0.419729 5.33996
-5.78426 -0.41931 5.30092
-5.78751 -0.419781 5.26895
-5.79174 -0.419237 5.23797
-5.78802 -0.418788 5.20093
-5.7812 -0.419163 5.17588
-5.79139 -0.419526 5.15096
-5.79065 -0.41903 5.11694
-5.79885 -0.419424 5.09
-5.7991 -0.418913 5.05699
-5.7924 -0.41851 5.01693
-5.8006 -0.418889 4.991
-5.79475 -0.418204 4.96994
-5.79402 -0.418723 4.93494
-5.79525 -0.418181 4.90393
-5.7955 -0.41767 4.87092
-5.80369 -0.418034 4.84599
-5.80294 -0.418523 4.81298
-5.80914 -0.417919 4.78602
-5.8033 -0.418234 4.76498
-5.80354 -0.417708 4.73296
-5.7998 -0.417229 4.69793
-5.806 -0.417609 4.67197
-5.8112 -0.418005 4.64502
-5.88041 -0.418855 2.49125
-5.87659 -0.419213 2.46723
-5.87178 -0.418587 2.44218
-5.87293 -0.418897 2.42119
-5.86912 -0.41927 2.39616
-5.86937 -0.418758 2.36315
-5.87851 -0.419018 2.34522
-5.8687 -0.41941 2.31915
-5.87386 -0.419718 2.29819
-5.87817 -0.419322 2.25721
-5.87534 -0.419664 2.23419
-5.87144 -0.41986 2.22116
-5.88971 -0.420379 2.1853
-5.8819 -0.419755 2.16023
-5.88406 -0.420065 2.13925
-5.88421 -0.420376 2.11825
-5.88653 -0.420996 2.07627
-5.87564 -0.420226 2.06118
-5.89376 -0.421435 2.04633
-5.88194 -0.420814 2.02123
-5.88011 -0.421141 1.99922
-5.89324 -0.421383 1.98232
-5.89755 -0.421987 1.94135
-5.88765 -0.421202 1.92726
-5.88582 -0.421529 1.90525
-5.88098 -0.421858 1.88322
-5.8971 -0.422069 1.86834
-5.89857 -0.422 1.80534
-5.88883 -0.422511 1.77127
-5.88599 -0.422839 1.74925
-5.89413 -0.4231 1.73131
-5.89942 -0.422673 1.69234
-5.89666 -0.423149 1.66032
-5.89582 -0.423461 1.63932
-5.89199 -0.423789 1.61729
-5.90226 -0.42333 1.58036
-5.89958 -0.423954 1.53834
-5.89481 -0.424416 1.50731
-5.89627 -0.424319 1.44631
-5.89642 -0.424615 1.42631
-5.89757 -0.424895 1.40732
-5.90493 -0.425601 1.35938
-5.90922 -0.426175 1.32042
-5.91037 -0.42647 1.30043
-5.91367 -0.426045 1.26144
-5.90919 -0.427085 1.19141
-5.91943 -0.428506 1.02749
-5.92629 -0.399268 1.04311
-5.79669 -0.321244 5.10154
-5.80229 -0.322379 4.88957
-5.79955 -0.321899 4.85453
-5.80724 -0.323241 4.7636
-5.88088 -0.339855 2.28806
-5.88652 -0.341109 2.20311
-5.89008 -0.341217 2.12813
-5.88626 -0.341561 2.1051
-5.88442 -0.341888 2.08309
-5.88957 -0.34218 2.06313
-5.88973 -0.342491 2.04213
-5.89089 -0.342801 2.02114
-5.89296 -0.342948 2.01116
-5.88714 -0.343292 1.98811
-5.88829 -0.342603 1.96711
-5.89144 -0.342897 1.94714
-5.8936 -0.343206 1.92615
-5.88478 -0.343568 1.90209
-5.89591 -0.343811 1.88517
-5.892 -0.343992 1.87315
-5.88717 -0.344321 1.85111
-5.8953 -0.344582 1.83317
-5.88749 -0.344943 1.80912
-5.89363 -0.34522 1.79016
-5.89577 -0.3455 1.77118
-5.89094 -0.344844 1.74813
-5.89209 -0.345139 1.72814
-5.89915 -0.345252 1.7202
-5.89333 -0.345597 1.69716
-5.89847 -0.345875 1.6782
-5.89862 -0.346171 1.6582
-5.89678 -0.346483 1.63719
-5.89494 -0.346796 1.61617
-5.89909 -0.347089 1.59621
-5.90016 -0.347221 1.58722
-5.89831 -0.347534 1.5662
-5.89248 -0.346864 1.54415
-5.89862 -0.347141 1.52519
-5.89877 -0.347437 1.5052
-5.89792 -0.347733 1.48519
-5.90207 -0.348027 1.46523
-5.89317 -0.348211 1.45316
-5.9003 -0.348472 1.43521
-5.89447 -0.348802 1.41317
-5.90659 -0.34903 1.39726
-5.90275 -0.349359 1.37524
-5.9059 -0.349638 1.35626
-5.90105 -0.349952 1.33523
-5.90412 -0.350083 1.32625
-5.89729 -0.350414 1.3042
-5.90043 -0.349693 1.28521
-5.91056 -0.350937 1.26831
-5.90971 -0.350234 1.24829
-5.90287 -0.350565 1.22624
-5.90402 -0.350846 1.20725
-5.90409 -0.350994 1.19725
-5.90924 -0.351271 1.17829
-5.91053 -0.351848 1.1393
-5.663 -0.253923 8.77504
-5.66079 -0.174713 9.19391
-5.66524 -0.174599 9.13393
-5.65464 -0.175376 9.08186
-5.66106 -0.176201 9.02591
-5.66642 -0.179832 8.71296
-5.66863 -0.180245 8.68498
-5.67745 -0.181868 8.57505
-5.67889 -0.182725 8.51707
-5.68232 -0.183567 8.4601
-5.6887 -0.184303 8.41015
-5.68913 -0.184161 8.35215
-5.69057 -0.185019 8.29416
-5.68781 -0.185495 8.26214
-5.74671 -0.211712 6.15168
-5.74915 -0.212569 6.09371
-5.74648 -0.213223 6.04969
-5.74975 -0.213754 6.01372
-5.76393 -0.214099 5.98983
-5.75332 -0.213877 5.93774
-5.75758 -0.214377 5.90377
-5.75871 -0.214643 5.88578
-5.75504 -0.215282 5.84276
-5.76028 -0.215752 5.8108
-5.76057 -0.216329 5.7718
-5.75915 -0.217471 5.6948
-5.76836 -0.217879 5.66687
-5.76651 -0.218176 5.64686
-5.7631 -0.219334 5.56884
-5.76762 -0.220352 5.49988
-5.77385 -0.219792 5.46991
-5.76717 -0.220433 5.42687
-5.77253 -0.22114 5.37891
-5.76982 -0.221705 5.34089
-5.7763 -0.222648 5.27695
-5.77558 -0.223196 5.23995
-5.77497 -0.223967 5.18794
-5.77971 -0.225415 5.08999
-5.77996 -0.225903 5.05699
-5.7822 -0.226375 5.02501
-5.78543 -0.225817 4.99502
-5.78158 -0.226116 4.975
-5.78083 -0.22662 4.94099
-5.78804 -0.227015 4.91405
-5.7853 -0.227535 4.87903
-5.78579 -0.228497 4.81404
-5.79397 -0.228847 4.79011
-5.79902 -0.230916 4.65015
-5.79229 -0.231454 4.61411
-5.86485 -0.261919 2.28378
-5.87494 -0.266014 2.00688
-5.88179 -0.267682 1.89394
-5.92604 -0.28091 0.931338
-5.92349 -0.281785 0.872324
-5.92855 -0.2819 0.864363
-5.65893 -0.0580815 8.89813
-5.75728 -0.116959 6.06635
-5.77719 -0.127615 5.54858
-5.79502 -0.138139 5.0398
-5.79639 -0.141818 4.85884
-5.80085 -0.142718 4.79788
-5.80307 -0.14316 4.7679
-5.79941 -0.146784 4.5909
-5.87617 -0.18866 2.3678
-5.89333 -0.198821 1.816
-5.89419 -0.200509 1.70201
-5.90133 -0.200785 1.68307
-5.90148 -0.201081 1.66307
-5.89204 -0.202199 1.58801
-5.88966 -0.204414 1.50601
-5.90785 -0.203772 1.48114
-5.90002 -0.205103 1.45909
-5.89618 -0.205417 1.43807
-5.90446 -0.205973 1.40013
-5.89379 -0.206618 1.35705
-5.91212 -0.207271 1.3122
-5.89631 -0.207638 1.28808
-5.91472 -0.208439 1.23322
-5.91723 -0.209444 1.16525
-5.91139 -0.209759 1.1442
-5.90855 -0.210072 1.12318
-5.91435 -0.211638 1.01724
-5.75783 -0.0631352 6.12156
-5.75218 -0.0638205 6.07552
-5.75927 -0.0649929 6.06359
-5.74568 -0.0658172 6.0085
-5.75093 -0.0673019 5.97555
-5.75023 -0.0678948 5.93555
-5.75648 -0.0683789 5.9026
-5.75776 -0.0699257 5.86563
-5.76599 -0.070364 5.83569
-5.75933 -0.0710352 5.79065
-5.76046 -0.0723008 5.77267
-5.75578 -0.0729261 5.73064
-5.763 -0.0733651 5.7007
-5.75888 -0.0760858 5.58469
-5.76511 -0.0775401 5.55375
-5.76723 -0.0777755 5.53777
-5.7685 -0.0782929 5.50278
-5.76479 -0.079873 5.46377
-5.76606 -0.0803903 5.42879
-5.77227 -0.0808153 5.39983
-5.77155 -0.0813637 5.36283
-5.77479 -0.0828351 5.33087
-5.77246 -0.0851545 5.24188
-5.77622 -0.0876325 5.14193
-5.77647 -0.088121 5.10893
-5.77684 -0.0888611 5.05894
-5.7833 -0.0907596 4.99801
-5.77958 -0.0913102 4.96098
-5.78082 -0.0927682 4.93001
-5.78589 -0.0958672 4.78808
-5.7866 -0.0982733 4.6931
-5.86011 -0.148602 2.37208
-5.86625 -0.149879 2.35314
-5.86168 -0.150726 2.29611
-5.86516 -0.151671 2.23215
-5.86748 -0.152307 2.18917
-5.86864 -0.153617 2.16819
-5.87651 -0.155314 2.05326
-5.87192 -0.156132 1.99823
-5.92079 -0.175555 0.954743
-5.92287 -0.175702 0.944759
-5.91702 -0.176002 0.924717
-5.92595 -0.177832 0.800794
-5.92409 -0.178114 0.781782
-5.80367 -0.0484285 4.54647
-5.88259 -0.108552 2.17163
-5.88997 -0.115241 1.85474
-5.89136 -0.115995 1.80376
-5.89383 -0.117911 1.74179
-5.89928 -0.118795 1.68184
-5.90013 -0.121468 1.56887
-5.89498 -0.123145 1.45584
-5.8988 -0.125756 1.34689
-5.89825 -0.12663 1.28789
-5.9103 -0.126725 1.28099
-5.90062 -0.127354 1.23892
-5.91042 -0.129917 1.13301
-5.91057 -0.130213 1.11302
-5.91784 -0.130755 1.07607
-5.66077 0.138987 8.90122
-5.80593 -0.0109937 4.50793
-5.87617 -0.0708211 2.35605
-5.91133 -0.0948169 1.27452
-5.91214 -0.0974154 1.16655
-5.91724 -0.100574 1.02062
-5.68437 0.178892 8.28573
-5.75603 0.0912691 6.08026
-5.75777 0.0878194 5.98231
-5.75905 0.0862725 5.94534
-5.76262 0.0781808 5.73645
-5.76688 0.0766805 5.7025
-5.77039 0.0697219 5.50261
-5.7759 0.0677191 5.43467
-5.77914 0.0662477 5.40271
-5.77736 0.0598628 5.24177
-5.7796 0.0593905 5.20979
-5.78582 0.0579658 5.18085
-5.77615 0.0563221 5.1378
-5.78136 0.0548966 5.10885
-5.77381 0.0530175 5.04982
-5.781 0.0526377 5.02387
-5.78921 0.051244 4.99695
-5.7835 0.0496772 4.95893
-5.78672 0.0492354 4.92895
-5.79293 0.0478254 4.90102
-5.78622 0.0462579 4.86298
-5.79032 0.0460684 4.85002
-5.78858 0.0445637 4.81602
-5.78583 0.0440583 4.782
-5.78508 0.0425692 4.74902
-5.79824 0.0422678 4.72812
-5.7955 0.0407624 4.69411
-5.79375 0.0392578 4.66012
-5.79486 0.0390513 4.64613
-5.78615 0.0374675 4.60708
-5.80829 0.01937 4.05944
-5.80542 0.0181163 4.04243
-5.81259 0.0177809 4.01949
-5.80585 0.0162726 3.98546
-5.81322 0.0145377 3.93553
-5.81343 0.0141232 3.90753
-5.80966 0.0126764 3.87752
-5.80877 0.0124536 3.86252
-5.81792 0.0121641 3.84259
-5.81515 0.0107179 3.81258
-5.81735 0.0103345 3.7866
-5.82849 0.0100613 3.76769
-5.81875 0.00855084 3.73363
-5.8279 0.00824654 3.7127
-5.81905 0.00695885 3.69365
-5.81825 0.00655846 3.66665
-5.82364 0.00480728 3.61571
-5.82383 0.00342253 3.58973
-5.82304 0.00302213 3.56272
-5.82025 0.00160558 3.53472
-5.82731 0.00149226 3.52677
-5.82452 0.00107561 3.49875
-5.82571 -0.000293613 3.47378
-5.83088 -0.00063043 3.45082
-5.83226 -0.00236972 3.40085
-5.82847 -0.0027871 3.37282
-5.82776 -0.00436502 3.33384
-5.82696 -0.00475061 3.30783
-5.83611 -0.00604 3.28792
-5.83729 -0.00639453 3.26393
-5.83449 -0.00679638 3.23691
-5.83767 -0.00813454 3.21395
-5.84283 -0.00845656 3.19199
-5.83297 -0.00973017 3.17393
-5.84429 -0.0103587 3.13102
-5.84168 -0.0121157 3.08002
-5.84285 -0.0124554 3.05703
-5.84204 -0.0138261 3.03204
-5.84015 -0.0140348 3.01803
-5.8463 -0.0143265 2.99808
-5.84449 -0.014698 2.97307
-5.84068 -0.0160856 2.94705
-5.84983 -0.0163751 2.92712
-5.84005 -0.0178116 2.89807
-5.8482 -0.018087 2.87913
-5.84629 -0.0182809 2.86612
-5.85045 -0.0185888 2.84515
-5.84665 -0.0199765 2.81914
-5.85479 -0.0202519 2.8002
-5.85333 -0.0223042 2.72921
-5.86112 -0.0327918 2.35837
-5.86527 -0.0330849 2.33841
-5.86843 -0.0333936 2.31743
-5.86162 -0.0347686 2.2924
-5.87673 -0.0339799 2.2775
-5.86502 -0.035551 2.23943
-5.8622 -0.0369083 2.21542
-5.86635 -0.0372015 2.19546
-5.86651 -0.0375123 2.17446
-5.87465 -0.0377877 2.15552
-5.87481 -0.0380986 2.13452
-5.87306 -0.0395884 2.10153
-5.87123 -0.0399155 2.07952
-5.87139 -0.0402412 2.05752
-5.87055 -0.0405528 2.03651
-5.8747 -0.0418458 2.01656
-5.87088 -0.0421892 1.99354
-5.87195 -0.0423364 1.98354
-5.87411 -0.0426458 1.96256
-5.87526 -0.0429412 1.94257
-5.87642 -0.0442512 1.9216
-5.87757 -0.0445465 1.90161
-5.88271 -0.0448241 1.88265
-5.87988 -0.0451519 1.86063
-5.88195 -0.0452985 1.85065
-5.88211 -0.0456094 1.82965
-5.88526 -0.0469031 1.80969
-5.88442 -0.0472147 1.78868
-5.88159 -0.0475425 1.76666
-5.87675 -0.0488717 1.74464
-5.8809 -0.0491501 1.72568
-5.88396 -0.0492811 1.7167
-5.88512 -0.0495912 1.69571
-5.88328 -0.0499035 1.6747
-5.89541 -0.0501464 1.65779
-5.89755 -0.0504262 1.63881
-5.88973 -0.0507725 1.61575
-5.89786 -0.0510331 1.59782
-5.88305 -0.052414 1.57272
-5.88413 -0.0525613 1.56273
-5.89325 -0.0528064 1.5458
-5.88957 -0.0544309 1.50379
-5.9007 -0.0536746 1.48686
-5.88888 -0.0550385 1.46279
-5.88903 -0.0553346 1.44279
-5.89509 -0.0554486 1.43484
-5.88726 -0.0557801 1.41278
-5.89753 -0.0563205 1.37586
-5.89 -0.058244 1.31382
-5.90236 -0.058931 1.26692
-5.89482 -0.0608396 1.20588
-5.89604 -0.0612682 1.1769
-5.91359 -0.0623512 1.10303
-5.91274 -0.062648 1.08303
-5.66399 0.329333 8.72041
-5.75247 0.202217 6.1436
-5.76152 0.183243 5.73989
-5.77127 0.172815 5.50809
-5.76996 0.156558 5.15327
-5.78102 0.14451 4.87949
-5.78932 0.136984 4.70864
-5.78856 0.13551 4.67666
-5.78283 0.133973 4.64063
-5.80521 0.12728 4.45787
-5.79473 0.123251 4.38884
-5.81462 0.113564 4.1391
-5.81768 0.107479 3.9982
-5.83278 0.0864503 3.45555
-5.84261 0.0828288 3.34566
-5.84346 0.0791711 3.2337
-5.8406 0.0679644 2.94981
-5.8639 0.0584654 2.64508
-5.89587 0.0258533 1.58966
-5.90139 0.0248208 1.51971
-5.89839 0.0208642 1.38773
-5.90151 0.0166751 1.23979
-5.91078 0.0161339 1.20286
-5.90339 0.0139292 1.12183
-5.90546 0.0137975 1.11285
-5.91504 0.012679 1.03692
-5.91732 0.012118 0.998945
-5.64964 0.415799 9.15708
-5.65507 0.412959 9.10015
-5.6568 0.407525 9.00323
-5.65432 0.403516 8.93526
-5.66384 0.384594 8.60257
-5.67364 0.378017 8.49573
-5.68134 0.365707 8.27194
-5.67562 0.364155 8.23491
-5.67605 0.360296 8.17696
-5.67944 0.357544 8.12602
-5.68185 0.354746 8.07207
-5.68523 0.351994 8.02113
-5.6896 0.349271 7.9722
-5.68329 0.34392 7.88122
-5.68964 0.341243 7.8353
-5.69004 0.338459 7.78234
-5.68945 0.335659 7.72837
-5.69974 0.334089 7.68946
-5.70349 0.328627 7.59056
-5.69776 0.326104 7.55555
-5.70011 0.32341 7.5086
-5.70978 0.319115 7.42072
-5.71486 0.310987 7.27686
-5.7065 0.306737 7.19285
-5.71379 0.30518 7.15492
-5.72045 0.299882 7.06704
-5.72081 0.297186 7.02008
-5.72413 0.295552 6.97712
-5.71341 0.292997 6.94007
-5.72167 0.291484 6.90515
-5.72336 0.286153 6.81523
-5.7227 0.284472 6.76924
-5.72998 0.28193 6.73233
-5.73328 0.280355 6.69337
-5.71958 0.277752 6.6533
-5.7242 0.273542 6.57139
-5.73642 0.272121 6.5425
-5.73905 0.267895 6.45957
-5.7354 0.265196 6.41257
-5.73952 0.264962 6.39661
-5.72795 0.261125 6.34057
-5.73817 0.259688 6.31066
-5.74146 0.258128 6.27271
-5.74375 0.256552 6.23374
-5.74108 0.253914 6.19075
-5.74352 0.251057 6.13281
-5.73786 0.248372 6.0868
-5.74709 0.246935 6.05688
-5.74838 0.245358 6.01791
-5.74373 0.242689 5.97291
-5.75691 0.241328 5.94803
-5.75422 0.239719 5.90702
-5.74743 0.238314 5.87999
-5.75764 0.236907 5.85208
-5.74899 0.234205 5.80505
-5.75722 0.232767 5.77513
-5.75779 0.228657 5.70019
-5.75807 0.22711 5.66321
-5.76331 0.22564 5.63126
-5.76147 0.224328 5.61027
-5.76372 0.222841 5.5773
-5.76851 0.21829 5.47239
-5.77401 0.215317 5.40647
-5.76124 0.212863 5.3764
-5.77242 0.212501 5.35149
-5.76574 0.209875 5.30947
-5.77593 0.208512 5.28456
-5.76825 0.206884 5.24252
-5.77744 0.205506 5.21661
-5.77075 0.202909 5.17659
-5.77684 0.202736 5.16464
-5.77312 0.201186 5.12763
-5.77834 0.19976 5.09869
-5.77065 0.197148 5.05766
-5.77139 0.192682 4.95872
-5.77251 0.192446 4.94273
-5.77375 0.189988 4.91177
-5.77499 0.188516 4.8798
-5.78168 0.185173 4.78888
-5.7839 0.183731 4.75892
-5.78029 0.180973 4.70792
-5.79338 0.174836 4.56309
-5.788 0.170633 4.4821
-5.7942 0.163269 4.32224
-5.79343 0.161824 4.29225
-5.80546 0.155804 4.15541
-5.80124 0.151276 4.05243
-5.80344 0.149893 4.02646
-5.80166 0.149462 3.99745
-5.81182 0.148159 3.97655
-5.80658 0.14366 3.87556
-5.80778 0.142276 3.84959
-5.80799 0.141861 3.82159
-5.81118 0.140494 3.79663
-5.80929 0.14027 3.78162
-5.81367 0.137518 3.73068
-5.81885 0.137181 3.70773
-5.82701 0.135862 3.6858
-5.81428 0.134334 3.65073
-5.82144 0.134029 3.62978
-5.81975 0.13142 3.5888
-5.81895 0.13102 3.5618
-5.83327 0.129394 3.51892
-5.83645 0.129041 3.49495
-5.82968 0.126592 3.46493
-5.82083 0.126304 3.44587
-5.8212 0.123564 3.3959
-5.82339 0.123195 3.37092
-5.83751 0.122969 3.35503
-5.83291 0.120181 3.30203
-5.84306 0.119892 3.2821
-5.83618 0.11865 3.26607
-5.84036 0.118313 3.2431
-5.84353 0.117974 3.22013
-5.84571 0.116621 3.19616
-5.84092 0.115218 3.16914
-5.83631 0.113444 3.11713
-5.84038 0.113299 3.10716
-5.84355 0.111976 3.0852
-5.83477 0.11054 3.05615
-5.84591 0.110267 3.03724
-5.84709 0.109927 3.01425
-5.85025 0.108604 2.99229
-5.84971 0.1067 2.9313
-5.84192 0.105295 2.90426
-5.84826 0.103633 2.85933
-5.85241 0.103325 2.83836
-5.85368 0.101808 2.80339
-5.85584 0.100484 2.78142
-5.84805 0.0990785 2.75438
-5.85719 0.0988038 2.73545
-5.84359 0.0970092 2.68236
-5.85472 0.0967656 2.66545
-5.85779 0.0966197 2.65547
-5.85299 0.0952313 2.62945
-5.86512 0.0949884 2.61255
-5.84753 0.0921762 2.55845
-5.85965 0.0919481 2.54254
-5.8668 0.0916571 2.5226
-5.85609 0.0900867 2.48453
-5.85924 0.0887782 2.46357
-5.86839 0.0885035 2.44464
-5.87013 0.085039 2.3457
-5.8703 0.0847133 2.3237
-5.87146 0.0844032 2.30271
-5.8688 0.082735 2.25771
-5.87651 0.0793341 2.1628
-5.86172 0.0779236 2.13571
-5.86444 0.0745043 2.03977
-5.88056 0.0752938 2.02487
-5.87987 0.0736714 1.98289
-5.88203 0.073362 1.96191
-5.88741 0.0716257 1.91196
-5.87476 0.0699206 1.86489
-5.8872 0.0680709 1.807
-5.8793 0.0678726 1.79394
-5.87493 0.0646258 1.70995
-5.88905 0.0643992 1.69405
-5.88322 0.0640691 1.67201
-5.88629 0.0639233 1.66204
-5.88844 0.0636435 1.64305
-5.89258 0.0623653 1.6241
-5.88975 0.0620374 1.60208
-5.87992 0.0606898 1.57902
-5.88606 0.0604129 1.56007
-5.88245 0.0586552 1.50906
-5.90171 0.0591508 1.4742
-5.89341 0.0557827 1.38217
-5.90054 0.0555213 1.36423
-5.90628 0.0530744 1.26629
-5.89438 0.0518734 1.25322
-5.89752 0.0515943 1.23424
-5.64023 0.488495 9.20394
-5.64666 0.485656 9.14702
-5.65159 0.468885 8.89227
-5.66575 0.443708 8.47469
-5.6751 0.441034 8.4288
-5.67356 0.43713 8.36783
-5.67796 0.434348 8.3149
-5.68038 0.430536 8.25997
-5.68145 0.422435 8.11808
-5.68922 0.41593 8.01622
-5.68965 0.412102 7.96027
-5.69443 0.40658 7.85737
-5.69583 0.402797 7.80443
-5.69306 0.401336 7.77343
-5.69149 0.397506 7.71747
-5.69486 0.394783 7.66852
-5.70056 0.381442 7.44273
-5.69698 0.377625 7.38776
-5.70824 0.376115 7.35286
-5.70962 0.373391 7.3039
-5.71387 0.363936 7.13805
-5.71621 0.361272 7.0931
-5.71261 0.357485 7.04012
-5.71692 0.355881 6.99917
-5.72393 0.347917 6.86633
-5.72013 0.346515 6.83931
-5.7175 0.342788 6.79034
-5.72676 0.341291 6.75643
-5.73106 0.339702 6.71648
-5.72942 0.336005 6.66952
-5.73074 0.334369 6.62655
-5.72727 0.329331 6.55658
-5.72958 0.327725 6.51562
-5.72825 0.322422 6.42768
-5.73748 0.320969 6.39676
-5.73483 0.318287 6.35078
-5.74208 0.316789 6.31685
-5.72935 0.314261 6.28179
-5.73859 0.312794 6.24987
-5.73394 0.31011 6.20387
-5.73425 0.307503 6.16291
-5.73852 0.304973 6.12697
-5.73882 0.303381 6.08699
-5.7421 0.300836 6.05005
-5.74637 0.299321 6.0151
-5.73759 0.297885 5.98605
-5.74583 0.295418 5.95414
-5.75008 0.293917 5.92019
-5.74939 0.292325 5.88021
-5.74769 0.289731 5.84023
-5.745 0.287123 5.79924
-5.75224 0.285654 5.76731
-5.74544 0.284264 5.74128
-5.75096 0.280247 5.67237
-5.75422 0.278746 5.63841
-5.75649 0.276215 5.60246
-5.75676 0.274682 5.56648
-5.76399 0.273243 5.53655
-5.75447 0.269289 5.47253
-5.76268 0.26788 5.44461
-5.75998 0.266301 5.4056
-5.75726 0.263736 5.36762
-5.76845 0.263374 5.3427
-5.76574 0.26081 5.30472
-5.76289 0.259512 5.28471
-5.76812 0.258071 5.25477
-5.76441 0.255506 5.21677
-5.76665 0.254019 5.18381
-5.7689 0.252547 5.15184
-5.77313 0.251091 5.12089
-5.77536 0.249634 5.08992
-5.77078 0.246816 5.03492
-5.77203 0.244329 5.00197
-5.77228 0.24284 4.96898
-5.7765 0.241414 4.94003
-5.77873 0.239957 4.90907
-5.78627 0.229957 4.70624
-5.77955 0.22739 4.66823
-5.78511 0.224298 4.5943
-5.79575 0.220062 4.51044
-5.79322 0.217128 4.44745
-5.79059 0.214415 4.39946
-5.79809 0.198521 4.06871
-5.84674 0.137666 2.65878
-5.85383 0.132525 2.51389
-5.85102 0.131167 2.48989
-5.85634 0.129535 2.44695
-5.8634 0.124452 2.30606
-5.86265 0.123963 2.27305
-5.86896 0.122361 2.23212
-5.87061 0.119089 2.14617
-5.86935 0.115637 2.0482
-5.86939 0.110593 1.91025
-5.8717 0.108988 1.86929
-5.87078 0.108839 1.85928
-5.87193 0.108529 1.83829
-5.87109 0.107218 1.8173
-5.87224 0.106922 1.79731
-5.87739 0.10663 1.77735
-5.8787 0.105039 1.73738
-5.87486 0.10471 1.71535
-5.8794 0.102662 1.64441
-5.88254 0.102383 1.62543
-5.87886 0.100759 1.58342
-5.8817 0.0971173 1.47248
-5.88507 0.0953943 1.42353
-5.88567 0.0932102 1.34355
-5.89957 0.086489 1.09172
-5.91901 0.082675 0.900899
-5.9143 0.082094 0.861867
-5.91944 0.0818312 0.843907
-5.91873 0.0802533 0.80492
-5.9208 0.0801215 0.795936
-5.91824 0.0782609 0.737936
-5.80208 0.258352 4.46191
-5.79833 0.255861 4.42891
-5.79458 0.25437 4.3959
-5.8 0.251559 4.34098
-5.7947 0.246179 4.248
-5.80675 0.247099 4.24208
-5.79745 0.241715 4.14908
-5.80406 0.237521 4.06818
-5.8004 0.234852 4.02318
-5.8048 0.232071 3.97025
-5.80721 0.230273 3.91629
-5.80851 0.227682 3.87633
-5.81191 0.2249 3.82339
-5.81332 0.223101 3.76942
-5.81571 0.220333 3.71747
-5.82676 0.220252 3.71156
-5.81801 0.218757 3.67851
-5.82477 0.214267 3.57761
-5.81849 0.208856 3.48263
-5.81869 0.207471 3.45665
-5.82305 0.205764 3.4087
-5.83021 0.204443 3.38677
-5.84404 0.193871 3.145
-5.83065 0.189662 3.06395
-5.8378 0.189371 3.044
-5.83391 0.188161 3.02999
-5.83626 0.186467 2.98303
-5.83345 0.185094 2.95802
-5.8436 0.18482 2.9391
-5.83979 0.183433 2.91309
-5.83599 0.182045 2.88708
-5.83707 0.181883 2.87609
-5.85119 0.181656 2.86019
-5.83743 0.179188 2.82912
-5.84259 0.17888 2.80816
-5.84194 0.177184 2.76118
-5.85307 0.17694 2.74426
-5.8402 0.175665 2.72618
-5.84636 0.174358 2.70524
-5.84454 0.174016 2.68223
-5.8487 0.172708 2.66128
-5.85285 0.172401 2.64031
-5.85103 0.171044 2.61632
-5.8483 0.169524 2.58131
-5.86077 0.1676 2.51843
-5.86211 0.16595 2.47446
-5.86436 0.164463 2.44149
-5.8627 0.162795 2.3965
-5.86701 0.161176 2.35455
-5.86137 0.159477 2.30752
-5.85854 0.158134 2.28452
-5.86892 0.156401 2.23461
-5.86426 0.154732 2.1896
-5.87456 0.154147 2.14968
-5.85968 0.151899 2.1336
-5.86682 0.151623 2.11465
-5.86914 0.150003 2.07269
-5.87062 0.148071 2.00972
-5.8707 0.147908 1.99872
-5.86487 0.146564 1.97569
-5.86603 0.146254 1.9547
-5.87117 0.144976 1.93576
-5.87433 0.144682 1.91579
-5.8685 0.143337 1.89276
-5.87472 0.142913 1.86381
-5.88684 0.142684 1.8479
-5.87703 0.141307 1.82284
-5.87519 0.140995 1.80183
-5.87505 0.137307 1.68787
-5.88317 0.137061 1.67093
-5.87735 0.135716 1.6479
-5.88548 0.135471 1.63097
-5.87765 0.134124 1.60792
-5.88272 0.133995 1.59896
-5.87788 0.133666 1.57693
-5.87918 0.132074 1.53696
-5.88931 0.13183 1.52003
-5.89046 0.131535 1.50004
-5.89061 0.131239 1.48005
-5.88685 0.129777 1.44904
-5.88416 0.128168 1.40803
-5.89529 0.127924 1.39112
-5.90242 0.127663 1.37317
-5.88575 0.125999 1.32907
-5.88683 0.125852 1.31908
-5.88912 0.124276 1.28011
-5.90324 0.12505 1.2642
-5.90039 0.123751 1.2442
-5.8987 0.122158 1.2042
-5.89592 0.121712 1.17419
-5.89607 0.121416 1.15419
-5.89322 0.120118 1.13418
-5.89932 0.116975 0.989255
-5.64116 0.614498 9.06806
-5.64363 0.610582 9.00613
-5.64708 0.606711 8.9472
-5.65152 0.601856 8.8893
-5.65516 0.586646 8.67252
-5.65959 0.582806 8.61561
-5.66598 0.579056 8.5647
-5.66149 0.574046 8.49673
-5.66787 0.57031 8.44683
-5.66931 0.566453 8.38889
-5.67273 0.562641 8.33397
-5.67415 0.558813 8.27802
-5.66943 0.555262 8.24104
-5.66987 0.551404 8.18309
-5.6693 0.54756 8.12613
-5.67665 0.543885 8.08024
-5.68203 0.541148 8.03031
-5.6775 0.536227 7.96834
-5.68187 0.532505 7.91942
-5.67416 0.529937 7.8814
-5.67754 0.526185 7.83047
-5.68487 0.523539 7.78656
-5.68132 0.519663 7.72758
-5.69359 0.517139 7.69171
-5.69399 0.51337 7.63976
-5.69438 0.5096 7.58781
-5.68963 0.507108 7.55481
-5.69002 0.503339 7.50286
-5.69139 0.500629 7.4549
-5.70167 0.498089 7.41801
-5.70502 0.495396 7.37107
-5.70144 0.491579 7.31609
-5.70874 0.488992 7.27618
-5.70199 0.486499 7.24316
-5.70731 0.482881 7.20125
-5.70669 0.480141 7.15128
-5.71101 0.477507 7.10834
-5.71236 0.473827 7.0624
-5.71505 0.467482 6.9715
-5.71424 0.466112 6.94652
-5.71458 0.462431 6.90057
-5.7189 0.459812 6.85863
-5.71726 0.457116 6.81165
-5.71958 0.454481 6.7687
-5.72487 0.451922 6.73078
-5.72819 0.449303 6.68883
-5.72043 0.446823 6.65681
-5.72274 0.444218 6.61586
-5.7211 0.440521 6.56889
-5.72637 0.437992 6.53297
-5.72868 0.435387 6.49202
-5.73198 0.432797 6.45207
-5.73032 0.43013 6.40709
-5.73048 0.428819 6.38611
-5.72684 0.425121 6.33913
-5.73012 0.422561 6.30119
-5.7354 0.421032 6.26525
-5.7357 0.41844 6.22528
-5.73403 0.414787 6.18132
-5.74128 0.413304 6.14839
-5.73746 0.411946 6.12438
-5.73579 0.408309 6.08141
-5.73906 0.406778 6.04546
-5.75126 0.405387 6.01857
-5.73966 0.401609 5.96653
-5.74138 0.395189 5.87062
-5.74069 0.392597 5.83065
-5.75586 0.391267 5.80778
-5.74722 0.388565 5.76075
-5.75643 0.387157 5.73283
-5.76168 0.384673 5.69991
-5.75614 0.380766 5.63891
-5.75742 0.378219 5.60196
-5.75571 0.375655 5.56398
-5.76293 0.374216 5.53405
-5.76618 0.37273 5.50109
-5.76149 0.36912 5.4601
-5.75978 0.367556 5.42211
-5.76587 0.366383 5.41017
-5.75423 0.362679 5.36313
-5.76641 0.362332 5.33922
-5.77064 0.360876 5.30827
-5.76297 0.357234 5.26526
-5.76819 0.355809 5.23632
-5.77242 0.354353 5.20537
-5.7609 0.349412 5.14234
-5.77207 0.34908 5.11943
-5.77483 0.342602 5.01953
-5.77408 0.341098 4.98555
-5.77445 0.337373 4.9366
-5.77717 0.331968 4.84168
-5.77445 0.329433 4.8057
-5.7758 0.326739 4.75874
-5.77826 0.323837 4.69779
-5.79241 0.322552 4.67792
-5.77973 0.319921 4.63585
-5.78593 0.31854 4.60992
-5.79014 0.317129 4.58197
-5.78441 0.314592 4.54596
-5.78376 0.31191 4.49998
-5.78399 0.310452 4.469
-5.7924 0.307658 4.4151
-5.79263 0.306214 4.38512
-5.78888 0.303723 4.35212
-5.79065 0.298214 4.2502
-5.79286 0.296802 4.22224
-5.80004 0.295452 4.19831
-5.79727 0.293991 4.1673
-5.80037 0.292815 4.15534
-5.80357 0.291418 4.12839
-5.80279 0.289988 4.0994
-5.80598 0.288605 4.07344
-5.80023 0.286113 4.04043
-5.81536 0.286872 4.02353
-5.80673 0.28314 3.97451
-5.80595 0.281711 3.94552
-5.80914 0.280343 3.92056
-5.8193 0.280039 3.89964
-5.81155 0.277545 3.86661
-5.81892 0.274825 3.8177
-5.81406 0.274555 3.79967
-5.81128 0.272124 3.77068
-5.80849 0.270692 3.74168
-5.81666 0.270373 3.71974
-5.81885 0.269004 3.69477
-5.82303 0.267652 3.67082
-5.81726 0.265204 3.64081
-5.81537 0.26498 3.6258
-5.81457 0.26358 3.59881
-5.81676 0.262211 3.57384
-5.82313 0.259491 3.52492
-5.82651 0.257753 3.47497
-5.81566 0.255464 3.45592
-5.82198 0.246878 3.28107
-5.82326 0.245331 3.24409
-5.83097 0.24093 3.1492
-5.83796 0.229041 2.8864
-5.83911 0.221792 2.73449
-5.84245 0.220128 2.68953
-5.85469 0.212694 2.52471
-5.85804 0.205061 2.34683
-5.86448 0.192284 2.02402
-5.87294 0.190387 1.9631
-5.86611 0.189042 1.94007
-5.86934 0.1886 1.9101
-5.8675 0.187273 1.8881
-5.8748 0.186701 1.84916
-5.87112 0.184061 1.80616
-5.88217 0.184966 1.79923
-5.8785 0.183326 1.75622
-5.88663 0.183066 1.73828
-5.88211 0.18013 1.67529
-5.87927 0.179802 1.65327
-5.88633 0.179689 1.64532
-5.8805 0.178359 1.62329
-5.88295 0.176472 1.56333
-5.88526 0.174882 1.52337
-5.88633 0.174734 1.51338
-5.88249 0.173421 1.49236
-5.88809 0.171255 1.41343
-5.88424 0.170941 1.3924
-5.88532 0.169794 1.38242
-5.88961 0.169234 1.34446
-5.88792 0.167626 1.30346
-5.89704 0.167381 1.28653
-5.88944 0.165606 1.2345
-5.89173 0.16503 1.19552
-5.89187 0.163749 1.17653
-5.89524 0.16304 1.12856
-5.66159 0.691692 8.47199
-5.66897 0.687958 8.42209
-5.68027 0.664466 8.11849
-5.74606 0.504654 6.03606
-5.7545 0.481894 5.71441
-5.76325 0.465466 5.48269
-5.77392 0.450203 5.26197
-5.77419 0.447685 5.227
-5.77225 0.437611 5.08712
-5.77932 0.437468 5.07717
-5.77288 0.432383 5.00419
-5.77238 0.427391 4.93725
-5.78554 0.42709 4.91635
-5.77983 0.423523 4.87835
-5.77896 0.422271 4.86136
-5.77424 0.41972 4.82436
-5.7874 0.419418 4.80346
-5.77672 0.415789 4.76143
-5.78788 0.414471 4.73953
-5.78215 0.411934 4.70352
-5.79332 0.411617 4.6816
-5.78152 0.409223 4.65555
-5.78474 0.406796 4.6266
-5.78497 0.405338 4.59562
-5.78842 0.401452 4.5357
-5.78964 0.399024 4.50674
-5.78888 0.397564 4.47575
-5.78402 0.396279 4.45673
-5.78525 0.393836 4.42677
-5.78945 0.39244 4.39982
-5.79166 0.391027 4.37185
-5.79885 0.389662 4.34693
-5.7941 0.38717 4.31392
-5.80427 0.385852 4.29202
-5.79543 0.384534 4.27097
-5.79566 0.382091 4.241
-5.80084 0.380724 4.21605
-5.80405 0.379327 4.1891
-5.79531 0.376802 4.15406
-5.80647 0.3765 4.13315
-5.80968 0.375102 4.10619
-5.8068 0.373863 4.09018
-5.80402 0.371417 4.06019
-5.80324 0.369987 4.03121
-5.8144 0.368685 4.01031
-5.81483 0.365856 3.95434
-5.81226 0.36201 3.89737
-5.8076 0.359341 3.85237
-5.82094 0.35667 3.80651
-5.81837 0.353839 3.75052
-5.82166 0.351264 3.71158
-5.81609 0.347416 3.65459
-5.81649 0.344632 3.60162
-5.82883 0.342989 3.55773
-5.81917 0.339301 3.51171
-5.82056 0.336547 3.46075
-5.83388 0.33492 3.41787
-5.82821 0.33228 3.37486
-5.83143 0.322884 3.213
-5.86511 0.279822 2.32977
-5.87522 0.267698 2.05099
-5.86481 0.263536 1.97296
-5.86728 0.260605 1.91002
-5.87757 0.26005 1.8721
-5.8818 0.258609 1.84214
-5.87613 0.256953 1.79812
-5.87644 0.254347 1.75716
-5.87966 0.253905 1.72718
-5.88497 0.252316 1.68724
-5.88228 0.250693 1.64524
-5.87361 0.24805 1.60221
-5.87584 0.247607 1.57223
-5.88611 0.247067 1.53531
-5.88994 0.242441 1.42539
-5.88526 0.240816 1.38337
-5.88556 0.239239 1.34439
-5.88977 0.238812 1.31543
-5.89008 0.23722 1.27545
-5.88767 0.234049 1.19646
-5.88904 0.233324 1.14748
-5.89248 0.231468 1.08952
-5.65665 0.774397 8.72176
-5.65971 0.750389 8.4511
-5.66707 0.746683 8.40321
-5.67978 0.716409 8.0467
-5.685 0.691076 7.75408
-5.70677 0.639768 7.12491
-5.714 0.615407 6.83029
-5.72127 0.612879 6.79437
-5.7236 0.610244 6.75143
-5.72938 0.59077 6.51672
-5.72772 0.587103 6.47176
-5.73134 0.580892 6.38987
-5.72967 0.577255 6.3469
-5.73511 0.5734 6.28899
-5.73045 0.569716 6.24301
-5.74167 0.56731 6.21512
-5.73305 0.563548 6.16411
-5.73733 0.561019 6.12817
-5.74487 0.554958 6.05631
-5.73708 0.552538 6.02828
-5.74532 0.551085 5.99736
-5.74363 0.547477 5.9564
-5.74293 0.543885 5.91644
-5.74946 0.538854 5.84655
-5.74975 0.536291 5.80859
-5.75302 0.533761 5.77264
-5.74324 0.531324 5.7436
-5.74748 0.528854 5.71167
-5.75372 0.5264 5.68075
-5.75301 0.523837 5.64277
-5.75626 0.521336 5.60883
-5.75979 0.516302 5.53892
-5.74802 0.51285 5.50888
-5.75325 0.511395 5.47794
-5.76147 0.509986 5.45001
-5.75776 0.506406 5.41103
-5.75605 0.503842 5.37305
-5.76227 0.501418 5.34413
-5.76452 0.498931 5.31118
-5.76167 0.497633 5.29118
-5.75994 0.495099 5.2552
-5.76021 0.492581 5.22023
-5.76443 0.49014 5.1903
-5.76271 0.487606 5.15431
-5.7729 0.486243 5.12941
-5.76521 0.482631 5.0884
-5.76732 0.48241 5.07342
-5.77552 0.481031 5.04749
-5.76385 0.476372 5.00347
-5.77899 0.476101 4.98458
-5.7703 0.472488 4.94357
-5.78148 0.471141 4.91967
-5.77378 0.468558 4.88064
-5.7739 0.467321 4.86466
-5.76818 0.46377 4.82766
-5.77935 0.463437 4.80475
-5.77264 0.459885 4.76775
-5.77685 0.458458 4.7388
-5.78206 0.457063 4.71185
-5.77348 0.452242 4.65685
-5.78265 0.450908 4.63394
-5.7861 0.447038 4.57501
-5.77838 0.44447 4.53699
-5.79253 0.444199 4.51809
-5.78679 0.440676 4.4831
-5.78989 0.440486 4.47012
-5.78957 0.434154 4.3802
-5.79477 0.432773 4.35426
-5.79797 0.431375 4.3273
-5.78925 0.427821 4.29028
-5.8004 0.427533 4.27037
-5.79058 0.425186 4.24732
-5.79974 0.423867 4.22541
-5.79123 0.418913 4.16141
-5.80239 0.41861 4.1405
-5.79564 0.416102 4.10648
-5.8048 0.414798 4.08556
-5.79695 0.413496 4.06552
-5.79617 0.411067 4.03655
-5.79539 0.409637 4.00756
-5.81052 0.409396 3.99067
-5.80974 0.406966 3.9617
-5.80796 0.405536 3.9327
-5.80816 0.403136 3.90574
-5.80827 0.402929 3.89174
-5.81046 0.401546 3.86577
-5.80988 0.397731 3.81082
-5.8081 0.395301 3.78183
-5.81129 0.393933 3.75687
-5.81049 0.392532 3.72989
-5.81358 0.391372 3.71892
-5.80781 0.389909 3.6879
-5.81995 0.389651 3.66999
-5.81915 0.387251 3.64302
-5.81538 0.385804 3.61301
-5.8106 0.383371 3.584
-5.82672 0.383146 3.56812
-5.82284 0.381907 3.55211
-5.82304 0.380522 3.52613
-5.82124 0.379121 3.49913
-5.82143 0.376751 3.47417
-5.82461 0.375398 3.45021
-5.81784 0.373949 3.42017
-5.824 0.372642 3.39924
-5.83215 0.372337 3.3783
-5.83026 0.371129 3.3643
-5.83244 0.369775 3.34033
-5.82766 0.367343 3.31133
-5.82984 0.366004 3.28836
-5.83103 0.364634 3.26339
-5.83519 0.364312 3.24142
-5.82543 0.361846 3.21038
-5.83566 0.360394 3.17948
-5.83286 0.358992 3.15247
-5.84001 0.357702 3.13254
-5.84337 0.356008 3.08558
-5.83667 0.352411 3.04558
-5.83885 0.351072 3.02262
-5.83903 0.349717 2.99863
-5.8402 0.349378 2.97564
-5.84337 0.348039 2.95268
-5.84455 0.3467 2.92971
-5.84382 0.345166 2.89372
-5.84436 0.341116 2.82278
-5.85186 0.338144 2.75687
-5.85628 0.335318 2.70094
-5.84726 0.327387 2.57097
-5.86138 0.32816 2.55506
-5.85657 0.325787 2.53006
-5.86522 0.32252 2.44416
-5.86057 0.312867 2.26524
-5.86988 0.311281 2.22533
-5.8702 0.309645 2.18235
-5.87235 0.30935 2.16237
-5.86379 0.305486 2.10435
-5.87192 0.305225 2.08641
-5.87508 0.304931 2.06644
-5.87723 0.303622 2.04547
-5.87149 0.302114 2.01145
-5.86567 0.29977 1.98843
-5.87512 0.297888 1.92852
-5.88225 0.297627 1.91058
-5.86653 0.295068 1.87349
-5.87782 0.294513 1.83558
-5.87698 0.293202 1.81459
-5.8773 0.29158 1.77261
-5.88144 0.291302 1.75365
-5.86955 0.289086 1.73959
-5.87569 0.288809 1.72063
-5.88313 0.286941 1.66171
-5.8806 0.284021 1.59973
-5.89065 0.284925 1.59279
-5.88881 0.283613 1.57179
-5.87599 0.282248 1.54771
-5.88313 0.281987 1.52977
-5.88742 0.280412 1.49082
-5.8776 0.279065 1.46776
-5.89723 0.276835 1.38393
-5.88741 0.275488 1.36087
-5.89162 0.275061 1.3319
-5.89477 0.274782 1.31293
-5.89392 0.273486 1.29294
-5.89307 0.273189 1.27294
-5.89022 0.271891 1.25293
-5.90435 0.272649 1.23602
-5.88752 0.270297 1.21293
-5.90157 0.271203 1.20602
-5.90146 0.266471 1.08907
-5.89754 0.266305 1.07804
-5.63271 0.872041 9.10319
-5.65465 0.83633 8.71683
-5.65117 0.830306 8.64788
-5.66585 0.810031 8.42626
-5.65466 0.800439 8.31931
-5.67037 0.79206 8.22554
-5.67017 0.758613 7.85798
-5.70368 0.662002 6.73551
-5.71113 0.645181 6.54479
-5.71839 0.642668 6.50987
-5.71575 0.63897 6.4629
-5.72911 0.63527 6.41505
-5.72349 0.631526 6.36506
-5.72976 0.628012 6.33015
-5.73038 0.621784 6.24724
-5.73169 0.618193 6.20729
-5.7262 0.612197 6.14033
-5.72651 0.608591 6.09938
-5.73176 0.606091 6.06545
-5.73901 0.604608 6.03253
-5.73137 0.599907 5.98553
-5.73961 0.597439 5.95363
-5.7399 0.594877 5.91566
-5.73807 0.59255 5.89368
-5.74034 0.590019 5.85773
-5.74063 0.586457 5.81978
-5.73795 0.582833 5.7778
-5.74121 0.580318 5.74286
-5.7405 0.577755 5.70489
-5.74575 0.57527 5.67196
-5.74291 0.572942 5.64997
-5.74248 0.566832 5.57505
-5.75268 0.565455 5.54914
-5.7562 0.560436 5.48023
-5.74966 0.554528 5.41926
-5.75642 0.547053 5.31941
-5.76516 0.540609 5.22156
-5.77017 0.509736 4.825
-5.78786 0.494434 4.60133
-5.78523 0.490706 4.55236
-5.79266 0.486883 4.49646
-5.7941 0.483011 4.43752
-5.78638 0.479457 4.40051
-5.79357 0.478093 4.37558
-5.78662 0.468045 4.23766
-5.80487 0.430739 3.67627
-5.84269 0.362491 2.5104
-5.84493 0.361019 2.47844
-5.90132 0.303689 1.10352
-5.90675 0.301849 1.04658
-5.91506 0.297293 0.873689
-5.68809 0.773879 7.33482
-5.69879 0.729665 6.84748
-5.69996 0.72734 6.82552
-5.70659 0.708163 6.61083
-5.73515 0.633367 5.74603
-5.74647 0.619799 5.57229
-5.74787 0.615001 5.51837
-5.7467 0.605387 5.40949
-5.74895 0.6029 5.37653
-5.74922 0.600383 5.34157
-5.75531 0.599209 5.32963
-5.75385 0.593143 5.2577
-5.75587 0.582146 5.12286
-5.75849 0.575934 5.04096
-5.76853 0.55496 4.77231
-5.90388 0.339546 1.026
-5.91047 0.333427 0.815111
-5.91561 0.333164 0.797152
-5.72466 0.738056 6.33248
-5.71605 0.733295 6.28148
-5.73223 0.731951 6.25762
-5.72758 0.727267 6.21165
-5.72178 0.723863 6.18465
-5.7211 0.720241 6.14269
-5.73529 0.718881 6.11782
-5.73848 0.70456 5.96103
-5.74813 0.662434 5.47966
-5.74683 0.654071 5.38776
-5.7516 0.645565 5.28591
-5.76608 0.606782 4.82753
-5.91169 0.373904 0.914535
-5.90684 0.372605 0.894515
-5.91427 0.371781 0.838576
-5.91556 0.370204 0.799603
-5.91078 0.368772 0.770585
-5.90423 0.365893 0.71157
-5.74282 0.718971 5.51579
-5.76261 0.68654 5.14837
-5.76549 0.675825 5.03253
-5.78087 0.661128 4.84984
-5.7723 0.655293 4.79386
-5.78049 0.653928 4.76893
-5.7847 0.651517 4.741
-5.78617 0.646586 4.67807
-5.78664 0.640668 4.61616
-5.78997 0.637035 4.57323
-5.78646 0.63207 4.50827
-5.79487 0.627277 4.45439
-5.79223 0.623579 4.40742
-5.79367 0.618707 4.3485
-5.79909 0.614897 4.29359
-5.80086 0.606403 4.19271
-5.80427 0.601592 4.1378
-5.80303 0.594111 4.03789
-5.80645 0.589299 3.98298
-5.80886 0.585502 3.92904
-5.81455 0.579144 3.83717
-5.81835 0.570578 3.73131
-5.8111 0.562107 3.63237
-5.81269 0.556954 3.55444
-5.82213 0.553102 3.49656
-5.81457 0.548253 3.43957
-5.81794 0.54453 3.39065
-5.82031 0.541792 3.3407
-5.82059 0.538245 3.30375
-5.81699 0.534472 3.25177
-5.83628 0.533909 3.21292
-5.82362 0.529234 3.16788
-5.82598 0.52554 3.12095
-5.83332 0.523879 3.07602
-5.83169 0.520152 3.02706
-5.82499 0.516556 2.98706
-5.84328 0.516006 2.9492
-5.84065 0.512279 2.90023
-5.83729 0.506018 2.81528
-5.83864 0.503338 2.76933
-5.84198 0.500675 2.72438
-5.84739 0.497879 2.67046
-5.84752 0.487674 2.52159
-5.85583 0.486073 2.48067
-5.89938 0.418423 1.08481
-5.88991 0.41538 1.01477
-5.90418 0.414857 0.978881
-5.74093 0.766684 5.49607
-5.82903 0.548482 2.84659
-5.84476 0.525149 2.48601
-5.84102 0.522629 2.45101
-5.84933 0.521028 2.41009
-5.85166 0.518378 2.36614
-5.85282 0.517068 2.34517
-5.85207 0.515579 2.31218
-5.85125 0.513238 2.28921
-5.8544 0.512929 2.26823
-5.84959 0.510571 2.24423
-5.85872 0.510325 2.2273
-5.85589 0.508983 2.20429
-5.85299 0.507788 2.19129
-5.85714 0.507495 2.17132
-5.85746 0.504859 2.12836
-5.85762 0.503548 2.10737
-5.85978 0.502239 2.08641
-5.85811 0.499601 2.04343
-5.85935 0.498128 2.01145
-5.86449 0.497851 1.99249
-5.85767 0.495491 1.96847
-5.87294 0.494969 1.93259
-5.86122 0.491427 1.89655
-5.87134 0.492183 1.87961
-5.86469 0.488512 1.83461
-5.87182 0.488251 1.81667
-5.865 0.485905 1.79365
-5.87114 0.485628 1.77469
-5.86922 0.485464 1.76368
-5.87252 0.483874 1.72372
-5.87667 0.482596 1.70477
-5.86984 0.481251 1.68174
-5.87199 0.479956 1.66177
-5.88411 0.480728 1.64585
-5.87023 0.478496 1.63077
-5.87253 0.476905 1.59081
-5.87069 0.475593 1.56981
-5.87084 0.474297 1.54983
-5.88197 0.475054 1.5329
-5.87422 0.47256 1.49987
-5.8848 0.469427 1.42299
-5.87796 0.468097 1.40095
-5.88011 0.466802 1.38099
-5.87819 0.466653 1.37097
-5.88333 0.46639 1.35301
-5.88348 0.465079 1.33203
-5.88094 0.462189 1.27205
-5.88807 0.461928 1.2541
-5.88822 0.461646 1.2351
-5.88131 0.460464 1.22307
-5.88844 0.460202 1.20512
-5.88459 0.458904 1.18511
-5.88375 0.457607 1.16512
-5.77299 0.762725 4.95729
-5.77622 0.760283 4.92735
-5.77746 0.75781 4.89539
-5.77894 0.750865 4.8315
-5.78018 0.748407 4.80054
-5.78241 0.745964 4.77059
-5.77657 0.743649 4.74957
-5.78101 0.737779 4.69069
-5.78423 0.735352 4.66174
-5.78505 0.725755 4.55388
-5.78628 0.723312 4.52392
-5.78154 0.718805 4.48994
-5.78873 0.71744 4.46501
-5.79117 0.712569 4.4061
-5.78853 0.707871 4.35914
-5.7967 0.706537 4.33622
-5.79395 0.703061 4.30424
-5.79914 0.701695 4.2793
-5.79814 0.689741 4.14745
-5.79935 0.687327 4.11949
-5.80539 0.675304 3.9827
-5.80748 0.675113 3.96971
-5.8067 0.671698 3.94175
-5.80989 0.67033 3.91679
-5.81209 0.667932 3.88984
-5.81251 0.663119 3.83491
-5.81421 0.655743 3.74202
-5.81811 0.646 3.62418
-5.82029 0.644631 3.59921
-5.8197 0.639846 3.54627
-5.82426 0.63374 3.47138
-5.82356 0.631162 3.43241
-5.82594 0.627424 3.38248
-5.82911 0.626085 3.35952
-5.82651 0.621314 3.30756
-5.8248 0.617735 3.2686
-5.83432 0.613721 3.19972
-5.83569 0.609997 3.15078
-5.83815 0.60611 3.09084
-5.83534 0.603723 3.06485
-5.84214 0.596174 2.96
-5.84033 0.593803 2.93502
-5.84584 0.5898 2.86711
-5.84719 0.58612 2.82117
-5.84728 0.585943 2.80917
-5.84447 0.583571 2.78418
-5.85241 0.575741 2.66034
-5.85275 0.572075 2.61539
-5.86051 0.557632 2.38263
-5.86903 0.537709 2.04995
-5.87235 0.535089 2.008
-5.87708 0.522703 1.77919
-5.88237 0.521129 1.74025
-5.88168 0.519522 1.69926
-5.88383 0.518227 1.67929
-5.88192 0.517063 1.6683
-5.88223 0.515456 1.62732
-5.88652 0.513882 1.58837
-5.88185 0.511242 1.54536
-5.88897 0.510996 1.52842
-5.88806 0.509832 1.51743
-5.8915 0.507961 1.45847
-5.88767 0.505633 1.43648
-5.89081 0.505354 1.4175
-5.89096 0.505058 1.3975
-5.89418 0.503631 1.36855
-5.89433 0.502335 1.34856
-5.89148 0.501037 1.32856
-5.89179 0.499445 1.28858
-5.89201 0.498001 1.2586
-5.8953 0.49644 1.22064
-5.89988 0.494304 1.1437
-5.90096 0.493156 1.13372
-5.89711 0.491858 1.11371
-5.90125 0.491579 1.09474
-5.89707 0.486977 0.986761
-5.89564 0.514818 0.908328
-5.89379 0.513521 0.88833
-5.90321 0.512698 0.832406
-5.89636 0.511397 0.81237
-5.8965 0.510116 0.793388
-5.89373 0.50867 0.763384
-5.91184 0.510461 0.748492
-5.902 0.508143 0.727449
-5.76678 0.869081 4.57562
-5.77099 0.866685 4.54868
-5.78016 0.865351 4.52577
-5.7773 0.863082 4.50778
-5.77256 0.858561 4.4728
-5.77478 0.856148 4.44485
-5.78119 0.851339 4.38996
-5.78221 0.837357 4.25616
-5.78342 0.833943 4.22822
-5.78563 0.831531 4.20026
-5.78287 0.82807 4.16929
-5.79004 0.826735 4.14636
-5.7832 0.824434 4.12634
-5.7854 0.822036 4.09939
-5.7908 0.817255 4.04649
-5.79024 0.811396 3.98857
-5.79542 0.809045 3.96464
-5.79752 0.807854 3.95167
-5.78977 0.80436 3.91866
-5.79296 0.801993 3.89371
-5.80113 0.800673 3.87179
-5.80532 0.799306 3.84684
-5.7926 0.793749 3.80982
-5.79877 0.792413 3.78689
-5.7949 0.790174 3.77089
-5.79808 0.788806 3.74593
-5.80446 0.784071 3.69604
-5.80864 0.782718 3.67209
-5.80088 0.778254 3.64109
-5.81501 0.779013 3.62418
-5.81113 0.776773 3.60819
-5.80039 0.772262 3.57417
-5.80954 0.771973 3.55424
-5.80974 0.769588 3.52827
-5.80496 0.766155 3.49928
-5.80615 0.763772 3.47332
-5.81232 0.76245 3.45139
-5.8164 0.762305 3.44142
-5.8146 0.758904 3.41445
-5.81877 0.757567 3.3915
-5.82196 0.756214 3.36754
-5.81319 0.751749 3.33653
-5.8104 0.749347 3.30955
-5.81656 0.748041 3.28861
-5.82172 0.746719 3.26666
-5.81305 0.742077 3.22366
-5.8222 0.741787 3.20373
-5.8194 0.7384 3.17776
-5.82158 0.737047 3.15379
-5.82276 0.734692 3.12983
-5.81996 0.732305 3.10384
-5.82801 0.733208 3.09689
-5.82322 0.72979 3.0689
-5.82838 0.728483 3.04795
-5.81861 0.725032 3.01793
-5.82177 0.723708 2.99597
-5.82694 0.722386 2.97402
-5.82912 0.720048 2.95107
-5.82721 0.718854 2.93807
-5.83735 0.718595 2.92015
-5.82259 0.71411 2.8881
-5.83273 0.713851 2.87018
-5.8339 0.712512 2.8472
-5.84405 0.712238 2.82828
-5.83824 0.708849 2.80228
-5.83154 0.705267 2.76328
-5.83072 0.702911 2.73931
-5.84384 0.703683 2.72339
-5.84402 0.702343 2.70041
-5.83722 0.698939 2.67341
-5.83839 0.697614 2.65143
-5.83964 0.695112 2.61747
-5.83783 0.692755 2.59349
-5.84514 0.690139 2.55158
-5.8493 0.689831 2.53061
-5.8415 0.68644 2.5046
-5.85363 0.687197 2.48768
-5.85172 0.685018 2.47569
-5.8489 0.683661 2.45169
-5.85422 0.681043 2.40976
-5.8514 0.678686 2.38577
-5.84559 0.676312 2.36076
-5.85173 0.676035 2.34181
-5.85381 0.674889 2.33184
-5.86095 0.674612 2.31289
-5.86013 0.673271 2.28991
-5.85331 0.669911 2.2659
-5.85746 0.669618 2.24593
-5.86161 0.668325 2.22598
-5.86235 0.661875 2.12807
-5.8665 0.660582 2.10812
-5.86467 0.659255 2.08612
-5.86284 0.657928 2.06412
-5.8679 0.657798 2.05516
-5.86308 0.655455 2.03216
-5.86823 0.655162 2.0122
-5.86938 0.653867 1.99222
-5.86954 0.652556 1.97124
-5.85774 0.649163 1.9452
-5.8701 0.647461 1.89731
-5.87357 0.643546 1.83538
-5.87188 0.640923 1.7934
-5.87044 0.636841 1.72044
-5.87374 0.634252 1.6805
-5.88356 0.629645 1.57163
-5.88586 0.627055 1.53168
-5.88922 0.618392 1.35181
-5.89038 0.617097 1.33183
-5.89496 0.613946 1.2539
-5.89205 0.612781 1.2429
-5.8898 0.607314 1.14395
-5.88303 0.60485 1.11293
-5.88632 0.604289 1.07496
-5.8966 0.603749 1.03804
-5.89474 0.602466 1.01904
-5.9011 0.60076 0.971105
-5.78878 0.891095 4.44044
-5.78305 0.886573 4.40546
-5.7793 0.882082 4.37249
-5.78748 0.880748 4.34957
-5.77764 0.877415 4.32754
-5.78185 0.875019 4.30061
-5.78207 0.87159 4.27166
-5.77931 0.868114 4.23968
-5.78252 0.865717 4.21274
-5.79367 0.865429 4.19282
-5.79786 0.863047 4.16689
-5.78902 0.85973 4.14587
-5.7952 0.858379 4.12193
-5.79542 0.85495 4.09298
-5.79961 0.852584 4.06804
-5.80182 0.850186 4.04109
-5.79606 0.846708 4.00909
-5.80025 0.844341 3.98416
-5.79737 0.842102 3.96816
-5.7946 0.838656 3.93819
-5.79779 0.837288 3.91323
-5.80199 0.834907 3.8873
-5.80318 0.832523 3.86134
-5.80339 0.830123 3.83437
-5.81056 0.827788 3.81145
-5.80967 0.82658 3.79746
-5.8049 0.823133 3.76747
-5.80809 0.820765 3.74253
-5.8073 0.81835 3.71456
-5.81466 0.814645 3.66666
-5.81586 0.812261 3.6407
-5.81406 0.80986 3.61372
-5.81119 0.807622 3.59773
-5.81138 0.805237 3.57176
-5.81357 0.802869 3.54681
-5.82093 0.799178 3.49991
-5.81316 0.795714 3.4689
-5.80848 0.791104 3.42793
-5.81863 0.790815 3.40801
-5.8218 0.788477 3.38506
-5.81702 0.785044 3.35607
-5.82318 0.783738 3.33514
-5.81641 0.780289 3.30513
-5.82555 0.780014 3.2862
-5.81271 0.776694 3.26515
-5.81688 0.775372 3.2432
-5.81309 0.771955 3.21522
-5.82223 0.77168 3.19629
-5.8264 0.770357 3.17434
-5.8246 0.767971 3.14835
-5.82578 0.765617 3.12439
-5.81691 0.762359 3.10737
-5.82605 0.762084 3.08844
-5.83321 0.761779 3.0675
-5.82343 0.757343 3.03849
-5.82959 0.757036 3.01754
-5.82679 0.753649 2.99156
-5.83294 0.753358 2.97161
-5.83502 0.752196 2.96064
-5.83619 0.750857 2.93767
-5.83638 0.748502 2.9137
-5.83457 0.746131 2.88872
-5.83873 0.744823 2.86776
-5.8399 0.743483 2.84479
-5.84307 0.74116 2.82285
-5.84424 0.73982 2.79987
-5.83754 0.736238 2.76087
-5.83472 0.732881 2.73689
-5.83688 0.731557 2.71493
-5.84104 0.730249 2.69397
-5.84521 0.729926 2.67201
-5.84247 0.726406 2.63703
-5.84365 0.725067 2.61406
-5.84931 0.718768 2.52618
-5.84459 0.715232 2.49019
-5.85073 0.713955 2.47126
-5.84891 0.712614 2.44826
-5.85796 0.703548 2.30844
-5.85913 0.701223 2.28648
-5.86029 0.699913 2.26551
-5.8617 0.696115 2.21157
-5.85289 0.693738 2.18653
-5.86766 0.688239 2.08471
-5.86224 0.682096 2.00775
-5.86969 0.679213 1.94784
-5.86594 0.676722 1.91485
-5.8754 0.67384 1.85495
-5.87056 0.671511 1.83295
-5.87794 0.669776 1.78302
-5.87426 0.666152 1.74104
-5.87572 0.66325 1.68009
-5.87588 0.661939 1.6591
-5.8821 0.660514 1.63017
-5.87627 0.658185 1.60816
-5.88286 0.65502 1.52924
-5.88194 0.653871 1.51925
-5.88409 0.653576 1.49927
-5.88723 0.652298 1.48031
-5.88554 0.649689 1.43933
-5.87886 0.647063 1.39731
-5.88108 0.645635 1.36835
-5.88622 0.645372 1.35039
-5.88966 0.642501 1.29145
-5.88083 0.640169 1.26941
-5.89288 0.642074 1.26247
-5.88704 0.639759 1.24146
-5.88918 0.63948 1.22248
-5.89233 0.638201 1.20352
-5.89348 0.637905 1.18353
-5.89163 0.636608 1.16353
-5.88892 0.634029 1.12454
-5.88001 0.631845 1.11251
-5.90042 0.63206 1.05865
-5.89409 0.627738 0.969653
-5.77644 0.932749 4.34972
-5.78561 0.931415 4.3268
-5.78782 0.929002 4.29885
-5.78606 0.925542 4.26789
