3.72126 -0.0131181 1.71179
3.72232 -0.0130004 1.71978
3.72846 -0.0117384 1.73772
3.7095 -0.0126505 1.74287
3.71564 -0.0113737 1.76181
3.71073 -0.0111924 1.77385
3.71286 -0.00994234 1.79081
3.71699 -0.00969361 1.80778
3.70712 -0.00941988 1.82585
3.70422 -0.00822537 1.83886
3.70635 -0.00797519 1.85584
3.69554 -0.00759712 1.88092
3.69767 -0.00634704 1.89789
3.6947 -0.00627084 1.90291
3.68904 -0.00461527 1.94694
3.68514 -0.00440513 1.96096
3.68326 -0.00318175 1.97596
3.68337 -0.00295971 1.99096
3.68343 -0.00284129 1.99896
3.68054 -0.00161717 2.01396
3.67664 -0.00142183 2.02699
3.66672 -0.00126652 2.03707
3.65993 -0.000846958 2.06512
3.65018 0.000663498 2.09917
3.66137 0.00201064 2.12307
3.65847 0.00222006 2.13709
3.65257 0.00241686 2.15013
3.65169 0.00365432 2.16612
3.65081 0.00389188 2.18213
3.65188 0.00502427 2.19111
3.64409 0.00544456 2.21916
3.6402 0.00565471 2.23319
3.63254 0.00832643 2.27822
3.63663 0.00850114 2.29018
3.63173 0.00871202 2.30422
3.62985 0.00995021 2.32022
3.6261 0.0114267 2.35223
3.62119 0.0116228 2.36526
3.60356 0.0133463 2.41338
3.60584 0.0148924 2.45034
3.60296 0.0161313 2.46635
3.59806 0.0163422 2.48038
3.58473 0.0196696 2.56945
3.57718 0.0225485 2.62847
3.56841 0.0239991 2.65852
3.56567 0.0255192 2.69352
3.55885 0.0258648 2.71657
3.55511 0.0283856 2.75157
3.53408 0.033296 2.87967
3.52935 0.0358323 2.91567
3.52943 0.0359803 2.92567
3.51982 0.0387571 2.97771
3.51107 0.0392521 3.01077
3.50728 0.0406694 3.03879
3.50743 0.0419653 3.05877
3.48447 0.049025 3.19686
3.47775 0.0505777 3.23389
3.47104 0.0521452 3.27192
3.42695 0.0649079 3.5241
3.41906 0.0651357 3.53916
3.4078 0.0705947 3.63717
3.40496 0.0719076 3.65818
3.39909 0.0721784 3.67622
3.4002 0.0733848 3.6902
3.39635 0.0746837 3.71021
3.38848 0.0749411 3.72727
3.38766 0.076297 3.75126
3.38382 0.0776107 3.77227
3.37595 0.0778682 3.78933
3.37211 0.0791818 3.81034
3.37322 0.080403 3.82532
3.3714 0.0817448 3.84831
3.36271 0.083373 3.89036
3.35484 0.0846303 3.9074
3.35102 0.0859736 3.93041
3.35213 0.0861949 3.94541
3.35031 0.0875515 3.9694
3.34548 0.0888807 3.99142
3.33559 0.08911 4.0065
3.3358 0.0915242 4.03446
3.33702 0.0929527 4.06344
3.32815 0.0932109 4.0805
3.32331 0.0945253 4.10152
3.32544 0.0957901 4.11949
4.0651 -0.0301635 -0.30283
4.03434 -0.0296976 -0.137582
4.03244 -0.0295037 -0.124569
4.02663 -0.0291292 -0.0995272
4.02982 -0.0287614 -0.0745532
4.01605 -0.0282923 -0.0434521
4.01715 -0.0281006 -0.0304614
4.02025 -0.0279103 -0.0174858
4.01734 -0.0277305 -0.00546488
4.01644 -0.0275374 0.00754083
4.01158 -0.0272525 0.0265759
3.99976 -0.0278884 0.0506776
3.99385 -0.0277064 0.0627211
4.00095 -0.027519 0.0756667
4.00005 -0.0273259 0.0886724
3.98913 -0.027155 0.0997536
3.99819 -0.0270432 0.107685
3.99738 -0.0266724 0.132689
3.98966 -0.0261189 0.169744
3.98475 -0.0259376 0.18178
3.97898 -0.0254743 0.212821
3.96506 -0.0263012 0.223939
3.97317 -0.0250999 0.237862
3.95758 -0.025274 0.29299
3.96168 -0.0250845 0.305958
3.95988 -0.0236983 0.331955
3.95396 -0.024531 0.343013
3.95807 -0.0233268 0.356966
3.9452 -0.0240655 0.374077
3.94448 -0.0235023 0.412079
3.94067 -0.0231294 0.437106
3.934 -0.0214879 0.480138
3.93118 -0.0211156 0.505157
3.93224 -0.0210127 0.512148
3.92542 -0.0206524 0.536198
3.92051 -0.0204711 0.548234
3.92161 -0.0202794 0.561224
3.9207 -0.0200862 0.57423
3.91594 -0.0196237 0.605263
3.91413 -0.0192374 0.631275
3.89153 -0.0184361 0.684441
3.88872 -0.0180639 0.70946
3.87799 -0.017523 0.745537
3.88611 -0.0163069 0.76046
3.88125 -0.016022 0.779495
3.88245 -0.0156378 0.805484
3.87774 -0.0150569 0.844517
3.87007 -0.0133999 0.888556
3.85734 -0.0128575 0.924649
3.84512 -0.0103235 1.02772
3.84141 -0.00874341 1.06673
3.76187 0.0040959 1.5252
3.74425 0.00484913 1.57533
3.74954 0.00742256 1.61426
3.74074 0.00781398 1.64032
3.73482 0.00798118 1.65136
3.73193 0.00819059 1.66538
3.73505 0.00942514 1.68134
3.72713 0.00959379 1.6924
3.7263 0.00992018 1.71441
3.71884 0.0129916 1.78643
3.71122 0.0147374 1.83647
3.70159 0.0164699 1.88552
3.69291 0.018098 1.92757
3.68925 0.019767 1.97258
3.67875 0.0227517 2.03862
3.60408 0.0413499 2.48097
3.59926 0.041694 2.504
3.58674 0.0446506 2.56806
3.5779 0.044968 2.58913
3.57732 0.0477826 2.6441
3.56639 0.0479387 2.65418
3.56272 0.0505927 2.69817
3.56201 0.0521558 2.73616
3.55713 0.0533813 2.75118
3.5358 0.0567146 2.84031
3.53208 0.059265 2.8773
3.51983 0.0637543 2.97734
3.51798 0.0650369 2.99634
3.50041 0.0678936 3.05344
3.50056 0.0691895 3.07342
3.4967 0.0694589 3.09145
3.48796 0.0709834 3.12649
3.48712 0.0722949 3.14748
3.4845 0.0750517 3.19847
3.47762 0.0762788 3.21351
3.47175 0.0765348 3.23055
3.47091 0.0778463 3.25154
3.46704 0.0791155 3.26955
3.45471 0.0834421 3.35859
3.44039 0.0877849 3.44865
3.42196 0.0919086 3.52374
3.41335 0.0946698 3.57477
3.40868 0.0973246 3.61877
3.39542 0.102785 3.7168
3.65216 0.0545525 2.09136
3.6234 0.0610015 2.2555
3.61808 0.0663377 2.34547
3.59106 0.0722671 2.47461
3.58329 0.072717 2.50466
3.57471 0.0755523 2.56069
3.56809 0.0782973 2.61071
3.56644 0.0809794 2.65669
3.55162 0.0813456 2.6808
3.55176 0.0826268 2.69978
3.54687 0.0838523 2.7148
3.53747 0.0880287 2.79382
3.53359 0.0882684 2.80985
3.52886 0.0897901 2.84487
3.5232 0.0924603 2.88988
3.50956 0.0951808 2.93795
3.50669 0.0954346 2.95497
3.50382 0.0967032 2.97297
3.51095 0.0979496 2.9899
3.49732 0.100685 3.03897
3.48942 0.100883 3.05203
3.48656 0.102152 3.07004
3.48572 0.103463 3.09103
3.48781 0.103639 3.10301
3.48697 0.104951 3.124
3.48108 0.106177 3.13903
3.48024 0.107489 3.16002
3.47133 0.107673 3.17208
3.46847 0.108956 3.19109
3.46763 0.110268 3.21208
3.47074 0.111472 3.22604
3.46687 0.111742 3.24407
3.46704 0.113067 3.26605
3.45815 0.114281 3.2801
3.46134 0.115649 3.30506
3.44354 0.117061 3.33218
3.44582 0.118608 3.36914
3.44196 0.119877 3.38715
3.44617 0.122288 3.41509
3.43223 0.122417 3.42319
3.43241 0.123772 3.44718
3.42855 0.125056 3.46619
3.43166 0.125261 3.48016
3.42094 0.127817 3.51721
3.41406 0.128058 3.53326
3.41526 0.130442 3.55922
3.40636 0.130641 3.57229
3.40783 0.134573 3.63523
3.39996 0.13583 3.65227
3.39932 0.138541 3.70024
3.38943 0.139756 3.7143
3.37953 0.139955 3.72737
3.38084 0.142561 3.76833
3.37719 0.14526 3.81532
3.36529 0.146446 3.8274
3.36144 0.14676 3.84843
3.36972 0.150301 3.88532
3.36175 0.150366 3.88938
3.35893 0.151709 3.91238
3.35711 0.153065 3.93638
3.35126 0.154366 3.9564
3.34945 0.155737 3.9814
3.33371 0.157267 4.0165
3.32718 0.161189 4.0785
4.03937 0.0192934 -0.138345
4.03462 0.0197707 -0.106312
4.02709 0.0207091 -0.0432606
4.02418 0.0208889 -0.0312397
4.01551 0.0205469 0.0128368
3.93236 0.0271744 0.524436
3.78115 0.0505958 1.42435
3.68255 0.0732991 2.00784
4.03301 0.0455547 -0.188693
4.0342 0.045924 -0.163704
3.99676 0.0470168 0.0435904
3.97565 0.0477796 0.161755
3.97375 0.0479735 0.174768
3.96707 0.0486151 0.217814
3.95854 0.0495394 0.279874
3.96159 0.0496408 0.28685
3.95768 0.0498214 0.298879
3.94415 0.0507493 0.360975
3.93538 0.0502001 0.391054
3.9134 0.0532298 0.527193
3.90969 0.0537952 0.565218
3.88 0.0573933 0.739412
3.86942 0.0582303 0.795488
3.86551 0.0584108 0.807516
3.86471 0.0597963 0.833505
3.85404 0.0604408 0.876582
3.85022 0.0608138 0.901609
3.84832 0.0610077 0.914622
3.84647 0.0622903 0.933619
3.84085 0.0630496 0.984658
3.84005 0.0644499 1.01165
3.83409 0.0645282 1.01669
3.82537 0.0650825 1.05375
3.82948 0.0663015 1.06871
3.8167 0.0657403 1.09782
3.82182 0.0669586 1.11276
3.81491 0.0671414 1.12481
3.81601 0.0683478 1.13879
3.80745 0.0702127 1.19683
3.79673 0.0707684 1.23391
3.79092 0.0711429 1.25895
3.79398 0.072259 1.26691
3.79409 0.072481 1.28191
3.79319 0.0726742 1.29492
3.78828 0.0728555 1.30695
3.78738 0.0740485 1.31994
3.78748 0.0742557 1.33394
3.7876 0.0754777 1.34893
3.77566 0.0746049 1.35703
3.78575 0.0757752 1.36894
3.78185 0.0759705 1.38197
3.77693 0.076137 1.393
3.77504 0.0773456 1.407
3.77514 0.0775528 1.421
3.77224 0.0777474 1.43402
3.76527 0.0778117 1.43807
3.76036 0.077993 1.45011
3.76247 0.0792135 1.46508
3.76961 0.0804747 1.48301
3.76169 0.0806434 1.49406
3.7618 0.0808506 1.50806
3.7599 0.0810445 1.52108
3.75694 0.0811355 1.5271
3.75806 0.0823715 1.54307
3.75215 0.0825387 1.55412
3.75727 0.0837866 1.57106
3.75136 0.0839686 1.5831
3.75148 0.0851905 1.59809
3.73854 0.0843185 1.6062
3.73859 0.0844221 1.6132
3.74674 0.0856974 1.63212
3.72989 0.0860207 1.65325
3.73201 0.0872559 1.66921
3.7241 0.0874246 1.68027
3.72722 0.0876592 1.69625
3.72639 0.0890003 1.71924
3.72048 0.0891675 1.73028
3.71357 0.0893502 1.74233
3.72171 0.0916254 1.76124
3.72082 0.0918482 1.77624
3.71893 0.0920569 1.79026
3.707 0.0921989 1.79935
3.70806 0.0923166 1.80734
3.70114 0.0924845 1.81839
3.71131 0.0948026 1.84028
3.7064 0.0949987 1.85332
3.69848 0.0951526 1.86338
3.70061 0.0964026 1.88034
3.69866 0.0965077 1.88736
3.69174 0.0966756 1.89841
3.6989 0.0979665 1.91834
3.68796 0.0981077 1.92742
3.69009 0.0993578 1.94439
3.68821 0.0995813 1.9594
3.68933 0.100817 1.97538
3.68242 0.101 1.98743
3.68349 0.101132 1.99642
3.66853 0.101232 2.00253
3.67669 0.102537 2.02345
3.66914 0.105431 2.08348
3.65815 0.104454 2.08457
3.6623 0.106747 2.10451
3.64735 0.105847 2.11064
3.6525 0.107139 2.13058
3.64558 0.107307 2.14163
3.65777 0.109668 2.16651
3.63779 0.108727 2.16967
3.65293 0.110982 2.18753
3.64603 0.11118 2.20058
3.64314 0.111404 2.2156
3.63522 0.111573 2.22666
3.63146 0.113034 2.25767
3.62857 0.114258 2.27268
3.62562 0.114364 2.2797
3.62776 0.115629 2.29767
3.6289 0.116895 2.31564
3.62112 0.11833 2.34468
3.61233 0.119751 2.37273
3.61743 0.120939 2.38568
3.60649 0.120081 2.39477
3.61266 0.122402 2.4167
3.59871 0.121516 2.42382
3.60703 0.125131 2.4657
3.59718 0.125435 2.48578
3.59731 0.126686 2.50276
3.59242 0.126912 2.5178
3.59458 0.128206 2.53776
3.58767 0.129389 2.5498
3.58781 0.13067 2.56878
3.58392 0.130895 2.58381
3.57737 0.134773 2.64281
3.55129 0.140583 2.76394
3.53227 0.148522 2.89398
3.53243 0.149832 2.91496
3.52088 0.153729 2.975
3.37519 0.20618 3.80944
3.35632 0.2174 3.95843
3.35159 0.219936 3.99444
3.34473 0.221207 4.01247
3.33506 0.223851 4.05551
3.33326 0.226252 4.08249
3.33146 0.227638 4.10849
3.33056 0.228831 4.12148
3.32673 0.230174 4.14449
4.05139 0.06828 -0.27418
4.04749 0.0684754 -0.261151
4.04658 0.0686537 -0.249146
4.04472 0.0689364 -0.230133
4.05001 0.0695101 -0.191176
4.0361 0.068698 -0.179058
4.03119 0.0688793 -0.167022
4.03334 0.0691591 -0.148039
4.03044 0.0693537 -0.135019
4.03353 0.0695439 -0.122043
4.02162 0.0687304 -0.109939
4.02672 0.0699191 -0.0969937
4.02281 0.0690998 -0.0849504
4.02387 0.0702025 -0.0779737
4.01705 0.0695778 -0.0529097
4.00142 0.0693149 -0.00378125
4.00857 0.0706057 0.0161485
4.00566 0.0707855 0.0281694
4.00075 0.0699669 0.0402202
3.99704 0.0705323 0.078245
3.99614 0.0707255 0.0912508
3.98536 0.0711776 0.121329
3.98546 0.07137 0.134328
3.98465 0.0717408 0.159332
3.97974 0.0719221 0.171368
3.98279 0.0720235 0.178344
3.97788 0.0722048 0.19038
3.97597 0.0723839 0.202393
3.97006 0.071566 0.214452
3.96316 0.0717487 0.226503
3.96525 0.0719397 0.239486
3.95934 0.0721217 0.251529
3.96039 0.0722098 0.257521
3.95558 0.0725835 0.282555
3.95768 0.0727744 0.295538
3.94986 0.0731355 0.319595
3.94795 0.0733294 0.332609
3.94709 0.0735966 0.350614
3.94719 0.073789 0.363612
3.95239 0.0751849 0.390556
3.94247 0.0743552 0.401644
3.94056 0.0745342 0.413658
3.93561 0.0746267 0.419694
3.93169 0.0747924 0.430723
3.92397 0.0753459 0.467778
3.91916 0.0757197 0.492812
3.92221 0.0758211 0.499789
3.9193 0.0760009 0.51181
3.91258 0.0765537 0.548857
3.90019 0.078762 0.629929
3.89729 0.0789566 0.64295
3.89443 0.0792253 0.66097
3.89353 0.0794184 0.673976
3.88771 0.0797929 0.699017
3.8828 0.0799593 0.710053
3.87989 0.0801392 0.722074
3.87999 0.0803464 0.736072
3.88435 0.0820391 0.783021
3.87142 0.0821818 0.792118
3.86275 0.0828396 0.836179
3.86194 0.0832252 0.862183
3.86003 0.0844042 0.874182
3.85823 0.0847905 0.900193
3.85437 0.0850747 0.919221
3.84676 0.0868353 0.970259
3.84285 0.0870159 0.982287
3.8449 0.087118 0.989271
3.84401 0.0883259 1.00326
3.8382 0.0887003 1.0283
3.82636 0.0880348 1.05041
3.82547 0.0892427 1.0644
3.82551 0.0893315 1.0704
3.82662 0.0905379 1.08437
3.82071 0.08972 1.09643
3.82182 0.0909264 1.11041
3.82091 0.0911196 1.12341
3.81801 0.0913142 1.13643
3.82313 0.0925325 1.15138
3.81325 0.0927914 1.16845
3.80143 0.0931406 1.19154
3.80454 0.0933604 1.20651
3.80866 0.0945942 1.22247
3.79488 0.0950337 1.25157
3.79999 0.096252 1.26651
3.80011 0.096474 1.28151
3.79118 0.0966286 1.29158
3.78326 0.0967825 1.30164
3.78738 0.0980163 1.31759
3.79045 0.0981473 1.32656
3.78152 0.0983019 1.33663
3.78363 0.0985225 1.35161
3.78976 0.10077 1.36854
3.77482 0.0998842 1.37566
3.76601 0.100261 1.40073
3.76606 0.100364 1.40773
3.77519 0.101624 1.42564
3.75835 0.101947 1.44677
3.76549 0.103209 1.4647
3.76159 0.103404 1.47773
3.75277 0.103766 1.50179
3.76398 0.106172 1.52967
3.75505 0.106327 1.53974
3.74346 0.10812 1.59281
3.75154 0.109277 1.60373
3.74362 0.109445 1.61479
3.73581 0.109821 1.63985
3.73593 0.111058 1.65583
3.7332 0.112593 1.69183
3.71157 0.114319 1.73998
3.72474 0.11565 1.76286
3.71079 0.115764 1.76997
3.71185 0.115882 1.77796
3.70695 0.116078 1.79099
3.70706 0.1173 1.80598
3.70016 0.117482 1.81803
3.68946 0.119082 1.85809
3.70258 0.12131 1.87396
3.68963 0.120423 1.88107
3.68774 0.120646 1.89608
3.69088 0.12191 1.91404
3.68597 0.123092 1.92607
3.68409 0.123315 1.94108
3.68521 0.124566 1.95805
3.68225 0.124642 1.96308
3.67133 0.124798 1.97316
3.68451 0.127144 1.99703
3.67358 0.1263 2.00712
3.67873 0.127577 2.02607
3.67081 0.127746 2.03713
3.6639 0.127929 2.04918
3.65994 0.128006 2.05421
3.65416 0.129439 2.08323
3.65429 0.130691 2.10022
3.65843 0.131969 2.11917
3.64951 0.132124 2.12923
3.64668 0.133466 2.15224
3.65485 0.1358 2.17515
3.64291 0.134928 2.18325
3.65109 0.137262 2.20616
3.64016 0.137403 2.21524
3.6374 0.138879 2.24724
3.63544 0.138969 2.25326
3.62854 0.139167 2.26631
3.62365 0.140378 2.28033
3.6288 0.14167 2.30027
3.6219 0.141868 2.31332
3.62505 0.143161 2.33328
3.61412 0.143303 2.34237
3.61619 0.144449 2.35233
3.62035 0.145757 2.37329
3.61043 0.145912 2.38336
3.60855 0.14715 2.39936
3.60667 0.147389 2.41537
3.60178 0.148599 2.42939
3.59588 0.148811 2.44343
3.59293 0.148902 2.44946
3.59709 0.15121 2.47039
3.59219 0.151421 2.48443
3.59535 0.152729 2.50539
3.58845 0.152927 2.51844
3.58168 0.15539 2.54946
3.59081 0.156635 2.56637
3.57786 0.156748 2.57347
3.57327 0.159536 2.62647
3.57039 0.160775 2.64248
3.56147 0.160945 2.65354
3.56558 0.162149 2.6675
3.5647 0.163401 2.68449
3.56586 0.164696 2.70446
3.55595 0.164881 2.71654
3.55523 0.167444 2.75451
3.55336 0.168697 2.77151
3.54165 0.170268 2.80958
3.54382 0.172592 2.83153
3.53304 0.174044 2.86159
3.52716 0.174271 2.87664
3.52623 0.175419 2.88663
3.5284 0.176744 2.90859
3.52282 0.180576 2.96459
3.51593 0.180789 2.97864
3.51213 0.183191 3.00563
3.50827 0.18446 3.02365
3.49751 0.185942 3.05571
3.5017 0.188309 3.08065
3.48977 0.187451 3.08975
3.49102 0.189939 3.12271
3.47926 0.192421 3.15477
3.48346 0.193803 3.18072
3.48262 0.196114 3.20169
3.46767 0.195229 3.20882
3.46885 0.197583 3.23278
3.47297 0.198802 3.24773
3.46507 0.199015 3.26179
3.4545 0.202866 3.31882
3.45393 0.207696 3.37476
3.44319 0.209222 3.40982
3.43934 0.210506 3.42884
3.43952 0.212861 3.4528
3.43163 0.213089 3.46786
3.42576 0.214344 3.48489
3.43008 0.217963 3.52681
3.42219 0.218191 3.54187
3.41833 0.219475 3.56088
3.41248 0.22076 3.57991
3.40055 0.220917 3.59
3.40478 0.223358 3.61993
3.40093 0.224657 3.63995
3.40205 0.225878 3.65492
3.40425 0.228276 3.68187
3.39133 0.228448 3.69297
3.38648 0.229733 3.71199
3.38567 0.232104 3.73696
3.38485 0.23346 3.76095
3.37092 0.233603 3.77006
3.37324 0.237223 3.81199
3.3684 0.238552 3.83401
3.36376 0.242251 3.881
3.35286 0.243466 3.89506
3.3561 0.245923 3.92601
3.3562 0.247115 3.93899
3.34935 0.248416 3.95903
3.35157 0.250844 3.98798
3.34168 0.251073 4.00305
3.33887 0.253445 4.02804
3.34111 0.255902 4.05899
3.3392 0.257081 4.07099
3.32931 0.257311 4.08606
3.32066 0.260998 4.13208
4.03493 0.0923261 -0.204402
4.01688 0.0932051 -0.0782616
3.99478 0.0939835 0.0409098
3.98329 0.0939989 0.109006
3.98139 0.0941928 0.122019
3.97857 0.094565 0.147038
3.9536 0.0965971 0.283215
3.85811 0.108521 0.88184
3.84548 0.109256 0.930931
3.82729 0.112854 1.03803
3.82639 0.113047 1.05104
3.81882 0.114911 1.10907
3.81792 0.115104 1.12208
3.81908 0.116414 1.14305
3.80625 0.116764 1.16615
3.80245 0.117152 1.19217
3.8026 0.118448 1.21216
3.80171 0.118656 1.22616
3.7968 0.118837 1.2382
3.7959 0.12003 1.25119
3.79099 0.120212 1.26323
3.78718 0.120599 1.28925
3.78423 0.12069 1.29527
3.78533 0.121897 1.30925
3.78745 0.123117 1.32422
3.78053 0.122285 1.33528
3.77874 0.123701 1.36328
3.77584 0.123896 1.3763
3.77293 0.125075 1.38831
3.76998 0.125166 1.39433
3.78313 0.127453 1.4142
3.77432 0.127829 1.43926
3.76338 0.126971 1.44836
3.76366 0.129503 1.48432
3.75775 0.129685 1.49637
3.75083 0.128853 1.50743
3.75395 0.130088 1.52339
3.75406 0.131295 1.53738
3.74614 0.131464 1.54844
3.74519 0.131568 1.55544
3.74831 0.132803 1.5714
3.74943 0.134024 1.58638
3.7337 0.134568 1.62249
3.7308 0.134778 1.63651
3.72795 0.136076 1.65652
3.72707 0.136299 1.67153
3.72417 0.137493 1.68453
3.71926 0.137689 1.69757
3.72239 0.138924 1.71353
3.71564 0.140432 1.74756
3.70873 0.140615 1.75961
3.70583 0.140809 1.77263
3.70796 0.142059 1.7896
3.70707 0.142267 1.80361
3.69815 0.142437 1.81467
3.7073 0.144726 1.83457
3.69241 0.143959 1.8497
3.69253 0.145181 1.86468
3.69767 0.146459 1.88363
3.69075 0.146626 1.89468
3.69087 0.147863 1.91066
3.68094 0.148004 1.91973
3.679 0.148109 1.92675
3.68414 0.149386 1.94569
3.68137 0.150832 1.9757
3.66943 0.150974 1.98479
3.66955 0.152196 1.99977
3.66666 0.152421 2.01479
3.67074 0.153566 2.02474
3.66081 0.153721 2.03482
3.66395 0.154985 2.05278
3.66508 0.156236 2.06975
3.66118 0.156446 2.08378
3.65025 0.156587 2.09286
3.6564 0.157879 2.1128
3.64943 0.157943 2.11685
3.64453 0.158139 2.12989
3.64264 0.159362 2.14489
3.64779 0.160655 2.16483
3.63686 0.160796 2.17391
3.64604 0.16313 2.19681
3.64114 0.163341 2.21085
3.63517 0.163404 2.21489
3.62927 0.163601 2.22793
3.63643 0.165907 2.24885
3.62563 0.166299 2.27493
3.62891 0.168845 2.31187
3.61791 0.168867 2.31295
3.62005 0.170132 2.33092
3.61919 0.171399 2.34891
3.61228 0.171582 2.36096
3.60637 0.171764 2.37301
3.61053 0.174072 2.39394
3.60664 0.174297 2.40897
3.60269 0.174389 2.415
3.59578 0.174571 2.42705
3.60497 0.176935 2.45195
3.60209 0.178173 2.46796
3.59216 0.178329 2.47803
3.58726 0.178525 2.49107
3.59243 0.180861 2.514
3.58446 0.179912 2.51707
3.58359 0.181164 2.53406
3.58071 0.182403 2.55007
3.58185 0.183683 2.56904
3.58098 0.184936 2.58603
3.58213 0.186231 2.60601
3.5702 0.186373 2.6151
3.5753 0.187561 2.62804
3.56538 0.187732 2.63912
3.57156 0.190082 2.66304
3.55963 0.190224 2.67213
3.55977 0.191505 2.69111
3.56093 0.192801 2.71108
3.55108 0.194104 2.73114
3.55424 0.195427 2.7531
3.55036 0.196667 2.76911
3.54246 0.19685 2.78117
3.5416 0.198132 2.80016
3.53974 0.1994 2.81816
3.54189 0.200709 2.83913
3.53392 0.200759 2.84219
3.53205 0.202027 2.86019
3.53422 0.203351 2.88215
3.52128 0.203479 2.89025
3.52245 0.205804 2.91221
3.52174 0.208382 2.95118
3.51811 0.212095 2.99916
3.51524 0.213363 3.01717
3.50936 0.21359 3.03221
3.50146 0.213803 3.04627
3.48555 0.224946 3.19024
3.44527 0.240335 3.41735
3.44159 0.243959 3.45933
3.42628 0.250318 3.55036
3.41738 0.250531 3.56443
3.40997 0.256691 3.6424
3.40127 0.260275 3.68142
3.38835 0.260447 3.69252
3.38754 0.261803 3.71651
3.38057 0.261867 3.72056
3.34916 0.277998 3.93059
3.33948 0.281642 3.97361
3.33868 0.284027 3.99959
3.34384 0.285334 4.02053
3.33698 0.286621 4.03957
3.33157 0.293764 4.11651
3.49162 0.27604 3.06142
4.06326 0.17189 -0.300806
4.05255 0.17146 -0.262714
4.05065 0.171654 -0.249701
4.04684 0.171027 -0.224659
4.02936 0.171077 -0.154519
4.02369 0.170733 -0.110465
4.01112 0.170571 -0.0543601
4.02422 0.172769 -0.0404895
4.00439 0.171124 -0.0173125
3.99773 0.17078 0.0267489
3.99291 0.171154 0.0517831
3.99801 0.172343 0.0647288
3.9891 0.171527 0.0768097
3.98829 0.171898 0.101814
3.98443 0.172182 0.120841
3.97661 0.171543 0.144913
3.96899 0.172289 0.194966
3.97804 0.173386 0.201883
3.96522 0.172751 0.225992
3.96551 0.174313 0.263972
3.95374 0.173766 0.294073
3.95412 0.175521 0.345051
3.94125 0.174782 0.362161
3.94445 0.175165 0.388135
3.93472 0.175705 0.424205
3.93382 0.175898 0.437211
3.92815 0.176554 0.48125
3.92133 0.176914 0.5053
3.91746 0.177184 0.523327
3.91857 0.17839 0.537303
3.91476 0.178763 0.56233
3.91285 0.178942 0.574343
3.90593 0.17811 0.585409
3.90102 0.178291 0.597445
3.88869 0.180603 0.685516
3.90281 0.18283 0.701379
3.88407 0.182362 0.736532
3.87725 0.182722 0.760581
3.86948 0.183172 0.790637
3.87559 0.18439 0.805575
3.86892 0.186046 0.849607
3.8561 0.185396 0.872716
3.84853 0.187245 0.929754
3.84081 0.188814 0.967794
3.84091 0.189006 0.980792
3.83615 0.190483 1.01281
3.83024 0.189665 1.02487
3.82855 0.192259 1.06485
3.83065 0.192465 1.07883
3.82774 0.193644 1.09084
3.81988 0.192917 1.10891
3.81697 0.194096 1.12092
3.81808 0.194318 1.13591
3.8232 0.195536 1.15085
3.81543 0.197001 1.18189
3.81454 0.197209 1.1959
3.7949 0.197934 1.24404
3.80202 0.200165 1.25996
3.80107 0.200269 1.26697
3.79526 0.200644 1.29201
3.79537 0.201866 1.30699
3.78645 0.20202 1.31706
3.78471 0.203525 1.35105
3.78381 0.203733 1.36506
3.77489 0.203888 1.37512
3.77499 0.205095 1.38911
3.76908 0.205277 1.40115
3.76819 0.205485 1.41516
3.76227 0.205652 1.4262
3.76333 0.20577 1.43419
3.76144 0.206978 1.44819
3.76556 0.208212 1.46414
3.77069 0.20946 1.48109
3.75775 0.208588 1.4892
3.76489 0.210849 1.50711
3.75306 0.211198 1.5302
3.75022 0.212511 1.55121
3.75334 0.213746 1.56717
3.74241 0.212887 1.57626
3.74453 0.214122 1.59223
3.73761 0.21429 1.60328
3.73265 0.214368 1.60832
3.73879 0.21563 1.62626
3.74492 0.217892 1.64418
3.72808 0.217215 1.66532
3.73333 0.2197 1.69825
3.73138 0.220805 1.70525
3.72559 0.221209 1.73229
3.71064 0.220323 1.73941
3.71678 0.222585 1.75734
3.71589 0.223808 1.77233
3.70637 0.226762 1.83636
3.70147 0.226958 1.8494
3.70058 0.228166 1.86339
3.70572 0.230443 1.88232
3.6948 0.2296 1.89242
3.70189 0.230772 1.90435
3.68505 0.231095 1.92547
3.67968 0.236343 2.00945
3.66511 0.239182 2.06552
3.66642 0.242803 2.10747
3.65059 0.24314 2.12958
3.65373 0.244419 2.14854
3.6401 0.247154 2.19761
3.64023 0.248406 2.2146
3.63735 0.24963 2.2296
3.63647 0.250868 2.24559
3.62855 0.251036 2.25665
3.62868 0.252288 2.27363
3.62875 0.253421 2.28262
3.62701 0.255925 2.3166
3.6162 0.256318 2.34268
3.61734 0.258584 2.36064
3.60741 0.257739 2.37073
3.6046 0.260111 2.39572
3.59682 0.261546 2.42476
3.59509 0.264065 2.45974
3.59422 0.265318 2.47673
3.59026 0.265409 2.48276
3.5835 0.267873 2.51378
3.58565 0.269168 2.53374
3.57572 0.269323 2.54382
3.58391 0.272687 2.56871
3.57299 0.271843 2.5788
3.56615 0.273174 2.60084
3.57938 0.277608 2.63068
3.56745 0.27675 2.63978
3.57061 0.279058 2.66073
3.55465 0.278159 2.66686
3.55983 0.280496 2.68979
3.55286 0.28056 2.69384
3.56005 0.282925 2.71876
3.55531 0.285431 2.75276
3.53935 0.284532 2.7589
3.55058 0.287968 2.78876
3.54375 0.289313 2.8118
3.53081 0.289441 2.8199
3.53499 0.291778 2.84283
3.53127 0.294329 2.87983
3.5195 0.296781 2.90988
3.51655 0.296887 2.91691
3.5078 0.299382 2.94994
3.50912 0.303017 2.99288
3.50742 0.306596 3.03185
3.50279 0.310324 3.08083
3.98736 0.196999 0.10845
3.94895 0.199152 0.319737
3.95219 0.199624 0.35171
3.94046 0.200165 0.387795
3.86584 0.209853 0.836276
3.84464 0.212438 0.942412
3.83517 0.215481 1.01245
3.82259 0.21632 1.06854
3.81779 0.217708 1.09456
3.82089 0.218913 1.10852
3.81123 0.220572 1.15257
3.81033 0.22078 1.16658
3.80653 0.222167 1.19259
3.79961 0.222335 1.20364
3.79982 0.223735 1.23062
3.79106 0.224215 1.26269
3.79617 0.225433 1.27763
3.78646 0.227003 1.31569
3.79153 0.228132 1.32463
3.78963 0.228341 1.33865
3.7797 0.228482 1.34772
3.77791 0.229897 1.37572
3.77601 0.230091 1.38873
3.76709 0.230261 1.3998
3.7672 0.231468 1.41378
3.76725 0.231571 1.42078
3.77438 0.232818 1.43771
3.76847 0.233 1.44975
3.76356 0.233181 1.46179
3.75564 0.23335 1.47285
3.75374 0.234543 1.48584
3.7529 0.235855 1.50683
3.75101 0.236064 1.52085
3.74911 0.237257 1.53385
3.75022 0.237479 1.54884
3.74029 0.237634 1.55891
3.74542 0.238882 1.57586
3.74648 0.24 1.58383
3.7476 0.241221 1.59881
3.73968 0.241389 1.60987
3.73689 0.242806 1.63787
3.73098 0.242988 1.64991
3.72407 0.243171 1.66196
3.73919 0.245382 1.67682
3.72022 0.24347 1.68199
3.72636 0.245731 1.69991
3.72547 0.246939 1.71391
3.72458 0.247162 1.72891
3.71867 0.247344 1.74095
3.71878 0.248566 1.75594
3.72197 0.250919 1.77988
3.70513 0.251257 1.80201
3.70926 0.252506 1.81896
3.69254 0.253066 1.85608
3.70465 0.255279 1.87096
3.69472 0.255419 1.88003
3.69083 0.255629 1.89406
3.69094 0.256851 1.90905
3.68202 0.257021 1.92011
3.69219 0.259339 1.942
3.68521 0.259388 1.94506
3.68534 0.260625 1.96104
3.68345 0.261848 1.97604
3.68658 0.263098 1.993
3.67365 0.262241 2.00211
3.67879 0.264518 2.02104
3.6769 0.265726 2.03504
3.66296 0.264855 2.04316
3.66202 0.264974 2.05116
3.66615 0.267238 2.0691
3.66125 0.267434 2.08214
3.66037 0.268671 2.09813
3.66251 0.269936 2.11609
3.65459 0.270105 2.12715
3.64869 0.271301 2.14018
3.6588 0.272501 2.15409
3.64888 0.272671 2.16516
3.64599 0.273881 2.17917
3.64813 0.27516 2.19814
3.64423 0.276356 2.21115
3.6343 0.276511 2.22122
3.63845 0.277804 2.24118
3.63551 0.27791 2.2482
3.63462 0.279132 2.26319
3.62973 0.280343 2.27721
3.62986 0.281595 2.29419
3.62107 0.28303 2.32324
3.6202 0.284268 2.33923
3.62328 0.285428 2.35019
3.61738 0.285625 2.36324
3.61047 0.286808 2.37527
3.60772 0.289298 2.40826
3.60799 0.291831 2.44423
3.60604 0.292936 2.45123
3.59713 0.293105 2.46229
3.59123 0.293317 2.47634
3.59841 0.295652 2.49925
3.58648 0.295794 2.50834
3.5846 0.297032 2.52434
3.58373 0.298299 2.54233
3.58481 0.299446 2.5523
3.58394 0.300699 2.56929
3.58307 0.301966 2.58728
3.57516 0.302149 2.59934
3.57531 0.30443 2.61831
3.57243 0.305669 2.63432
3.5605 0.304811 2.64342
3.5666 0.307014 2.65734
3.56675 0.308295 2.67633
3.56488 0.310548 2.69331
3.56301 0.311816 2.71131
3.55928 0.314336 2.7463
3.54835 0.314492 2.75638
3.54858 0.316936 2.78635
3.54973 0.319231 2.80631
3.54586 0.320471 2.82232
3.545 0.321753 2.84131
3.53709 0.321936 2.85337
3.53623 0.324218 2.87235
3.53057 0.327888 2.91734
3.52469 0.328115 2.93238
3.5188 0.329341 2.94741
3.51795 0.331623 2.96639
3.51508 0.332891 2.98439
3.50286 0.341425 3.08737
4.07129 0.221878 -0.301607
4.05882 0.221924 -0.231504
4.03734 0.219962 -0.162304
4.01886 0.218997 -0.0931406
4.02824 0.221746 -0.042245
3.99728 0.220797 0.0950213
3.96759 0.222395 0.269245
3.95439 0.22399 0.376336
3.93223 0.225649 0.487494
3.92751 0.226201 0.524526
3.91674 0.226653 0.554605
3.92094 0.228049 0.581556
3.91913 0.229421 0.606553
3.91236 0.229885 0.637601
3.90564 0.230438 0.674649
3.89472 0.229608 0.685745
3.90188 0.230914 0.706675
3.88449 0.233126 0.787784
3.87306 0.235245 0.862849
3.86029 0.235698 0.892943
3.84065 0.242393 1.07402
3.83183 0.242754 1.09808
3.82428 0.245633 1.1571
3.81673 0.248512 1.21613
3.7372 0.26938 1.67648
3.73253 0.27202 1.71948
3.71887 0.273696 1.76457
3.70859 0.28011 1.85956
3.68361 0.288127 1.99465
3.67971 0.288322 2.00768
3.67324 0.293363 2.07766
3.66544 0.294768 2.1047
3.64824 0.302335 2.20974
3.64333 0.302531 2.22277
3.61569 0.315201 2.40182
3.60396 0.317742 2.43787
3.60524 0.321289 2.47482
3.59955 0.323885 2.51483
3.59077 0.325336 2.54487
3.58804 0.328856 2.57985
3.55169 0.346109 2.7979
3.5468 0.346334 2.81293
4.07032 0.271859 -0.30334
4.06261 0.271442 -0.26427
4.0607 0.270621 -0.252242
4.0558 0.270817 -0.239206
4.05594 0.271099 -0.220209
4.04913 0.270474 -0.195145
4.04923 0.270666 -0.182147
4.04333 0.269863 -0.169088
4.03366 0.269522 -0.125004
4.02675 0.268705 -0.112939
4.02994 0.270087 -0.0869795
4.02303 0.26927 -0.0749137
4.02513 0.269461 -0.0619306
4.01818 0.268555 -0.0558639
4.02527 0.270742 -0.042948
4.01836 0.269925 -0.0308822
4.01245 0.269107 -0.0188239
4.00864 0.26948 0.00620279
4.00373 0.268662 0.0182536
4.00479 0.268765 0.0252451
3.99988 0.268946 0.037281
4.01098 0.270145 0.0511815
3.99806 0.269317 0.0622926
3.99926 0.269701 0.0882815
3.99635 0.269881 0.100302
4.0014 0.270981 0.107249
3.98849 0.269154 0.118375
3.99359 0.270357 0.132321
3.99168 0.270536 0.144334
3.98086 0.2699 0.168428
3.97195 0.269084 0.180509
3.97901 0.270182 0.187441
3.96809 0.269353 0.198537
3.9742 0.270556 0.212475
3.96628 0.269725 0.223548
3.97238 0.270928 0.237486
3.97147 0.271106 0.249492
3.97157 0.271298 0.262491
3.97263 0.272401 0.269467
3.96281 0.271764 0.293554
3.9669 0.272953 0.306507
3.965 0.273147 0.319521
3.96109 0.272328 0.331564
3.96128 0.273698 0.356546
3.95432 0.272777 0.361612
3.95242 0.272971 0.374626
3.9445 0.27214 0.385699
3.95261 0.274341 0.399607
3.93468 0.271502 0.409786
3.93177 0.271682 0.421807
3.94589 0.274908 0.437655
3.94293 0.273985 0.442691
3.94203 0.275178 0.455682
3.9304 0.274912 0.504781
3.92744 0.275003 0.510802
3.92854 0.276194 0.523778
3.92573 0.276567 0.548797
3.92683 0.276758 0.561788
3.92302 0.278131 0.5868
3.9151 0.2773 0.597873
3.90753 0.279149 0.654911
3.90372 0.279522 0.679938
3.90176 0.279613 0.685952
3.89996 0.279999 0.711963
3.89034 0.281746 0.762017
3.88758 0.283222 0.79402
3.88277 0.283596 0.819054
3.88186 0.283789 0.83206
3.87129 0.285626 0.88812
3.86938 0.28582 0.901134
3.85791 0.288864 0.971185
3.8531 0.289238 0.996219
3.84919 0.289419 1.00825
3.82917 0.295343 1.13733
3.80398 0.298946 1.24448
3.79954 0.303059 1.31946
3.79463 0.30324 1.3315
3.75362 0.317164 1.59464
3.74018 0.321269 1.66869
3.56981 0.392298 2.67606
4.07225 0.299692 -0.314768
4.07035 0.298886 -0.30174
4.05344 0.297076 -0.289584
4.06654 0.299259 -0.276713
4.05264 0.297461 -0.26358
4.05273 0.297654 -0.250582
4.05278 0.297743 -0.244583
4.04088 0.295944 -0.231465
4.05797 0.299124 -0.218639
4.05206 0.298306 -0.20658
4.04416 0.297504 -0.193507
4.03925 0.296686 -0.181456
4.04135 0.297876 -0.168488
4.0374 0.296968 -0.162444
4.04059 0.298351 -0.136485
4.02568 0.29654 -0.124344
4.02778 0.296731 -0.111361
4.02287 0.295912 -0.0993102
4.03197 0.298098 -0.0864093
4.02201 0.296194 -0.0803053
4.01911 0.296389 -0.0672845
4.02021 0.29658 -0.0542938
4.0223 0.297756 -0.0423254
4.0154 0.296954 -0.0292597
4.01249 0.296134 -0.0172239
4.01358 0.297326 -0.00424808
4.01063 0.296417 0.00178848
4.01373 0.297607 0.0147493
4.00082 0.295794 0.0268751
4.00792 0.296981 0.0398058
4.00301 0.297163 0.0518418
3.9941 0.296347 0.0639227
3.99824 0.297625 0.0828751
3.99734 0.297818 0.0958809
3.99243 0.297 0.107932
3.99053 0.297194 0.120945
3.97961 0.296364 0.132041
3.98271 0.296555 0.145017
3.9808 0.296734 0.15703
3.98986 0.298845 0.164932
3.97894 0.297017 0.176042
3.98304 0.298206 0.188996
3.97413 0.29739 0.201077
3.98424 0.29959 0.21497
3.97351 0.299146 0.252062
3.97256 0.299235 0.258069
3.97065 0.299414 0.270082
3.95873 0.297586 0.281201
3.96083 0.298777 0.294169
3.96303 0.30016 0.320136
3.95712 0.299342 0.332194
3.95817 0.300445 0.339171
3.96227 0.300635 0.352139
3.95636 0.300817 0.364182
3.95445 0.300996 0.376196
3.93662 0.29935 0.399357
3.94768 0.30146 0.407244
3.94277 0.300641 0.419295
3.94597 0.302024 0.445254
3.93014 0.301376 0.468386
3.93324 0.302566 0.481347
3.93534 0.302757 0.49433
3.93338 0.302847 0.500344
3.93348 0.30304 0.513342
3.92657 0.303223 0.525393
3.90697 0.303022 0.578551
3.91117 0.304418 0.605503
3.90245 0.304973 0.642565
3.89954 0.305152 0.654586
3.89969 0.306434 0.673569
3.9038 0.307653 0.688522
3.90199 0.308024 0.713533
3.89307 0.307194 0.724614
3.89718 0.309398 0.738553
3.89522 0.309488 0.744567
3.8823 0.307646 0.754693
3.89242 0.309875 0.770586
3.8855 0.310043 0.781637
3.87984 0.310699 0.825676
3.87202 0.31106 0.849733
3.87212 0.312267 0.863716
3.86931 0.313639 0.888721
3.85162 0.313259 0.929865
3.84871 0.313439 0.941886
3.85182 0.314659 0.956847
3.85393 0.315864 0.970815
3.85202 0.316043 0.982828
3.84004 0.315097 0.985933
3.84727 0.317535 1.01585
3.84637 0.318728 1.02884
3.83665 0.319283 1.06591
3.8377 0.319386 1.0729
3.834 0.321966 1.11189
3.82127 0.322509 1.14799
3.82343 0.323833 1.16995
3.8088 0.325569 1.21905
3.80691 0.325778 1.23306
3.80896 0.32688 1.24003
3.80907 0.328087 1.25401
3.80416 0.328268 1.26605
3.79423 0.327423 1.27614
3.79957 0.331071 1.32005
3.79371 0.331356 1.33909
3.79382 0.332564 1.35307
3.78511 0.334147 1.39212
3.7822 0.335327 1.40413
3.76875 0.338418 1.47719
3.75799 0.339884 1.50826
3.75419 0.341287 1.53527
3.75932 0.342535 1.55221
3.75653 0.344951 1.5802
3.74789 0.347653 1.62723
3.73546 0.351787 1.70328
3.72855 0.351955 1.71433
3.72877 0.354399 1.74429
3.71057 0.360967 1.84935
3.70584 0.363503 1.88535
3.70094 0.363699 1.89839
3.70105 0.365921 1.91336
3.68955 0.369891 1.97839
3.67514 0.375071 2.05744
3.66069 0.380147 2.12948
3.65981 0.381385 2.14547
3.65698 0.383727 2.16846
3.63408 0.394875 2.31249
3.62329 0.396298 2.34055
3.61671 0.401131 2.39654
3.61295 0.403608 2.42853
3.61208 0.40486 2.44552
3.60424 0.406177 2.46657
3.59272 0.411117 2.52959
3.59286 0.413384 2.54756
3.59192 0.414517 2.55655
3.58228 0.41822 2.60357
3.57753 0.420712 2.63657
3.57473 0.423099 2.66256
3.56308 0.426803 2.7096
3.5412 0.439995 2.85659
3.52778 0.447144 2.9336
3.52291 0.448399 2.95062
4.02061 0.316348 -0.00258236
3.98621 0.317513 0.209689
4.06634 0.346809 -0.30742
4.06839 0.346911 -0.300436
4.05858 0.346289 -0.275349
4.05868 0.346481 -0.262351
4.05378 0.345677 -0.2493
4.04997 0.345051 -0.224259
4.04602 0.345157 -0.21723
4.04911 0.345333 -0.205254
4.04521 0.345528 -0.192226
4.0453 0.34572 -0.179228
4.04039 0.344902 -0.167177
4.03759 0.345289 -0.141158
4.04364 0.346373 -0.135219
4.02572 0.343564 -0.12304
4.03001 0.345124 -0.0850905
4.02711 0.345318 -0.0720697
4.03021 0.345508 -0.0590941
4.0213 0.344693 -0.0470132
4.02334 0.34478 -0.0410291
4.02244 0.344973 -0.0280234
4.01754 0.345169 -0.0149876
4.01263 0.344351 -0.00293678
4.01373 0.344542 0.0100539
4.01482 0.345719 0.0220299
4.01392 0.345912 0.0350357
4.00896 0.345005 0.0410872
4.00005 0.344189 0.0531681
4.00144 0.345943 0.104139
3.99376 0.345586 0.147208
3.97446 0.345977 0.24036
3.9738 0.347644 0.285347
3.96789 0.346826 0.297405
3.95636 0.347752 0.359487
3.95349 0.348021 0.377507
3.94958 0.348202 0.389535
3.94377 0.347576 0.414592
3.94301 0.34905 0.44658
3.9431 0.350228 0.458564
3.93228 0.349591 0.482658
3.93438 0.349782 0.495641
3.93348 0.350975 0.508632
3.93258 0.351168 0.521638
3.9248 0.351618 0.551694
3.925 0.352003 0.57769
3.92209 0.352183 0.589711
3.91718 0.352364 0.601747
3.90932 0.352637 0.619805
3.90841 0.352815 0.631811
3.9046 0.353188 0.656837
3.90369 0.353381 0.669843
3.89883 0.353651 0.687878
3.89793 0.354844 0.700869
3.89713 0.35623 0.726858
3.89622 0.356423 0.739864
3.89341 0.357795 0.764868
3.89146 0.357885 0.770882
3.88856 0.35808 0.783903
3.88665 0.358259 0.795917
3.88374 0.358454 0.808937
3.88384 0.359646 0.821921
3.87903 0.36002 0.846955
3.87317 0.36029 0.864998
3.86625 0.359458 0.876064
3.86635 0.360651 0.889047
3.86445 0.360845 0.90206
3.86454 0.362037 0.915044
3.86565 0.363243 0.929019
3.85868 0.362308 0.933086
3.85879 0.362515 0.947084
3.85128 0.365483 1.01211
3.84741 0.366752 1.03012
3.84261 0.367141 1.05615
3.83494 0.369797 1.10018
3.83215 0.370199 1.1272
3.82924 0.371379 1.1392
3.82834 0.371587 1.15321
3.82058 0.373052 1.18425
3.81286 0.37462 1.22229
3.80917 0.377215 1.26228
3.78716 0.384185 1.39436
3.78046 0.385767 1.4334
3.75848 0.393781 1.56846
3.74866 0.394144 1.59253
3.72883 0.404438 1.74655
3.71641 0.410587 1.82357
3.71352 0.410796 1.83759
3.70684 0.414437 1.88059
3.69343 0.419602 1.95862
3.67815 0.427004 2.05264
3.67224 0.427201 2.06569
3.66835 0.427411 2.07971
3.65283 0.432355 2.14277
3.64812 0.435935 2.18176
3.64146 0.439606 2.22676
3.63884 0.444333 2.27571
3.6379 0.444453 2.28372
3.63011 0.446873 2.31175
3.62924 0.448125 2.32874
3.61341 0.448477 2.35185
3.61777 0.454169 2.39874
3.60999 0.456619 2.42877
3.59819 0.458012 2.45484
3.60336 0.460334 2.47677
3.5994 0.460426 2.4828
3.60256 0.463734 2.50373
3.59278 0.465156 2.53179
3.59392 0.467436 2.55075
3.58616 0.469901 2.58177
3.57644 0.47347 2.6198
3.57356 0.474709 2.63581
3.56681 0.477188 2.66782
3.56494 0.479455 2.68581
3.57004 0.481644 2.69874
3.55654 0.487616 2.76376
3.55079 0.490123 2.79777
3.53723 0.495976 2.85479
3.53652 0.499554 2.89375
3.52762 0.500753 2.9068
3.52784 0.504182 2.93576
3.51894 0.504381 2.94882
3.51437 0.511228 3.00576
3.51151 0.512496 3.02377
3.50872 0.515913 3.05174
3.50486 0.517182 3.06975
4.05865 0.440308 -0.274741
4.05275 0.439505 -0.261683
4.0548 0.440592 -0.255714
4.0519 0.439787 -0.242678
4.04799 0.439968 -0.23065
4.05808 0.441153 -0.217742
4.04218 0.439357 -0.204594
4.04327 0.439534 -0.192603
4.05137 0.44072 -0.17968
4.03742 0.438819 -0.173545
4.03651 0.439013 -0.16054
4.03461 0.439207 -0.147526
4.0297 0.438388 -0.135476
4.0278 0.438582 -0.122462
4.02889 0.438759 -0.110472
4.02799 0.438952 -0.0974659
4.02403 0.439044 -0.0914366
4.02113 0.438238 -0.078401
4.02122 0.438416 -0.0664027
4.02232 0.439608 -0.0534268
4.01541 0.43879 -0.041361
4.01451 0.438984 -0.0283552
4.0136 0.439162 -0.0163494
4.00874 0.438447 0.00270043
4.00583 0.438627 0.0147213
4.00293 0.438821 0.0277421
4.00803 0.43901 0.0407027
4.00612 0.439204 0.053716
4.00521 0.439382 0.0657218
3.99325 0.438465 0.0708263
4.00136 0.439667 0.0847493
3.99445 0.438849 0.0968151
3.99555 0.440041 0.109791
3.98663 0.438211 0.120887
3.98673 0.439403 0.13387
3.98782 0.439595 0.146861
3.98191 0.438777 0.158919
3.98597 0.439877 0.165873
3.98406 0.440056 0.177887
3.98115 0.440236 0.189908
3.97324 0.43942 0.201981
3.97133 0.439599 0.213994
3.97644 0.440802 0.22794
3.97653 0.440995 0.240938
3.96957 0.440074 0.246005
3.96766 0.440253 0.258018
3.97377 0.441456 0.271957
3.96485 0.440625 0.283038
3.96295 0.440819 0.296051
3.95904 0.441 0.308079
3.96008 0.441088 0.314071
3.95618 0.441283 0.327099
3.95036 0.440643 0.351156
3.95046 0.441835 0.364139
3.95356 0.443025 0.3771
3.95166 0.443219 0.390113
3.95175 0.443397 0.402112
3.94278 0.442478 0.407193
3.94088 0.442671 0.420207
3.93396 0.441839 0.431273
3.94408 0.444054 0.446166
3.93115 0.442212 0.456292
3.93125 0.443404 0.469275
3.92834 0.443584 0.481296
3.93249 0.444877 0.501248
3.92858 0.445057 0.513277
3.93169 0.446262 0.527238
3.92177 0.444433 0.538341
3.92397 0.446816 0.564293
3.91099 0.44487 0.56742
3.9161 0.446088 0.582365
3.92121 0.447292 0.596311
3.91028 0.446448 0.606407
3.91539 0.447651 0.620353
3.90757 0.448013 0.64441
3.90462 0.448103 0.650431
3.90672 0.448309 0.664414
3.89479 0.447451 0.673518
3.8949 0.448658 0.687501
3.89799 0.448849 0.700477
3.88507 0.448006 0.710588
3.88918 0.449211 0.724541
3.89724 0.451338 0.73345
3.88632 0.449494 0.743561
3.88542 0.450687 0.756552
3.88752 0.451893 0.770521
3.88461 0.452072 0.782541
3.8807 0.452253 0.79457
3.88381 0.453458 0.808531
3.86983 0.451513 0.811665
3.87795 0.453729 0.826573
3.88005 0.454934 0.840541
3.86913 0.453091 0.850653
3.87323 0.455295 0.864591
3.86933 0.45549 0.877619
3.86441 0.454657 0.88867
3.86547 0.45576 0.895647
3.86256 0.455954 0.908668
3.86166 0.457147 0.921659
3.85475 0.456315 0.932724
3.85585 0.457522 0.9467
3.84492 0.456663 0.955796
3.84803 0.457883 0.970757
3.85209 0.458998 0.978711
3.84618 0.458165 0.989769
3.83826 0.458334 1.00083
3.84739 0.460579 1.01773
3.83445 0.458707 1.02585
3.83155 0.459902 1.03886
3.83666 0.46112 1.05381
3.83271 0.461212 1.05984
3.8288 0.461392 1.07186
3.83592 0.463624 1.08778
3.82398 0.462766 1.09688
3.83412 0.465025 1.11478
3.8262 0.465178 1.12483
3.81929 0.464361 1.1369
3.81933 0.46545 1.14288
3.81442 0.465631 1.15492
3.81554 0.466852 1.1699
3.81664 0.467059 1.18389
3.80671 0.467199 1.19296
3.80882 0.46842 1.20793
3.80291 0.467602 1.21999
3.80397 0.468705 1.22696
3.80107 0.468899 1.23998
3.80318 0.47112 1.25494
3.79525 0.470274 1.26501
3.79235 0.470468 1.27803
3.79045 0.471662 1.29103
3.79256 0.472883 1.306
3.79563 0.473999 1.31396
3.78369 0.473141 1.32306
3.7838 0.474348 1.33705
3.78792 0.475582 1.353
3.78402 0.476777 1.36601
3.78112 0.476972 1.37903
3.77922 0.478165 1.39203
3.77837 0.479477 1.41302
3.77146 0.479645 1.42407
3.76454 0.478813 1.43514
3.76265 0.480021 1.44914
3.76275 0.481229 1.46312
3.75789 0.481513 1.48216
3.76403 0.484775 1.50006
3.75912 0.484956 1.5121
3.75824 0.486179 1.52709
3.74931 0.485334 1.53717
3.7454 0.485514 1.5492
3.74452 0.486737 1.56419
3.74462 0.487944 1.57818
3.73966 0.488022 1.58321
3.74278 0.489256 1.59917
3.74189 0.490479 1.61416
3.73096 0.48962 1.62326
3.7371 0.492882 1.64117
3.73621 0.49409 1.65516
3.72923 0.493154 1.65922
3.72533 0.49335 1.67225
3.73047 0.495612 1.69018
3.72456 0.495794 1.70223
3.72367 0.497002 1.71622
3.72077 0.498211 1.73022
3.72089 0.499448 1.74621
3.71692 0.49951 1.75024
3.72207 0.501788 1.76917
3.70712 0.500902 1.77629
3.70924 0.502138 1.79226
3.70736 0.503361 1.80726
3.70747 0.504583 1.82224
3.69955 0.504752 1.8333
3.70263 0.505897 1.84326
3.70173 0.507105 1.85725
3.69683 0.508301 1.87027
3.69495 0.509524 1.88527
3.69808 0.510774 1.90223
3.69117 0.510957 1.91428
3.68626 0.512138 1.9263
3.68236 0.512348 1.94033
3.69348 0.515562 1.9552
3.68858 0.515758 1.96824
3.67664 0.515885 1.97633
3.67387 0.518346 2.00732
3.68103 0.521651 2.02822
3.66915 0.520897 2.04432
3.66626 0.522121 2.05933
3.66349 0.524567 2.08931
3.66865 0.527874 2.11023
3.66381 0.529188 2.13125
3.65791 0.529385 2.14429
3.64911 0.531791 2.17133
3.64522 0.532001 2.18536
3.64548 0.535504 2.21931
3.64058 0.536715 2.23333
3.63675 0.539043 2.25532
3.62783 0.538213 2.26641
3.62709 0.541716 2.30036
3.62823 0.543982 2.31832
3.62743 0.547367 2.34428
3.61951 0.547536 2.35534
3.62367 0.549843 2.37628
3.61174 0.548986 2.38538
3.61187 0.551237 2.40235
3.6051 0.553701 2.43337
3.60631 0.557114 2.46131
3.60243 0.558339 2.47633
3.59753 0.559535 2.48935
3.59077 0.562013 2.52137
3.58487 0.56221 2.53441
3.58105 0.564568 2.55841
3.58422 0.567891 2.58034
3.57544 0.570342 2.61037
3.57056 0.571567 2.62539
3.56869 0.57282 2.64239
3.57077 0.573982 2.65336
3.56286 0.575165 2.6654
3.56804 0.578516 2.68932
3.55913 0.578686 2.70038
3.5633 0.582023 2.72331
3.55539 0.582206 2.73537
3.5485 0.583418 2.7494
3.54857 0.584566 2.75938
3.54772 0.586848 2.77836
3.54384 0.588088 2.79437
3.54801 0.591425 2.8173
3.53206 0.589526 2.82344
3.53825 0.593891 2.84834
3.52732 0.593047 2.85843
3.53042 0.595237 2.87138
3.52655 0.597492 2.88838
3.51864 0.597675 2.90044
3.5178 0.599986 2.92141
3.51392 0.601226 2.93742
3.50804 0.602452 2.95245
3.50921 0.605777 2.9744
3.50827 0.606911 2.98339
3.50743 0.609207 3.00336
3.49952 0.609406 3.01642
3.50171 0.612759 3.04036
3.49381 0.613957 3.0534
3.49599 0.617311 3.07734
3.49724 0.620798 3.11028
4.0544 0.479759 -0.312299
4.0565 0.47995 -0.299315
4.05059 0.479132 -0.287257
4.05669 0.48032 -0.274319
4.05674 0.480424 -0.26732
4.05683 0.480601 -0.255321
4.05393 0.480796 -0.242301
4.04403 0.478996 -0.229198
4.04421 0.479366 -0.204201
4.03731 0.478563 -0.191135
4.03745 0.478845 -0.172138
4.03655 0.479023 -0.160132
4.03264 0.479218 -0.147104
4.02974 0.478413 -0.134068
4.02783 0.478592 -0.122055
4.02493 0.478787 -0.109034
4.02697 0.478874 -0.10305
4.01916 0.47825 -0.0779784
4.01325 0.477432 -0.0659201
4.01345 0.477817 -0.0399237
4.00854 0.477998 -0.0278877
4.01164 0.478189 -0.0149121
4.00768 0.47828 -0.00888283
4.00277 0.477462 0.00316796
3.99987 0.477656 0.0161887
4.00096 0.477833 0.0281795
4.00206 0.478025 0.0411702
3.99816 0.47822 0.0541985
3.99125 0.477403 0.0662644
3.9993 0.478501 0.0731884
3.99139 0.477684 0.0852617
3.99048 0.477863 0.0972676
3.99158 0.479054 0.110243
3.98667 0.478236 0.122294
3.98477 0.47843 0.135308
3.98381 0.478519 0.141314
3.98691 0.479709 0.154275
3.981 0.478891 0.166333
3.98009 0.47907 0.178339
3.97218 0.478253 0.190413
3.97528 0.479444 0.203373
3.97538 0.479636 0.216372
3.97147 0.479816 0.2284
3.97151 0.479905 0.234399
3.96961 0.480099 0.247412
3.96169 0.479268 0.258486
3.95779 0.478463 0.271529
3.95588 0.478643 0.283542
3.95798 0.479833 0.296511
3.95707 0.480012 0.308517
3.95221 0.480297 0.327552
3.9503 0.480476 0.339565
3.95741 0.481678 0.353496
3.94549 0.480849 0.364599
3.94158 0.48003 0.376642
3.94769 0.482233 0.390566
3.93672 0.4803 0.394678
3.93682 0.480493 0.407676
3.94392 0.482694 0.421592
3.936 0.481863 0.432665
3.9321 0.482044 0.444694
3.94121 0.484259 0.459594
3.92528 0.481419 0.469758
3.92734 0.482521 0.476727
3.92743 0.482699 0.488725
3.92571 0.484263 0.52672
3.9138 0.483434 0.537824
3.91489 0.483626 0.550814
3.92096 0.48574 0.558738
3.91404 0.484908 0.569804
3.90813 0.48409 0.581863
3.91123 0.48528 0.594824
3.90231 0.48445 0.605905
3.90651 0.486846 0.632841
3.89855 0.485926 0.637915
3.89564 0.486106 0.649936
3.90075 0.487309 0.663882
3.88982 0.486465 0.673978
3.89493 0.487669 0.687924
3.89403 0.488862 0.700915
3.88511 0.488032 0.711996
3.88716 0.488134 0.71898
3.88927 0.489339 0.732948
3.87834 0.488495 0.743044
3.87944 0.489687 0.75602
3.87954 0.489879 0.769018
3.87663 0.490059 0.781039
3.8828 0.49238 0.802961
3.86986 0.491523 0.812073
3.86996 0.491716 0.825071
3.87007 0.492923 0.839054
3.86315 0.492091 0.85012
3.86726 0.494295 0.864058
3.86335 0.494475 0.876087
3.85738 0.493554 0.881146
3.85949 0.49476 0.895114
3.8636 0.495964 0.909068
3.84866 0.494108 0.918209
3.85077 0.495314 0.932177
3.85789 0.497545 0.948093
3.844 0.496778 0.963211
3.8421 0.496972 0.976224
3.8422 0.498164 0.989207
3.83629 0.498346 1.00125
3.83438 0.498525 1.01326
3.83359 0.499925 1.04025
3.83063 0.500016 1.04627
3.83073 0.501209 1.05926
3.82783 0.501403 1.07228
3.82593 0.502597 1.08528
3.82502 0.50279 1.09828
3.82312 0.503984 1.11128
3.82021 0.504164 1.1233
3.81626 0.504255 1.12933
3.81736 0.505462 1.14331
3.81446 0.505642 1.15533
3.80564 0.506003 1.17939
3.80574 0.507211 1.19338
3.80183 0.507391 1.2054
3.80489 0.508507 1.21337
3.80109 0.509895 1.23938
3.79629 0.511283 1.2654
3.79339 0.511478 1.27842
3.79349 0.512685 1.2924
3.79555 0.513802 1.30037
3.78963 0.513969 1.31141
3.79075 0.51519 1.32639
3.78584 0.515372 1.33843
3.78193 0.515552 1.35045
3.78204 0.516759 1.36444
3.77512 0.516927 1.37549
3.77523 0.518149 1.39047
3.77127 0.518226 1.3955
3.7784 0.520472 1.41242
3.77148 0.52064 1.42347
3.7746 0.521875 1.43943
3.76969 0.522056 1.45146
3.75876 0.521197 1.46056
3.76484 0.523341 1.47048
3.76596 0.524577 1.48646
3.76104 0.524743 1.4975
3.75714 0.525939 1.51051
3.75324 0.526134 1.52354
3.75235 0.527342 1.53753
3.75245 0.528549 1.55151
3.75653 0.529694 1.56147
3.74861 0.529863 1.57252
3.74671 0.531056 1.58552
3.74381 0.531266 1.59954
3.73991 0.532446 1.61156
3.73801 0.532655 1.62557
3.73712 0.533863 1.63956
3.73718 0.534981 1.64754
3.73829 0.536202 1.66252
3.72837 0.536358 1.67259
3.72948 0.537579 1.68757
3.72156 0.537747 1.69863
3.71867 0.537957 1.71265
3.71778 0.539165 1.72664
3.71488 0.540374 1.74065
3.72209 0.543768 1.76754
3.7232 0.545989 1.78251
3.70636 0.545313 1.80365
3.70447 0.546536 1.81864
3.71061 0.548798 1.83657
3.70364 0.548862 1.84062
3.69975 0.549072 1.85465
3.70689 0.552348 1.87355
3.69696 0.551504 1.88364
3.69206 0.552685 1.89566
3.70022 0.555989 1.91655
3.69325 0.555054 1.92062
3.68633 0.555222 1.93167
3.68256 0.557669 1.96166
3.68368 0.559904 1.97762
3.68681 0.562168 1.99557
3.68292 0.562379 2.0096
3.67199 0.56252 2.01868
3.66815 0.563848 2.04069
3.66928 0.566084 2.05665
3.67342 0.568362 2.07559
3.65948 0.567491 2.08371
3.66161 0.569741 2.10066
3.65878 0.571084 2.12367
3.66293 0.574362 2.14259
3.65012 0.574741 2.16768
3.65125 0.576992 2.18464
3.64836 0.578216 2.19965
3.64245 0.578398 2.21169
3.64151 0.579517 2.21968
3.63876 0.582992 2.25166
3.63888 0.584244 2.26864
3.63701 0.586482 2.28462
3.62708 0.585638 2.29471
3.62219 0.586848 2.30873
3.6313 0.590063 2.32362
3.61836 0.589191 2.33173
3.61749 0.590444 2.34872
3.6087 0.592865 2.37676
3.60985 0.595145 2.39572
3.615 0.598437 2.41563
3.60401 0.59646 2.41674
3.6132 0.600823 2.44161
3.61032 0.602062 2.45762
3.6024 0.60223 2.46868
3.59751 0.603456 2.4837
3.59363 0.604681 2.49871
3.58974 0.605906 2.51372
3.58981 0.607039 2.52271
3.59095 0.609304 2.54067
3.58305 0.610503 2.55371
3.57916 0.611727 2.56873
3.58031 0.614022 2.58869
3.57642 0.615233 2.6027
3.57052 0.615444 2.61674
3.57161 0.617606 2.6277
3.56873 0.618845 2.64371
3.56284 0.620056 2.65774
3.56096 0.621309 2.67474
3.55507 0.622521 2.68876
3.55421 0.624788 2.70674
