-4.97042 -0.136177 0.469487
-4.96778 -0.13689 0.421471
-4.9779 -0.137105 0.406549
-4.96403 -0.137366 0.389446
-4.96415 -0.137603 0.373448
-4.96721 -0.137719 0.365472
-4.96345 -0.138196 0.333446
-4.95869 -0.139673 0.301428
-4.95681 -0.139912 0.285415
-4.93524 -0.140771 0.228257
-4.93236 -0.14201 0.212252
-5.71729 0.0353784 4.59414
-5.63097 0.0160905 4.10571
-5.59732 0.00941585 3.92653
-5.58859 0.00789132 3.89148
-5.57229 0.00450254 3.7984
-5.55509 -7.93064e-05 3.69232
-5.52055 -0.00696196 3.49914
-5.51278 -0.00842655 3.4681
-5.5044 -0.0116319 3.38707
-5.49961 -0.01205 3.35904
-5.48795 -0.0137247 3.31397
-5.47737 -0.0165615 3.25792
-5.46597 -0.0187543 3.17786
-5.45729 -0.0203824 3.13581
-5.4495 -0.0218026 3.10777
-5.44769 -0.023174 3.08277
-5.44008 -0.0249495 3.03073
-5.42161 -0.0269846 2.96161
-5.42278 -0.0283242 2.93864
-5.41798 -0.0287127 2.91261
-5.41018 -0.0301181 2.88556
-5.40836 -0.0304748 2.86155
-5.40455 -0.0318477 2.83654
-5.40173 -0.0322051 2.81252
-5.39285 -0.0334484 2.79647
-5.39103 -0.0338051 2.77246
-5.38622 -0.0351787 2.74744
-5.37843 -0.0355842 2.72038
-5.38058 -0.0368935 2.69942
-5.37079 -0.0373004 2.67234
-5.36797 -0.0386578 2.64834
-5.36705 -0.0388213 2.63733
-5.36024 -0.0401964 2.6123
-5.36041 -0.040522 2.5903
-5.3526 -0.0409127 2.56425
-5.35177 -0.042239 2.54226
-5.34113 -0.0439574 2.49419
-5.33831 -0.0443 2.47118
-5.33141 -0.0455123 2.45714
-5.33158 -0.0458379 2.43514
-5.31878 -0.0472469 2.40806
-5.32492 -0.047509 2.39011
-5.27764 -0.0549192 2.16183
-5.28377 -0.0551813 2.14388
-5.27496 -0.056543 2.11983
-5.27311 -0.0568405 2.09982
-5.26927 -0.058169 2.07781
-5.26444 -0.0584983 2.05577
-5.25861 -0.0598282 2.03374
-5.25485 -0.0603048 2.00172
-5.253 -0.0606023 1.98171
-5.24133 -0.0622622 1.93764
-5.23948 -0.0635596 1.91764
-5.23863 -0.0638564 1.89763
-5.2328 -0.0641864 1.87559
-5.23087 -0.0653358 1.86559
-5.22802 -0.065634 1.84557
-5.22718 -0.0659308 1.82557
-5.21649 -0.0675604 1.78351
-5.21863 -0.0678254 1.76552
-5.21272 -0.0680074 1.75348
-5.1989 -0.0693727 1.72939
-5.06285 -0.0931391 0.940612
-5.0601 -0.0936446 0.906594
-5.05224 -0.0949168 0.888551
-5.06235 -0.0941316 0.873613
-5.04045 -0.09534 0.860465
-5.05755 -0.09552 0.847594
-5.05369 -0.0957894 0.829567
-5.03584 -0.0970984 0.809449
-5.03896 -0.0973331 0.793473
-5.03521 -0.0978393 0.759448
-5.0213 -0.0980123 0.748344
-5.0304 -0.098213 0.734414
-5.03352 -0.0984476 0.718439
-5.02566 -0.0997198 0.700396
-5.02679 -0.0999707 0.683406
-5.00993 -0.100264 0.66428
-5.01105 -0.1005 0.64829
-5.01011 -0.10062 0.640284
-4.99926 -0.101909 0.621218
-5.00038 -0.102145 0.605228
-5.00449 -0.102364 0.59026
-5.00162 -0.102618 0.57324
-4.99874 -0.102857 0.55722
-4.99886 -0.103094 0.541222
-4.99 -0.104367 0.523171
-4.98906 -0.104486 0.515165
-4.98918 -0.104723 0.499167
-4.9883 -0.10496 0.483162
-4.98642 -0.105213 0.466149
-4.98455 -0.105452 0.450136
-4.97168 -0.106727 0.432056
-4.9718 -0.106964 0.416058
-4.96686 -0.107086 0.408022
-4.96898 -0.107322 0.392039
-4.96311 -0.107578 0.374996
-4.96123 -0.107816 0.358983
-4.95735 -0.109056 0.34297
-4.95859 -0.109514 0.311982
-4.95765 -0.109633 0.303975
-4.94778 -0.109892 0.286903
-4.9399 -0.110149 0.269845
-4.94102 -0.110385 0.253854
-5.32395 -0.00861764 2.38253
-4.94133 -0.0790254 0.210387
-5.31595 0.0273134 2.37793
-5.00755 -0.0385613 0.576337
-4.93227 -0.0489464 0.215874
-5.95584 0.249803 5.96196
-5.95119 0.247133 5.91695
-5.93276 0.242995 5.84087
-5.92511 0.240308 5.79484
-5.92043 0.237668 5.75184
-5.91674 0.235059 5.71084
-5.89717 0.232216 5.65473
-5.90242 0.230731 5.62179
-5.89376 0.228058 5.57676
-5.87702 0.225528 5.54166
-5.87233 0.222918 5.50066
-5.86069 0.220214 5.45361
-5.85898 0.21865 5.41561
-5.86321 0.217194 5.38466
-5.85653 0.214567 5.34264
-5.84885 0.212925 5.2996
-5.82813 0.210377 5.26348
-5.82044 0.20775 5.22146
-5.81574 0.205169 5.18245
-5.81327 0.202131 5.11247
-5.80359 0.199487 5.06943
-5.79689 0.196905 5.03041
-5.79131 0.194072 4.97441
-5.78063 0.192443 4.93234
-5.75156 0.184601 4.80922
-5.75578 0.183174 4.78027
-5.73078 0.176202 4.64817
-5.70839 0.171987 4.56705
-5.71259 0.17059 4.5401
-5.70785 0.169083 4.50608
-5.6861 0.166579 4.47295
-5.68137 0.164057 4.43795
-5.68158 0.163628 4.40895
-5.67684 0.161121 4.37495
-5.66911 0.159583 4.33891
-5.66834 0.158138 4.30892
-5.6458 0.154219 4.2478
-5.64304 0.152743 4.2158
-5.64028 0.151282 4.18479
-5.64646 0.149931 4.16085
-5.63275 0.148359 4.12277
-5.63396 0.146945 4.0948
-5.61925 0.144357 4.05572
-5.60842 0.143024 4.03365
-5.60188 0.140116 3.97264
-5.60806 0.138765 3.9487
-5.6013 0.137301 3.91767
-5.59554 0.135823 3.88564
-5.58282 0.133266 3.84858
-5.58092 0.133058 3.83457
-5.56821 0.130501 3.7975
-5.56642 0.129085 3.76951
-5.55965 0.127621 3.73847
-5.5509 0.126126 3.70542
-5.55408 0.124773 3.68147
-5.54831 0.123325 3.65144
-5.54562 0.121716 3.61044
-5.53487 0.119219 3.57739
-5.53009 0.117787 3.54837
-5.52133 0.116307 3.51632
-5.52152 0.114937 3.49134
-5.51674 0.113504 3.46232
-5.51693 0.113134 3.43732
-5.50408 0.111828 3.41724
-5.49731 0.109379 3.38722
-5.48555 0.107897 3.35515
-5.48175 0.106495 3.32814
-5.48692 0.106173 3.30618
-5.46747 0.102078 3.23309
-5.46367 0.100675 3.20608
-5.46584 0.100351 3.18409
-5.46104 0.0989479 3.15707
-5.45245 0.096157 3.10404
-5.45661 0.0948344 3.08209
-5.44972 0.0946072 3.06704
-5.43796 0.0921398 3.03598
-5.43333 0.090411 2.98697
-5.42554 0.0889908 2.95893
-5.42688 0.0873255 2.91396
-5.41103 0.0860179 2.89385
-5.40722 0.0846451 2.86884
-5.39462 0.0818513 2.81578
-5.40375 0.0816062 2.79885
-5.39711 0.0788908 2.75083
-5.38733 0.0774692 2.72278
-5.39039 0.0773381 2.7138
-5.38558 0.0759645 2.68878
-5.36699 0.0731516 2.63468
-5.36715 0.0728407 2.61368
-5.35444 0.0702542 2.57462
-5.34564 0.0688629 2.54857
-5.35676 0.0686341 2.53265
-5.33365 0.0638702 2.41453
-5.33274 0.0627068 2.40354
-5.29619 0.0538377 2.21137
-5.29136 0.0534936 2.18833
-5.28668 0.0518684 2.14632
-5.27786 0.0505067 2.12227
-5.28092 0.0503904 2.11429
-5.27609 0.0490464 2.09127
-5.26727 0.0476995 2.06822
-5.27041 0.0474205 2.04925
-5.25575 0.0447437 2.00417
-5.24793 0.0443974 1.98111
-5.23833 0.0416058 1.92808
-5.24944 0.0413918 1.91316
-5.24659 0.0410935 1.89314
-5.22181 0.0386463 1.86399
-5.21619 0.0369019 1.81396
-5.21334 0.0356038 1.79396
-5.2055 0.0352723 1.7719
-5.20564 0.0340059 1.75392
-5.21078 0.0337431 1.73596
-5.20892 0.0334604 1.71695
-5.06174 0.0029532 0.946182
-5.0638 0.00283624 0.938198
-5.05993 0.00258169 0.92117
-5.05705 0.00132797 0.904165
-5.05718 0.00107633 0.887167
-5.05332 0.00080697 0.869139
-5.04258 -0.000719014 0.834076
-5.03778 -0.00210741 0.808057
-5.05088 -0.00130529 0.794142
-5.02729 -0.00412188 0.739998
-5.02342 -0.00437643 0.722971
-5.02654 -0.00461109 0.706995
-5.0256 -0.00473024 0.698989
-5.00612 -0.00776595 0.629878
-5.00325 -0.00801978 0.612858
-5.00437 -0.00825589 0.596867
-4.99456 -0.00963312 0.57181
-4.98306 -0.0116187 0.505744
-4.99517 -0.011832 0.490836
-4.97373 -0.0139433 0.416696
-4.96199 -0.0154552 0.382625
-4.9634 -0.0162686 0.32764
-4.94565 -0.0177701 0.294524
-4.94089 -0.0192473 0.262506
-5.92749 0.29149 5.73909
-5.92083 0.288819 5.69408
-5.86035 0.267846 5.36089
-5.72122 0.221272 4.58542
-5.71648 0.218751 4.55042
-5.69134 0.212059 4.43731
-5.66507 0.205605 4.3402
-5.65558 0.202606 4.27316
-5.66474 0.201302 4.25224
-5.65402 0.198731 4.2142
-5.65225 0.197286 4.1842
-5.63447 0.195844 4.15508
-5.62673 0.19332 4.12006
-5.6212 0.190413 4.05905
-5.62538 0.189046 4.0341
-5.6087 0.186427 3.99301
-5.60195 0.183933 3.95999
-5.5921 0.182615 3.93893
-5.59629 0.181248 3.91398
-5.58655 0.179738 3.87992
-5.58178 0.178275 3.84891
-5.57403 0.175796 3.81688
-5.57722 0.175428 3.7919
-5.56747 0.172918 3.75786
-5.55574 0.170391 3.72281
-5.54609 0.167688 3.67577
-5.54729 0.166304 3.64979
-5.53952 0.16484 3.61875
-5.53873 0.16344 3.59176
-5.5242 0.159511 3.5297
-5.51354 0.157837 3.48464
-5.50099 0.153955 3.4256
-5.49142 0.151104 3.36856
-5.4906 0.149733 3.34357
-5.45878 0.141401 3.18743
-5.45398 0.140012 3.16141
-5.42809 0.131817 3.01432
-5.42627 0.130461 2.99032
-5.42148 0.129058 2.9633
-5.40897 0.126086 2.89824
-5.40857 0.121916 2.81929
-5.40675 0.12156 2.79528
-5.40393 0.120202 2.77128
-5.37638 0.116294 2.71112
-5.38153 0.116016 2.69216
-5.36875 0.113563 2.66209
-5.36303 0.112026 2.62607
-5.3655 0.109095 2.56312
-5.3483 0.104513 2.45705
-5.33567 0.101779 2.40798
-5.32586 0.100401 2.38293
-5.29431 0.0905509 2.19181
-5.28541 0.0903371 2.17774
-5.28756 0.0890575 2.15878
-5.27875 0.087681 2.13373
-5.2779 0.0873842 2.11372
-5.27606 0.086072 2.09272
-5.27022 0.0847421 2.0707
-5.26739 0.0844142 2.04868
-5.26754 0.0831183 2.02869
-5.25465 0.0818869 2.01361
-5.2518 0.0815887 1.99359
-5.25595 0.0803104 1.97464
-5.25211 0.0799967 1.95361
-5.24827 0.078683 1.9326
-5.24742 0.0783862 1.9126
-5.24663 0.0769563 1.88361
-5.22585 0.0745268 1.85548
-5.23396 0.0743106 1.84055
-5.22813 0.0739806 1.8185
-5.23126 0.0727164 1.80054
-5.21645 0.0713355 1.77545
-5.21958 0.0710861 1.75847
-5.22265 0.070955 1.7495
-5.20684 0.0685736 1.72441
-5.07846 0.038465 0.979787
-5.08251 0.0383643 0.972818
-4.96172 0.0140604 0.282172
-4.94298 0.0125434 0.248049
-4.94033 0.0118455 0.201033
-5.63113 0.22849 4.06356
-5.59947 0.217861 3.88746
-5.55921 0.204427 3.65732
-5.55641 0.203026 3.63032
-5.50774 0.1914 3.4551
-5.50811 0.18866 3.40514
-5.49256 0.184775 3.34607
-5.49483 0.183244 3.3101
-5.48823 0.180455 3.25709
-5.48045 0.17902 3.22804
-5.46597 0.174988 3.15899
-5.46616 0.173632 3.135
-5.44842 0.171101 3.0999
-5.45375 0.169469 3.05696
-5.44895 0.168065 3.02994
-5.44713 0.166709 3.00595
-5.43926 0.165452 2.9889
-5.43065 0.16269 2.93787
-5.41805 0.158897 2.88483
-5.40743 0.156134 2.83378
-5.40055 0.154907 2.81874
-5.39474 0.153518 2.79272
-5.38894 0.152129 2.76669
-5.38811 0.151802 2.74469
-5.38529 0.150445 2.72068
-5.38346 0.149103 2.69768
-5.38064 0.147761 2.67468
-5.37375 0.146534 2.65964
-5.3769 0.14624 2.63967
-5.36312 0.1438 2.6106
-5.36429 0.143476 2.58861
-5.36046 0.142132 2.5656
-5.36262 0.140823 2.54463
-5.36078 0.140496 2.52262
-5.34194 0.138186 2.50251
-5.3401 0.136859 2.48051
-5.34341 0.135255 2.43955
-5.29032 0.121485 2.18732
-5.26468 0.112802 2.00723
-5.0804 0.0665374 0.984386
-5.03337 0.0566538 0.724142
-5.01644 0.051539 0.582071
-4.97806 0.0443426 0.367859
-4.95514 0.0391939 0.223742
-5.95746 0.40538 5.86465
-5.94089 0.400539 5.80859
-5.93919 0.397946 5.76861
-5.9209 0.391541 5.67455
-5.89381 0.382745 5.55446
-5.88715 0.379089 5.51046
-5.88642 0.376556 5.47449
-5.87776 0.373883 5.42946
-5.87009 0.370227 5.38545
-5.85461 0.365209 5.3174
-5.84494 0.36255 5.27336
-5.82661 0.356235 5.1853
-5.82586 0.353731 5.15133
-5.81646 0.348569 5.07332
-5.80565 0.346177 5.04727
-5.8059 0.344688 5.01429
-5.79126 0.340982 4.96723
-5.79052 0.338478 4.93326
-5.78282 0.335881 4.89323
-5.77214 0.332251 4.8512
-5.76642 0.329684 4.81319
-5.75288 0.325787 4.75314
-5.74914 0.323266 4.71814
-5.74541 0.320745 4.68314
-5.73373 0.318115 4.64109
-5.73396 0.315656 4.61012
-5.72624 0.313103 4.5731
-5.71754 0.310519 4.53406
-5.70275 0.308094 4.50599
-5.71092 0.307759 4.48305
-5.69823 0.304143 4.442
-5.69349 0.301637 4.408
-5.68102 0.297591 4.33795
-5.67241 0.293815 4.28594
-5.65872 0.290213 4.24588
-5.65241 0.284847 4.1539
-5.64269 0.282307 4.11786
-5.63207 0.278544 4.06683
-5.62334 0.27602 4.0318
-5.62554 0.274637 4.00583
-5.59387 0.263008 3.82974
-5.58333 0.259098 3.76871
-5.5718 0.255172 3.70667
-5.55639 0.250006 3.62862
-5.5277 0.239424 3.45554
-5.51089 0.237042 3.43044
-5.51406 0.235704 3.40748
-5.50131 0.233206 3.37442
-5.50249 0.231851 3.35045
-5.49889 0.229064 3.29745
-5.49021 0.226436 3.25542
-5.47149 0.22389 3.21931
-5.4657 0.221471 3.1913
-5.46986 0.221148 3.16933
-5.47004 0.219808 3.14635
-5.45927 0.217341 3.1153
-5.46145 0.216002 3.09234
-5.45158 0.214729 3.07428
-5.44279 0.213308 3.04623
-5.43501 0.210873 3.0172
-5.43718 0.209549 2.99523
-5.43835 0.209224 2.97325
-5.42775 0.205432 2.92021
-5.41291 0.20411 2.89912
-5.42203 0.203865 2.88219
-5.40329 0.200348 2.8481
-5.40048 0.198991 2.82409
-5.40164 0.198666 2.8021
-5.40081 0.197325 2.77911
-5.39111 0.19474 2.74007
-5.38331 0.19335 2.71403
-5.38248 0.192009 2.69104
-5.37966 0.190651 2.66704
-5.37086 0.18826 2.641
-5.37003 0.187919 2.618
-5.36123 0.185528 2.59196
-5.35152 0.182958 2.55392
-5.34985 0.181306 2.50993
-5.34304 0.179931 2.48489
-5.33722 0.178571 2.46087
-5.3324 0.177212 2.43685
-5.33355 0.175917 2.41687
-5.29526 0.163544 2.19074
-5.28445 0.161166 2.16569
-5.28176 0.159557 2.12468
-5.26904 0.157015 2.08862
-5.27516 0.156767 2.07167
-5.25653 0.154043 2.02356
-5.26764 0.153829 2.00865
-5.25284 0.151434 1.98257
-5.24039 0.148344 1.90951
-5.24752 0.148097 1.89256
-5.23968 0.145766 1.87054
-5.23292 0.144287 1.8385
-5.21811 0.142907 1.81341
-5.2174 0.141343 1.77542
-5.20758 0.138996 1.75238
-5.05815 0.0990071 0.881724
-5.05528 0.0977534 0.864718
-5.05741 0.0975032 0.847736
-5.04474 0.0958425 0.803659
-5.03788 0.0945711 0.785624
-5.03601 0.094318 0.768611
-5.03913 0.0940833 0.752636
-5.03426 0.0928282 0.735615
-5.03738 0.0925935 0.71964
-5.03145 0.0914412 0.709611
-5.02084 0.0896784 0.65855
-5.01596 0.0894231 0.641515
-5.0242 0.0889701 0.610579
-5.00335 0.0866589 0.590454
-4.99004 0.0833019 0.499391
-4.98616 0.0830622 0.483363
-4.98323 0.0819269 0.474356
-4.9786 0.0811979 0.425325
-4.96885 0.0797023 0.392269
-4.97096 0.0794817 0.377286
-4.96615 0.0781081 0.352267
-4.96227 0.0778683 0.336239
-4.94964 0.0751338 0.287178
-4.94788 0.0746586 0.255167
-4.94893 0.0745558 0.248176
-4.93818 0.0730594 0.215112
-4.95311 0.0991859 0.222839
-5.92961 0.490996 5.70415
-5.8686 0.468059 5.441
-5.86616 0.462962 5.36704
-5.8565 0.459289 5.32202
-5.84214 0.453035 5.23799
-5.82367 0.446986 5.16793
-5.8212 0.441948 5.09798
-5.81451 0.438351 5.05798
-5.80384 0.434692 5.01394
-5.8021 0.432187 4.97996
-5.79341 0.428574 4.93894
-5.78559 0.427213 4.9149
-5.78683 0.42474 4.88294
-5.77813 0.421142 4.84293
-5.76348 0.417451 4.79686
-5.74433 0.408779 4.68483
-5.72704 0.40139 4.5918
-5.72032 0.398822 4.55378
-5.71261 0.395269 4.51677
-5.70909 0.391319 4.45279
-5.67862 0.384261 4.38266
-5.69376 0.384006 4.36477
-5.68006 0.380404 4.32472
-5.66759 0.375359 4.25469
-5.66781 0.373929 4.22571
-5.6571 0.370359 4.18768
-5.64826 0.368042 4.16664
-5.64052 0.365518 4.13161
-5.63179 0.362994 4.09658
-5.62902 0.360533 4.06559
-5.62824 0.359103 4.0366
-5.62448 0.356642 4.00561
-5.60789 0.35183 3.95155
-5.60213 0.349353 3.91954
-5.59458 0.345459 3.85953
-5.58683 0.342965 3.8265
-5.58227 0.339103 3.76852
-5.56765 0.335352 3.71846
-5.55014 0.329378 3.6534
-5.54557 0.326545 3.5974
-5.53094 0.321809 3.54836
-5.51579 0.31414 3.43634
-5.5102 0.310322 3.38135
-5.50233 0.309065 3.3643
-5.50351 0.307711 3.34033
-5.48299 0.302763 3.27724
-5.48653 0.298715 3.20632
-5.46681 0.295153 3.16921
-5.44554 0.288701 3.07214
-5.45269 0.287425 3.05321
-5.43893 0.284942 3.02114
-5.43638 0.281052 2.96117
-5.42361 0.278598 2.9311
-5.40539 0.27206 2.82805
-5.41841 0.273025 2.82513
-5.39867 0.269508 2.79103
-5.40382 0.268216 2.77108
-5.38706 0.265745 2.73999
-5.37562 0.260641 2.66597
-5.38366 0.261558 2.66002
-5.381 0.25889 2.61503
-5.35162 0.252669 2.53389
-5.34481 0.250294 2.50887
-5.34098 0.248951 2.48586
-5.32859 0.243743 2.40483
-5.29819 0.231598 2.19375
-5.28247 0.228039 2.15668
-5.2758 0.225382 2.11266
-5.27496 0.225086 2.09266
-5.2771 0.223806 2.07369
-5.27327 0.222477 2.05168
-5.253 0.216027 1.95461
-5.25016 0.215714 1.93359
-5.2503 0.214433 1.91461
-5.24354 0.212954 1.88257
-5.22988 0.209293 1.83852
-5.23301 0.209029 1.82054
-5.22134 0.206384 1.77749
-5.21742 0.205218 1.76647
-5.22354 0.204985 1.75052
-5.2187 0.203671 1.7295
-5.211 0.201073 1.68948
-5.21215 0.200793 1.67049
-5.20053 0.198029 1.61943
-5.11825 0.171701 1.12813
-5.11439 0.171417 1.10911
-5.1028 0.168609 1.05505
-5.09906 0.167088 1.02004
-5.09421 0.165803 1.00102
-5.0904 0.164416 0.975012
-5.0828 0.161625 0.921988
-5.06696 0.160318 0.901885
-5.06808 0.160067 0.884895
-5.06415 0.158931 0.875881
-5.06029 0.158661 0.857854
-5.05842 0.157409 0.840856
-5.04656 0.156119 0.821783
-5.04968 0.155884 0.805808
-5.0548 0.155651 0.789848
-5.04894 0.15438 0.77182
-5.04001 0.15324 0.762768
-5.04013 0.152989 0.74577
-5.03926 0.152736 0.728765
-5.0284 0.151462 0.7107
-5.02753 0.15021 0.693709
-5.04063 0.151012 0.679794
-5.02977 0.149738 0.661729
-5.0269 0.148484 0.644723
-5.02097 0.148346 0.635679
-5.0151 0.147076 0.617652
-5.01422 0.146838 0.601646
-5.01334 0.1466 0.585641
-5.01447 0.14535 0.568666
-5.0086 0.145094 0.551623
-5.00972 0.144857 0.535633
-4.99879 0.143716 0.526566
-4.99991 0.14248 0.51059
-4.99804 0.142227 0.493578
-4.98618 0.140952 0.475505
-4.9853 0.140715 0.459499
-4.97942 0.139459 0.442471
-4.99153 0.14026 0.428549
-4.9806 0.139119 0.419482
-4.97873 0.138866 0.402469
-4.97097 0.137387 0.370428
-4.9651 0.136131 0.3534
-4.96122 0.135891 0.337373
-4.96134 0.134654 0.32139
-4.9624 0.134536 0.313398
-4.96252 0.1343 0.2974
-4.95776 0.133822 0.265367
-5.95662 0.550875 5.82949
-5.93522 0.54369 5.75042
-5.92756 0.539019 5.70543
-5.92784 0.536471 5.66846
-5.91919 0.532784 5.62244
-5.90855 0.528081 5.57543
-5.90287 0.52444 5.53243
-5.89818 0.521845 5.49243
-5.87449 0.517221 5.45131
-5.88072 0.514781 5.42139
-5.87106 0.511108 5.37637
-5.86338 0.507466 5.33336
-5.85471 0.503824 5.29034
-5.85596 0.501336 5.25738
-5.84332 0.496631 5.21035
-5.83079 0.49169 5.14732
-5.82707 0.489139 5.11033
-5.82336 0.485589 5.07334
-5.80772 0.480867 5.02529
-5.804 0.478317 4.98829
-5.78674 0.469869 4.89128
-5.77805 0.466256 4.85026
-5.77729 0.463781 4.81828
-5.74658 0.450243 4.64823
-5.73091 0.44558 4.60418
-5.72419 0.443028 4.56716
-5.7284 0.441631 4.54021
-5.71174 0.436953 4.49514
-5.70898 0.434477 4.46316
-5.70921 0.432034 4.43319
-5.69441 0.429623 4.40611
-5.69265 0.427163 4.37513
-5.68989 0.424687 4.34314
-5.68415 0.42218 4.30913
-5.68139 0.419704 4.27714
-5.66503 0.413434 4.1921
-5.65631 0.409895 4.15608
-5.64481 0.40491 4.09006
-5.61194 0.392666 3.93997
-5.61215 0.390267 3.913
-5.60163 0.385326 3.84999
-5.58025 0.379097 3.76791
-5.57667 0.375266 3.71193
-5.56712 0.370385 3.65292
-5.55638 0.367874 3.61888
-5.53616 0.359335 3.51584
-5.53337 0.356919 3.48785
-5.48657 0.335592 3.19777
-5.48666 0.335415 3.18577
-5.48087 0.332996 3.15776
-5.47507 0.330592 3.13075
-5.4653 0.328141 3.10071
-5.45588 0.323009 3.0247
-5.43506 0.320639 3.00058
-5.43922 0.319331 2.97962
-5.4316 0.315585 2.92961
-5.42142 0.308964 2.82062
-5.40881 0.3052 2.76957
-5.40301 0.302811 2.74356
-5.39745 0.298934 2.68457
-5.38168 0.296478 2.65448
-5.38881 0.296217 2.63654
-5.384 0.293858 2.61253
-5.3654 0.29006 2.55944
-5.36357 0.288719 2.53644
-5.35477 0.286327 2.51041
-5.35003 0.283821 2.47641
-5.35317 0.283542 2.45743
-5.34238 0.281134 2.43038
-5.34253 0.279823 2.4094
-5.28612 0.25772 2.06726
-5.27945 0.255079 2.02424
-5.26209 0.249808 1.93917
-5.25035 0.247296 1.90512
-5.2495 0.245999 1.88513
-5.24167 0.244668 1.86309
-5.2448 0.243404 1.84513
-5.23797 0.242073 1.82309
-5.23327 0.239478 1.78309
-5.23633 0.239361 1.77511
-5.22066 0.236713 1.73203
-5.21781 0.235415 1.71202
-5.21895 0.234135 1.69305
-5.19915 0.231736 1.66693
-5.21026 0.231536 1.65301
-5.20634 0.231371 1.64199
-5.1985 0.230054 1.62094
-5.19764 0.228772 1.60195
-5.19179 0.227472 1.58193
-5.18994 0.226189 1.56293
-5.18709 0.224891 1.54292
-5.18124 0.223591 1.5229
-5.17432 0.222423 1.51186
-5.17446 0.222157 1.49386
-5.17959 0.221909 1.4769
-5.16476 0.219557 1.45382
-5.16988 0.219324 1.43786
-5.17202 0.219059 1.41988
-5.16417 0.217757 1.39984
-5.15925 0.216606 1.38981
-5.1544 0.215306 1.36979
-5.15054 0.214022 1.35078
-5.14768 0.212754 1.33278
-5.1548 0.213522 1.31682
-5.14595 0.21122 1.29678
-5.14309 0.210936 1.27776
-5.13524 0.209634 1.25772
-5.13032 0.208483 1.2477
-5.13045 0.207231 1.23071
-5.12359 0.205945 1.21168
-5.12074 0.205662 1.19266
-5.11188 0.204374 1.17361
-5.10702 0.203089 1.15459
-5.11714 0.202874 1.13967
-5.10635 0.201452 1.1116
-5.10149 0.200167 1.09258
-5.09763 0.198898 1.07457
-5.09277 0.197628 1.05655
-5.10288 0.198413 1.04161
-5.09901 0.197144 1.0236
-5.0891 0.195974 1.01254
-5.08436 0.194452 0.977522
-5.0785 0.193182 0.959494
-5.07077 0.191643 0.923454
-5.06491 0.190372 0.905426
-5.07002 0.190154 0.890465
-5.0601 0.188984 0.879406
-5.05623 0.187729 0.862394
-5.05636 0.187478 0.845396
-5.0515 0.186208 0.827375
-5.04563 0.184952 0.810348
-5.04276 0.184683 0.792327
-5.0372 0.181821 0.73432
-5.03034 0.180549 0.716285
-5.03346 0.180314 0.700309
-5.03658 0.18008 0.684334
-5.02571 0.178805 0.666269
-5.01503 0.177176 0.624206
-5.01815 0.176941 0.608231
-5.00941 0.175432 0.574183
-5.00055 0.174159 0.556133
-5.0056 0.174059 0.549171
-4.99785 0.172564 0.51613
-5.00396 0.172347 0.501178
-4.9881 0.170054 0.482089
-4.99122 0.169834 0.467114
-4.9924 0.16948 0.443125
-4.97878 0.167729 0.393041
-4.9739 0.166489 0.377021
-4.97202 0.166251 0.361008
-4.96315 0.164993 0.343957
-4.97232 0.164659 0.321028
-4.95181 0.161682 0.255909
-4.95123 0.159867 0.200924
-4.94335 0.158624 0.18488
-4.94647 0.15939 0.16889
-4.94359 0.158151 0.152885
-4.91813 0.155066 0.0807287
-4.92059 0.153165 0.019767
-4.90378 0.151797 -0.00434278
-5.95146 0.602117 5.84569
-5.93389 0.597276 5.78962
-5.94906 0.595946 5.76675
-5.92751 0.590058 5.70767
-5.92284 0.586418 5.66468
-5.91617 0.581762 5.6207
-5.90241 0.579278 5.58862
-5.89276 0.57459 5.54262
-5.89602 0.572089 5.50867
-5.88962 0.564916 5.42972
-5.86309 0.558979 5.3676
-5.87228 0.557601 5.34168
-5.85356 0.553054 5.30561
-5.84389 0.549396 5.26158
-5.84118 0.545832 5.22361
-5.83251 0.542189 5.18059
-5.82085 0.537515 5.13557
-5.83004 0.536151 5.11065
-5.8154 0.53143 5.0626
-5.79865 0.527944 5.03053
-5.79791 0.525426 4.99555
-5.79021 0.521843 4.95654
-5.78947 0.519324 4.92157
-5.78177 0.515742 4.88256
-5.77109 0.511112 4.84054
-5.76537 0.508546 4.80253
-5.75656 0.506184 4.7785
-5.74786 0.502586 4.73848
-5.73641 0.496497 4.66547
-5.73268 0.492976 4.63049
-5.72993 0.490486 4.5975
-5.72222 0.486918 4.55949
-5.73127 0.486821 4.55256
-5.70766 0.482034 4.50045
-5.70591 0.479559 4.46847
-5.69123 0.474927 4.42642
-5.68572 0.469961 4.36144
-5.66916 0.464091 4.30339
-5.66164 0.459138 4.2394
-5.65413 0.454185 4.17541
-5.64541 0.450631 4.13839
-5.6327 0.447059 4.10034
-5.63181 0.445837 4.08535
-5.61931 0.440851 4.01932
-5.62052 0.438452 3.99237
-5.61575 0.43599 3.96136
-5.60105 0.432402 3.9223
-5.60126 0.429988 3.89433
-5.59252 0.427478 3.8603
-5.58089 0.422744 3.81127
-5.57811 0.420313 3.78229
-5.58428 0.419992 3.76033
-5.55981 0.412923 3.68924
-5.56101 0.411539 3.66327
-5.54161 0.404356 3.58422
-5.53106 0.399475 3.5252
-5.52627 0.397057 3.4972
-5.53044 0.39672 3.47423
-5.49666 0.383312 3.31315
-5.48888 0.380877 3.28413
-5.46963 0.372413 3.18609
-5.469 0.369687 3.13712
-5.45524 0.366204 3.10507
-5.45841 0.36488 3.08311
-5.43549 0.354747 2.94007
-5.41302 0.348694 2.86998
-5.39877 0.341219 2.77097
-5.39396 0.339845 2.74595
-5.38724 0.336293 2.70894
-5.37662 0.332545 2.65891
-5.36898 0.329829 2.61089
-5.36218 0.327439 2.58487
-5.36143 0.32495 2.55189
-5.35661 0.323591 2.52788
-5.35279 0.322248 2.50486
-5.34215 0.31853 2.45683
-5.33941 0.316025 2.42284
-5.31015 0.300584 2.19182
-5.29238 0.298142 2.16272
-5.29153 0.29683 2.14173
-5.29368 0.295551 2.12276
-5.28279 0.294321 2.10769
-5.27612 0.291679 2.06468
-5.26729 0.289333 2.04164
-5.26844 0.288052 2.02267
-5.2646 0.286724 2.00066
-5.25778 0.285378 1.97762
-5.255 0.283932 1.94762
-5.24818 0.281587 1.9246
-5.24348 0.278991 1.88459
-5.21686 0.268278 1.70253
-5.18926 0.257504 1.51645
-5.149 0.244085 1.28732
-5.14527 0.241549 1.25132
-5.12219 0.234741 1.13023
-5.11745 0.23322 1.09521
-5.11159 0.231934 1.07619
-5.09994 0.229245 1.03013
-5.09621 0.227724 0.995121
-5.08848 0.225185 0.959095
-5.08268 0.223781 0.932069
-5.08281 0.22353 0.915071
-5.08094 0.222277 0.898073
-5.07221 0.220737 0.862025
-5.06947 0.219232 0.828022
-5.06366 0.217843 0.801995
-5.04039 0.212405 0.705887
-5.04063 0.210931 0.673907
-5.03689 0.209425 0.639896
-4.94901 0.190247 0.226461
-4.94313 0.189006 0.210433
-4.94825 0.189787 0.195457
-4.94237 0.188546 0.179429
-4.94349 0.18831 0.163439
-4.93661 0.187068 0.147403
-4.93167 0.186946 0.139367
-4.92879 0.185707 0.123361
-4.92591 0.185468 0.107341
-4.93102 0.18525 0.0923807
-4.92814 0.185011 0.0763603
-4.91727 0.183766 0.0602946
-4.92438 0.183549 0.0453493
-4.91944 0.183427 0.0373128
-4.92056 0.183191 0.0213225
-4.91568 0.181951 0.00530191
-4.91779 0.18273 -0.00969579
-4.90292 0.180482 -0.0257768
-4.91403 0.181268 -0.0407068
-4.91215 0.18103 -0.0567196
-4.89456 0.178218 -0.110818
-4.89968 0.177985 -0.126778
-4.88779 0.176754 -0.141852
-4.89391 0.177521 -0.157819
-4.8872 0.175954 -0.195852
-4.88531 0.17573 -0.210865
-4.87943 0.174489 -0.226893
-5.94173 0.653527 5.80585
-5.93039 0.645231 5.71888
-5.9257 0.640606 5.6769
-5.92301 0.637012 5.63693
-5.91435 0.63334 5.59191
-5.90172 0.627606 5.5429
-5.90087 0.626324 5.52391
-5.88454 0.617995 5.4349
-5.87389 0.613306 5.38888
-5.87117 0.609757 5.35191
-5.85754 0.605022 5.30287
-5.85781 0.602504 5.2679
-5.84615 0.59783 5.22288
-5.83338 0.594376 5.19283
-5.83264 0.590873 5.15887
-5.81899 0.586167 5.11183
-5.8113 0.582555 5.07082
-5.81552 0.580129 5.04188
-5.79989 0.575407 4.99383
-5.79616 0.571871 4.95785
-5.7943 0.570589 4.93885
-5.77667 0.564866 4.89079
-5.77791 0.562393 4.85884
-5.77915 0.560935 4.82786
-5.75753 0.555165 4.77678
-5.76075 0.552753 4.74883
-5.74697 0.549313 4.71978
-5.74124 0.545777 4.68378
-5.7385 0.543271 4.64979
-5.73476 0.539765 4.61581
-5.72108 0.536119 4.57276
-5.71161 0.530091 4.50377
-5.69925 0.521824 4.41878
-5.68579 0.515763 4.34776
-5.68005 0.512256 4.31377
-5.64844 0.49651 4.12973
-5.6282 0.487015 4.02971
-5.59654 0.471387 3.85368
-5.9526 0.707707 5.81713
-5.94991 0.703098 5.77618
-5.94524 0.699458 5.73319
-5.92213 0.68771 5.61617
-5.90284 0.677305 5.52217
-5.89021 0.672571 5.47314
-5.89048 0.669053 5.43819
-5.87288 0.663256 5.38513
-5.86806 0.660912 5.36213
-5.85443 0.655177 5.3131
-5.84972 0.651596 5.27411
-5.84602 0.648017 5.23513
-5.84429 0.644482 5.19917
-5.83165 0.639778 5.15214
-5.82184 0.637401 5.12709
-5.80548 0.628146 5.0431
-5.81169 0.626736 5.01516
-5.80002 0.622091 4.97213
-5.78438 0.616369 4.92409
-5.7886 0.614943 4.89514
-5.77506 0.608031 4.83414
-5.76438 0.604401 4.7921
-5.75568 0.599818 4.7531
-5.74997 0.596251 4.7151
-5.74723 0.593746 4.68112
-5.73852 0.589163 4.64211
-5.72683 0.585547 4.60107
-5.73192 0.584373 4.58913
-5.71351 0.57722 4.51208
-5.70778 0.573684 4.47609
-5.70304 0.570177 4.4421
-5.69035 0.565561 4.40107
-5.69554 0.564195 4.37612
-5.65204 0.545248 4.17905
-5.64728 0.541771 4.14706
-5.64242 0.539486 4.12805
-5.62716 0.531039 4.03105
-5.60691 0.521559 3.93202
-5.60027 0.516859 3.88504
-5.59073 0.511949 3.82403
-5.56668 0.500082 3.69901
-5.54648 0.490498 3.59298
-5.54667 0.489128 3.568
-5.95311 0.756636 5.7444
-5.82822 0.6846 5.07244
-5.76125 0.643632 4.67248
-5.74274 0.636672 4.60844
-5.738 0.633165 4.57445
-5.72654 0.626106 4.50346
-5.71905 0.620109 4.43648
-5.70249 0.613239 4.37845
-5.69399 0.607256 4.31246
-5.6845 0.600257 4.24549
-5.65642 0.588432 4.12343
-5.64989 0.582509 4.06146
-5.63739 0.575538 3.99646
-5.62121 0.565928 3.88847
-5.60869 0.558972 3.82447
-5.59119 0.551983 3.75843
-5.58453 0.548312 3.71343
-5.56523 0.538936 3.62141
-5.53707 0.528288 3.51134
-5.54242 0.524596 3.46443
-5.52608 0.516311 3.37842
-5.51839 0.512684 3.33641
-5.50962 0.509234 3.30639
-5.49507 0.50435 3.24734
-5.48747 0.49956 3.19435
-5.46983 0.493852 3.14729
-5.46023 0.48906 3.09428
-5.4528 0.482945 3.01931
-5.43051 0.474538 2.92525
-5.43584 0.471905 2.88233
-5.42804 0.4695 2.8553
-5.42341 0.464786 2.80733
-5.41652 0.463559 2.79229
-5.41868 0.46225 2.77132
-5.41686 0.459893 2.74734
-5.40807 0.457487 2.72031
-5.40425 0.455129 2.69631
-5.39944 0.453756 2.67129
-5.38873 0.450185 2.63326
-5.37993 0.446794 2.60724
-5.3791 0.445453 2.58425
-5.37926 0.444143 2.56327
-5.36548 0.440703 2.53421
-5.35767 0.438328 2.50918
-5.34612 0.433446 2.45016
-5.34146 0.429777 2.40517
-5.31304 0.413662 2.19617
-5.30821 0.412319 2.17315
-5.30729 0.41117 2.16316
-5.29449 0.408776 2.13709
-5.30062 0.407529 2.12015
-5.29878 0.406216 2.09916
-5.29394 0.404887 2.07714
-5.2921 0.403575 2.05614
-5.27922 0.401344 2.04107
-5.28051 0.398767 2.00212
-5.26984 0.395108 1.95808
-5.26131 0.391184 1.89607
-5.2574 0.390019 1.88506
-5.25654 0.388737 1.86607
-5.24872 0.386391 1.84304
-5.24088 0.38406 1.82101
-5.247 0.383827 1.80506
-5.24131 0.381216 1.76405
-5.23939 0.380067 1.75405
-5.21616 0.37254 1.65197
-5.20534 0.370192 1.62892
-5.2054 0.370059 1.61992
-5.20355 0.368776 1.60093
-5.20568 0.367511 1.58296
-5.20183 0.366227 1.56394
-5.19128 0.362346 1.50491
-5.18436 0.361178 1.49388
-5.18051 0.359879 1.47387
-5.17266 0.357578 1.45384
-5.17679 0.357329 1.43687
-5.17407 0.354779 1.39988
-5.17321 0.354512 1.38188
-5.16842 0.352094 1.35387
-5.16357 0.350795 1.33385
-5.15871 0.34951 1.31483
-5.14887 0.347207 1.29479
-5.15 0.346941 1.2768
-5.13537 0.34322 1.22874
-5.14049 0.342987 1.21278
-5.13363 0.340701 1.19376
-5.13077 0.339417 1.17475
-5.12392 0.338131 1.15572
-5.11805 0.33686 1.13769
-5.1152 0.335577 1.11868
-5.12524 0.336495 1.11275
-5.1104 0.334174 1.09167
-5.10853 0.332921 1.07467
-5.10567 0.331652 1.05666
-5.09382 0.330348 1.03659
-5.09395 0.329096 1.01961
-5.09408 0.328844 1.00261
-5.09114 0.327709 0.993603
-5.09127 0.327458 0.976605
-5.07942 0.325153 0.956547
-5.09053 0.325954 0.942617
-5.07968 0.32365 0.922566
-5.0828 0.323415 0.906591
-5.07295 0.321127 0.887548
-5.06502 0.319973 0.877504
-5.06115 0.318719 0.860491
-5.07026 0.319503 0.845546
-5.05841 0.317213 0.826488
-5.06552 0.317996 0.811528
-5.05567 0.315708 0.792485
-5.05379 0.314455 0.775487
-5.05092 0.314201 0.758467
-5.04499 0.313064 0.749438
-5.04013 0.311794 0.731418
-5.04924 0.312578 0.716473
-5.03238 0.310285 0.697377
-5.0415 0.310069 0.682447
-5.03463 0.308813 0.665411
-5.02976 0.307543 0.647391
-5.02183 0.306404 0.638347
-5.02695 0.30617 0.622387
-5.0182 0.304676 0.589338
-5.01533 0.303422 0.572333
-5.02144 0.304204 0.557365
-5.00858 0.301928 0.539299
-5.01563 0.30183 0.532353
-5.00477 0.300555 0.514288
-5.0009 0.299301 0.497275
-4.99802 0.299062 0.481254
-4.99615 0.297809 0.464256
-4.98928 0.296552 0.447221
-4.99739 0.297336 0.432268
-4.98952 0.296079 0.415225
-4.98858 0.29496 0.407234
-4.97495 0.292224 0.358165
-4.97507 0.291988 0.342167
-4.97319 0.291749 0.326154
-4.96332 0.289491 0.309111
-4.96238 0.289371 0.301104
-4.9595 0.289132 0.285084
-4.96361 0.288913 0.270116
-4.95098 0.286179 0.221055
-4.9481 0.28494 0.205049
-4.94916 0.284837 0.198058
-4.94528 0.284597 0.18203
-4.9444 0.28336 0.166039
-4.93864 0.282882 0.133999
-4.93276 0.281641 0.11797
-4.93188 0.280418 0.10298
-4.92229 0.278597 0.047927
-4.91441 0.277354 0.0318838
-4.91265 0.276894 0.000873025
-4.90771 0.275772 -0.00714868
-4.8953 0.272608 -0.0852061
-4.89141 0.272383 -0.100234
-4.89058 0.272042 -0.123238
-4.8887 0.270804 -0.139237
-4.88582 0.270579 -0.154257
-4.87605 0.269113 -0.185313
-4.87616 0.268891 -0.200311
-4.87328 0.267652 -0.216317
-4.87934 0.268553 -0.223285
-5.92371 0.798395 5.66155
-5.91236 0.789114 5.57559
-5.86224 0.761408 5.32759
-5.86052 0.756859 5.29064
-5.76825 0.703541 4.80067
-5.76451 0.700021 4.76569
-5.7231 0.676898 4.55669
-5.72135 0.673408 4.52372
-5.71661 0.669902 4.48973
-5.68682 0.653512 4.32973
-5.67137 0.645436 4.25772
-5.66751 0.643166 4.23972
-5.66276 0.640674 4.20672
-5.64453 0.629167 4.10574
-5.63579 0.625642 4.07072
-5.63402 0.623197 4.04074
-5.61785 0.612557 3.93076
-5.60414 0.608 3.89372
-5.59937 0.604538 3.86273
-5.59858 0.602123 3.83476
-5.57643 0.590464 3.72375
-5.56588 0.584568 3.66375
-5.56309 0.582152 3.63576
-5.52557 0.563254 3.44173
-5.51031 0.553792 3.34374
-5.49097 0.544491 3.25672
-5.445 0.519506 2.9897
-5.44219 0.517119 2.96372
-5.41245 0.501641 2.7977
-5.40366 0.499235 2.77066
-5.39603 0.494504 2.72167
-5.38832 0.490936 2.68366
-5.37587 0.484846 2.61064
-5.37404 0.483519 2.58865
-5.37122 0.481162 2.56466
-5.37046 0.478688 2.53268
-5.35668 0.475249 2.50363
-5.35784 0.473939 2.48265
-5.34338 0.467878 2.41162
-5.31191 0.450865 2.20961
-5.30709 0.448521 2.18661
-5.30923 0.448241 2.16762
-5.30041 0.44588 2.14359
-5.30056 0.444584 2.12361
-5.29972 0.443272 2.10262
-5.28684 0.440041 2.08757
-5.284 0.438713 2.06556
-5.28016 0.4374 2.04455
-5.27135 0.435038 2.02051
-5.2705 0.433741 2.00052
-5.27663 0.432494 1.98359
-5.2688 0.431148 1.96054
-5.27087 0.430016 1.95157
-5.25706 0.427636 1.9265
-5.25521 0.426339 1.9065
-5.25635 0.425059 1.88753
-5.24853 0.422713 1.8645
-5.24767 0.421431 1.84551
-5.2548 0.421184 1.82857
-5.23992 0.418937 1.81249
-5.23707 0.417639 1.79248
-5.24021 0.416374 1.77452
-5.22639 0.414009 1.75045
-5.23251 0.413777 1.7345
-5.23266 0.412495 1.71551
-5.21385 0.409097 1.68942
-5.21293 0.407948 1.67943
-5.20809 0.406634 1.65841
-5.20423 0.40535 1.63939
-5.20538 0.40407 1.62042
-5.19953 0.402769 1.60039
-5.19482 0.399189 1.5614
-5.19895 0.39894 1.54444
-5.18307 0.396707 1.52935
-5.17351 0.392841 1.47132
-5.16766 0.390541 1.45131
-5.17278 0.390308 1.43535
-5.16493 0.389006 1.41531
-5.16001 0.387839 1.40429
-5.16215 0.386575 1.38632
-5.15729 0.38529 1.3673
-5.15457 0.382755 1.33131
-5.14472 0.381437 1.31025
-5.14586 0.380171 1.29228
-5.13894 0.379004 1.28124
-5.13122 0.37645 1.24422
-5.13235 0.375199 1.22724
-5.12264 0.37263 1.1892
-5.12577 0.37238 1.17223
-5.11299 0.369942 1.14316
-5.12011 0.36971 1.12722
-5.10054 0.364852 1.07013
-5.08228 0.358388 0.972079
-5.08241 0.357137 0.955096
-5.06888 0.353209 0.893044
-5.06901 0.352958 0.876046
-5.0634 0.350199 0.825037
-5.05273 0.347539 0.78099
-5.03913 0.343745 0.727937
-5.05023 0.344546 0.714007
-5.02858 0.339864 0.668907
-5.02883 0.338376 0.635926
-5.01996 0.337103 0.617875
-5.01709 0.335849 0.60087
-5.0202 0.335629 0.585895
-5.01633 0.335375 0.568867
-5.00577 0.331508 0.510837
-4.99891 0.330237 0.492801
-4.99903 0.33 0.476803
-4.99615 0.328761 0.460798
-4.99134 0.327388 0.435778
-4.98559 0.325895 0.402753
-4.97971 0.324654 0.386725
-4.98195 0.324182 0.354744
-4.97502 0.323043 0.345707
-4.97114 0.321804 0.329694
-4.96726 0.321564 0.313666
-4.96339 0.320309 0.296654
-4.95381 0.317474 0.240616
-4.95893 0.318255 0.22564
-4.9423 0.314518 0.176564
-4.94142 0.31428 0.160558
-4.94153 0.314058 0.14556
-4.93271 0.311696 0.121526
-4.92908 0.309983 0.073517
-4.93219 0.310763 0.0585269
-4.92331 0.30952 0.0424762
-4.91843 0.308279 0.0264556
-4.9116 0.306934 0.00342087
-4.91472 0.306699 -0.0125544
-4.91284 0.306476 -0.0275673
-4.90996 0.305237 -0.0435729
-4.91307 0.306017 -0.0585631
-4.90319 0.304773 -0.0746213
-4.90425 0.304655 -0.0826127
-4.90237 0.303432 -0.0976108
-4.90349 0.303196 -0.113601
-4.88672 0.300725 -0.144695
-4.88884 0.300504 -0.159678
-4.88696 0.300266 -0.175691
-4.88901 0.300164 -0.182675
-4.88913 0.299927 -0.198673
-4.87424 0.298694 -0.213769
-4.87436 0.298472 -0.228767
-4.87248 0.297234 -0.244765
-5.95516 0.856404 5.72794
-5.9485 0.851748 5.68395
-5.92808 0.841609 5.60794
-5.92736 0.838046 5.56998
-5.91474 0.832312 5.52096
-5.90806 0.827685 5.47898
-5.90038 0.822043 5.43599
-5.89173 0.816371 5.39101
-5.87921 0.809415 5.32701
-5.86856 0.803727 5.281
-5.86783 0.800208 5.24605
-5.85816 0.79455 5.20205
-5.85247 0.790954 5.16206
-5.82455 0.773818 5.01908
-5.81487 0.769189 4.97707
-5.80742 0.761119 4.90512
-5.7745 0.744993 4.76309
-5.73829 0.71849 4.52818
-5.73057 0.714936 4.49117
-5.69403 0.693054 4.29819
-5.67503 0.679087 4.16624
-5.64141 0.659384 3.98525
-5.61172 0.641817 3.81326
-5.58378 0.626725 3.67326
-5.57502 0.623245 3.64124
-5.56945 0.617412 3.58528
-5.5579 0.611531 3.52627
-5.54833 0.60568 3.46927
-5.53687 0.598621 3.39828
-5.53209 0.596189 3.36928
-5.52531 0.592754 3.34027
-5.51952 0.590336 3.31226
-5.51184 0.585709 3.27027
-5.50406 0.582274 3.24126
-5.50026 0.579872 3.21426
-5.49647 0.577469 3.18726
-5.48968 0.574065 3.16026
-5.47619 0.568049 3.09224
-5.47339 0.565662 3.06625
-5.47058 0.56329 3.04126
-5.46578 0.559902 3.01527
-5.46396 0.55853 2.99027
-5.44847 0.551527 2.92325
-5.44068 0.548122 2.89624
-5.43588 0.545734 2.87023
-5.43322 0.542051 2.82426
-5.42841 0.539678 2.79925
-5.4246 0.537305 2.77426
-5.40793 0.532657 2.7312
-5.40926 0.529021 2.68825
-5.39947 0.5266 2.66021
-5.40162 0.525305 2.64024
-5.39681 0.522932 2.61524
-5.38395 0.519656 2.59719
-5.38709 0.519377 2.57821
-5.36499 0.5076 2.45921
-5.30179 0.476092 2.09014
-5.28552 0.46766 1.99413
-5.27585 0.464016 1.95111
-5.24518 0.449389 1.77507
-5.2345 0.44576 1.73304
-5.21447 0.435851 1.60502
-5.20485 0.432104 1.55499
-5.17967 0.423487 1.44691
-5.17681 0.422203 1.42791
-5.17509 0.419654 1.39093
-5.17223 0.418386 1.37292
-5.15773 0.413384 1.30588
-5.15189 0.412083 1.28585
-5.15601 0.411849 1.26988
-5.14816 0.409548 1.24986
-5.13358 0.404708 1.19381
-5.13166 0.404559 1.1838
-5.1288 0.40329 1.16579
-5.12793 0.402023 1.1478
-5.12606 0.40077 1.1308
-5.12919 0.400521 1.11383
-5.10836 0.39718 1.09172
-5.11647 0.396964 1.07678
-5.10755 0.395795 1.06573
-5.11181 0.394295 1.03178
-5.10994 0.394041 1.01477
-5.09909 0.391738 0.994715
-5.10121 0.391502 0.978732
-5.09935 0.390234 0.960734
-5.09541 0.389098 0.95172
-5.08955 0.387828 0.933692
-5.08968 0.386576 0.91671
-5.08382 0.385305 0.898682
-5.08107 0.3838 0.864679
-5.07521 0.382529 0.846651
-5.07634 0.381279 0.829675
-5.07041 0.380141 0.820646
-5.06853 0.379888 0.803634
-5.06766 0.378636 0.786643
-5.06005 0.375875 0.73562
-5.05519 0.374605 0.717599
-5.04526 0.37345 0.70754
-5.04239 0.372196 0.690535
-5.0515 0.372981 0.67559
-5.04862 0.371742 0.659584
-5.04575 0.370488 0.642579
-5.03003 0.366944 0.606508
-5.03221 0.36659 0.582526
-5.02734 0.365335 0.565506
-5.01747 0.364076 0.548448
-5.01659 0.362824 0.531457
-5.01671 0.362587 0.51546
-5.0169 0.362232 0.491463
-5.01102 0.360976 0.474435
-5.00815 0.359737 0.458429
-5.00627 0.358484 0.441431
-4.99041 0.356206 0.423343
-4.99364 0.355749 0.39237
-4.9987 0.355635 0.384409
-4.99295 0.354157 0.352383
-4.98308 0.352898 0.335325
-4.9822 0.35266 0.319319
-4.97433 0.350403 0.302291
-4.97045 0.350163 0.286263
-4.97456 0.349944 0.271295
-4.97662 0.349827 0.263312
-4.96475 0.347567 0.246253
-4.96798 0.34711 0.21528
-4.95922 0.34563 0.183232
-4.95535 0.344391 0.167219
-4.94341 0.343249 0.158144
-4.94754 0.343015 0.142177
-4.94977 0.342557 0.111196
-4.94489 0.341317 0.0951753
-4.93512 0.339851 0.0641192
-4.9373 0.339497 0.0401375
-4.93642 0.339274 0.0251321
-4.92966 0.337796 -0.00690136
-4.91707 0.334987 -0.0609621
-4.90919 0.333745 -0.0770053
-4.91042 0.333286 -0.107993
-4.90077 0.330598 -0.154033
-4.89683 0.330477 -0.162062
-4.89894 0.330257 -0.177045
-4.88241 0.327327 -0.239134
-5.94683 0.902985 5.76719
-5.7895 0.797894 4.89044
-5.75011 0.773728 4.67847
-5.74737 0.770223 4.6445
-5.73481 0.762356 4.58651
-5.71365 0.749713 4.47653
-5.59184 0.673518 3.79364
-5.34565 0.572201 2.36509
-5.22212 0.507441 1.64402
-5.20501 0.497697 1.52702
-5.19039 0.492946 1.47697
-5.133 0.466798 1.13188
-5.11282 0.459185 1.02382
-5.10204 0.455762 0.995789
-5.06001 0.438868 0.734687
-5.05627 0.436362 0.700691
-5.04172 0.432464 0.640631
-5.03809 0.429736 0.591637
-5.03135 0.428227 0.557604
-5.00647 0.419018 0.409532
-4.98615 0.413671 0.319446
-4.98239 0.412195 0.287435
-4.96689 0.408221 0.222368
-4.96607 0.407865 0.198364
-4.96519 0.406628 0.182374
-4.94866 0.402683 0.119299
-4.92874 0.396566 -0.0227805
-4.91997 0.395101 -0.0538291
-4.92021 0.394642 -0.0848248
-4.9055 0.392054 -0.123903
-4.90473 0.390595 -0.154891
-4.90485 0.390373 -0.169889
-4.89908 0.38991 -0.20093
-5.95378 1.02095 5.7635
-5.95307 1.01638 5.72555
-5.95137 1.01179 5.6856
-5.93677 1.00401 5.6336
-5.93705 0.999465 5.59667
-5.92826 0.996044 5.56865
-5.91663 0.989325 5.52065
-5.90995 0.983684 5.47768
-5.90625 0.979105 5.43871
-5.88468 0.970246 5.38168
-5.88793 0.96676 5.34875
-5.88112 0.9634 5.32474
-5.87145 0.957742 5.28075
-5.85583 0.949991 5.23074
-5.86602 0.948628 5.20583
-5.85338 0.941923 5.15883
-5.84868 0.937343 5.11985
-5.8302 0.927324 5.05185
-5.81952 0.92168 5.00885
-5.82871 0.920316 4.98394
-5.80911 0.912533 4.9319
-5.79395 0.897879 4.82099
-5.7942 0.894391 4.78803
-5.78737 0.892061 4.76601
-5.77867 0.886477 4.72703
-5.76798 0.880863 4.68602
-5.73923 0.860401 4.52109
-5.73748 0.856926 4.48912
-5.73175 0.852389 4.45314
-5.72303 0.847835 4.41614
-5.71332 0.842266 4.37814
-5.70296 0.832016 4.2942
-5.69246 0.824031 4.22823
-5.67225 0.811493 4.12525
-5.65767 0.804668 4.07024
-5.63684 0.78636 3.91533
-5.62135 0.778357 3.84832
-5.61051 0.775038 3.82729
-5.6157 0.772687 3.80336
-5.59999 0.767113 3.76531
-5.5982 0.764698 3.73733
-5.58945 0.760203 3.70433
-5.58687 0.754387 3.64939
-5.57403 0.751053 3.62734
-5.57523 0.748669 3.60138
-5.57144 0.745252 3.5734
-5.5607 0.740741 3.53938
-5.55592 0.737323 3.51139
-5.55014 0.733875 3.48139
-5.54835 0.731474 3.45441
-5.54845 0.730282 3.44143
-5.54167 0.726848 3.41242
-5.51898 0.720225 3.37134
-5.5321 0.719997 3.35544
-5.51836 0.715484 3.3214
-5.52352 0.714177 3.30046
-5.51773 0.710759 3.27246
-5.5039 0.707423 3.2504
-5.50011 0.704021 3.22342
-5.49432 0.700602 3.19542
-5.49351 0.699232 3.17043
-5.4879 0.693473 3.11947
-5.48708 0.691117 3.0955
-5.4802 0.688875 3.07948
-5.47242 0.685441 3.05046
-5.4716 0.683085 3.02649
-5.46481 0.679666 2.99848
-5.46019 0.674937 2.94951
-5.44941 0.671485 2.91948
-5.44253 0.669258 2.90446
-5.44569 0.66795 2.8835
-5.43192 0.663481 2.85246
-5.42612 0.660092 2.82646
-5.43625 0.659848 2.80954
-5.42547 0.656411 2.7805
-5.41875 0.651859 2.74351
-5.40897 0.648437 2.71549
-5.40515 0.646065 2.69049
-5.40532 0.644739 2.66851
-5.4015 0.641381 2.64453
-5.40366 0.640072 2.62356
-5.39287 0.636665 2.59652
-5.39005 0.634307 2.57253
-5.38216 0.63208 2.55751
-5.37551 0.627394 2.51152
-5.37584 0.624758 2.46855
-5.37002 0.621399 2.44456
-5.3642 0.619039 2.42054
-5.36529 0.618877 2.40955
-5.35947 0.615518 2.38556
-5.32692 0.596667 2.19456
-5.3201 0.594307 2.17054
-5.30569 0.587157 2.09353
-5.29717 0.581204 2.02955
-5.29333 0.57889 2.00855
-5.28274 0.574083 1.95453
-5.26354 0.564515 1.84951
-5.23478 0.549067 1.6855
-5.22124 0.543155 1.62448
-5.2164 0.54184 1.60346
-5.20306 0.534543 1.51646
-5.18673 0.527229 1.42843
-5.17689 0.523911 1.4074
-5.17231 0.520094 1.35242
-5.16759 0.517528 1.31441
-5.15609 0.512557 1.24939
-5.15522 0.51129 1.2314
-5.13014 0.501481 1.11034
-5.11742 0.497924 1.07329
-5.11675 0.495272 1.02932
-5.10604 0.491717 0.992287
-5.10416 0.491464 0.975274
-5.08851 0.486772 0.929219
-5.08616 0.482512 0.844253
-5.0579 0.474041 0.746152
-5.04747 0.468908 0.670139
-5.0426 0.467653 0.653118
-5.04285 0.467164 0.620123
-5.02068 0.459535 0.511054
-5.01512 0.456672 0.453046
-5.00249 0.452923 0.403
-4.99674 0.451445 0.370974
-4.98881 0.449291 0.360945
-4.99217 0.448598 0.313974
-4.97167 0.443606 0.247884
-4.93341 0.432173 0.0177332
-4.92964 0.430712 -0.0132778
-5.89524 1.01508 5.4371
-5.90245 1.01267 5.40918
-5.89081 1.00496 5.3622
-5.89009 1.00142 5.32525
-5.88724 0.998119 5.30527
-5.86764 0.990321 5.25223
-5.86393 0.985756 5.21427
-5.86816 0.982315 5.18434
-5.85353 0.975594 5.13633
-5.84485 0.969952 5.09334
-5.8451 0.966463 5.06039
-5.82834 0.960993 5.02934
-5.81568 0.954318 4.98434
-5.81991 0.950877 4.95441
-5.81222 0.946279 4.91442
-5.80749 0.941743 4.87845
-5.78525 0.927248 4.77848
-5.78848 0.924806 4.74854
-5.77581 0.918161 4.70553
-5.77107 0.914639 4.67054
-5.7616 0.905597 4.6006
-5.75588 0.90106 4.56462
-5.74331 0.893222 4.50863
-5.7346 0.887639 4.46964
-5.66735 0.842249 4.10876
-5.66856 0.838835 4.08081
-5.66469 0.836581 4.06381
-5.65893 0.833103 4.03182
-5.6233 0.810429 3.85286
-5.61554 0.80595 3.82086
-5.59179 0.786506 3.65695
-5.5685 0.775098 3.56293
-5.56093 0.768264 3.50697
-5.55813 0.765862 3.47998
-5.55226 0.763607 3.46297
-5.53654 0.758063 3.42692
-5.54468 0.756787 3.408
-5.53113 0.749904 3.34899
-5.52435 0.74647 3.31999
-5.51268 0.740811 3.27598
-5.51387 0.738457 3.25202
-5.50048 0.729248 3.17104
-5.48899 0.721249 3.10407
-5.48619 0.718862 3.07808
-5.48139 0.715474 3.05209
-5.46962 0.711006 3.02106
-5.46599 0.706293 2.9731
-5.44353 0.697227 2.90205
-5.44072 0.694854 2.87706
-5.43292 0.691449 2.85005
-5.43906 0.691172 2.8311
-5.4233 0.685703 2.80006
-5.42944 0.685426 2.7811
-5.41974 0.680841 2.74209
-5.41692 0.678484 2.7181
-5.41411 0.676127 2.69411
-5.39933 0.671672 2.66406
-5.39568 0.666989 2.6181
-5.39792 0.664532 2.58715
-5.38828 0.658815 2.53915
-5.37749 0.655407 2.51212
-5.31531 0.617857 2.14015
-5.25673 0.587093 1.82112
-5.20758 0.563461 1.57807
-5.18767 0.552316 1.43407
-5.17012 0.54643 1.37501
-5.16453 0.542611 1.32002
-5.17059 0.542512 1.31307
-5.15603 0.536643 1.25503
-5.14432 0.533072 1.21699
-5.14744 0.532823 1.20002
-5.13992 0.528885 1.13701
-5.08795 0.506881 0.868909
-5.06943 0.501935 0.805834
-5.06569 0.499429 0.771838
-5.05807 0.496668 0.720815
-5.05526 0.495296 0.69581
-5.05151 0.492805 0.662814
-5.03909 0.487671 0.586786
-4.99865 0.474577 0.379647
-4.97664 0.467637 0.249566
-4.97188 0.46516 0.217562
-4.95742 0.461083 0.145504
-4.95454 0.460859 0.130483
-4.92179 0.451378 -0.0356459
-5.83627 1.01907 5.03354
-5.81666 1.0103 4.98251
-5.82585 1.00893 4.9576
-5.80512 1.00239 4.92154
-5.80338 0.997882 4.88759
-5.79171 0.991238 4.84459
-5.79593 0.988812 4.81565
-5.79319 0.984292 4.7807
-5.78747 0.979755 4.74471
-5.77381 0.973079 4.6997
-5.77802 0.969668 4.67178
-5.75827 0.96418 4.63971
-5.7585 0.960722 4.60876
-5.74583 0.954077 4.56576
-5.75202 0.951711 4.54083
-5.73835 0.945065 4.49782
-5.7239 0.935989 4.42584
-5.72997 0.934846 4.4159
-5.71728 0.92923 4.37488
-5.70757 0.923661 4.33689
-5.70084 0.919138 4.3019
-5.69212 0.913584 4.26491
-5.68737 0.910107 4.23292
-5.68958 0.906694 4.20498
-5.67677 0.902315 4.17995
-5.66605 0.89676 4.14294
-5.67025 0.895378 4.11699
-5.66052 0.889839 4.081
-5.65874 0.886408 4.05203
-5.652 0.8819 4.01804
-5.6542 0.879517 3.99209
-5.6394 0.875122 3.96604
-5.63563 0.870675 3.93607
-5.63881 0.869308 3.91111
-5.61914 0.861657 3.86807
-5.61358 0.854795 3.81012
-5.59698 0.847014 3.75811
-5.60713 0.846725 3.73819
-5.59341 0.841182 3.70216
-5.57889 0.832225 3.63817
-5.57531 0.826409 3.58323
-5.57839 0.826248 3.57225
-5.55968 0.819672 3.5342
-5.56684 0.818367 3.51327
-5.55312 0.812824 3.47724
-5.55629 0.811486 3.45429
-5.54554 0.806005 3.42228
-5.54076 0.802572 3.39329
-5.52294 0.798204 3.36922
-5.52313 0.795834 3.34425
-5.53127 0.794559 3.32533
-5.52152 0.790079 3.29332
-5.51374 0.786644 3.26431
-5.50497 0.782194 3.2343
-5.50814 0.780855 3.21134
-5.50036 0.777421 3.18233
-5.4915 0.774148 3.16431
-5.49069 0.771777 3.13934
-5.47892 0.767325 3.10931
-5.48308 0.766002 3.08736
-5.4733 0.761566 3.05834
-5.47349 0.759211 3.03438
-5.4657 0.755791 3.00637
-5.4638 0.754597 2.99337
-5.45203 0.750145 2.96334
-5.45122 0.747775 2.93837
-5.44741 0.744402 2.91338
-5.44559 0.742045 2.8894
-5.4388 0.738641 2.8624
-5.43498 0.736268 2.8374
-5.43108 0.734073 2.8244
-5.42031 0.729636 2.79538
-5.42147 0.728311 2.77341
-5.41567 0.724923 2.74741
-5.41783 0.723613 2.72644
-5.40704 0.719191 2.69842
-5.40721 0.717866 2.67644
-5.3975 0.713282 2.63743
-5.38788 0.707549 2.58844
-5.38804 0.705239 2.56747
-5.37724 0.701831 2.54043
-5.38139 0.700538 2.52048
-5.37458 0.697164 2.49548
-5.36471 0.69492 2.47943
-5.36985 0.693642 2.46049
-5.371 0.692347 2.44051
-5.3622 0.688956 2.41449
-5.3151 0.662207 2.1635
-5.31126 0.659894 2.1425
-5.31242 0.658599 2.12253
-5.3036 0.655237 2.09851
-5.29977 0.652909 2.07651
-5.3039 0.652645 2.05854
-5.30199 0.651481 2.04754
-5.29018 0.647103 2.02252
-5.29531 0.64684 2.00456
-5.28749 0.644494 1.98153
-5.28764 0.642198 1.96156
-5.27981 0.639867 1.93953
-5.27797 0.637555 1.91855
-5.26906 0.635356 1.90551
-5.26124 0.63301 1.88249
-5.26836 0.632778 1.86654
-5.25854 0.629416 1.84251
-5.2537 0.627102 1.82151
-5.26082 0.62687 1.80556
-5.23804 0.621439 1.77747
-5.2391 0.621307 1.76848
-5.24224 0.621042 1.7505
-5.23341 0.617711 1.72848
-5.23455 0.61643 1.70951
-5.2347 0.615149 1.69053
-5.22786 0.612833 1.66951
-5.227 0.611551 1.65052
-5.22415 0.609253 1.63052
-5.2084 0.605754 1.59745
-5.21453 0.605506 1.5805
-5.19487 0.598841 1.53645
-5.19999 0.598608 1.52049
-5.19514 0.597308 1.50047
-5.18623 0.595124 1.48843
-5.19236 0.594877 1.47148
-5.17468 0.589243 1.42942
-5.18179 0.589026 1.41448
-5.16697 0.585675 1.39141
-5.17409 0.585443 1.37547
-5.17116 0.585293 1.36544
