-3.51483 1.64562 2.66275
-3.52391 1.64547 2.65181
1.66316 1.65778 3.96974
1.64818 1.65682 3.97186
1.63725 1.65898 3.98191
1.62329 1.65906 3.98702
1.61237 1.66122 3.99707
1.59839 1.66128 4.00018
1.58443 1.66136 4.00528
1.5754 1.65831 4.00139
1.56142 1.65736 4.00451
1.5454 1.65433 4.00168
1.53554 1.6596 4.01968
1.52053 1.6576 4.01882
1.5086 1.65976 4.02888
1.49156 1.65568 4.02307
1.49174 1.66502 4.04593
1.47573 1.66203 4.0461
1.45869 1.65795 4.04028
1.44266 1.65492 4.03745
1.43893 1.66744 4.0723
1.4188 1.65921 4.05557
1.4038 1.65722 4.05571
1.39888 1.66037 4.0657
1.37975 1.65215 4.04997
1.36988 1.6574 4.06696
1.35592 1.65747 4.07107
1.34092 1.6565 4.0722
1.32592 1.65451 4.07234
1.31708 1.66183 4.0933
1.30497 1.65462 4.0785
1.29099 1.65467 4.0816
1.28215 1.66097 4.10158
1.26818 1.66206 4.10667
1.25214 1.65798 4.10085
1.24022 1.66015 4.11191
1.22317 1.65707 4.10608
1.21824 1.6592 4.11409
1.20734 1.66341 4.12811
1.18824 1.65622 4.11436
1.17425 1.65526 4.11648
1.16336 1.66047 4.13048
1.14941 1.66159 4.13757
1.13541 1.6606 4.13769
1.13154 1.66684 4.15363
1.10826 1.65032 4.11805
1.10154 1.66386 4.1539
1.0834 1.65562 4.13716
1.06737 1.65257 4.13332
1.05444 1.65472 4.14239
1.04459 1.661 4.16138
1.03449 1.65582 4.14853
1.01949 1.65383 4.14867
1.00344 1.65075 4.14283
0.989448 1.64978 4.14395
0.975486 1.65086 4.14904
0.965665 1.65921 4.172
0.946517 1.64994 4.15328
0.94261 1.65412 4.16525
0.930734 1.65937 4.18126
0.917795 1.6615 4.18933
0.898632 1.6522 4.16861
0.887772 1.65847 4.1866
0.871717 1.65438 4.17978
0.841686 1.65134 4.17605
0.836771 1.65451 4.18704
0.763747 1.64852 4.18468
0.749778 1.64959 4.18877
0.728793 1.64863 4.19094
0.714824 1.6497 4.19503
0.700855 1.65077 4.19912
0.685839 1.64875 4.19726
0.672902 1.65188 4.20532
0.650909 1.65091 4.2065
0.635893 1.64889 4.20464
0.608979 1.65208 4.2158
0.559011 1.65217 4.22017
0.543964 1.6491 4.21433
0.515995 1.64917 4.21854
0.487041 1.65028 4.22474
0.466049 1.64931 4.22592
0.438127 1.65248 4.23608
0.423065 1.64938 4.22824
0.409058 1.64837 4.22736
0.39405 1.64737 4.22649
0.37312 1.65052 4.2356
0.359174 1.65263 4.24267
0.332307 1.6589 4.25979
0.30109 1.64651 4.2322
0.280113 1.64757 4.23534
0.266121 1.64759 4.23645
0.252223 1.6528 4.24948
0.237114 1.6466 4.23568
0.223122 1.64663 4.23679
0.188201 1.6508 4.24699
0.174294 1.65499 4.25903
0.102164 1.64779 4.24268
0.0801254 1.64573 4.23788
0.0661565 1.6468 4.24197
0.0522585 1.653 4.25498
0.0374064 1.66029 4.27399
-0.782159 1.65976 4.06914
-0.796165 1.66076 4.06823
-0.811141 1.66281 4.07132
-0.824202 1.66071 4.06344
-0.837224 1.66067 4.06054
-0.8522 1.66273 4.06363
-0.863323 1.6575 4.04778
-0.871307 1.65953 4.04982
-0.886267 1.66262 4.05488
-0.899305 1.66155 4.05
-0.911397 1.65738 4.03815
-0.954394 1.66142 4.03841
-1.01647 1.6623 4.02786
-1.05055 1.66217 4.01812
-1.13773 1.66087 3.99379
-1.15173 1.66188 3.99389
-1.25295 1.66152 3.96565
-1.39427 1.66199 3.9237
-1.68306 1.66163 3.81987
-2.33451 1.65925 3.49677
-2.37364 1.66101 3.47903
-2.3847 1.6609 3.47112
-2.39883 1.65766 3.45427
-2.435 1.65836 3.43253
-2.47116 1.65906 3.41079
-2.49221 1.66097 3.40392
-2.51434 1.65973 3.3871
-2.53854 1.65637 3.36133
-2.69427 1.66103 3.26442
-2.70533 1.66092 3.2565
-2.75966 1.65929 3.21193
-2.77874 1.66016 3.20206
-2.83208 1.65951 3.15646
-2.84513 1.66043 3.15055
-2.86123 1.66024 3.13667
-2.87329 1.66114 3.12975
-2.88948 1.65677 3.10393
-2.92061 1.65954 3.08712
-2.92672 1.65632 3.07221
-2.94572 1.66134 3.07228
-2.94687 1.65504 3.05238
-2.96289 1.65902 3.05044
-2.98304 1.65773 3.02961
-2.99106 1.6597 3.02764
-3.00922 1.65741 3.00681
-3.0183 1.65725 2.99588
-3.03234 1.65917 2.98995
-3.03746 1.65595 2.97504
-3.04555 1.65378 2.96313
-3.05554 1.6568 2.96416
-3.06364 1.65562 2.95124
-3.07073 1.65344 2.93932
-3.08973 1.65944 2.93838
-3.09485 1.65622 2.92346
-3.10294 1.65405 2.91155
-3.11698 1.65597 2.90563
-3.12202 1.6559 2.90067
-3.1301 1.65575 2.88973
-3.14713 1.6587 2.88581
-3.15422 1.65753 2.87388
-3.16033 1.65532 2.85996
-3.17636 1.65828 2.85603
-3.17452 1.65197 2.83511
-3.18352 1.65396 2.83415
-3.19856 1.65689 2.82922
-3.20368 1.65366 2.8133
-3.21772 1.65558 2.80738
-3.22581 1.65442 2.79646
-3.23589 1.65427 2.78553
-3.24596 1.65514 2.77659
-3.25397 1.65712 2.77463
-3.26206 1.65595 2.7627
-3.27014 1.65479 2.75178
-3.2832 1.65668 2.74385
-3.2893 1.65449 2.73092
-3.30037 1.65537 2.72199
-3.31839 1.65934 2.71907
-3.32045 1.65822 2.7111
-3.32952 1.65808 2.70117
-3.33662 1.65589 2.68825
-3.34174 1.65367 2.67332
-3.34684 1.65147 2.65939
-3.35294 1.64928 2.64647
-3.365 1.65117 2.63853
-3.38004 1.65409 2.6326
-3.38211 1.65198 2.62465
-3.3902 1.6518 2.61271
-3.40722 1.65577 2.60978
-3.41531 1.6546 2.59785
-3.41744 1.65135 2.58092
-3.42354 1.64916 2.56799
-3.43559 1.65105 2.56005
-3.43865 1.64995 2.55309
-3.45468 1.65389 2.54815
-3.46773 1.65579 2.54122
-3.46986 1.65155 2.5243
-3.47497 1.65034 2.51035
-3.48405 1.65019 2.49942
-3.48618 1.64595 2.4835
1.7208 1.65408 3.78933
1.71701 1.66346 3.81522
1.67333 1.67312 3.85742
1.62236 1.66823 3.86287
1.61143 1.67037 3.87193
1.59747 1.67045 3.87703
1.58247 1.66746 3.87719
1.58056 1.67264 3.88913
1.56354 1.66861 3.88631
1.54955 1.66764 3.88743
1.53762 1.66979 3.89749
1.51068 1.66892 3.90471
1.49771 1.669 3.90981
1.49278 1.67112 3.91782
1.47675 1.66809 3.91498
1.45082 1.66824 3.92417
1.40787 1.66536 3.93054
1.40394 1.66851 3.94053
1.392 1.67062 3.94759
1.37803 1.67071 3.95269
1.36405 1.66975 3.95481
1.35107 1.6688 3.95792
1.33505 1.66577 3.95509
1.32516 1.67098 3.96909
1.30214 1.66697 3.96732
1.28611 1.66392 3.96348
1.2571 1.65993 3.96276
1.24723 1.66619 3.97975
1.23532 1.66936 3.99079
1.2283 1.66734 3.98887
1.21432 1.66638 3.99099
1.20341 1.67056 4.00302
1.18533 1.66443 3.99324
1.17338 1.66654 4.0003
1.16147 1.66971 4.01134
1.14542 1.66563 4.00553
1.13844 1.66567 4.00758
1.12547 1.66574 4.01167
1.11458 1.66995 4.0257
1.09853 1.66688 4.01986
1.06748 1.66081 4.01418
1.05452 1.66189 4.01927
1.04363 1.66711 4.03327
1.0325 1.65888 4.01748
1.02058 1.66204 4.02752
0.981697 1.66429 4.04278
0.96772 1.66434 4.04589
0.952681 1.66128 4.04105
0.94672 1.66336 4.04606
0.931719 1.66137 4.0462
0.91875 1.66244 4.05029
0.901672 1.6573 4.04049
0.856858 1.66369 4.06474
-1.1215 1.66235 3.89164
-1.13452 1.66231 3.88873
-1.15455 1.66327 3.88487
-1.1676 1.66219 3.87898
-1.18062 1.66215 3.87608
-1.19463 1.66313 3.87417
-1.2067 1.66102 3.86629
-1.21776 1.6589 3.85741
-1.23274 1.66195 3.86048
-1.23877 1.6609 3.85654
-1.25277 1.66291 3.85661
-1.29186 1.66276 3.84491
-1.30392 1.66065 3.83703
-1.31598 1.65954 3.82913
-1.32299 1.65951 3.82719
-1.35101 1.66251 3.82535
-1.36306 1.66041 3.81847
-1.40117 1.66023 3.80476
-1.40719 1.66018 3.80081
-1.42121 1.66016 3.79891
-1.43227 1.65905 3.79101
-1.44727 1.66106 3.7911
-1.46745 1.65473 3.76834
-1.48244 1.65674 3.76842
-1.4914 1.65982 3.77344
-1.50541 1.66182 3.77252
-1.51649 1.65968 3.76263
-1.5305 1.66066 3.76072
-1.57058 1.66252 3.75
-1.58866 1.66139 3.74015
-1.61275 1.66023 3.72835
-1.6398 1.66215 3.72152
-1.65184 1.66107 3.71563
-1.65788 1.66 3.71069
-1.67188 1.66201 3.71076
-1.71 1.6618 3.69505
-1.73115 1.65852 3.67526
-1.82951 1.65588 3.62803
-1.8605 1.66191 3.62917
-1.86959 1.65874 3.61729
-1.90365 1.66163 3.6085
-1.94079 1.6614 3.59078
-2.45406 1.65828 3.29165
-2.50324 1.66095 3.26698
-2.54245 1.66056 3.23928
-2.55549 1.6615 3.23436
-2.56359 1.65931 3.22145
-2.57366 1.65818 3.21254
-2.58868 1.66115 3.20961
-2.59578 1.65795 3.19571
-2.61187 1.65778 3.18383
-2.62492 1.6597 3.1779
-2.63995 1.66165 3.17399
-2.6581 1.65936 3.15316
-2.66916 1.65925 3.14524
-2.66924 1.6561 3.13528
-2.69137 1.65586 3.11845
-2.71349 1.65664 3.10261
-2.72257 1.65449 3.0917
-2.73759 1.65745 3.08877
-2.73966 1.65532 3.07982
-2.74973 1.65519 3.0709
-2.75187 1.64993 3.05299
-2.77185 1.65597 3.05505
-2.77895 1.65279 3.04215
-2.79694 1.6578 3.04221
-2.79909 1.65252 3.0233
-2.81601 1.65968 3.03332
-2.81914 1.65543 3.01641
-2.82525 1.65221 3.0015
-2.84721 1.6593 3.00656
-2.84341 1.64992 2.98067
-2.85646 1.65184 2.97474
-2.87346 1.65583 2.97381
-2.87057 1.65062 2.95986
-2.88461 1.65256 2.95493
-2.90062 1.65654 2.953
-2.90871 1.65437 2.94109
-2.90986 1.64909 2.92217
-2.92984 1.65513 2.92423
-2.92107 1.64368 2.89433
-2.939 1.65083 2.90336
-2.95006 1.65172 2.89543
-2.95914 1.65056 2.88452
-2.97814 1.65658 2.88457
-2.98126 1.65234 2.86865
-2.98141 1.64605 2.84875
-2.99743 1.65001 2.84581
-2.9985 1.6469 2.83786
-3.01155 1.6488 2.83093
-3.01963 1.64765 2.82001
-3.0297 1.6475 2.81008
-3.04671 1.6525 2.80914
-3.04984 1.64825 2.79222
-3.07579 1.65736 2.79828
-3.07494 1.65106 2.77837
-3.07799 1.64998 2.7724
-3.09302 1.65293 2.76847
-3.09912 1.65073 2.75455
-3.11117 1.65163 2.74763
-3.11529 1.64841 2.7327
-3.13132 1.65236 2.72877
-3.14139 1.65222 2.71884
-3.1504 1.65421 2.71788
-3.16344 1.65714 2.71193
-3.16259 1.65084 2.69202
-3.17564 1.65276 2.68609
-3.18274 1.65057 2.67317
-3.1928 1.65145 2.66423
-3.20387 1.65232 2.6553
-3.20295 1.64917 2.64534
-3.215 1.65008 2.63842
-3.23202 1.65504 2.63547
-3.24011 1.65387 2.62355
-3.25315 1.65679 2.6176
-3.25131 1.6495 2.59769
-3.27429 1.65754 2.59975
-3.26145 1.64722 2.5788
-3.28245 1.65424 2.57886
-3.29351 1.65511 2.56992
-3.30756 1.65803 2.56399
-3.31365 1.65586 2.55206
-3.32472 1.65672 2.54213
-3.32188 1.65042 2.5222
-3.31797 1.64524 2.51025
-3.36024 1.64874 2.47451
-3.37144 1.64536 2.44864
-3.37846 1.64732 2.44566
-3.38456 1.64514 2.43274
-3.39761 1.64703 2.42481
-3.41463 1.65199 2.42186
-3.41278 1.64671 2.40292
-3.42285 1.64657 2.393
-3.42895 1.64538 2.38006
1.74192 1.65733 3.67211
1.74003 1.66252 3.68505
1.73215 1.66676 3.70105
1.5837 1.67294 3.77408
1.56972 1.67199 3.7772
1.48695 1.6725 3.80782
1.44499 1.6686 3.8132
1.41905 1.66875 3.82239
1.41412 1.67189 3.83138
1.36224 1.67215 3.84677
1.34621 1.6681 3.84295
1.33529 1.67127 3.85399
1.32027 1.66824 3.85115
1.30133 1.66837 3.85929
1.2894 1.67151 3.86833
1.23547 1.6687 3.87878
1.20256 1.66989 3.89002
1.17456 1.66692 3.89127
1.14863 1.66808 3.90045
1.08976 1.66937 3.91788
1.0768 1.66945 3.92297
-1.13537 1.65265 3.77687
-1.1474 1.65262 3.77396
-1.15946 1.65049 3.76508
-1.17052 1.64938 3.75718
-1.17752 1.64939 3.75723
-1.18763 1.64519 3.74337
-1.20358 1.6493 3.75043
-1.21562 1.64922 3.74452
-1.22765 1.64917 3.74061
-1.24361 1.65226 3.74569
-1.25566 1.65218 3.73978
-1.26069 1.65011 3.73484
-1.27177 1.64797 3.72496
-1.28675 1.65102 3.72803
-1.29879 1.64994 3.72213
-1.31181 1.65092 3.72022
-1.32581 1.65192 3.71931
-1.33688 1.64979 3.71042
-1.3429 1.64975 3.70747
-1.35397 1.64763 3.69858
-1.36994 1.6517 3.70264
-1.38198 1.65062 3.69675
-1.39305 1.64851 3.68886
-1.40411 1.6474 3.68096
-1.41811 1.64839 3.68005
-1.42805 1.65352 3.68805
-1.43715 1.64933 3.67518
-1.45017 1.6503 3.67226
-1.46418 1.65129 3.67135
-1.47525 1.64915 3.66147
-1.48827 1.65012 3.65855
-1.49835 1.64798 3.64865
-1.50633 1.65003 3.65168
-1.51935 1.65099 3.64877
-1.52846 1.64578 3.63391
-1.54442 1.65086 3.63896
-1.55548 1.64875 3.63107
-1.56459 1.64455 3.6172
-1.58056 1.64862 3.62126
-1.58953 1.65169 3.62528
-1.59765 1.64746 3.60941
-1.61263 1.6505 3.61147
-1.62663 1.65251 3.61155
-1.63279 1.64522 3.5917
-1.65268 1.65442 3.60472
-1.66177 1.65025 3.59284
-1.66878 1.65124 3.59188
-1.68181 1.65219 3.58797
-1.69483 1.65316 3.58505
-1.70294 1.64896 3.57117
-1.71991 1.65403 3.57522
-1.73588 1.65708 3.5783
-1.74105 1.64976 3.55644
-1.74804 1.65078 3.55748
-1.76697 1.65793 3.56652
-1.77017 1.64855 3.54068
-1.78713 1.65363 3.54573
-1.79819 1.65252 3.53783
-1.80827 1.64938 3.52795
-1.82326 1.65339 3.52801
-1.83628 1.65437 3.52609
-1.8364 1.64814 3.51018
-1.85336 1.65322 3.51523
-1.86344 1.65108 3.50534
-1.87746 1.65305 3.50242
-1.89146 1.65504 3.50149
-1.90843 1.66011 3.50554
-1.91653 1.65593 3.49267
-1.92354 1.65692 3.4917
-1.93264 1.65373 3.47882
-1.94862 1.65777 3.48088
-1.9727 1.65863 3.47005
-1.98574 1.65956 3.46513
-2.00379 1.65947 3.45827
-2.01289 1.65629 3.44538
-2.02493 1.65722 3.44046
-2.23472 1.66079 3.33497
-2.24578 1.66068 3.32705
-2.2679 1.66047 3.31222
-2.30206 1.66017 3.29048
-2.31816 1.65899 3.27762
-2.32625 1.65682 3.26571
-2.34125 1.65981 3.26478
-2.3533 1.65973 3.25887
-2.35941 1.65652 3.24396
-2.37541 1.65953 3.24404
-2.37551 1.65534 3.2311
-2.38854 1.65629 3.22718
-2.40158 1.65822 3.22225
-2.40769 1.654 3.20736
-2.41776 1.65288 3.19845
-2.43771 1.65998 3.20449
-2.44482 1.65678 3.19059
-2.44886 1.65569 3.18464
-2.45794 1.65455 3.17472
-2.47098 1.65549 3.16981
-2.48105 1.65535 3.15988
-2.48715 1.65116 3.14699
-2.50216 1.65514 3.14504
-2.50531 1.64886 3.12616
-2.51727 1.65394 3.13117
-2.52041 1.64768 3.11329
-2.52949 1.64652 3.10237
-2.54253 1.64746 3.09745
-2.55853 1.65146 3.09651
-2.56365 1.64724 3.08161
-2.57867 1.6502 3.07868
-2.59063 1.65529 3.0837
-2.59278 1.64899 3.0638
-2.60879 1.65299 3.06287
-2.6139 1.64877 3.04796
-2.61703 1.64352 3.03106
-2.63997 1.65264 3.0381
-2.66192 1.65975 3.04416
-2.65309 1.65043 3.02323
-2.66613 1.65235 3.0173
-2.67917 1.65329 3.01238
-2.67438 1.64288 2.9855
-2.68841 1.64582 2.98056
-2.70343 1.6488 2.97863
-2.72447 1.65273 2.97273
-2.72464 1.6454 2.95083
-2.7347 1.64529 2.94291
-2.75764 1.65341 2.94997
-2.76474 1.65122 2.93705
-2.80112 1.64451 2.88742
-2.8092 1.64335 2.87649
-2.83132 1.64413 2.86065
-2.85846 1.64587 2.84182
-2.86456 1.64368 2.8289
-2.87959 1.64663 2.82497
-2.88569 1.64344 2.81206
-2.89675 1.64433 2.80413
-2.9149 1.64305 2.78428
-2.94006 1.64374 2.76246
-2.95112 1.64463 2.75453
-2.96119 1.64451 2.7456
-2.9833 1.6463 2.73074
-2.98635 1.6452 2.72378
-3.00038 1.64815 2.71984
-3.01457 1.64479 2.69499
-3.0347 1.64455 2.67815
-3.04278 1.6444 2.66721
-3.0498 1.64536 2.66425
-3.05689 1.64419 2.65232
-3.06994 1.64611 2.64638
-3.07504 1.64392 2.63345
-3.08907 1.64685 2.62851
-3.09517 1.64367 2.61561
-3.10623 1.64555 2.60766
-3.10729 1.64344 2.5997
-3.12034 1.64536 2.59377
-3.13339 1.64726 2.58684
-3.13749 1.64406 2.57291
-3.15451 1.64903 2.56997
-3.16954 1.65298 2.56602
-3.1677 1.64668 2.5461
-3.17969 1.6497 2.54714
-3.18876 1.64956 2.53721
-3.19485 1.64839 2.52527
-3.20591 1.64928 2.51734
-3.21895 1.6522 2.5114
-3.22406 1.649 2.49748
-3.23711 1.6519 2.49054
-3.23724 1.64665 2.47361
-3.24426 1.64861 2.47064
-3.25433 1.64849 2.46171
-3.25446 1.64423 2.44477
-3.26652 1.64512 2.43685
-3.28056 1.64805 2.43091
-3.28368 1.64483 2.41598
-3.36137 1.64552 2.32454
-3.37144 1.64638 2.31461
-3.38959 1.6461 2.29474
1.76016 1.65782 3.57095
1.75533 1.66513 3.59188
1.74134 1.66317 3.59402
1.74554 1.67455 3.61982
1.68273 1.67397 3.6453
1.66976 1.67302 3.64842
1.66479 1.67409 3.65244
1.61088 1.6703 3.6649
1.59893 1.67142 3.67198
1.58901 1.67357 3.68202
1.581 1.67256 3.6811
1.55403 1.67064 3.68533
1.54105 1.6697 3.68844
1.53012 1.67084 3.69751
1.51613 1.66986 3.69863
1.50316 1.66995 3.70372
1.49121 1.67104 3.7098
1.48726 1.67315 3.7168
1.46919 1.66703 3.70802
1.45622 1.66608 3.71114
1.44426 1.66718 3.71721
1.43335 1.67035 3.72825
1.42342 1.67251 3.73829
1.38741 1.66752 3.73764
1.37241 1.66451 3.73679
1.3584 1.66251 3.73593
1.34954 1.66878 3.75391
1.33348 1.66469 3.74709
1.32254 1.66582 3.75515
1.31863 1.66998 3.76612
1.30259 1.66592 3.7613
1.29166 1.66806 3.77035
1.27561 1.66399 3.76454
1.26468 1.66613 3.77359
1.25478 1.67033 3.7866
1.24677 1.6683 3.78469
1.23174 1.66527 3.78185
1.2198 1.66738 3.78891
1.20476 1.66332 3.78408
-1.30633 1.66087 3.64902
-1.3164 1.65874 3.64012
-1.32242 1.65872 3.63817
-1.33545 1.65867 3.63427
-1.34649 1.65758 3.62837
-1.35953 1.65752 3.62346
-1.37451 1.66058 3.62653
-1.3836 1.6574 3.61465
-1.3927 1.65322 3.60177
-1.4067 1.65521 3.60085
-1.40978 1.65107 3.59093
-1.42574 1.65515 3.59599
-1.43679 1.65507 3.59008
-1.44981 1.65504 3.58718
-1.46675 1.66115 3.59421
-1.47095 1.65077 3.5684
-1.48986 1.65796 3.58043
-1.49782 1.66203 3.58443
-1.50203 1.65063 3.55763
-1.52092 1.65985 3.57164
-1.53198 1.65774 3.56375
-1.54304 1.65663 3.55585
-1.55311 1.65451 3.54696
-1.57302 1.6627 3.55899
-1.57314 1.65646 3.54308
-1.5891 1.66155 3.54812
-1.60016 1.65944 3.54024
-1.61416 1.66145 3.54031
-1.62521 1.66135 3.5334
-1.63529 1.65821 3.52352
-1.64929 1.66121 3.52258
-1.65335 1.65811 3.51565
-1.67842 1.65899 3.50683
-1.69143 1.66097 3.5049
-1.7165 1.66085 3.49609
-1.72952 1.66282 3.49316
-1.74758 1.66271 3.48529
-1.75469 1.6575 3.47042
-1.77067 1.66154 3.47248
-1.7837 1.66249 3.46856
-1.7918 1.65932 3.45667
-1.82189 1.66015 3.44388
-1.84499 1.65897 3.43107
-1.88111 1.65976 3.41533
-1.88909 1.6618 3.41736
-1.91022 1.65956 3.40055
-1.92423 1.66154 3.39863
-1.94732 1.66138 3.3868
-1.97743 1.66219 3.37302
-2.29483 1.66066 3.1884
-2.30588 1.66056 3.18149
-2.31892 1.66249 3.17656
-2.32008 1.65519 3.15567
-2.34407 1.6602 3.15578
-2.35414 1.66008 3.14685
-2.36735 1.65269 3.12006
-2.37939 1.65361 3.11414
-2.38846 1.65248 3.10522
-2.39745 1.6555 3.10624
-2.41049 1.65644 3.10133
-2.41758 1.65426 3.08941
-2.4316 1.65623 3.08649
-2.44563 1.65918 3.08255
-2.44877 1.65292 3.06466
-2.46278 1.6559 3.06272
-2.46385 1.65277 3.05378
-2.48678 1.6619 3.06181
-2.48497 1.65254 3.03794
-2.49108 1.64934 3.02403
-2.50906 1.65438 3.02609
-2.52705 1.65941 3.02715
-2.66778 1.66306 2.93014
-2.69096 1.66072 2.90635
-2.69012 1.65341 2.88545
-2.70217 1.65533 2.87951
-2.70431 1.64907 2.86162
-2.71537 1.64996 2.85368
-2.71551 1.64368 2.83478
-2.73449 1.64972 2.83683
-2.7316 1.64451 2.82288
-2.75058 1.65057 2.82594
-2.75569 1.64735 2.81102
-2.76575 1.64724 2.8031
-2.77185 1.64405 2.79019
-2.80189 1.65098 2.78431
-2.79601 1.64374 2.76837
-2.81995 1.65386 2.7754
-2.81713 1.64554 2.7535
-2.83116 1.64747 2.74858
-2.84321 1.64939 2.74264
-2.85228 1.64925 2.73271
-2.85533 1.64715 2.72576
-2.87035 1.65113 2.72382
-2.87248 1.64588 2.70691
-2.89345 1.65394 2.70995
-2.89657 1.6497 2.69403
-2.90961 1.65164 2.6891
-2.91174 1.64639 2.67219
-2.92471 1.65246 2.6762
-2.9308 1.64927 2.66329
-2.94782 1.65425 2.66135
-2.94399 1.64593 2.63944
-2.95604 1.64783 2.6325
-2.96907 1.64977 2.62757
-2.98113 1.65167 2.62063
-2.99707 1.65878 2.62765
-2.98927 1.64839 2.60174
-3.00132 1.6493 2.59481
-3.01138 1.65019 2.58687
-3.03038 1.65619 2.58593
-3.0335 1.65197 2.57101
-3.04356 1.65286 2.56307
-3.04271 1.64656 2.54316
-3.05469 1.65161 2.54617
-3.07369 1.65661 2.54524
-3.07779 1.65442 2.5323
-3.08687 1.65428 2.52237
-3.09991 1.6562 2.51644
-3.10104 1.65095 2.49953
-3.11806 1.65592 2.49658
-3.11813 1.65379 2.48761
-3.1262 1.65366 2.47867
-3.1313 1.65045 2.46476
-3.16023 1.66259 2.4728
-3.14051 1.64606 2.43789
-3.15454 1.649 2.43295
-3.16957 1.65295 2.429
-3.17957 1.65596 2.42903
-3.18468 1.65375 2.4151
-3.20666 1.6608 2.41717
-3.19387 1.64937 2.38923
-3.21487 1.65639 2.38929
-3.22791 1.65831 2.38336
-3.22904 1.65407 2.36743
-3.23307 1.654 2.36246
-3.25606 1.66203 2.36351
-3.24626 1.65166 2.33859
-3.25831 1.65356 2.33165
-3.27732 1.65953 2.3287
-3.27943 1.65633 2.31477
-3.29148 1.65823 2.30783
-3.2985 1.65919 2.30487
-3.28572 1.64777 2.27693
-3.30883 1.65156 2.26205
-3.31803 1.64718 2.23618
-3.33307 1.65112 2.23123
-3.33723 1.64681 2.21033
-3.35227 1.65074 2.20438
-3.37153 1.64723 2.16957
-3.38465 1.64802 2.15466
-3.41062 1.65707 2.15672
-3.4049 1.64553 2.12084
-3.41597 1.6474 2.1119
1.78366 1.67479 3.50251
1.7717 1.67488 3.5076
1.73176 1.67102 3.51596
1.71572 1.66696 3.51114
1.70885 1.67222 3.52812
1.68277 1.66309 3.51845
1.67387 1.66729 3.53145
1.66089 1.66633 3.53357
1.65199 1.67054 3.54757
1.63696 1.66649 3.54375
1.624 1.66658 3.54884
1.61203 1.66564 3.55295
1.60505 1.66568 3.555
1.5941 1.66679 3.56207
1.58009 1.66379 3.56122
1.57018 1.66797 3.57323
1.5483 1.67021 3.58836
1.53328 1.66719 3.58652
1.52934 1.6693 3.59352
1.50719 1.65803 3.57485
1.50236 1.66636 3.59677
1.48939 1.66643 3.60087
1.47641 1.66548 3.60398
1.46649 1.66864 3.61401
1.45147 1.66462 3.61218
1.44139 1.65948 3.60233
1.43149 1.66368 3.61535
1.41954 1.66478 3.62142
1.40858 1.66487 3.6275
1.39765 1.667 3.63555
1.37854 1.65882 3.62282
1.36657 1.65889 3.62691
1.36162 1.66098 3.63291
1.35275 1.66623 3.64891
1.33668 1.66112 3.6411
1.32678 1.66532 3.65412
1.31481 1.66539 3.6582
1.30081 1.6634 3.65834
1.28784 1.66245 3.66145
1.28389 1.66556 3.66844
1.27194 1.66667 3.67551
1.25794 1.66466 3.67465
1.24186 1.65854 3.66586
1.23095 1.66171 3.67689
1.21796 1.66175 3.67899
1.21012 1.66905 3.69894
-1.71045 1.66297 3.36899
-2.46179 1.6619 2.92761
-2.48191 1.66169 2.91276
-2.51514 1.66025 2.88203
-2.53724 1.66108 2.86918
-2.55637 1.66083 2.85133
-2.59256 1.66148 2.82658
-2.6046 1.6634 2.82065
-2.6328 1.66204 2.79488
-2.63882 1.663 2.79191
-2.64888 1.66289 2.78398
-2.66603 1.6606 2.76414
-2.69819 1.66331 2.74334
-2.7324 1.66291 2.7146
-2.74148 1.66277 2.70467
-2.75352 1.66369 2.69875
-2.77669 1.66338 2.67692
-2.78377 1.66222 2.66599
-2.79383 1.66211 2.65807
-2.81494 1.6639 2.6432
-2.90662 1.66264 2.5539
-2.9137 1.66148 2.54297
-2.93283 1.66224 2.5261
-2.94289 1.66313 2.51816
-2.95401 1.6609 2.50227
-2.98518 1.66358 2.47946
-3.00247 1.65803 2.44167
-3.01742 1.66413 2.44769
-3.02762 1.65976 2.42183
-3.04364 1.66372 2.41889
-3.0578 1.66241 2.39702
-3.06489 1.66125 2.38609
-3.07699 1.66105 2.37218
-3.0811 1.65785 2.35825
-3.09824 1.65758 2.33939
-3.12439 1.6613 2.31952
-3.13246 1.66116 2.30959
-3.17781 1.66251 2.2639
-3.19799 1.66215 2.23906
-3.22322 1.66273 2.20923
-3.23526 1.66465 2.20329
-3.23732 1.66455 2.19631
-3.24539 1.6644 2.18637
-3.25048 1.66223 2.17444
-3.24961 1.65698 2.15751
-3.2567 1.65682 2.14656
-3.26378 1.65566 2.13563
-3.27085 1.65552 2.12569
-3.27489 1.65545 2.12072
-3.28098 1.65428 2.10878
-3.29303 1.65718 2.10183
-3.29713 1.65499 2.08889
-3.30222 1.65382 2.07694
-3.31527 1.65674 2.071
-3.36167 1.65897 2.0173
-3.36179 1.65474 2.00137
-3.37484 1.65766 1.99542
-3.3873 1.64676 1.93467
-3.39438 1.6466 1.92372
1.8033 1.66111 3.32254
1.79541 1.66533 3.33654
1.79055 1.67261 3.35547
-2.70221 1.6623 2.60737
-2.85029 1.66028 2.46449
-2.8745 1.65988 2.43668
-2.89151 1.66486 2.43473
-2.90766 1.66358 2.41487
-2.90474 1.65943 2.40491
-2.92585 1.66122 2.39004
-2.93194 1.65905 2.37812
-2.95702 1.6639 2.36723
-2.96411 1.66375 2.35629
-2.97323 1.66152 2.34039
-3.00142 1.66315 2.31457
-3.01048 1.66304 2.30664
-3.0488 1.66345 2.26492
-3.06594 1.66418 2.24603
-3.07103 1.662 2.2341
-3.08711 1.66485 2.22318
-3.0922 1.66268 2.21125
-3.27184 1.66457 1.99354
-3.27395 1.66236 1.97959
-3.31325 1.66578 1.93883
-3.31437 1.66256 1.92388
-3.36176 1.66582 1.87218
-3.38907 1.66522 1.83039
-3.38017 1.65902 1.81742
-3.38228 1.65582 1.80348
-3.39632 1.66074 1.79751
-3.39046 1.65347 1.77957
1.29915 1.66812 3.43725
1.85352 1.65958 3.08615
1.85676 1.67304 3.11693
1.84581 1.67314 3.12302
3.29388 -0.400983 3.46086
3.29406 -0.400628 3.48485
3.29718 -0.401393 3.50084
3.29332 -0.401109 3.51987
3.28342 -0.400924 3.53194
3.28866 -0.401454 3.56392
3.28077 -0.401226 3.57897
3.27995 -0.40187 3.60299
3.27206 -0.401642 3.61805
3.27215 -0.401464 3.63005
3.27639 -0.402008 3.66103
3.27153 -0.402723 3.68008
3.2697 -0.402381 3.70309
3.2598 -0.402182 3.71616
3.26202 -0.402754 3.74516
3.25818 -0.40344 3.7662
3.25525 -0.40329 3.77622
3.25141 -0.402976 3.79725
3.23223 -0.404347 3.90643
3.05223 -0.414473 4.97108
3.04644 -0.415039 5.00014
3.03963 -0.415664 5.0252
3.02979 -0.415345 5.04628
3.03415 -0.416638 5.09427
3.01723 -0.416477 5.1044
3.01839 -0.416152 5.12638
3.01667 -0.416603 5.16341
3.00987 -0.417198 5.19047
3.00513 -0.417691 5.22452
2.99733 -0.418286 5.25159
2.99157 -0.418822 5.28265
2.99189 -0.419186 5.32566
2.98021 -0.419555 5.36776
2.97242 -0.42012 5.39683
2.96768 -0.420613 5.43088
2.96091 -0.420149 5.46192
2.95719 -0.421598 5.49898
2.95145 -0.421076 5.53402
2.94792 -0.422155 5.59607
2.93034 -0.423312 5.65223
2.9199 -0.424209 5.72633
2.91722 -0.42457 5.76936
2.91538 -0.425258 5.79039
2.90292 -0.426182 5.8625
2.89214 -0.425745 5.89158
2.89049 -0.427062 5.93762
2.87767 -0.426683 5.96272
2.87197 -0.428086 6.00279
2.86546 -0.428119 6.06784
2.85205 -0.429954 6.14598
2.84942 -0.430226 6.19501
2.83762 -0.430817 6.22212
2.83094 -0.43119 6.26418
2.82809 -0.431877 6.28521
2.82649 -0.432091 6.33823
2.8127 -0.432681 6.36535
2.80703 -0.433025 6.4094
2.79221 -0.433659 6.43353
2.79164 -0.4348 6.49156
2.78092 -0.435244 6.52865
2.78523 -0.43564 6.56963
2.76941 -0.436273 6.59376
2.57436 -0.453505 7.78565
2.56174 -0.454756 7.83577
2.56516 -0.455929 7.89177
2.55253 -0.456179 7.94188
2.53786 -0.456517 7.986
2.52834 -0.457577 8.04909
2.51777 -0.45871 8.1072
2.50723 -0.459799 8.1683
2.49774 -0.460785 8.2364
2.49402 -0.461249 8.27244
2.48145 -0.46238 8.33056
2.46993 -0.463439 8.39367
2.45636 -0.46457 8.45179
2.41613 -0.46806 8.68718
2.40363 -0.469059 8.7543
2.39114 -0.470042 8.82242
3.04908 -0.3758 4.94853
3.03925 -0.375467 4.9706
3.02579 -0.376391 5.04273
2.99907 -0.377854 5.21298
2.99533 -0.377348 5.247
2.98752 -0.377972 5.27207
2.95889 -0.379256 5.45433
2.9484 -0.379241 5.52242
2.92727 -0.380507 5.63861
2.92053 -0.380999 5.67268
2.91581 -0.381433 5.71072
2.8966 -0.381864 5.81589
2.88129 -0.382505 5.90703
2.86884 -0.3834 5.98114
2.84584 -0.384413 6.11435
2.82675 -0.385622 6.23453
2.81905 -0.386024 6.2746
2.80282 -0.386487 6.37774
2.79921 -0.386729 6.42878
2.78178 -0.38759 6.50494
2.78122 -0.388716 6.56396
2.58762 -0.399046 7.68173
2.56539 -0.39952 7.78392
2.45346 -0.406441 8.45996
2.98256 -0.347957 5.40768
2.82184 -0.352519 6.3761
2.58525 -0.359849 7.76218
2.56407 -0.360235 7.87036
2.55144 -0.360485 7.92046
2.53884 -0.360691 7.97357
2.54331 -0.360776 8.03555
2.52865 -0.361084 8.08167
2.52117 -0.362056 8.15075
2.50552 -0.362364 8.19688
2.49396 -0.362496 8.25497
2.48242 -0.362585 8.31607
2.47294 -0.362541 8.38615
2.45732 -0.362789 8.43628
2.45875 -0.363931 8.49429
2.44827 -0.363902 8.56338
2.4337 -0.364062 8.6195
2.41709 -0.364279 8.67164
2.37801 -0.366459 8.928
2.36352 -0.366457 8.99512
2.3521 -0.367308 9.07223
3.05031 -0.300454 4.97141
3.04352 -0.300049 4.99846
3.03671 -0.300659 5.02452
3.03194 -0.300197 5.05556
3.02616 -0.299778 5.0836
3.03137 -0.300352 5.11257
3.0185 -0.300091 5.12967
3.01778 -0.299543 5.16667
3.00795 -0.300195 5.18976
3.00016 -0.299789 5.21681
2.99743 -0.299254 5.25283
3.00179 -0.299547 5.30081
2.9796 -0.298946 5.40798
2.97114 -0.298873 5.48005
2.96641 -0.299337 5.5161
2.93279 -0.298587 5.70037
2.92604 -0.298094 5.73342
2.90131 -0.298588 5.90163
2.89459 -0.298035 5.93868
2.88887 -0.297468 5.97672
2.87687 -0.297474 5.97581
2.86546 -0.297296 6.05491
2.86383 -0.297569 6.10393
2.84594 -0.297334 6.11906
2.84292 -0.297406 6.2491
2.82604 -0.297157 6.26523
2.82851 -0.297241 6.32722
2.80903 -0.297205 6.39638
2.7967 -0.296878 6.48548
2.78775 -0.296768 6.49254
2.79026 -0.296762 6.56053
2.56381 -0.294819 7.83039
2.5532 -0.295056 7.88148
2.54263 -0.295189 7.93957
2.49771 -0.294069 8.21593
2.48716 -0.294173 8.27602
2.46614 -0.294232 8.40619
2.45258 -0.294364 8.46431
2.42484 -0.29387 8.63153
3.3096 -0.280704 3.41195
3.30272 -0.280462 3.428
3.29786 -0.281191 3.44605
3.30106 -0.280794 3.47302
3.2952 -0.280523 3.49107
3.29326 -0.280388 3.50008
3.29446 -0.280004 3.52607
3.29162 -0.279691 3.54709
3.28272 -0.279492 3.56015
3.28089 -0.28015 3.58318
3.28007 -0.279794 3.60719
3.27319 -0.279552 3.62324
3.28036 -0.279232 3.64518
3.27449 -0.278961 3.66322
3.2646 -0.278747 3.6773
3.26781 -0.278334 3.70527
3.26296 -0.278035 3.7253
3.26215 -0.278649 3.75132
3.02191 -0.267327 5.18116
3.00055 -0.267067 5.26533
2.99884 -0.266489 5.30434
2.99324 -0.2667 5.35739
2.97023 -0.265728 5.48957
2.94338 -0.264458 5.64178
2.93294 -0.264354 5.71586
2.92047 -0.263294 5.78695
2.89844 -0.262382 5.91512
2.88297 -0.26232 5.98625
2.87726 -0.261753 6.02429
2.8486 -0.261081 6.20352
2.83421 -0.260886 6.28363
2.82367 -0.259975 6.34471
2.81133 -0.259663 6.43281
2.80466 -0.259006 6.47686
2.79291 -0.258509 6.50994
2.77934 -0.258655 6.56705
2.58936 -0.25179 7.76555
2.57876 -0.250983 7.81962
2.56819 -0.251131 7.87671
2.53276 -0.250025 8.08499
2.51914 -0.249275 8.13509
2.50861 -0.249334 8.19818
2.49603 -0.248496 8.25427
2.49642 -0.248726 8.30628
2.47232 -0.247946 8.42546
2.4598 -0.246989 8.48955
2.45035 -0.246901 8.56263
2.43372 -0.246178 8.61075
2.42224 -0.246133 8.68085
2.42268 -0.246274 8.73886
2.40708 -0.245478 8.79197
2.39462 -0.245403 8.86407
2.38113 -0.244401 8.93117
2.36556 -0.244531 8.9893
2.33966 -0.24335 9.13549
2.33811 -0.243475 9.19452
2.32261 -0.242471 9.26163
2.31021 -0.242292 9.34073
3.29684 -0.245269 3.44053
3.27399 -0.244001 3.5927
3.25678 -0.242434 3.69782
3.24899 -0.242013 3.72588
3.25524 -0.241529 3.75883
3.23847 -0.241058 3.78995
3.23484 -0.24033 3.83897
3.09075 -0.228646 4.75701
3.048 -0.227171 4.92234
3.03555 -0.226081 4.99542
2.96182 -0.220601 5.42996
2.91402 -0.217242 5.72231
2.58596 -0.192653 7.70669
2.56169 -0.149278 7.93326
2.4832 -0.141336 8.3988
2.44292 -0.13793 8.62709
2.43144 -0.1369 8.69617
2.41999 -0.135811 8.76925
2.40235 -0.135087 8.81738
2.40282 -0.134169 8.87937
2.37584 -0.132151 9.01456
2.36339 -0.130061 9.08763
2.34788 -0.129072 9.15374
2.33237 -0.128113 9.21785
2.31686 -0.127139 9.28297
2.31635 -0.126162 9.34896
2.29573 -0.125406 9.39912
3.29895 -0.190128 3.44969
3.29207 -0.189886 3.46574
3.29537 -0.188296 3.5057
3.29152 -0.188012 3.52473
3.27959 -0.187856 3.53482
3.29088 -0.187301 3.57273
3.27391 -0.187229 3.57686
3.27107 -0.186916 3.59788
3.27126 -0.186532 3.62387
3.27841 -0.186241 3.64382
3.26953 -0.186012 3.65888
3.26062 -0.185813 3.67195
3.26789 -0.1843 3.70688
3.25193 -0.1842 3.713
3.24708 -0.183915 3.73203
3.24939 -0.183295 3.77401
3.25161 -0.182867 3.80299
3.24979 -0.18251 3.827
3.23909 -0.181925 3.86608
3.0632 -0.158879 4.94221
3.0493 -0.158661 4.95632
3.03092 -0.157434 5.03845
3.02717 -0.156942 5.07147
3.02225 -0.155776 5.0825
3.02863 -0.15504 5.13244
3.01373 -0.154837 5.14555
3.01099 -0.154317 5.18057
3.00117 -0.153954 5.20464
2.99743 -0.152448 5.23866
2.99064 -0.152028 5.2667
2.99282 -0.151675 5.29069
2.9884 -0.150531 5.36771
2.98567 -0.148996 5.40372
2.96774 -0.14885 5.41285
2.95996 -0.148415 5.44191
2.9603 -0.147749 5.4869
2.96148 -0.147394 5.51089
2.95979 -0.145786 5.55188
2.94694 -0.14548 5.57198
2.94729 -0.144785 5.61897
2.93345 -0.144478 5.63907
2.93175 -0.14387 5.68008
2.924 -0.142376 5.71312
2.92621 -0.141978 5.74011
2.91744 -0.141512 5.77117
2.90866 -0.141076 5.80023
2.90193 -0.140538 5.83628
2.89317 -0.139073 5.86733
2.88847 -0.138477 5.90736
2.88072 -0.137968 5.94142
2.8809 -0.137613 5.96541
2.87318 -0.137059 6.00247
2.86749 -0.135463 6.04249
2.86686 -0.134722 6.09249
2.84999 -0.134458 6.10962
2.84267 -0.13212 6.19965
2.84491 -0.131648 6.23163
2.82542 -0.130642 6.29877
2.81568 -0.129117 6.33383
2.81205 -0.128388 6.38285
2.80231 -0.127863 6.41792
2.79768 -0.126134 6.46694
2.79079 -0.125922 6.48099
2.78106 -0.125382 6.51706
2.77439 -0.124725 6.56111
2.5743 -0.0990921 7.7434
2.55517 -0.0963754 7.85852
3.18957 -0.141065 4.19189
3.17498 -0.13924 4.24698
3.15302 -0.136181 4.38512
3.14442 -0.134405 4.43717
3.13202 -0.132211 4.51724
3.12733 -0.131601 4.55827
3.11874 -0.12978 4.61332
3.10814 -0.129002 4.66539
3.09665 -0.126987 4.73346
3.09085 -0.126583 4.7605
3.08127 -0.124762 4.81556
3.07547 -0.124358 4.8426
3.06057 -0.124154 4.85571
3.06983 -0.122658 4.88962
3.06099 -0.122326 4.91168
2.83464 -0.0892376 6.19108
3.31771 -0.124697 3.41158
3.05037 -0.0786413 4.95712
3.04473 -0.0769265 5.00515
3.04197 -0.0764507 5.03717
3.02837 -0.074656 5.09025
3.03071 -0.0729915 5.13521
3.01175 -0.0729037 5.14036
3.00543 -0.0695665 5.23037
2.99794 -0.0675543 5.2984
2.99523 -0.0669896 5.33642
2.9854 -0.065642 5.35948
2.97879 -0.063882 5.41051
2.96526 -0.0619394 5.47359
2.9568 -0.0598672 5.54563
2.94718 -0.0581199 5.59569
2.93671 -0.0560758 5.66574
2.9222 -0.0541028 5.73083
2.91076 -0.0519988 5.8049
2.90116 -0.0502071 5.85795
2.8877 -0.0481461 5.92903
2.88809 -0.0463764 5.98101
2.86774 -0.0430884 6.06713
2.84193 -0.0377302 6.22526
2.82244 -0.035724 6.29239
2.82004 -0.0335377 6.37239
2.81234 -0.0319399 6.41243
2.79853 -0.0305598 6.43751
2.7862 -0.028233 6.52659
2.78284 -0.0249869 6.61057
2.61133 0.00782551 7.60352
2.58462 0.0133768 7.77466
2.57299 0.0151107 7.82373
2.56035 0.0168306 7.8718
2.54876 0.0186386 7.92587
2.5522 0.0204948 7.98383
2.53957 0.0222295 8.0329
2.529 0.024096 8.09096
2.51643 0.0259342 8.14704
2.50587 0.0278155 8.2061
2.4933 0.0306537 8.26216
2.48072 0.032492 8.31823
2.48112 0.0342764 8.37121
2.46856 0.0361443 8.42929
2.45601 0.0380418 8.48936
2.44347 0.0399541 8.55044
2.41681 0.0455942 8.72758
2.40123 0.0484346 8.78366
2.39183 0.0506111 8.86271
3.30088 -0.0983914 3.43132
3.304 -0.0981567 3.44729
3.2973 -0.0965596 3.48733
3.29244 -0.0962896 3.50536
3.29061 -0.0949477 3.52836
3.28272 -0.0947347 3.54242
3.28594 -0.0943076 3.57139
3.28401 -0.0941581 3.5814
3.28319 -0.0928022 3.60539
3.28237 -0.0924462 3.6294
3.27146 -0.0922606 3.64148
3.25974 -0.0907191 3.67755
3.26396 -0.089278 3.7075
3.26406 -0.0890856 3.7205
3.26326 -0.0887 3.7465
3.25336 -0.0875004 3.75956
3.24164 -0.0869292 3.79765
3.23478 -0.0866576 3.8157
3.24306 -0.0851159 3.85262
3.23529 -0.0836513 3.88366
3.23166 -0.0819232 3.93267
3.04483 -0.0447672 5.01567
3.04092 -0.0445867 5.0277
3.03038 -0.0426758 5.08876
3.02389 -0.0396792 5.15578
3.00727 -0.0389119 5.2069
2.99793 -0.035617 5.29393
2.98066 -0.0321683 5.39102
2.9673 -0.0289149 5.47509
2.95311 -0.0253055 5.58315
2.94063 -0.0222897 5.65121
2.93083 -0.0218827 5.67828
2.91015 -0.0152767 5.85337
2.86233 -0.00397798 6.1416
2.82967 0.00268118 6.31977
2.82298 0.00329318 6.36082
2.81326 0.00484804 6.39787
2.80759 0.00650361 6.4419
2.79811 0.00951724 6.50993
2.79144 0.0111735 6.55397
2.7797 0.0127002 6.58904
2.60829 0.0507046 7.5949
2.59219 0.0544782 7.71399
2.58195 0.0589661 7.81401
2.57239 0.0608467 7.87306
2.55976 0.0625665 7.92114
2.55228 0.0656083 7.99116
2.54171 0.0674599 8.04822
2.52706 0.0691517 8.09431
2.51691 0.0738172 8.20634
2.49178 0.0785381 8.32147
2.48232 0.081611 8.39351
2.46564 0.082245 8.43563
2.45928 0.086508 8.52062
2.4556 0.0881325 8.56263
2.4285 0.0919142 8.6818
2.42012 0.0951491 8.76483
2.40043 0.0967557 8.80496
2.39104 0.0999618 8.88599
2.37446 0.102803 8.94208
2.37906 0.105984 9.02201
2.35734 0.106533 9.05817
2.34905 0.110945 9.15318
2.33045 0.112729 9.2053
3.31279 -0.0686106 3.41679
3.30995 -0.0682976 3.43781
3.30609 -0.0680135 3.45683
3.2972 -0.0667998 3.47088
3.29032 -0.0665578 3.48694
3.29352 -0.0661604 3.51391
3.29563 -0.0649547 3.52788
3.28774 -0.0647268 3.54294
3.28995 -0.0633287 3.5699
3.28711 -0.0630157 3.59092
3.28326 -0.061702 3.61193
3.27638 -0.0614601 3.62798
3.27052 -0.0611893 3.64603
3.27465 -0.0599407 3.66298
3.27383 -0.0595847 3.68698
3.26715 -0.057958 3.72902
3.25625 -0.0577427 3.7431
3.25442 -0.0564157 3.76509
3.25362 -0.0550303 3.79108
3.23251 -0.051253 3.9102
3.06127 -0.0119231 4.93805
3.04839 -0.0106769 4.95413
3.04057 -0.0103306 4.97719
3.03479 -0.0088971 5.00622
3.03001 -0.00744949 5.03624
3.02524 -0.00700178 5.06627
3.01946 -0.00556825 5.09529
3.01759 -0.00531515 5.11231
3.01281 -0.00386754 5.14233
3.00907 -0.00236146 5.17634
3.00227 -0.000956804 5.20337
2.99752 0.000520407 5.23539
2.98039 0.00525027 5.35146
2.97767 0.00680004 5.38847
2.96886 0.00717665 5.41353
2.96311 0.00866939 5.44656
2.94958 0.0115971 5.50862
2.94384 0.0131195 5.54365
2.94604 0.0135029 5.56963
2.9403 0.0150104 5.60366
2.93354 0.0164891 5.63569
2.92882 0.0180551 5.67371
2.92004 0.0194908 5.70276
2.90472 0.0228197 5.79184
2.89531 0.0259813 5.86987
2.88756 0.0274903 5.90391
2.88185 0.0290571 5.94194
2.87411 0.0305661 5.97598
2.86739 0.0321336 6.01401
2.86353 0.0334028 6.03202
2.85985 0.0350421 6.07503
2.85417 0.0366681 6.11706
2.84746 0.0382356 6.15509
2.83 0.0412994 6.22618
2.82148 0.0442531 6.29021
2.81274 0.0447778 6.32528
2.80607 0.0474191 6.36829
2.55839 0.111777 7.86741
2.54781 0.114614 7.92346
2.53621 0.116407 7.97653
2.52975 0.119463 8.04754
2.49339 0.129702 8.26469
2.47439 0.135685 8.39777
2.41012 0.151076 8.75907
2.31107 0.180845 9.41447
2.83545 0.0911193 6.28141
2.80285 0.0998819 6.46656
2.79618 0.101538 6.51059
2.79258 0.104325 6.56358
2.7734 0.109953 6.67266
2.75708 0.114297 6.76273
2.60122 0.160386 7.70735
2.58858 0.163106 7.75541
2.56845 0.168823 7.87049
2.53611 0.179089 8.08962
2.52555 0.181955 8.14766
2.51502 0.185895 8.21069
2.49939 0.187617 8.25879
2.48722 0.193255 8.36881
2.45062 0.203035 8.55497
2.43708 0.205933 8.61504
2.4256 0.208963 8.68409
2.42398 0.211719 8.73507
2.41151 0.215749 8.80411
2.40004 0.218809 8.87516
2.38345 0.22162 8.92925
2.36997 0.224652 8.99832
2.35652 0.228727 9.07037
2.34045 0.23456 9.19342
2.32804 0.238739 9.27246
2.31154 0.242728 9.33854
3.06026 0.0639509 4.92894
3.04259 0.0666151 4.97304
3.03883 0.0680915 5.00505
3.02497 0.0753371 5.15606
3.01646 0.0792907 5.22008
2.99627 0.0839043 5.32818
2.99255 0.0864399 5.36417
2.98578 0.0879037 5.39521
2.94704 0.0963894 5.5614
2.9447 0.100694 5.64936
2.94183 0.101948 5.66637
2.92631 0.104892 5.72945
2.91688 0.109024 5.80547
2.91218 0.110619 5.84549
2.86695 0.123116 6.07967
2.86228 0.125756 6.12268
2.8357 0.135559 6.31076
2.8203 0.139739 6.38982
2.81134 0.139835 6.39589
2.80773 0.142592 6.44688
2.79189 0.14293 6.469
2.78875 0.149605 6.58194
2.76422 0.15254 6.64409
2.7614 0.153898 6.6681
2.75526 0.16059 6.78206
2.68834 0.182664 7.18929
2.66395 0.18688 7.27042
2.66729 0.189544 7.31537
2.64805 0.195039 7.41544
2.6364 0.196728 7.46151
2.62881 0.200548 7.51652
2.61409 0.202106 7.55361
2.60654 0.204985 7.61264
2.6079 0.207695 7.66059
2.59216 0.210209 7.69468
2.58464 0.213162 7.7587
2.57609 0.217042 7.81772
2.56139 0.218645 7.85781
2.5498 0.221453 7.91186
2.54025 0.225333 7.97088
2.54061 0.228043 8.01885
2.53415 0.232099 8.08985
2.52259 0.234966 8.1479
2.50897 0.237731 8.19897
2.49741 0.240598 8.25702
2.4879 0.244567 8.32204
2.47228 0.247319 8.37213
2.47164 0.25003 8.4201
2.46116 0.254044 8.48813
2.44654 0.25681 8.5392
2.42356 0.263825 8.67429
2.39797 0.274597 8.86035
2.38449 0.278613 8.9284
2.36893 0.281498 8.98748
2.3575 0.285617 9.06252
3.29641 0.0254869 3.48953
3.30265 0.027956 3.52145
3.29174 0.0281416 3.53353
3.28174 0.0281489 3.5336
3.27789 0.0284479 3.55363
3.27808 0.0298178 3.57861
3.26371 0.034057 3.66167
3.27491 0.0354486 3.68857
3.25794 0.0355202 3.6927
3.2541 0.0368338 3.71371
3.25934 0.0383038 3.74565
3.24086 0.0413239 3.81376
3.24005 0.0427094 3.83975
3.22532 0.0442383 3.87484
3.18245 0.0584443 4.15699
3.18975 0.0610311 4.1969
3.17785 0.0612322 4.20999
3.17302 0.0625762 4.23301
3.17427 0.0640639 4.26598
3.16339 0.0652938 4.28105
3.15767 0.0668606 4.31907
3.15185 0.0682053 4.3421
3.15411 0.0697218 4.37707
3.14323 0.0709517 4.39213
3.14548 0.0724534 4.4261
3.13461 0.073713 4.44316
3.13043 0.0793149 4.55113
3.10631 0.0850645 4.66824
3.09266 0.0877554 4.71431
3.08383 0.0890875 4.73636
3.08916 0.091735 4.78029
3.07424 0.0919087 4.7914
3.0754 0.0932039 4.81137
3.07567 0.0947515 4.84835
3.06583 0.0960547 4.86841
3.06612 0.0976319 4.90739
3.05222 0.0988344 4.92048
3.04745 0.100282 4.9505
3.04079 0.102968 4.99651
3.03328 0.105921 5.06054
3.01697 0.11128 5.15159
3.00916 0.11267 5.17763
3.00628 0.112895 5.19265
3.00457 0.115473 5.23163
3.00184 0.118008 5.26762
2.98898 0.118284 5.28572
2.99437 0.12205 5.33763
2.98355 0.122398 5.36071
2.97271 0.123732 5.38277
2.97695 0.126187 5.41371
2.97221 0.127694 5.44773
2.96275 0.131767 5.51975
2.96107 0.13439 5.56173
2.94822 0.134695 5.58182
2.94451 0.137275 5.62082
2.94164 0.138529 5.63782
2.93388 0.139994 5.66886
2.92816 0.14256 5.70687
2.92141 0.144054 5.73991
2.91975 0.146721 5.78489
2.911 0.148201 5.81694
2.89715 0.149507 5.83702
2.90039 0.150979 5.86898
2.88858 0.152357 5.89405
2.89303 0.156242 5.95397
2.88327 0.157708 5.98503
2.87554 0.160247 6.02105
2.86679 0.161742 6.0541
2.85827 0.165681 6.11712
2.83774 0.168628 6.18024
2.82945 0.174011 6.27323
2.80919 0.179476 6.37132
2.80149 0.182074 6.41134
2.79482 0.184716 6.45436
2.79019 0.187459 6.50436
2.76028 0.195598 6.64748
2.75567 0.199371 6.69947
2.7521 0.202217 6.75646
2.7373 0.203628 6.78356
2.73169 0.207387 6.83455
2.72814 0.210263 6.89354
2.72051 0.213008 6.94357
2.7218 0.21557 6.98152
2.71111 0.21817 7.02157
2.69737 0.219698 7.05666
2.68873 0.223415 7.10467
2.68624 0.227408 7.17164
2.66843 0.228791 7.19676
2.66389 0.231698 7.25776
2.66725 0.235391 7.30469
2.64944 0.236789 7.3308
2.64495 0.240784 7.39779
2.6333 0.243473 7.44384
2.61203 0.248925 7.54093
2.59868 0.254193 7.62597
2.58705 0.256941 7.67602
2.58361 0.261039 7.75
2.57098 0.264759 7.79805
2.53449 0.276746 7.99817
2.52395 0.279657 8.05922
3.31091 0.0544661 3.42098
3.31412 0.0558635 3.44794
3.30622 0.0570764 3.46198
3.30438 0.0583886 3.48298
3.30649 0.0585944 3.49696
3.29558 0.0587801 3.50904
3.29375 0.0601219 3.53204
3.29292 0.0614481 3.55403
3.28201 0.0616338 3.56611
3.28018 0.0629608 3.58811
3.27733 0.0642737 3.60911
3.27844 0.0654801 3.62309
3.26892 0.0684197 3.68613
3.26609 0.0697623 3.70913
3.2572 0.0699908 3.7242
3.24831 0.0712045 3.73825
3.25042 0.0714251 3.75323
3.25163 0.0728239 3.7802
3.2387 0.0729814 3.7903
3.24295 0.075452 3.82224
3.2381 0.0767515 3.84226
3.22821 0.0769809 3.85733
3.22639 0.0783375 3.88133
3.2366 0.0807296 3.90822
3.23175 0.0810293 3.92825
3.22287 0.0822726 3.9443
3.22611 0.083744 3.97626
3.22128 0.0850732 3.99828
3.21744 0.0864016 4.02029
3.21463 0.0877738 4.0453
3.19922 0.0919397 4.12336
3.19742 0.0933259 4.14936
3.18755 0.0945847 4.16642
3.18574 0.0959709 4.19241
3.17688 0.0962439 4.21048
3.18305 0.0985798 4.2334
3.17924 0.0999527 4.25841
3.16835 0.100168 4.27249
3.16454 0.101541 4.29751
3.15669 0.102843 4.31755
3.15389 0.104229 4.34355
3.14908 0.105603 4.36857
3.14515 0.105754 4.3786
3.14336 0.10717 4.4066
3.13754 0.108515 4.42963
3.13373 0.109902 4.45564
3.11627 0.113966 4.52672
3.12146 0.116332 4.55165
3.0982 0.1218 4.64976
3.06276 0.132875 4.85589
3.05696 0.135279 4.8829
3.06015 0.136632 4.90686
3.05537 0.13808 4.93688
3.0516 0.140526 4.96687
3.04379 0.141902 4.99191
3.03395 0.142235 5.01399
3.02918 0.144683 5.04399
3.02542 0.146159 5.076
3.02354 0.147382 5.091
3.01574 0.148788 5.11804
3.00146 0.154205 5.21308
2.9921 0.159455 5.29709
2.83713 0.217319 6.22653
2.82172 0.221485 6.30459
2.78809 0.233204 6.4867
2.76606 0.241115 6.61476
2.74333 0.252603 6.78179
2.73568 0.25529 6.82781
2.72802 0.257976 6.87384
2.72445 0.261823 6.93081
2.70967 0.263263 6.95991
2.70205 0.267008 7.00992
2.69442 0.269739 7.05894
2.69777 0.273418 7.10487
2.68607 0.276018 7.14492
2.67845 0.278749 7.19395
2.66677 0.281394 7.237
2.6561 0.285053 7.28103
2.64852 0.287873 7.33605
2.64022 0.294255 7.42904
2.6306 0.298003 7.47906
2.61895 0.300692 7.52511
2.60833 0.30344 7.57516
2.59975 0.30726 7.63018
2.58914 0.311038 7.68221
2.56521 0.320157 7.82427
2.55462 0.323949 7.8773
2.54405 0.327816 7.93533
2.5345 0.331696 7.99436
2.50016 0.345963 8.21343
2.48859 0.349815 8.27047
2.47808 0.353785 8.3355
2.42937 0.37429 8.63761
2.41994 0.379407 8.71261
2.4064 0.38332 8.77366
2.36635 0.401168 9.03174
3.30324 0.0830758 3.46162
3.2914 0.0843953 3.48269
3.27619 0.0899607 3.58774
3.26677 0.0940927 3.66376
3.26495 0.0964492 3.68774
3.25505 0.0966489 3.70081
3.25424 0.0980196 3.7258
3.2615 0.100532 3.76072
3.2515 0.10054 3.76079
3.24968 0.101896 3.78479
3.24787 0.103268 3.80979
3.24101 0.103539 3.82784
3.23717 0.104853 3.84885
3.23535 0.106209 3.87285
3.22648 0.107468 3.8899
3.22758 0.108674 3.90387
3.22275 0.109003 3.92591
3.22599 0.111474 3.95785
3.22115 0.112789 3.97887
3.22136 0.114203 4.00685
3.21249 0.115461 4.0239
3.20866 0.11679 4.04591
3.21079 0.118055 4.06388
3.1999 0.11827 4.07796
3.20035 0.122143 4.13691
3.19552 0.123487 4.15993
3.18362 0.123688 4.17302
3.18384 0.126117 4.20198
3.18093 0.126297 4.214
3.1761 0.127641 4.23702
3.16545 0.13033 4.28307
3.16164 0.131702 4.30808
3.1639 0.134219 4.34303
3.15099 0.134391 4.35413
3.15426 0.136922 4.39007
3.15135 0.138101 4.40208
3.13643 0.13826 4.41219
3.13364 0.139677 4.44019
3.12189 0.150128 4.60515
3.10141 0.154164 4.67425
3.09967 0.156669 4.70824
3.08542 0.163159 4.80826
3.0776 0.16452 4.8323
3.07385 0.165997 4.86431
3.06312 0.168537 4.90036
2.99003 0.19329 5.2856
2.954 0.210165 5.54566
2.94116 0.211485 5.56674
2.93883 0.216804 5.65569
2.92635 0.22182 5.72372
2.91574 0.224597 5.77576
2.89962 0.233326 5.89177
2.88374 0.233574 5.90789
2.89025 0.238561 5.97478
2.84573 0.25148 6.16995
2.8431 0.255207 6.21892
2.82951 0.258017 6.27299
2.82384 0.261672 6.31698
2.81511 0.263211 6.35303
2.80741 0.266809 6.39304
2.79973 0.269436 6.43506
2.78232 0.274603 6.51313
2.79275 0.27844 6.57
2.78101 0.280951 6.60406
2.77028 0.283477 6.63911
2.76466 0.287236 6.6901
2.75803 0.289952 6.73812
2.7473 0.292492 6.77417
2.74068 0.296237 6.82417
2.73431 0.301485 6.90815
2.72568 0.305202 6.95616
2.71498 0.307802 6.99621
2.70533 0.31149 7.04224
2.69668 0.314177 7.08827
2.68906 0.317937 7.13928
2.69038 0.320558 7.18123
2.66149 0.33074 7.32732
2.65389 0.33453 7.38033
2.64327 0.338278 7.43036
2.63468 0.342084 7.48438
2.6213 0.348307 7.5664
2.61274 0.352187 7.62541
2.6001 0.354892 7.67247
2.58948 0.358654 7.72351
2.57786 0.362403 7.77354
2.56524 0.366152 7.82359
2.56865 0.369949 7.87752
2.55604 0.373713 7.92856
2.54342 0.376462 7.97862
2.53698 0.382577 8.05359
2.52541 0.386414 8.10963
2.5118 0.390194 8.16168
2.4982 0.392974 8.21375
2.5027 0.398962 8.28064
2.4891 0.401742 8.33271
2.47759 0.406712 8.39773
2.46605 0.411623 8.45875
2.45249 0.415492 8.51681
2.44101 0.420521 8.58583
2.42953 0.425536 8.65385
2.42688 0.428219 8.69983
2.41543 0.433308 8.77286
2.40294 0.438309 8.83989
2.38944 0.443296 8.90592
2.37287 0.447151 8.963
2.36353 0.453446 9.04999
2.34438 0.462118 9.16202
2.32887 0.466091 9.22709
2.31132 0.480931 9.41803
3.30297 0.116495 3.42212
3.29903 0.116616 3.43015
3.29819 0.117942 3.45214
3.29856 0.120653 3.5001
3.28764 0.120823 3.51119
3.29186 0.12325 3.54012
3.28406 0.124655 3.56716
3.27417 0.125869 3.58122
3.27353 0.12858 3.62919
3.26766 0.129836 3.64622
3.26602 0.132548 3.6942
3.26209 0.132684 3.70323
3.25441 0.135312 3.74525
3.24753 0.136553 3.76129
3.24389 0.139267 3.80928
3.234 0.140481 3.82334
3.23027 0.142002 3.85835
3.22642 0.143316 3.87936
3.22967 0.145787 3.91131
3.222 0.148444 3.95533
3.21211 0.149673 3.97039
3.21243 0.152294 4.01235
3.20658 0.153595 4.03238
3.19692 0.156253 4.07642
3.19613 0.157668 4.10441
3.18544 0.160298 4.14646
3.1886 0.162591 4.1664
3.17669 0.162792 4.17949
3.17793 0.16525 4.21045
3.1731 0.166594 4.23347
3.16547 0.169325 4.28249
3.16257 0.170505 4.2945
3.15495 0.173266 4.34552
3.14911 0.174581 4.36655
3.12872 0.179795 4.44764
3.12897 0.182283 4.4806
3.12112 0.18357 4.49965
3.11353 0.187389 4.55466
3.1071 0.192504 4.62964
3.09825 0.193807 4.64969
3.08662 0.196541 4.69874
3.07542 0.204103 4.80373
3.06079 0.206839 4.85281
3.03024 0.220688 5.04386
2.93583 0.263742 5.65101
2.92907 0.26522 5.68305
2.85994 0.292866 6.06121
2.85343 0.297833 6.1262
2.81587 0.311672 6.3163
2.75846 0.336776 6.65841
2.74721 0.34425 6.7574
2.66757 0.377865 7.20056
2.65821 0.38413 7.28555
2.64654 0.387789 7.32959
2.59776 0.410162 7.62267
2.78614 0.371086 6.61269
2.77848 0.373743 6.65671
2.50582 0.506052 8.28603
2.43308 0.541469 8.71611
2.40503 0.551339 8.8412
2.3775 0.567231 9.0352
2.35992 0.572072 9.09126
2.34852 0.57925 9.17025
2.33405 0.584282 9.2393
2.31856 0.590299 9.30734
2.31806 0.596262 9.37226
3.31518 0.17582 3.44415
3.29499 0.182433 3.55222
3.29215 0.184731 3.57221
3.28546 0.187358 3.61423
3.272 0.192419 3.68527
3.25827 0.193947 3.72035
3.2635 0.196402 3.75128
3.25957 0.197538 3.7603
3.25976 0.198908 3.78528
3.25189 0.200165 3.80232
3.23917 0.202722 3.83938
3.23856 0.206492 3.89134
3.22978 0.207928 3.92039
3.22314 0.211629 3.96739
3.21749 0.215328 4.01438
3.2066 0.215544 4.02846
3.20772 0.21678 4.04444
3.20389 0.218123 4.06745
3.19704 0.219409 4.08649
3.19726 0.221853 4.11645
3.1894 0.223125 4.1345
3.18052 0.224368 4.15055
3.1767 0.225726 4.17456
3.18288 0.228062 4.19748
3.17301 0.228321 4.21455
3.17525 0.231793 4.24649
3.1674 0.233095 4.26653
3.16257 0.234439 4.28955
3.15473 0.235741 4.3096
3.1499 0.237085 4.33261
3.148 0.238278 4.34561
3.14319 0.239652 4.37063
3.14342 0.24311 4.40158
3.12215 0.249547 4.49766
3.12848 0.253179 4.54057
3.11443 0.2521 4.53469
3.1248 0.256818 4.58355
3.11217 0.260538 4.63159
3.10763 0.265444 4.69256
3.09183 0.266855 4.71967
3.08326 0.27069 4.77568
3.07167 0.274498 4.82972
3.06384 0.276844 4.85275
3.0592 0.280543 4.89973
3.04761 0.284365 4.95477
3.04008 0.289289 5.01676
2.99878 0.306634 5.24085
2.99419 0.311437 5.29482
2.98538 0.312813 5.31987
2.97962 0.315291 5.35188
2.9588 0.3286 5.50686
2.95305 0.331108 5.54087
2.94934 0.333673 5.57887
2.93177 0.338529 5.63594
