2.43853 0.714876 8.19993
2.43217 0.724109 8.28285
2.41445 0.727684 8.32094
2.42002 0.73579 8.39578
2.4044 0.741526 8.44482
2.39392 0.748555 8.51381
2.37525 0.75322 8.55789
2.37097 0.762614 8.65179
2.34292 0.776484 8.77681
2.33824 0.781109 8.81879
2.78019 0.551655 6.17449
2.77248 0.556223 6.21248
2.76783 0.560907 6.25846
2.75808 0.564418 6.29248
2.75344 0.569117 6.33945
2.74573 0.572685 6.37747
2.73726 0.580727 6.44742
2.7316 0.585397 6.4924
2.72394 0.590053 6.53639
2.71422 0.593623 6.57442
2.70655 0.598265 6.61742
2.70194 0.604023 6.66837
2.69455 0.612212 6.74832
2.68382 0.616752 6.78434
2.6665 0.626082 6.87334
2.66498 0.63303 6.93726
2.6492 0.635471 6.96634
2.64872 0.643477 7.03424
2.64185 0.644734 7.05127
2.62562 0.65624 7.15224
2.60327 0.664529 7.2383
2.60078 0.672537 7.30621
2.58606 0.676081 7.34227
2.57879 0.686521 7.43918
2.55959 0.698089 7.54417
2.53938 0.709643 7.64817
2.53392 0.717697 7.7191
2.5281 0.720042 7.74211
2.50695 0.731715 7.85411
2.48786 0.745504 7.97407
2.47937 0.752502 8.04104
2.46779 0.758324 8.09605
2.43044 0.782577 8.314
2.41892 0.789518 8.37699
2.4033 0.795269 8.42703
2.39488 0.8034 8.50299
2.39323 0.809082 8.54892
2.3672 0.822995 8.67693
2.35469 0.829966 8.74193
3.31236 0.29075 3.03091
3.30949 0.292004 3.04791
3.2951 0.299213 3.12893
3.29326 0.30051 3.14892
3.2846 0.304183 3.19394
3.27402 0.309019 3.24996
3.27042 0.313791 3.30192
3.26454 0.315032 3.31795
3.25699 0.319926 3.37794
3.24635 0.323629 3.42497
3.24552 0.32597 3.44795
3.24873 0.329367 3.47488
3.23901 0.331922 3.51192
3.22424 0.334392 3.543
3.22636 0.335627 3.55896
3.22453 0.337954 3.58095
3.21785 0.34158 3.62295
3.21199 0.342851 3.64098
3.21319 0.34525 3.66794
3.21449 0.349841 3.70786
3.19652 0.348913 3.71201
3.19874 0.352326 3.73995
3.18985 0.352555 3.75502
3.19813 0.357096 3.79189
3.18419 0.357225 3.8
3.18945 0.360724 3.83391
3.17643 0.359689 3.83102
3.17763 0.363088 3.85797
3.16795 0.366716 3.89999
3.16917 0.369145 3.92895
3.16534 0.371488 3.95195
3.15344 0.371674 3.96404
3.15982 0.377424 4.01491
3.14489 0.377568 4.02402
3.15016 0.382082 4.05892
3.13725 0.382269 4.07102
3.13747 0.384698 4.09998
3.12859 0.385942 4.11603
3.13679 0.38932 4.14193
3.12209 0.392923 4.18199
3.12737 0.397467 4.21889
3.12155 0.398811 4.24191
3.11267 0.400055 4.25796
3.09811 0.405924 4.31599
3.1034 0.410497 4.35489
3.08948 0.410655 4.365
3.09378 0.415244 4.4049
3.07884 0.414373 4.41303
3.0801 0.418875 4.44696
3.07416 0.418998 4.455
3.07847 0.423587 4.49491
3.06253 0.423717 4.50303
3.06683 0.428306 4.54293
3.05291 0.428479 4.55403
3.05622 0.433068 4.59395
3.0546 0.438809 4.64388
3.03663 0.437897 4.64903
3.04196 0.442529 4.69193
3.03617 0.445933 4.71892
3.03239 0.448379 4.74892
3.02457 0.450725 4.77195
3.01877 0.453114 4.79796
3.01399 0.456547 4.82695
3.02021 0.459972 4.85586
3.01035 0.46126 4.87491
2.9998 0.467141 4.93391
2.99401 0.470559 4.96191
2.99025 0.473036 4.99391
2.98548 0.476483 5.0239
2.97307 0.484632 5.10088
2.96558 0.491643 5.16884
2.96083 0.49512 5.20083
2.95405 0.497555 5.22985
2.93084 0.50811 5.33388
2.91934 0.515095 5.39988
2.91275 0.520914 5.45485
2.89923 0.527841 5.51685
2.88979 0.535943 5.59082
2.87529 0.542931 5.65683
2.79708 0.597372 6.15568
2.40847 0.856511 8.44309
2.39288 0.863321 8.49711
2.38344 0.871423 8.57108
2.36728 0.885077 8.68201
2.35377 0.892034 8.74602
2.34026 0.900005 8.81101
3.32592 0.314849 2.97044
3.32407 0.317131 2.98942
3.31617 0.31733 3.00248
3.32027 0.319519 3.01542
3.31539 0.320759 3.03144
3.31051 0.322 3.04746
3.30967 0.323311 3.06845
3.31083 0.325621 3.08941
3.30696 0.32689 3.10742
3.29604 0.327046 3.11751
3.3062 0.33035 3.13838
3.29527 0.330506 3.14846
3.29242 0.331789 3.16747
3.28855 0.333058 3.18548
3.28367 0.334298 3.2015
3.2788 0.335554 3.21852
3.28602 0.338978 3.24742
3.28208 0.340084 3.25444
3.28225 0.342424 3.2774
3.27839 0.343693 3.29542
3.27352 0.344949 3.31244
3.26765 0.346204 3.32947
3.26277 0.34746 3.34649
3.2569 0.348701 3.36251
3.26203 0.350949 3.37944
3.25716 0.352218 3.39746
3.25633 0.354545 3.41944
3.25247 0.355829 3.43845
3.24862 0.358113 3.45745
3.24174 0.359354 3.47349
3.2389 0.360667 3.49449
3.24202 0.362902 3.51044
3.2311 0.363073 3.52152
3.22339 0.366641 3.55953
3.21753 0.367911 3.57756
3.21287 0.372581 3.62253
3.21113 0.3761 3.65749
3.21132 0.37847 3.68246
3.20263 0.382068 3.72248
3.19273 0.383268 3.73554
3.18304 0.386882 3.77656
3.19626 0.390316 3.80642
3.18737 0.39153 3.82047
3.18455 0.393872 3.84346
3.18373 0.396242 3.86843
3.16678 0.396344 3.87456
3.16597 0.398714 3.89953
3.17315 0.402064 3.92343
3.16023 0.402222 3.93353
3.15539 0.403536 3.95455
3.15762 0.406993 3.98549
3.14874 0.408236 4.00154
3.14492 0.410579 4.02453
3.13806 0.412866 4.04355
3.1412 0.41413 4.06151
3.1404 0.41753 4.08847
3.13356 0.418831 4.10851
3.1267 0.421117 4.12753
3.12593 0.424561 4.15749
3.11907 0.425848 4.17652
3.11323 0.428163 4.19754
3.11335 0.429385 4.21252
3.10953 0.431743 4.23652
3.09786 0.436402 4.28054
3.09911 0.43989 4.31348
3.08847 0.444593 4.3605
3.09364 0.446929 4.38343
3.08176 0.44816 4.3985
3.07492 0.450476 4.41952
3.0734 0.457409 4.48244
3.07061 0.459826 4.51043
3.06378 0.462171 4.53345
3.05594 0.464487 4.55448
3.05606 0.465724 4.57046
3.04823 0.468055 4.59249
3.04647 0.471515 4.62346
3.04268 0.474932 4.65144
3.03687 0.477307 4.67645
3.0351 0.480767 4.70742
3.02627 0.482099 4.72947
3.03248 0.486508 4.75736
3.02669 0.488912 4.78437
3.02087 0.491272 4.80838
3.00901 0.492547 4.82645
3.00727 0.496051 4.86042
2.99944 0.498397 4.88345
3.00075 0.503988 4.92336
3.00291 0.506312 4.94531
2.99409 0.508659 4.96835
2.98831 0.511092 4.99736
2.98354 0.51454 5.02735
2.9818 0.519059 5.0623
2.96791 0.519276 5.0764
2.96518 0.523811 5.11236
2.96635 0.526136 5.13432
2.96056 0.529554 5.16232
2.95582 0.533061 5.19631
2.94294 0.534307 5.21239
2.94529 0.539986 5.25829
2.94055 0.543492 5.29228
2.93478 0.54694 5.32228
2.93596 0.549295 5.34624
2.92513 0.551643 5.36929
2.92141 0.556178 5.40525
2.9126 0.55857 5.43129
2.90991 0.563163 5.47124
2.90212 0.565583 5.49927
2.89436 0.569048 5.53028
2.89386 0.577025 5.59618
2.88509 0.58049 5.6272
2.87935 0.583997 5.66119
2.87261 0.588505 5.69518
2.86789 0.592056 5.73217
2.86116 0.596594 5.76816
2.86034 0.598935 5.79113
2.85462 0.603486 5.82811
2.84687 0.60698 5.86112
2.83343 0.61507 5.93412
2.82366 0.618536 5.96514
2.81999 0.623175 6.00811
2.80473 0.634636 6.10607
2.79133 0.643815 6.18504
2.78567 0.64847 6.22902
2.77694 0.653009 6.26503
2.75407 0.670231 6.41396
2.74638 0.674828 6.45396
2.73768 0.679426 6.49396
2.73305 0.685155 6.54292
2.68989 0.713767 6.78485
2.68224 0.718453 6.83085
2.63623 0.749349 7.09177
2.5914 0.783598 7.37664
2.5818 0.790389 7.42962
2.57219 0.796166 7.48162
2.38267 0.931787 8.59519
2.36708 0.937597 8.64923
2.34987 0.951163 8.75417
2.33123 0.956872 8.80124
3.32912 0.345184 2.99297
3.32827 0.34648 3.01296
3.31665 0.351244 3.06399
3.31682 0.353569 3.08595
3.30429 0.358496 3.14798
3.29479 0.36448 3.21397
3.28321 0.369302 3.269
3.28238 0.371628 3.29097
3.27566 0.375195 3.32898
3.26987 0.377599 3.35599
3.26904 0.379925 3.37796
3.24959 0.38602 3.45103
3.24674 0.388318 3.47102
3.24784 0.38951 3.48399
3.23812 0.393064 3.52102
3.23933 0.395463 3.54798
3.23749 0.39779 3.56996
3.22859 0.398989 3.58301
3.22787 0.402537 3.61997
3.22201 0.403808 3.638
3.21533 0.408449 3.68099
3.21149 0.410762 3.70198
3.20159 0.410962 3.71506
3.20775 0.414268 3.73597
3.20391 0.415582 3.75698
3.19421 0.419181 3.797
3.18837 0.421481 3.81702
3.18857 0.42488 3.84397
3.17969 0.425109 3.85903
3.18485 0.428416 3.87995
3.17336 0.435431 3.94794
3.16751 0.436716 3.96697
3.15964 0.437988 3.98501
3.15278 0.44026 4.00303
3.15131 0.447296 4.07295
3.14042 0.448512 4.08701
3.13683 0.454313 4.14096
3.13502 0.457699 4.16693
3.12819 0.45903 4.18896
3.12729 0.461223 4.20194
3.11181 0.467241 4.26998
3.11104 0.4717 4.30092
3.10723 0.474072 4.32592
3.10039 0.475388 4.34695
3.09243 0.475468 4.35201
3.09469 0.479984 4.38693
3.09191 0.483401 4.41491
3.08103 0.484645 4.43097
3.08128 0.488134 4.46393
3.07647 0.490507 4.48893
3.06661 0.492781 4.50697
3.06774 0.495046 4.52493
3.06699 0.498535 4.55789
3.06422 0.501981 4.58787
3.05159 0.5067 4.6359
3.03869 0.507917 4.64998
3.04403 0.513564 4.69386
3.04214 0.514787 4.70886
3.03734 0.518176 4.73485
3.02298 0.527444 4.81983
3.01343 0.533324 4.87882
3.002 0.542442 4.95379
2.99318 0.543789 4.97684
2.99044 0.548294 5.01079
2.97989 0.555189 5.07078
2.96646 0.563309 5.14577
2.95867 0.565714 5.1728
2.95221 0.574769 5.24372
2.40397 0.954407 8.36766
2.39143 0.962319 8.42865
2.96673 0.582841 5.04647
2.94581 0.599957 5.18839
2.93224 0.60581 5.24541
2.92851 0.610331 5.28038
2.92274 0.613794 5.31138
2.91597 0.617243 5.34138
2.91443 0.625146 5.40228
2.90768 0.628625 5.43429
2.90192 0.632102 5.46628
2.89618 0.63661 5.50026
2.89044 0.641117 5.53425
2.88672 0.645667 5.57121
2.87796 0.649132 5.60223
2.88118 0.652559 5.63116
2.87037 0.654937 5.65621
2.86464 0.659474 5.69219
2.86195 0.665082 5.73313
2.85319 0.668562 5.76515
2.8434 0.671969 5.79218
2.83973 0.677607 5.83513
2.83624 0.685601 5.90205
2.83054 0.690197 5.94203
2.82482 0.695749 5.97899
2.81609 0.699273 6.01401
2.81142 0.704913 6.05697
2.80164 0.708364 6.087
2.78178 0.726583 6.2359
2.77407 0.731151 6.27389
2.76839 0.736791 6.31686
2.75865 0.741301 6.35087
2.502 0.932563 7.84218
2.48629 0.937137 7.88023
3.31745 0.404778 3.03218
3.315 0.412845 3.10409
3.30911 0.414057 3.11812
3.30524 0.415326 3.13613
3.2939 0.424622 3.22309
3.28701 0.424834 3.23714
3.28231 0.429429 3.27712
3.27854 0.432876 3.3071
3.27284 0.436472 3.34709
3.26715 0.440068 3.38709
3.25944 0.444636 3.42508
3.25264 0.447041 3.4521
3.24797 0.45168 3.49508
3.23422 0.454179 3.52815
3.23348 0.457697 3.5631
3.22479 0.462296 3.60311
3.21345 0.471591 3.69007
2.5606 0.94778 7.52147
2.54386 0.952295 7.55553
2.5353 0.960145 7.61249
2.51992 0.971369 7.69445
3.32353 0.438874 3.03863
3.30469 0.439213 3.06077
3.31594 0.443693 3.09363
3.30821 0.447217 3.12864
3.29653 0.450847 3.17068
3.2898 0.454385 3.20668
3.28997 0.45771 3.22863
3.28518 0.460128 3.25664
3.27527 0.460313 3.26871
3.27763 0.466006 3.31561
3.26873 0.467205 3.32867
3.25799 0.470716 3.3627
3.26228 0.47529 3.40161
3.25641 0.476546 3.41863
3.25053 0.478787 3.43465
3.24787 0.48344 3.4786
3.242 0.484711 3.49663
3.23521 0.488115 3.52364
3.2267 0.495068 3.58761
3.20857 0.507783 3.70257
3.20675 0.51014 3.72655
3.17414 0.530872 3.90952
3.17142 0.535421 3.94647
3.15511 0.545765 4.03646
3.12545 0.566405 4.2134
3.11961 0.56872 4.23441
3.10706 0.575602 4.29341
3.09742 0.580305 4.34042
3.09463 0.584721 4.36838
3.07753 0.59848 4.48632
3.04026 0.62688 4.71421
3.00662 0.648553 4.89317
2.99042 0.662119 4.99811
2.98088 0.670013 5.05807
2.63227 0.941182 7.07896
2.61955 0.945724 7.115
2.61063 0.946894 7.12605
2.60202 0.954654 7.177
3.26687 0.491456 3.34532
3.21367 0.516002 3.58239
3.21253 0.530674 3.6952
3.15505 0.568614 4.02612
3.13684 0.581181 4.13108
3.12248 0.591419 4.21405
3.11587 0.597194 4.26602
3.11106 0.600567 4.29101
3.0994 0.605227 4.33504
3.07041 0.621216 4.46804
3.05843 0.639207 4.60188
3.04856 0.640466 4.61894
3.04781 0.644969 4.65288
3.041 0.648329 4.67689
3.03722 0.651761 4.70587
3.0333 0.652927 4.71688
3.02576 0.66082 4.77683
3.01416 0.667613 4.82982
3.00736 0.671002 4.85583
3.00562 0.675507 4.88978
3.00577 0.677803 4.90975
2.9874 0.689044 4.99273
2.98091 0.69804 5.05966
2.94645 0.724054 5.26156
2.93968 0.728502 5.29155
2.65594 0.950528 6.90062
2.64526 0.956157 6.94262
3.3242 0.488157 2.98989
3.32839 0.491524 3.01481
3.31948 0.491708 3.02688
3.31964 0.495018 3.04783
3.30827 0.503255 3.13081
3.30037 0.504468 3.14485
3.29256 0.506829 3.16888
3.29188 0.512466 3.21181
3.28214 0.514976 3.24585
3.27928 0.517259 3.26484
3.27239 0.518471 3.27887
3.27349 0.520663 3.29183
3.26274 0.523159 3.32488
3.26795 0.527569 3.35278
3.26511 0.529882 3.37377
3.25621 0.531081 3.38682
3.25538 0.533407 3.4088
3.25849 0.535627 3.42374
3.25061 0.536855 3.43879
3.24876 0.539152 3.45877
3.24794 0.542508 3.48273
3.24206 0.543749 3.49876
3.23721 0.546033 3.51776
3.23143 0.549467 3.54676
3.23263 0.552865 3.5737
3.21988 0.556363 3.60675
3.21806 0.558705 3.62973
3.21724 0.56206 3.65369
3.2033 0.562189 3.6618
3.20349 0.565559 3.68675
3.20561 0.567794 3.7027
3.1852 0.575948 3.77975
3.18642 0.580376 3.80868
3.1845 0.581526 3.81868
3.1847 0.584925 3.84563
3.17703 0.590567 3.88861
3.16714 0.591796 3.90367
3.16735 0.595195 3.93062
3.16453 0.598552 3.95459
3.16565 0.600788 3.97055
3.14811 0.606689 4.03061
3.14125 0.608975 4.04963
3.13866 0.616776 4.10354
3.13597 0.62137 4.1435
3.13013 0.624685 4.16449
3.12429 0.627 4.18551
3.11767 0.632759 4.23648
3.11588 0.63716 4.26343
3.10333 0.644042 4.32243
3.09851 0.6474 4.34642
3.08965 0.648673 4.36447
3.08484 0.652047 4.38946
3.07698 0.654334 4.40849
3.07318 0.657721 4.43447
3.0718 0.66892 4.51533
3.05813 0.674581 4.55935
3.05738 0.67907 4.5923
3.01991 0.705071 4.79322
3.02207 0.70838 4.81416
3.00672 0.719649 4.89912
2.99891 0.723025 4.92413
2.96739 0.749918 5.118
2.7344 0.936527 6.43117
2.72264 0.941009 6.4632
2.71395 0.946607 6.50319
3.31615 0.583945 2.97453
3.31437 0.587375 3.0035
3.29788 0.593379 3.07054
3.30005 0.596718 3.09348
3.28921 0.598036 3.11455
3.28837 0.601348 3.13551
3.2845 0.602602 3.15252
3.27964 0.604872 3.17052
3.27997 0.610508 3.21344
3.27519 0.61394 3.24243
3.27233 0.615224 3.26144
3.26847 0.617508 3.28044
3.25001 0.625557 3.35047
3.25111 0.626749 3.36344
3.2523 0.630118 3.38839
3.24238 0.631288 3.39945
3.24055 0.633614 3.42143
3.22807 0.641645 3.49041
3.22523 0.643957 3.5114
3.21936 0.646213 3.52842
3.21753 0.648555 3.5514
3.21369 0.651854 3.57138
3.20984 0.653152 3.59139
3.20599 0.656451 3.61138
3.20711 0.658672 3.62634
3.2073 0.662042 3.65129
3.20244 0.664326 3.67029
3.20264 0.667711 3.69625
3.19374 0.668925 3.7103
3.19396 0.672339 3.73825
3.19011 0.674638 3.75825
3.18516 0.675745 3.76527
3.18133 0.678073 3.78727
3.18254 0.682486 3.8152
3.17366 0.68373 3.83125
3.17689 0.688171 3.86116
3.16903 0.689443 3.8792
3.16217 0.691715 3.89722
3.16127 0.693907 3.9102
3.16349 0.69835 3.94012
3.15259 0.69855 3.9532
3.14775 0.700864 3.97421
3.14697 0.705279 4.00215
3.1391 0.706551 4.0202
3.13326 0.709866 4.04119
3.13752 0.714366 4.0751
3.12954 0.714416 4.07816
3.13078 0.718874 4.10909
3.12798 0.722261 4.13506
3.12112 0.724547 4.15408
3.1153 0.727891 4.17708
3.11552 0.73132 4.20603
3.10957 0.732428 4.21306
3.11487 0.738001 4.25194
3.106 0.740274 4.26998
3.09815 0.742561 4.28901
3.09636 0.745977 4.31697
3.09459 0.750422 4.34693
3.0837 0.751637 4.36099
3.08889 0.756003 4.38589
3.08306 0.758347 4.4089
3.07624 0.761693 4.43191
3.07244 0.76508 4.45789
3.06561 0.767425 4.48091
3.06282 0.771842 4.50887
3.05498 0.774158 4.5299
3.05815 0.777481 4.55183
3.04425 0.778684 4.56492
3.04451 0.784186 4.59884
3.04275 0.788661 4.63079
3.03289 0.789935 4.64885
3.02709 0.793324 4.67484
3.02634 0.798812 4.70777
3.02547 0.801064 4.72475
3.01967 0.804453 4.75075
3.01286 0.807828 4.77575
3.00402 0.810145 4.79679
3.00735 0.816794 4.84067
2.99649 0.819068 4.85872
2.98969 0.822458 4.88472
2.98593 0.826934 4.91669
2.99012 0.831301 4.9416
2.98333 0.834705 4.9686
2.98566 0.841354 5.01249
2.97278 0.8436 5.02856
2.96903 0.848077 5.06052
2.96224 0.851496 5.08853
2.95545 0.855915 5.11652
2.95865 0.859297 5.14245
2.95289 0.863775 5.17443
2.94814 0.869252 5.20639
2.94339 0.873743 5.23936
2.93965 0.878249 5.27333
2.93187 0.882684 5.30233
2.92408 0.886104 5.33034
2.92053 0.894964 5.38824
2.91579 0.900485 5.4232
2.90701 0.903921 5.45222
2.89313 0.905168 5.46831
3.3161 0.627792 2.96388
3.30844 0.633449 3.00786
3.30356 0.634689 3.02388
3.29783 0.639226 3.05986
3.30001 0.642565 3.0828
3.3011 0.643741 3.09478
3.29521 0.644968 3.10981
3.28832 0.64618 3.12384
3.28646 0.648462 3.14282
3.27773 0.652987 3.17783
3.27688 0.655283 3.1978
3.28099 0.657502 3.21274
3.27814 0.659785 3.23173
3.27226 0.662026 3.24774
3.2674 0.663296 3.26576
3.26454 0.665579 3.28475
3.25967 0.667835 3.30176
3.25481 0.670104 3.31977
3.25994 0.672352 3.3367
3.25406 0.674593 3.35271
3.25624 0.677947 3.37665
3.25441 0.681273 3.39861
3.24148 0.680416 3.40773
3.23661 0.682686 3.42573
3.24285 0.68814 3.45661
3.23587 0.68719 3.45968
3.22799 0.688417 3.47472
3.23927 0.694956 3.51154
3.22734 0.695113 3.52163
3.22551 0.69844 3.5436
3.22469 0.701796 3.56756
3.21782 0.703037 3.58359
3.2169 0.705201 3.59457
3.21608 0.708556 3.61853
3.21021 0.709812 3.63556
3.20536 0.712097 3.65456
3.20555 0.716481 3.6805
3.19565 0.716681 3.69357
3.1908 0.718966 3.71258
3.19403 0.724407 3.74248
3.19009 0.724528 3.75051
3.18726 0.727871 3.77348
3.18747 0.73227 3.80042
3.17454 0.732413 3.80952
3.17272 0.735769 3.83348
3.17293 0.739183 3.86144
3.16798 0.740276 3.86746
3.16516 0.743633 3.89143
3.15649 0.749275 3.93442
3.15064 0.751575 3.95443
3.15085 0.754975 3.98138
3.14298 0.757247 3.99941
3.14309 0.759454 4.01338
3.14331 0.763883 4.04232
3.13241 0.765083 4.05538
3.13263 0.769512 4.08432
3.13184 0.772927 4.11228
3.12297 0.775185 4.12932
3.11713 0.7775 4.15033
3.12129 0.781807 4.17124
3.11444 0.784108 4.19126
3.10962 0.786452 4.21426
3.10884 0.790882 4.24321
3.10502 0.794239 4.26719
3.09212 0.795441 4.28027
3.0974 0.800985 4.31715
3.09854 0.80425 4.3351
3.09272 0.807594 4.3581
3.08689 0.809939 4.38111
3.08005 0.813255 4.40211
3.07423 0.815599 4.42513
3.07448 0.821087 4.45805
3.06461 0.823346 4.47509
3.06082 0.826763 4.50307
3.06701 0.831128 4.52796
3.05917 0.834445 4.54898
3.05235 0.83679 4.572
3.04552 0.840135 4.595
3.04072 0.843523 4.62099
3.03391 0.846898 4.646
3.03215 0.852358 4.67693
3.03532 0.855696 4.69986
3.0285 0.859041 4.72287
3.02371 0.863459 4.75084
3.01488 0.865791 4.77288
3.01313 0.87128 4.80581
3.00227 0.872555 4.82388
3.00052 0.878044 4.85682
3.00269 0.882383 4.87974
2.99994 0.886858 4.9117
2.9901 0.889176 4.93274
2.98836 0.894695 4.96768
2.98156 0.899084 4.99367
2.97173 0.901417 5.01571
2.96087 0.903706 5.03476
2.959 0.905959 5.05174
3.32526 0.673032 2.98015
3.31953 0.677569 3.01613
3.31868 0.679866 3.0361
3.31187 0.682226 3.06012
3.31203 0.685551 3.08207
3.30531 0.690089 3.11806
3.30144 0.692343 3.13506
3.28967 0.69481 3.16612
3.29379 0.698029 3.18104
3.28505 0.701553 3.21606
3.2822 0.703837 3.23505
3.27448 0.70839 3.27204
3.26961 0.710645 3.28905
3.2718 0.714013 3.31399
3.26785 0.71512 3.321
3.264 0.717403 3.34
3.26316 0.71973 3.36197
3.25528 0.721957 3.377
3.25343 0.724255 3.39699
3.24967 0.728731 3.42895
3.2361 0.735569 3.48496
3.23427 0.738896 3.50693
3.23243 0.741223 3.52891
3.22657 0.743493 3.54692
3.2307 0.746742 3.56385
3.21796 0.750254 3.5979
3.21815 0.754624 3.62283
3.21532 0.756966 3.64582
3.20441 0.758137 3.65689
3.20359 0.761493 3.68085
3.20086 0.766013 3.71581
3.19602 0.769327 3.7368
3.19621 0.772711 3.76275
3.18934 0.774968 3.77977
3.1845 0.778282 3.80076
3.18269 0.781638 3.82473
3.18078 0.782817 3.83673
3.17896 0.786174 3.86069
3.16625 0.790745 3.89873
3.16747 0.796173 3.92764
3.16263 0.798487 3.94865
3.15274 0.799717 3.96371
3.14993 0.803074 3.98768
3.14823 0.809667 4.0276
3.13858 0.815354 4.0736
3.13577 0.819711 4.09756
3.13094 0.822055 4.12056
3.12712 0.825413 4.14454
3.12825 0.828649 4.16049
3.11378 0.838695 4.23046
3.10135 0.848814 4.30541
3.07842 0.869916 4.44629
3.04393 0.89987 4.64414
3.03597 0.89995 4.6492
3.02815 0.902296 4.67222
3.11982 0.857778 4.10111
3.11219 0.865508 4.15006
3.093 0.881091 4.25599
3.09526 0.887592 4.28988
3.08538 0.888836 4.30594
3.19928 0.835792 3.63278
3.16192 0.867 3.84762
3.1591 0.871357 3.87158
3.15043 0.877999 3.91456
3.1466 0.881327 3.93654
3.13894 0.887998 3.9815
3.13906 0.89022 3.99647
3.1322 0.892506 4.01549
3.12658 0.90125 4.06541
3.12277 0.904623 4.0904
3.11592 0.906909 4.10942
3.11222 0.913488 4.14835
3.29511 0.815549 3.08028
3.28822 0.816761 3.09431
3.28737 0.820058 3.11427
3.28452 0.823341 3.13325
3.28367 0.825638 3.15322
3.28375 0.8278 3.16419
3.28292 0.831126 3.18615
3.27435 0.839961 3.24209
3.26645 0.840159 3.25515
3.26057 0.8424 3.27117
3.26368 0.84562 3.2861
3.26083 0.847903 3.30509
3.25697 0.851187 3.32407
3.25816 0.854541 3.34801
3.24925 0.85574 3.36107
3.24238 0.857981 3.37709
3.24658 0.862378 3.40399
3.24567 0.864541 3.41497
3.2408 0.866811 3.43298
3.23897 0.870138 3.45494
3.22502 0.869252 3.46206
3.22824 0.874663 3.48996
3.2274 0.877989 3.51192
3.22053 0.880231 3.52794
3.21456 0.88031 3.53299
3.22082 0.886793 3.56585
3.21797 0.890091 3.58582
3.21211 0.892361 3.60384
3.19754 0.900215 3.66084
3.23427 0.922654 3.48921
3.2762 0.920566 3.21488
3.27032 0.922807 3.2309
3.27049 0.926132 3.25285
3.26193 0.934996 3.31079
-5.03767 -0.203315 0.0487171
-5.0318 -0.203556 0.0326742
-5.03604 -0.204027 0.000708689
-5.03316 -0.204266 -0.0153117
-5.01758 -0.205106 -0.0714243
-5.01093 -0.205807 -0.118471
-5.00405 -0.206049 -0.134521
-5.00811 -0.206165 -0.14249
-5.00223 -0.206391 -0.157533
-5.27403 -0.139267 1.32473
-5.27716 -0.139517 1.30775
-5.27624 -0.139666 1.29774
-5.26739 -0.139968 1.27768
-5.27252 -0.140216 1.26072
-5.26367 -0.140519 1.24065
-5.2668 -0.140768 1.22368
-5.26195 -0.142068 1.20366
-5.26108 -0.142335 1.18565
-5.24518 -0.142539 1.17254
-5.24831 -0.142788 1.15556
-5.24544 -0.143057 1.13754
-5.24558 -0.143324 1.11954
-5.24085 -0.14486 1.08353
-5.237 -0.145144 1.0645
-5.22821 -0.14558 1.03543
-5.22435 -0.145849 1.01741
-5.22448 -0.146101 1.00041
-5.21862 -0.147386 0.981381
-5.21476 -0.147656 0.963354
-5.21889 -0.147905 0.946386
-5.20903 -0.148193 0.927313
-5.20037 -0.148866 0.882252
-5.19065 -0.150421 0.845197
-5.19377 -0.150655 0.829221
-5.27908 -0.110385 1.31634
-5.26624 -0.11172 1.29426
-5.27429 -0.110803 1.2883
-5.27542 -0.111069 1.27031
-5.26358 -0.112389 1.24924
-5.2717 -0.11262 1.2333
-5.25886 -0.11294 1.21221
-5.25401 -0.114225 1.19319
-5.25713 -0.114474 1.17621
-5.26119 -0.11459 1.16824
-5.24436 -0.114928 1.14612
-5.2435 -0.115195 1.12811
-5.24163 -0.115463 1.1101
-5.23677 -0.116748 1.09108
-5.2389 -0.116998 1.0741
-5.21814 -0.117472 1.04294
-5.22227 -0.117721 1.02598
-5.22639 -0.117955 1.01001
-5.20894 -0.120048 0.936897
-5.21206 -0.120298 0.919922
-5.20826 -0.121685 0.893911
-5.19953 -0.122225 0.857848
-5.18169 -0.123549 0.83673
-5.04621 -0.140486 0.103859
-5.05069 -0.141416 0.0408978
-5.02847 -0.143972 -0.0632461
-5.02372 -0.144449 -0.0952793
-5.02389 -0.14479 -0.118276
-5.01513 -0.14527 -0.150339
-5.01337 -0.145745 -0.18235
-5.28012 -0.0775214 1.30686
-5.26743 -0.0791229 1.26678
-5.27169 -0.079638 1.23181
-5.25679 -0.0808413 1.21872
-5.25692 -0.0810929 1.20172
-5.2492 -0.0816612 1.16366
-5.25532 -0.0818937 1.14771
-5.2506 -0.0834449 1.11069
-5.24581 -0.083863 1.08266
-5.22299 -0.0852201 1.0595
-5.22711 -0.0854541 1.04354
-5.22924 -0.0857043 1.02655
-5.22751 -0.0862386 0.990544
-5.21572 -0.0876617 0.962473
-5.21586 -0.0879281 0.944475
-5.20214 -0.0894859 0.90739
-5.05335 -0.10978 0.0834554
-5.05646 -0.11 0.0684801
-5.04313 -0.112328 -0.0205982
-5.01333 -0.115704 -0.179795
-5.1967 -0.0556487 0.828837
-5.05918 -0.0764983 0.102009
-5.25646 -0.0142409 1.12371
-5.23922 -0.0177488 1.02262
-5.20352 -0.0233363 0.849413
-5.20166 -0.0236042 0.8314
-5.1928 -0.0248771 0.81335
-5.27717 0.0232581 1.29134
-5.2815 0.0226097 1.24738
-5.26866 0.0212895 1.2263
-5.25628 0.0180516 1.14324
-5.2366 0.0154304 1.10212
-5.23387 0.0148953 1.06611
-5.21835 0.0119365 1.00202
-5.21475 0.0111491 0.949001
-5.20296 0.00972598 0.920929
-5.20522 0.00822427 0.886964
-5.05664 -0.0174841 0.0351074
-5.05376 -0.0177231 0.019087
-5.03982 -0.0188516 0.0109976
-5.04894 -0.0190819 -0.00493248
-5.04007 -0.0193253 -0.020998
-5.04319 -0.0195599 -0.0369732
-5.04331 -0.0197968 -0.052971
-5.02373 -0.0216402 -0.109099
-5.01985 -0.0218799 -0.125127
-5.02296 -0.0220998 -0.140102
-5.01708 -0.022341 -0.156145
-5.01121 -0.0235821 -0.172173
-5.01732 -0.0228147 -0.188141
-5.00462 -0.0244013 -0.227218
-5.27994 0.059656 1.31782
-5.27622 0.0581055 1.28081
-5.26652 0.056521 1.24176
-5.25967 0.05522 1.22172
-5.25874 0.055086 1.21272
-5.25801 0.0535525 1.17673
-5.25116 0.0532514 1.15668
-5.24244 0.0516972 1.11963
-5.24557 0.0514478 1.10266
-5.23765 0.0502792 1.09161
-5.24377 0.0500468 1.07566
-5.23293 0.048728 1.0546
-5.22706 0.0484572 1.03655
-5.2272 0.0481908 1.01856
-5.22034 0.0469045 0.999521
-5.22447 0.0466558 0.982553
-5.2236 0.0464034 0.965548
-5.21468 0.0452342 0.954497
-5.21581 0.0449832 0.937506
-5.20496 0.0436793 0.917441
-5.20409 0.0434269 0.900436
-5.20023 0.0421577 0.882423
-5.20535 0.0419245 0.866463
-5.19549 0.0416359 0.84739
-5.19669 0.0402519 0.821416
-5.29881 0.0908884 1.33251
-5.21897 0.0726419 0.914118
-5.2037 0.0691946 0.81704
-5.18885 0.0678878 0.796945
-5.18499 0.0676184 0.778917
-5.29793 0.128602 1.31294
-5.27373 0.124015 1.20681
-5.25691 0.121663 1.18371
-5.26209 0.121296 1.15876
-5.25451 0.118477 1.10373
-5.23581 0.116871 1.06361
-5.24193 0.116638 1.04766
-5.22517 0.114167 1.01656
-5.22829 0.113933 1.00059
-5.21558 0.112361 0.962511
-5.22302 0.110493 0.903586
-5.19977 0.10601 0.804464
-5.0545 0.0776669 0.0446841
-5.05862 0.0774329 0.0287164
-5.05174 0.077191 0.012666
-5.04281 0.0760513 0.00361428
-5.04392 0.07583 -0.0113761
-5.04604 0.0755946 -0.0273589
-5.04916 0.07536 -0.0433341
-5.03929 0.0751159 -0.0594071
-5.04041 0.0748797 -0.0753974
-5.02359 0.0725123 -0.0994924
-5.03371 0.0732827 -0.11543
-5.02095 0.0717996 -0.147508
-5.02107 0.0715628 -0.163506
-5.01518 0.0713364 -0.178549
-5.00431 0.0700916 -0.194615
-5.01443 0.070862 -0.210552
-5.01449 0.0707436 -0.218551
-5.00261 0.0694981 -0.234624
-5.28769 0.192973 1.33791
-5.2774 0.188589 1.24489
-5.27447 0.188438 1.23487
-5.2679 0.185605 1.17885
-5.25505 0.184284 1.15777
-5.26317 0.184068 1.14283
-5.24833 0.181732 1.12075
-5.26045 0.182518 1.10583
-5.24567 0.180064 1.07575
-5.23895 0.178511 1.03872
-5.2331 0.177225 1.01969
-5.23722 0.176991 1.00372
-5.22936 0.175704 0.98468
-5.22145 0.174536 0.973636
-5.22557 0.174302 0.957668
-5.2257 0.174036 0.939671
-5.21984 0.172765 0.921643
-5.21997 0.172498 0.903645
-5.2201 0.172247 0.886648
-5.21125 0.170959 0.867598
-5.2173 0.17086 0.860644
-5.21344 0.169591 0.842631
-5.1991 0.166277 0.75456
-5.19318 0.165125 0.744531
-5.18232 0.163836 0.725465
-5.17146 0.162547 0.7064
-5.16859 0.161293 0.689395
-5.16772 0.161041 0.67239
-5.05599 0.134625 -0.0261576
-5.04442 0.132787 -0.0822253
-5.29478 0.224767 1.32349
-5.28793 0.223466 1.30346
-5.29106 0.223217 1.28648
-5.2862 0.221932 1.26746
-5.27636 0.220614 1.24641
-5.27443 0.219479 1.23741
-5.26386 0.216628 1.18036
-5.25028 0.213789 1.12429
-5.24836 0.213639 1.11428
-5.2475 0.212372 1.09629
-5.2429 0.209584 1.04329
-5.23118 0.208013 1.00522
-5.22925 0.206879 0.996219
-5.22153 0.205325 0.959179
-5.23364 0.206127 0.945256
-5.22179 0.203822 0.925199
-5.20994 0.202517 0.905126
-5.20608 0.201248 0.887113
-5.20521 0.200996 0.870108
-5.21326 0.200898 0.863169
-5.20939 0.200629 0.845141
-5.20054 0.199341 0.826091
-5.19979 0.197837 0.792103
-5.19793 0.197569 0.77409
-5.18307 0.195277 0.75501
-5.18913 0.195163 0.747056
-5.18626 0.194909 0.730036
-5.18739 0.194658 0.713046
-5.18252 0.193403 0.696025
-5.17366 0.192116 0.676975
-5.17878 0.191882 0.661015
-5.16393 0.19059 0.641919
-5.17098 0.190492 0.634973
-5.15812 0.189201 0.615893
-5.16524 0.188984 0.600947
-5.15438 0.187695 0.581882
-5.14677 0.184935 0.530858
-5.13984 0.184796 0.521807
-5.14196 0.184561 0.505824
-5.14708 0.184328 0.489864
-5.12859 0.181308 0.42176
-5.10817 0.177168 0.345657
-5.10629 0.176929 0.329644
-5.10841 0.176679 0.312662
-5.11553 0.176462 0.297716
-5.1066 0.175322 0.288665
-5.09472 0.174062 0.271592
-5.10597 0.174596 0.239664
-5.08534 0.171841 0.189542
-5.08752 0.171487 0.165561
-5.08065 0.170246 0.149525
-5.07714 0.168281 0.0845188
-5.30087 0.258546 1.30804
-5.29995 0.257397 1.29805
-5.28911 0.256078 1.27698
-5.29223 0.255829 1.26001
-5.2804 0.253495 1.23795
-5.28452 0.253261 1.22198
-5.28366 0.251994 1.20399
-5.2828 0.251712 1.18499
-5.27688 0.25056 1.17496
-5.27601 0.249292 1.15697
-5.27316 0.249009 1.13795
-5.26431 0.246707 1.11791
-5.26244 0.246439 1.0999
-5.25959 0.245155 1.08089
-5.25386 0.243618 1.04487
-5.25094 0.242468 1.03486
-5.24508 0.241183 1.01583
-5.23762 0.238126 0.944813
-5.23183 0.236707 0.916786
-5.22397 0.23542 0.897743
-5.2221 0.235167 0.880731
-5.20584 0.229705 0.782676
-5.17353 0.224334 0.691499
-5.16199 0.221423 0.630447
-5.16224 0.219934 0.597466
-5.15438 0.218662 0.579423
-5.14657 0.217272 0.553381
-5.14383 0.215766 0.519378
-5.14495 0.21553 0.503388
-5.13709 0.214258 0.485345
-5.13622 0.214006 0.46834
-5.13035 0.21275 0.451312
-5.12541 0.212613 0.442276
-5.12178 0.210885 0.393267
-5.11991 0.209632 0.376269
-5.12003 0.209395 0.360271
-5.11416 0.208139 0.343243
-5.11535 0.20777 0.318254
-5.10948 0.206514 0.301226
-5.1056 0.206274 0.285199
-5.10672 0.206038 0.269208
-5.09885 0.20478 0.252165
-5.10297 0.204547 0.236198
-5.08905 0.203388 0.226108
-5.09516 0.203171 0.211156
-5.08829 0.202914 0.194105
-5.09041 0.202679 0.178123
-5.09353 0.202444 0.162147
-5.08066 0.200183 0.145081
-5.08078 0.199946 0.129084
-5.07391 0.199689 0.112033
-5.07197 0.19857 0.104034
-5.30653 0.366071 1.34249
-5.30581 0.364523 1.30551
-5.30009 0.361971 1.26849
-5.28626 0.359636 1.24642
-5.29039 0.359387 1.22945
-5.28347 0.358219 1.21842
-5.27662 0.356918 1.19838
-5.27376 0.355649 1.18038
-5.27789 0.355401 1.16341
-5.26704 0.353097 1.14336
-5.26618 0.35183 1.12537
-5.26431 0.351562 1.10736
-5.2554 0.349378 1.09532
-5.25354 0.34911 1.07731
-5.26365 0.348895 1.06239
-5.24681 0.346572 1.04129
-5.23996 0.345271 1.02125
-5.2361 0.344002 1.00324
-5.23823 0.343752 0.986259
-5.2363 0.342617 0.977261
-5.23243 0.341348 0.959248
-5.22857 0.340079 0.941235
-5.23469 0.340846 0.925267
-5.21885 0.337524 0.904194
-5.21798 0.337272 0.887189
-5.21411 0.336002 0.869176
-5.21824 0.335754 0.852209
-5.20745 0.333346 0.825159
-5.19959 0.332059 0.806117
-5.20272 0.33181 0.789141
-5.19985 0.330556 0.772136
-5.19998 0.330304 0.755139
-5.18712 0.328014 0.736073
-5.18519 0.327879 0.727059
-5.18432 0.326627 0.710069
-5.17745 0.325356 0.692033
-5.17771 0.324852 0.658038
-5.17484 0.323599 0.641033
-5.16598 0.322326 0.622982
-5.16017 0.319937 0.59697
-5.15843 0.319432 0.56296
-5.15056 0.317175 0.545932
-5.14769 0.316906 0.527912
-5.15581 0.31669 0.512974
-5.14887 0.316551 0.503922
-5.14413 0.314045 0.469919
-5.13726 0.312788 0.452884
-5.13539 0.312535 0.435871
-5.13564 0.311047 0.40289
-5.12377 0.309786 0.385817
-5.12084 0.308651 0.376811
-5.11721 0.306923 0.327802
-5.10458 0.304174 0.277741
-5.09577 0.302797 0.252691
-5.09814 0.302073 0.203713
-5.09226 0.300832 0.187685
-5.08445 0.299456 0.162643
-5.08557 0.29922 0.146653
-5.08869 0.298986 0.130678
-5.08082 0.297728 0.113634
-5.07994 0.297491 0.0976292
-5.06707 0.295245 0.0815632
-5.06819 0.295008 0.0655729
-5.07225 0.295893 0.0575893
-5.06537 0.294651 0.0415536
-5.0545 0.292392 0.0245028
-5.06162 0.29316 0.00854289
-5.05985 0.292699 -0.0224679
-5.0531 0.291206 -0.0555012
-5.04316 0.29008 -0.0635605
-5.03428 0.288837 -0.0796112
-5.0364 0.288602 -0.095594
-5.03352 0.287363 -0.1116
-5.03964 0.288145 -0.126567
-5.02676 0.285899 -0.142633
-5.03888 0.287671 -0.15857
-5.03294 0.286548 -0.166599
-5.03106 0.28631 -0.182612
-5.03217 0.286088 -0.197603
-5.01829 0.283841 -0.213676
-5.01253 0.283363 -0.245717
-5.28703 0.395047 1.27391
-5.24394 0.379285 1.02178
-5.23728 0.376614 0.976765
-5.22756 0.37306 0.939739
-5.20731 0.367579 0.840654
-5.20843 0.366328 0.823678
-5.18905 0.361115 0.742598
-5.18818 0.360863 0.725593
-5.18131 0.359592 0.707558
-5.18044 0.358339 0.690567
-5.17277 0.355682 0.646543
-5.15942 0.3514 0.560494
-5.15162 0.350009 0.534452
-5.14787 0.348518 0.501441
-5.13626 0.344739 0.449403
-5.13838 0.344504 0.43342
-5.12945 0.343364 0.424368
-5.12558 0.34211 0.407355
-5.13569 0.342895 0.392418
-5.12583 0.341622 0.37436
-5.11796 0.340364 0.357317
-5.11609 0.339111 0.340319
-5.11022 0.337855 0.323291
-5.11128 0.337738 0.315299
-5.1114 0.337501 0.299302
-5.10953 0.337248 0.282289
-5.10265 0.336006 0.266253
-5.10278 0.335754 0.249256
-5.09203 0.333258 0.216207
-5.09509 0.333142 0.208231
-5.08621 0.331884 0.19118
-5.09233 0.331666 0.176227
-5.09545 0.332431 0.160237
-5.07671 0.328914 0.126144
-5.07983 0.32868 0.110168
-5.07695 0.328441 0.094148
-5.06902 0.327302 0.0851038
-5.07413 0.327083 0.0701435
-5.06226 0.325823 0.0530704
-5.07437 0.32661 0.0381479
-5.06949 0.326369 0.0221125
-5.06262 0.325113 0.00507699
-5.05974 0.323874 -0.0109286
-5.0598 0.323755 -0.0189275
-5.05092 0.322512 -0.0349782
-5.05004 0.322274 -0.0509835
-5.05216 0.322039 -0.0669662
-5.05328 0.321803 -0.0829565
-5.0514 0.321565 -0.0989693
-5.04653 0.320324 -0.11499
-5.04459 0.320204 -0.123004
-5.03671 0.318962 -0.139047
-5.03783 0.318726 -0.155037
-5.02795 0.317482 -0.171096
-5.03606 0.318265 -0.186048
-5.02518 0.316021 -0.202099
-5.02148 0.315426 -0.242124
-5.33287 0.440297 1.4236
-5.31533 0.435396 1.36354
-5.31361 0.432847 1.32656
-5.31075 0.431564 1.30755
-5.29799 0.428096 1.2765
-5.29712 0.427828 1.2585
-5.2934 0.425278 1.2215
-5.27578 0.420525 1.17143
-5.2809 0.420292 1.15547
-5.27418 0.41774 1.11845
-5.26733 0.416439 1.09842
-5.26068 0.413753 1.0524
-5.25082 0.411464 1.03336
-5.25495 0.411216 1.01639
-5.25109 0.409946 0.998378
-5.24823 0.408663 0.979373
-5.24251 0.406126 0.943363
-5.23471 0.404721 0.916321
-5.23584 0.40347 0.899346
-5.22798 0.402183 0.880303
-5.23011 0.401933 0.86332
-5.22725 0.400664 0.845315
-5.21952 0.398126 0.809289
-5.21459 0.396989 0.800268
-5.21072 0.39572 0.782255
-5.21185 0.395469 0.765265
-5.2 0.393179 0.746207
-5.20711 0.393962 0.731247
-5.19458 0.390035 0.669202
-5.18772 0.387764 0.651181
-5.18484 0.38751 0.634161
-5.18497 0.387258 0.617163
-5.16344 0.382325 0.555066
-5.16868 0.381855 0.523108
-5.15214 0.376955 0.463047
-5.14464 0.373958 0.396026
-5.1369 0.372449 0.361985
-5.13302 0.371209 0.345972
-5.13409 0.371076 0.336981
-5.11847 0.368325 0.286897
-5.11003 0.365223 0.212869
-5.10328 0.36273 0.179851
-5.3204 0.502155 1.34658
-5.31284 0.498306 1.28958
-5.3042 0.494589 1.24156
-5.27241 0.482198 1.08148
-5.25318 0.474689 0.980433
-5.24658 0.4719 0.927417
-5.17445 0.447237 0.548187
-5.16289 0.443355 0.489149
-5.15815 0.440849 0.455146
-5.1466 0.437967 0.396093
-5.32152 0.538871 1.32705
-5.31867 0.537588 1.30804
-5.31089 0.535153 1.27901
-5.30404 0.532852 1.25899
-5.29534 0.530268 1.21996
-5.29647 0.529002 1.20199
-5.26987 0.522214 1.14988
-5.26468 0.516626 1.04291
-5.26474 0.516493 1.03391
-5.26189 0.515209 1.0149
-5.2543 0.511405 0.960895
-5.24644 0.509118 0.941867
-5.24265 0.507715 0.914856
-5.22706 0.50289 0.859802
-5.21953 0.498967 0.797795
-5.21966 0.497715 0.780812
-5.2148 0.496445 0.762792
-5.20095 0.494139 0.742719
-5.2052 0.492654 0.709768
-5.19753 0.489997 0.665744
-5.18992 0.487236 0.61472
-5.17819 0.483695 0.578679
-5.17333 0.482425 0.560659
-5.17638 0.483323 0.553668
-5.17551 0.482071 0.536677
-5.14848 0.474157 0.408573
-5.13205 0.46902 0.332515
-5.29855 0.553824 1.18963
-5.29063 0.551655 1.1786
-5.28977 0.551388 1.1606
-5.26948 0.542982 1.06656
-5.25237 0.534223 0.948541
-5.23659 0.530782 0.919469
-5.24371 0.531551 0.903509
-5.232 0.527994 0.866469
-5.21547 0.52305 0.803409
-5.22072 0.521565 0.770466
-5.19646 0.514097 0.67238
-5.16683 0.503411 0.49229
-5.16114 0.500785 0.45028
-5.1381 0.492903 0.324206
-5.11392 0.486287 0.216107
-5.09572 0.480689 0.109038
-5.07846 0.475241 0.011975
-5.29598 0.596883 1.26099
-5.29333 0.5942 1.215
-5.28362 0.590631 1.17697
-5.28774 0.590382 1.16001
-5.27091 0.586045 1.13794
-5.27817 0.585546 1.104
-5.2604 0.581075 1.07293
-5.26453 0.580826 1.05596
-5.25468 0.578523 1.03592
-5.24983 0.577238 1.01689
-5.26293 0.57804 1.00298
-5.24609 0.574717 0.981899
-5.2423 0.572315 0.954902
-5.23059 0.568744 0.916862
-5.23071 0.568493 0.899864
-5.221 0.564938 0.862839
-5.22106 0.564819 0.85484
-5.22618 0.564586 0.838879
-5.21146 0.561013 0.800816
-5.2076 0.558744 0.782818
-5.20274 0.557474 0.764798
-5.20686 0.55724 0.74883
-5.19793 0.556086 0.738779
-5.19607 0.554818 0.720781
-5.1912 0.552563 0.703775
-5.19059 0.550807 0.65279
-5.18172 0.548535 0.634754
-5.17886 0.547266 0.616749
-5.17693 0.547131 0.607735
-5.17618 0.545642 0.574747
-5.1753 0.54439 0.557756
-5.15858 0.540845 0.521678
-5.15677 0.539474 0.496681
-5.1489 0.537202 0.478653
-5.14415 0.53571 0.445635
-5.14028 0.534455 0.428622
-5.13554 0.531948 0.394618
-5.1366 0.531831 0.386627
-5.12873 0.530573 0.369584
-5.12886 0.530322 0.352586
-5.13098 0.530086 0.336604
-5.12311 0.527829 0.319575
-5.12024 0.526575 0.30257
-5.12436 0.527341 0.286587
-5.11742 0.526203 0.277551
-5.10767 0.522708 0.244525
-5.11279 0.523474 0.22855
-5.10692 0.522218 0.211522
-5.10404 0.52098 0.195516
-5.10916 0.521746 0.179541
-5.10329 0.520505 0.163513
-5.09835 0.519368 0.154491
-5.08948 0.51711 0.137456
-5.0926 0.516876 0.12148
-5.08773 0.516635 0.105445
-5.08385 0.515396 0.0894319
-5.08497 0.51516 0.0734416
-5.08609 0.514923 0.0574514
-5.07616 0.512783 0.048407
-5.08328 0.513551 0.032447
-5.0784 0.512311 0.0164264
-5.07552 0.512072 0.000406062
-5.06864 0.50983 -0.0156148
-5.06676 0.509592 -0.0316276
-5.06788 0.509356 -0.0476179
-5.05895 0.508216 -0.0566696
-5.06506 0.507998 -0.0716223
-5.05031 0.505499 -0.104701
-5.05343 0.505265 -0.120676
-5.04567 0.5038 -0.151717
-5.04473 0.503681 -0.159724
-5.04297 0.502206 -0.19172
-5.03709 0.501965 -0.207763
-5.31975 0.7052 1.28056
-5.31197 0.701765 1.25155
-5.29941 0.696912 1.19452
-5.30353 0.696663 1.17755
-5.28032 0.687107 1.07351
-5.2756 0.684571 1.0375
-5.26668 0.682402 1.02647
-5.26694 0.680884 0.991486
-5.26109 0.678599 0.972473
-5.25337 0.676045 0.935448
-5.24951 0.673776 0.91745
-5.24171 0.671371 0.890423
-5.24185 0.671104 0.872425
-5.23911 0.668584 0.837437
-5.23238 0.666061 0.802419
-5.22452 0.663775 0.783391
-5.22059 0.662639 0.774377
-5.20986 0.659098 0.738344
-5.20526 0.656325 0.686343
-5.19839 0.654053 0.668322
-5.20445 0.654939 0.660354
-5.19359 0.652665 0.642303
-5.18873 0.651395 0.624283
-5.19285 0.651161 0.608315
-5.18798 0.649906 0.591295
-5.1871 0.648654 0.574304
-5.18423 0.6474 0.557299
-5.17132 0.645228 0.546232
-5.17044 0.64399 0.530242
-5.17057 0.643739 0.513244
-5.1697 0.642487 0.496254
-5.16582 0.641232 0.479241
-5.16694 0.640996 0.46325
-5.15908 0.638724 0.445222
-5.15427 0.63735 0.420203
-5.1494 0.636095 0.403182
-5.15152 0.63586 0.3872
-5.14566 0.634589 0.369172
-5.13979 0.632333 0.352159
-5.14003 0.63186 0.320163
-5.14209 0.631743 0.312179
-5.13222 0.629469 0.294136
-5.12835 0.62823 0.278123
-5.12447 0.626975 0.26111
-5.1226 0.626737 0.245097
-5.12172 0.625485 0.228107
-5.11785 0.624245 0.212094
-5.11491 0.62411 0.203072
-5.11403 0.622872 0.187082
-5.11328 0.622398 0.155079
-5.1104 0.621144 0.138073
-5.10265 0.619664 0.106032
-5.09172 0.617523 0.0969805
-5.09884 0.618292 0.0810205
-5.08909 0.615796 0.0479795
-5.08821 0.615559 0.0319741
-5.07751 0.611959 -0.00805868
-5.06875 0.610479 -0.0401072
-5.06999 0.610006 -0.0720952
-5.06511 0.608765 -0.0881158
-5.06123 0.607526 -0.104129
-5.05842 0.607168 -0.128148
-5.05554 0.605929 -0.144154
-5.0459 0.603212 -0.192193
-5.04502 0.602974 -0.208198
-5.31865 0.760326 1.28874
-5.30509 0.754458 1.23072
-5.2914 0.749856 1.19068
-5.29046 0.748722 1.18169
-5.28362 0.746421 1.16167
-5.27976 0.745137 1.14265
-5.28888 0.745907 1.12671
-5.27531 0.740068 1.07068
-5.26347 0.736749 1.04964
-5.26865 0.736383 1.02468
-5.25195 0.731793 0.985619
-5.25508 0.731544 0.968644
-5.24423 0.72824 0.948608
-5.24044 0.725838 0.921611
-5.23185 0.722032 0.867595
-5.22598 0.719762 0.849582
-5.23011 0.719513 0.832615
-5.22225 0.717241 0.814587
-5.20386 0.711029 0.733529
-5.20099 0.709775 0.716524
-5.20112 0.708523 0.699541
-5.19619 0.707372 0.689519
-5.19732 0.707136 0.673529
-5.18759 0.703596 0.637503
-5.18472 0.702342 0.620498
-5.17985 0.701072 0.602477
-5.18097 0.699836 0.586502
-5.17917 0.69845 0.560505
-5.1743 0.697195 0.543485
-5.17043 0.69594 0.526472
-5.16157 0.693668 0.508436
-5.16569 0.693434 0.492469
-5.15882 0.692162 0.474433
-5.16494 0.69193 0.458481
-5.15801 0.690792 0.449444
-5.15314 0.689536 0.432424
-5.15327 0.688285 0.415441
-5.1454 0.687027 0.398398
-5.14952 0.686794 0.38243
-5.13666 0.683518 0.364379
-5.14378 0.684286 0.348419
-5.13685 0.683148 0.339383
-5.13297 0.681908 0.323369
-5.13509 0.681658 0.306387
-5.13322 0.68042 0.290389
-5.12734 0.679164 0.273361
-5.12847 0.678928 0.257371
-5.12459 0.677673 0.240358
-5.11766 0.676535 0.231321
-5.11578 0.675297 0.215323
-5.10891 0.67404 0.198287
-5.10903 0.672804 0.182304
-5.11015 0.672568 0.166314
-5.10928 0.672315 0.149309
-5.1094 0.672078 0.133311
-5.10452 0.670838 0.117291
-5.09759 0.6687 0.108269
-5.09471 0.668461 0.0922484
-5.08584 0.666203 0.0752126
-5.08696 0.665967 0.0592224
-5.08209 0.664726 0.0432018
-5.08321 0.66449 0.0272115
-5.07834 0.663235 0.010191
-5.07839 0.663131 0.003192
-5.07951 0.662895 -0.0127983
-5.07264 0.661639 -0.0298338
-5.07476 0.661403 -0.0458165
-5.07388 0.661166 -0.0618218
-5.069 0.659925 -0.0778425
-5.06312 0.658684 -0.0938706
-5.06018 0.657564 -0.101877
-5.0623 0.657328 -0.11786
-5.05742 0.656088 -0.133881
-5.05554 0.65585 -0.149893
-5.05167 0.65461 -0.165907
-5.04679 0.65337 -0.181927
-5.04891 0.654134 -0.197925
-5.04697 0.653015 -0.205924
-5.04108 0.651788 -0.220952
-5.0432 0.652553 -0.23695
-5.32931 0.813935 1.32903
-5.33038 0.813803 1.32004
-5.31854 0.809484 1.29901
-5.31768 0.808202 1.28002
-5.3248 0.80897 1.26406
-5.30499 0.803601 1.23999
-5.30811 0.803351 1.22302
-5.29934 0.799916 1.194
-5.30047 0.79865 1.17602
-5.3016 0.798399 1.15903
-5.29574 0.796114 1.14002
-5.29289 0.79483 1.12101
-5.29016 0.791296 1.08504
-5.28524 0.790144 1.07502
-5.27453 0.786574 1.03699
-5.27266 0.784306 1.019
-5.27479 0.784056 1.00202
-5.26893 0.781771 0.983007
-5.26022 0.778217 0.945988
-5.25229 0.776063 0.935959
-5.25043 0.774795 0.917961
-5.25256 0.774545 0.900979
-5.24869 0.773276 0.882966
-5.24583 0.772007 0.864961
-5.24596 0.770756 0.847978
-5.23411 0.767451 0.827935
-5.23817 0.768336 0.819951
-5.23131 0.766064 0.801931
-5.21946 0.76276 0.781888
-5.22058 0.762524 0.765897
-5.22371 0.762274 0.748922
-5.21785 0.760004 0.730909
-5.21897 0.759753 0.713919
-5.21903 0.758635 0.705935
-5.21018 0.756347 0.686899
-5.2133 0.756112 0.670924
-5.21043 0.754859 0.653919
-5.20357 0.752587 0.635898
-5.19271 0.750298 0.616848
-5.19983 0.751066 0.600888
-5.1949 0.74893 0.591881
-5.19203 0.747676 0.574876
-5.19316 0.747425 0.557885
-5.18928 0.746171 0.540872
-5.18641 0.744917 0.523867
-5.17281 0.740138 0.471828
-5.16601 0.737748 0.445809
-5.16113 0.736493 0.428788
-5.1595 0.734766 0.379795
-5.1527 0.732376 0.353775
-5.14883 0.731122 0.336762
-5.12753 0.723745 0.244698
-5.10858 0.716673 0.105641
-5.1057 0.715434 0.0896355
-5.86508 -0.467322 4.6755
-5.83841 -0.465963 4.49825
-5.83566 -0.465454 4.46522
-5.82208 -0.465293 4.40911
-5.81534 -0.464816 4.37404
-5.80861 -0.46434 4.33898
-5.80584 -0.463801 4.30795
-5.79513 -0.463371 4.26986
-5.79734 -0.462785 4.24186
-5.7886 -0.463309 4.2068
-5.78772 -0.462547 4.19078
-5.78097 -0.462041 4.15771
-5.77622 -0.461533 4.12467
-5.76947 -0.462041 4.09062
-5.76968 -0.461456 4.06261
-5.76592 -0.460918 4.03157
-5.75816 -0.460412 3.9985
-5.74435 -0.460778 3.97439
-5.74953 -0.460129 3.95042
-5.74178 -0.459639 3.91635
-5.74199 -0.460038 3.88935
-5.72747 -0.459011 3.82422
-5.72867 -0.459396 3.79823
-5.72479 -0.458635 3.78219
-5.70311 -0.458273 3.74001
-5.71226 -0.458563 3.72008
-5.69257 -0.457184 3.67891
-5.70172 -0.457474 3.65898
-5.68898 -0.457002 3.62387
-5.69116 -0.457355 3.59989
-5.67236 -0.456754 3.57374
-5.68449 -0.457012 3.55583
-5.66478 -0.455589 3.51765
-5.66796 -0.455942 3.49368
-5.66218 -0.455376 3.46462
-5.66137 -0.455762 3.43862
-5.64863 -0.455275 3.40451
-5.64194 -0.454901 3.36245
-5.64312 -0.455256 3.33846
-5.62278 -0.453559 3.25127
-5.6311 -0.45419 3.20834
-5.6093 -0.453591 3.18216
-5.6045 -0.452994 3.15511
-5.6017 -0.453382 3.12909
-5.59907 -0.453109 3.08006
-5.58829 -0.452561 3.04997
-5.56155 -0.451054 2.88272
-5.55873 -0.451412 2.8587
-5.5424 -0.450742 2.76956
-5.53477 -0.450473 2.72049
-5.52141 -0.449742 2.63537
-5.95989 -0.384132 5.22406
-5.92454 -0.383401 5.00475
-5.91783 -0.382969 4.96669
-5.89111 -0.382506 4.79645
-5.8834 -0.383089 4.7574
-5.84692 -0.382107 4.55508
-5.83171 -0.381658 4.45095
-5.81062 -0.381466 4.32977
-5.80786 -0.381942 4.29775
-5.79714 -0.381512 4.25966
-5.79835 -0.380926 4.23165
-5.77624 -0.38069 4.11347
-5.75918 -0.380553 3.98832
-5.75243 -0.381047 3.95527
-5.74101 -0.381196 3.87818
-5.73127 -0.380706 3.84409
-5.73147 -0.381106 3.8171
-5.72192 -0.381001 3.75701
-5.71716 -0.380464 3.72597
-5.69955 -0.380247 3.67382
-5.70074 -0.380631 3.64783
-5.68541 -0.379946 3.5597
-5.67893 -0.379972 3.49064
-5.67016 -0.380438 3.45957
-5.64133 -0.379769 3.30333
-5.64052 -0.38014 3.27832
-5.63492 -0.379929 3.22527
-5.60886 -0.379799 3.10005
-5.5881 -0.380258 2.93488
-5.58049 -0.380019 2.88381
-5.55935 -0.380722 2.76965
-5.55055 -0.380128 2.74257
-5.5547 -0.380422 2.7226
-5.54226 -0.380527 2.6485
-5.53254 -0.380096 2.61042
-5.53271 -0.380422 2.58842
-5.5259 -0.380797 2.56337
-5.52109 -0.380171 2.53832
-5.51925 -0.380498 2.51631
-5.51543 -0.380856 2.49228
-5.50388 -0.380739 2.43318
-5.49308 -0.380146 2.40609
-5.49224 -0.380458 2.38509
-5.48742 -0.380817 2.36105
-5.48559 -0.381144 2.33904
-5.48773 -0.380439 2.31904
-5.48 -0.380963 2.28399
-5.47717 -0.38129 2.26197
-5.47035 -0.380651 2.2379
-5.46552 -0.380995 2.21487
-5.4577 -0.381356 2.19081
-5.45985 -0.380651 2.17082
-5.45808 -0.381111 2.1398
-5.44926 -0.381473 2.11574
-5.44144 -0.380834 2.09167
-5.44558 -0.381098 2.0737
-5.43776 -0.381459 2.04964
-5.42694 -0.380822 2.02555
-5.43607 -0.381067 2.00862
-5.42318 -0.381299 1.99352
-5.43031 -0.381545 1.97658
-5.42747 -0.381858 1.95556
-5.41466 -0.381238 1.93045
-5.41182 -0.381551 1.90943
-5.41495 -0.381815 1.89146
-5.40114 -0.382195 1.86635
-5.40627 -0.381458 1.84838
-5.39837 -0.381657 1.83532
-5.39353 -0.381971 1.81429
-5.39667 -0.382235 1.79631
-5.39981 -0.382514 1.77734
-5.38698 -0.381864 1.75423
-5.38613 -0.382161 1.73422
-5.39027 -0.382425 1.71625
-5.37139 -0.382675 1.70011
-5.37153 -0.381957 1.6811
-5.37367 -0.382222 1.66312
-5.36085 -0.382587 1.63902
-5.36299 -0.382852 1.62104
-5.36512 -0.383117 1.60306
-5.36028 -0.382431 1.58201
-5.34938 -0.382632 1.56893
-5.35151 -0.382897 1.55095
-5.95738 -0.322207 5.28613
-5.95467 -0.321772 5.2481
-5.94599 -0.322415 5.20503
-5.9342 -0.321839 5.17693
-5.92081 -0.322048 5.09582
-5.9007 -0.32281 4.97767
-5.895 -0.322392 4.93861
-5.87125 -0.322882 4.77142
-5.85485 -0.323064 4.69229
-5.74323 -0.325719 3.97739
-5.72495 -0.326154 3.88124
-5.72436 -0.326969 3.82624
-5.70996 -0.327149 3.74713
-5.69842 -0.327061 3.68603
-5.69085 -0.327926 3.62798
-5.66606 -0.328313 3.46777
-5.66445 -0.328084 3.41575
-5.64871 -0.328614 3.38064
-5.63905 -0.329273 3.33657
-5.63227 -0.328722 3.3065
-5.63345 -0.329076 3.28251
-5.62287 -0.328899 3.22742
-5.61908 -0.329316 3.1994
-5.61419 -0.329542 3.18436
-5.60641 -0.329977 3.15531
-5.60659 -0.329332 3.13129
-5.59881 -0.329767 3.10224
-5.59202 -0.330187 3.07419
-5.5902 -0.330544 3.05018
-5.59437 -0.329867 3.0282
-5.58251 -0.330157 3.00911
-5.57871 -0.330544 2.98308
-5.57489 -0.330917 2.95805
-5.57308 -0.330289 2.93303
-5.57425 -0.330614 2.91104
-5.56148 -0.331082 2.87995
-5.55966 -0.331439 2.85593
-5.55776 -0.331633 2.84292
-5.54632 -0.331737 2.76883
-5.54151 -0.332111 2.74379
-5.53986 -0.331808 2.69677
-5.53306 -0.332198 2.67072
-5.52716 -0.33241 2.65668
-5.52434 -0.332767 2.63266
-5.52251 -0.332109 2.60963
-5.52467 -0.332418 2.58865
-5.51388 -0.332826 2.56157
-5.51006 -0.333184 2.53754
-5.50823 -0.333526 2.51453
-5.50034 -0.332754 2.49946
-5.49652 -0.333098 2.47643
-5.4927 -0.333456 2.4524
-5.49086 -0.333783 2.43039
-5.4862 -0.333453 2.38534
-5.49234 -0.33373 2.36639
-5.48944 -0.333909 2.35437
-5.47564 -0.334319 2.32727
-5.47879 -0.334613 2.3073
-5.47596 -0.334941 2.28528
-5.46615 -0.334333 2.25919
-5.46631 -0.334644 2.23819
-5.46148 -0.334988 2.21516
-5.45857 -0.335153 2.20414
-5.4519 -0.334824 2.15908
-5.44508 -0.33517 2.13603
-5.43925 -0.335515 2.11298
-5.43642 -0.335843 2.09096
-5.43258 -0.336171 2.06894
-5.42576 -0.335517 2.04587
-5.42882 -0.335648 2.0369
-5.42314 -0.336274 1.99486
-5.42429 -0.336569 1.97487
-5.42045 -0.336883 1.95384
-5.41063 -0.337246 1.92977
-5.41277 -0.336526 1.91077
-5.40118 -0.337334 1.85669
-5.39734 -0.337647 1.83566
-5.3945 -0.33796 1.81464
-5.3908 -0.337556 1.7746
