2.48328 0.256343 7.69429
2.47475 0.260267 7.75631
2.46623 0.264206 7.81932
2.46351 0.266771 7.85731
2.45192 0.269579 7.91136
2.44241 0.273548 7.97638
2.4298 0.277312 8.02743
2.41621 0.280121 8.0815
2.40775 0.284178 8.15251
2.39621 0.28809 8.21355
2.39352 0.290713 8.25554
2.38201 0.294669 8.31957
2.37047 0.29858 8.38061
3.34782 0.00443539 2.47079
3.3391 0.00598952 2.50783
3.33979 0.0113361 2.59876
3.32979 0.0103435 2.59885
3.32302 0.0118074 2.62989
3.32014 0.0130463 2.64589
3.31525 0.0132572 2.65993
3.3105 0.0147492 2.69295
3.31876 0.0172612 2.72785
3.30611 0.0189515 2.77393
3.29633 0.0203879 2.80298
3.28662 0.0219724 2.84204
3.28157 0.0278266 2.96701
3.15582 0.063207 3.66253
3.1451 0.0647626 3.69959
3.1356 0.0687465 3.76561
3.12772 0.0689892 3.78167
3.13187 0.0702674 3.80062
3.12701 0.0715522 3.81964
2.94995 0.13121 4.86924
2.94516 0.132628 4.89726
2.94255 0.136399 4.94923
2.93879 0.137876 4.98124
2.93301 0.139295 5.00927
2.92621 0.140699 5.0363
2.92145 0.143176 5.0683
2.91364 0.144552 5.09334
2.90584 0.145943 5.11939
2.90022 0.148702 5.17039
2.89749 0.151222 5.20538
2.89071 0.152656 5.23442
2.70149 0.22598 6.39592
2.67383 0.236605 6.57199
2.66132 0.240577 6.63704
2.65467 0.244277 6.68404
2.64192 0.245775 6.71712
2.6256 0.252104 6.80616
2.61898 0.254864 6.85717
2.61032 0.257522 6.90121
2.61467 0.261214 6.94813
2.60195 0.263771 6.98519
2.59638 0.267619 7.04218
2.58467 0.26919 7.08025
2.57503 0.272893 7.12728
2.56744 0.276697 7.18129
2.56087 0.279546 7.2383
2.56116 0.282108 7.27627
2.55153 0.285841 7.32529
2.54192 0.289617 7.37731
2.53334 0.292438 7.43234
2.52169 0.296127 7.47838
2.51415 0.300036 7.53939
2.50045 0.302638 7.57946
2.50487 0.306448 7.63438
2.49428 0.31027 7.68941
2.48471 0.313106 7.74545
2.47105 0.316797 7.7915
2.46149 0.320648 7.84852
2.44888 0.323427 7.90059
2.43831 0.327278 7.95762
2.42776 0.331159 8.01665
2.42917 0.334957 8.07059
2.41863 0.338868 8.13162
2.40502 0.342648 8.18367
2.39451 0.346618 8.2487
2.38195 0.35047 8.30575
2.37145 0.35547 8.37276
3.34611 0.0299818 2.50743
3.34826 0.0312615 2.52639
3.33632 0.0313886 2.53448
3.34753 0.032795 2.56238
3.33458 0.0329081 2.56948
3.32861 0.0329716 2.57352
3.32774 0.0342239 2.59051
3.3309 0.0355325 2.61147
3.31997 0.0346738 2.62057
3.32313 0.0359824 2.64153
3.31623 0.0371798 2.65456
3.32241 0.0385306 2.6785
3.31946 0.0386364 2.68552
3.31069 0.0400869 2.71557
3.30681 0.0403266 2.7316
3.30494 0.0415796 2.7486
3.29717 0.0430442 2.77964
3.29725 0.0431922 2.78964
3.28747 0.0446435 2.81969
3.28662 0.0459253 2.83868
3.28575 0.0471924 2.85667
3.2839 0.0474751 2.87569
3.27699 0.0486725 2.88872
3.28815 0.0499753 2.90962
3.28025 0.0501735 2.92268
3.27233 0.0503422 2.93374
3.26746 0.0515825 2.94976
3.25825 0.0571436 3.05476
3.23949 0.066585 3.21879
3.23562 0.0668396 3.23581
3.21925 0.0710951 3.31989
3.20281 0.0752025 3.39396
3.20088 0.0763371 3.40296
3.19904 0.0766494 3.42397
3.18914 0.077849 3.43703
3.19234 0.0792463 3.46399
3.19253 0.0806163 3.48897
3.18665 0.0818574 3.505
3.17675 0.0820571 3.51807
3.17886 0.0832628 3.53204
3.17502 0.0845764 3.55305
3.17116 0.0848606 3.57208
3.16428 0.0861024 3.58811
3.16448 0.0874872 3.6141
3.16064 0.0888008 3.63511
3.15174 0.0890146 3.64917
3.15184 0.0902069 3.66216
3.14416 0.0928342 3.70418
3.1385 0.0955045 3.74919
3.13688 0.0982459 3.79917
3.11882 0.105109 3.92422
3.115 0.106453 3.94723
3.10847 0.110375 4.00923
3.10363 0.111704 4.03125
3.08992 0.114277 4.06932
3.09318 0.116778 4.10327
3.07959 0.119602 4.15833
3.07477 0.120946 4.18135
3.06589 0.121189 4.19742
3.06006 0.122534 4.22045
3.04621 0.132779 4.37142
3.03836 0.133081 4.39148
3.02748 0.134326 4.40754
3.0367 0.136763 4.43744
3.03089 0.138137 4.46247
3.0233 0.140942 4.51649
3.01851 0.143345 4.5435
3.01067 0.144662 4.56454
3.00485 0.146036 4.58957
3.00903 0.147374 4.61252
3.00119 0.14869 4.63356
2.99262 0.15254 4.69058
2.98581 0.153915 4.71561
2.98304 0.155376 4.74661
2.97927 0.157823 4.77661
2.9726 0.160479 4.82063
2.95769 0.160653 4.83174
2.95319 0.164648 4.89872
2.94162 0.1685 4.95576
2.86475 0.19567 5.36899
2.859 0.197162 5.40202
2.8303 0.208714 5.57309
2.82678 0.212664 5.63707
2.80924 0.21658 5.69815
2.80492 0.222915 5.7881
2.79534 0.226737 5.84312
2.78698 0.233001 5.9281
2.77213 0.233308 5.94822
2.76888 0.240775 6.04714
2.74348 0.245963 6.12627
2.73214 0.251259 6.21329
2.7147 0.256367 6.28735
2.71822 0.261371 6.35526
2.70465 0.265225 6.41231
2.69338 0.272669 6.5093
2.68365 0.274209 6.54536
2.66833 0.280538 6.63439
2.66171 0.284282 6.68439
2.64464 0.293115 6.80741
2.62835 0.299519 6.90145
2.61971 0.302221 6.94848
2.55559 0.328907 7.32962
2.46292 0.369441 7.9018
2.45032 0.37322 7.95385
2.44283 0.378232 8.02184
2.40346 0.393443 8.23694
2.39398 0.398471 8.30594
2.36687 0.407223 8.42303
2.35125 0.409974 8.47312
3.33337 0.0614467 2.53806
3.23389 0.0943717 3.1364
3.21868 0.0999224 3.24045
3.21481 0.101177 3.25746
3.20809 0.103744 3.29548
3.20349 0.106517 3.34748
3.18805 0.110624 3.42155
3.15274 0.124966 3.64563
3.14404 0.126564 3.68568
3.13443 0.130326 3.7367
3.12695 0.134353 3.80571
3.1211 0.135638 3.82474
3.11252 0.139473 3.88075
3.0628 0.158965 4.18188
3.05797 0.160309 4.2049
3.04933 0.163011 4.25193
3.04653 0.164413 4.27894
3.00649 0.182276 4.53801
2.99967 0.183621 4.56105
2.99209 0.187456 4.61705
2.97858 0.191413 4.68111
2.97479 0.19383 4.7091
2.96724 0.197724 4.76911
2.96245 0.200142 4.79711
2.95302 0.205259 4.87212
2.87144 0.236009 5.32434
2.86196 0.241022 5.39235
2.79784 0.268693 5.77247
2.78274 0.277466 5.89147
2.77501 0.280004 5.9275
2.77031 0.2826 5.9675
2.76951 0.284985 5.99348
2.7628 0.287553 6.03149
2.75711 0.291164 6.07249
2.74734 0.29263 6.10355
2.74472 0.296357 6.15252
2.73599 0.298896 6.18855
2.72928 0.302478 6.22755
2.7285 0.304908 6.25653
2.72384 0.307577 6.30153
2.71003 0.309957 6.3266
2.70438 0.312628 6.37161
2.69872 0.316313 6.4176
2.69002 0.318896 6.45664
2.68924 0.321326 6.48561
2.68361 0.325055 6.53461
2.67491 0.328654 6.57462
2.66316 0.330136 6.60669
2.65856 0.334924 6.65966
2.64785 0.337494 6.69771
2.63815 0.340093 6.73775
2.63178 0.346326 6.82072
2.62007 0.349912 6.85976
2.61344 0.353642 6.90876
2.57787 0.367451 7.09685
2.5751 0.369897 7.12684
2.5675 0.373702 7.18085
2.56094 0.37855 7.23783
2.55129 0.382253 7.28486
2.53307 0.38979 7.3879
2.53238 0.393383 7.42786
2.52277 0.39716 7.47988
2.51523 0.402068 7.54087
2.5005 0.404612 7.57695
2.49094 0.408462 7.63397
2.48546 0.414487 7.70293
2.47076 0.41709 7.74301
2.46123 0.422 7.80402
2.4626 0.425724 7.85296
2.44586 0.428255 7.88806
2.43632 0.433164 7.94906
2.42783 0.438162 8.01606
2.39149 0.45543 8.23511
2.37895 0.460327 8.29514
2.36947 0.465356 8.36415
3.35519 0.0830582 2.51257
3.35325 0.084178 2.52057
3.34648 0.0856271 2.55061
3.3436 0.0858661 2.56663
3.33899 0.0886244 2.61763
3.31792 0.0954606 2.7407
3.34633 0.112298 2.52821
3.33352 0.113678 2.55329
3.32775 0.115141 2.58431
3.32582 0.116261 2.59231
3.33501 0.117639 2.61823
3.32106 0.117738 2.62433
3.32622 0.11906 2.64628
3.31631 0.11923 2.65735
3.31444 0.120483 2.67435
3.3135 0.121602 2.68234
3.31162 0.121855 2.69935
3.31378 0.124164 2.7203
3.30587 0.124333 2.73136
3.304 0.125586 2.74836
3.30314 0.126868 2.76735
3.29926 0.127108 2.78338
3.29846 0.129508 2.81035
3.29559 0.129762 2.82737
3.29474 0.131043 2.84636
3.28799 0.133537 2.87938
3.28209 0.133748 2.89343
3.27519 0.134946 2.90646
3.28348 0.137502 2.94437
3.27457 0.137686 2.95643
3.26968 0.138912 2.97145
3.26984 0.140223 2.99244
3.26092 0.140392 3.0035
3.26109 0.142718 3.02547
3.25814 0.142809 3.03149
3.26133 0.144176 3.05645
3.25645 0.145417 3.07247
3.25173 0.147968 3.10947
3.2539 0.149307 3.13244
3.24197 0.149449 3.14153
3.2471 0.150697 3.15847
3.24222 0.151937 3.1745
3.24238 0.153248 3.19548
3.23145 0.153404 3.20556
3.23264 0.155758 3.22952
3.22676 0.155999 3.24556
3.22592 0.158311 3.26654
3.22701 0.158502 3.27953
3.21929 0.161041 3.31555
3.21643 0.162324 3.33456
3.21459 0.163636 3.35556
3.20972 0.164891 3.37258
3.20183 0.166119 3.38762
3.20411 0.168665 3.42457
3.19154 0.172503 3.48061
3.18567 0.173774 3.49864
3.1808 0.174029 3.51568
3.17888 0.175179 3.52568
3.17118 0.177776 3.5657
3.16833 0.179074 3.58571
3.17256 0.181515 3.61564
3.16972 0.182843 3.63765
3.15275 0.182915 3.64178
3.15891 0.184221 3.66271
3.148 0.184392 3.67379
3.14314 0.185677 3.69281
3.14455 0.190475 3.74674
3.13485 0.193059 3.78578
3.13091 0.193181 3.79381
3.12809 0.195538 3.8178
3.12021 0.19578 3.83386
3.11941 0.198166 3.85983
3.11375 0.201851 3.90582
3.10387 0.20208 3.9209
3.10801 0.204358 3.93984
3.10317 0.205673 3.96086
3.10541 0.20813 3.99181
3.0945 0.208315 4.00389
3.08865 0.209631 4.02492
3.08483 0.210974 4.04793
3.0864 0.217083 4.12284
3.06562 0.218527 4.15198
3.06506 0.223386 4.20992
3.05227 0.22481 4.23799
3.02853 0.238284 4.404
3.01207 0.243362 4.47606
3.00928 0.244778 4.50406
2.98642 0.257015 4.65407
2.98088 0.261922 4.71505
2.96942 0.266981 4.78607
2.96086 0.271846 4.84407
2.94826 0.27564 4.89712
2.94363 0.279368 4.9461
2.9419 0.282887 4.98107
2.93033 0.28674 5.03811
2.91472 0.290506 5.08918
2.90519 0.29543 5.15118
2.90263 0.300291 5.20914
2.89382 0.302667 5.23417
2.88703 0.304087 5.26221
2.88229 0.307593 5.2962
2.87653 0.310071 5.32821
2.86992 0.313845 5.38021
2.86721 0.31741 5.41818
2.85638 0.318758 5.44125
2.84861 0.321208 5.47127
2.84591 0.324787 5.51024
2.84238 0.329707 5.57221
2.83562 0.332186 5.60423
2.82584 0.334622 5.63327
2.81908 0.337101 5.66529
2.81031 0.339551 5.69532
2.80663 0.343175 5.7373
2.79989 0.345684 5.77132
2.79518 0.349264 5.81031
2.7917 0.355288 5.87925
2.77786 0.356594 5.89934
2.78232 0.361494 5.96024
2.76077 0.366383 6.01934
2.75935 0.373523 6.09626
2.74494 0.379688 6.17428
2.70619 0.393158 6.3394
2.69849 0.396756 6.37941
2.69081 0.400368 6.42042
2.6583 0.416308 6.61746
2.65167 0.421038 6.66644
2.64402 0.424724 6.71245
2.60963 0.442887 6.92447
2.59132 0.450262 7.01651
2.58268 0.454964 7.06352
2.55886 0.46829 7.21952
2.53849 0.487487 7.43442
2.50907 0.493633 7.51056
2.48817 0.506794 7.65554
2.48681 0.514038 7.73946
2.467 0.516438 7.76557
2.46463 0.523653 7.8475
2.43734 0.531064 7.9416
2.4418 0.536964 8.00249
2.42201 0.539392 8.03061
2.41766 0.546654 8.11555
2.40609 0.551506 8.17257
3.33931 0.137227 2.52289
3.31821 0.144004 2.64197
3.31555 0.147672 2.68694
3.29232 0.153199 2.78905
3.2965 0.155551 2.81298
3.28774 0.157016 2.84403
3.28285 0.158242 2.85905
3.28006 0.159643 2.88606
3.28424 0.161995 2.90999
3.27533 0.16218 2.92206
3.27548 0.163476 2.94204
3.26168 0.164885 2.96913
3.26184 0.166196 2.99011
3.25603 0.16857 3.01512
3.26325 0.170994 3.04404
3.2503 0.170107 3.05115
3.24845 0.17139 3.07015
3.23995 0.176373 3.13615
3.23407 0.177614 3.15217
3.23036 0.180194 3.19117
3.22449 0.181435 3.2072
3.22273 0.18291 3.23919
3.21886 0.184165 3.25621
3.215 0.185449 3.27522
3.21921 0.187845 3.30215
3.21535 0.189129 3.32117
3.20973 0.192874 3.37116
3.19496 0.194343 3.40226
3.19009 0.195598 3.41928
3.18523 0.196868 3.4373
3.18339 0.198195 3.45929
3.17853 0.199465 3.47731
3.17964 0.200672 3.49129
3.17477 0.201942 3.50931
3.16625 0.20688 3.57231
3.15461 0.210599 3.62035
3.14309 0.21454 3.68339
3.12398 0.223301 3.80142
3.09244 0.238166 3.99346
3.05808 0.254403 4.21051
3.01208 0.275329 4.47358
3.00929 0.277745 4.50157
3.00765 0.281457 4.54953
2.98442 0.289968 4.6506
2.97424 0.298574 4.75856
2.97046 0.301021 4.78856
2.9596 0.302296 4.80662
2.95685 0.305786 4.8396
2.95004 0.307161 4.86463
2.94628 0.309637 4.89663
2.94151 0.312085 4.92663
2.94165 0.314351 4.9446
2.93993 0.317915 4.98257
2.92704 0.318131 4.99666
2.92836 0.321752 5.0386
2.92056 0.324157 5.06563
2.91682 0.326663 5.09963
2.91392 0.327858 5.11263
2.90916 0.331335 5.14462
2.90138 0.33277 5.17366
2.89358 0.33516 5.19969
2.89796 0.339897 5.24959
2.88815 0.342274 5.27463
2.88238 0.344722 5.30465
2.87155 0.346071 5.32771
2.8768 0.349555 5.36062
2.87105 0.352048 5.39364
2.86428 0.354497 5.42365
2.85752 0.356975 5.45567
2.8467 0.359324 5.47872
2.83995 0.361832 5.51274
2.84031 0.366527 5.55968
2.83373 0.371361 5.61566
2.83309 0.375057 5.66262
2.82229 0.377464 5.68967
2.82064 0.382131 5.73462
2.80374 0.382351 5.74874
2.80901 0.385865 5.78366
2.80228 0.389403 5.81966
2.78518 0.399176 5.93866
2.77746 0.402715 5.97467
2.76666 0.405122 6.00172
2.76302 0.408821 6.0487
2.76526 0.412292 6.08064
2.7545 0.414759 6.11168
2.74678 0.418312 6.14869
2.73704 0.420837 6.18374
2.73545 0.425638 6.23768
2.72877 0.429264 6.27969
2.71393 0.430586 6.30078
2.71054 0.438787 6.3817
2.70593 0.443545 6.43267
2.69621 0.4461 6.46971
2.6865 0.449669 6.50773
2.67476 0.452181 6.54179
2.67117 0.457998 6.59674
2.67039 0.460413 6.62471
2.6607 0.464041 6.66674
2.65712 0.468858 6.7217
2.64336 0.471327 6.75277
2.63368 0.47597 6.79578
2.63013 0.480846 6.85475
2.61432 0.483227 6.87983
2.61665 0.486877 6.92377
2.61109 0.492725 6.98073
2.6004 0.496354 7.02276
2.58871 0.499954 7.0628
2.58315 0.504817 7.12078
2.57556 0.510621 7.17476
2.56286 0.514223 7.21481
2.56623 0.518945 7.26372
2.55865 0.523765 7.31871
2.54701 0.528484 7.36674
2.53842 0.533274 7.41974
2.5237 0.535833 7.45682
2.51411 0.540654 7.51183
2.50864 0.547679 7.58077
2.49631 0.556005 7.66975
2.48779 0.561944 7.73274
2.47619 0.566722 7.78476
2.46255 0.570442 7.83282
2.45198 0.576293 7.88982
2.43836 0.581043 7.93986
2.43975 0.585797 7.99078
2.43026 0.591795 8.05778
2.41869 0.597647 8.11478
2.40611 0.602485 8.17081
2.39459 0.608426 8.23382
2.38099 0.61322 8.28686
3.34707 0.16173 2.48947
3.32395 0.168449 2.60456
3.31437 0.172285 2.66058
3.3135 0.173537 2.67757
3.29819 0.178895 2.76862
3.28087 0.18524 2.85867
3.28001 0.186522 2.87766
3.27729 0.189072 2.91465
3.27442 0.190325 2.93165
3.26458 0.191643 2.95271
3.26272 0.192926 2.97171
3.25312 0.196703 3.02373
3.25754 0.201528 3.07963
3.23004 0.215479 3.27766
3.20846 0.219309 3.33277
3.21082 0.223018 3.38071
3.19101 0.224402 3.40584
3.19329 0.226948 3.44279
3.18137 0.227105 3.45288
3.18256 0.229474 3.47784
3.1644 0.238145 3.58986
3.16156 0.239443 3.60987
3.15368 0.240686 3.62591
3.15387 0.24307 3.65188
3.14224 0.246789 3.69992
3.1394 0.248117 3.72192
3.13657 0.250445 3.74391
3.1289 0.253087 3.78694
3.12303 0.254357 3.80496
3.11829 0.256864 3.83897
3.10136 0.268963 3.97994
3.09462 0.271471 4.01395
3.06955 0.28131 4.13701
3.06191 0.285026 4.18502
3.04768 0.293531 4.28602
3.04982 0.295796 4.30397
3.04095 0.297069 4.32202
3.03513 0.298414 4.34505
3.02676 0.305648 4.42802
3.02295 0.308036 4.45401
3.01624 0.311603 4.49202
3.01245 0.31402 4.52001
3.00361 0.315323 4.54006
2.99981 0.317725 4.56706
2.994 0.319099 4.59209
2.98642 0.323934 4.64808
2.99161 0.3273 4.67299
2.98784 0.329747 4.70299
2.98102 0.331092 4.72603
2.97521 0.333481 4.75204
2.9684 0.335856 4.77706
2.96173 0.339497 4.82006
2.96099 0.343016 4.85502
2.95622 0.345463 4.88502
2.94637 0.346766 4.90508
2.9416 0.349214 4.93508
2.93784 0.35169 4.96708
2.93307 0.355138 4.99707
2.92845 0.358881 5.04705
2.91456 0.360098 5.06114
2.91182 0.363618 5.09612
2.91011 0.367182 5.13408
2.91041 0.370774 5.17403
2.90059 0.372121 5.19709
2.89279 0.374527 5.22412
2.89497 0.37688 5.24807
2.88922 0.380358 5.28006
2.87939 0.381706 5.30312
2.87567 0.385256 5.3401
2.86585 0.386604 5.36316
2.86112 0.39014 5.39915
2.86738 0.393653 5.43405
2.85756 0.396001 5.4571
2.84776 0.398407 5.48414
2.8471 0.402059 5.52809
2.84237 0.405595 5.56408
2.82952 0.406886 5.58316
2.82684 0.411524 5.62612
2.82111 0.414061 5.66213
2.82027 0.416373 5.68311
2.81353 0.419881 5.71711
2.80781 0.422432 5.75412
2.79803 0.425869 5.78315
2.7974 0.430579 5.83109
2.7866 0.431987 5.85815
2.77989 0.435554 5.89616
2.78313 0.439025 5.92808
2.77031 0.441375 5.95115
2.76869 0.446116 6.0011
2.76096 0.448655 6.03712
2.76137 0.454454 6.09104
2.71071 0.483049 6.39904
2.70301 0.486646 6.43905
2.69714 0.488902 6.45607
2.68483 0.497258 6.54705
2.67003 0.499668 6.57413
2.66135 0.503296 6.61615
2.65164 0.506866 6.65417
2.64398 0.511537 6.69917
2.64731 0.516171 6.74208
2.63659 0.518726 6.77913
2.62029 0.5281 6.87112
2.60402 0.537547 6.96812
2.59259 0.54465 7.04211
2.58908 0.550615 7.10706
2.57432 0.554099 7.13912
2.56775 0.558948 7.19611
2.55913 0.563679 7.24511
2.54194 0.574275 7.3521
2.53917 0.577721 7.38207
2.53264 0.583658 7.44504
2.51998 0.588319 7.48907
2.51241 0.593168 7.54607
2.49873 0.597799 7.58811
2.49632 0.604955 7.66603
2.4772 0.616686 7.78201
2.46525 0.616783 7.7881
2.46389 0.626042 7.87299
2.44616 0.628573 7.90809
2.43561 0.634454 7.96709
2.43428 0.643772 8.05597
2.40912 0.654433 8.16702
2.40233 0.657837 8.19403
2.39594 0.665026 8.27398
2.37721 0.668572 8.31007
2.37082 0.676776 8.39101
2.71102 0.519652 6.30449
2.66416 0.54786 6.58646
2.6555 0.552517 6.63046
2.63256 0.566606 6.77045
2.61449 0.578439 6.89342
2.60789 0.584228 6.9464
2.58859 0.593604 7.03841
2.57267 0.608717 7.18033
2.56099 0.612347 7.22237
2.55341 0.618166 7.27735
2.54379 0.622913 7.32736
2.53419 0.628704 7.38035
2.52459 0.634496 7.43335
2.50644 0.646151 7.54433
2.50575 0.649773 7.58628
2.49617 0.655594 7.64128
2.48149 0.660227 7.68332
2.4791 0.668412 7.76323
2.46136 0.671928 7.79732
2.45284 0.678867 7.86029
2.44779 0.691735 7.98615
2.42365 0.703425 8.09918
2.39852 0.71613 8.21319
2.38945 0.728957 8.33609
2.78371 0.518098 5.8649
2.76457 0.529784 5.97789
2.73592 0.548424 6.15485
2.73025 0.55208 6.19885
2.72356 0.556691 6.23983
2.71687 0.561288 6.27982
2.70815 0.564857 6.31784
2.70045 0.56944 6.35684
2.69277 0.573067 6.39885
2.69605 0.577612 6.43576
2.68837 0.582239 6.47775
2.68171 0.58691 6.52274
2.67098 0.59045 6.55877
2.66637 0.596208 6.60973
2.65668 0.599807 6.64976
2.65795 0.604339 6.68568
2.64519 0.607822 6.71773
2.64672 0.614857 6.78763
2.62888 0.61718 6.80873
2.62942 0.625216 6.87862
2.61109 0.634546 6.96763
2.59428 0.636928 6.99272
2.58797 0.64628 7.08365
2.56869 0.656699 7.17865
2.5652 0.664678 7.24457
2.54942 0.667134 7.27465
2.54696 0.675186 7.34556
2.54421 0.678662 7.37754
2.52397 0.689171 7.47855
2.50479 0.701783 7.58652
2.50032 0.708822 7.65646
2.4713 0.722738 7.78449
2.44913 0.735381 7.89448
2.44471 0.743509 7.97041
2.43109 0.749259 8.02043
2.42362 0.7573 8.09038
2.42094 0.761924 8.13234
2.41247 0.768951 8.20131
2.39785 0.774702 8.25134
2.38632 0.781642 8.31433
2.36967 0.78632 8.35939
3.28782 0.272018 2.84333
3.27804 0.273469 2.87338
3.25224 0.286827 3.0314
3.23028 0.29787 3.16842
3.21508 0.30645 3.27443
3.19504 0.31733 3.40043
3.1932 0.319657 3.42242
3.18248 0.322197 3.45846
3.17577 0.325779 3.49747
3.17706 0.330341 3.5354
3.1623 0.331825 3.56749
3.16067 0.336537 3.61544
3.14995 0.340092 3.65247
3.1563 0.344768 3.69836
3.13852 0.346211 3.72748
3.12984 0.350838 3.76948
3.127 0.352166 3.79148
3.12813 0.354402 3.80745
3.12046 0.358059 3.85145
3.11562 0.360373 3.87246
3.11279 0.361701 3.89446
3.10896 0.364044 3.91746
3.10524 0.367594 3.95444
3.10366 0.373409 4.00938
3.08872 0.373539 4.01749
3.08489 0.375882 4.04048
3.07927 0.380626 4.09046
3.07636 0.381791 4.10147
3.07355 0.384163 4.12646
3.06996 0.389979 4.18141
3.06008 0.390223 4.19748
3.05627 0.392596 4.22248
3.05144 0.394925 4.24448
3.06067 0.399362 4.27435
3.04777 0.399564 4.28745
3.04294 0.401908 4.31045
3.04319 0.405396 4.3434
3.03736 0.407726 4.36542
3.02976 0.412516 4.41841
3.02685 0.413681 4.42942
3.02509 0.417156 4.46138
3.02027 0.419514 4.48539
3.01548 0.421917 4.51239
3.0079 0.427752 4.56837
2.99803 0.42901 4.58543
3.00423 0.432405 4.61233
2.99236 0.433651 4.62841
2.98958 0.436097 4.6584
2.98683 0.439572 4.69037
2.979 0.441918 4.7134
2.9742 0.444307 4.7394
2.97146 0.447812 4.77338
2.97463 0.45115 4.79631
2.96275 0.451395 4.81239
2.96608 0.457029 4.85529
2.96131 0.459477 4.88529
2.95552 0.462895 4.91329
2.94973 0.465314 4.9413
2.94699 0.468819 4.97528
2.93456 0.476938 5.05026
2.92879 0.480386 5.08026
2.92302 0.482834 5.11027
2.91624 0.486268 5.13927
2.91148 0.488745 5.17128
2.90282 0.493418 5.21628
2.89637 0.501502 5.28922
2.8896 0.504951 5.31922
2.88386 0.508459 5.35322
2.87507 0.510865 5.38025
2.86949 0.516697 5.43622
2.85764 0.519002 5.45627
2.84921 0.527118 5.53123
2.8286 0.531888 5.58232
2.82915 0.539967 5.65521
2.81366 0.546955 5.72123
2.79816 0.553943 5.78725
2.78776 0.56312 5.8662
2.69737 0.630168 6.47298
2.65599 0.653365 6.68697
2.44675 0.800502 7.96955
2.42876 0.816498 8.10347
2.38841 0.840723 8.31944
2.37278 0.84646 8.36848
3.32489 0.279199 2.58691
3.3107 0.287793 2.6939
3.30581 0.289004 2.70792
3.30006 0.291497 2.74093
3.30114 0.292644 2.75091
3.29926 0.293897 2.76791
3.28762 0.297601 2.81495
3.28389 0.300136 2.85094
3.28102 0.30139 2.86795
3.28614 0.303608 2.88288
3.27822 0.303777 2.89394
3.27233 0.305003 2.90897
3.26761 0.30754 2.94497
3.26389 0.31109 2.98195
3.26311 0.31452 3.01091
3.2542 0.314704 3.02297
3.25738 0.317057 3.04692
3.25267 0.320622 3.08491
3.2498 0.321876 3.10191
3.2398 0.320898 3.103
3.24299 0.324251 3.12693
3.23626 0.326789 3.16295
3.23138 0.328029 3.17897
3.23071 0.332681 3.22291
3.22978 0.333815 3.2319
3.22492 0.335085 3.24992
3.21803 0.336297 3.26396
3.21819 0.337622 3.28594
3.21231 0.338863 3.30197
3.20947 0.341162 3.32196
3.21267 0.343559 3.34891
3.20872 0.34465 3.35492
3.20687 0.345963 3.37592
3.20504 0.348289 3.3979
3.1931 0.348417 3.40599
3.18925 0.349701 3.425
3.18843 0.352056 3.44898
3.18254 0.353283 3.464
3.1897 0.356588 3.4849
3.17797 0.359115 3.51996
3.17814 0.361455 3.54293
3.1743 0.363769 3.56392
3.16064 0.367445 3.60898
3.15477 0.3687 3.62601
3.14992 0.369985 3.64503
3.15516 0.374455 3.67693
3.14728 0.375697 3.69297
3.14646 0.378053 3.71694
3.14867 0.380466 3.7449
3.14474 0.381602 3.75391
3.13483 0.381787 3.76598
3.13302 0.384143 3.78997
3.11678 0.394635 3.88995
3.11193 0.395949 3.91097
3.10224 0.399563 3.95199
3.10146 0.402978 3.97995
3.08785 0.407743 4.03099
3.07436 0.414759 4.099
3.06874 0.419503 4.14898
3.0629 0.421818 4.16999
3.06605 0.424112 4.18993
3.05921 0.425427 4.21097
3.05641 0.428814 4.23694
3.03623 0.439427 4.34495
3.03849 0.442943 4.37989
3.02103 0.449992 4.44993
3.01319 0.452309 4.47095
3.00938 0.454696 4.49695
3.01457 0.458062 4.52186
3.00269 0.459293 4.53694
2.99991 0.461724 4.56593
2.99612 0.465141 4.59391
2.99537 0.46863 4.62687
2.98551 0.469904 4.64493
2.98781 0.475494 4.68483
2.98112 0.479105 4.72583
2.97431 0.48148 4.75085
2.97256 0.48597 4.7838
2.96981 0.489445 4.81578
2.96198 0.491791 4.83881
2.95922 0.495252 4.86978
2.9614 0.497606 4.89373
2.95661 0.501023 4.92172
2.94098 0.50576 4.97078
2.93824 0.509265 5.00475
2.93144 0.511655 5.03077
2.92363 0.51503 5.05578
2.92683 0.518428 5.08271
2.92105 0.520861 5.11172
2.91224 0.523237 5.13676
2.90849 0.526729 5.16974
2.90374 0.531205 5.20171
2.89797 0.533654 5.23172
2.88714 0.536002 5.25477
2.88035 0.539421 5.28278
2.88458 0.542862 5.3127
2.88085 0.546383 5.34768
2.87409 0.549861 5.37968
2.86935 0.554367 5.41366
2.86258 0.557816 5.44366
2.85785 0.561353 5.47965
2.85008 0.564802 5.50966
2.8533 0.568229 5.53859
2.84654 0.571707 5.57059
2.83675 0.574114 5.59764
2.83102 0.578651 5.63362
2.8263 0.583202 5.67059
2.81754 0.585667 5.70162
2.812 0.593574 5.76256
2.80627 0.59711 5.79855
2.80058 0.601707 5.83853
2.79384 0.606229 5.87352
2.78509 0.609724 5.90654
2.78243 0.614377 5.9505
2.77673 0.618973 5.99048
2.77592 0.622329 6.01444
2.7682 0.626897 6.05243
2.76048 0.630435 6.08844
2.75479 0.635046 6.12942
2.74809 0.639643 6.16941
2.7404 0.64424 6.20941
2.73268 0.648793 6.2464
2.71084 0.666073 6.39933
2.70213 0.670642 6.43734
2.6924 0.675181 6.47335
2.65637 0.70504 6.73221
2.63802 0.715311 6.81721
2.59608 0.747352 7.08809
2.58644 0.753054 7.13508
2.54925 0.781617 7.37397
2.54066 0.788408 7.42695
2.48998 0.824972 7.73283
2.48045 0.831882 7.79381
2.46679 0.837558 7.83883
2.44602 0.85797 8.00071
2.43446 0.864822 8.0577
2.42393 0.871762 8.12069
2.4093 0.877482 8.16872
2.39776 0.885379 8.2287
2.38661 0.899059 8.3416
3.34317 0.296733 2.4885
3.34927 0.298935 2.50242
3.34739 0.300173 2.51842
3.34753 0.30244 2.53639
3.33962 0.302623 2.54844
3.34278 0.304932 2.56939
3.3399 0.30617 2.58539
3.34004 0.307437 2.60338
3.33414 0.308634 2.61641
3.32932 0.309992 2.64043
3.32745 0.311245 2.65742
3.31752 0.311401 2.6675
3.3168 0.314949 2.70446
3.31594 0.317216 2.72243
3.29933 0.319983 2.77352
3.30855 0.324405 2.80239
3.30366 0.325631 2.81741
3.3018 0.326898 2.83541
3.29412 0.330526 2.87742
3.28737 0.333019 2.91044
3.28249 0.334259 2.92646
3.28264 0.336555 2.94643
3.27164 0.335563 2.94652
3.2711 0.341466 3.00745
3.2684 0.345046 3.04642
3.25066 0.347576 3.08152
3.25099 0.351213 3.12447
3.2483 0.355821 3.16543
3.23175 0.360707 3.22449
3.22604 0.364273 3.26249
3.22318 0.365556 3.28149
3.21326 0.365727 3.29257
3.21656 0.370301 3.33148
3.20901 0.376195 3.39146
3.20516 0.378479 3.41045
3.19929 0.379749 3.42848
3.1925 0.382154 3.4555
3.18278 0.385709 3.49253
3.17709 0.389319 3.53352
3.17325 0.391633 3.55452
3.17656 0.396237 3.59543
3.16262 0.396366 3.60354
3.16787 0.399836 3.63545
3.16502 0.402148 3.65644
3.15715 0.403391 3.67248
3.15936 0.406804 3.70042
3.15441 0.406911 3.70746
3.14653 0.408153 3.7235
3.14774 0.410552 3.75046
3.13502 0.414109 3.78751
3.13219 0.416451 3.8105
3.12735 0.418766 3.8315
3.12362 0.422286 3.86648
3.12585 0.425729 3.89642
3.11596 0.426958 3.91148
3.1182 0.430415 3.94241
3.10932 0.431658 3.95846
3.11054 0.435086 3.98741
3.10458 0.43518 3.99345
3.10177 0.437552 4.01844
3.09492 0.439838 4.03746
3.09615 0.443296 4.06841
3.08526 0.444511 4.08247
3.08042 0.445825 4.10349
3.07863 0.449241 4.13146
3.08178 0.451534 4.1514
3.07493 0.45382 4.17042
3.07212 0.456207 4.19641
3.06225 0.457451 4.21247
3.05844 0.460839 4.23845
3.05666 0.463255 4.26644
3.04982 0.46557 4.28746
3.05195 0.467835 4.30541
3.04613 0.47018 4.32842
3.04132 0.472553 4.35343
3.04157 0.476041 4.38638
3.03473 0.478357 4.4074
3.02486 0.479631 4.42545
3.0241 0.48409 4.4564
3.02929 0.487456 4.48131
3.01943 0.488729 4.49937
3.0126 0.491075 4.52239
3.01286 0.494578 4.55634
3.00907 0.497995 4.58432
3.00124 0.500326 4.60635
2.99745 0.502743 4.63435
2.99657 0.504981 4.65032
2.9822 0.514219 4.73331
2.98147 0.518738 4.76825
2.97263 0.520055 4.7893
2.96582 0.52243 4.81432
2.96408 0.526949 4.84927
2.95844 0.532648 4.89623
2.95469 0.536125 4.92822
2.94109 0.541919 4.98124
2.93834 0.545409 5.01421
2.93156 0.548843 5.04322
2.93171 0.551139 5.06319
2.92117 0.558035 5.12317
2.91236 0.560411 5.14821
2.91065 0.564989 5.18716
2.9059 0.568466 5.21915
2.89354 0.578733 5.3041
2.88574 0.581123 5.33013
2.8773 0.59021 5.40306
2.87053 0.593673 5.43407
2.8658 0.598195 5.46904
2.85044 0.607464 5.55403
2.83326 0.620059 5.66099
2.8255 0.623539 5.693
2.79878 0.644044 5.86092
2.7941 0.648669 5.90289
2.75204 0.679487 6.15879
2.74435 0.684085 6.19879
2.42406 0.923933 8.13192
2.38268 0.951115 8.34485
2.36807 0.957895 8.39687
2.35246 0.963661 8.44791
2.86594 0.61549 5.35377
2.86915 0.619887 5.38068
2.86035 0.622293 5.40772
2.85257 0.625713 5.43573
2.84211 0.634771 5.50668
2.83655 0.641633 5.56463
2.82878 0.645082 5.59464
2.82305 0.649619 5.63063
2.81528 0.653069 5.66064
2.81057 0.657649 5.69961
2.80383 0.662157 5.7336
2.80217 0.667824 5.77853
2.79138 0.670232 5.80558
2.79767 0.675789 5.84346
2.79096 0.680357 5.88145
2.78322 0.684865 5.91544
2.77547 0.688374 5.94945
2.76877 0.693956 5.98843
2.76308 0.698552 6.02841
2.75433 0.703061 6.06241
2.76065 0.708663 6.10329
2.74987 0.712115 6.13332
2.74318 0.716712 6.17331
2.73853 0.722396 6.21927
2.7298 0.726935 6.25527
2.71804 0.730402 6.28631
2.71643 0.737173 6.33823
2.71668 0.741646 6.37017
2.70695 0.746186 6.40618
2.70232 0.751914 6.45513
2.69363 0.757512 6.49512
2.67365 0.774524 6.63004
2.64483 0.793838 6.78499
2.63924 0.800627 6.83794
2.62753 0.805197 6.87597
2.62295 0.813014 6.93089
2.58564 0.841341 7.15379
2.56943 0.854892 7.25772
2.46706 0.933962 7.86541
2.44932 0.938478 7.89948
3.35628 0.35288 2.49857
3.34736 0.353034 2.50863
3.34951 0.355329 2.52859
3.33455 0.353414 2.53373
3.33771 0.356722 2.55466
3.34087 0.359031 2.5756
3.34194 0.360178 2.58558
3.34107 0.36143 2.60257
3.3392 0.362683 2.61957
3.33431 0.363909 2.63459
3.32841 0.365105 2.64762
3.31964 0.367556 2.67765
3.32575 0.369758 2.69158
3.32388 0.371011 2.70857
3.31899 0.372237 2.72359
3.31309 0.372449 2.73764
3.31122 0.374701 2.75462
3.30331 0.374885 2.76668
3.3095 0.37825 2.79159
3.30757 0.37937 2.79958
3.29981 0.381849 2.83161
3.29004 0.384301 2.86165
3.28818 0.385583 2.88065
3.2874 0.389013 2.90961
3.28352 0.390252 2.92562
3.28469 0.392577 2.94758
3.27679 0.393775 2.96063
3.27795 0.396085 2.98159
3.2702 0.398579 3.01461
3.26331 0.399806 3.02965
3.26455 0.403279 3.06159
3.25984 0.406845 3.09958
3.25496 0.408085 3.1156
3.25211 0.410368 3.13459
3.25026 0.412666 3.15457
3.24346 0.415055 3.18059
3.23673 0.418593 3.2166
3.23304 0.422202 3.25758
3.2301 0.423323 3.26558
3.22725 0.425606 3.28457
3.21668 0.430458 3.34159
3.20978 0.43167 3.35562
3.20207 0.435238 3.39363
3.19731 0.4387 3.42462
3.19667 0.444396 3.47155
3.19281 0.44568 3.49056
3.18593 0.447922 3.50658
3.1862 0.451454 3.54253
3.16477 0.458565 3.6166
3.15709 0.463192 3.6586
3.15636 0.467725 3.69454
3.14263 0.470268 3.73061
3.14506 0.477095 3.7865
3.13345 0.482858 3.83751
3.09248 0.512853 4.10541
3.07711 0.522093 4.1884
3.06443 0.526724 4.23043
3.03792 0.549643 4.42632
3.02364 0.560044 4.52029
2.51092 0.954692 7.57873
2.49316 0.958178 7.61082
2.47779 0.969403 7.69278
3.34507 0.377441 2.46828
3.3442 0.379693 2.48526
3.35541 0.384084 2.51211
3.34044 0.38217 2.51726
3.33757 0.384408 2.53325
3.34065 0.385569 2.54421
3.3428 0.387863 2.56416
3.34395 0.390144 2.58312
3.33401 0.390284 2.5922
3.33717 0.392593 2.61314
3.33027 0.39279 2.62619
3.32638 0.394 2.6402
3.33149 0.396218 2.65514
3.32358 0.396387 2.66619
3.32775 0.399724 2.68912
3.32185 0.400921 2.70214
3.31998 0.402174 2.71914
3.31005 0.402329 2.72922
3.30919 0.404596 2.74719
3.3153 0.406814 2.76211
3.30754 0.409278 2.79314
3.30468 0.410547 2.81115
3.28986 0.411913 2.83524
3.29706 0.415307 2.86214
3.29419 0.41756 2.87913
3.28636 0.418892 2.90117
3.2835 0.42116 2.91916
3.28365 0.423456 2.93913
3.26667 0.421513 2.94229
3.27488 0.425921 2.97017
3.26597 0.426105 2.98223
3.27125 0.430634 3.01813
3.26939 0.432917 3.03711
3.26451 0.434157 3.05313
3.26366 0.436454 3.07311
3.25879 0.437694 3.08913
3.25382 0.437772 3.09417
3.255 0.441111 3.11711
3.25314 0.442394 3.13611
3.24726 0.44462 3.15112
3.24742 0.446945 3.17309
3.24254 0.448186 3.18911
3.23767 0.449441 3.20613
3.23104 0.455156 3.2541
3.2302 0.457467 3.27508
3.21946 0.459978 3.30913
3.21677 0.464602 3.35108
3.20244 0.474914 3.43905
3.19859 0.476198 3.45806
3.18126 0.485513 3.54607
3.17355 0.490096 3.58506
3.17476 0.493495 3.61201
3.15059 0.505125 3.72103
3.13553 0.518971 3.84496
3.12787 0.524642 3.88994
3.1193 0.530477 3.94592
3.11345 0.532792 3.96694
3.10478 0.538435 4.00992
3.09793 0.539736 4.02996
3.0922 0.544258 4.06494
3.07388 0.554603 4.15494
3.07614 0.559089 4.18786
3.07322 0.560254 4.19887
3.06738 0.562569 4.21988
3.05595 0.571687 4.29484
3.05518 0.575147 4.3258
3.04631 0.577405 4.34283
3.02162 0.597968 4.51474
3.00911 0.605924 4.57872
2.98527 0.625205 4.73164
2.9757 0.63204 4.78762
2.96134 0.642294 4.87159
2.93184 0.668245 5.06945
2.90212 0.689752 5.23738
2.8984 0.694287 5.27335
2.84869 0.733777 5.57418
2.5952 0.940331 7.08524
2.58452 0.94596 7.12724
2.58072 0.950347 7.15321
3.33733 0.414871 2.63181
3.28065 0.443441 2.93786
3.28089 0.4469 2.96881
3.26843 0.45396 3.03981
3.21088 0.487781 3.36279
3.20721 0.49342 3.40574
3.19472 0.500436 3.47374
3.17245 0.510872 3.56976
3.13343 0.540748 3.82965
3.1297 0.545283 3.86562
3.12789 0.548654 3.89058
3.09921 0.569235 4.06352
3.09134 0.570507 4.08156
3.07966 0.575137 4.12359
3.07382 0.577452 4.1446
3.07316 0.583104 4.18853
3.07339 0.587562 4.21946
3.05893 0.596623 4.29045
3.04501 0.596781 4.30055
3.05019 0.600133 4.32447
3.04437 0.602477 4.34748
3.04664 0.608008 4.38338
3.0398 0.610324 4.4044
3.02488 0.610483 4.41452
3.01627 0.617259 4.46649
3.02071 0.625099 4.52335
3.01793 0.62853 4.55232
3.00504 0.629761 4.5674
3.00733 0.635322 4.60531
2.99341 0.636495 4.6164
2.99266 0.640983 4.64934
2.98801 0.646667 4.6953
2.98019 0.649013 4.71832
2.98351 0.655632 4.76021
2.97366 0.657935 4.78025
2.9709 0.661396 4.81122
2.96816 0.665901 4.84518
2.96728 0.668139 4.86116
2.95947 0.671514 4.88617
2.95571 0.67599 4.91814
2.94484 0.67725 4.9352
2.93805 0.680654 4.96221
2.9343 0.685145 4.99517
2.92852 0.688578 5.02417
2.93374 0.693004 5.05307
2.92695 0.697423 5.08106
2.92422 0.701943 5.11602
2.91135 0.703218 5.1341
2.91065 0.708796 5.17303
2.90286 0.712201 5.20004
2.90014 0.71775 5.23698
2.89929 0.720047 5.25696
2.88778 0.729002 5.32092
2.88305 0.733538 5.35689
2.87729 0.738001 5.38787
2.87053 0.742479 5.41986
2.86581 0.747015 5.45584
2.86006 0.751523 5.48982
2.84673 0.763834 5.57775
2.84203 0.769415 5.61671
2.83122 0.771793 5.64176
2.82244 0.776228 5.67076
2.81774 0.780808 5.70973
2.80651 0.795311 5.81062
2.79775 0.799791 5.84262
2.79408 0.805429 5.88557
2.78634 0.809938 5.91957
2.74999 0.840175 6.13642
2.74432 0.846815 6.17938
2.73966 0.853484 6.22432
2.72145 0.868036 6.32825
2.71478 0.873677 6.37123
2.6897 0.890486 6.49218
2.6833 0.902659 6.57106
2.67564 0.908315 6.61504
2.66798 0.914987 6.66001
2.65931 0.920629 6.70299
2.65168 0.927345 6.75096
2.62952 0.944003 6.8619
2.61374 0.947444 6.89097
3.34238 0.43297 2.50349
3.34251 0.434236 2.52147
3.34768 0.437558 2.54339
3.33272 0.436643 2.54851
3.34192 0.441021 2.57438
3.33903 0.442245 2.58939
3.33709 0.442365 2.5974
3.32716 0.442505 2.60648
3.33435 0.44587 2.63138
3.32644 0.447053 2.64342
3.32457 0.448306 2.66042
3.3227 0.450559 2.6774
3.32277 0.451692 2.68638
3.31889 0.452932 2.7024
3.31702 0.454185 2.71939
3.30809 0.45434 2.72946
3.31328 0.457691 2.75338
3.30436 0.45886 2.76443
3.29947 0.460086 2.77945
3.29156 0.460254 2.79051
3.30674 0.464598 2.81433
3.29883 0.465782 2.82638
3.29193 0.465979 2.83943
3.2872 0.469515 2.87541
3.27728 0.469671 2.88549
3.27952 0.474142 2.91741
3.27564 0.475382 2.93342
3.28083 0.479748 2.95832
3.26487 0.477834 2.96347
3.27108 0.482229 2.99036
3.25627 0.483625 3.01646
3.26155 0.489153 3.05234
3.25264 0.489337 3.06441
3.25683 0.492719 3.09033
3.24691 0.492874 3.1004
3.24809 0.496214 3.12335
3.24825 0.499524 3.1443
3.24833 0.500687 3.15528
3.24144 0.501914 3.17032
3.22782 0.506664 3.22036
3.22497 0.508947 3.23935
3.22724 0.513478 3.27527
3.22338 0.515747 3.29327
3.21364 0.519257 3.32729
3.21097 0.523911 3.37125
3.19903 0.524038 3.37934
3.20114 0.526243 3.39329
3.19545 0.530854 3.43427
3.18755 0.532067 3.44832
3.18774 0.535422 3.47227
3.1859 0.537749 3.49425
3.18306 0.540047 3.51424
3.18719 0.54331 3.53217
3.17628 0.543481 3.54325
3.17444 0.546808 3.56521
3.17059 0.548092 3.58423
3.16069 0.549291 3.59729
3.16088 0.552661 3.62224
3.16107 0.556046 3.64819
3.1642 0.558295 3.66514
3.15631 0.559508 3.67918
3.15551 0.562893 3.70514
3.14863 0.565135 3.72116
3.14277 0.56642 3.74019
3.1361 0.572061 3.78316
3.13822 0.574296 3.79911
3.12066 0.581153 3.85615
3.11985 0.584538 3.88211
3.10996 0.584753 3.89618
3.10916 0.588138 3.92214
3.11634 0.592487 3.94603
3.11049 0.594773 3.96504
3.10262 0.596045 3.98308
3.09879 0.599373 4.00507
3.09295 0.601688 4.02608
3.08912 0.604031 4.04908
3.08733 0.608432 4.07603
3.08441 0.609582 4.08604
3.08486 0.61747 4.14592
3.07497 0.618684 4.15998
3.07115 0.622042 4.18396
3.06734 0.625414 4.20895
3.05746 0.626658 4.22501
3.05859 0.628909 4.24197
3.05782 0.633354 4.27191
3.04997 0.63564 4.29094
3.04818 0.639056 4.3189
3.0464 0.643486 4.34786
3.03652 0.64473 4.36391
3.03272 0.648118 4.3899
3.03791 0.652484 4.4148
3.03005 0.653771 4.43384
3.02121 0.656073 4.45387
3.0174 0.65946 4.47986
3.01665 0.663949 4.5128
3.01184 0.667308 4.53679
3.00907 0.671754 4.56675
3.0044 0.677408 4.61071
2.99858 0.680767 4.6347
2.99683 0.685242 4.66666
2.99102 0.688631 4.69265
2.98522 0.692005 4.71765
2.97738 0.694336 4.73968
2.98158 0.698718 4.76558
2.96824 0.710015 4.85253
2.96244 0.713404 4.87853
2.95666 0.717837 4.90751
2.95188 0.721269 4.9365
2.94624 0.727969 4.98345
2.93366 0.734792 5.03845
2.91735 0.74815 5.12939
2.90596 0.759342 5.20932
2.89749 0.768369 5.27826
2.88292 0.776223 5.33526
2.69164 0.941286 6.47841
2.67988 0.945768 6.51044
3.31383 0.547703 2.68603
3.2945 0.55602 2.77406
3.22952 0.598942 3.17097
3.18099 0.637786 3.49581
3.15982 0.650429 3.6058
3.15799 0.653756 3.62776
3.14627 0.657312 3.6648
3.14546 0.660668 3.68876
3.1399 0.668544 3.7477
3.13101 0.669758 3.76175
3.12839 0.6765 3.81168
3.11689 0.68447 3.87665
3.11396 0.68562 3.88666
3.1061 0.687892 3.90469
3.10732 0.69132 3.93363
3.09765 0.696964 3.97663
3.09483 0.700321 4.0006
3.0891 0.704857 4.03658
3.08932 0.709286 4.06552
3.08045 0.71053 4.08157
3.08271 0.716031 4.11548
3.07282 0.71726 4.13054
3.06632 0.726241 4.19646
3.05846 0.727513 4.2145
3.04782 0.734217 4.26149
3.04299 0.73656 4.2845
3.0402 0.740962 4.31146
3.03741 0.744378 4.33943
3.03652 0.746601 4.35441
3.03171 0.749959 4.3784
3.02588 0.752304 4.40141
3.0231 0.756735 4.43037
3.01248 0.763468 4.47935
3.01388 0.771251 4.53224
3.00705 0.773596 4.55526
2.99719 0.775869 4.5733
2.9934 0.779286 4.60128
2.9876 0.783675 4.62726
2.98105 0.791553 4.6862
2.97917 0.793776 4.70119
2.97337 0.79718 4.72818
2.96655 0.80054 4.75219
2.96278 0.804986 4.78216
2.95901 0.809433 4.81212
2.9496 0.820594 4.89004
2.94382 0.824012 4.91804
2.93905 0.82846 4.94801
2.92921 0.830777 4.96905
2.92546 0.835283 5.00302
2.92373 0.840802 5.03796
2.91796 0.84525 5.06794
2.9242 0.850719 5.09981
2.91133 0.851965 5.11589
2.90657 0.856442 5.14787
2.9079 0.863092 5.19177
2.89403 0.865339 5.20784
2.88929 0.869845 5.24181
2.8815 0.874265 5.26981
2.88979 0.880821 5.30766
2.87996 0.883169 5.3307
2.88031 0.890849 5.37659
2.86745 0.892125 5.39467
2.86373 0.897675 5.43162
2.85901 0.903211 5.46758
2.84921 0.906617 5.49461
2.84838 0.909943 5.51656
3.22182 0.650475 3.20627
3.21997 0.652772 3.22626
3.20561 0.663025 3.31022
3.2078 0.666394 3.33516
3.19992 0.667621 3.3502
3.19504 0.669877 3.36721
3.19723 0.673245 3.39215
3.19063 0.680019 3.4441
3.17906 0.686871 3.5011
3.16834 0.691411 3.53712
3.17054 0.695809 3.56404
3.16275 0.698214 3.59107
3.15992 0.701542 3.61304
3.15304 0.702784 3.62908
3.14636 0.708425 3.67205
3.14665 0.713987 3.70997
3.14382 0.717314 3.73194
3.13594 0.718557 3.74799
3.13311 0.721884 3.76996
3.13332 0.726283 3.7969
3.12272 0.733075 3.84989
3.11202 0.737675 3.8899
3.10718 0.739974 3.90991
3.0967 0.750003 3.97885
3.09378 0.751153 3.98886
3.09096 0.75451 4.01283
3.08816 0.757897 4.03881
3.06995 0.772449 4.14274
3.06816 0.775864 4.17071
3.05671 0.785938 4.24266
3.04922 0.795934 4.30957
3.04238 0.79825 4.33059
3.03756 0.801609 4.35458
3.03275 0.804967 4.37857
3.02996 0.809384 4.40653
3.0201 0.810657 4.42459
3.01933 0.816116 4.45552
3.01642 0.817281 4.46653
3.01162 0.820669 4.49252
3.00681 0.824043 4.51751
3.00403 0.828474 4.54646
3.00024 0.832891 4.57443
2.99645 0.837308 4.6024
2.98964 0.840668 4.6264
2.98977 0.842919 4.64337
2.98599 0.847351 4.67234
2.98119 0.850739 4.69833
2.97438 0.854114 4.72333
2.96959 0.858531 4.75131
2.96176 0.861877 4.77432
2.96623 0.871776 4.83515
2.95741 0.875123 4.85817
2.9516 0.878512 4.88417
2.94785 0.882988 4.91613
2.93598 0.885263 4.93419
2.93627 0.891825 4.9721
2.92643 0.894143 4.99314
2.93571 0.900669 5.02898
2.92791 0.904059 5.05499
2.91604 0.906334 5.07305
2.90823 0.909709 5.09806
3.34454 0.612053 2.50782
3.34468 0.614319 2.52579
3.33878 0.615515 2.53882
3.33993 0.617811 2.55878
3.33603 0.619021 2.57279
3.33114 0.620231 2.58681
3.33121 0.621364 2.5958
3.33337 0.624674 2.61673
3.32646 0.625856 2.62877
3.32459 0.627109 2.64577
3.32272 0.629362 2.66275
3.31782 0.630573 2.67677
3.31495 0.632826 2.69376
3.31805 0.635002 2.70571
3.31719 0.637283 2.72468
3.30626 0.636425 2.73378
3.31446 0.641803 2.75964
3.30454 0.641973 2.77072
3.30167 0.643227 2.78772
3.30484 0.64655 2.80965
3.29584 0.645572 2.81073
3.30103 0.649923 2.83463
3.29816 0.652191 2.85262
3.29126 0.652389 2.86568
3.29041 0.655685 2.88564
3.28754 0.657939 2.90263
3.28064 0.658136 2.91568
3.28676 0.661368 2.93159
3.27095 0.66275 2.95669
3.27414 0.667103 2.9806
3.2753 0.669427 3.00256
3.26236 0.669541 3.00966
3.25849 0.670795 3.02667
3.26562 0.675056 3.04456
3.25671 0.67524 3.05662
3.25083 0.676481 3.07265
3.25805 0.68189 3.10052
3.24511 0.681018 3.10863
3.24326 0.684315 3.1286
3.24544 0.687654 3.15154
3.23847 0.686718 3.1556
3.23662 0.690015 3.17557
3.24182 0.694411 3.20247
3.22788 0.69354 3.21059
3.23208 0.697921 3.2365
3.21839 0.702538 3.27754
3.22462 0.707977 3.30742
3.2127 0.708134 3.3175
3.2159 0.711516 3.34343
3.21204 0.7148 3.36242
3.20314 0.714999 3.37548
3.19827 0.717254 3.39249
3.20644 0.721573 3.41437
3.19652 0.721744 3.42544
3.19167 0.724028 3.44444
3.19387 0.728426 3.47137
3.17708 0.730853 3.49946
3.18232 0.736307 3.53035
3.17534 0.735357 3.53341
3.17049 0.738642 3.5524
3.17169 0.74204 3.57935
3.16078 0.743211 3.59041
3.15996 0.746566 3.61437
3.16016 0.749951 3.64033
3.15025 0.751136 3.65238
3.15843 0.755485 3.67626
3.15459 0.758798 3.69724
3.14367 0.758969 3.70833
3.14186 0.762325 3.73229
3.14106 0.766711 3.75824
3.1352 0.768996 3.77725
3.13237 0.772324 3.79923
3.13753 0.77563 3.82014
3.12561 0.775802 3.83123
3.12178 0.77913 3.85321
3.11694 0.782444 3.8742
3.11512 0.785801 3.89817
3.11028 0.788115 3.91918
3.10646 0.791473 3.94316
3.10859 0.794708 3.9591
3.10275 0.797023 3.98011
3.10599 0.802494 4.01201
3.0951 0.803724 4.02707
3.08925 0.806009 4.04609
3.08442 0.809353 4.06908
3.07858 0.812668 4.09007
3.08477 0.817018 4.11397
3.08196 0.820405 4.13994
3.07613 0.82372 4.16094
3.06951 0.830464 4.2109
3.06469 0.833823 4.23489
3.06189 0.83821 4.26085
3.05898 0.839389 4.27285
3.05416 0.843748 4.29683
3.05238 0.848178 4.32578
3.04656 0.850523 4.34879
3.04073 0.853867 4.37179
3.03693 0.858255 4.39776
3.03415 0.862686 4.42671
3.0353 0.865966 4.44566
3.03048 0.869324 4.46965
3.02669 0.873741 4.49762
3.02189 0.877129 4.52361
3.01608 0.880504 4.5486
3.01128 0.884892 4.57458
3.00242 0.887179 4.59361
2.99562 0.890554 4.61862
2.99224 0.903769 4.70046
2.98138 0.906044 4.71851
2.97153 0.908347 4.73855
3.05761 0.871617 4.22038
3.07704 0.908443 4.14167
3.05651 0.917361 4.20271
3.32808 0.740954 2.56705
3.32642 0.747606 2.61097
3.31576 0.75228 2.65598
3.31209 0.758933 2.69992
3.3013 0.761355 2.72797
3.30145 0.764636 2.74692
3.28988 0.771473 2.80291
3.28026 0.77722 2.85291
3.25964 0.803928 3.03469
3.22877 0.82314 3.18266
3.22289 0.825381 3.19868
3.22306 0.828706 3.22063
3.21928 0.833138 3.24959
3.21239 0.834365 3.26463
3.21357 0.838704 3.28756
3.19739 0.854314 3.39547
3.18849 0.855513 3.40852
3.18583 0.863165 3.45243
3.1761 0.867705 3.48844
3.17427 0.871032 3.51041
3.17738 0.874251 3.52534
3.17253 0.876536 3.54435
3.16565 0.878778 3.56037
3.15714 0.888745 3.62529
3.1445 0.89545 3.67229
3.14873 0.901891 3.70217
3.41789 0.735625 2.14339
3.40891 0.734661 2.14547
3.40639 0.74261 2.20938
3.3986 0.745015 2.23641
3.38824 0.75528 2.32135
3.37952 0.759819 2.35735
3.36884 0.764463 2.40037
3.36797 0.766715 2.41734
3.33981 0.778364 2.5274
3.34304 0.783805 2.5573
3.34318 0.786071 2.57527
3.33842 0.790548 2.60724
3.33468 0.795054 2.64121
3.33087 0.798427 2.66619
3.32512 0.802919 2.69917
3.31261 0.81189 2.76414
3.30981 0.815276 2.79011
3.30695 0.817545 2.8081
3.30005 0.818742 2.82114
3.29733 0.824292 2.85808
3.2733 0.841203 2.98603
3.26681 0.852184 3.05193
3.241 0.874525 3.20881
3.21709 0.896658 3.35169
3.19892 0.913284 3.46059
3.19103 0.914497 3.47463
3.19113 0.916689 3.4876
3.18223 0.917888 3.50065
3.17636 0.920143 3.51767
3.4019 0.766618 2.14205
3.40906 0.770923 2.16294
3.40114 0.771077 2.17299
3.39825 0.773301 2.18799
3.39944 0.77667 2.21293
3.39756 0.778893 2.22791
3.3987 0.782159 2.24586
3.39077 0.782313 2.25592
3.38185 0.781467 2.266
3.386 0.78576 2.28591
3.37607 0.784901 2.295
3.38317 0.788103 2.3089
3.37223 0.787229 2.31699
3.3735 0.793746 2.35189
3.37665 0.797024 2.37082
3.36974 0.797207 2.38287
3.36384 0.798404 2.3959
3.34405 0.819785 2.55576
3.33627 0.82322 2.58477
3.3385 0.828662 2.61468
3.32597 0.836589 2.67666
3.32512 0.838871 2.69564
3.32325 0.842123 2.7126
3.31642 0.844454 2.73462
3.31167 0.84896 2.7686
3.30593 0.853468 2.80258
3.29336 0.861305 2.85857
3.28878 0.870122 2.91348
3.2849 0.872362 2.92948
3.24868 0.90685 3.16327
3.22911 0.913692 3.21932
3.22526 0.916976 3.23831
3.22341 0.920273 3.25828
3.31541 0.919343 2.72652
3.30851 0.92054 2.73956
3.31168 0.924863 2.76147
3.30168 0.923871 2.76156
3.30585 0.928208 2.78447
3.305 0.931489 2.80343
-5.26345 -0.147713 0.887695
-5.26458 -0.147964 0.870705
-5.26271 -0.148232 0.852692
-5.25086 -0.149537 0.832619
-5.26197 -0.148736 0.818689
-5.24606 -0.149925 0.806585
-5.24119 -0.150195 0.78855
-5.25431 -0.150408 0.77365
-5.23647 -0.150732 0.752518
-5.24957 -0.15093 0.738617
-5.23472 -0.151237 0.718507
-5.23585 -0.152487 0.701532
-5.22899 -0.152759 0.683482
-5.22905 -0.152892 0.674483
-5.22818 -0.153145 0.657478
-5.2303 -0.15338 0.641495
-5.22145 -0.153668 0.62243
-5.22057 -0.15392 0.605425
-5.21571 -0.15419 0.58739
-5.21783 -0.154426 0.571407
-5.2139 -0.154562 0.562378
-5.21003 -0.155816 0.545365
-5.20329 -0.156339 0.510317
-5.20941 -0.156572 0.494364
-5.19868 -0.157098 0.459287
-5.19374 -0.157235 0.45025
-5.18987 -0.157489 0.433222
-5.183 -0.158746 0.416187
-5.27047 -0.1198 0.881334
-5.26062 -0.120089 0.862261
-5.25575 -0.121359 0.844241
-5.25302 -0.121879 0.809223
-5.25309 -0.122012 0.800224
-5.25022 -0.122281 0.782204
-5.23637 -0.123587 0.762116
-5.23949 -0.123822 0.746141
-5.23862 -0.124074 0.729136
-5.23888 -0.124577 0.695141
-5.23208 -0.124982 0.668092
-5.22921 -0.125236 0.651071
-5.2196 -0.127013 0.599018
-5.20875 -0.127302 0.579938
-5.21793 -0.127651 0.556009
-5.21306 -0.127906 0.538974
-5.19633 -0.129451 0.502866
-5.18758 -0.129961 0.468803
-5.18571 -0.130214 0.45179
-5.19277 -0.130327 0.443844
-5.27233 -0.0875653 0.896873
-5.26647 -0.0878361 0.87883
-5.26361 -0.0881048 0.86081
-5.26567 -0.0882365 0.851826
-5.26181 -0.0885059 0.833799
-5.25695 -0.0897759 0.815778
-5.25807 -0.0900268 0.798788
-5.25421 -0.0902961 0.78076
-5.24335 -0.0905854 0.76168
-5.24448 -0.0908363 0.74469
-5.23456 -0.0919915 0.734631
-5.23569 -0.0922424 0.717641
-5.23082 -0.0925125 0.699606
-5.22396 -0.092784 0.681556
-5.22908 -0.093032 0.664596
-5.23421 -0.0932652 0.648636
-5.21735 -0.0945588 0.629525
-5.21649 -0.0948259 0.61152
-5.21355 -0.0949465 0.603499
-5.21267 -0.0951989 0.586493
-5.21792 -0.0956837 0.553535
-5.20107 -0.0969921 0.533425
-5.20319 -0.0972274 0.517442
-5.20731 -0.0974614 0.501475
-5.1934 -0.0976344 0.490371
-5.19152 -0.0988726 0.474373
-5.18965 -0.0991257 0.45736
-5.1869 -0.0996311 0.423342
-5.26487 -0.0217035 0.819831
-5.24735 -0.0236638 0.755719
-5.25247 -0.023897 0.739759
-5.23195 -0.0258448 0.676624
-5.23108 -0.026112 0.658619
-5.22659 -0.0281221 0.590606
-5.21805 -0.0300166 0.530561
-5.20657 -0.0320466 0.461495
-5.20376 -0.0324189 0.436476
-5.1919 -0.0337088 0.417403
-5.25745 0.0110724 0.872297
-5.26196 0.00906888 0.804351
-5.23944 0.00710489 0.740202
-5.23184 0.00531465 0.687164
-5.22742 0.00317132 0.610152
-5.27415 0.0476137 0.907887
-5.27428 0.0463622 0.890904
-5.27043 0.0460781 0.871877
-5.26157 0.0447904 0.852826
-5.25764 0.0446542 0.843797
-5.24505 0.0428307 0.788722
-5.24418 0.0415785 0.771732
-5.2493 0.0413453 0.755771
-5.24644 0.0410766 0.737751
-5.24451 0.040942 0.728738
-5.23877 0.0394196 0.693712
-5.23191 0.0391481 0.675662
-5.23703 0.0389149 0.659702
-5.23416 0.0376464 0.641696
-5.2273 0.0373748 0.623646
-5.22443 0.037121 0.606626
-5.2175 0.035968 0.59659
-5.21463 0.0357142 0.579569
-5.21176 0.0344604 0.562564
-5.21189 0.0342088 0.545566
-5.21801 0.0349762 0.529599
-5.21314 0.033721 0.512578
-5.20527 0.0334488 0.494521
-5.20534 0.0323157 0.485537
-5.20746 0.0320803 0.469554
-5.1956 0.0318051 0.451466
-5.19373 0.0305521 0.434468
-5.19897 0.0300673 0.40151
-5.18911 0.0297935 0.383438
-5.19416 0.0296936 0.376476
-5.24591 0.0681107 0.672338
-5.22751 0.0649277 0.593236
-5.20293 0.0591262 0.40511
-5.27937 0.113107 0.872952
-5.25467 0.110497 0.832799
-5.25679 0.110261 0.816816
-5.24427 0.10732 0.753757
-5.24353 0.106816 0.719754
-5.23186 0.105141 0.674685
-5.22426 0.102366 0.622661
-5.21465 0.100589 0.570608
-5.1935 0.0969149 0.458487
-5.19656 0.0967987 0.450511
-5.20063 0.122621 0.438158
-5.17534 0.118211 0.34402
-5.28604 0.177682 0.911052
-5.27619 0.176379 0.890994
-5.28131 0.176146 0.875034
-5.26953 0.174708 0.845962
-5.26566 0.173439 0.827949
-5.25281 0.172133 0.807869
-5.25207 0.170629 0.773881
-5.25127 0.170244 0.747877
