-5.31629 1.31139 1.02586
-5.3224 1.31215 1.00989
-5.31249 1.30798 0.998875
-5.31363 1.30672 0.9809
-5.31376 1.30547 0.963917
-5.3059 1.30218 0.944904
-5.30404 1.30091 0.926906
-5.30617 1.29966 0.909938
-5.29532 1.29536 0.889918
-5.29339 1.29422 0.880919
-5.30251 1.29499 0.864974
-5.28081 1.2874 0.825917
-5.29591 1.2902 0.811988
-5.28206 1.2849 0.791959
-5.2822 1.28363 0.773976
-5.27933 1.28138 0.756986
-5.28539 1.28226 0.749017
-5.26555 1.27594 0.727958
-5.28065 1.27874 0.714029
-5.26237 1.48002 0.731914
-5.25964 1.4765 0.696941
-5.25284 1.47211 0.670951
3.72173 -0.414022 -0.300876
3.71183 -0.413837 -0.288802
3.71186 -0.413763 -0.283803
3.71995 -0.413591 -0.271865
3.70604 -0.413403 -0.259761
3.70422 -0.413062 -0.236749
3.70931 -0.412888 -0.224789
3.70739 -0.412723 -0.213775
3.70948 -0.412547 -0.201792
3.69552 -0.411463 -0.196702
3.70061 -0.411289 -0.184741
3.70078 -0.410949 -0.161744
3.70587 -0.411774 -0.149769
3.68996 -0.4106 -0.138665
3.68909 -0.410333 -0.12066
3.69818 -0.410162 -0.108729
3.68627 -0.40999 -0.0976403
3.68335 -0.409825 -0.0866192
3.68244 -0.409647 -0.0746133
3.68653 -0.409472 -0.0626451
3.67865 -0.409229 -0.0465871
3.68383 -0.408878 -0.022628
3.67291 -0.408707 -0.0115468
3.682 -0.408536 0.000383823
3.67509 -0.408368 0.011435
3.67818 -0.408193 0.0234107
3.67322 -0.4081 0.0294476
3.67631 -0.407925 0.0414233
3.6774 -0.407763 0.0524143
3.67048 -0.407595 0.0634654
3.67157 -0.407418 0.0754563
3.66065 -0.407262 0.0855376
3.66774 -0.407074 0.0984832
3.66078 -0.406995 0.103535
3.66187 -0.406818 0.115526
3.66195 -0.406656 0.126524
3.65904 -0.406476 0.138545
3.65613 -0.406311 0.149566
3.66222 -0.406137 0.16152
3.64729 -0.405979 0.171631
3.65043 -0.405714 0.189606
3.6476 -0.405372 0.212625
3.63877 -0.405039 0.23469
3.63886 -0.404862 0.246688
3.64591 -0.404763 0.253635
3.64699 -0.404601 0.264626
3.64508 -0.404422 0.276639
3.62715 -0.403276 0.285759
3.62533 -0.402934 0.30877
3.63342 -0.403747 0.321723
3.62246 -0.40268 0.325791
3.63456 -0.403482 0.339713
3.62864 -0.403329 0.349757
3.62891 -0.402796 0.385752
3.61097 -0.401665 0.393872
3.6233 -0.402022 0.43779
3.61847 -0.401678 0.460825
3.60558 -0.401461 0.47492
3.61177 -0.401081 0.500872
3.61386 -0.400905 0.512855
3.60694 -0.400752 0.522906
3.5981 -0.400419 0.544971
3.60116 -0.400318 0.551947
3.59824 -0.400153 0.562968
3.58941 -0.399821 0.585033
3.58849 -0.399657 0.596039
3.5966 -0.400441 0.610992
3.58867 -0.399302 0.620036
3.58672 -0.399212 0.62605
3.5838 -0.399047 0.637071
3.57587 -0.398893 0.64713
3.58198 -0.39869 0.661083
3.58307 -0.399513 0.673088
3.58325 -0.399158 0.697085
3.57127 -0.398105 0.70016
3.57236 -0.398928 0.712166
3.57546 -0.398737 0.725141
3.56253 -0.397595 0.734223
3.57063 -0.398393 0.748176
3.57474 -0.398189 0.762144
3.5608 -0.39806 0.770248
3.56094 -0.397794 0.788246
3.55802 -0.397629 0.799267
3.55812 -0.397436 0.812265
3.55821 -0.397259 0.824263
3.54928 -0.397119 0.83333
3.55143 -0.396824 0.853312
3.55252 -0.396647 0.865303
3.55461 -0.397456 0.878301
3.55471 -0.397264 0.891299
3.54478 -0.397123 0.900373
3.54086 -0.396958 0.911402
3.54095 -0.39678 0.9234
3.53699 -0.396703 0.928429
3.53709 -0.396511 0.941427
3.54821 -0.396282 0.957343
3.53646 -0.395785 0.990428
3.53154 -0.395618 1.00146
3.5366 -0.395503 1.00943
3.53268 -0.395338 1.02045
3.52677 -0.39517 1.0315
3.51793 -0.394838 1.05356
3.52705 -0.395608 1.06951
3.51712 -0.395467 1.07858
3.51316 -0.39539 1.08361
3.52228 -0.39516 1.09954
3.51235 -0.39502 1.10861
3.50943 -0.394855 1.11964
3.52056 -0.394611 1.13655
3.50963 -0.39447 1.14563
3.5037 -0.394317 1.15568
3.50676 -0.394201 1.16365
3.49994 -0.393856 1.1867
3.50103 -0.394664 1.19971
3.50515 -0.394445 1.21468
3.50224 -0.394265 1.2267
3.49732 -0.394098 1.23773
3.5064 -0.394942 1.24868
3.49045 -0.393842 1.25478
3.50057 -0.394597 1.27172
3.49164 -0.394457 1.28079
3.49175 -0.39425 1.29478
3.48884 -0.39407 1.30681
3.48297 -0.393814 1.32385
3.48216 -0.393429 1.34985
3.48627 -0.39421 1.36483
3.47935 -0.393056 1.37487
3.47946 -0.393849 1.38888
3.47253 -0.393696 1.39894
3.4766 -0.393566 1.4079
3.48071 -0.393347 1.42287
3.47179 -0.393192 1.43294
3.46586 -0.39304 1.44298
3.46998 -0.392806 1.45895
3.4751 -0.393572 1.47492
3.45915 -0.392472 1.48103
3.46522 -0.393328 1.491
3.46834 -0.393108 1.50597
3.45338 -0.393009 1.51208
3.46052 -0.392747 1.53003
3.45159 -0.392608 1.5391
3.4547 -0.392388 1.55407
3.44883 -0.393117 1.57213
3.44213 -0.392534 1.61118
3.44123 -0.392341 1.62418
3.44937 -0.393066 1.64313
3.43843 -0.391939 1.6512
3.43647 -0.392849 1.65723
3.43759 -0.392628 1.67222
3.43368 -0.392447 1.68425
3.44283 -0.393158 1.70419
3.43691 -0.39299 1.71524
3.43612 -0.392575 1.74324
3.4292 -0.392407 1.75429
3.43127 -0.392275 1.76328
3.42535 -0.392123 1.77332
3.42546 -0.391901 1.78832
3.42557 -0.392679 1.80333
3.42066 -0.392498 1.81537
3.41279 -0.39224 1.83242
3.42667 -0.366489 1.68092
3.72105 -0.371449 -0.262496
3.71315 -0.371265 -0.250437
3.71118 -0.37119 -0.245423
3.71027 -0.371011 -0.233417
3.71236 -0.370835 -0.221434
3.70445 -0.370666 -0.210375
3.70854 -0.370492 -0.198407
3.70162 -0.370324 -0.187355
3.70371 -0.370148 -0.175372
3.70376 -0.370059 -0.169373
3.70285 -0.36988 -0.157367
3.69893 -0.369715 -0.146339
3.69401 -0.369548 -0.135302
3.7001 -0.369375 -0.123349
3.69319 -0.369192 -0.111298
3.68828 -0.368026 -0.100277
3.69432 -0.368941 -0.0943081
3.69141 -0.368762 -0.0822872
3.68749 -0.367596 -0.0712734
3.68075 -0.367088 -0.0372255
3.68589 -0.367825 -0.0192508
3.68006 -0.36648 0.00377641
3.67132 -0.36597 0.0378394
3.67641 -0.365796 0.0498002
3.67445 -0.365706 0.0558144
3.67054 -0.36554 0.066843
3.67072 -0.365185 0.0908397
3.66688 -0.364856 0.112867
3.65496 -0.364685 0.123955
3.66502 -0.364588 0.130879
3.65709 -0.364434 0.140938
3.66018 -0.364259 0.152914
3.65075 -0.363142 0.227979
3.64401 -0.362633 0.262027
3.63408 -0.362478 0.272101
3.63731 -0.362036 0.302074
3.62939 -0.361867 0.313133
3.63348 -0.361693 0.325101
3.63156 -0.361528 0.336114
3.62765 -0.361363 0.347143
3.62678 -0.361095 0.365148
3.61886 -0.360942 0.375207
3.62495 -0.360754 0.38816
3.61703 -0.3606 0.398219
3.61812 -0.360423 0.410209
3.61726 -0.360156 0.428215
3.61844 -0.359801 0.452204
3.61251 -0.359649 0.462247
3.61361 -0.359457 0.475238
3.60769 -0.359305 0.485282
3.60577 -0.35914 0.496295
3.60099 -0.358707 0.525329
3.59907 -0.358543 0.536343
3.60217 -0.359353 0.549333
3.59524 -0.3582 0.55937
3.59233 -0.35802 0.57139
3.59338 -0.357932 0.577382
3.59046 -0.357767 0.588403
3.58555 -0.3576 0.599439
3.58864 -0.35841 0.61243
3.58272 -0.357258 0.622459
3.58181 -0.358079 0.634479
3.58089 -0.357916 0.645485
3.57694 -0.357824 0.651515
3.58804 -0.357625 0.66543
3.58113 -0.357457 0.676481
3.57219 -0.357317 0.685547
3.56928 -0.357152 0.696569
3.57739 -0.356936 0.711506
3.56846 -0.356781 0.721573
3.57252 -0.356681 0.728542
3.5696 -0.356516 0.739563
3.56268 -0.356362 0.749614
3.55293 -0.355852 0.783684
3.56505 -0.355624 0.799592
3.56109 -0.355547 0.804621
3.55817 -0.355382 0.815642
3.55225 -0.355229 0.825686
3.55836 -0.355012 0.840639
3.54943 -0.354872 0.849705
3.54551 -0.354706 0.860734
3.54962 -0.354502 0.874702
3.54264 -0.354452 0.877754
3.54575 -0.354247 0.89173
3.54985 -0.355043 0.905713
3.53691 -0.353915 0.913794
3.533 -0.353749 0.924823
3.54111 -0.354533 0.939776
3.5402 -0.354355 0.951781
3.53724 -0.354279 0.956803
3.54034 -0.354073 0.970779
3.53242 -0.35392 0.980838
3.53451 -0.353729 0.993821
3.53561 -0.353537 1.00681
3.52869 -0.353384 1.01686
3.52377 -0.353217 1.0279
3.53184 -0.35309 1.03684
3.52591 -0.352938 1.04688
3.53203 -0.352705 1.06283
3.51708 -0.352605 1.06895
3.52019 -0.3524 1.08292
3.51025 -0.35226 1.092
3.52138 -0.353016 1.10892
3.51541 -0.351953 1.11295
3.5125 -0.351773 1.12498
3.50959 -0.352593 1.13701
3.5127 -0.352388 1.15099
3.50677 -0.352235 1.16103
3.50988 -0.35203 1.17501
3.50295 -0.351877 1.18506
3.51003 -0.351734 1.195
3.50511 -0.351568 1.20604
3.5022 -0.351388 1.21806
3.49628 -0.351236 1.2281
3.5024 -0.351003 1.24406
3.49547 -0.35085 1.25411
3.48855 -0.350697 1.26416
3.49362 -0.350567 1.27312
3.4887 -0.350401 1.28416
3.4908 -0.351195 1.29815
3.48589 -0.351029 1.30919
3.47796 -0.34989 1.31823
3.48308 -0.350656 1.33421
3.4892 -0.350424 1.35016
3.48323 -0.35036 1.35421
3.47831 -0.350194 1.36524
3.48042 -0.349988 1.37923
3.47651 -0.349807 1.39125
3.46757 -0.349668 1.40032
3.4747 -0.349421 1.41727
3.46778 -0.349268 1.42732
3.46286 -0.349101 1.43835
3.46893 -0.349958 1.44832
3.46503 -0.349777 1.46035
3.46312 -0.349583 1.47336
3.46121 -0.349404 1.48538
3.4573 -0.349224 1.49741
3.46042 -0.348989 1.51338
3.46549 -0.348859 1.52234
3.45255 -0.348746 1.52944
3.45165 -0.348538 1.54344
3.45276 -0.348332 1.55743
3.44182 -0.348205 1.56552
3.43991 -0.348012 1.57853
3.44303 -0.348777 1.59452
3.43711 -0.348624 1.60456
3.43717 -0.348506 1.61256
3.4433 -0.348259 1.62951
3.43437 -0.348119 1.63858
3.42845 -0.347952 1.64962
3.43559 -0.347676 1.66857
3.42465 -0.347564 1.67565
3.42783 -0.347211 1.69963
3.42492 -0.348031 1.71166
3.419 -0.347864 1.7227
3.42614 -0.347588 1.74165
3.41923 -0.34742 1.7527
3.41632 -0.347225 1.76572
3.41543 -0.347017 1.77973
3.41258 -0.346719 1.79975
3.41069 -0.34651 1.81376
3.40577 -0.346344 1.8248
3.40287 -0.347149 1.83783
3.40097 -0.34694 1.85184
3.6906 -0.341393 -0.192701
3.66303 -0.338559 -0.00250945
3.67012 -0.338387 0.00943622
3.64889 -0.336861 0.111588
3.64033 -0.335996 0.169647
3.63089 -0.334893 0.243712
3.62554 -0.333616 0.329746
3.61275 -0.333192 0.35784
3.60321 -0.332267 0.419906
3.60048 -0.331747 0.454924
3.59269 -0.331326 0.48298
3.57491 -0.328914 0.645101
3.57418 -0.328381 0.681104
3.56233 -0.328076 0.701191
3.56238 -0.327987 0.70719
3.55956 -0.32763 0.73121
3.55382 -0.327107 0.76625
3.5529 -0.326944 0.777256
3.55697 -0.326828 0.785225
3.54812 -0.326511 0.80629
3.54353 -0.325708 0.86032
3.53861 -0.325556 0.870356
3.53288 -0.325019 0.906396
3.53096 -0.324855 0.91741
3.5291 -0.325587 0.935437
3.53119 -0.325396 0.94842
3.52528 -0.325229 0.959464
3.52154 -0.324708 0.994489
3.51963 -0.324528 1.0065
3.51686 -0.324067 1.03752
3.51405 -0.32371 1.06154
3.51523 -0.323341 1.08653
3.50926 -0.323277 1.09057
3.51037 -0.323071 1.10456
3.50545 -0.322904 1.1156
3.50554 -0.322726 1.1276
3.49886 -0.3221 1.16965
3.49293 -0.321947 1.17969
3.49203 -0.321754 1.19269
3.49123 -0.322368 1.21871
3.48831 -0.322203 1.22973
3.49342 -0.321985 1.2447
3.48745 -0.321921 1.24874
3.48555 -0.321728 1.26175
3.48665 -0.321536 1.27474
3.47973 -0.321383 1.28479
3.48384 -0.321164 1.29976
3.48093 -0.320984 1.31178
3.47601 -0.320817 1.32282
3.47109 -0.320651 1.33386
3.47917 -0.320509 1.34379
3.47024 -0.320369 1.35286
3.46934 -0.320176 1.36587
3.47144 -0.31997 1.37985
3.46764 -0.319582 1.40588
3.46166 -0.319533 1.40892
3.46689 -0.320093 1.43889
3.45795 -0.319953 1.44796
3.46117 -0.319526 1.47693
3.45625 -0.319359 1.48797
3.4534 -0.319076 1.50699
3.45651 -0.318856 1.52197
3.44277 -0.318343 1.55607
3.43696 -0.317968 1.58111
3.44435 -0.318189 1.63406
3.43141 -0.318076 1.64116
3.43263 -0.317647 1.67015
3.42375 -0.317404 1.68621
3.42285 -0.317196 1.70022
3.40191 -0.316107 1.84038
3.39995 -0.316017 1.84639
3.39806 -0.315808 1.86041
3.39516 -0.315614 1.87343
3.6237 -0.225404 0.208141
3.47743 -0.208104 1.23513
3.46604 -0.206911 1.31521
3.70504 -0.205677 -0.279831
3.69531 -0.206152 -0.244746
3.69235 -0.206061 -0.238724
3.69044 -0.205896 -0.227711
3.69653 -0.205723 -0.215758
3.69262 -0.205543 -0.203729
3.6877 -0.205376 -0.192693
3.68979 -0.2052 -0.18071
3.68587 -0.205034 -0.169681
3.67692 -0.204939 -0.163614
3.68901 -0.20477 -0.151706
3.67209 -0.204595 -0.14058
3.68218 -0.204424 -0.128657
3.67526 -0.204257 -0.117606
3.67736 -0.20408 -0.105622
3.67244 -0.203914 -0.0945861
3.66848 -0.203822 -0.0885568
3.66557 -0.203657 -0.0775358
3.67466 -0.203486 -0.0656052
3.66874 -0.203319 -0.0545615
3.65891 -0.202971 -0.0314895
3.664 -0.202797 -0.0195287
3.67005 -0.202713 -0.0135747
3.66113 -0.202543 -0.00250853
3.66222 -0.202366 0.00948231
3.6653 -0.202206 0.0204582
3.6604 -0.202024 0.0324942
3.65748 -0.201859 0.0435152
3.66157 -0.201685 0.0554835
3.65761 -0.201608 0.0605129
3.6547 -0.201428 0.0725338
3.64095 -0.200929 0.105635
3.65404 -0.200746 0.118535
3.64413 -0.200576 0.129609
3.63416 -0.20051 0.133683
3.63934 -0.200158 0.157642
3.63342 -0.199991 0.168686
3.6325 -0.199827 0.179692
3.63459 -0.199651 0.191675
3.63072 -0.199397 0.208703
3.62281 -0.199228 0.219762
3.6279 -0.199054 0.231723
3.62598 -0.19889 0.242736
3.63008 -0.1987 0.255704
3.62724 -0.198372 0.277724
3.62429 -0.198281 0.283745
3.62037 -0.198116 0.294774
3.62246 -0.197939 0.306757
3.62054 -0.197775 0.317771
3.60862 -0.197618 0.32786
3.61872 -0.197433 0.340783
3.6128 -0.197266 0.351826
3.61385 -0.197178 0.357818
3.60592 -0.197024 0.367877
3.61202 -0.196836 0.38083
3.59609 -0.196691 0.389949
3.59727 -0.196337 0.413938
3.60136 -0.196162 0.425906
3.59439 -0.196098 0.429959
3.59549 -0.195906 0.442949
3.59566 -0.195565 0.465946
3.59083 -0.195236 0.487981
3.58591 -0.19507 0.499017
3.58495 -0.19498 0.505023
3.58404 -0.194802 0.517029
3.59515 -0.194603 0.530945
3.58231 -0.194282 0.55204
3.57839 -0.194117 0.563068
3.57747 -0.193953 0.574074
3.57351 -0.193876 0.579104
3.5736 -0.193698 0.591102
3.57269 -0.19352 0.603108
3.56376 -0.19338 0.612174
3.56887 -0.193177 0.626135
3.57196 -0.193001 0.63811
3.56504 -0.192833 0.649162
3.56708 -0.192746 0.655146
3.55816 -0.192591 0.665212
3.55724 -0.192428 0.676218
3.55342 -0.192084 0.699245
3.5516 -0.191728 0.723257
3.55164 -0.191639 0.729256
3.54973 -0.191475 0.740269
3.55082 -0.191283 0.75326
3.54991 -0.19012 0.764251
3.54308 -0.189774 0.787301
3.55319 -0.189559 0.802223
3.54322 -0.189508 0.805298
3.54932 -0.189305 0.819251
3.54049 -0.188972 0.841316
3.53757 -0.188807 0.852337
3.54167 -0.188618 0.865305
3.53174 -0.188463 0.875379
3.53179 -0.188374 0.881378
3.53198 -0.188004 0.906375
3.52906 -0.187839 0.917396
3.52314 -0.187686 0.927439
3.52633 -0.187304 0.953413
3.52337 -0.187227 0.958435
3.51945 -0.187062 0.969464
3.52055 -0.18687 0.982455
3.52265 -0.185679 0.995423
3.51071 -0.186552 1.00353
3.51481 -0.185348 1.01748
3.5119 -0.185168 1.0295
3.51396 -0.185066 1.03648
3.51004 -0.1849 1.04751
3.51515 -0.184696 1.06147
3.51233 -0.184324 1.08649
3.50541 -0.184171 1.09654
3.50852 -0.183966 1.11052
3.50655 -0.18389 1.11553
3.50766 -0.183684 1.12952
3.4927 -0.183584 1.13564
3.49882 -0.183352 1.15159
3.4949 -0.183201 1.16162
3.48998 -0.183034 1.17265
3.48707 -0.182855 1.18468
3.49414 -0.182726 1.19362
3.49434 -0.181342 1.2196
3.48541 -0.181187 1.22967
3.48561 -0.180802 1.25567
3.47467 -0.180676 1.26375
3.48385 -0.180327 1.28768
3.47592 -0.180188 1.29674
3.46899 -0.180035 1.30679
3.47813 -0.179775 1.32472
3.4732 -0.179623 1.33475
3.47637 -0.1783 1.35671
3.46744 -0.17916 1.36579
3.46172 -0.177608 1.40282
3.45991 -0.177222 1.42883
3.45098 -0.177082 1.4379
3.45515 -0.176744 1.46086
3.44622 -0.176605 1.46993
3.44543 -0.176204 1.49693
3.43659 -0.175872 1.519
3.43665 -0.175768 1.526
3.43194 -0.174188 1.56501
3.42803 -0.174007 1.57704
3.42322 -0.173633 1.60208
3.42628 -0.173517 1.61005
3.42137 -0.173336 1.62209
3.4265 -0.173088 1.63905
3.4256 -0.172895 1.65206
3.41366 -0.172768 1.66014
3.41878 -0.17152 1.67709
3.41002 -0.171054 1.70815
3.40711 -0.170874 1.72017
3.40761 -0.169897 1.78616
3.39214 -0.167835 1.85726
3.38522 -0.167682 1.86731
3.69106 -0.186654 -0.279007
3.69315 -0.186493 -0.268024
3.68724 -0.187311 -0.255966
3.68536 -0.187058 -0.238953
3.68446 -0.186879 -0.226947
3.69254 -0.185722 -0.216024
3.67298 -0.185849 -0.157866
3.68102 -0.185766 -0.151927
3.6751 -0.185599 -0.140884
3.67219 -0.185419 -0.128863
3.67228 -0.185256 -0.117864
3.65966 -0.184492 -0.0667735
3.66675 -0.184319 -0.0548278
3.66584 -0.184141 -0.042822
3.65692 -0.183972 -0.0317558
3.65532 -0.183201 0.0202521
3.64548 -0.182868 0.0423243
3.64096 -0.181931 0.105353
3.63404 -0.181763 0.116404
3.62643 -0.181003 0.167458
3.62651 -0.18084 0.178456
3.62168 -0.180496 0.20149
3.6219 -0.180067 0.230487
3.61707 -0.179737 0.252521
3.61524 -0.179395 0.275533
3.61533 -0.179218 0.287531
3.61037 -0.17914 0.292568
3.60854 -0.178798 0.31558
3.60462 -0.178632 0.326609
3.6068 -0.178279 0.35059
3.59993 -0.178037 0.366641
3.60202 -0.17786 0.378624
3.60329 -0.177328 0.414612
3.59745 -0.176998 0.436654
3.59968 -0.176556 0.466635
3.59084 -0.176223 0.488699
3.58993 -0.17606 0.499705
3.58601 -0.175894 0.510734
3.57904 -0.17583 0.514786
3.59015 -0.175616 0.529701
3.5804 -0.17512 0.562772
3.57549 -0.174954 0.573808
3.56656 -0.174799 0.583874
3.56487 -0.174191 0.624884
3.56396 -0.174012 0.636889
3.56218 -0.173582 0.665901
3.55234 -0.173263 0.686973
3.55143 -0.173085 0.698979
3.5497 -0.171551 0.734974
3.55193 -0.171093 0.765955
3.55612 -0.170726 0.790921
3.53339 -0.170177 0.827089
3.54051 -0.16996 0.842035
3.53567 -0.16963 0.864069
3.52985 -0.169286 0.887111
3.53992 -0.168145 0.89702
3.51915 -0.168685 0.927188
3.51145 -0.168088 0.967243
3.51455 -0.166883 0.981204
3.51465 -0.166705 0.993202
3.51192 -0.166155 1.03022
3.50805 -0.165901 1.04725
3.50715 -0.165707 1.06025
3.49832 -0.165375 1.08232
3.49841 -0.165198 1.09432
3.49464 -0.163736 1.12533
3.49091 -0.1632 1.16135
3.48108 -0.162867 1.18342
3.48032 -0.162393 1.21543
3.4764 -0.162227 1.22646
3.47961 -0.161815 1.25443
3.46883 -0.160392 1.28249
3.46792 -0.160199 1.2955
3.47204 -0.15998 1.31047
3.4611 -0.159854 1.31855
3.47048 -0.158105 1.36946
3.46757 -0.157926 1.38148
3.46767 -0.157733 1.39448
3.44971 -0.158646 1.39963
3.4459 -0.157273 1.42464
3.44399 -0.157079 1.43765
3.44304 -0.15699 1.44366
3.44114 -0.156796 1.45667
3.44525 -0.156577 1.47164
3.45339 -0.155316 1.48956
3.44557 -0.154955 1.51362
3.43362 -0.155843 1.52072
3.43267 -0.155753 1.52673
3.43579 -0.154518 1.54269
3.43288 -0.154339 1.55471
3.42595 -0.154186 1.56476
3.43008 -0.153937 1.58173
3.43129 -0.153523 1.60972
3.42432 -0.153459 1.61377
3.42342 -0.153266 1.62678
3.42152 -0.152072 1.63978
3.43067 -0.151782 1.65971
3.41392 -0.151281 1.69283
3.40895 -0.151219 1.69687
3.40504 -0.151038 1.70889
3.4172 -0.149721 1.73079
3.40224 -0.150636 1.73591
3.40838 -0.149374 1.75385
3.40146 -0.149206 1.7649
3.39856 -0.149012 1.77792
3.39861 -0.148908 1.78492
3.40375 -0.148645 1.80288
3.40096 -0.147229 1.83089
3.40006 -0.147021 1.84489
3.38912 -0.146894 1.85297
3.57327 -0.153399 0.543501
3.57149 -0.152968 0.572512
3.56676 -0.152446 0.607545
3.53518 -0.148625 0.796752
3.44699 -0.134113 1.43529
3.43372 -0.131682 1.53137
3.42214 -0.130845 1.58745
3.41263 -0.128875 1.6525
3.40877 -0.128591 1.67153
3.40646 -0.125242 1.76251
3.38631 -0.122554 1.87564
3.70293 -0.139994 -0.301791
3.70101 -0.13983 -0.290777
3.69032 -0.140215 -0.249685
3.68841 -0.140035 -0.237672
3.69449 -0.138877 -0.226733
3.69458 -0.138699 -0.214735
3.68771 -0.139443 -0.19767
3.67788 -0.139095 -0.174598
3.67706 -0.138754 -0.151593
3.67615 -0.138575 -0.139587
3.67623 -0.138412 -0.128589
3.67937 -0.138148 -0.110614
3.67845 -0.137985 -0.099608
3.66075 -0.137379 -0.0594781
3.66492 -0.137042 -0.0365114
3.66801 -0.136866 -0.0245356
3.6671 -0.136703 -0.0135296
3.66036 -0.13618 0.0215183
3.66241 -0.136092 0.0275024
3.64748 -0.136933 0.0376287
3.65165 -0.135596 0.0605806
3.64374 -0.136427 0.0716541
3.65192 -0.135078 0.0955758
3.64605 -0.134822 0.112619
3.64313 -0.135657 0.123654
3.63521 -0.135488 0.134713
3.64339 -0.134139 0.158635
3.63852 -0.133883 0.17567
3.63569 -0.133541 0.198689
3.63278 -0.134376 0.209725
3.62316 -0.133613 0.260794
3.61859 -0.131766 0.317809
3.61163 -0.132687 0.322875
3.6149 -0.131156 0.358833
3.60707 -0.130825 0.38089
3.60916 -0.130649 0.392873
3.60228 -0.130407 0.408924
3.59776 -0.129456 0.472953
3.58828 -0.128427 0.542018
3.5733 -0.128387 0.544131
3.58249 -0.128008 0.57006
3.58158 -0.12783 0.582066
3.57575 -0.1275 0.604108
3.56682 -0.127345 0.614174
3.57497 -0.127055 0.634111
3.56203 -0.126927 0.642208
3.56832 -0.125369 0.680143
3.55953 -0.124948 0.708206
3.5527 -0.124617 0.730256
3.55379 -0.124441 0.742247
3.55097 -0.124083 0.766266
3.55302 -0.123981 0.77325
3.54017 -0.123675 0.793345
3.54336 -0.123308 0.818319
3.53854 -0.122963 0.841354
3.53667 -0.122696 0.859366
3.53877 -0.121505 0.872335
3.52984 -0.122365 0.881416
3.51991 -0.122224 0.89049
3.53003 -0.120995 0.906397
3.52611 -0.120829 0.917426
3.52014 -0.120765 0.921471
3.52935 -0.120358 0.949399
3.51569 -0.119681 0.994498
3.51693 -0.118208 1.02647
3.51703 -0.118016 1.03947
3.49516 -0.118748 1.05665
3.50844 -0.11721 1.09353
3.50562 -0.115853 1.11753
3.5018 -0.115495 1.14156
3.49301 -0.115074 1.16963
3.49421 -0.114675 1.19661
3.48829 -0.114522 1.20666
3.48739 -0.114329 1.21966
3.48553 -0.113046 1.23866
3.48171 -0.112688 1.26269
3.4789 -0.112316 1.28771
3.46204 -0.112022 1.30683
3.46319 -0.111727 1.32682
3.4646 -0.109929 1.38079
3.45492 -0.1083 1.42285
3.45111 -0.107912 1.44887
3.45333 -0.107499 1.47685
3.45338 -0.106395 1.48384
3.43498 -0.105197 1.56397
3.43519 -0.103783 1.59195
3.41592 -0.101348 1.68807
3.39788 -0.097454 1.81517
3.39201 -0.0971832 1.83321
3.69417 -0.117531 -0.271053
3.68626 -0.117347 -0.258994
3.68235 -0.118182 -0.247951
3.68244 -0.118004 -0.235953
3.67966 -0.117572 -0.206934
3.67574 -0.117407 -0.195905
3.67883 -0.117231 -0.18393
3.68491 -0.116073 -0.172991
3.67405 -0.116798 -0.154896
3.67813 -0.116638 -0.143928
3.6673 -0.11629 -0.120848
3.66439 -0.116125 -0.109827
3.67448 -0.115955 -0.097904
3.66265 -0.115605 -0.0748168
3.65578 -0.116349 -0.0577517
3.65686 -0.115187 -0.0467756
3.65995 -0.115011 -0.0347998
3.66404 -0.114836 -0.0228315
3.65513 -0.114667 -0.0117653
3.65822 -0.114492 0.00021043
3.65234 -0.114236 0.0172532
3.65343 -0.114073 0.0282442
3.64251 -0.114902 0.0393402
3.6476 -0.114729 0.051301
3.65469 -0.113556 0.0632318
3.63977 -0.114397 0.0733581
3.64682 -0.113299 0.0802897
3.6439 -0.114133 0.0913256
3.63908 -0.113789 0.11436
3.63416 -0.113623 0.125396
3.62723 -0.11347 0.135447
3.64334 -0.112274 0.14931
3.63638 -0.113195 0.154377
3.63254 -0.112867 0.176404
3.63664 -0.111677 0.189357
3.63272 -0.111511 0.200386
3.62781 -0.112345 0.211437
3.62389 -0.112179 0.222465
3.62693 -0.112092 0.228442
3.62402 -0.111927 0.239463
3.61418 -0.111595 0.261535
3.61936 -0.111243 0.285494
3.61144 -0.111089 0.295553
3.6205 -0.109977 0.30347
3.61658 -0.109812 0.314498
3.61484 -0.109307 0.348509
3.603 -0.109972 0.370611
3.60204 -0.109898 0.375617
3.59513 -0.10973 0.386669
3.60322 -0.108543 0.399592
3.59931 -0.108377 0.41062
3.6014 -0.108201 0.422604
3.59648 -0.108035 0.43364
3.59056 -0.108882 0.443698
3.5947 -0.107604 0.462651
3.58277 -0.108462 0.471755
3.58987 -0.10726 0.485685
3.58705 -0.106917 0.508705
3.58713 -0.106754 0.519703
3.58326 -0.1065 0.536731
3.57569 -0.105636 0.594783
3.57273 -0.105559 0.599805
3.57181 -0.105396 0.610811
3.57291 -0.105204 0.623802
3.572 -0.104041 0.634793
3.55929 -0.104454 0.6739
3.55947 -0.103099 0.697882
3.55455 -0.102932 0.708918
3.55664 -0.102756 0.720901
3.55774 -0.102564 0.733892
3.5448 -0.102436 0.741989
3.54285 -0.102346 0.748003
3.54312 -0.101813 0.783998
3.53519 -0.101659 0.794057
3.53027 -0.101508 0.804093
3.53838 -0.101291 0.819031
3.54044 -0.100189 0.826
3.5275 -0.101061 0.834112
3.5336 -0.0998587 0.84805
3.52568 -0.100705 0.858123
3.52276 -0.10054 0.869144
3.52987 -0.0993377 0.883075
3.52294 -0.0991846 0.893126
3.51898 -0.0991076 0.898156
3.5291 -0.0988781 0.914078
3.52318 -0.0987257 0.924122
3.51124 -0.0985837 0.933211
3.52436 -0.0973565 0.949096
3.51343 -0.0982151 0.958192
3.50751 -0.0980627 0.968236
3.52059 -0.0969095 0.979122
3.51075 -0.0965913 1.00019
3.51085 -0.0963989 1.01319
3.51395 -0.0961939 1.02717
3.50101 -0.0960808 1.03426
3.51113 -0.0948365 1.05117
3.50516 -0.0957728 1.05523
3.50125 -0.0956071 1.06626
3.50435 -0.0944022 1.08022
3.4914 -0.095289 1.08733
3.49451 -0.094084 1.10129
3.49762 -0.093879 1.11527
3.49475 -0.0936103 1.13329
3.49585 -0.0934186 1.14628
3.49093 -0.0932522 1.15732
3.49605 -0.0920339 1.17226
3.49113 -0.0918674 1.1833
3.47918 -0.0917551 1.19039
3.47427 -0.0915886 1.20142
3.48535 -0.0914338 1.21234
3.48545 -0.0912265 1.22634
3.48454 -0.0900483 1.23833
3.48163 -0.0898685 1.25035
3.47571 -0.0897161 1.26039
3.47782 -0.0895103 1.27438
3.47691 -0.0893172 1.28738
3.46913 -0.0888821 1.31644
3.46833 -0.0874966 1.34243
3.46753 -0.087111 1.36843
3.45353 -0.087086 1.36954
3.45785 -0.0854673 1.41149
3.45996 -0.0852615 1.42547
3.45102 -0.0851217 1.43453
3.44426 -0.0846578 1.46558
3.44557 -0.0830517 1.50655
3.43965 -0.0828845 1.5176
3.44081 -0.0815745 1.53857
3.41793 -0.0773665 1.6867
3.41909 -0.0770415 1.70869
3.40469 -0.0738614 1.78777
3.40385 -0.0735499 1.80877
3.39704 -0.0721748 1.8338
3.402 -0.0552388 1.6945
3.38017 -0.049928 1.8496
3.69011 -0.0727105 -0.283688
3.68524 -0.0724552 -0.266652
3.67933 -0.0732731 -0.254594
3.67942 -0.0730954 -0.242596
3.6795 -0.0729326 -0.231597
3.68359 -0.071758 -0.219644
3.67477 -0.0724109 -0.196564
3.67481 -0.0723221 -0.190565
3.6699 -0.0721556 -0.179529
3.66999 -0.071978 -0.167531
3.66315 -0.0716472 -0.145481
3.67324 -0.0714769 -0.133558
3.66433 -0.0712927 -0.121492
3.67038 -0.0712082 -0.115538
3.66463 -0.0707006 -0.0814974
3.65772 -0.0705327 -0.0704463
3.65481 -0.0713527 -0.0584105
3.65794 -0.0701034 -0.0414503
3.65102 -0.0709354 -0.0303843
3.65211 -0.0707585 -0.0183935
3.65319 -0.0695965 -0.00741732
3.65537 -0.0692427 0.0165643
3.64449 -0.0699977 0.0326597
3.63466 -0.0696648 0.0547319
3.63375 -0.0694864 0.0667378
3.64092 -0.0691511 0.0896819
3.63801 -0.0689712 0.101703
3.63105 -0.0688921 0.106755
3.63414 -0.0687167 0.118731
3.63722 -0.068556 0.129706
3.62239 -0.0682195 0.151816
3.62848 -0.0680462 0.16377
3.63357 -0.0678722 0.17573
3.62862 -0.0677798 0.181767
3.62779 -0.0674386 0.204771
3.60816 -0.0666987 0.253915
3.61726 -0.0665128 0.266846
3.61334 -0.0663471 0.277874
3.61142 -0.0661828 0.288888
3.61752 -0.0649948 0.301826
3.6076 -0.0658394 0.311915
3.59567 -0.0656827 0.322004
3.60472 -0.0655856 0.328935
3.6009 -0.0652422 0.351962
3.60098 -0.0650794 0.36296
3.59306 -0.0649107 0.374019
3.59915 -0.0647375 0.385972
3.59624 -0.0645577 0.397993
3.59136 -0.0643172 0.414028
3.59345 -0.064141 0.426012
3.59054 -0.063976 0.437033
3.5827 -0.0636445 0.45909
3.5878 -0.0624558 0.472036
3.59085 -0.0623544 0.479012
3.57491 -0.0632242 0.487146
3.57318 -0.0627047 0.522157
3.56625 -0.0625516 0.532208
3.56434 -0.0623873 0.543221
3.57441 -0.0612614 0.55213
3.56247 -0.0621194 0.561234
3.57859 -0.0609091 0.576097
3.56866 -0.0607538 0.586171
3.55882 -0.0604357 0.607243
3.56797 -0.0591463 0.627158
3.55203 -0.0600161 0.635292
3.54911 -0.0598511 0.646313
3.55221 -0.0596608 0.659288
3.55139 -0.0593049 0.683293
3.55649 -0.0581162 0.696238
3.55152 -0.0580533 0.700275
3.54069 -0.0587195 0.72237
3.53777 -0.0585545 0.733391
3.54287 -0.0573658 0.746337
3.53294 -0.0572105 0.756411
3.54419 -0.0557302 0.789309
3.53727 -0.0565769 0.799375
3.53134 -0.0564246 0.809418
3.53043 -0.0562462 0.821424
3.53454 -0.055042 0.835377
3.52661 -0.0549029 0.844436
3.52766 -0.0548001 0.851428
3.53277 -0.0545965 0.865388
3.52183 -0.05447 0.87347
3.51691 -0.0543036 0.884506
3.517 -0.0541259 0.896504
3.5181 -0.0539342 0.909495
3.52621 -0.0527181 0.924418
3.52425 -0.0526427 0.929432
3.52234 -0.0524636 0.941446
3.51241 -0.0523231 0.95052
3.51852 -0.0521054 0.965473
3.5126 -0.051953 0.975516
3.51469 -0.0507621 0.988485
3.50677 -0.0516082 0.998558
3.51192 -0.0503159 1.0185
3.50901 -0.0501361 1.03052
3.5071 -0.049957 1.04254
3.49726 -0.0496388 1.06361
3.49134 -0.0494865 1.07365
3.4984 -0.0483584 1.08258
3.4975 -0.0481653 1.09559
3.49458 -0.0480003 1.10661
3.49769 -0.0477952 1.12059
3.49578 -0.0466162 1.13259
3.48785 -0.0474771 1.14166
3.48098 -0.0472203 1.15871
3.48709 -0.0460028 1.17365
3.48729 -0.044618 1.19963
3.47535 -0.0454908 1.20773
3.48146 -0.0442732 1.22267
3.48161 -0.0439771 1.24267
3.47368 -0.0438381 1.25173
3.47689 -0.0424259 1.27969
3.46094 -0.0433254 1.28582
3.46304 -0.0421197 1.29979
3.46224 -0.0417341 1.32579
3.45426 -0.0416839 1.32885
3.45938 -0.0414507 1.34481
3.45155 -0.0401193 1.36686
3.44472 -0.0397737 1.3899
3.44578 -0.039656 1.3979
3.44889 -0.0384363 1.41286
3.44798 -0.0382579 1.42486
3.44729 -0.0366504 1.46585
3.44338 -0.0364847 1.47688
3.44549 -0.0362641 1.49186
3.44052 -0.0362012 1.4959
3.42958 -0.0360748 1.50398
3.43079 -0.0346612 1.53195
3.43592 -0.0344132 1.54891
3.428 -0.0342593 1.55897
3.43111 -0.0330396 1.57393
3.43015 -0.0329501 1.57994
3.42825 -0.0327562 1.59295
3.41129 -0.0326698 1.59808
3.4144 -0.0324499 1.61306
3.41049 -0.0322694 1.62508
3.41764 -0.0309933 1.64401
3.4087 -0.0308684 1.65208
3.4178 -0.0296826 1.665
3.40986 -0.0295436 1.67405
3.41199 -0.0293082 1.69004
3.40607 -0.029141 1.70108
3.40427 -0.02774 1.72808
3.40639 -0.0275046 1.74406
3.40154 -0.0262198 1.76308
3.40366 -0.0259844 1.77906
3.3887 -0.0258995 1.78418
3.39483 -0.0256374 1.80213
3.39294 -0.0244288 1.81613
3.38802 -0.0242624 1.82716
3.39009 -0.0241306 1.83615
3.37814 -0.0240182 1.84324
3.39132 -0.0226725 1.86712
3.3854 -0.0225202 1.87716
3.65464 -0.0517102 -0.0827034
3.64158 -0.0498497 0.0423847
3.63784 -0.0493287 0.07741
3.62452 -0.0479863 0.167503
3.6217 -0.0476436 0.190522
3.62179 -0.047466 0.202521
3.61987 -0.0473017 0.213534
3.61695 -0.0471367 0.224555
3.61352 -0.0460236 0.299575
3.55445 -0.0382205 0.688958
3.54953 -0.0390688 0.699009
3.55272 -0.0376862 0.724968
3.53947 -0.0352107 0.824045
3.53077 -0.034612 0.864107
3.53004 -0.0330785 0.900095
3.52618 -0.0328091 0.918123
3.5107 -0.0307762 0.987219
3.51175 -0.0306733 0.99421
3.51385 -0.0304824 1.00719
3.50592 -0.0303433 1.01625
3.50702 -0.0301516 1.02924
3.5042 -0.0287795 1.05425
3.49542 -0.0283584 1.08231
3.49169 -0.0278078 1.11934
3.48376 -0.0276688 1.1284
3.49194 -0.0263343 1.15132
3.48801 -0.0261833 1.16135
3.48812 -0.0259761 1.17534
3.47637 -0.024479 1.20841
3.47652 -0.0241829 1.22841
3.47361 -0.0240031 1.24043
3.47471 -0.0228115 1.25341
3.4718 -0.0226317 1.26543
3.47189 -0.0224393 1.27843
3.46713 -0.0209769 1.30945
3.46231 -0.020618 1.33348
3.45539 -0.0204649 1.34353
3.4595 -0.0202457 1.3585
3.46161 -0.0190253 1.37347
3.45685 -0.0175629 1.40449
3.45003 -0.0172025 1.42854
3.43909 -0.018076 1.43663
3.45023 -0.0158029 1.45552
3.44631 -0.0156372 1.46655
3.43834 -0.0165869 1.46962
3.43453 -0.015214 1.49463
3.43965 -0.0139661 1.51158
3.42279 -0.0146872 1.52972
3.43495 -0.0133852 1.55061
3.42908 -0.0121145 1.56864
3.42518 -0.0119339 1.58067
3.42438 -0.0105336 1.60766
3.41947 -0.0103524 1.61969
3.42258 -0.0101325 1.63467
3.41963 -0.0100415 1.64069
3.41582 -0.00865384 1.6667
3.41292 -0.00845922 1.67972
3.40499 -0.00832018 1.68878
3.41113 -0.00705821 1.70672
3.40828 -0.00675998 1.72674
3.40649 -0.00534416 1.75473
3.40459 -0.00513547 1.76875
3.39365 -0.00502384 1.77583
3.38572 -0.00486999 1.78589
3.38684 -0.00363399 1.80186
3.39192 -0.00348961 1.81182
3.3988 0.0172669 1.66044
3.40108 0.0198129 1.69739
3.38566 0.0229641 1.77447
3.37789 0.0234288 1.80553
3.37321 0.0260539 1.84753
3.36847 0.0265609 1.88157
3.68307 0.0150925 -0.297936
3.67729 0.0155262 -0.268895
3.66772 0.0153921 -0.210813
3.66777 0.0154809 -0.204814
3.65902 0.0159908 -0.170751
3.6602 0.0163305 -0.147761
3.66229 0.0165067 -0.135778
3.65337 0.0156762 -0.124697
3.6525 0.0159285 -0.107692
3.65167 0.0162697 -0.0846876
3.65676 0.0174436 -0.0727417
3.64193 0.0167803 -0.050617
3.64897 0.016864 -0.0446705
3.64415 0.0172081 -0.0216361
3.64924 0.0173821 -0.00967534
3.64032 0.0175515 0.00139084
3.6374 0.0177165 0.0124119
3.65049 0.0188845 0.0242976
3.63461 0.0181331 0.0404306
3.63371 0.0183115 0.0524365
3.63079 0.0184765 0.0634575
3.62787 0.0176416 0.0744934
3.63396 0.0188148 0.0864318
3.62904 0.0189812 0.0974679
3.62909 0.0190701 0.103467
3.62718 0.0192491 0.11548
3.62226 0.0184157 0.126531
3.62935 0.0195881 0.138462
3.62052 0.0199204 0.160527
3.62565 0.0201832 0.178487
3.61874 0.0203511 0.189538
3.60881 0.0195065 0.199627
3.61199 0.0208447 0.222586
3.60407 0.0200134 0.23366
3.60821 0.0212768 0.251612
3.60028 0.0204308 0.261686
3.60838 0.0216173 0.274609
3.60646 0.0217816 0.285623
3.59754 0.0209363 0.295704
3.59772 0.0222914 0.319686
3.59075 0.0213558 0.323752
3.59093 0.0217111 0.347749
3.5921 0.0230507 0.370724
3.58819 0.0232165 0.381752
3.58627 0.0233807 0.392766
3.58731 0.0234688 0.398757
3.59141 0.0236583 0.411726
3.58048 0.0237996 0.420807
3.58458 0.0239891 0.433775
3.58266 0.0241534 0.444789
3.57983 0.024496 0.467808
3.57487 0.0245737 0.472845
3.57596 0.0247506 0.484836
3.58306 0.0259378 0.497767
3.57514 0.0260917 0.507825
3.57431 0.0264328 0.53083
3.56138 0.0255756 0.539941
3.55842 0.0256666 0.545963
3.56752 0.0268524 0.558879
3.5606 0.0270203 0.56993
3.55869 0.0271846 0.580943
3.56178 0.0273749 0.593919
3.54884 0.0265029 0.60203
3.55599 0.0277937 0.62196
3.55909 0.0289838 0.634921
3.54916 0.0281244 0.64401
3.55526 0.0293124 0.656948
3.54834 0.0294803 0.667999
3.54342 0.0286321 0.67805
3.5405 0.0287971 0.689071
3.54455 0.0298977 0.696025
3.53964 0.0300642 0.707062
3.54473 0.030253 0.720022
3.5359 0.0305852 0.742087
3.541 0.0317739 0.755033
3.53307 0.0319277 0.765091
3.53011 0.031004 0.770128
3.53622 0.0322068 0.784066
3.5333 0.0323718 0.795087
3.52137 0.0325137 0.804176
3.52747 0.0327166 0.818129
3.51854 0.0328564 0.827196
3.52064 0.0330474 0.840179
3.52871 0.0341746 0.849103
3.52178 0.0343278 0.859154
3.52597 0.0356948 0.884106
3.51203 0.0348235 0.892225
3.50712 0.03499 0.903261
3.52224 0.0362306 0.920131
3.51026 0.036269 0.922221
3.50534 0.0354355 0.933272
3.51446 0.0376508 0.948172
3.50854 0.0368181 0.959231
3.50462 0.0369838 0.970259
3.5038 0.0383397 0.994249
3.49883 0.0384026 0.998286
3.50504 0.0398126 1.02622
3.50113 0.0399783 1.03725
3.49721 0.040144 1.04828
3.48928 0.0402831 1.05734
3.4845 0.0407308 1.08737
3.49372 0.0431533 1.11627
3.4878 0.0433057 1.12631
3.48298 0.0436646 1.15035
3.47801 0.0437275 1.15439
3.4761 0.0439065 1.1664
3.47228 0.0442647 1.19043
3.47349 0.0456635 1.2174
3.46355 0.0457892 1.22547
3.47072 0.0471245 1.2484
3.4658 0.047291 1.25944
3.45787 0.04743 1.2685
3.46208 0.0488415 1.29645
3.45616 0.0489938 1.30649
3.45932 0.0503172 1.32845
3.45239 0.0504555 1.3375
3.45059 0.0518417 1.3635
3.43674 0.0511481 1.38362
3.44211 0.0538695 1.43254
3.43418 0.0540234 1.4426
3.44332 0.0552832 1.46052
3.4384 0.0554496 1.47155
3.43656 0.056747 1.49155
3.42873 0.0570933 1.51461
3.42994 0.0595068 1.54257
3.42402 0.059674 1.55361
3.4171 0.0588273 1.56368
3.42227 0.0611639 1.58661
3.42339 0.0613852 1.6016
3.41657 0.0627454 1.62563
3.39539 0.0673746 1.73474
3.38121 0.0719838 1.84279
3.69225 0.0384091 -0.276347
3.6685 0.0369301 -0.242142
3.67359 0.0371041 -0.230181
3.67764 0.03719 -0.224212
3.67372 0.0373557 -0.213184
3.67781 0.0375304 -0.201215
3.66289 0.0367043 -0.190089
3.67699 0.0378716 -0.178211
3.66507 0.0370433 -0.167107
3.66016 0.0372246 -0.155071
3.6682 0.0383075 -0.149147
3.66738 0.0386486 -0.126143
3.66446 0.0388137 -0.115122
3.65854 0.037981 -0.104063
3.66163 0.0381564 -0.0920876
3.65672 0.0383229 -0.0810515
3.65676 0.0384117 -0.0750523
3.65985 0.0385871 -0.0630766
3.65102 0.0389193 -0.0410119
3.64719 0.0392627 -0.017985
3.65228 0.0394367 -0.00602425
3.65133 0.0395262 -1.7538e-05
3.64241 0.0386957 0.0110635
3.63657 0.0390258 0.0331056
3.64367 0.0401982 0.0450364
3.63488 0.0396193 0.0731151
3.62704 0.0399508 0.0951723
3.63614 0.0411366 0.108088
3.62622 0.040292 0.118177
3.62239 0.0406353 0.141204
3.62343 0.0407234 0.147195
3.62152 0.0408877 0.158209
3.62061 0.0410661 0.170215
3.61568 0.0412177 0.180251
3.60598 0.0408172 0.220335
3.60207 0.040983 0.231364
3.61116 0.0421539 0.24328
3.61125 0.0423316 0.255278
3.59941 0.0416513 0.27638
3.60072 0.0432573 0.317352
3.58779 0.0424149 0.327464
3.58587 0.0425792 0.338477
3.59698 0.0437783 0.352378
3.58618 0.044186 0.379457
3.58235 0.0445146 0.401484
3.57351 0.0438469 0.423563
3.58963 0.0460571 0.438411
3.58567 0.046134 0.44344
3.56899 0.045783 0.486577
3.57418 0.0471493 0.511521
3.57031 0.0474038 0.528549
3.56739 0.0475689 0.53957
3.56365 0.0480899 0.574596
3.55777 0.0483311 0.590638
3.55085 0.0484842 0.60069
3.54793 0.0486492 0.611711
3.56305 0.049875 0.627581
3.5421 0.0489792 0.633753
3.54119 0.0491576 0.645759
3.55531 0.0503841 0.661636
3.55436 0.0504737 0.667643
3.54451 0.0507918 0.688715
3.55062 0.0519945 0.702654
3.53868 0.0511218 0.710758
3.53877 0.0512994 0.722756
3.54187 0.0524896 0.735717
3.54592 0.0525903 0.742686
3.541 0.0527567 0.753722
3.53308 0.0529106 0.763781
3.52616 0.0530637 0.773832
3.53226 0.0532666 0.787785
3.53636 0.054456 0.800738
3.52342 0.053584 0.80885
3.52547 0.054686 0.815819
3.52656 0.0548629 0.82781
3.52666 0.0550554 0.840808
3.51572 0.0551818 0.848889
3.51983 0.0553861 0.862857
3.52292 0.0565763 0.875818
3.52502 0.0577671 0.888787
3.51414 0.0569973 0.903882
3.50831 0.0573421 0.926924
3.51241 0.0585315 0.939877
3.5085 0.0587121 0.951906
3.5116 0.0599022 0.964867
3.51164 0.059991 0.970866
3.50591 0.0605283 1.00691
3.505 0.0617065 1.0189
3.49115 0.0610129 1.03901
3.49521 0.0621135 1.04597
3.49029 0.0622799 1.057
3.4954 0.0624983 1.07196
3.4955 0.0636907 1.08495
3.49259 0.0638557 1.09597
3.49068 0.0640348 1.10798
3.48777 0.0642146 1.12
3.48882 0.0653174 1.12698
3.4869 0.0654816 1.13799
3.48399 0.0656615 1.15001
3.48509 0.0658532 1.16301
3.47225 0.0661735 1.1841
3.46733 0.0663251 1.19414
3.47349 0.0676463 1.21607
3.46657 0.0678142 1.22712
3.47179 0.0702249 1.25505
3.45798 0.06962 1.28117
3.4641 0.0708524 1.29711
3.45528 0.0721993 1.32016
3.44544 0.0725174 1.34123
3.45372 0.0750739 1.37914
3.4468 0.0742271 1.3892
3.44489 0.0754061 1.4012
3.447 0.0756266 1.41618
3.44319 0.0769995 1.44119
3.44224 0.077089 1.4472
3.43853 0.079669 1.4862
3.43272 0.0800435 1.51124
3.42695 0.0815066 1.54226
3.41935 0.0832821 1.5943
3.41242 0.0834352 1.60435
3.40951 0.0846149 1.61636
3.41359 0.08476 1.62633
3.39504 0.0876618 1.68643
3.40034 0.0902352 1.72536
3.39241 0.0893743 1.73443
3.39665 0.0918449 1.76637
3.38973 0.0920128 1.77742
3.6713 0.0584962 -0.271486
3.65804 0.0589572 -0.17338
3.64464 0.0591517 -0.0932705
3.64573 0.0593286 -0.0812797
3.64581 0.0594914 -0.0702812
3.64107 0.0599983 -0.0362483
3.63816 0.0601781 -0.0242274
3.63729 0.0604305 -0.0072222
3.63346 0.0607739 0.0158047
3.64255 0.060945 0.0277354
3.62763 0.060104 0.0378616
3.63072 0.0612794 0.0498226
3.63176 0.0613674 0.0558143
3.63084 0.061531 0.0668203
3.62193 0.0607005 0.0779013
3.62501 0.0608611 0.0888772
3.61727 0.0613702 0.122933
3.62031 0.0614569 0.128909
3.61349 0.0618024 0.151959
3.61657 0.0619631 0.162935
3.61666 0.0631406 0.174918
3.62175 0.0633146 0.186879
3.60204 0.0628917 0.225039
3.60922 0.0642418 0.248968
3.59729 0.0633987 0.259072
3.59537 0.0635629 0.270085
3.60043 0.0636629 0.277047
3.5925 0.0638168 0.287106
3.59668 0.065169 0.311057
3.58384 0.0644894 0.332167
3.58593 0.0646656 0.344151
3.58014 0.0650844 0.372192
3.58423 0.0662591 0.384145
3.58041 0.0666024 0.407172
3.57253 0.0658452 0.423245
3.57462 0.0670213 0.435213
3.56869 0.0661738 0.445272
3.58089 0.0685497 0.471148
3.56496 0.0676947 0.480282
3.56309 0.0679478 0.497295
3.56117 0.068112 0.508309
3.55633 0.0684413 0.530343
3.55652 0.0687966 0.55434
3.55464 0.0690497 0.571353
3.54781 0.0693804 0.593402
3.54416 0.071079 0.640411
3.54329 0.0713313 0.657416
3.54438 0.0725081 0.669392
3.53747 0.0716762 0.680458
3.53263 0.0730053 0.702478
3.53172 0.0731837 0.714484
3.53487 0.0734628 0.733459
3.52794 0.0736159 0.74351
3.53003 0.0747919 0.755478
3.52512 0.0739585 0.766529
3.52721 0.0751494 0.779498
3.52029 0.0753025 0.789549
3.52835 0.076415 0.797473
3.51952 0.0757473 0.819552
3.51961 0.0769248 0.831536
3.51468 0.0770765 0.841572
3.51478 0.0772689 0.85457
3.52089 0.0784717 0.868509
3.51091 0.0775235 0.871598
3.51701 0.0787262 0.885536
3.51911 0.0799171 0.898505
3.50226 0.0792108 0.917645
3.50235 0.0793885 0.929643
3.50444 0.0805793 0.942611
3.5075 0.0806808 0.949588
3.50158 0.080848 0.960631
3.50568 0.0820374 0.973585
3.49775 0.0811913 0.983658
3.50687 0.0834214 0.999559
3.49393 0.0825346 1.00667
3.48706 0.0827913 1.02372
3.50018 0.0840334 1.04061
3.48624 0.0831473 1.04773
3.48634 0.0843397 1.06071
3.48242 0.0845054 1.07174
3.48662 0.085902 1.09869
3.48265 0.0859642 1.10272
3.48175 0.0861573 1.11572
3.47683 0.0863238 1.12676
3.47291 0.0864747 1.13679
3.47511 0.0878728 1.16375
3.46819 0.0880259 1.17381
3.46423 0.0881029 1.17884
3.47435 0.0893471 1.19574
3.47345 0.0905254 1.20773
3.4606 0.089831 1.22784
3.46391 0.0924355 1.26879
3.45593 0.0924857 1.27185
3.45712 0.0938698 1.29782
3.45221 0.0940362 1.30886
3.45843 0.0954758 1.33879
3.45266 0.0969241 1.36882
3.44071 0.0960366 1.37592
3.44985 0.0982963 1.39382
3.44594 0.0984768 1.40585
3.43902 0.0986299 1.4159
3.44313 0.099849 1.43086
3.44218 0.0999385 1.43686
3.43836 0.101311 1.46187
3.43144 0.101464 1.47193
3.43455 0.102684 1.48689
3.43265 0.102878 1.4999
3.42578 0.103135 1.51695
3.42298 0.104522 1.54295
3.42409 0.105743 1.55793
3.42218 0.105922 1.56994
3.40923 0.105035 1.57705
3.41235 0.10627 1.59301
3.41642 0.1074 1.60197
3.41552 0.108593 1.61496
3.40559 0.107734 1.62405
3.41072 0.108982 1.64099
3.40278 0.109121 1.65005
3.40691 0.110369 1.66701
3.401 0.110536 1.67805
3.39603 0.110599 1.68209
3.39312 0.110794 1.69511
3.39925 0.113041 1.71203
3.39434 0.113222 1.72407
3.38642 0.113376 1.73412
3.39054 0.11461 1.75008
3.38563 0.114791 1.76211
3.3897 0.115921 1.77107
3.39182 0.117157 1.78704
3.3829 0.116311 1.79712
3.38501 0.117532 1.81208
3.67139 0.104624 -0.263169
3.67152 0.104876 -0.246171
3.6747 0.106229 -0.222212
3.65326 0.105341 -0.148027
3.64843 0.104685 -0.124977
3.62363 0.106057 0.034211
3.62284 0.106473 0.0622147
3.61793 0.106639 0.0732508
3.61819 0.107157 0.108246
3.6094 0.106578 0.136325
3.61048 0.10774 0.147301
3.60282 0.107412 0.19237
3.59038 0.108517 0.266457
3.58567 0.109098 0.305489
3.58193 0.110604 0.3395
3.57898 0.109695 0.345537
3.56387 0.112468 0.464626
3.56409 0.113898 0.493607
3.55242 0.114558 0.537691
3.54951 0.114737 0.549712
3.55675 0.116191 0.58064
3.55182 0.116343 0.590676
3.54491 0.116511 0.601728
3.54399 0.116674 0.612734
3.54107 0.116839 0.623755
3.54121 0.117106 0.641752
3.53537 0.117436 0.663794
3.53365 0.11897 0.69979
3.5222 0.121074 0.773855
3.51528 0.121227 0.783906
3.51642 0.121493 0.801896
3.51168 0.123014 0.836914
3.51592 0.124485 0.868865
3.50307 0.124791 0.88896
3.50517 0.124982 0.901943
3.50125 0.125147 0.912972
3.49534 0.125315 0.924015
3.49165 0.126924 0.965025
3.48582 0.127269 0.988067
3.48214 0.129893 1.03006
3.48166 0.132915 1.09903
3.46972 0.132043 1.10713
3.46881 0.133221 1.11913
3.46508 0.134757 1.15514
3.46719 0.135962 1.1691
3.46022 0.135027 1.17317
3.46141 0.136411 1.19914
3.45549 0.136563 1.20919
3.45268 0.137935 1.23419
3.447 0.139561 1.27622
3.43259 0.142741 1.35529
3.42978 0.144113 1.38029
3.42798 0.1455 1.40629
3.4212 0.146949 1.43632
3.41559 0.149708 1.48733
3.42367 0.150865 1.49826
3.39555 0.155602 1.61441
3.39486 0.15821 1.65539
3.38789 0.158274 1.65944
3.389 0.159481 1.67341
3.38609 0.159675 1.68643
3.37849 0.162451 1.73846
3.38569 0.16483 1.76437
3.37374 0.163957 1.77248
3.37587 0.166193 1.78843
3.37496 0.166386 1.80144
3.37318 0.168816 1.83042
3.37826 0.16996 1.84036
3.67749 0.129765 -0.253585
3.66857 0.129935 -0.242519
3.66666 0.129114 -0.230491
3.66474 0.129278 -0.219477
3.65882 0.128445 -0.208419
3.66287 0.129531 -0.202465
3.65796 0.128713 -0.190414
3.65604 0.128877 -0.1794
3.65722 0.129217 -0.156411
3.65431 0.129396 -0.14439
3.65039 0.129562 -0.133362
3.64952 0.129815 -0.116356
3.6446 0.128981 -0.105306
3.64269 0.12916 -0.0932921
3.64577 0.130321 -0.082331
3.6429 0.129575 -0.065296
3.63598 0.129743 -0.0542449
3.63707 0.12992 -0.042254
3.63716 0.130082 -0.0312556
3.63642 0.130601 0.00374714
3.6355 0.130765 0.0147532
3.62854 0.129844 0.0198199
3.62362 0.13001 0.030856
3.63072 0.131198 0.0437868
3.62397 0.130691 0.0768497
3.62106 0.130871 0.0888706
3.62611 0.131956 0.0948174
3.61118 0.130115 0.104958
3.61527 0.13129 0.116912
3.61545 0.13163 0.139909
3.60374 0.132216 0.178994
3.61283 0.133387 0.190909
3.61492 0.133564 0.202893
3.60208 0.132884 0.224002
3.60618 0.134073 0.236956
3.60121 0.133151 0.242008
3.6023 0.133313 0.252998
3.59638 0.133481 0.264042
3.59847 0.133657 0.276025
3.59055 0.133811 0.286084
3.58864 0.13399 0.298098
3.59073 0.134166 0.310081
3.58776 0.134242 0.315103
3.58785 0.134405 0.326101
3.58602 0.134747 0.349113
3.58411 0.134926 0.361127
3.5902 0.136099 0.373065
3.58629 0.136265 0.384094
3.58533 0.136354 0.3901
3.58442 0.136533 0.402106
3.5845 0.137695 0.41309
3.57859 0.136863 0.424148
3.58168 0.138038 0.436109
3.56774 0.136182 0.445243
3.56783 0.137344 0.456226
3.57088 0.137446 0.463203
3.56596 0.137612 0.474239
3.56805 0.137788 0.486222
3.56122 0.138119 0.508272
3.56231 0.139296 0.520248
3.56139 0.13946 0.531254
3.55844 0.13955 0.537276
3.55051 0.13869 0.54635
3.5556 0.139878 0.559295
3.55379 0.140235 0.583307
3.55688 0.14141 0.595268
3.54194 0.14054 0.603395
3.54499 0.140641 0.610371
3.54408 0.14082 0.622377
3.54225 0.142161 0.645374
3.54134 0.14234 0.65738
3.53642 0.142491 0.667416
3.53756 0.142757 0.685406
3.53665 0.143935 0.697397
3.53273 0.144101 0.708426
3.53783 0.144305 0.722386
3.52289 0.143419 0.729513
3.531 0.144636 0.744436
3.52408 0.144789 0.754487
3.52211 0.144864 0.759501
3.52521 0.146054 0.772462
3.51929 0.145222 0.783521
3.5264 0.147423 0.797436
3.51446 0.146551 0.80554
3.51154 0.146716 0.816562
3.5177 0.148022 0.837499
3.51579 0.148186 0.848512
3.51287 0.148351 0.859533
3.50695 0.148519 0.870577
3.51105 0.149708 0.88353
3.49912 0.14885 0.892634
3.50322 0.150039 0.905587
3.49734 0.150295 0.92263
3.49744 0.150473 0.934629
3.49953 0.151664 0.947597
3.49962 0.151842 0.959595
3.49371 0.152009 0.970639
3.49481 0.1532 0.983615
3.48984 0.152263 0.987667
3.48702 0.153621 1.01167
3.48109 0.153773 1.02171
3.4842 0.154978 1.03568
3.47627 0.154117 1.04475
3.4894 0.156374 1.06262
3.48544 0.156451 1.06765
3.48252 0.156616 1.07867
3.4797 0.157973 1.10267
3.47178 0.158127 1.11273
3.47087 0.158305 1.12474
3.46796 0.158485 1.13676
3.47001 0.159587 1.14373
3.4682 0.159959 1.16874
3.46729 0.161137 1.18073
3.46238 0.161304 1.19177
3.46057 0.162675 1.21676
3.45961 0.162764 1.22277
3.45469 0.162931 1.23381
3.45288 0.164302 1.2588
3.44596 0.164455 1.26886
3.45208 0.165688 1.28479
3.45017 0.165867 1.29681
3.45725 0.16801 1.30672
3.43928 0.166097 1.31189
3.44139 0.167303 1.32586
3.43647 0.167469 1.33689
3.44259 0.168701 1.35283
3.4428 0.171101 1.3798
3.43281 0.170138 1.38189
3.43693 0.171357 1.39684
3.44004 0.172577 1.4118
3.42408 0.171662 1.41693
3.42027 0.172035 1.44196
3.4274 0.174297 1.45988
3.41942 0.173332 1.46195
3.42455 0.17558 1.47888
3.42766 0.1768 1.49384
3.42074 0.176953 1.50389
3.41281 0.176107 1.51397
3.40689 0.176259 1.52401
3.41603 0.178534 1.54291
3.42111 0.179678 1.55286
3.41026 0.179997 1.57394
3.40847 0.181398 1.60093
3.40456 0.182578 1.61295
3.39965 0.182759 1.62498
3.40372 0.18389 1.63394
3.40182 0.184084 1.64695
3.40091 0.185277 1.65994
3.3921 0.185638 1.68401
3.39421 0.186859 1.69897
3.39131 0.188053 1.71198
3.38439 0.188221 1.72303
3.38544 0.188324 1.73002
3.38756 0.189559 1.74599
3.37763 0.189685 1.75406
3.38477 0.191961 1.77298
3.38187 0.192156 1.786
3.38299 0.193392 1.80198
3.37802 0.193455 1.80601
3.66054 0.150849 -0.248769
3.66262 0.152011 -0.2378
3.64266 0.152069 -0.0996319
3.63974 0.152234 -0.0886108
3.63887 0.152486 -0.0716057
3.63295 0.151654 -0.0605472
3.63038 0.1525 -0.00353252
3.63243 0.152587 0.00245162
3.6246 0.152933 0.0255086
3.61968 0.1521 0.0365595
3.62077 0.152262 0.0475505
3.61594 0.152606 0.0705849
3.61598 0.15268 0.0755842
3.62208 0.153868 0.0885225
3.62116 0.154031 0.0995285
3.60932 0.153366 0.121631
3.60741 0.15353 0.132644
3.60353 0.153785 0.149672
3.60462 0.153947 0.160663
3.6078 0.1553 0.184622
3.59496 0.15462 0.205732
3.59905 0.154795 0.2177
3.6061 0.155893 0.224632
3.59526 0.155212 0.245726
3.59134 0.155378 0.256755
3.59744 0.156566 0.269693
3.58864 0.155972 0.296772
3.59674 0.158159 0.30968
3.58081 0.156304 0.318829
3.57789 0.156469 0.32985
3.58107 0.157822 0.353809
3.58316 0.157998 0.365793
3.58421 0.158086 0.371784
3.57237 0.157406 0.392887
3.57947 0.159593 0.405803
3.56553 0.157737 0.414936
3.56962 0.158911 0.42689
3.57071 0.159088 0.438881
3.56584 0.159343 0.455916
3.56492 0.159507 0.466922
3.55901 0.159674 0.477965
3.5682 0.162037 0.502865
3.55526 0.16018 0.511991
3.55631 0.161268 0.517968
3.55239 0.160434 0.529011
3.55348 0.161611 0.540987
3.55457 0.161788 0.552978
3.55767 0.162978 0.565939
3.54774 0.162119 0.575028
