-1.51977 1.61679 7.81932
-1.54676 1.61884 7.82149
-1.57181 1.61775 7.8147
-1.59977 1.61985 7.81988
-1.62384 1.61873 7.81107
-1.65274 1.62293 7.82323
-1.67877 1.62289 7.81943
-1.70577 1.62491 7.8196
-1.71973 1.62599 7.82469
-1.74961 1.63125 7.84084
-1.77275 1.62799 7.82206
-1.80073 1.63005 7.82524
-1.82481 1.62891 7.81444
-1.85084 1.62887 7.81064
-1.87684 1.62987 7.80982
-1.88792 1.62873 7.79991
-1.91298 1.62763 7.79212
-1.93612 1.62538 7.77432
-1.96698 1.63065 7.79148
-1.98815 1.62634 7.7697
-2.01224 1.62518 7.7579
-2.02526 1.62616 7.75598
-2.05227 1.62615 7.75418
-2.08024 1.62923 7.75835
-2.10336 1.62701 7.74256
-2.12937 1.62802 7.74174
-2.15443 1.6279 7.73293
-2.17948 1.62782 7.72611
-2.19152 1.62675 7.72122
-2.21659 1.62664 7.71241
-2.26767 1.62751 7.70178
-2.29369 1.62849 7.69896
-2.32072 1.62845 7.69517
-2.515 1.63302 7.65856
-2.542 1.63403 7.65774
-2.55306 1.63393 7.65083
-2.68423 1.63767 7.62776
-2.70929 1.63757 7.61995
-2.7503 1.63957 7.61823
-2.77635 1.6405 7.61241
-2.80337 1.64148 7.6096
-2.8294 1.64244 7.60578
-2.85642 1.64341 7.60297
-2.86749 1.64227 7.59307
-2.90235 1.64856 7.61124
-2.92447 1.64736 7.59642
-2.94758 1.64615 7.58161
-2.97753 1.64926 7.58779
-2.99966 1.64703 7.57099
-3.0267 1.64897 7.56616
-3.03677 1.64683 7.55627
-3.05989 1.64563 7.54146
-3.11 1.64643 7.52582
-4.1104 1.67135 7.20895
-4.13448 1.67121 7.19813
-4.16153 1.67313 7.1913
-4.18859 1.67403 7.18349
-4.22867 1.67589 7.17276
-4.25967 1.67891 7.17295
-4.27883 1.67662 7.15213
-4.30686 1.67856 7.14731
-4.33195 1.6794 7.13549
-4.35802 1.68029 7.12667
-4.38902 1.68331 7.12686
-4.40008 1.68319 7.11794
-4.42417 1.68303 7.10612
-4.45616 1.68706 7.1073
-4.49311 1.69219 7.11451
-4.50733 1.68778 7.08568
-4.53241 1.68863 7.07485
-4.55947 1.69053 7.06703
-4.57646 1.69256 7.06812
-4.60154 1.69341 7.0573
-4.63254 1.69642 7.05649
-4.66159 1.69834 7.04968
-4.68569 1.69816 7.03686
-4.71176 1.70004 7.02703
-4.72677 1.70103 7.02612
-4.75483 1.70293 7.01831
-4.77795 1.70271 7.00248
-4.80698 1.70466 6.99767
-4.83109 1.70547 6.98384
-4.85815 1.70636 6.97503
-5.26872 1.71754 6.76793
-5.40328 1.72052 6.69289
-5.47659 1.72296 6.6524
-5.49971 1.72274 6.63657
-5.53703 1.72013 6.59389
-5.55108 1.72105 6.58798
-5.57023 1.71977 6.56814
-5.58145 1.71634 6.53827
-5.59764 1.71499 6.51441
-5.62076 1.71477 6.49858
-5.63297 1.71137 6.47072
-5.65609 1.71213 6.45388
-1.5959 1.63362 7.53461
-1.68397 1.63555 7.52624
-2.7403 1.65961 7.35082
-3.06395 1.66654 7.26514
-3.08409 1.66427 7.24632
-3.10005 1.66638 7.25241
-3.11136 1.65878 7.21161
-3.13542 1.65968 7.20377
-3.15752 1.6585 7.19096
-3.18061 1.65734 7.17914
-3.2037 1.65718 7.16732
-3.22972 1.65915 7.16448
-3.23487 1.65486 7.14458
-3.25992 1.65577 7.13776
-3.29185 1.66093 7.14692
-3.30708 1.6555 7.11712
-3.3331 1.65747 7.11428
-3.36111 1.65946 7.11246
-3.3773 1.6561 7.08763
-3.39523 1.65925 7.09672
-3.42128 1.66018 7.0909
-3.43943 1.65788 7.07007
-3.46744 1.65989 7.06925
-3.49447 1.66185 7.06543
-3.51755 1.6617 7.0546
-3.54654 1.66474 7.05577
-3.56252 1.66679 7.05887
-3.57969 1.66347 7.03604
-3.6077 1.66647 7.03521
-3.6298 1.66528 7.02139
-3.65486 1.66618 7.01356
-3.67499 1.66494 6.99673
-3.70989 1.67116 7.0099
-3.72095 1.67005 7.002
-3.74502 1.67092 6.99217
-3.77895 1.67608 7.00135
-3.79415 1.6717 6.97553
-3.82117 1.67366 6.9717
-3.85216 1.67772 6.97387
-3.8713 1.67545 6.95505
-3.88924 1.67856 6.96214
-3.91727 1.68153 6.95831
-3.94234 1.68141 6.94949
-3.96837 1.68336 6.94466
-3.99049 1.68315 6.92983
-4.01455 1.68303 6.92101
-4.02265 1.68185 6.90809
-4.0556 1.68596 6.91428
-4.07772 1.68575 6.89944
-4.10672 1.68876 6.89862
-4.1308 1.68963 6.88878
-4.15883 1.69157 6.88397
-4.17994 1.69037 6.86914
-4.19594 1.69238 6.86923
-4.21902 1.69323 6.85839
-4.23817 1.69097 6.83957
-4.26818 1.69396 6.83775
-4.28929 1.69375 6.82291
-4.32029 1.69677 6.8231
-5.19766 1.7187 6.37632
-5.2168 1.71743 6.35748
-5.23298 1.71611 6.33462
-5.25112 1.71484 6.31577
-5.25623 1.71262 6.30084
-5.27142 1.71028 6.27699
-5.29452 1.71108 6.26315
-5.30474 1.70766 6.23427
-5.33181 1.70955 6.22545
-5.34005 1.70508 6.19357
-1.08668 1.6248 7.29787
-1.17073 1.62576 7.29149
-1.1938 1.62463 7.28167
-1.24182 1.62563 7.28002
-1.29085 1.6266 7.27538
-1.31582 1.62867 7.27953
-1.32878 1.62976 7.28462
-1.35281 1.62971 7.2808
-1.37682 1.63072 7.27996
-1.40181 1.63173 7.28014
-1.42585 1.63168 7.27532
-1.44796 1.62949 7.26151
-1.47292 1.63158 7.26667
-1.48494 1.63154 7.26376
-1.50799 1.63146 7.25694
-1.53204 1.63039 7.25113
-1.55511 1.62927 7.24232
-1.58104 1.63241 7.25047
-1.60314 1.63123 7.23765
-1.63008 1.63437 7.24581
-1.64112 1.63329 7.23991
-1.66515 1.63324 7.23609
-1.69014 1.63528 7.23725
-1.71416 1.63527 7.23543
-1.74012 1.63834 7.23958
-1.76222 1.63618 7.22778
-1.77716 1.6383 7.23486
-1.84632 1.63804 7.21438
-1.87231 1.63907 7.21556
-1.92037 1.63999 7.20791
-1.93432 1.64208 7.21399
-1.95739 1.64195 7.20416
-1.98046 1.64085 7.19635
-2.00351 1.64076 7.18952
-2.02852 1.64175 7.1877
-2.04963 1.63956 7.17389
-2.07561 1.64161 7.17605
-2.09965 1.64154 7.17023
-2.11167 1.64252 7.16831
-2.13376 1.64136 7.15649
-2.15584 1.64021 7.14567
-2.18281 1.64229 7.14985
-2.19808 1.63578 7.11505
-2.2299 1.64314 7.13819
-2.24905 1.63986 7.11838
-2.25621 1.63556 7.09749
-2.28805 1.64189 7.11864
-2.31011 1.64177 7.10981
-2.32634 1.63634 7.08001
-2.36016 1.64372 7.10415
-2.38127 1.64151 7.08934
-2.39846 1.63716 7.06453
-2.41928 1.64453 7.08859
-2.44136 1.64338 7.07777
-2.4605 1.64011 7.05896
-2.48846 1.64321 7.06412
-2.51542 1.6463 7.06928
-2.52968 1.63981 7.03548
-2.56547 1.64923 7.06261
-2.57456 1.64706 7.05071
-2.59076 1.64269 7.0249
-2.62459 1.65004 7.04705
-2.64766 1.64991 7.03722
-2.66877 1.64772 7.02341
-2.69672 1.65182 7.02956
-2.72174 1.6528 7.02673
-2.72886 1.64958 7.01183
-2.76173 1.65586 7.02899
-2.78185 1.65462 7.01216
-2.80099 1.65237 6.99433
-2.83093 1.65551 7.00251
-2.85399 1.65539 6.99369
-2.87902 1.65735 6.98985
-2.89103 1.65834 6.98892
-2.919 1.66141 6.99209
-2.94012 1.6592 6.97728
-2.96024 1.65798 6.96144
-2.99214 1.66318 6.97361
-3.00243 1.65563 6.93579
-3.03042 1.65866 6.93696
-3.04244 1.65864 6.93505
-3.05766 1.65422 6.90623
-3.08465 1.65626 6.9074
-3.10378 1.65402 6.89057
-3.12391 1.65278 6.87374
-3.15189 1.65583 6.87591
-3.17789 1.65783 6.87507
-3.18403 1.65457 6.85717
-3.20905 1.65655 6.85433
-3.23311 1.65645 6.84651
-3.29936 1.65601 6.81401
-3.40562 1.65855 6.77877
-3.42868 1.65946 6.77193
-3.45569 1.66145 6.7701
-3.48882 1.66122 6.75335
-3.53594 1.66201 6.73669
-3.56098 1.66395 6.73185
-3.58997 1.66699 6.73302
-3.61008 1.66578 6.71819
-3.62407 1.6678 6.71927
-3.6501 1.66876 6.71545
-3.67317 1.66963 6.70561
-3.6923 1.66839 6.68877
-3.71341 1.6672 6.67494
-3.7414 1.67024 6.67611
-3.77335 1.67535 6.68227
-3.7834 1.67525 6.67535
-3.80944 1.6762 6.67053
-3.8345 1.6781 6.66269
-3.85559 1.67692 6.64987
-3.88261 1.67989 6.64703
-3.9047 1.67973 6.63519
-3.92679 1.67959 6.62436
-3.94591 1.67835 6.60752
-3.96584 1.6825 6.61661
-3.98892 1.68336 6.60677
-4.01792 1.68637 6.60594
-4.04297 1.6873 6.60012
-4.06309 1.68708 6.58427
-4.08913 1.68801 6.57845
-4.11418 1.68992 6.57161
-4.1272 1.69089 6.5687
-4.15521 1.69389 6.56786
-4.1783 1.69373 6.55604
-4.19841 1.69352 6.54119
-4.22446 1.69544 6.53436
-4.2505 1.69738 6.52952
-4.901 1.71386 6.19713
-4.92013 1.71263 6.18029
-4.9574 1.71112 6.14459
-4.97059 1.70776 6.11974
-4.99863 1.71071 6.1149
-4.9968 1.70637 6.09195
-5.01891 1.70716 6.0771
-5.04497 1.70906 6.06927
-5.05023 1.70356 6.03539
-5.07332 1.7044 6.02355
-5.09046 1.70313 6.00469
-5.10464 1.7008 5.98183
-5.1368 1.7015 5.96006
-0.861627 1.62182 7.03818
-0.883711 1.61967 7.02738
-0.907671 1.62176 7.03253
-0.929739 1.62065 7.02371
-0.953715 1.62171 7.02687
-0.963814 1.61852 7.014
-0.988752 1.62166 7.02214
-1.01176 1.62266 7.0213
-1.03382 1.62156 7.01348
-1.05969 1.62581 7.02961
-1.08272 1.62579 7.02679
-1.10291 1.62043 7.00201
-1.13794 1.6214 6.99826
-1.1619 1.62247 7.00243
-1.18684 1.62561 7.01057
-1.20796 1.62239 6.99477
-1.23099 1.62235 6.99095
-1.24298 1.62338 6.99302
-1.26601 1.62334 6.9892
-1.28804 1.6233 6.98536
-1.31301 1.62536 6.98852
-1.33506 1.62529 6.98269
-1.35715 1.62313 6.97088
-1.38305 1.62734 6.98402
-1.39021 1.62202 6.96215
-1.41324 1.62198 6.95832
-1.43917 1.62613 6.96746
-1.46124 1.62501 6.95864
-1.48331 1.62389 6.94982
-1.50921 1.6281 6.96296
-1.52837 1.62379 6.94116
-1.55333 1.6269 6.9473
-1.56726 1.62904 6.95638
-1.59031 1.62896 6.94955
-1.61236 1.62787 6.94273
-1.63346 1.62669 6.92991
-1.65648 1.62666 6.92708
-1.67757 1.6255 6.91526
-1.70739 1.63186 6.93839
-1.71649 1.62969 6.92649
-1.74339 1.63389 6.93863
-1.78655 1.63161 6.91799
-1.8096 1.63154 6.91216
-1.83261 1.63252 6.91032
-1.8508 1.62717 6.88553
-1.86669 1.63139 6.89959
-1.89264 1.63551 6.90673
-1.90693 1.62696 6.86896
-1.93092 1.62899 6.87011
-1.95979 1.63425 6.88625
-1.97698 1.62989 6.86144
-2.01397 1.63195 6.86369
-2.08113 1.63167 6.84219
-2.27545 1.63416 6.79962
-2.59802 1.64225 6.72492
-2.72722 1.64695 6.69882
-2.7603 1.64681 6.68807
-2.78236 1.64669 6.67923
-2.8064 1.64763 6.6744
-2.83141 1.64962 6.67256
-2.85641 1.65164 6.67272
-2.88046 1.65257 6.66688
-2.89443 1.65462 6.66996
-2.91453 1.65344 6.65713
-2.93168 1.65016 6.6373
-2.95473 1.65109 6.63146
-2.99984 1.6519 6.61679
-3.79198 1.67119 6.33343
-3.83316 1.67087 6.30974
-3.85918 1.67383 6.30589
-3.8783 1.67261 6.29005
-3.90235 1.67353 6.28422
-3.91635 1.67553 6.28329
-3.93941 1.67644 6.27645
-3.9605 1.67627 6.26361
-3.98455 1.67819 6.25777
-4.01255 1.6812 6.25693
-4.03167 1.67998 6.24109
-4.06065 1.68403 6.24325
-4.06973 1.68288 6.23333
-4.0918 1.68375 6.22349
-4.11586 1.68565 6.21564
-4.14584 1.6897 6.2178
-4.161 1.6864 6.19696
-4.18703 1.68936 6.19312
-4.21109 1.69126 6.18527
-4.23713 1.69319 6.17944
-4.26102 1.69943 6.19452
-4.26926 1.69396 6.16266
-4.30123 1.69904 6.16683
-4.51232 1.69704 6.02243
-4.51941 1.69486 6.01051
-4.55138 1.69993 6.01368
-4.55269 1.69234 5.9738
-4.58071 1.69532 5.97096
-4.62062 1.70351 5.98214
-4.62686 1.69805 5.95127
-4.64895 1.69889 5.93942
-4.66097 1.69984 5.9355
-4.66426 1.6923 5.89863
-4.68931 1.69521 5.89177
-4.71634 1.69716 5.88695
-4.77072 1.69546 5.83737
2.29215 1.55647 6.47131
2.27429 1.55875 6.48941
2.25437 1.55993 6.50055
2.21735 1.55691 6.49787
2.19949 1.56019 6.51596
2.17034 1.55293 6.49728
2.15453 1.55831 6.52233
2.13565 1.56056 6.53844
2.11163 1.55854 6.53565
2.10065 1.55859 6.53873
2.08278 1.56084 6.55483
2.06287 1.56303 6.56695
2.0368 1.55892 6.55821
2.01896 1.56324 6.57928
1.99392 1.56018 6.57452
1.974 1.56135 6.58465
1.96508 1.56352 6.59569
1.94517 1.56469 6.60682
1.92011 1.56161 6.60005
1.89919 1.56277 6.6102
1.87517 1.56076 6.60841
1.85322 1.56086 6.61457
1.84636 1.56414 6.63258
1.82336 1.56315 6.63276
1.80243 1.5643 6.64191
1.78251 1.56548 6.65304
1.75849 1.56447 6.65124
1.73652 1.56353 6.65442
1.71869 1.56788 6.67749
1.70668 1.56686 6.67559
1.68473 1.56798 6.68274
1.66379 1.5681 6.6899
1.63771 1.56497 6.68014
1.62092 1.57039 6.70819
-1.55278 1.63902 6.75309
-1.84511 1.64456 6.70921
-1.86523 1.64233 6.69339
-1.8743 1.64022 6.68549
-1.89927 1.64328 6.68863
-1.92033 1.64218 6.68081
-1.93752 1.63782 6.656
-1.96441 1.64305 6.67012
-1.9855 1.64089 6.65831
-2.00266 1.63759 6.63749
-2.0205 1.64391 6.65853
-2.03669 1.63856 6.63373
-2.06264 1.64166 6.63988
-2.0876 1.64475 6.64502
-2.10576 1.64147 6.62521
-2.12486 1.63928 6.61138
-2.14691 1.63919 6.60455
-2.1638 1.64442 6.6196
-2.18682 1.6444 6.61677
-2.20885 1.64535 6.61292
-2.22602 1.64204 6.5911
-2.25197 1.64515 6.59725
-2.275 1.64611 6.59341
-2.29705 1.64602 6.58657
-2.3061 1.64492 6.57966
-2.32815 1.64485 6.57382
-2.35313 1.6479 6.57597
-2.37323 1.64572 6.56315
-2.39722 1.64875 6.56428
-2.42025 1.64971 6.56044
-2.43128 1.64966 6.55653
-2.45626 1.6517 6.55868
-2.47538 1.64948 6.54286
-2.49643 1.64939 6.53602
-2.52241 1.65244 6.53817
-2.54249 1.65131 6.52834
-2.56552 1.65227 6.5245
-2.57948 1.65535 6.52956
-2.6035 1.65632 6.52672
-2.62554 1.65725 6.52087
-2.6476 1.65716 6.51404
-2.67358 1.66021 6.51619
-2.68778 1.65484 6.49037
-2.7157 1.65999 6.49951
-2.73263 1.66415 6.50958
-2.7478 1.65982 6.48675
-2.77772 1.665 6.4979
-2.80074 1.66596 6.49406
-2.8228 1.66687 6.48721
-2.86297 1.66456 6.46455
-2.88798 1.66655 6.4627
-2.89999 1.66754 6.46178
-2.92203 1.66847 6.45593
-2.93722 1.66413 6.43211
-2.95437 1.66184 6.41227
-2.9774 1.6628 6.40843
-2.99649 1.66162 6.39559
-3.02151 1.6636 6.39274
-3.03056 1.66251 6.38683
-3.04967 1.66131 6.37199
-3.07172 1.66223 6.36614
-3.08689 1.6589 6.3433
-3.10697 1.65776 6.33247
-3.13396 1.66181 6.33461
-3.1511 1.65854 6.31579
-3.16605 1.66164 6.32185
-3.18812 1.66152 6.31302
-3.21116 1.66346 6.30816
-3.22927 1.66125 6.29333
-3.25428 1.66424 6.29147
-3.27929 1.66624 6.29063
-3.29544 1.66396 6.27079
-3.30548 1.66389 6.26586
-3.32655 1.66376 6.25602
-3.35058 1.66572 6.25217
-3.37166 1.66557 6.24133
-3.39764 1.66862 6.24348
-3.41478 1.66637 6.22564
-3.42483 1.66628 6.21972
-3.44689 1.66717 6.21087
-3.47485 1.67126 6.21602
-3.49298 1.66902 6.19919
-3.51503 1.66993 6.19234
-3.53413 1.66976 6.17949
-3.55522 1.66959 6.16765
-3.57019 1.67165 6.17073
-3.59422 1.67361 6.16688
-3.61628 1.6745 6.15903
-3.64032 1.67645 6.15418
-3.65547 1.67316 6.13434
-3.6805 1.67612 6.13049
-3.70354 1.67705 6.12465
-3.72659 1.67896 6.11779
-3.74158 1.681 6.11987
-3.75475 1.67767 6.09702
-3.7857 1.68278 6.10318
-3.80875 1.6837 6.09634
-3.82292 1.68038 6.07449
-3.844 1.68123 6.06363
-3.8789 1.68845 6.07679
-3.88006 1.68414 6.05586
-3.90114 1.68399 6.04502
-3.93505 1.69118 6.05617
-3.94922 1.68786 6.03433
-3.96833 1.68666 6.01948
-4.01642 1.69051 6.00779
-4.02943 1.69251 6.00686
-4.43593 1.7048 5.80671
-4.44399 1.70368 5.79879
-4.46113 1.70343 5.78092
-4.46044 1.69484 5.74103
-4.49836 1.70201 5.75121
-4.52834 1.70706 5.75337
-4.52072 1.69532 5.70347
-4.53983 1.69511 5.68862
-4.55186 1.69606 5.6847
2.20872 1.5627 6.28082
2.11392 1.56216 6.30755
2.07302 1.56238 6.32085
2.05514 1.56463 6.33696
2.02905 1.56049 6.32621
2.01119 1.56377 6.3443
2.00225 1.56488 6.35135
1.98028 1.56395 6.35553
1.95931 1.56403 6.35969
1.93732 1.56307 6.36187
1.91638 1.5632 6.37003
1.89646 1.56437 6.38016
1.87754 1.56654 6.39127
1.86245 1.56238 6.37945
1.8425 1.5625 6.3866
1.8226 1.56469 6.39872
1.79958 1.56267 6.39692
1.77863 1.56279 6.40408
1.7618 1.56712 6.42514
1.73773 1.56402 6.41737
1.73088 1.5683 6.43636
1.70786 1.56629 6.43456
1.68589 1.56635 6.43773
1.66905 1.57067 6.45879
1.64604 1.56867 6.45799
1.62506 1.56873 6.46115
1.60516 1.57094 6.47427
1.59211 1.56785 6.46741
1.57012 1.56789 6.46958
1.55226 1.57117 6.48767
1.53029 1.57123 6.49083
1.50726 1.5692 6.48804
1.48733 1.57035 6.49717
1.46432 1.56834 6.49537
1.45539 1.57049 6.50541
1.43239 1.5695 6.5046
1.4114 1.56854 6.50677
1.39149 1.57073 6.51889
1.37265 1.57504 6.53897
1.35272 1.57621 6.54911
1.33281 1.57838 6.56023
1.27892 1.57963 6.57461
-0.50847 1.61702 6.52652
-0.551446 1.6181 6.52983
-0.57346 1.61809 6.52799
-0.595429 1.61916 6.53214
-0.638465 1.61912 6.52747
-0.671425 1.62122 6.53269
-0.693417 1.62225 6.53384
-0.712577 1.61795 6.51304
-0.736445 1.62222 6.53016
-0.757483 1.62216 6.52532
-0.777574 1.619 6.51352
-0.788558 1.62003 6.51558
-0.809618 1.61893 6.50776
-0.832564 1.62105 6.5149
-0.853601 1.62099 6.51006
-0.875592 1.62202 6.51121
-0.894699 1.61883 6.4974
-0.918621 1.622 6.50753
-0.926736 1.61878 6.49264
-0.947773 1.61872 6.4878
-0.967856 1.61657 6.47698
-0.990832 1.61763 6.48014
-1.01089 1.61654 6.4733
-1.03575 1.62181 6.49042
-1.05582 1.6207 6.48158
-1.06876 1.62282 6.48965
-1.08693 1.6185 6.46685
-1.10986 1.62166 6.47697
-1.13089 1.6206 6.47215
-1.15195 1.6195 6.46432
-1.173 1.61943 6.45848
-1.19208 1.61728 6.44766
-1.20597 1.62151 6.4627
-1.22895 1.62355 6.46484
-1.24901 1.62245 6.45701
-1.27199 1.62451 6.46015
-1.29012 1.62027 6.44335
-1.31406 1.62339 6.45048
-1.33509 1.62335 6.44664
-1.34415 1.62224 6.43873
-1.36424 1.62008 6.42691
-1.38817 1.62323 6.43604
-1.40632 1.61894 6.41624
-1.42927 1.62206 6.42337
-1.45417 1.62726 6.43548
-1.4733 1.62404 6.41967
-1.48527 1.62509 6.42275
-1.52637 1.62393 6.41007
-1.54837 1.62594 6.41021
-1.57134 1.628 6.41335
-1.58851 1.62269 6.39155
-1.6144 1.62792 6.40567
-1.62249 1.62575 6.39376
-1.64546 1.62782 6.39791
-1.66553 1.6267 6.38907
-1.68949 1.62979 6.39421
-1.71443 1.63393 6.40234
-1.73448 1.63284 6.3955
-1.75359 1.63065 6.38168
-1.76169 1.62745 6.36778
-1.78174 1.62736 6.36094
-2.40273 1.64182 6.23138
-2.44679 1.64372 6.22269
-2.50677 1.64879 6.22506
-2.54396 1.64645 6.20037
-2.5841 1.64621 6.18268
-2.60415 1.64611 6.17483
-2.66218 1.65009 6.17121
-2.70428 1.65093 6.15851
-2.7214 1.64871 6.14267
-2.75346 1.6496 6.1339
-4.0626 1.6813 5.58621
-4.10048 1.69055 5.60137
-4.09963 1.68525 5.58143
-4.12071 1.68612 5.57158
-4.14771 1.69012 5.57072
-4.15592 1.68573 5.54385
-4.18293 1.68872 5.54201
-4.1951 1.6864 5.52013
-4.21122 1.68518 5.50427
2.44935 1.54394 5.83422
2.43551 1.54825 5.85427
2.42451 1.54725 5.85436
2.40966 1.55056 5.87443
2.38257 1.5454 5.86271
2.36975 1.54977 5.88674
2.34572 1.54673 5.88297
2.3227 1.54471 5.88117
2.30477 1.54486 5.89031
2.29479 1.54491 5.89338
2.28199 1.55031 5.9194
2.26307 1.55147 5.92953
2.23697 1.54629 5.9168
2.21907 1.5475 5.92992
2.17813 1.54665 5.93824
2.14821 1.54682 5.94846
1.24436 1.56364 6.23606
1.22649 1.5669 6.25315
1.21279 1.57649 6.29212
1.1845 1.56496 6.2555
1.16872 1.57239 6.28351
1.15192 1.5788 6.31055
1.14094 1.57883 6.31263
1.12098 1.57892 6.31778
1.10209 1.58216 6.33288
-0.6183 1.62249 6.28323
-0.732364 1.62344 6.27508
-0.752378 1.62342 6.27323
-0.794376 1.62545 6.27351
-0.81539 1.62544 6.27167
-0.82639 1.62545 6.27175
-0.846412 1.62542 6.26891
-0.866457 1.62434 6.26307
-0.888433 1.6264 6.26621
-0.909431 1.62742 6.26635
-0.929453 1.62739 6.2635
-0.949529 1.62526 6.25368
-0.958606 1.62311 6.24378
-0.979628 1.62309 6.24094
-1.00062 1.62412 6.24208
-1.0216 1.62516 6.24423
-1.04356 1.62725 6.24936
-1.06455 1.62929 6.25149
-1.08558 1.62925 6.24765
-1.09656 1.63029 6.24972
-1.1166 1.62923 6.24488
-1.13858 1.63127 6.24702
-1.15768 1.6281 6.23421
-1.17674 1.62699 6.22637
-1.19678 1.62692 6.22052
-1.2207 1.6311 6.23164
-1.22783 1.62685 6.21475
-1.24978 1.62896 6.22089
-1.27083 1.62888 6.21504
-1.29183 1.62988 6.21419
-1.31186 1.62984 6.21034
-1.33289 1.62979 6.2065
-1.35293 1.62973 6.20165
-1.3639 1.6308 6.20572
-1.38492 1.63177 6.20286
-1.4069 1.63383 6.206
-1.4289 1.63483 6.20515
-1.44798 1.6327 6.19532
-1.46802 1.63263 6.18947
-1.48612 1.63045 6.17664
-1.5081 1.63251 6.17977
-1.51619 1.62934 6.16788
-1.53914 1.63244 6.17401
-1.56018 1.63238 6.16917
-1.58507 1.63761 6.18328
-1.60217 1.63541 6.16944
-1.62322 1.63534 6.1636
-1.64326 1.63528 6.15875
-1.6562 1.63739 6.16581
-1.67235 1.63412 6.14698
-1.69533 1.63617 6.14913
-1.70954 1.62977 6.12132
-1.73251 1.63184 6.12547
-1.74963 1.62963 6.11063
-1.7616 1.63068 6.1137
-1.78165 1.63061 6.10785
-1.80461 1.63369 6.11198
-1.82271 1.63152 6.10015
-1.84177 1.6304 6.09131
-1.86378 1.6324 6.09044
-1.88382 1.63233 6.08459
-1.89383 1.63232 6.08367
-1.93588 1.63425 6.07696
-1.97694 1.63516 6.06925
-2.01997 1.63713 6.06555
-2.03807 1.63494 6.05171
-2.0481 1.6349 6.04879
-2.20332 1.64055 6.01887
-2.30554 1.6422 5.99061
-2.31458 1.64112 5.98469
-2.35762 1.64407 5.97997
-2.37668 1.64397 5.97212
-2.39869 1.64495 5.97027
-2.46887 1.64565 5.94678
-2.48794 1.64552 5.93693
-2.51094 1.64753 5.93707
-2.55005 1.64734 5.92237
-2.56204 1.64938 5.92443
-2.58505 1.65136 5.92257
-2.64029 1.64893 5.89102
-2.67115 1.65622 5.90915
-2.68432 1.6519 5.88731
-2.70831 1.65492 5.88744
-2.71637 1.65381 5.87952
-2.74036 1.65685 5.88166
-2.75648 1.65463 5.86581
-2.7726 1.6524 5.84996
-2.79462 1.65338 5.84711
-4.01371 1.6831 5.30478
2.51909 1.54245 5.53368
2.51014 1.54254 5.53974
2.4922 1.54267 5.54788
2.47528 1.54385 5.55899
2.45735 1.54499 5.56811
2.43738 1.54407 5.57227
2.41844 1.5442 5.58042
2.4005 1.54432 5.58755
2.39153 1.54438 5.59162
2.37359 1.54453 5.60075
2.35873 1.54881 5.6188
1.28445 1.56486 5.98271
1.26964 1.57124 6.00773
1.2476 1.56817 6.00194
1.2266 1.56718 6.00211
1.20867 1.56933 6.01122
1.18976 1.57152 6.02333
1.1708 1.57161 6.02847
1.16396 1.57692 6.04945
1.15022 1.58544 6.08343
-1.76314 1.64763 5.90743
-1.78514 1.64965 5.90757
-1.80614 1.65066 5.90771
-1.82518 1.65059 5.90186
-1.85425 1.65048 5.89308
-1.89432 1.65136 5.88336
-1.91143 1.64916 5.86952
-1.92853 1.64698 5.85668
-1.94245 1.65014 5.86674
-1.96052 1.65002 5.85788
-1.98152 1.65104 5.85802
-2.00352 1.65304 5.85716
-2.02256 1.65398 5.85229
-2.03967 1.65078 5.83846
-2.06069 1.65175 5.8356
-2.06776 1.64961 5.82569
-2.08877 1.65161 5.82482
-2.11075 1.65466 5.82694
-2.12884 1.65249 5.8151
-2.15279 1.65661 5.82222
-2.16793 1.65334 5.80338
-2.19188 1.65746 5.8105
-2.20408 1.65107 5.78369
-2.21801 1.65522 5.79273
-2.23412 1.65302 5.77888
-2.25612 1.65504 5.77902
-2.27517 1.65495 5.77216
-2.29424 1.65383 5.76332
-2.3123 1.65371 5.75446
-2.33726 1.65781 5.76059
-2.34333 1.65567 5.75066
-2.36631 1.65873 5.75379
-2.38046 1.65445 5.73396
-2.40443 1.65751 5.73709
-2.42349 1.6574 5.72924
-2.44451 1.65939 5.72737
-2.46454 1.66033 5.7225
-2.47456 1.66031 5.72058
-2.49559 1.66126 5.71672
-2.51072 1.65902 5.69987
-2.52879 1.65789 5.69002
-2.54981 1.65986 5.68715
-2.57279 1.66292 5.69028
-2.58497 1.65757 5.66644
-2.59991 1.6617 5.6745
-2.61896 1.66261 5.66763
-2.64096 1.66461 5.66676
-2.65707 1.66242 5.65291
-2.68007 1.66543 5.65304
-2.69814 1.6643 5.64319
-2.72113 1.66734 5.64532
-2.7282 1.6662 5.63539
-2.75218 1.66925 5.63753
-2.76632 1.66599 5.61968
-2.78341 1.66483 5.60782
-2.80248 1.66471 5.59897
-2.82055 1.66459 5.59011
-2.84058 1.66553 5.58524
-2.83978 1.65914 5.55933
-2.85982 1.66008 5.55446
-2.87789 1.65996 5.5456
-2.89696 1.65983 5.53574
-2.9612 1.6594 5.50423
-3.0565 1.66188 5.46491
-3.86847 1.68154 5.07068
-3.88655 1.68139 5.05981
-3.92667 1.68419 5.04407
-3.95082 1.68391 5.02426
-3.97187 1.68583 5.01839
-3.98995 1.68668 5.00751
2.59011 1.55148 5.26897
2.57217 1.55162 5.27711
2.56523 1.55274 5.28514
2.55237 1.55601 5.30319
2.53034 1.55299 5.30041
2.51851 1.55732 5.32243
2.49445 1.55222 5.31469
2.47651 1.55235 5.32282
2.45856 1.55247 5.32996
2.44654 1.55043 5.32708
2.43266 1.55266 5.34215
2.41269 1.55174 5.34632
2.40084 1.55604 5.36634
2.38085 1.55409 5.36852
2.35782 1.55105 5.36474
2.34395 1.55429 5.3808
2.33601 1.55542 5.38885
2.31499 1.5524 5.38705
2.3052 1.55881 5.41403
2.28317 1.55577 5.41024
2.26523 1.55591 5.41937
2.24727 1.556 5.42451
2.22628 1.55403 5.4257
2.22852 1.56249 5.45656
2.20547 1.55941 5.45078
2.18447 1.55643 5.45098
2.16959 1.55968 5.46705
2.14755 1.55662 5.46226
2.12758 1.55568 5.46542
2.10963 1.5558 5.47256
2.10064 1.55482 5.47364
2.08373 1.55701 5.48574
2.06681 1.55817 5.49585
2.0468 1.55617 5.49503
2.03397 1.56152 5.51805
2.01399 1.56056 5.52021
1.99604 1.56068 5.52735
1.98502 1.55864 5.52446
1.96605 1.55771 5.52862
1.94913 1.55987 5.53871
1.93119 1.56001 5.54685
1.92042 1.56746 5.57682
1.90145 1.56653 5.58098
1.88043 1.56452 5.57917
1.87249 1.56563 5.58621
1.85353 1.56573 5.59236
1.83045 1.5616 5.58259
1.81763 1.56695 5.60561
1.7925 1.56071 5.58889
1.77661 1.56295 5.60398
1.75868 1.56409 5.6131
1.74869 1.56412 5.61417
1.72868 1.56212 5.61335
1.7128 1.56535 5.62843
1.69074 1.56125 5.62065
1.66972 1.55923 5.61884
1.65897 1.56773 5.6518
1.63691 1.56363 5.64403
1.62693 1.56366 5.6461
1.6131 1.569 5.66813
1.59 1.56384 5.65638
1.55311 1.56507 5.67064
1.53412 1.5641 5.6718
1.51515 1.56417 5.67594
1.50826 1.56739 5.68995
1.49032 1.56852 5.69807
1.4703 1.56649 5.69525
1.45135 1.56761 5.70237
1.43339 1.56771 5.70851
1.41446 1.56884 5.71663
1.39859 1.5731 5.73369
1.38753 1.57001 5.72682
1.36858 1.57111 5.73295
1.35167 1.5733 5.74505
1.33376 1.57548 5.75615
1.31893 1.58081 5.77819
1.30202 1.58302 5.79128
1.28101 1.582 5.78946
1.2741 1.58518 5.80146
1.21411 1.58224 5.80296
-0.419634 1.6188 5.83973
-0.429625 1.61982 5.84079
-0.44774 1.61561 5.82599
-0.468623 1.62085 5.84107
-0.4886 1.62191 5.8442
-0.506691 1.61874 5.83239
-0.525698 1.61874 5.83153
-0.545713 1.61873 5.82968
-0.55565 1.62185 5.83771
-0.574672 1.62182 5.83485
-0.593749 1.61869 5.82504
-0.613678 1.62284 5.83413
-0.632747 1.61972 5.82532
-0.651762 1.6197 5.82346
-0.671707 1.62282 5.83057
-0.690767 1.62171 5.82273
-0.699821 1.61962 5.81582
-0.72072 1.62382 5.82892
-0.738811 1.62166 5.81709
-0.756857 1.61959 5.81125
-0.776847 1.62161 5.81238
-0.795908 1.61951 5.80455
-0.81493 1.61948 5.80169
-0.822984 1.61738 5.79478
-0.84296 1.61944 5.7979
-0.862935 1.6215 5.80102
-0.880074 1.61625 5.78323
-0.900995 1.62041 5.79333
-0.921956 1.6225 5.79845
-0.930032 1.62036 5.78854
-0.949077 1.61928 5.7827
-0.970961 1.62452 5.79779
-0.988052 1.62235 5.78595
-1.01094 1.62759 5.80105
-1.02804 1.6244 5.78722
-1.04803 1.62544 5.78936
-1.05608 1.62434 5.78243
-1.07799 1.62852 5.79354
-1.09416 1.62321 5.77174
-1.1151 1.62634 5.77985
-1.13319 1.62418 5.76802
-1.15221 1.62415 5.76516
-1.17026 1.62307 5.75931
-1.19124 1.62512 5.76144
-1.20027 1.62406 5.75752
-1.2193 1.62402 5.75366
-1.24218 1.63026 5.76875
-1.25929 1.62706 5.75492
-1.28023 1.6302 5.76303
-1.2954 1.62488 5.74122
-1.31348 1.62273 5.73039
-1.32539 1.6269 5.74142
-1.3454 1.6279 5.74056
-1.36638 1.62996 5.74368
-1.38152 1.62569 5.72486
-1.40347 1.62881 5.73198
-1.42153 1.62769 5.72313
-1.44248 1.63081 5.73024
-1.44862 1.62655 5.71235
-1.46861 1.62756 5.71249
-1.4896 1.62961 5.71461
-1.50667 1.62847 5.70476
-1.5257 1.62844 5.7019
-1.54378 1.62729 5.69105
-1.55571 1.63043 5.7001
-1.57571 1.63145 5.70023
-1.59377 1.63034 5.69238
-1.61377 1.63236 5.6925
-1.6328 1.6323 5.68765
-1.65282 1.63328 5.68578
-1.67185 1.63322 5.68093
-1.68185 1.63424 5.68199
-1.7209 1.63517 5.67527
-1.73699 1.63299 5.66242
-1.75799 1.63502 5.66355
-1.77508 1.63284 5.65071
-1.82509 1.63686 5.65002
-1.86023 1.6346 5.63132
-1.88122 1.63663 5.63245
-1.89928 1.63553 5.6246
-1.91734 1.63542 5.61674
1.3132 1.56944 5.55037
1.2963 1.57264 5.56345
1.27833 1.57272 5.56758
1.2673 1.57067 5.56369
1.24932 1.57071 5.56583
1.23138 1.57184 5.57395
1.22068 1.58242 5.61288
-0.380032 1.62201 5.65336
-0.398062 1.62197 5.64949
-0.445114 1.6209 5.64286
-0.464051 1.62403 5.65096
-0.482105 1.62194 5.64413
-0.501089 1.62298 5.64625
-0.529172 1.62084 5.6355
-0.549063 1.62506 5.64959
-0.567093 1.62502 5.64572
-0.585154 1.62291 5.63789
-0.604138 1.62396 5.64002
-0.623137 1.62497 5.64014
-0.63219 1.62287 5.63324
-0.651174 1.62392 5.63537
-0.671135 1.626 5.64049
-0.689164 1.62596 5.63663
-0.708148 1.627 5.63875
-0.726209 1.6249 5.63092
-0.746138 1.62904 5.64001
-0.76423 1.62588 5.62819
-0.773245 1.62586 5.62626
-0.791306 1.62375 5.61843
-0.810312 1.62475 5.61755
-0.829303 1.62578 5.61868
-0.846411 1.62158 5.60487
-0.86634 1.62573 5.61396
-0.883424 1.62358 5.60312
-0.893385 1.62466 5.60818
-0.914337 1.62777 5.61429
-0.932359 1.62774 5.61143
-0.951351 1.62876 5.61256
-0.969419 1.62664 5.60372
-0.986487 1.62552 5.59487
-1.00741 1.62969 5.60496
-1.01742 1.62966 5.60304
-1.03543 1.62966 5.60217
-1.05444 1.63065 5.6003
-1.07444 1.63168 5.60144
-1.09342 1.63372 5.60355
-1.11149 1.6316 5.59472
-1.11663 1.62632 5.57583
-1.13759 1.62941 5.58095
-1.15466 1.62729 5.5721
-1.17461 1.63039 5.57821
-1.19556 1.63351 5.58532
-1.21264 1.63136 5.57448
-1.23167 1.63132 5.57062
-1.24165 1.63337 5.57367
-1.25969 1.63229 5.56782
-1.27772 1.63225 5.56396
-1.29579 1.63013 5.55512
-1.31384 1.63004 5.54826
-1.33476 1.63421 5.55936
-1.3528 1.63414 5.55349
-1.37184 1.63408 5.54864
-1.38084 1.63408 5.5487
-1.3989 1.63298 5.54086
-1.41791 1.63398 5.53998
-1.43595 1.6339 5.53412
-1.45303 1.63175 5.52328
-1.47301 1.63381 5.5264
-1.49106 1.63372 5.51954
-1.50492 1.64 5.53755
-1.52103 1.6368 5.52372
-1.53615 1.63357 5.50788
-1.56197 1.64193 5.53095
-1.57516 1.63557 5.50614
-1.59516 1.63759 5.50626
-1.6171 1.64172 5.51437
-1.62026 1.63541 5.49348
-1.64026 1.63743 5.4936
-1.6622 1.64156 5.50171
-1.67831 1.63835 5.48687
-1.69635 1.63829 5.48201
-1.71926 1.64347 5.49311
-1.73342 1.63817 5.47229
-1.74244 1.63815 5.47036
-1.7634 1.64224 5.47546
-1.78046 1.64112 5.4666
-1.79656 1.63793 5.45377
-1.81851 1.64204 5.45987
-1.8307 1.63669 5.43604
-1.85264 1.64081 5.44314
-1.86166 1.64077 5.44021
-1.87679 1.63653 5.42339
-1.89581 1.63752 5.42152
-1.91775 1.64164 5.42862
-1.93287 1.63841 5.41278
-1.97093 1.64034 5.40604
-1.99602 1.63916 5.39324
-2.01896 1.6433 5.40136
-2.05409 1.64207 5.38464
-2.08722 1.64083 5.3669
-2.12116 1.64597 5.37508
-2.17137 1.64359 5.34749
-2.21747 1.64442 5.33382
-2.52919 1.65321 5.23903
2.6715 1.54533 4.78938
2.58385 1.54608 4.83604
1.98595 1.5566 5.11643
1.37067 1.57138 5.34588
1.33368 1.57043 5.34817
1.31469 1.56946 5.34933
1.29979 1.57167 5.36241
1.27974 1.56959 5.35659
1.27802 1.58012 5.39245
1.26004 1.57917 5.3946
1.2483 1.58868 5.42855
-0.201085 1.61883 5.51304
-0.274113 1.61882 5.50959
-0.292135 1.61879 5.50672
-0.320073 1.62093 5.5149
-0.33908 1.62093 5.51405
-0.357071 1.62195 5.51517
-0.375078 1.62195 5.5143
-0.394062 1.623 5.51643
-0.412131 1.62088 5.5076
-0.431053 1.62404 5.51769
-0.449091 1.62298 5.51284
-0.456229 1.61772 5.49497
-0.475167 1.62085 5.50307
-0.492343 1.61452 5.48029
-0.512211 1.61979 5.49736
-0.529326 1.61558 5.48255
-0.548233 1.61977 5.49464
-0.567178 1.62289 5.50173
-0.57527 1.61971 5.48984
-0.594239 1.62079 5.49397
-0.611315 1.61865 5.48413
-0.629383 1.61653 5.47529
-0.648344 1.61862 5.48041
-0.664466 1.61439 5.46459
-0.684373 1.61859 5.47668
-0.693357 1.61962 5.47873
-0.713317 1.62271 5.48384
-0.731301 1.62375 5.48596
-0.750308 1.62375 5.4851
-0.768337 1.62371 5.48123
-0.786359 1.62367 5.47837
-0.792498 1.61841 5.46049
-0.812428 1.62156 5.4696
-0.830465 1.6205 5.46475
-0.848487 1.62047 5.46188
-0.868386 1.62567 5.47496
-0.886454 1.62355 5.46612
-0.902546 1.62039 5.45429
-0.912515 1.62246 5.45834
-0.930552 1.62239 5.45347
-0.948589 1.62133 5.44862
-0.967542 1.62444 5.45472
-0.98558 1.62338 5.44987
-1.00169 1.62018 5.43604
-1.0226 1.62436 5.44714
-1.03968 1.62222 5.43729
-1.04868 1.62323 5.43735
-1.06766 1.62427 5.43948
-1.0857 1.62421 5.43461
-1.10274 1.62313 5.42875
-1.12366 1.6273 5.43885
-1.14071 1.62722 5.43298
-1.15779 1.62407 5.42215
-1.17164 1.63138 5.44215
-1.18869 1.63029 5.4353
-1.2019 1.62288 5.4075
-1.21991 1.62388 5.40662
-1.23891 1.62489 5.40675
-1.25694 1.62485 5.40289
-1.2769 1.62794 5.40799
-1.30201 1.62473 5.39323
-1.32004 1.6257 5.39035
-1.34 1.62777 5.39447
-1.37702 1.62977 5.39272
-1.40214 1.62655 5.37695
-1.52417 1.63455 5.37175
-1.55535 1.63023 5.34905
-1.62844 1.63209 5.33657
-1.67742 1.63717 5.33986
2.67739 1.54615 4.64231
2.66652 1.54941 4.65934
2.65261 1.55058 4.67043
2.63159 1.54757 4.66864
2.61464 1.54668 4.67578
2.60884 1.55307 4.70173
2.57579 1.54701 4.69607
2.56188 1.54818 4.70716
2.53 1.54844 4.7234
2.51406 1.54857 4.73151
2.49913 1.54972 4.74061
2.47421 1.54888 4.75081
1.41745 1.56796 5.18455
1.37457 1.56921 5.19986
1.35862 1.57033 5.20696
1.29876 1.57264 5.22538
1.28387 1.57486 5.23946
1.27417 1.58644 5.27837
-0.900869 1.63477 5.27704
-1.01692 1.63875 5.27086
-1.052 1.63761 5.26014
-1.08703 1.63856 5.25538
-1.11306 1.63853 5.25258
-1.15005 1.64158 5.25381
-1.16807 1.64154 5.25095
-1.18608 1.64253 5.24907
-1.2002 1.63832 5.23424
-1.22016 1.6414 5.23934
-1.22917 1.64138 5.23741
-1.2462 1.64133 5.23354
-1.26325 1.64126 5.22767
-1.29732 1.64014 5.21794
-1.33334 1.64212 5.21518
-1.34139 1.64103 5.20926
-1.35649 1.63785 5.19642
-1.38031 1.64621 5.21948
-1.3964 1.64404 5.20763
-1.43143 1.645 5.20288
-1.44849 1.6449 5.19601
-1.46456 1.64277 5.18616
-1.47452 1.64485 5.1912
-1.49059 1.64373 5.18234
-1.5096 1.64473 5.18147
-1.52955 1.64883 5.18756
-1.54464 1.64566 5.17572
-1.56559 1.64977 5.18181
-1.58263 1.64971 5.17694
-1.58872 1.64653 5.16503
-1.60673 1.64753 5.16415
-1.6228 1.64641 5.15529
-1.64373 1.65054 5.16339
-1.65883 1.64836 5.15053
-1.67783 1.65037 5.15065
-1.68585 1.65034 5.14771
-1.70289 1.65027 5.14284
-1.7209 1.65126 5.14096
-1.73406 1.64597 5.12113
-1.75403 1.64903 5.12424
-1.77009 1.64794 5.11737
-1.79104 1.65203 5.12247
-1.79222 1.64469 5.09958
-1.81611 1.65191 5.11366
-1.82827 1.64663 5.09383
-1.84628 1.64761 5.09195
-1.86334 1.6475 5.08408
-1.8833 1.65059 5.08918
-1.89643 1.64735 5.07233
-1.91936 1.65248 5.08042
-1.92444 1.64934 5.07051
-1.94149 1.64926 5.06464
-1.95951 1.65023 5.06176
-1.97558 1.6491 5.05189
-1.98967 1.64694 5.04103
-2.00867 1.64894 5.04014
-2.02964 1.65302 5.04424
-2.03375 1.64881 5.03033
-2.0557 1.65292 5.03644
-2.06783 1.64967 5.01958
-2.0888 1.65275 5.02369
-2.1029 1.65055 5.00983
-2.12486 1.65464 5.01493
-2.13601 1.65037 4.99608
-2.15387 1.65765 5.01411
-2.16403 1.65234 4.99326
-2.18205 1.65331 4.99038
-2.20302 1.65737 4.99348
-2.21516 1.65311 4.97563
-2.22927 1.65092 4.96177
-2.23927 1.65192 4.96183
-2.25925 1.65497 4.96393
-2.27335 1.65279 4.95107
-2.29236 1.65477 4.94918
-2.30744 1.65363 4.93931
-2.3235 1.65353 4.93143
-2.34743 1.65866 4.93954
-2.35742 1.6607 4.94158
-2.36759 1.65537 4.91874
-2.3925 1.66155 4.92983
-2.4007 1.65518 4.90499
-2.41479 1.654 4.89211
-2.43675 1.65809 4.89721
-2.44987 1.65488 4.88236
-2.46887 1.65788 4.88146
-2.48774 1.66514 4.89849
-2.49592 1.65979 4.87463
-2.51495 1.66076 4.87176
-2.5379 1.66587 4.87786
-2.55397 1.66473 4.86799
-2.56411 1.66147 4.85012
-2.58805 1.66659 4.85722
-2.59116 1.66339 4.84329
-2.60821 1.6633 4.83642
-2.63118 1.66737 4.84053
-2.63542 1.65992 4.80967
-2.66034 1.66607 4.81877
-2.67247 1.66284 4.80291
-2.69247 1.66584 4.80201
-2.69263 1.65954 4.7821
-2.71855 1.66671 4.7922
-2.74278 1.66127 4.76145
-2.75687 1.6601 4.74958
-2.77787 1.66312 4.74969
2.7208 1.55996 4.42875
2.71295 1.56426 4.44874
2.69992 1.56221 4.44487
2.67686 1.55613 4.43814
2.66294 1.55729 4.44822
2.65409 1.56159 4.46823
2.63205 1.55653 4.46347
2.6161 1.55663 4.46959
2.60319 1.55782 4.48167
2.59217 1.55478 4.4788
2.57723 1.55491 4.48691
2.5694 1.56024 4.50889
2.54633 1.55514 4.50114
2.53141 1.5553 4.51125
2.52052 1.55853 4.52629
2.50254 1.55657 4.52845
2.49355 1.55561 4.53054
2.4776 1.55571 4.53666
2.46571 1.55794 4.55172
2.44874 1.55701 4.55586
2.43077 1.55507 4.55902
2.41276 1.55308 4.55919
2.40393 1.5584 4.58018
2.40003 1.5616 4.59316
2.38102 1.55859 4.59235
2.36303 1.55664 4.59451
2.35623 1.56303 4.62047
2.33418 1.55894 4.6137
2.31415 1.55491 4.61091
2.30226 1.55713 4.62497
2.29022 1.55406 4.6201
2.27936 1.55834 4.63813
2.26544 1.55949 4.64821
2.24745 1.55754 4.65038
2.23454 1.55972 4.66245
2.21756 1.55878 4.66559
2.19856 1.55679 4.66576
2.1967 1.56106 4.68371
2.16072 1.55813 4.68703
2.14375 1.55719 4.69017
2.12881 1.55732 4.69828
2.11488 1.55848 4.70837
2.09096 1.55864 4.71855
2.08009 1.5629 4.73557
2.06211 1.56196 4.73872
2.05023 1.56519 4.75377
2.03325 1.56425 4.75691
2.02342 1.56958 4.77891
2.00441 1.56758 4.77808
1.99134 1.56245 4.76925
1.98149 1.56776 4.78925
1.96045 1.56368 4.78347
1.94755 1.56589 4.79654
1.93058 1.56596 4.80066
1.9126 1.56502 4.80381
1.90175 1.56932 4.82383
1.88764 1.56311 4.80903
1.87679 1.56841 4.82904
1.85778 1.5664 4.82721
1.83978 1.56442 4.82837
1.82689 1.56764 4.84242
1.81606 1.57297 4.86443
1.79805 1.57097 4.8636
1.78803 1.56894 4.8607
1.77721 1.5753 4.88469
1.75921 1.57331 4.88486
1.73916 1.57024 4.87905
1.72526 1.57244 4.89213
1.71032 1.57355 4.89922
1.69334 1.57261 4.90237
1.68435 1.57163 4.90345
1.6684 1.57275 4.91055
1.65347 1.57389 4.91965
1.63445 1.57186 4.91682
1.62465 1.57825 4.9428
1.60767 1.57831 4.94593
1.58762 1.57424 4.94014
1.5776 1.5722 4.93725
1.56163 1.57227 4.94137
1.55082 1.57965 4.96634
1.53076 1.57554 4.95855
1.51792 1.58086 4.97958
1.50198 1.58198 4.98668
1.48705 1.58414 4.99676
1.47907 1.58417 4.99882
1.46415 1.58533 5.00892
1.44307 1.5812 4.99914
1.42918 1.58442 5.0132
1.41324 1.58555 5.0213
1.39728 1.58565 5.02742
1.38134 1.58678 5.03552
1.36926 1.58262 5.02468
1.35537 1.58685 5.03972
1.34048 1.59007 5.05379
1.32453 1.59017 5.05991
-1.73924 1.65563 4.96301
-1.90054 1.66014 4.92315
-1.95968 1.66092 4.90558
-1.99276 1.66178 4.89481
-2.44094 1.67074 4.73804
-2.48402 1.67361 4.72732
-2.53219 1.67431 4.70567
-2.66769 1.67442 4.63968
-2.67274 1.67332 4.63273
-2.70782 1.67518 4.62197
-2.72387 1.67609 4.61507
-2.74191 1.67703 4.61019
-2.75105 1.67276 4.59132
-2.76712 1.67263 4.58244
-2.77711 1.67466 4.58349
-2.78232 1.66726 4.55663
-2.80232 1.67026 4.55574
-2.81936 1.6722 4.55084
-2.82851 1.66792 4.53197
-2.84457 1.66782 4.52409
-2.86358 1.6708 4.52219
-2.86865 1.66866 4.51226
-2.88273 1.66752 4.50238
-2.90077 1.66946 4.49749
-2.91485 1.66931 4.48659
-2.92596 1.66609 4.47172
-2.94894 1.67115 4.47482
-2.95709 1.66686 4.45494
-2.9661 1.66784 4.453
-2.99625 1.66758 4.43423
-3.01329 1.6685 4.42834
-3.0816 1.66995 4.38783
-3.69039 1.68583 4.01713
-3.70645 1.68773 4.00922
-3.72053 1.68757 3.99833
-3.74453 1.69259 3.99843
-3.74364 1.68937 3.98347
-3.75971 1.69025 3.97458
-3.77378 1.69011 3.96468
-3.7968 1.6951 3.96278
-3.80196 1.69079 3.94188
-3.82397 1.69478 3.93999
-3.83211 1.69252 3.92208
-3.83816 1.69142 3.91514
-3.85125 1.69125 3.90324
-3.86136 1.69003 3.88833
-3.88041 1.69194 3.88145
-3.89152 1.69174 3.86753
2.71742 1.56425 4.24568
2.67461 1.56466 4.271
2.6636 1.56163 4.26913
2.62964 1.55875 4.27543
2.61673 1.55994 4.28751
2.61293 1.56632 4.31345
2.59494 1.56435 4.31461
2.5729 1.55929 4.30985
2.57303 1.56454 4.32678
2.55708 1.56366 4.33391
2.53403 1.55857 4.32716
2.52008 1.55869 4.33426
2.50312 1.55777 4.33941
2.48918 1.5579 4.34751
2.48134 1.56322 4.36849
2.47032 1.56018 4.36562
2.45842 1.56238 4.37868
2.44041 1.5604 4.37885
2.42649 1.56055 4.38895
2.41561 1.5638 4.40499
2.39964 1.56287 4.40912
2.38166 1.56091 4.41128
2.37673 1.56305 4.42029
2.36278 1.56316 4.4274
2.34479 1.56121 4.42956
2.33289 1.56341 4.44262
2.31491 1.56145 4.44478
2.30301 1.56467 4.45883
2.28603 1.56271 4.46099
2.28618 1.56799 4.47991
2.26716 1.56497 4.4781
2.2512 1.56506 4.48322
2.23321 1.5631 4.48538
2.22334 1.56636 4.50241
2.20433 1.56336 4.5016
2.18837 1.56345 4.50672
2.18345 1.5656 4.51672
2.16747 1.56465 4.51986
2.1505 1.56373 4.524
2.13962 1.56695 4.53904
2.1196 1.56394 4.53723
2.11074 1.56821 4.55524
2.09071 1.56417 4.55145
2.0868 1.56735 4.56343
2.07084 1.56743 4.56855
2.05489 1.56755 4.57567
2.04095 1.56768 4.58378
2.02498 1.56775 4.5879
2.00597 1.56475 4.58708
1.99408 1.56796 4.60113
1.98713 1.56906 4.60716
1.97116 1.56813 4.6113
1.95416 1.56716 4.61244
1.94331 1.57144 4.63146
1.92632 1.57049 4.6336
1.91138 1.57062 4.64172
1.89135 1.56756 4.63691
1.89049 1.57284 4.65584
1.87148 1.57084 4.65502
1.85858 1.57302 4.66708
1.84364 1.57415 4.67518
1.82869 1.57427 4.68229
1.81068 1.57227 4.68146
1.80392 1.58073 4.71239
1.79184 1.57659 4.70254
1.77281 1.57355 4.69872
1.7589 1.57572 4.7098
1.74088 1.5727 4.70798
1.73106 1.58006 4.73195
1.71203 1.57702 4.72814
1.6981 1.57816 4.73722
1.68909 1.57715 4.73631
1.67313 1.57724 4.74143
1.65719 1.57736 4.74855
1.64531 1.5816 4.76458
1.62525 1.5775 4.75679
1.61032 1.57864 4.76588
1.59639 1.5808 4.77596
1.58637 1.57876 4.77306
1.57245 1.58092 4.78314
1.5565 1.58104 4.79026
1.54052 1.58109 4.79338
1.52558 1.58222 4.80147
1.50861 1.58128 4.80462
1.49058 1.57925 4.80178
1.48774 1.58556 4.82271
1.45786 1.5878 4.83791
1.44192 1.58893 4.84601
1.41 1.5891 4.85625
-0.884517 1.63754 4.92483
-0.900554 1.63748 4.91995
-0.991633 1.63938 4.90961
-1.00766 1.63933 4.90573
-1.02372 1.63724 4.89888
-1.04168 1.64033 4.90397
-1.05674 1.63821 4.89511
-1.06766 1.64238 4.90613
-1.11577 1.64119 4.89151
-1.13276 1.64222 4.89262
-1.16582 1.64212 4.88487
-1.1918 1.64517 4.88703
-1.20495 1.6399 4.8682
-1.23991 1.644 4.8734
-1.25692 1.64498 4.87152
-1.27392 1.64599 4.87163
-1.28704 1.64177 4.85579
-1.29896 1.64694 4.8668
-1.31597 1.64692 4.86493
-1.33102 1.64684 4.85905
-1.34804 1.64681 4.85617
-1.36117 1.64257 4.83933
-1.37719 1.64354 4.83644
-1.39614 1.64665 4.84354
-1.40514 1.64764 4.84259
-1.4163 1.64134 4.82176
-1.43721 1.64753 4.83383
-1.45422 1.64853 4.83294
-1.46831 1.64636 4.82108
-1.48435 1.64529 4.81522
-1.49724 1.6515 4.82922
-1.51037 1.64728 4.81338
-1.52444 1.64514 4.80352
-1.5473 1.65342 4.82157
-1.55943 1.64918 4.80472
-1.57939 1.65327 4.80981
-1.59151 1.64904 4.79397
-1.59856 1.64796 4.78803
-1.6146 1.64789 4.78316
-1.63455 1.651 4.78926
-1.65059 1.65092 4.78338
-1.66565 1.65083 4.7765
-1.6807 1.64973 4.76962
-1.69381 1.64654 4.75577
-1.71376 1.65062 4.76086
-1.71786 1.64745 4.74894
-1.73195 1.64428 4.73709
-1.75385 1.65048 4.74916
-1.76891 1.65038 4.74228
-1.78202 1.64717 4.72742
-1.79708 1.64606 4.71955
-1.81899 1.65226 4.73162
-1.82212 1.64701 4.71472
-1.83912 1.64902 4.71482
-1.86301 1.65623 4.7279
-1.87317 1.65094 4.70805
-1.89117 1.65294 4.70715
-1.90819 1.65392 4.70527
-1.91833 1.64965 4.6864
-1.93028 1.65275 4.69245
-1.94533 1.65267 4.68656
-1.95746 1.64843 4.66972
-1.97546 1.65042 4.66882
-1.99444 1.65348 4.67192
-2.0036 1.64818 4.65106
-2.02161 1.65018 4.65017
-2.03847 1.65845 4.66818
-2.04763 1.65214 4.64634
-2.06367 1.65307 4.64144
-2.07874 1.65195 4.63257
-2.09281 1.65081 4.62269
-2.10688 1.6497 4.61481
-2.12685 1.65376 4.61791
-2.13291 1.65165 4.60998
-2.14796 1.65156 4.60309
-2.16794 1.65561 4.60619
-2.17905 1.6524 4.59131
-2.19707 1.65438 4.58942
-2.21802 1.65847 4.59452
-2.22619 1.65215 4.57267
-2.24011 1.65731 4.5827
-2.25616 1.65823 4.57681
-2.27023 1.6571 4.56693
-2.28234 1.6539 4.55307
-2.30133 1.65693 4.55416
-2.31147 1.65367 4.53629
-2.33243 1.65776 4.54138
-2.34243 1.65875 4.54044
-2.35453 1.65658 4.52857
-2.37549 1.66165 4.53265
-2.39548 1.66468 4.53376
-2.40758 1.6625 4.52088
-2.42461 1.66345 4.51699
-2.44362 1.66645 4.51609
-2.4477 1.66329 4.50517
-2.46276 1.66319 4.49728
-2.48077 1.66517 4.49539
-2.49287 1.66298 4.48251
-2.51089 1.66495 4.47961
-2.52595 1.66485 4.47173
-2.54199 1.66578 4.46683
-2.54706 1.66365 4.4579
-2.56212 1.66355 4.45002
-2.57225 1.6603 4.43314
-2.59125 1.6633 4.43224
-2.60237 1.66009 4.41737
-2.62235 1.66413 4.41946
2.81011 1.55066 3.93914
2.7992 1.55184 3.95121
2.78425 1.55196 3.95832
2.76727 1.549 3.96049
2.76334 1.55114 3.96949
2.73647 1.55141 3.98669
2.72454 1.55256 3.99677
2.70858 1.55065 4.00192
2.69769 1.55286 4.01597
2.68272 1.55195 4.0211
2.64787 1.55126 4.04037
2.63595 1.55343 4.05143
1.91178 1.56346 4.42879
1.88288 1.56469 4.44299
1.86995 1.56583 4.45207
1.85501 1.56696 4.46017
1.84599 1.56492 4.45727
1.81812 1.5672 4.47445
1.7882 1.56738 4.48567
1.74046 1.5729 4.51895
1.69151 1.56904 4.52638
1.65362 1.57029 4.54165
1.62166 1.56839 4.54692
1.60874 1.57055 4.55699
1.59175 1.56958 4.55813
1.56388 1.57185 4.57531
1.55384 1.56978 4.57041
1.54094 1.573 4.58446
1.52702 1.57516 4.59454
1.51001 1.57214 4.59271
1.49608 1.5743 4.60278
1.48524 1.58061 4.62378
1.46721 1.57755 4.61896
1.45923 1.5776 4.62202
1.44633 1.58081 4.63507
1.43034 1.57983 4.6362
1.41437 1.5799 4.64032
1.40147 1.58312 4.65437
1.3824 1.578 4.64559
1.37364 1.58745 4.67552
-0.583356 1.63269 4.81262
-0.632376 1.63368 4.80997
-0.704434 1.63462 4.8025
-0.721418 1.63566 4.80461
-0.737455 1.6356 4.79973
-0.752485 1.63455 4.79586
-0.777484 1.63557 4.79603
-0.793506 1.63553 4.79315
-0.810482 1.63759 4.79625
-0.825527 1.63651 4.79038
-0.854696 1.63021 4.76869
-0.889639 1.63534 4.77588
-0.896693 1.63324 4.76896
-0.913645 1.63634 4.77504
-0.945674 1.6373 4.77127
-0.96265 1.63936 4.77437
-0.992772 1.63515 4.75866
-1.0027 1.63929 4.76767
-1.01776 1.63718 4.75981
-1.04981 1.6371 4.75306
-1.0668 1.63914 4.75515
-1.08183 1.63908 4.75027
-1.09786 1.63903 4.74639
-1.10782 1.64113 4.75243
-1.1248 1.64317 4.75453
-1.13888 1.64101 4.74367
-1.1549 1.641 4.74179
-1.17094 1.64092 4.73591
-1.18407 1.63568 4.71908
-1.19593 1.64297 4.73807
-1.21003 1.63979 4.72522
-1.22217 1.63451 4.70639
-1.24303 1.64279 4.72442
-1.25809 1.64069 4.71657
-1.27411 1.64167 4.71467
-1.28724 1.63643 4.69785
-1.29425 1.6364 4.6959
-1.31224 1.63843 4.69701
-1.33116 1.64361 4.70807
-1.34426 1.64041 4.69422
-1.36225 1.64244 4.69532
-1.37631 1.64133 4.68744
-1.39429 1.64339 4.69055
-1.40837 1.64225 4.68067
-1.42126 1.64746 4.69469
-1.43533 1.64533 4.68483
-1.45036 1.64528 4.68094
-1.46543 1.64416 4.67207
-1.48535 1.64932 4.68215
-1.49747 1.64509 4.6663
-1.51446 1.64712 4.6674
-1.52151 1.64603 4.66147
-1.53852 1.64703 4.66058
-1.55062 1.64383 4.64672
-1.56861 1.64688 4.64881
-1.58463 1.64684 4.64593
-1.60067 1.64677 4.64005
-1.61668 1.64876 4.63914
-1.62177 1.64459 4.62724
-1.63779 1.64556 4.62434
-1.65382 1.64651 4.62045
-1.66984 1.64648 4.61757
-1.68784 1.64849 4.61768
-1.69994 1.6463 4.6048
-1.71596 1.64627 4.60192
-1.72693 1.64934 4.60596
-1.73512 1.64198 4.58112
-1.75018 1.64087 4.57325
-1.77207 1.64809 4.58731
-1.78418 1.64489 4.57345
-1.80119 1.64689 4.57255
-1.82113 1.65101 4.57964
-1.82229 1.6447 4.55874
-1.84225 1.64879 4.56383
-1.85534 1.64663 4.55296
-1.87135 1.64762 4.55106
-1.88739 1.64855 4.54617
-1.90245 1.64745 4.5383
-1.92042 1.6505 4.54139
-1.93041 1.65254 4.54343
-1.94056 1.64725 4.52359
-1.95559 1.6482 4.51968
-1.97261 1.64917 4.5168
-1.99159 1.65221 4.5189
-2.00075 1.64692 4.49904
-2.01874 1.64994 4.49913
-2.03167 1.65408 4.50817
-2.05882 1.6518 4.4884
-2.07288 1.6507 4.48053
-2.08892 1.65163 4.47563
-2.11902 1.65146 4.46286
-2.12802 1.65247 4.46291
-2.14109 1.65133 4.45303
-2.1712 1.65114 4.43925
-2.2003 1.65096 4.42547
-2.21929 1.65399 4.42657
-2.2695 1.65261 4.39897
-2.28555 1.65253 4.39309
-2.30157 1.65448 4.38918
-2.33969 1.65529 4.37445
-2.35672 1.65624 4.37057
-2.38583 1.65604 4.35579
-2.39989 1.65592 4.34689
-2.40989 1.65694 4.34795
-2.42395 1.65683 4.34006
-2.44491 1.66191 4.34414
-2.45404 1.65766 4.32727
-2.47402 1.66171 4.32936
-2.49696 1.66784 4.33745
-2.50018 1.65941 4.30859
-2.5161 1.66559 4.31962
-2.52523 1.66133 4.30175
-2.53633 1.65914 4.28886
-2.55533 1.66216 4.28896
-2.57235 1.66413 4.28606
-2.60148 1.66389 4.26928
2.8259 1.55326 3.77796
2.82601 1.55747 3.7919
2.80396 1.5514 3.78616
2.7971 1.55567 3.80415
2.7781 1.55168 3.80435
2.7773 1.55908 3.83125
2.75526 1.55402 3.82649
2.74941 1.55831 3.84548
2.73535 1.55421 3.83864
2.72546 1.55643 3.85268
2.70746 1.55244 3.85288
2.70364 1.55879 3.87582
2.68867 1.55787 3.88094
2.67573 1.558 3.88904
2.65775 1.55504 3.89122
2.65279 1.55613 3.89724
2.64493 1.56041 3.91524
2.62895 1.55846 3.91839
2.59701 1.55459 3.92569
2.57215 1.55589 3.94486
2.5492 1.55401 3.95206
2.46057 1.5548 4.00172
2.36408 1.55985 4.06839
2.21065 1.56008 4.14555
2.18276 1.56031 4.15976
2.12203 1.56287 4.19518
2.09616 1.56516 4.21335
2.06624 1.56433 4.22358
2.0523 1.56446 4.23169
2.03936 1.56559 4.23977
2.02833 1.56253 4.2359
2.01641 1.56469 4.24596
2.00247 1.56482 4.25406
1.97661 1.56812 4.27321
1.95859 1.56509 4.27039
1.94363 1.56417 4.27552
1.94073 1.56837 4.28848
1.92881 1.57054 4.29954
1.90775 1.56544 4.29177
1.88291 1.56877 4.31291
1.85008 1.57213 4.33611
1.82899 1.56597 4.32436
1.82424 1.57544 4.35626
1.80314 1.56928 4.34451
1.7943 1.57458 4.3645
1.77323 1.56947 4.35573
1.76744 1.57787 4.38266
1.75536 1.57273 4.37282
1.74244 1.5749 4.38389
1.73054 1.57809 4.39593
1.70741 1.56987 4.38023
1.70062 1.57827 4.40716
1.68769 1.57942 4.41624
1.66966 1.57637 4.41242
1.66269 1.57644 4.41647
1.64466 1.57339 4.41265
1.6297 1.57349 4.41877
1.61882 1.57772 4.43379
1.60387 1.57883 4.44088
1.58889 1.57789 4.44401
1.57088 1.57487 4.44219
1.56696 1.57904 4.45316
1.55301 1.57915 4.46026
1.53805 1.57924 4.46538
1.5231 1.58034 4.47147
1.50609 1.57833 4.47063
1.49216 1.57948 4.47972
1.47821 1.58058 4.48581
1.47022 1.58061 4.48787
1.45934 1.58486 4.50389
1.44234 1.58287 4.50405
1.42737 1.58292 4.50716
1.41036 1.58092 4.50632
1.39951 1.58621 4.52533
1.38968 1.59254 4.54731
-1.02175 1.64323 4.62774
-1.04479 1.64317 4.62291
-1.16195 1.64493 4.60176
-1.19396 1.64692 4.59998
-1.22405 1.64578 4.58922
-1.24807 1.64675 4.58638
-1.29514 1.64764 4.57672
-1.30919 1.64656 4.57084
-1.34122 1.64851 4.56606
-1.34728 1.6464 4.55813
-1.36523 1.65051 4.56521
-1.3754 1.64318 4.54239
-1.39433 1.64833 4.55146
-1.41327 1.65246 4.55954
-1.42735 1.65032 4.54968
-1.4424 1.65023 4.54279
-1.48241 1.65323 4.54105
-1.50761 1.64686 4.51533
-1.52754 1.65199 4.5234
-1.53964 1.64881 4.51054
-1.55059 1.65192 4.51758
-1.56171 1.64769 4.50172
-1.59375 1.64964 4.49693
-1.61368 1.65478 4.50501
-1.64084 1.6515 4.48526
-1.6459 1.64938 4.47733
-1.6629 1.65038 4.47644
-1.67597 1.64926 4.46755
-1.68613 1.64297 4.44772
-1.71193 1.65536 4.47274
-1.726 1.65323 4.46387
-1.73712 1.64901 4.44802
-1.74903 1.65518 4.45902
-1.76017 1.64992 4.44117
-1.77619 1.6509 4.43928
-1.7922 1.65288 4.43737
-1.8043 1.6497 4.42451
-1.81836 1.64859 4.41663
