2.7773 0.0475624 5.43544
2.7724 0.0477584 5.44848
2.77174 0.0504251 5.49345
2.76599 0.0519326 5.52747
2.75925 0.0534409 5.56151
2.75047 0.0548766 5.59056
2.73967 0.0562693 5.61662
2.73598 0.0578939 5.65863
2.73654 0.0619889 5.73257
2.73186 0.0636141 5.77459
2.72309 0.0650647 5.80464
2.71841 0.0676898 5.84664
2.70762 0.0681123 5.87472
2.70295 0.070767 5.91872
2.69746 0.0737629 5.98573
2.68973 0.0753015 6.02177
2.68098 0.0768112 6.05582
2.6743 0.0794378 6.09784
2.66354 0.0809046 6.1289
2.65991 0.0826327 6.17791
2.66317 0.0851484 6.21285
2.65242 0.0866448 6.24591
2.64371 0.0882137 6.28396
2.63908 0.0909425 6.33296
2.6324 0.092584 6.37599
2.62474 0.0952409 6.42002
2.61909 0.0969409 6.46704
2.62139 0.0995313 6.50699
2.6076 0.0999411 6.53409
2.60197 0.102671 6.5831
2.59229 0.104299 6.62516
2.58463 0.106971 6.67018
2.58006 0.109818 6.72718
2.57065 0.11398 6.8052
2.56096 0.115609 6.84726
2.55641 0.118486 6.90626
2.54777 0.121188 6.95329
2.53813 0.122905 7.00134
2.53051 0.125666 7.05237
2.52423 0.131077 7.14735
3.38365 -0.0989146 1.10744
3.39586 -0.0974942 1.13633
3.39099 -0.0972389 1.15337
3.39008 -0.0970606 1.16537
3.37118 -0.0928999 1.31048
3.15992 -0.0426775 2.73452
3.15121 -0.0411085 2.77257
3.14863 -0.0392775 2.82857
3.14885 -0.0378484 2.85755
3.14598 -0.0365947 2.87455
3.13706 -0.0364253 2.88562
3.13721 -0.0361292 2.90562
3.13333 -0.0349044 2.92063
3.13652 -0.0335366 2.94559
3.12155 -0.0344664 2.94972
3.12108 -0.030415 3.02067
3.12225 -0.0300901 3.04266
3.09162 -0.0223881 3.2238
3.08238 -0.0178861 3.32482
3.06602 -0.0136306 3.40889
3.05629 -0.0120906 3.44495
3.04803 -0.00763369 3.54296
3.04336 -0.00597885 3.58697
3.02869 -0.00331683 3.63105
3.03292 -0.00187578 3.661
3.01644 0.00115775 3.73009
3.01866 0.00258545 3.75906
3.01482 0.00289922 3.78008
2.99805 0.00437036 3.81119
2.99342 0.00708431 3.85919
2.99473 0.00870517 3.90117
2.98506 0.0113487 3.94421
2.97739 0.0130058 3.98824
2.97874 0.0156857 4.0342
2.9721 0.0174012 4.08223
2.95457 0.0203319 4.14433
2.95278 0.0217477 4.17233
2.94986 0.0219127 4.18335
2.9473 0.0257583 4.24032
2.93182 0.0287911 4.3094
2.76237 0.0856579 5.44099
2.76475 0.0883964 5.49094
2.7519 0.0897166 5.51202
2.75412 0.0911295 5.53998
2.74837 0.092637 5.57401
2.73794 0.0967549 5.64904
2.72611 0.098104 5.67211
2.72548 0.100815 5.72008
2.71792 0.103694 5.7791
2.71729 0.106405 5.82708
2.70039 0.106625 5.8412
2.68938 0.113572 5.9722
2.68493 0.117641 6.04418
2.6762 0.11918 6.08023
2.66541 0.120603 6.10829
2.65567 0.123113 6.14233
2.6551 0.125957 6.19931
2.64784 0.131413 6.29729
2.64092 0.131581 6.30834
2.61937 0.142424 6.49937
2.60504 0.146752 6.58843
2.57774 0.152149 6.68157
2.57518 0.155009 6.73955
2.56552 0.157668 6.78359
2.55229 0.163187 6.88562
2.54848 0.16456 6.91063
2.53982 0.167248 6.95667
2.53426 0.170095 7.01367
2.5246 0.172769 7.05871
3.34769 -0.0699079 1.37632
3.33695 -0.0683967 1.41038
3.34122 -0.0668668 1.44633
3.32672 -0.064879 1.51242
3.31508 -0.0641598 1.56051
3.32527 -0.0627823 1.58641
3.32137 -0.0626018 1.59844
3.31052 -0.061283 1.61951
3.30783 -0.0606739 1.66052
3.12052 -0.00855732 2.94334
3.10518 -0.00425818 3.0304
3.10627 -0.00408128 3.0424
3.10457 -0.00148794 3.08238
3.09667 -0.00128969 3.09543
3.0901 0.00155893 3.15245
3.08329 0.00193409 3.1775
3.08446 0.00327371 3.20047
3.08195 0.00723773 3.26544
3.07212 0.00757066 3.28751
3.0723 0.00892581 3.3115
3.05769 0.0117062 3.36357
3.05309 0.0144942 3.41657
3.04924 0.0147784 3.4356
3.05143 0.0161617 3.46157
3.03786 0.0190154 3.51863
3.03805 0.0203853 3.54362
3.02742 0.0231184 3.59266
3.01791 0.0260729 3.6567
3.01608 0.0274147 3.6797
3.01113 0.0275219 3.68673
3.00932 0.0288785 3.71073
3.00648 0.0302062 3.73273
2.99779 0.0318196 3.77378
2.99396 0.0331481 3.79579
2.99629 0.0357977 3.83974
2.99448 0.0371691 3.86474
2.98378 0.0387691 3.9048
2.97039 0.0429632 3.98485
2.96858 0.0443494 4.01085
2.95612 0.0474096 4.08191
2.94782 0.0527775 4.1739
2.94097 0.0540934 4.19494
2.93032 0.0557822 4.241
2.92853 0.0571832 4.268
2.92169 0.058499 4.28903
2.75575 0.125354 5.48746
2.75898 0.126811 5.51842
2.75222 0.12929 5.55044
2.74143 0.130697 5.5775
2.7428 0.133436 5.62745
2.72794 0.133714 5.64557
2.73035 0.137511 5.6995
2.72057 0.138948 5.72855
2.7228 0.141405 5.75951
2.71098 0.141754 5.78259
2.70631 0.144409 5.8266
2.69388 0.148528 5.90164
2.69736 0.152473 5.96556
2.68046 0.153678 5.97867
2.68169 0.155121 6.00865
2.67295 0.157645 6.04368
2.66626 0.159257 6.08471
2.65956 0.161854 6.12473
2.63669 0.171076 6.27379
2.63308 0.173834 6.32478
2.61567 0.178001 6.40286
2.5453 0.207158 6.88302
2.5387 0.209948 6.93604
3.38472 -0.0538315 1.11277
3.3851 -0.0520915 1.16275
3.37932 -0.050658 1.19177
3.37138 -0.0505189 1.20083
3.3795 -0.0502879 1.21677
3.37659 -0.0501081 1.22879
3.37569 -0.0489298 1.24078
3.37181 -0.0486753 1.25781
3.36308 -0.0481506 1.29287
3.35815 -0.047999 1.30291
3.3573 -0.0467171 1.3219
3.35739 -0.0465247 1.3349
3.36061 -0.0451125 1.36285
3.35377 -0.0447817 1.3849
3.34599 -0.0443466 1.41396
3.3491 -0.0431269 1.42892
3.33616 -0.0440137 1.43603
3.34539 -0.0415616 1.46693
3.33947 -0.0413944 1.47798
3.3336 -0.0411532 1.49402
3.33972 -0.039906 1.51096
3.33591 -0.0395331 1.53598
3.332 -0.0393673 1.54701
3.32924 -0.0378768 1.58001
3.32333 -0.0377096 1.59106
3.32453 -0.0363107 1.61803
3.31977 -0.0358334 1.65006
3.14067 0.0147372 2.82883
3.12686 0.0161173 2.85392
3.1343 0.0189705 2.91183
3.12538 0.0191399 2.92289
3.12855 0.0204633 2.94485
3.12972 0.0217881 2.96683
3.12181 0.0229714 2.97887
3.11591 0.023183 2.99291
3.11902 0.024388 3.00687
3.11313 0.0245996 3.02092
3.11244 0.027207 3.06189
3.10856 0.0274616 3.07892
3.11074 0.0288004 3.10188
3.10284 0.0289987 3.11494
3.09586 0.0290482 3.11799
3.10005 0.03043 3.14395
3.09316 0.0316423 3.15798
3.08828 0.0318827 3.17402
3.09148 0.0342652 3.19996
3.09265 0.0356048 3.22294
3.08071 0.0347321 3.23104
3.08888 0.0370517 3.25295
3.07592 0.0361501 3.25906
3.0761 0.0374904 3.28204
3.07526 0.0388167 3.30403
3.06837 0.0400289 3.31807
3.06855 0.0413841 3.34205
3.05864 0.0415542 3.35312
3.06781 0.042888 3.37604
3.06494 0.0441565 3.39404
3.06109 0.0454406 3.41305
3.05319 0.0456536 3.42711
3.05438 0.0470228 3.45209
3.04347 0.0471937 3.46317
3.04265 0.0485496 3.48716
3.04173 0.049713 3.49815
3.04292 0.0510822 3.52312
3.04007 0.0523804 3.54313
3.02834 0.0539071 3.5782
3.02652 0.0552637 3.6022
3.01761 0.0554479 3.61426
3.02781 0.0568401 3.64117
3.01992 0.0580531 3.65521
3.01608 0.0593667 3.67622
3.01223 0.0596657 3.69625
3.01041 0.0610223 3.72025
3.0096 0.0633929 3.74522
3.00071 0.0636067 3.75929
3.00788 0.0649419 3.78222
3.00202 0.0662274 3.80124
2.99717 0.067527 3.82126
2.9893 0.0677697 3.83732
2.9895 0.0691692 3.8643
2.98567 0.0705125 3.88732
2.97578 0.0717269 3.90137
2.97992 0.0730051 3.92033
2.97307 0.0732915 3.93938
2.96924 0.0746347 3.96239
2.96844 0.076035 3.98938
2.95707 0.0812719 4.0724
2.9464 0.0839162 4.11545
2.93877 0.0866471 4.16447
2.92823 0.0895579 4.22551
2.92846 0.0920165 4.25648
2.92365 0.0933753 4.2805
2.92615 0.0973653 4.34743
2.91526 0.0975805 4.36151
2.8538 0.125553 4.82963
2.84903 0.128001 4.85963
2.84628 0.129491 4.89263
2.83891 0.13474 4.97662
2.83414 0.136188 5.00664
2.82632 0.138548 5.03067
2.81306 0.144009 5.1287
2.80627 0.145428 5.15673
2.79219 0.15323 5.27774
2.77527 0.15339 5.28787
2.77052 0.155897 5.32187
2.7678 0.158446 5.35886
2.76122 0.161265 5.41387
2.75446 0.163744 5.44589
2.52436 0.264181 7.01836
3.37183 -0.0286775 1.25751
3.37192 -0.028485 1.27051
3.36625 -0.0268443 1.31354
3.32981 -0.0197529 1.52073
3.32991 -0.0195605 1.53373
3.32901 -0.0183674 1.54672
3.18093 0.0272707 2.59631
3.17201 0.0274252 2.60637
3.14337 0.0361109 2.78649
3.13646 0.0372935 2.79852
3.13661 0.0375895 2.81852
3.13072 0.038801 2.83255
3.12985 0.0390682 2.85055
3.13505 0.0414492 2.87648
3.13009 0.0415269 2.88152
3.13629 0.042922 2.90846
3.12435 0.0430344 2.91554
3.12651 0.0443585 2.93751
3.12063 0.0455848 2.95254
3.12381 0.0469377 2.9765
3.11187 0.0470649 2.98459
3.11613 0.04858 3.01954
3.11125 0.0498203 3.03556
3.10637 0.050046 3.05059
3.09948 0.051273 3.06563
3.10065 0.0526127 3.0886
3.10392 0.0551283 3.12355
3.10207 0.0554258 3.14356
3.0913 0.0568926 3.17462
3.0824 0.0580767 3.18668
3.0866 0.0594733 3.21363
3.0787 0.0596716 3.22668
3.07576 0.0607921 3.23469
3.07795 0.0621606 3.25966
3.07711 0.0634721 3.28065
3.0714 0.0650536 3.31967
3.06856 0.0663665 3.34068
3.06267 0.0675928 3.35571
3.06681 0.0688563 3.37366
3.06092 0.0690827 3.3887
3.05304 0.0703104 3.40375
3.0512 0.0716226 3.42474
3.05542 0.0730637 3.45469
3.04551 0.0732338 3.46577
3.04065 0.0745186 3.48479
3.03771 0.0746392 3.49281
3.04396 0.0771231 3.52573
3.03708 0.0783649 3.54177
3.03423 0.079663 3.56177
3.02332 0.0798338 3.57285
3.02351 0.0812186 3.59883
3.01866 0.0825034 3.61785
3.01895 0.0850804 3.65682
3.01329 0.0877507 3.70183
3.00359 0.0893352 3.74088
2.95279 0.115649 4.16493
2.94315 0.118351 4.21197
2.93732 0.119696 4.235
2.93946 0.120961 4.25297
2.93363 0.122306 4.276
2.9111 0.125225 4.33713
2.87987 0.140712 4.57117
2.82955 0.163003 4.92627
2.82695 0.16679 4.97924
2.82149 0.171845 5.05021
2.80284 0.174539 5.09632
2.79605 0.175958 5.12435
2.80045 0.179725 5.17627
2.79046 0.179762 5.17835
2.78096 0.183746 5.24437
2.77657 0.189933 5.32432
2.76219 0.195172 5.40736
2.7229 0.209531 5.63248
2.71389 0.219477 5.76342
2.69841 0.22351 5.83248
2.68578 0.226244 5.88155
2.68722 0.231102 5.93947
2.67643 0.232524 5.96754
2.66974 0.235121 6.00755
2.67016 0.238949 6.0635
2.65983 0.245274 6.1525
2.64885 0.245312 6.15458
2.63549 0.25158 6.2396
2.63595 0.255468 6.29955
2.63132 0.259196 6.34853
2.61008 0.265707 6.44961
2.60241 0.269349 6.49262
2.59373 0.271977 6.53465
2.59117 0.275852 6.59362
2.58148 0.278466 6.63466
2.5718 0.282095 6.67669
2.56722 0.285912 6.73167
2.57157 0.288605 6.77861
2.56086 0.291175 6.81665
2.55427 0.294979 6.87066
2.54154 0.297521 6.90672
2.5329 0.301223 6.95374
2.5253 0.305013 7.00674
2.51771 0.308818 7.06075
2.51492 0.310235 7.08876
2.50938 0.315141 7.14973
3.35775 -0.00384765 1.24525
3.34076 0.00113385 1.37832
3.32921 0.00303063 1.43839
3.32434 0.00328591 1.45542
3.32876 0.00611172 1.51136
3.31687 0.00632769 1.52545
3.31918 0.00794783 1.56741
3.31045 0.00948716 1.60346
3.30749 0.00956336 1.60848
3.3076 0.0107705 1.62246
3.30368 0.0109362 1.63349
3.121 0.0713229 2.86714
3.12231 0.0739288 2.9081
3.11564 0.0765702 2.95112
3.10774 0.0767685 2.96418
3.10417 0.0806296 3.02215
3.10433 0.0819255 3.04214
3.10155 0.0833569 3.07114
3.09767 0.0846113 3.08815
3.09598 0.0872047 3.12813
3.08606 0.0873748 3.13921
3.08118 0.0886151 3.15523
3.08438 0.0899977 3.18119
3.08445 0.0911456 3.19117
3.08379 0.0937974 3.23514
3.06882 0.0928825 3.24027
3.07202 0.0952649 3.26621
3.06815 0.0965194 3.28323
3.06227 0.0967606 3.29927
3.07144 0.0990943 3.32217
3.05547 0.0981505 3.3253
3.0617 0.100605 3.35623
3.05481 0.101817 3.37026
3.05416 0.104513 3.41723
3.04828 0.105739 3.43226
3.04736 0.105903 3.44327
3.04269 0.108543 3.48627
3.03075 0.108685 3.49536
3.04204 0.112239 3.53323
3.02809 0.112353 3.54033
3.02756 0.116271 3.60228
3.02674 0.117612 3.62527
3.02087 0.118883 3.6433
3.01804 0.120211 3.66531
3.00915 0.120424 3.67937
3.00127 0.121667 3.69542
3.01146 0.124029 3.72031
3.00256 0.124243 3.73437
2.99873 0.125572 3.75638
3.00196 0.128028 3.78733
2.99307 0.128242 3.80139
2.9862 0.129499 3.81843
2.98742 0.131927 3.84739
2.98854 0.133163 3.86336
2.98167 0.13342 3.88041
2.98289 0.135848 3.90937
2.97502 0.137105 3.92642
2.97017 0.13842 3.94744
2.97039 0.139849 3.97642
2.9605 0.141063 3.99048
2.96162 0.142299 4.00645
2.95982 0.143686 4.03245
2.96308 0.146186 4.06639
2.94734 0.147716 4.10149
2.94352 0.150074 4.12549
2.93882 0.152655 4.16449
2.93118 0.155371 4.21252
2.92332 0.156658 4.23156
2.87217 0.182261 4.60762
2.86941 0.184736 4.63961
2.86359 0.186096 4.66363
2.86677 0.188434 4.68658
2.86806 0.19101 4.72553
2.86125 0.19237 4.74957
2.85444 0.194745 4.77459
2.84561 0.196092 4.79764
2.83778 0.197424 4.81968
2.834 0.198871 4.84969
2.83315 0.201152 4.86867
2.83344 0.203715 4.90663
2.83069 0.206205 4.93962
2.82085 0.207538 4.96168
2.81709 0.209999 4.99267
2.80828 0.211376 5.01772
2.80453 0.213867 5.05072
2.80367 0.215149 5.06971
2.80499 0.21777 5.11167
2.7982 0.220189 5.13969
2.78736 0.221508 5.16075
2.79072 0.225216 5.20868
2.77887 0.22652 5.22875
2.77615 0.22907 5.26574
2.77734 0.230425 5.28971
2.77058 0.232903 5.32173
2.76887 0.236482 5.3607
2.7611 0.237931 5.39074
2.75128 0.239294 5.41479
2.74081 0.244338 5.48481
2.73896 0.246635 5.50479
2.73322 0.249142 5.5388
2.72952 0.251722 5.5778
2.72176 0.254202 5.60982
2.71908 0.25684 5.65281
2.70581 0.264271 5.74881
2.70315 0.267924 5.79279
2.69235 0.269331 5.81985
2.68196 0.275538 5.90085
2.68236 0.279307 5.9528
2.67058 0.281745 5.98185
2.67688 0.284332 6.02177
2.66508 0.286741 6.04883
2.66042 0.28941 6.09383
2.65271 0.292978 6.13184
2.64602 0.29559 6.17286
2.63934 0.299216 6.21486
2.63061 0.301756 6.25089
2.63186 0.304228 6.28285
2.6313 0.308087 6.34081
2.61444 0.309381 6.35992
2.6088 0.313081 6.40691
2.58907 0.325582 6.5749
2.57834 0.329122 6.61093
2.57376 0.33294 6.66592
2.56202 0.335451 6.69997
2.53835 0.349074 6.87598
2.52312 0.356594 6.97799
3.17893 0.0702385 2.45867
3.18008 0.0715337 2.47864
3.18619 0.0727365 2.49258
3.17826 0.0728903 2.50264
3.17337 0.0731012 2.51667
3.18069 0.0767175 2.55857
3.17679 0.0769276 2.5726
2.49673 0.411703 7.18641
3.38075 0.0341173 1.1085
3.37535 0.0372909 1.1875
3.37554 0.0386608 1.21248
3.36082 0.0392343 1.25059
3.35108 0.0407447 1.28465
3.36131 0.0421814 1.31455
3.35262 0.0438095 1.3566
3.34504 0.0466293 1.41162
3.34012 0.046781 1.42166
3.33831 0.0471673 1.44767
3.33439 0.0483329 1.45868
3.3221 0.0517336 1.55274
3.17599 0.10728 2.59616
3.16548 0.111235 2.66019
3.15316 0.116591 2.75122
3.1446 0.120456 2.80923
3.13512 0.124484 2.87825
3.04673 0.165549 3.48639
2.96005 0.206064 4.05753
2.95634 0.209629 4.09551
2.94567 0.212288 4.13955
2.94107 0.216076 4.19254
2.93828 0.218477 4.21953
2.93256 0.221029 4.25654
2.92673 0.223374 4.27955
2.92013 0.227148 4.33155
2.91429 0.228478 4.35358
2.91353 0.230937 4.38455
2.91164 0.232161 4.39955
2.89545 0.240742 4.50556
2.8828 0.244446 4.55261
2.87739 0.25059 4.62957
2.86577 0.254353 4.68061
2.85721 0.258218 4.73862
2.83374 0.275225 4.94058
2.78616 0.300981 5.2596
2.78039 0.303429 5.28961
2.7336 0.326785 5.58166
2.73277 0.329111 5.60363
2.72704 0.331648 5.63964
2.70746 0.335477 5.69474
2.71089 0.341318 5.75164
2.70315 0.343827 5.78566
2.69744 0.347393 5.82366
2.69356 0.348648 5.84067
2.67809 0.35368 5.90972
2.67646 0.358406 5.95867
2.66263 0.359757 5.98176
2.66407 0.364614 6.03968
2.64682 0.373077 6.1377
2.64624 0.377907 6.19364
2.63243 0.380287 6.21871
2.62574 0.383898 6.25972
2.616 0.386409 6.29376
2.60934 0.390079 6.33876
2.61161 0.393611 6.37469
2.59984 0.396063 6.40475
2.59319 0.399749 6.45075
2.58654 0.403449 6.49776
2.5666 0.415521 6.63675
2.56279 0.417894 6.66174
2.55616 0.421624 6.71074
2.55259 0.42747 6.76769
2.54189 0.430055 6.80674
2.53529 0.434844 6.85973
2.51727 0.445767 6.98872
3.37721 0.0579911 1.16718
3.37353 0.0596304 1.21019
3.36308 0.062704 1.28223
3.35931 0.0641656 1.31324
3.34981 0.0671497 1.37928
3.3316 0.0707027 1.48338
3.31931 0.0751181 1.57842
3.26711 0.0936336 1.94859
3.26013 0.0936831 1.95164
3.24137 0.103125 2.11566
3.22519 0.108735 2.22372
3.20345 0.119208 2.38975
3.19868 0.120671 2.42077
3.18164 0.128548 2.5468
3.17487 0.130012 2.57783
3.16723 0.133713 2.62484
3.14685 0.137957 2.70794
3.14247 0.144174 2.78989
3.13557 0.144371 2.80294
3.12968 0.145583 2.81697
3.13192 0.148055 2.84892
3.12362 0.154423 2.9409
3.1157 0.154591 2.95196
3.11005 0.158276 2.99796
3.10169 0.16454 3.08294
3.09682 0.164796 3.09997
3.07286 0.174841 3.23703
3.07706 0.177237 3.26396
3.0685 0.181102 3.32198
3.05518 0.187429 3.411
3.05032 0.188714 3.43002
3.04656 0.19119 3.46201
3.04087 0.194787 3.50201
3.035 0.195057 3.52005
3.03317 0.197384 3.54203
3.02043 0.198912 3.57711
3.01808 0.206171 3.66203
3.0102 0.207414 3.67808
3.00635 0.208713 3.69809
3.00352 0.210055 3.72109
3.00262 0.211234 3.73308
2.98988 0.213761 3.76815
2.99414 0.217261 3.80207
2.98727 0.217518 3.81912
2.9804 0.218774 3.83615
2.97556 0.220089 3.85717
2.97465 0.221282 3.87017
2.97588 0.224725 3.90011
2.96721 0.227383 3.94414
2.95956 0.231069 3.99015
2.95978 0.233498 4.01912
2.95506 0.236049 4.05612
2.9472 0.237321 4.07416
2.94844 0.240794 4.10611
2.94159 0.24208 4.12514
2.93373 0.243367 4.14418
2.92587 0.244639 4.16223
2.93914 0.248162 4.19808
2.92622 0.248335 4.20918
2.93153 0.251923 4.24909
2.92367 0.25321 4.26813
2.90974 0.253353 4.27724
2.91708 0.258014 4.32212
2.91226 0.259373 4.34614
2.91036 0.260566 4.35914
2.90353 0.262912 4.38216
2.90277 0.265371 4.41313
2.89695 0.266731 4.43716
2.89416 0.269147 4.46515
2.88734 0.271492 4.48817
2.89165 0.275096 4.52909
2.88571 0.275219 4.53713
2.88496 0.278708 4.57009
2.87915 0.280082 4.59511
2.86681 0.287379 4.68211
2.85811 0.290977 4.72213
2.84549 0.294726 4.77218
2.84203 0.300779 4.84312
2.78895 0.333531 5.22909
2.76965 0.341907 5.32112
2.75833 0.349247 5.41111
2.69824 0.382959 5.79412
2.68134 0.396117 5.93907
2.66123 0.405878 6.0571
2.64909 0.41656 6.17004
2.62702 0.427396 6.29307
2.60627 0.442838 6.45702
2.59094 0.450167 6.54604
2.57256 0.457394 6.62808
2.57591 0.462057 6.67299
2.56926 0.466758 6.71998
2.54787 0.472957 6.80006
2.54129 0.478776 6.85503
2.53469 0.483565 6.90802
2.52093 0.486049 6.94009
2.51668 0.495517 7.03899
2.50705 0.500249 7.088
2.49742 0.503967 7.13603
3.37818 0.0798991 1.16084
3.36824 0.0800248 1.16892
3.37134 0.0802299 1.18289
3.36585 0.0832258 1.2499
3.36108 0.0846734 1.27992
3.35024 0.0849923 1.301
3.34451 0.0865294 1.33702
3.35258 0.0876715 1.34695
3.35167 0.0878499 1.35895
3.34576 0.088017 1.37
3.34284 0.089182 1.381
3.33903 0.0895549 1.40603
3.34028 0.0920425 1.43899
3.32632 0.0911416 1.44511
3.33245 0.0923887 1.46205
3.32979 0.0950568 1.50703
3.32588 0.0952226 1.51806
3.31805 0.0955688 1.54112
3.31915 0.0967752 1.55509
3.31625 0.096955 1.56711
3.3164 0.0982658 1.5881
3.30959 0.099626 1.61213
3.31069 0.100832 1.62611
3.30387 0.101193 1.65016
3.29795 0.101345 1.6602
3.29542 0.105265 1.72217
3.2915 0.105431 1.7332
3.25939 0.119155 1.98327
3.2585 0.120363 1.99726
3.2566 0.121571 2.01126
3.23927 0.125887 2.09934
3.24046 0.127256 2.12431
3.22415 0.132615 2.21537
3.21835 0.134019 2.2424
3.21748 0.135271 2.25939
3.20955 0.135425 2.26945
3.21289 0.139074 2.31337
3.20798 0.139255 2.32541
3.19515 0.140605 2.34849
3.20232 0.142925 2.3704
3.19642 0.143122 2.38345
3.19358 0.14445 2.40545
3.19197 0.148206 2.45641
3.18002 0.148318 2.4635
3.18519 0.14964 2.48545
3.18223 0.149731 2.49147
3.17747 0.152193 2.52247
3.17271 0.15467 2.55448
3.16983 0.154895 2.5695
3.16694 0.156119 2.5845
3.17003 0.157294 2.59647
3.16312 0.157477 2.60852
3.16628 0.159785 2.62946
3.1585 0.16122 2.6585
3.15361 0.162431 2.67252
3.14871 0.162642 2.68656
3.15382 0.16386 2.7015
3.15195 0.165098 2.7175
3.1472 0.167605 2.75151
3.14634 0.168872 2.7695
3.12951 0.17021 2.79161
3.13764 0.17147 2.80953
3.13376 0.172695 2.82454
3.12383 0.172851 2.83462
3.12413 0.176428 2.87357
3.11823 0.176639 2.88761
3.12141 0.178977 2.91055
3.11645 0.179055 2.91559
3.11357 0.180294 2.9316
3.11574 0.181633 2.95456
3.11086 0.182873 2.97058
3.10194 0.183042 2.98165
3.11117 0.18648 3.01153
3.09923 0.186607 3.01962
3.10233 0.187797 3.03258
3.10451 0.189136 3.05555
3.09257 0.189263 3.06364
3.08971 0.190546 3.08264
3.09188 0.192885 3.1056
3.08801 0.19414 3.12261
3.08717 0.195451 3.1436
3.07935 0.196812 3.16764
3.07751 0.199109 3.18762
3.07279 0.201675 3.22563
3.06892 0.20293 3.24264
3.0691 0.20527 3.26561
3.06817 0.205419 3.27561
3.06028 0.206632 3.28966
3.06163 0.210311 3.3356
3.05794 0.213936 3.37758
3.05409 0.21522 3.39659
3.05216 0.215354 3.40561
3.04932 0.217667 3.4266
3.04444 0.218922 3.44362
3.03674 0.221505 3.48264
3.03591 0.223846 3.50562
3.02344 0.228877 3.57464
3.01877 0.232531 3.61863
3.00653 0.24002 3.71863
3.00087 0.24469 3.76361
2.98613 0.246204 3.7977
2.98946 0.250853 3.84161
2.98462 0.252168 3.86263
2.97595 0.25581 3.90565
2.97313 0.257168 3.92965
2.96524 0.258395 3.9447
2.97042 0.260732 3.96763
2.96557 0.262046 3.98865
2.95973 0.264347 4.00866
2.95489 0.265661 4.02968
2.95512 0.26812 4.06065
2.95129 0.270448 4.08264
2.94343 0.271735 4.10169
2.94859 0.274042 4.12262
2.93692 0.276687 4.16567
2.93614 0.280131 4.19563
2.92727 0.28139 4.21268
2.91965 0.285135 4.26269
2.91799 0.288788 4.30665
2.9152 0.291204 4.33464
2.91139 0.293577 4.35964
2.9038 0.298381 4.41363
2.89999 0.300769 4.43963
2.78886 0.36929 5.21256
2.76667 0.37889 5.3196
2.766 0.382542 5.36356
2.75553 0.389585 5.43354
2.73812 0.396752 5.51158
2.73747 0.400419 5.55653
2.72869 0.402869 5.58657
2.72194 0.406348 5.61857
2.71519 0.408856 5.65259
2.707 0.41943 5.75851
2.70231 0.423041 5.7995
2.68846 0.424347 5.81958
2.68377 0.428957 5.86056
2.68011 0.432626 5.90554
2.67157 0.43852 5.96552
2.66893 0.443232 6.01348
2.66121 0.44677 6.04949
2.5942 0.48365 6.4435
2.59083 0.491896 6.52742
2.57144 0.500094 6.60745
2.5699 0.505983 6.66739
2.55307 0.507335 6.6905
2.54848 0.513138 6.74445
2.54874 0.516641 6.7784
2.53806 0.52027 6.82044
2.53041 0.524971 6.86743
2.5228 0.529732 6.91842
2.51315 0.534419 6.96443
2.86796 0.346639 4.56421
2.84516 0.360993 4.72219
2.83256 0.365772 4.77422
2.83619 0.374998 4.85707
2.81462 0.379857 4.91417
2.80407 0.384753 4.97418
2.80438 0.389344 5.01412
2.78691 0.395393 5.08417
2.75859 0.416699 5.3061
2.75082 0.420149 5.33611
2.74609 0.42367 5.3711
2.74541 0.427307 5.41406
2.73359 0.429656 5.43711
2.72313 0.436714 5.5081
2.72027 0.437998 5.5271
2.7186 0.442635 5.57005
2.71592 0.447259 5.61201
2.70512 0.449666 5.63906
2.69123 0.463837 5.78497
2.68654 0.468447 5.82595
2.67373 0.469826 5.85103
2.66904 0.474437 5.892
2.66538 0.479105 5.93696
2.65666 0.482644 5.97298
2.65526 0.490814 6.05188
2.6445 0.493296 6.08393
2.63984 0.497965 6.1289
2.63214 0.502563 6.1689
2.62545 0.506174 6.2099
2.61571 0.509685 6.24393
2.61212 0.515471 6.29688
2.6154 0.519017 6.3338
2.60568 0.522586 6.37183
2.59801 0.527228 6.41483
2.5883 0.530797 6.45285
2.5837 0.536585 6.50581
2.57807 0.541314 6.55479
2.56532 0.544797 6.58684
2.56864 0.548416 6.62876
2.55996 0.553059 6.67177
2.55438 0.558877 6.72673
2.54674 0.563578 6.77372
2.53401 0.56712 6.80977
2.52434 0.571778 6.85378
2.51775 0.577567 6.90675
2.51905 0.581158 6.9467
2.50941 0.585861 6.9937
2.50282 0.591679 7.04868
3.3563 0.125088 1.17234
3.35845 0.126382 1.19231
3.35553 0.126547 1.20333
3.35964 0.127766 1.21828
3.3497 0.127892 1.22636
3.34201 0.129505 1.2674
3.34914 0.130736 1.28333
3.33638 0.131234 1.31642
3.33849 0.13244 1.33039
3.3317 0.133859 1.35842
3.3318 0.134052 1.37142
3.32789 0.135232 1.38343
3.32497 0.135397 1.39446
3.33511 0.137656 1.41235
3.3183 0.137039 1.43749
3.31448 0.138397 1.4615
3.31458 0.139589 1.47448
3.31875 0.140927 1.49743
3.30781 0.141038 1.50452
3.3069 0.141231 1.51752
3.305 0.142425 1.53052
3.30611 0.142632 1.54451
3.31224 0.144879 1.56143
3.30435 0.145107 1.57649
3.30145 0.145301 1.58951
3.29954 0.14648 1.60151
3.29965 0.147687 1.6155
3.29373 0.147854 1.62654
3.28981 0.14802 1.63757
3.30096 0.150308 1.65745
3.29298 0.149344 1.65953
3.29008 0.150538 1.67253
3.2942 0.151772 1.68849
3.28035 0.152078 1.70859
3.28447 0.153312 1.72454
3.27755 0.153465 1.73459
3.28464 0.154637 1.74652
3.27972 0.154804 1.75756
3.27379 0.154956 1.7676
3.27592 0.156192 1.78357
3.28407 0.158482 1.80348
3.27915 0.158648 1.81451
3.2672 0.15876 1.8216
3.2763 0.159946 1.83452
3.27139 0.161113 1.84554
3.26748 0.161308 1.85857
3.27262 0.162571 1.87651
3.26268 0.162696 1.88459
3.25576 0.162849 1.89464
3.25687 0.164071 1.90962
3.26195 0.16523 1.92056
3.25503 0.165383 1.93061
3.25514 0.166605 1.9456
3.25426 0.167827 1.96059
3.24733 0.167981 1.97064
3.24543 0.168174 1.98365
3.24756 0.170424 2.0006
3.23957 0.16946 2.00268
3.24673 0.171765 2.02359
3.23188 0.172072 2.0437
3.24407 0.174419 2.06758
3.22922 0.174726 2.08769
3.2333 0.175886 2.09864
3.22638 0.176039 2.1087
3.22059 0.178457 2.13671
3.21969 0.178665 2.15071
3.22183 0.18093 2.16867
3.22195 0.182167 2.18465
3.21497 0.181202 2.18672
3.21107 0.182412 2.20073
3.20515 0.182579 2.21177
3.20327 0.183802 2.22677
3.20339 0.185039 2.24275
3.20352 0.18629 2.25974
3.20269 0.187631 2.28273
3.20484 0.189911 2.30168
3.19691 0.190065 2.31174
3.191 0.190232 2.32278
3.19616 0.192554 2.34471
3.18736 0.193945 2.37076
3.18642 0.194064 2.37877
3.17487 0.198946 2.43779
3.17096 0.199141 2.45082
3.17318 0.201554 2.47877
3.16928 0.202764 2.49278
3.16539 0.203974 2.5068
3.16049 0.204185 2.52083
3.15774 0.206676 2.55382
3.15506 0.210299 2.59579
3.12151 0.224151 2.78687
3.10248 0.234059 2.91488
3.09504 0.24016 2.98886
3.09326 0.24259 3.01784
3.07313 0.252307 3.13286
3.06926 0.253561 3.14988
3.07144 0.255915 3.17383
3.06455 0.256127 3.18788
3.06068 0.258382 3.20488
3.05984 0.259708 3.22687
3.05397 0.260949 3.24289
3.05404 0.262097 3.25288
3.05219 0.263394 3.27288
3.05136 0.26572 3.29485
3.05557 0.268132 3.32279
3.04364 0.268274 3.33188
3.03693 0.271841 3.36988
3.04106 0.27409 3.38682
3.04022 0.275401 3.40781
3.03334 0.276643 3.42384
3.02646 0.277885 3.43988
3.02462 0.280197 3.46086
3.02379 0.281523 3.48285
3.01691 0.282765 3.49889
3.02508 0.286099 3.52178
3.01214 0.285227 3.52989
3.01233 0.287597 3.55486
3.0105 0.289924 3.57684
3.00665 0.292223 3.59684
3.00079 0.293493 3.61486
2.99795 0.294821 3.63687
3.00107 0.297041 3.65181
3.00429 0.299482 3.68176
2.99137 0.29964 3.69185
2.98954 0.301982 3.71484
2.99277 0.305423 3.74477
2.98287 0.305623 3.75784
2.98005 0.30798 3.78183
2.9842 0.310258 3.80077
2.97328 0.310429 3.81185
2.96742 0.312714 3.83086
2.97066 0.315171 3.8618
2.96178 0.316414 3.87786
2.96199 0.319813 3.90481
2.96018 0.3222 3.93079
2.95927 0.323378 3.94278
2.95849 0.325793 3.97075
2.95163 0.327079 3.98979
2.94577 0.328365 4.00882
2.94196 0.330722 4.03281
2.94015 0.333094 4.0578
2.93341 0.336617 4.0928
2.93768 0.340146 4.12872
2.92781 0.34139 4.14478
2.92601 0.344791 4.17175
2.92422 0.347207 4.19973
2.91267 0.352088 4.25875
2.90381 0.353361 4.2768
2.90101 0.356763 4.30377
2.90226 0.36025 4.33672
2.89442 0.361567 4.35776
2.89061 0.36394 4.38276
2.88985 0.367414 4.41472
2.88795 0.368593 4.42671
2.88517 0.371039 4.4567
2.88037 0.373427 4.48271
2.87251 0.375714 4.50174
2.87075 0.378174 4.53272
2.87002 0.382692 4.56766
2.86623 0.385109 4.59566
2.86333 0.386304 4.60866
2.86562 0.389865 4.6466
2.85677 0.392182 4.66763
2.84792 0.39347 4.68668
2.84718 0.396988 4.72164
2.83935 0.399319 4.74367
2.83458 0.401767 4.77367
2.8408 0.405191 4.80258
2.83096 0.407509 4.82362
2.82819 0.40997 4.85461
2.82849 0.414547 4.89355
2.81763 0.415836 4.91261
2.81387 0.419298 4.94359
2.8081 0.421746 4.97361
2.81028 0.425099 4.99754
2.80449 0.427518 5.02555
2.80074 0.431009 5.05854
2.79295 0.433414 5.08556
2.78717 0.435862 5.11557
2.78446 0.440412 5.15253
2.77462 0.441745 5.17459
2.77512 0.448706 5.23949
2.76834 0.452155 5.2695
2.76157 0.454604 5.29951
2.75784 0.459125 5.33448
2.74701 0.460473 5.35754
2.74431 0.465052 5.3965
2.74956 0.468537 5.42942
2.7428 0.472015 5.46142
2.73604 0.474494 5.49344
2.7293 0.477987 5.52644
2.72357 0.481524 5.56244
2.71681 0.485002 5.59444
2.70906 0.488496 5.62745
2.70657 0.495489 5.69438
2.70086 0.500056 5.73236
2.69616 0.503636 5.77135
2.69147 0.508247 5.81232
2.68169 0.510698 5.84236
2.676 0.515294 5.88234
2.67722 0.518722 5.91128
2.67254 0.523347 5.95326
2.6648 0.52687 5.98827
2.65709 0.530438 6.02628
2.6514 0.535049 6.06726
2.64675 0.539719 6.11223
2.64005 0.543315 6.15223
2.62024 0.560653 6.30915
2.61153 0.564222 6.34717
2.60486 0.568863 6.39015
2.59515 0.573432 6.42816
2.57647 0.592036 6.60305
2.56472 0.595518 6.6351
2.55809 0.600248 6.68408
2.55455 0.607153 6.74502
2.55072 0.609481 6.76701
2.51817 0.630331 6.95798
2.49683 0.639634 7.04501
2.49465 0.651234 7.15287
3.36141 0.150274 1.18493
3.3605 0.151452 1.19692
3.36261 0.152658 1.21089
3.35769 0.152824 1.22193
3.35171 0.151873 1.22499
3.35683 0.153091 1.23993
3.34789 0.153231 1.249
3.35702 0.155476 1.2659
3.34508 0.154589 1.273
3.35521 0.156847 1.2909
3.33724 0.15492 1.29506
3.34943 0.157281 1.31994
3.33949 0.157407 1.32801
3.33558 0.157587 1.34004
3.33467 0.157766 1.35205
3.3418 0.160012 1.36896
3.3419 0.161204 1.38194
3.32297 0.159366 1.39212
3.33332 0.164025 1.43698
3.31544 0.16329 1.45412
3.32553 0.16446 1.46603
3.32363 0.165639 1.47803
3.32675 0.166873 1.49399
3.31881 0.167012 1.50305
3.313 0.167372 1.52709
3.31315 0.168668 1.54707
3.31336 0.171082 1.57504
3.31346 0.172275 1.58802
3.30051 0.171388 1.59514
3.2976 0.171568 1.60716
3.30574 0.173828 1.62506
3.29686 0.174071 1.64113
3.29696 0.175279 1.65511
3.29607 0.175487 1.66912
3.29517 0.17668 1.68211
3.2864 0.17813 1.71216
3.2855 0.179338 1.72615
3.28862 0.180573 1.74211
3.27767 0.179684 1.74921
3.28482 0.18196 1.76812
3.28292 0.183169 1.78212
3.27298 0.182295 1.79021
3.28007 0.184452 1.80112
3.27214 0.183606 1.8112
3.26723 0.184772 1.82222
3.27538 0.187062 1.84213
3.26656 0.187424 1.86619
3.26092 0.191139 1.91418
3.25914 0.192555 1.94218
3.25435 0.194972 1.97019
3.2544 0.195076 1.97718
3.25073 0.197715 2.02018
3.24393 0.20012 2.0472
3.24304 0.200328 2.0612
3.23429 0.202823 2.09424
3.23453 0.205296 2.1262
3.22874 0.206715 2.15423
3.22691 0.209042 2.17621
3.2191 0.210432 2.20225
3.21735 0.212907 2.23424
3.2125 0.214207 2.25426
3.20495 0.2181 2.31426
3.19917 0.220534 2.34327
3.20125 0.22068 2.35326
3.19434 0.221863 2.36529
3.19083 0.226828 2.43026
3.18022 0.230605 2.48229
3.17547 0.233082 2.51429
3.1756 0.234348 2.53227
3.16688 0.236903 2.56931
3.16702 0.239169 2.58727
3.16515 0.240422 2.60427
3.15132 0.240772 2.62737
3.15651 0.244124 2.65129
3.15355 0.244215 2.65731
3.15183 0.246764 2.69429
3.14995 0.249002 2.71027
3.14305 0.249199 2.72333
3.13916 0.250424 2.73834
3.13248 0.254051 2.78034
3.13565 0.255374 2.8023
3.12976 0.256585 2.81633
3.12501 0.259092 2.85033
3.12222 0.261494 2.87732
3.10702 0.271074 2.98331
3.07386 0.291694 3.22629
3.03765 0.312213 3.46229
2.98988 0.339584 3.75528
2.98251 0.347833 3.83923
3.37121 0.17285 1.15652
3.36539 0.173194 1.17956
3.36061 0.174642 1.20958
3.36171 0.175834 1.22256
3.3608 0.176012 1.23456
3.35387 0.17615 1.24361
3.35497 0.177342 1.25659
3.35206 0.177522 1.26861
3.35015 0.178701 1.28061
3.34618 0.177763 1.28465
3.34628 0.178955 1.29764
3.33835 0.179094 1.3067
3.33854 0.180479 1.33268
3.34065 0.181685 1.34665
3.34276 0.18289 1.36061
3.33979 0.182967 1.36564
3.33889 0.18316 1.37864
3.33698 0.184339 1.39064
3.33507 0.184518 1.40265
3.33316 0.185697 1.41465
3.33326 0.185889 1.42765
3.33136 0.187083 1.44065
3.3305 0.188365 1.45964
3.32157 0.187505 1.46872
3.32469 0.189724 1.48367
3.32278 0.189903 1.49568
3.31584 0.190042 1.50473
3.31309 0.191532 1.53773
3.30326 0.192865 1.55979
3.30246 0.194251 1.58578
3.2986 0.195535 1.60479
3.30171 0.196754 1.61975
3.2959 0.198129 1.64478
3.29701 0.199335 1.65876
3.29236 0.202019 1.70476
3.29146 0.203227 1.71875
3.28554 0.20338 1.72879
3.27772 0.203741 1.75285
3.28184 0.205975 1.76879
3.28 0.207287 1.78979
3.27508 0.207453 1.80082
3.2743 0.209868 1.8288
3.27251 0.212284 1.85678
3.26475 0.213763 1.88882
3.26486 0.214985 1.9038
3.25693 0.215124 1.91286
3.25906 0.216374 1.92983
3.25113 0.216513 1.93889
3.2542 0.217659 1.94885
3.25342 0.220089 1.97782
3.24383 0.222895 2.03186
3.24389 0.224014 2.03984
3.23295 0.22314 2.04794
3.2401 0.225431 2.06786
3.23922 0.226654 2.08285
3.2333 0.227821 2.09387
3.23544 0.229085 2.11184
3.22781 0.232816 2.16085
3.21888 0.232956 2.16992
3.22001 0.234207 2.18689
3.21912 0.23543 2.20188
3.21422 0.235626 2.21492
3.21529 0.236758 2.2239
3.2105 0.239176 2.2519
3.21163 0.240441 2.26988
3.20295 0.24307 2.31191
3.2 0.24416 2.31791
3.1951 0.244356 2.33095
3.19522 0.245593 2.34693
3.19435 0.246845 2.36392
3.19548 0.249096 2.38088
3.18869 0.25053 2.40992
3.18976 0.251663 2.41889
3.18688 0.252887 2.4339
3.186 0.254124 2.44989
3.1801 0.255321 2.46292
3.17519 0.255517 2.47596
3.17634 0.257797 2.49492
3.17546 0.259035 2.51091
3.17365 0.261406 2.53589
3.16486 0.262827 2.56394
3.15896 0.264024 2.57697
3.16024 0.26757 2.61391
3.1583 0.26769 2.62192
3.15642 0.268928 2.63792
3.12886 0.284761 2.82792
3.35039 0.212157 1.1761
3.34747 0.212322 1.18712
3.35158 0.213541 1.20207
3.34666 0.213692 1.21211
3.3438 0.214961 1.23011
3.34007 0.216497 1.26612
3.33725 0.217854 1.29013
3.33434 0.219034 1.30213
3.32374 0.220826 1.3552
3.32986 0.223043 1.37012
3.32901 0.22434 1.39011
3.32509 0.224506 1.40114
3.31053 0.227375 1.45921
3.31359 0.228491 1.46717
3.29904 0.23139 1.52725
3.29713 0.231569 1.53926
3.29056 0.235418 1.59626
3.282 0.239268 1.65328
3.27143 0.242119 1.71032
3.26572 0.244701 1.74933
3.25527 0.249774 1.82135
3.25247 0.252176 1.84834
3.23723 0.258667 1.94837
3.24036 0.260916 1.96531
3.2364 0.260993 1.97034
3.22781 0.264799 2.02436
3.22207 0.267321 2.05937
3.21917 0.268515 2.07238
3.21651 0.272183 2.11735
3.2116 0.272365 2.12938
3.20977 0.274692 2.15137
3.20687 0.274901 2.16539
3.19843 0.280988 2.23837
3.20353 0.283176 2.2513
3.18321 0.289538 2.34237
3.18535 0.291803 2.36033
3.17743 0.291957 2.37038
3.17656 0.293209 2.38738
3.17078 0.295642 2.41639
3.16694 0.296971 2.4384
3.16607 0.299223 2.45537
3.15653 0.304133 2.51638
3.15365 0.305357 2.53139
3.15372 0.30649 2.54037
3.14882 0.307701 2.55439
3.14594 0.308925 2.5694
3.14118 0.311402 2.6014
3.14656 0.317138 2.65128
3.1326 0.316237 2.6574
3.13476 0.318546 2.67835
3.12885 0.318728 2.6904
3.1213 0.324607 2.74938
3.12648 0.327958 2.77329
3.11554 0.327085 2.78139
3.1167 0.329394 2.80235
3.11685 0.331675 2.82132
3.11195 0.332886 2.83534
3.10917 0.335303 2.86333
3.10226 0.336485 2.87536
3.09954 0.340035 2.91233
3.08511 0.34717 2.98835
3.0883 0.349523 3.01229
3.08039 0.350721 3.02534
3.07869 0.354299 3.0643
3.07809 0.360069 3.11623
3.06716 0.360225 3.12631
3.06547 0.364833 3.16726
3.05471 0.3673 3.19831
3.0558 0.368477 3.21028
3.0489 0.369689 3.22432
3.04825 0.374355 3.26926
3.04254 0.377937 3.30826
3.03666 0.379163 3.32329
3.03372 0.380284 3.33129
3.03591 0.383667 3.35723
3.03206 0.384951 3.37624
3.02617 0.386177 3.39127
3.02149 0.390802 3.43324
3.01874 0.394292 3.46622
3.01286 0.395519 3.48124
3.008 0.397803 3.50025
2.99765 0.407083 3.5862
2.99674 0.408247 3.59719
2.99591 0.410588 3.62017
2.9852 0.414158 3.6582
2.97195 0.424633 3.75716
2.97619 0.429103 3.78907
2.96651 0.432717 3.83009
2.95378 0.436259 3.86614
2.96804 0.441751 3.89996
2.94746 0.44658 3.95505
2.94104 0.454724 4.03199
2.94137 0.46036 4.07491
2.92642 0.460475 4.08202
2.92408 0.470764 4.16889
2.91378 0.481133 4.26083
2.89681 0.480204 4.26497
2.90415 0.48685 4.30883
2.88921 0.485979 4.31695
2.88844 0.490439 4.3479
2.883 0.498523 4.42083
2.87034 0.503198 4.46586
2.86958 0.507672 4.4978
2.86478 0.51006 4.52381
2.86391 0.512312 4.54078
2.86316 0.516801 4.57373
2.86038 0.520232 4.6027
2.85154 0.522549 4.62374
2.84526 0.53396 4.71863
2.48024 0.881138 7.07657
2.6304 0.977468 6.02386
2.62268 0.983021 6.06084
2.6099 0.98646 6.08989
2.60015 0.99094 6.1219
2.59246 0.997552 6.16287
2.58679 1.00419 6.20582
2.58804 1.00968 6.23873
2.57934 1.01528 6.27872
2.56759 1.01976 6.31075
2.56295 1.02747 6.35868
2.55529 1.03414 6.40364
2.53818 1.05287 6.51951
2.53665 1.06279 6.58138
2.51522 1.07392 6.65639
2.50761 1.08168 6.70734
2.49467 1.10374 6.84613
2.48297 1.10933 6.88514
2.46777 1.12589 6.99002
2.45813 1.13359 7.03699
2.69667 0.965105 5.52948
2.68891 0.970569 5.56046
2.67505 0.971861 5.57955
2.67931 0.978346 5.61242
2.67155 0.982825 5.64442
2.66379 0.987304 5.67642
2.65503 0.992769 5.70741
2.64933 0.99835 5.74637
2.63709 1.01484 5.84623
2.62936 1.02038 5.88222
2.62266 1.02696 5.92117
2.61696 1.03254 5.96014
2.60357 1.04573 6.04006
2.59709 1.05674 6.10795
2.5904 1.06335 6.14891
2.58474 1.07102 6.19385
2.57909 1.07869 6.23878
2.57344 1.08638 6.28472
2.56035 1.10616 6.40454
2.54962 1.11169 6.43954
2.54296 1.11836 6.4845
2.53632 1.12606 6.53144
2.52662 1.13264 6.57042
2.51898 1.14034 6.61737
2.51439 1.14915 6.67128
2.51262 1.15459 6.70122
2.50702 1.16336 6.75314
2.49939 1.17109 6.80209
2.48767 1.17665 6.8391
2.48006 1.18541 6.89004
2.47143 1.19313 6.93799
2.46179 1.20083 6.98496
2.4631 1.20843 7.02584
2.45756 1.21833 7.08575
2.7424 0.972599 5.22698
2.73462 0.977019 5.25498
2.72784 0.981453 5.28397
2.72007 0.985902 5.31396
2.71653 0.996807 5.37484
2.70978 1.00129 5.40683
2.702 1.00672 5.43581
2.69933 1.01336 5.47874
2.68545 1.01562 5.49581
2.67871 1.02113 5.52978
2.68602 1.02871 5.56962
2.67318 1.03103 5.59069
2.66848 1.03761 5.62963
2.66785 1.04634 5.67851
2.65807 1.05076 5.70653
2.65134 1.0563 5.7425
2.64565 1.06391 5.78343
2.64686 1.06831 5.81036
2.63915 1.07487 5.84833
2.63752 1.08259 5.89624
2.62571 1.08698 5.92226
2.62208 1.09569 5.97017
2.61742 1.10336 6.0151
2.60869 1.10888 6.05008
2.60994 1.11436 6.082
2.59351 1.12648 6.15695
2.58887 1.13519 6.20487
2.58322 1.14286 6.2498
2.57146 1.14834 6.28181
2.56379 1.15498 6.32478
2.5681 1.16257 6.36464
2.55277 1.17789 6.45254
2.54613 1.18559 6.49948
2.53439 1.1911 6.53349
2.52777 1.19984 6.58342
2.52318 1.20964 6.63732
2.52139 1.21406 6.66527
2.51174 1.22173 6.71024
2.49444 1.2381 6.80214
2.48885 1.24691 6.85606
2.48023 1.25564 6.905
2.46854 1.26225 6.94599
2.4719 1.27095 6.99285
2.46432 1.28077 7.04777
2.45366 1.28844 7.09274
2.44712 1.29933 7.15263
3.33679 0.49458 1.20202
3.32886 0.494719 1.21108
3.32594 0.494884 1.2221
3.33507 0.498129 1.23899
3.3172 0.496394 1.25615
3.3213 0.498598 1.27009
3.32045 0.49988 1.28908
3.31954 0.501058 1.30107
3.31061 0.500198 1.31015
3.31472 0.502417 1.32509
3.31683 0.504622 1.33904
3.30588 0.502734 1.34616
3.30693 0.503837 1.35313
3.31808 0.50711 1.372
3.30011 0.505182 1.37617
3.30221 0.506388 1.39014
3.30733 0.509606 1.40505
3.29438 0.507719 1.41218
3.29448 0.508912 1.42516
3.30558 0.512096 1.43803
3.29563 0.511207 1.44512
3.29372 0.512386 1.45712
3.30186 0.515646 1.47501
3.29092 0.514773 1.48311
3.28811 0.516145 1.50811
3.28213 0.516194 1.51116
3.28524 0.517413 1.52612
3.29137 0.52066 1.54303
3.27842 0.519773 1.55014
3.27852 0.520966 1.56312
3.28666 0.524226 1.58101
3.2717 0.522311 1.58616
3.26873 0.522387 1.59118
3.27186 0.524622 1.60712
3.26694 0.524788 1.61816
3.27418 0.529242 1.64904
3.26122 0.52734 1.65517
3.25832 0.528535 1.66818
3.27243 0.532746 1.68301
3.25255 0.530998 1.69919
3.2597 0.534274 1.71809
3.25076 0.534398 1.72615
3.25388 0.536633 1.7421
3.25801 0.538881 1.75904
3.26108 0.540012 1.768
3.25515 0.540165 1.77804
3.25527 0.542387 1.79301
3.24834 0.54254 1.80306
3.24644 0.543733 1.81606
3.24957 0.545983 1.83301
3.23862 0.545094 1.8401
3.23968 0.546212 1.84808
3.24482 0.549474 1.866
3.23488 0.5486 1.87408
3.238 0.550835 1.89003
3.23209 0.551017 1.90207
3.22918 0.552196 1.91408
3.23634 0.555487 1.93398
3.23337 0.555563 1.939
3.23048 0.557772 1.95299
3.22255 0.556912 1.96207
3.21864 0.558092 1.97408
3.21775 0.5593 1.98807
3.21585 0.560508 2.00207
3.221 0.563786 2.02098
3.22207 0.564918 2.02996
3.21816 0.566099 2.04197
3.21425 0.567279 2.05399
3.21135 0.568488 2.06799
3.21047 0.569711 2.08298
3.20957 0.571919 2.09696
3.20668 0.573128 2.11097
3.20774 0.574246 2.11894
3.20284 0.575442 2.13196
3.19692 0.575609 2.14301
3.19427 0.581291 2.18895
3.18753 0.584799 2.22295
3.18867 0.587065 2.24091
3.18288 0.589483 2.26893
3.183 0.59172 2.28489
3.16685 0.604389 2.39684
3.14678 0.618209 2.51881
2.79087 0.962588 4.89072
2.78305 0.965949 4.91473
2.7793 0.97144 4.94768
2.76339 0.972614 4.95879
2.75861 0.977047 4.98776
2.76485 0.983516 5.01962
2.74994 0.983704 5.03173
2.74044 0.994672 5.09665
2.71281 1.02535 5.27643
2.69 1.05166 5.43123
2.68732 1.05929 5.47315
2.66911 1.07684 5.57704
2.6599 1.09437 5.67986
2.64909 1.09875 5.70488
2.64644 1.10643 5.75079
2.64174 1.11402 5.79072
2.634 1.11953 5.82471
2.63034 1.12719 5.86863
2.62465 1.1348 5.90956
2.62691 1.14128 5.94245
2.6202 1.14786 5.98141
2.60374 1.15993 6.05237
2.59807 1.16755 6.0943
2.59241 1.17522 6.13924
2.58266 1.18072 6.17223
2.58493 1.18723 6.20713
2.5726 1.20254 6.295
2.56287 1.20907 6.32999
2.5552 1.21671 6.37294
2.54447 1.22225 6.40894
2.53985 1.23099 6.45885
2.53652 1.24728 6.54565
2.52785 1.25492 6.58861
2.51154 1.27128 6.6795
2.50492 1.28001 6.72843
2.49729 1.28874 6.77736
2.47267 1.32144 6.95809
2.46099 1.32905 6.99907
2.45237 1.3378 7.04901
2.44171 1.34647 7.09397
3.34173 0.527425 1.1915
3.32902 0.528996 1.22958
3.29331 0.553492 1.53152
2.81297 0.96984 4.63841
2.81528 0.977429 4.67828
2.80239 0.978646 4.69237
2.79557 0.983006 4.71636
2.8018 0.988445 4.74623
2.78992 0.990691 4.76229
2.78138 1.00058 4.82222
2.7681 1.01698 4.91609
2.75467 1.0301 4.991
2.73939 1.0465 5.08489
2.73175 1.05522 5.13282
2.72904 1.06177 5.16975
2.71753 1.07274 5.23469
2.71178 1.07823 5.26765
2.70046 1.09454 5.35551
2.69473 1.10008 5.39148
2.6863 1.11419 5.46634
2.66405 1.13064 5.56328
2.66424 1.13601 5.5882
2.65687 1.15125 5.67104
2.65116 1.15781 5.70899
2.6367 1.16986 5.77893
2.63406 1.17957 5.82682
2.62654 1.19051 5.88972
2.61052 1.21441 6.0175
2.60587 1.2231 6.06342
2.59817 1.22968 6.10238
2.58968 1.24268 6.16926
2.583 1.25029 6.21021
2.57226 1.2558 6.24421
2.55894 1.27212 6.33308
2.54718 1.27761 6.36509
2.53618 1.30254 6.49483
2.51325 1.32862 6.63463
2.5097 1.33951 6.69451
2.90096 0.944914 4.10704
2.89816 0.949301 4.133
2.88726 0.951501 4.14605
2.88738 0.953738 4.16202
2.88762 0.960196 4.19293
2.87976 0.962483 4.21196
2.87089 0.964741 4.22899
2.86608 0.969099 4.25297
2.86024 0.972429 4.27496
2.85441 0.975759 4.29696
2.86264 0.982196 4.32681
2.84112 0.992144 4.38983
2.7334 1.11544 5.07991
2.6963 1.16214 5.32754
2.6725 1.19149 5.4853
2.66576 1.198 5.51926
2.66003 1.20452 5.55421
2.65532 1.21109 5.59216
2.65164 1.21971 5.63406
2.6449 1.22622 5.66802
2.63818 1.23275 5.70398
2.63939 1.23817 5.7319
2.63571 1.24679 5.7738
2.62697 1.2533 5.80778
2.62433 1.26198 5.85367
2.61761 1.26954 5.89062
2.6109 1.2761 5.92858
2.60827 1.28581 5.97646
2.59713 1.30849 6.08922
2.58433 1.31289 6.11526
2.57766 1.32053 6.1582
2.57199 1.32918 6.20212
2.56735 1.33887 6.24802
2.55889 1.35292 6.31888
2.55326 1.36264 6.36679
2.54659 1.37129 6.41072
2.53127 1.3876 6.4986
2.52359 1.39623 6.54054
2.84649 1.05378 4.43289
2.8456 1.05599 4.44686
2.84183 1.06144 4.47681
2.83499 1.06477 4.49882
2.82264 1.08102 4.58268
2.81683 1.08541 4.60866
2.80261 1.10493 4.7105
2.80087 1.11042 4.74343
2.789 1.11368 4.76048
2.78423 1.11912 4.79044
2.78742 1.12449 4.81534
2.78466 1.12997 4.84728
2.77685 1.13434 4.87228
2.77513 1.14188 4.90818
2.76834 1.1473 4.93616
2.76356 1.15273 4.96512
2.75576 1.15712 4.99112
2.75795 1.16249 5.01602
2.7532 1.16796 5.04798
2.74744 1.17443 5.07894
2.73963 1.17882 5.10493
2.73489 1.18531 5.13788
2.72914 1.1918 5.17083
2.72456 1.20262 5.22571
2.66269 1.28271 5.63405
2.80264 1.15192 4.7098
2.75118 1.21586 5.04029
3.01871 0.934538 3.27619
3.00879 0.935708 3.28725
3.00805 0.942211 3.32117
3.00217 0.944452 3.33718
3.00336 0.949821 3.36209
2.98941 0.94892 3.36821
2.99161 0.954303 3.39412
2.9918 0.958673 3.41906
2.9828 0.957679 3.41914
2.97895 0.960978 3.43912
2.97712 0.965304 3.46108
2.96658 0.9752 3.52102
2.96273 0.978498 3.541
2.9608 0.980633 3.54999
2.961 0.985032 3.57692
2.82739 1.14148 4.41073
2.78554 1.19666 4.69127
2.77974 1.20205 4.71723
2.76179 1.23011 4.85497
2.75399 1.2345 4.88097
2.75227 1.24203 4.91688
2.7465 1.24848 4.94683
2.74072 1.25391 4.97579
2.73393 1.25933 5.00377
2.73543 1.27429 5.06855
2.72763 1.27868 5.09454
2.71881 1.28304 5.11855
2.71408 1.29056 5.15348
2.71746 1.3023 5.20328
2.70257 1.30352 5.21738
2.70512 1.32058 5.28912
2.69226 1.32286 5.30719
2.6855 1.32932 5.33814
2.68789 1.34107 5.38896
2.67403 1.34336 5.40803
2.67032 1.35193 5.44594
2.66866 1.36158 5.48981
2.66376 1.36377 5.50282
2.66008 1.3734 5.54471
2.65437 1.38095 5.58165
2.6466 1.38741 5.61262
2.64598 1.39814 5.66147
2.64028 1.40672 5.70039
2.62745 1.41105 5.72243
2.97101 1.02698 3.57323
3.3892 0.698204 0.704546
3.38322 0.697267 0.708605
3.38232 0.698446 0.720596
3.37939 0.698596 0.730618
3.38759 0.702974 0.756494
3.37264 0.700089 0.763651
3.36972 0.700254 0.774672
3.37879 0.703381 0.783559
3.36703 0.702848 0.814659
3.37113 0.705038 0.827598
3.3652 0.70519 0.837642
3.36028 0.704342 0.847693
3.37436 0.709494 0.858512
3.36041 0.706608 0.865661
3.35075 0.708266 0.909715
3.3579 0.712557 0.9296
3.359 0.713749 0.942576
3.35407 0.7139 0.952612
3.32169 0.729077 1.16566
3.31284 0.729394 1.18673
3.31896 0.732611 1.20163
3.32307 0.73483 1.21657
3.3051 0.731903 1.22075
3.30032 0.734336 1.24976
3.30946 0.738595 1.26763
3.31357 0.740799 1.28156
3.30372 0.741117 1.30264
3.30277 0.742207 1.30863
3.30096 0.744578 1.33361
3.30307 0.746784 1.34756
3.29313 0.745909 1.35565
3.2872 0.746062 1.3657
3.29935 0.751334 1.38453
3.29538 0.750396 1.38857
3.28845 0.750549 1.39863
3.29458 0.753796 1.41553
3.29167 0.754961 1.42654
3.28473 0.754099 1.43561
3.27992 0.756458 1.45961
3.27314 0.758907 1.48963
3.27144 0.763485 1.52858
3.2726 0.766795 1.54953
3.26086 0.769307 1.58358
3.26096 0.771514 1.59755
3.25705 0.771694 1.60958
3.26218 0.774942 1.62649
3.25621 0.774991 1.62954
3.25742 0.778404 1.65748
3.24949 0.778543 1.66654
3.24156 0.777697 1.67662
3.25172 0.782986 1.69646
3.25082 0.785178 1.70944
3.24607 0.78867 1.74243
3.23512 0.787782 1.74952
3.23836 0.793238 1.78042
3.23361 0.79673 1.81341
3.22289 0.800285 1.85045
3.22601 0.80352 1.86638
3.22216 0.805818 1.88637
3.22127 0.808026 1.90035
3.20575 0.813985 1.96439
3.18393 0.835279 2.11826
3.18235 0.844094 2.17315
3.16888 0.853139 2.24312
3.10022 0.919683 2.68172
3.09144 0.923119 2.71074
3.09159 0.9264 2.72969
3.0908 0.931814 2.75762
3.08693 0.934054 2.77362
3.08808 0.938349 2.79355
3.07427 0.940729 2.81862
3.06248 0.944152 2.84666
3.06271 0.949595 2.87658
2.89576 1.14429 3.92811
2.77286 1.31016 4.72369
2.73556 1.35746 4.9443
3.14405 0.917372 2.39238
3.14015 0.918567 2.4054
3.13632 0.92191 2.42838
3.13242 0.924105 2.44138
3.13557 0.928398 2.46129
3.12061 0.926484 2.46643
3.12075 0.92975 2.48439
3.11785 0.931959 2.49838
3.11289 0.932036 2.50341
3.10611 0.935471 2.53242
3.15139 0.94803 2.30186
3.14849 0.949239 2.31587
3.15063 0.953504 2.33379
3.14083 0.956896 2.35982
3.13097 0.958169 2.37787
3.13714 0.96349 2.39975
3.12619 0.962602 2.40685
3.13337 0.968951 2.4307
3.1276 0.973399 2.46069
3.12263 0.972462 2.46474
3.12075 0.9757 2.48071
3.10881 0.974813 2.48781
3.11599 0.981162 2.51166
3.10606 0.980303 2.52075
3.10519 0.983555 2.53771
3.09272 0.995599 2.60764
3.08213 1.00441 2.6616
3.04307 1.04918 2.91426
3.01089 1.09472 3.15186
2.99544 1.1078 3.2238
3.00056 1.11203 3.2397
2.9967 1.11531 3.25868
2.99487 1.11962 3.27963
2.99 1.12288 3.29662
2.98613 1.12615 3.31461
2.99137 1.1346 3.34545
2.98044 1.13474 3.35453
2.98457 1.13899 3.37144
2.97971 1.14226 3.38943
2.97017 1.15416 3.44933
2.97237 1.16055 3.47622
2.96853 1.16485 3.49619
2.96579 1.17236 3.53011
2.949 1.17578 3.55819
2.95222 1.18321 3.58706
2.94435 1.18545 3.60308
2.94555 1.19185 3.62998
2.94565 1.19504 3.64294
2.9408 1.19834 3.66293
2.941 1.20473 3.68884
2.93313 1.20697 3.70486
2.92726 1.21024 3.72286
2.92242 1.21454 3.74284
2.92262 1.22094 3.76975
2.91969 1.22207 3.77875
2.91486 1.2274 3.80071
2.91001 1.2307 3.8207
2.91124 1.23814 3.85059
2.90438 1.2414 3.86759
2.89751 1.24467 3.8856
2.89773 1.2511 3.91451
2.89279 1.25221 3.92153
2.88212 1.26085 3.96449
2.87829 1.26619 3.98744
2.87751 1.27261 4.01536
2.87065 1.27589 4.03436
2.86582 1.28022 4.05634
2.86391 1.2834 4.06831
2.87124 1.29402 4.1101
2.86135 1.29725 4.12513
2.85248 1.2995 4.14216
2.85273 1.30698 4.17405
2.85196 1.31442 4.20395
2.84726 1.32402 4.24385
2.84447 1.32942 4.2708
2.84068 1.33582 4.29774
2.8389 1.34225 4.32666
2.83612 1.34966 4.35457
2.82018 1.34879 4.36271
2.82043 1.35728 4.39558
2.82158 1.36258 4.4155
2.81677 1.36795 4.44046
2.81805 1.37648 4.47633
2.80617 1.37971 4.49137
2.80441 1.38719 4.52328
2.7986 1.39255 4.54725
2.79686 1.40005 4.58115
2.79801 1.40534 4.60107
2.78944 1.41818 4.65695
2.78061 1.42251 4.67896
2.77481 1.4289 4.70491
2.77104 1.43534 4.73485
2.76626 1.44278 4.76378
2.76844 1.44912 4.78667
2.76165 1.45453 4.81465
2.7528 1.45884 4.83465
2.75007 1.46734 4.86855
2.73921 1.47063 4.88759
2.73141 1.47602 4.91357
2.72665 1.48348 4.9445
2.72036 1.50585 5.03623
3.30412 0.840803 1.21315
3.30121 0.841968 1.22415
3.29241 0.843374 1.2512
3.2915 0.844552 1.26319
3.2916 0.846744 1.27616
3.28868 0.846909 1.28718
