2.69323 0.726776 5.90936
2.6855 0.731299 5.94436
2.68083 0.736954 5.98831
2.6721 0.741478 6.02332
2.66664 0.750532 6.09423
2.65791 0.755071 6.13024
2.65123 0.760683 6.17121
2.64558 0.767367 6.21716
2.63787 0.77195 6.25616
2.62918 0.777548 6.29614
2.62682 0.788793 6.38001
2.61813 0.794406 6.42099
2.6084 0.798945 6.45701
2.59974 0.804603 6.50099
2.5941 0.811317 6.54894
2.58747 0.817032 6.59691
2.58774 0.822549 6.63184
2.57806 0.828178 6.67383
2.56633 0.832719 6.70986
3.4042 0.243116 0.765453
3.4103 0.245303 0.778376
3.40939 0.245482 0.790382
3.40342 0.245545 0.794427
3.40351 0.245723 0.806425
3.40268 0.247064 0.829414
3.39876 0.247215 0.839443
3.40509 0.250862 0.883347
3.39023 0.250154 0.902472
3.38449 0.250662 0.936513
3.38454 0.25175 0.942497
3.38463 0.251928 0.954496
3.38271 0.253092 0.965494
3.37195 0.253574 0.997573
3.36817 0.255006 1.02658
3.36726 0.255184 1.03859
3.36334 0.255335 1.04862
3.36644 0.25654 1.06258
3.36362 0.257883 1.08558
3.36668 0.258999 1.09355
3.35674 0.258125 1.10163
3.35984 0.25933 1.1156
3.35693 0.260494 1.1266
3.36003 0.261699 1.14056
3.35009 0.260825 1.14865
3.35319 0.262015 1.16161
3.35224 0.262105 1.16762
3.34631 0.262257 1.17766
3.3454 0.263435 1.18965
3.34249 0.2636 1.20067
3.34861 0.265833 1.2166
3.34277 0.266163 1.23864
3.34182 0.266252 1.24465
3.34493 0.268457 1.25859
3.34001 0.268624 1.26963
3.33308 0.267762 1.27869
3.3392 0.269994 1.29462
3.3413 0.2712 1.30859
3.33036 0.270326 1.31668
3.33142 0.271429 1.32366
3.33152 0.272622 1.33664
3.33261 0.272813 1.34963
3.31967 0.271927 1.35674
3.3308 0.275185 1.37461
3.32187 0.274325 1.3837
3.32398 0.27553 1.39766
3.32302 0.27662 1.40366
3.31619 0.27695 1.42571
3.32433 0.280211 1.4436
3.32242 0.28039 1.45561
3.3175 0.280556 1.46665
3.3166 0.281749 1.47964
3.31364 0.281825 1.48466
3.3047 0.280951 1.49274
3.30982 0.283184 1.50867
3.30088 0.282323 1.51775
3.304 0.284543 1.5327
3.30711 0.285763 1.54766
3.29417 0.284876 1.55477
3.30125 0.287033 1.56569
3.30245 0.289432 1.59265
3.29954 0.289612 1.60467
3.29273 0.290972 1.6287
3.28479 0.291111 1.63776
3.28082 0.291173 1.64179
3.28998 0.293463 1.66169
3.2941 0.295696 1.67763
3.28717 0.29585 1.68768
3.28628 0.297057 1.70167
3.28738 0.298264 1.71565
3.28549 0.299472 1.72965
3.26946 0.296425 1.72581
3.2747 0.299895 1.75772
3.26979 0.301076 1.76975
3.26699 0.302463 1.79575
3.25907 0.302617 1.80581
3.25923 0.304927 1.82678
3.26738 0.307217 1.84668
3.25956 0.308578 1.87073
3.25364 0.308746 1.88177
3.25576 0.310981 1.89772
3.24678 0.310017 1.8998
3.25504 0.314529 1.93468
3.2441 0.313641 1.94178
3.24119 0.314835 1.95478
3.25035 0.317139 1.97568
3.23439 0.316225 1.98082
3.23669 0.3198 2.01975
3.22575 0.319927 2.02783
3.23592 0.323245 2.04971
3.23201 0.32444 2.06273
3.22308 0.32358 2.07181
3.2342 0.326794 2.08668
3.23331 0.328016 2.10167
3.21935 0.327116 2.10779
3.22751 0.33042 2.12868
3.22261 0.330616 2.14172
3.22173 0.331839 2.15671
3.22386 0.334089 2.17366
3.21789 0.334152 2.1777
3.20707 0.335516 2.20177
3.20719 0.336752 2.21775
3.20429 0.337947 2.23076
3.21146 0.341282 2.25366
3.20051 0.340394 2.26075
3.20762 0.342596 2.27467
3.19667 0.341707 2.28177
3.20083 0.345 2.30169
3.19392 0.345183 2.31374
3.18398 0.345309 2.32181
3.18813 0.347601 2.34175
3.18323 0.347798 2.35479
3.19436 0.351056 2.37266
3.19046 0.352251 2.38567
3.18858 0.353474 2.40067
3.17488 0.356076 2.44074
3.17702 0.358356 2.45969
3.17608 0.359475 2.46768
3.1732 0.360699 2.48269
3.17635 0.362993 2.50263
3.16642 0.363133 2.51171
3.16052 0.36433 2.52474
3.16468 0.366638 2.54567
3.15274 0.366765 2.55376
3.15683 0.367939 2.56572
3.15596 0.370192 2.58269
3.15207 0.371416 2.59771
3.1512 0.372669 2.6147
3.15148 0.377216 2.65163
3.13953 0.376328 2.65874
3.1386 0.377462 2.66773
3.14176 0.379771 2.68867
3.1409 0.382038 2.70665
3.13298 0.382206 2.71771
3.13917 0.385572 2.74261
3.13629 0.38781 2.7586
3.12737 0.387965 2.76867
3.12659 0.391395 2.79763
3.12401 0.397225 2.85357
3.11408 0.397366 2.86264
3.12129 0.40076 2.88954
3.11229 0.399781 2.89063
3.10741 0.402007 2.90563
3.11562 0.405415 2.93352
3.10167 0.404514 2.93964
3.10485 0.407867 2.96357
3.10299 0.410135 2.98156
3.0981 0.41136 2.99658
3.10019 0.412536 3.00854
3.09245 0.416045 3.04256
3.09176 0.420652 3.0835
3.08587 0.421864 3.09753
3.07797 0.423062 3.11057
3.08528 0.428663 3.15144
3.07737 0.428847 3.1635
3.07082 0.435725 3.22245
3.06795 0.437993 3.24044
3.06501 0.438114 3.24846
3.05948 0.445035 3.31041
3.05378 0.449616 3.34939
3.04799 0.453035 3.37739
3.04918 0.455389 3.40135
3.03862 0.462255 3.45933
3.03072 0.463468 3.47338
3.03495 0.466909 3.5033
3.02917 0.470342 3.5323
3.02432 0.472627 3.5513
3.01782 0.479608 3.61726
3.01407 0.484099 3.65022
2.99789 0.496709 3.75817
2.99506 0.499037 3.78016
2.99032 0.503558 3.81514
2.98143 0.503772 3.8292
2.976 0.513885 3.9041
2.96238 0.518635 3.95414
2.94831 0.534465 4.07703
2.94844 0.535702 4.09301
2.93239 0.551563 4.21792
2.92656 0.553908 4.24093
2.91146 0.568665 4.35884
2.90564 0.572024 4.38284
2.89614 0.580007 4.4488
2.86701 0.611653 4.69359
2.85265 0.621907 4.77755
2.85177 0.624144 4.79353
2.847 0.627591 4.82352
2.82687 0.642308 4.93847
2.82008 0.645727 4.96647
2.81749 0.653513 5.01938
2.80868 0.655889 5.04442
2.80189 0.659308 5.07242
2.80321 0.665929 5.11432
2.79846 0.67042 5.1473
2.79674 0.674969 5.18425
2.78912 0.681714 5.23421
2.78031 0.684091 5.25924
2.76678 0.692003 5.32024
2.7661 0.69864 5.36315
2.76441 0.704233 5.40309
2.74904 0.714472 5.48606
2.74635 0.720066 5.52601
2.73757 0.724516 5.55601
2.73489 0.730125 5.59695
2.73018 0.735705 5.63591
2.72834 0.738017 5.65689
2.72159 0.74251 5.68988
2.71894 0.749178 5.73481
2.70711 0.751527 5.75787
2.70446 0.758209 5.80379
2.69774 0.762747 5.83978
2.69102 0.767299 5.87677
2.69325 0.772756 5.90768
2.68551 0.777265 5.94167
2.67517 0.788545 6.0276
2.66541 0.793025 6.05961
2.66074 0.798665 6.10257
2.65508 0.805335 6.14752
2.65529 0.808749 6.17547
2.6399 0.819929 6.25443
2.63118 0.824482 6.29143
2.62858 0.832268 6.34435
2.62192 0.838939 6.3893
2.61219 0.843464 6.42431
2.60015 0.861337 6.55016
2.59249 0.868008 6.59512
2.58485 0.873709 6.6421
2.57414 0.879279 6.68011
2.57847 0.885912 6.72298
3.41716 0.261001 0.758089
3.40417 0.25904 0.760216
3.41027 0.261228 0.77314
3.40954 0.262761 0.809128
3.40362 0.262914 0.819171
3.41172 0.265115 0.83308
3.39883 0.264332 0.84719
3.3939 0.263483 0.857241
3.39199 0.264648 0.86824
3.39509 0.265838 0.881201
3.39016 0.264989 0.891252
3.38428 0.265231 0.907295
3.38638 0.266422 0.920263
3.3975 0.26965 0.936134
3.39559 0.269814 0.947147
3.37863 0.267916 0.953304
3.39085 0.271336 0.982165
3.37786 0.26936 0.983293
3.37594 0.270525 0.994291
3.38014 0.272921 1.02123
3.36838 0.273389 1.05231
3.37564 0.276887 1.08621
3.3637 0.275014 1.09433
3.35978 0.27518 1.10536
3.36689 0.277396 1.12028
3.35207 0.277763 1.14438
3.35619 0.278982 1.15934
3.34534 0.279286 1.17942
3.34897 0.285526 1.26331
3.33503 0.28464 1.27043
3.33517 0.285921 1.28941
3.33537 0.288306 1.31538
3.33757 0.290704 1.34233
3.32773 0.291022 1.3634
3.3318 0.292152 1.37236
3.31794 0.291444 1.39147
3.32005 0.29265 1.40544
3.32151 0.298551 1.46635
3.32161 0.299744 1.47934
3.3197 0.299923 1.49135
3.31178 0.300077 1.50141
3.29691 0.299354 1.51953
3.30611 0.302732 1.54542
3.29426 0.303037 1.5655
3.30452 0.307532 1.59937
3.28824 0.31395 1.69441
3.27734 0.314166 1.70849
3.27655 0.316581 1.73646
3.27593 0.320321 1.78642
3.26421 0.322863 1.82247
3.26443 0.325292 1.85144
3.25265 0.32673 1.88051
3.26181 0.330034 1.9014
3.24796 0.330355 1.9225
3.25322 0.333854 1.95641
3.24055 0.3365 1.99947
3.22961 0.336626 2.00756
3.23286 0.340112 2.04048
3.2221 0.341594 2.07255
3.22724 0.344871 2.09146
3.22648 0.34733 2.12244
3.21797 0.353298 2.18742
3.2142 0.355745 2.21742
3.20558 0.360491 2.26742
3.20772 0.362771 2.28637
3.1998 0.362925 2.29643
3.20093 0.364176 2.31341
3.20006 0.366428 2.33038
3.18554 0.371386 2.39443
3.18466 0.373623 2.4104
3.17674 0.373777 2.42046
3.17997 0.377218 2.45039
3.15436 0.394945 2.63335
3.1468 0.400809 2.69132
3.14025 0.406702 2.75129
3.13738 0.408955 2.76828
3.1106 0.425357 2.92927
3.0876 0.438313 3.06027
3.0385 0.482001 3.44204
3.03291 0.487804 3.496
3.01549 0.496941 3.57201
3.01174 0.500433 3.60499
3.01032 0.510558 3.68086
2.99477 0.516442 3.7399
2.99789 0.518692 3.75685
2.9882 0.523291 3.79686
2.97085 0.533561 3.88185
2.96611 0.538082 3.91682
2.96027 0.540397 3.93783
2.96655 0.54594 3.97471
2.94779 0.548413 4.00582
2.95812 0.555056 4.04965
2.94275 0.56528 4.13162
2.92882 0.565424 4.14073
2.93715 0.572069 4.18457
2.93423 0.573219 4.19458
2.92434 0.574448 4.20964
2.91066 0.579079 4.25168
2.92001 0.585753 4.29752
2.91318 0.588098 4.32054
2.90431 0.590356 4.33757
2.90153 0.593773 4.36555
2.89963 0.595981 4.37953
2.89988 0.600469 4.41247
2.88597 0.600642 4.42357
2.8842 0.605102 4.45452
2.87966 0.612993 4.51445
2.87486 0.616381 4.54044
2.86892 0.617504 4.54847
2.86716 0.620979 4.58043
2.86946 0.627554 4.61932
2.85656 0.627756 4.63242
2.85481 0.632245 4.66537
2.85103 0.636677 4.69434
2.85349 0.644563 4.75421
2.84669 0.647968 4.78121
2.83582 0.650227 4.79826
2.83105 0.653674 4.82825
2.82627 0.658107 4.85723
2.82758 0.663712 4.89814
2.8208 0.667132 4.92615
2.82095 0.670427 4.9461
2.81009 0.671717 4.96516
2.80736 0.677236 5.00011
2.80666 0.682814 5.03904
2.79682 0.685132 5.06008
2.79105 0.688595 5.09107
2.78629 0.693071 5.12305
2.78849 0.697454 5.14897
2.78171 0.700888 5.17797
2.77697 0.705395 5.21195
2.76376 0.719943 5.31585
2.75903 0.724464 5.35082
2.75718 0.727747 5.36979
2.74839 0.731167 5.39781
2.74977 0.737906 5.4477
2.74504 0.743427 5.48266
2.73524 0.746834 5.50969
2.72849 0.751327 5.54268
2.72499 0.760291 5.60758
2.72233 0.766959 5.65251
2.71661 0.771511 5.68949
2.70582 0.774918 5.71653
2.69339 0.786036 5.79146
2.69277 0.792777 5.84138
2.68687 0.794973 5.85439
2.6822 0.800613 5.89735
2.67242 0.805064 5.92736
2.66878 0.811762 5.97429
2.65764 0.827427 6.08616
2.64993 0.833009 6.12514
2.64018 0.837505 6.15815
2.63351 0.843146 6.20113
2.63192 0.851946 6.25502
2.62118 0.856457 6.28903
2.61679 0.867643 6.36891
2.60912 0.874285 6.41188
2.59839 0.878825 6.4479
2.57414 0.912246 6.67762
2.56243 0.917802 6.71463
3.41927 0.288189 0.770673
3.40633 0.286317 0.778799
3.41645 0.289531 0.793677
3.40851 0.28867 0.802751
3.4076 0.288849 0.814757
3.41366 0.289948 0.821696
3.40372 0.290088 0.83077
3.40791 0.291455 0.855721
3.40299 0.291607 0.865758
3.39706 0.291759 0.875801
3.39916 0.29295 0.88877
3.39219 0.292 0.891837
3.39328 0.293191 0.904813
3.39037 0.293356 0.915834
3.39347 0.294547 0.928795
3.39356 0.294724 0.940793
3.38262 0.293851 0.948889
3.38972 0.296053 0.962805
3.39278 0.297169 0.970767
3.39087 0.297333 0.98178
3.38293 0.297472 0.990839
3.38112 0.298829 1.01484
3.38421 0.300019 1.0278
3.3813 0.300184 1.03882
3.37633 0.300247 1.04286
3.37342 0.300427 1.05488
3.3757 0.302973 1.09183
3.36576 0.302113 1.10092
3.36791 0.304393 1.11987
3.35907 0.30471 1.14093
3.36217 0.305915 1.15489
3.35725 0.306067 1.16493
3.36236 0.308285 1.17986
3.35544 0.307438 1.18993
3.35849 0.30854 1.19689
3.35959 0.309731 1.20986
3.35166 0.30887 1.21894
3.35176 0.310063 1.23192
3.35486 0.312267 1.24587
3.34392 0.311394 1.25396
3.34804 0.312613 1.26892
3.34316 0.313853 1.28494
3.34245 0.316416 1.32291
3.32994 0.320402 1.38895
3.33004 0.321595 1.40194
3.32121 0.321927 1.424
3.32527 0.323042 1.43196
3.31774 0.326966 1.49396
3.31398 0.329442 1.52596
3.30304 0.328569 1.53406
3.30525 0.331981 1.56199
3.3005 0.334458 1.594
3.29568 0.335817 1.61802
3.29209 0.339619 1.67199
3.28119 0.339834 1.68607
3.28732 0.342081 1.703
3.28162 0.345663 1.74199
3.28072 0.346871 1.75598
3.26894 0.347309 1.78507
3.26112 0.348655 1.80811
3.26636 0.353124 1.84001
3.26944 0.35427 1.84997
3.25068 0.354758 1.88211
3.25782 0.358033 1.90101
3.24889 0.357173 1.91009
3.24197 0.357326 1.92014
3.25319 0.361762 1.95
3.25029 0.362956 1.963
3.2484 0.364165 1.977
3.23254 0.364458 1.99612
3.2417 0.367762 2.017
3.2278 0.366965 2.03012
3.23419 0.373715 2.08098
3.22727 0.373883 2.09203
3.22544 0.37521 2.11403
3.22556 0.377446 2.13
3.22467 0.378669 2.14499
3.21675 0.378823 2.15505
3.20882 0.378976 2.16511
3.20592 0.380171 2.17811
3.20604 0.382408 2.19408
3.21214 0.383596 2.20702
3.21126 0.385833 2.22299
3.20535 0.386 2.23404
3.19943 0.387167 2.24507
3.20057 0.388433 2.26304
3.19264 0.388587 2.2731
3.19176 0.390824 2.28908
3.19698 0.394249 2.31799
3.19208 0.39543 2.33001
3.18818 0.39664 2.34403
3.1873 0.397878 2.36002
3.17636 0.39799 2.3671
3.1785 0.400269 2.38605
3.18159 0.401444 2.39801
3.18272 0.403695 2.41497
3.17682 0.404892 2.428
3.17205 0.407339 2.458
3.1752 0.410633 2.47793
3.16024 0.408718 2.48308
3.16634 0.410921 2.497
3.16648 0.413187 2.51497
3.16057 0.414369 2.527
3.16675 0.417705 2.5499
3.15178 0.41679 2.55503
3.16098 0.420168 2.58091
3.15507 0.421349 2.59294
3.15917 0.423539 2.60588
3.14824 0.42268 2.61498
3.15139 0.425974 2.63491
3.15355 0.428283 2.65586
3.14376 0.430704 2.6839
3.13585 0.430873 2.69496
3.14095 0.434076 2.70888
3.13304 0.434245 2.71994
3.13621 0.437583 2.74287
3.12728 0.437723 2.75193
3.12844 0.440033 2.77289
3.12254 0.441229 2.78592
3.12268 0.44351 2.80489
3.1278 0.445728 2.81982
3.12794 0.448009 2.83879
3.11499 0.447123 2.8459
3.11514 0.449419 2.86587
3.1163 0.452728 2.88681
3.10234 0.451813 2.89193
3.10956 0.456222 2.91982
3.10762 0.457341 2.92781
3.10575 0.458609 2.94581
3.1049 0.460906 2.96579
3.10606 0.464215 2.98673
3.09412 0.464343 2.99482
3.09328 0.466639 3.0148
3.09553 0.471126 3.04772
3.09468 0.473422 3.06769
3.08376 0.473578 3.07777
3.07585 0.473762 3.08983
3.08509 0.479228 3.12169
3.0792 0.48044 3.13572
3.08433 0.482688 3.15265
3.07037 0.482787 3.15875
3.07961 0.487253 3.19062
3.06767 0.487381 3.19871
3.0628 0.488636 3.21573
3.06702 0.493047 3.24364
3.05911 0.49423 3.25568
3.06231 0.497613 3.28161
3.0634 0.499804 3.29457
3.05249 0.499975 3.30565
3.04962 0.502243 3.32364
3.05586 0.506697 3.35453
3.04493 0.506839 3.36361
3.03906 0.508094 3.38064
3.03629 0.512555 3.4116
3.03648 0.515925 3.43655
3.03767 0.519294 3.4615
3.02372 0.518393 3.46762
3.02693 0.522805 3.49553
3.02208 0.525089 3.51454
3.01428 0.527495 3.54156
3.01144 0.529808 3.56255
3.01163 0.533177 3.58751
3.00577 0.535448 3.60552
3.00798 0.53986 3.63344
2.99605 0.540002 3.64253
2.99826 0.543415 3.67047
3.00038 0.54565 3.68642
2.99251 0.547893 3.70245
2.98564 0.549149 3.71948
2.98584 0.552549 3.74644
2.98199 0.555847 3.76642
2.97715 0.558162 3.78742
2.9824 0.562646 3.82032
2.97947 0.563781 3.82933
2.97059 0.565025 3.84538
2.9708 0.569424 3.87232
2.96394 0.57171 3.89134
2.95809 0.572995 3.91036
2.95729 0.577395 3.93731
2.96042 0.579645 3.95425
2.95357 0.581931 3.97327
2.95784 0.58746 4.00917
2.94592 0.587617 4.01925
2.94413 0.591033 4.04722
2.94434 0.595447 4.07516
2.9385 0.597762 4.09617
2.93783 0.604398 4.13908
2.92593 0.604599 4.15217
2.92033 0.612387 4.20511
2.9155 0.614716 4.22711
2.91676 0.620218 4.26103
2.90992 0.622534 4.28205
2.91509 0.625871 4.30496
2.90422 0.627115 4.32103
2.90748 0.632631 4.35592
2.89762 0.634904 4.37397
2.89584 0.638335 4.40293
2.88698 0.640622 4.42197
2.88218 0.64401 4.44796
2.88839 0.648405 4.47485
2.88662 0.652865 4.5058
2.87473 0.654081 4.51988
2.87397 0.658555 4.55182
2.8712 0.663001 4.58178
2.86945 0.667476 4.61373
2.86364 0.67085 4.63873
2.86479 0.673145 4.65869
2.86506 0.678677 4.69461
2.85825 0.682037 4.71861
2.84941 0.684354 4.73965
2.84563 0.688801 4.76962
2.84491 0.694334 4.80554
2.83405 0.695608 4.82361
2.84129 0.701076 4.85548
2.83651 0.705509 4.88445
2.83275 0.708985 4.91643
2.82697 0.713403 4.94442
2.82118 0.716822 4.97241
2.80932 0.719112 4.99147
2.80963 0.724703 5.03139
2.80978 0.727999 5.05134
2.80299 0.731418 5.07935
2.80026 0.736938 5.11429
2.79551 0.74143 5.14727
2.78974 0.745878 5.17725
2.78297 0.750326 5.20724
2.77821 0.753803 5.23923
2.77838 0.758129 5.26116
2.77162 0.761592 5.29217
2.77094 0.768229 5.33508
2.76823 0.773793 5.37302
2.76146 0.778242 5.40301
2.75674 0.783778 5.43897
2.74897 0.787227 5.46898
2.75017 0.791626 5.49591
2.74645 0.797176 5.53286
2.73196 0.806163 5.59885
2.72928 0.812786 5.64078
2.7205 0.817236 5.67078
2.72273 0.821678 5.7007
2.69887 0.8429 5.84959
2.68748 0.855092 5.92951
2.6696 0.87628 6.07635
2.66292 0.882906 6.11831
2.65417 0.8874 6.15131
2.64748 0.894012 6.19227
2.64307 0.905154 6.26915
2.63538 0.911766 6.31011
2.62871 0.917407 6.35308
2.61898 0.922947 6.38908
2.61334 0.929646 6.43603
2.60975 0.938447 6.48993
2.60285 0.939645 6.50297
2.60132 0.949563 6.56484
2.58855 0.954016 6.59488
2.58498 0.962847 6.65078
2.5712 0.966286 6.67984
3.3825 0.3845 0.924545
3.38268 0.386855 0.948512
3.37015 0.388783 1.01059
3.34065 0.399735 1.20867
3.33496 0.402361 1.25068
3.33405 0.403539 1.26267
3.34118 0.405786 1.27959
3.31697 0.411343 1.3837
3.30658 0.416549 1.46472
3.3097 0.417769 1.47968
3.30076 0.417894 1.48774
3.29986 0.419102 1.50174
3.29795 0.419281 1.51375
3.29906 0.421487 1.52771
3.29514 0.421653 1.53874
3.30223 0.42381 1.54965
3.28938 0.424116 1.56975
3.28367 0.426683 1.60776
3.28483 0.428993 1.62872
3.28393 0.4302 1.64271
3.28102 0.43038 1.65473
3.28314 0.432615 1.67068
3.27521 0.431755 1.67976
3.27632 0.433961 1.69372
3.28146 0.436223 1.71165
3.27548 0.435272 1.71471
3.27056 0.436439 1.72573
3.2757 0.438701 1.74366
3.26475 0.437813 1.75076
3.27804 0.443365 1.78858
3.26206 0.441422 1.79173
3.26313 0.442554 1.80071
3.26725 0.444788 1.81664
3.25742 0.445136 1.83972
3.25654 0.447358 1.85469
3.24861 0.446497 1.86377
3.2548 0.450877 1.88966
3.24096 0.451184 1.90976
3.24811 0.453489 1.93068
3.23627 0.454809 1.95175
3.24343 0.457114 1.97266
3.23455 0.458357 1.98871
3.23869 0.460621 2.00665
3.23278 0.460803 2.01869
3.23088 0.461996 2.03169
3.231 0.464233 2.04766
3.22816 0.465546 2.06867
3.22527 0.466755 2.08267
3.21533 0.466881 2.09075
3.21859 0.470382 2.12467
3.2128 0.4728 2.15269
3.21084 0.473891 2.15869
3.20794 0.475085 2.17169
3.20819 0.478573 2.20464
3.18876 0.484697 2.27971
3.17738 0.492919 2.36168
3.12136 0.533761 2.75356
3.12143 0.534894 2.76254
3.12259 0.537204 2.7835
3.11482 0.540668 2.81451
3.11412 0.545246 2.85345
3.1062 0.545415 2.86451
3.1093 0.547605 2.87746
3.10643 0.549858 2.89445
3.10458 0.552141 2.91343
3.10271 0.554408 2.93141
3.09311 0.560185 2.98341
3.0952 0.561361 2.99538
3.09334 0.563643 3.01436
3.08645 0.564856 3.0284
3.08459 0.567123 3.04638
3.07887 0.571675 3.08336
3.07802 0.573971 3.10334
3.07609 0.575106 3.11233
3.07323 0.577389 3.13132
3.07945 0.581799 3.15922
3.0665 0.580912 3.16633
3.06062 0.582153 3.18236
3.05877 0.58545 3.20232
3.05693 0.587748 3.22231
3.05902 0.589938 3.23526
3.06324 0.59435 3.26317
3.05332 0.59452 3.27424
3.05147 0.596817 3.29422
3.04459 0.598059 3.31026
3.04477 0.601399 3.33321
3.04091 0.603683 3.35221
3.03898 0.604817 3.36121
3.03613 0.607115 3.3812
3.02842 0.611683 3.41919
3.03062 0.615066 3.44513
3.02374 0.617308 3.46115
3.02485 0.618514 3.47513
3.02504 0.622884 3.50007
3.01917 0.62414 3.51709
3.01531 0.626424 3.53609
3.01753 0.630836 3.56401
3.00762 0.631036 3.57709
3.01085 0.636463 3.60599
3.00397 0.637705 3.62202
3.00205 0.638869 3.63302
2.99922 0.642196 3.65499
2.99841 0.645567 3.67995
2.99275 0.651237 3.72492
2.98689 0.653507 3.74293
2.98315 0.658028 3.7779
2.98538 0.66247 3.80782
2.97246 0.662627 3.81792
2.96863 0.664956 3.83991
2.96985 0.669384 3.86884
2.95814 0.67397 3.90787
2.96736 0.679377 3.93572
2.95061 0.681878 3.96882
2.9488 0.685249 3.99378
2.94296 0.688564 4.01478
2.93735 0.695322 4.06573
2.93746 0.697544 4.0807
2.93769 0.701988 4.11064
2.93489 0.705374 4.13661
2.92399 0.70659 4.15068
2.92524 0.711062 4.18261
2.92346 0.715507 4.21256
2.92179 0.722144 4.25548
2.91293 0.723417 4.27353
2.90811 0.726776 4.29752
2.90229 0.730135 4.32152
2.90255 0.734623 4.35445
2.89368 0.736881 4.37149
2.89381 0.739147 4.38946
2.89508 0.744664 4.42437
2.88521 0.746923 4.44141
2.88243 0.751354 4.47037
2.88067 0.755814 4.50132
2.87486 0.758188 4.52633
2.86324 0.764936 4.57633
2.86743 0.769303 4.60124
2.86264 0.773721 4.62921
2.85581 0.776051 4.65123
2.84726 0.784945 4.71117
2.83885 0.79609 4.78808
2.83103 0.799451 4.81209
2.82726 0.802898 4.84208
2.82251 0.807375 4.87405
2.80835 0.824027 4.98492
2.80562 0.828547 5.01988
2.79984 0.83298 5.04887
2.78355 0.846368 5.1418
2.77881 0.851874 5.17576
2.77897 0.855199 5.19771
2.77321 0.859662 5.2287
2.76949 0.865212 5.26565
2.76272 0.869661 5.29564
2.759 0.875211 5.33259
2.74853 0.885239 5.40153
2.75481 0.890782 5.4384
2.74704 0.895232 5.4684
2.73827 0.899682 5.4984
2.73355 0.905233 5.53536
2.72476 0.908653 5.56338
2.71904 0.914205 5.60035
2.71536 0.920814 5.64128
2.71453 0.924155 5.66424
2.70984 0.93075 5.70419
2.70413 0.936316 5.74215
2.69739 0.941839 5.77713
2.68865 0.946348 5.81113
2.67645 0.96191 5.91601
2.67177 0.968535 5.95795
3.30575 0.454827 1.48316
3.29711 0.458544 1.53118
3.29336 0.46102 1.56317
3.28955 0.463408 1.58917
3.2888 0.465897 1.62214
3.28991 0.468103 1.6361
3.27707 0.468423 1.6572
3.28018 0.469643 1.67216
3.27844 0.473148 1.70612
3.26761 0.473481 1.7282
3.27274 0.476729 1.74512
3.26502 0.479297 1.78315
3.25827 0.481775 1.81516
3.25346 0.484164 1.84117
3.25357 0.485371 1.85515
3.24671 0.486642 1.87319
3.25285 0.488919 1.89211
3.24101 0.490238 1.91318
3.23912 0.491447 1.92718
3.2394 0.494994 1.96413
3.23348 0.496162 1.97516
3.23271 0.498606 2.00513
3.22501 0.502204 2.04514
3.21448 0.508129 2.10714
3.12898 0.570966 2.69994
3.12811 0.573219 2.71692
3.12833 0.576647 2.74587
3.11194 0.585843 2.82587
3.10907 0.587097 2.84287
3.11519 0.590329 2.85878
3.11131 0.591569 2.87479
3.10441 0.592751 2.88683
3.10557 0.596061 2.90777
3.09766 0.596259 2.92083
3.09502 0.602957 2.96776
3.09114 0.604196 2.98377
3.09332 0.607535 3.00671
3.0844 0.608704 3.01776
3.08558 0.612044 3.04071
3.07968 0.613255 3.05473
3.07706 0.619997 3.10466
3.07118 0.621223 3.11969
3.07134 0.623548 3.14166
3.0715 0.626859 3.16261
3.06268 0.629206 3.18564
3.06588 0.633588 3.21156
3.05511 0.636055 3.24261
3.05933 0.640466 3.27051
3.04656 0.643934 3.30156
3.05278 0.648358 3.33046
3.04076 0.647323 3.32756
3.03791 0.649621 3.34755
3.04313 0.654046 3.37645
3.03037 0.657514 3.4075
3.03662 0.662997 3.44038
3.02569 0.663139 3.44946
3.02578 0.665316 3.46143
3.02798 0.668714 3.48836
3.01808 0.669899 3.50042
3.01441 0.675552 3.54437
3.00754 0.677809 3.56139
3.00884 0.683385 3.60031
3.00599 0.686683 3.62028
3.00013 0.688968 3.63929
2.99932 0.692324 3.66325
2.99245 0.693581 3.68029
2.99062 0.696922 3.70326
2.98981 0.701293 3.7282
2.9889 0.702456 3.73919
2.98406 0.70477 3.7602
2.98628 0.710212 3.7901
2.97739 0.711426 3.80416
2.97052 0.712683 3.82119
2.9768 0.719225 3.85805
2.96691 0.72044 3.87211
2.96499 0.721604 3.88311
2.96924 0.727089 3.916
2.96238 0.72936 3.93402
2.95755 0.732689 3.95601
2.95574 0.73606 3.98098
2.94584 0.737275 3.99504
2.94899 0.740553 4.01397
2.94719 0.74394 4.03993
2.93832 0.746197 4.05697
2.93752 0.750597 4.08391
2.93776 0.755056 4.11485
2.9309 0.757342 4.13387
2.92305 0.759629 4.1529
2.92531 0.76513 4.18681
2.92138 0.766266 4.19582
2.91958 0.770667 4.22277
2.91679 0.774083 4.25075
2.90995 0.777399 4.27175
2.90715 0.780771 4.29673
2.9074 0.786259 4.32965
2.89651 0.787489 4.34471
2.9017 0.791855 4.36961
2.89891 0.796256 4.39657
2.89006 0.797558 4.41662
2.88423 0.800888 4.43862
2.8855 0.80642 4.47453
2.87563 0.808678 4.49158
2.87387 0.813138 4.52253
2.88007 0.818533 4.54941
2.8692 0.819793 4.56647
2.86542 0.82421 4.59444
2.85961 0.827599 4.62044
2.85481 0.831987 4.64641
2.8474 0.843131 4.72331
2.8416 0.847535 4.75029
2.83783 0.851981 4.78026
2.83103 0.855371 4.80627
2.81988 0.873036 4.9181
2.81614 0.878527 4.95105
2.80731 0.880873 4.97409
2.80559 0.887407 5.01001
2.79504 0.896302 5.06997
2.78928 0.900765 5.10095
2.79045 0.90409 5.12289
2.78671 0.90961 5.15785
2.77993 0.914029 5.18583
2.77723 0.920608 5.22476
2.77145 0.925041 5.25374
2.76571 0.929549 5.28773
2.75893 0.933982 5.31672
2.76114 0.939395 5.34462
2.75742 0.944945 5.38157
2.75269 0.950466 5.41653
2.74897 0.956016 5.45348
2.74122 0.961495 5.48546
3.41113 0.444704 0.736412
3.4062 0.443855 0.746463
3.4083 0.445046 0.759432
3.40738 0.44621 0.770423
3.40246 0.445361 0.780474
3.40456 0.446552 0.793442
3.39763 0.446691 0.802494
3.39968 0.446793 0.809478
3.39986 0.449148 0.833445
3.39394 0.4483 0.843503
3.39603 0.449476 0.855472
3.39612 0.450654 0.867455
3.3932 0.450819 0.878477
3.39325 0.450908 0.884476
3.39634 0.453098 0.897422
3.3854 0.451224 0.905533
3.38951 0.453428 0.919471
3.3886 0.454607 0.931462
3.38468 0.454758 0.941491
3.37975 0.453909 0.951542
3.3798 0.454998 0.957527
3.37889 0.455176 0.969532
3.37296 0.455329 0.979576
3.38209 0.457559 0.995477
3.37114 0.456671 1.00257
3.37424 0.457876 1.01653
3.37534 0.459067 1.02951
3.37137 0.459129 1.03354
3.37849 0.461346 1.04845
3.37256 0.461498 1.0585
3.36964 0.461663 1.06952
3.36372 0.461816 1.07956
3.36683 0.463021 1.09352
3.3619 0.463172 1.10356
3.36697 0.465302 1.11249
3.36706 0.465479 1.12449
3.35813 0.465619 1.13356
3.35923 0.466811 1.14653
3.36233 0.468001 1.15949
3.35741 0.468167 1.17053
3.35349 0.468333 1.18156
3.35956 0.470462 1.19048
3.3446 0.468547 1.19562
3.34169 0.468727 1.20764
3.34881 0.470958 1.22356
3.34489 0.471124 1.23459
3.33796 0.471262 1.24364
3.3491 0.47452 1.26151
3.34313 0.474584 1.26556
3.34222 0.474762 1.27756
3.33037 0.475067 1.29765
3.34161 0.479518 1.3285
3.32263 0.476591 1.33269
3.33172 0.479747 1.34358
3.32489 0.480092 1.36663
3.33001 0.483325 1.38254
3.32911 0.483504 1.39455
3.32118 0.483658 1.40461
3.32329 0.484863 1.41857
3.32243 0.487145 1.43755
3.31349 0.48627 1.44563
3.31962 0.488517 1.46255
3.3127 0.48867 1.4726
3.3138 0.490876 1.48657
3.31295 0.492158 1.50556
3.30703 0.492326 1.5166
3.30623 0.494711 1.54257
3.30333 0.495905 1.55558
3.30051 0.497278 1.58058
3.30458 0.499408 1.58952
3.29274 0.499727 1.61061
3.29184 0.50092 1.6236
3.28502 0.502281 1.64764
3.28429 0.505799 1.68259
3.28339 0.506992 1.69559
3.28551 0.509227 1.71154
3.28461 0.51042 1.72453
3.27165 0.509519 1.73064
3.28282 0.512836 1.75251
3.27283 0.511858 1.7536
3.27193 0.513066 1.76759
3.27405 0.515286 1.78254
3.26914 0.515468 1.79458
3.26422 0.515634 1.80562
3.27237 0.519924 1.82549
3.26042 0.519036 1.8326
3.26349 0.520167 1.84156
3.26361 0.521389 1.85654
3.25568 0.521528 1.8656
3.26182 0.524805 1.88451
3.2549 0.524958 1.89456
3.24899 0.52514 1.9066
3.24708 0.526334 1.9196
3.24915 0.527465 1.92857
3.24524 0.528646 1.94059
3.24938 0.530909 1.95852
3.24347 0.532091 1.97055
3.23554 0.53123 1.97963
3.23565 0.533452 1.99459
3.2398 0.53673 2.01352
3.23684 0.536806 2.01854
3.23092 0.536973 2.02958
3.23003 0.538196 2.04457
3.22612 0.539377 2.05659
3.22323 0.540586 2.07059
3.22536 0.542836 2.08755
3.22347 0.545059 2.10253
3.22051 0.545135 2.10755
3.22164 0.547386 2.12451
3.21875 0.548595 2.13852
3.21484 0.548776 2.15055
3.21496 0.551012 2.16651
3.20905 0.552194 2.17854
3.20515 0.55339 2.19156
3.20622 0.554522 2.20053
3.20433 0.555745 2.21553
3.19754 0.558165 2.24355
3.19263 0.559346 2.25557
3.19075 0.560569 2.27057
3.1949 0.563862 2.29049
3.18792 0.562897 2.29256
3.18905 0.565162 2.31052
3.18516 0.566372 2.32453
3.18629 0.569623 2.34148
3.17749 0.571029 2.36853
3.17461 0.573253 2.38352
3.17668 0.5744 2.39349
3.1748 0.575623 2.40849
3.17191 0.577847 2.42348
3.16802 0.579057 2.43749
3.16916 0.581337 2.45645
3.16238 0.584771 2.48545
3.16245 0.585904 2.49444
3.16272 0.590422 2.52937
3.15782 0.591633 2.5434
3.15206 0.595096 2.57439
3.15018 0.597334 2.59037
3.14723 0.59744 2.5974
3.1514 0.600762 2.61932
3.15054 0.603029 2.63729
3.14262 0.604198 2.64834
3.14477 0.606492 2.66829
3.14593 0.609787 2.68824
3.13801 0.609956 2.69929
3.13607 0.611075 2.70729
3.14024 0.614413 2.73022
3.13334 0.61561 2.74325
3.13248 0.617877 2.76123
3.13565 0.6212 2.78316
3.12572 0.621355 2.79323
3.12681 0.623517 2.80419
3.12106 0.62701 2.83719
3.11919 0.629277 2.85517
3.12338 0.633629 2.87908
3.11345 0.633785 2.88915
3.11261 0.636081 2.90913
3.11477 0.639405 2.93107
3.10981 0.639483 2.9361
3.10493 0.641723 2.95211
3.1002 0.646244 2.98708
3.10137 0.649584 3.01003
3.09951 0.651851 3.02801
3.08959 0.652021 3.03908
3.09169 0.654197 3.05104
3.08798 0.659777 3.08999
3.08311 0.661032 3.10701
3.0873 0.665399 3.13192
3.07638 0.665555 3.142
3.07251 0.667809 3.159
3.07277 0.672312 3.19293
3.0679 0.674567 3.20994
3.0642 0.680162 3.24989
3.06034 0.682431 3.26789
3.06052 0.685786 3.29184
3.05757 0.686891 3.29884
3.05976 0.69026 3.32378
3.05692 0.693558 3.34376
3.04499 0.693714 3.35385
3.03608 0.694898 3.3659
3.04131 0.699338 3.3958
3.03645 0.701608 3.4138
3.03774 0.708169 3.4517
3.03085 0.709396 3.46674
3.027 0.71168 3.48573
3.02618 0.715036 3.50969
3.01627 0.716221 3.52175
3.0194 0.71947 3.53868
3.02161 0.722868 3.56562
3.01271 0.725081 3.57966
3.00886 0.72738 3.59965
3.01311 0.73285 3.63155
3.00118 0.732992 3.64063
3.00138 0.737392 3.66757
2.99753 0.73969 3.68757
2.99461 0.74084 3.69758
2.99482 0.74524 3.72451
2.99401 0.74961 3.74946
2.98511 0.750824 3.76351
2.98432 0.754224 3.79047
2.97543 0.755437 3.80452
2.97159 0.758766 3.8265
2.97473 0.76203 3.84443
2.97191 0.765372 3.86741
2.96909 0.768729 3.89138
2.96829 0.773129 3.91833
2.96245 0.776444 3.93932
2.9556 0.77873 3.95834
2.95379 0.782101 3.98331
2.95187 0.784265 3.9943
2.94907 0.787652 4.02027
2.94525 0.79101 4.04425
2.94245 0.795382 4.06921
2.9366 0.797697 4.09022
2.93684 0.803155 4.12115
2.92897 0.805412 4.13818
2.93112 0.808706 4.15811
2.92731 0.812064 4.1821
2.92553 0.816495 4.21105
2.91969 0.819824 4.23304
2.91792 0.824255 4.262
2.91209 0.827599 4.28499
2.90828 0.830972 4.30998
2.91246 0.835309 4.33288
2.90663 0.838653 4.35588
2.8998 0.841984 4.37789
2.89803 0.846429 4.40784
2.89423 0.850831 4.43481
2.89146 0.855262 4.46376
2.88868 0.859708 4.49372
2.88781 0.862945 4.50968
2.88199 0.866304 4.53368
2.87719 0.869693 4.55967
2.87038 0.873067 4.58468
2.86861 0.878527 4.61561
2.8618 0.881887 4.63962
2.85803 0.886334 4.66958
2.8612 0.890672 4.6925
2.85338 0.894032 4.71651
2.8486 0.89845 4.74449
2.84686 0.903969 4.77942
2.83803 0.907286 4.80044
2.83021 0.910647 4.82446
2.82746 0.916137 4.8574
2.8337 0.921591 4.88828
2.82689 0.92598 4.91427
2.82112 0.930428 4.94425
2.8194 0.935962 4.98018
2.80854 0.938251 4.99923
2.80682 0.9448 5.03616
2.80598 0.948096 5.05612
2.80021 0.952544 5.0861
2.79647 0.959065 5.12103
2.79172 0.963541 5.15301
2.88233 0.891968 4.44329
2.86149 0.916232 4.59511
2.93168 0.883735 4.09199
2.88932 0.940884 4.43751
2.86999 0.9552 4.52546
2.86925 0.960703 4.55938
3.41155 0.548388 0.781881
3.4027 0.547705 0.80296
3.40279 0.548883 0.814944
3.39582 0.547933 0.818011
3.40192 0.550135 0.831934
3.40401 0.551311 0.843903
3.39609 0.550465 0.853976
3.38925 0.550781 0.875026
3.38733 0.551945 0.886025
3.39048 0.554224 0.90497
3.38857 0.554403 0.916983
3.38875 0.556758 0.94095
3.38095 0.557164 0.968007
3.37302 0.556303 0.977081
3.3711 0.557467 0.988079
3.38223 0.56071 1.00495
3.37147 0.561192 1.03703
3.36268 0.562598 1.06408
3.35976 0.562763 1.0751
3.36086 0.563955 1.08807
3.35694 0.564121 1.0991
3.35407 0.565374 1.11611
3.34843 0.569074 1.1631
3.35368 0.572573 1.19702
3.33882 0.571851 1.21514
3.34504 0.576275 1.24403
3.33811 0.575414 1.2531
3.34222 0.577633 1.26804
3.33324 0.576669 1.27012
3.33343 0.579054 1.29609
3.3276 0.580383 1.31811
3.32368 0.580549 1.32914
3.32383 0.58283 1.34811
3.32393 0.584037 1.36209
3.317 0.584176 1.37114
3.3171 0.585368 1.38413
3.3172 0.58656 1.39711
3.31831 0.588767 1.41107
3.3184 0.589959 1.42406
3.32247 0.592089 1.43299
3.31153 0.591216 1.44109
3.31364 0.592421 1.45506
3.31475 0.594628 1.46902
3.30279 0.592725 1.47514
3.30691 0.595959 1.49106
3.305 0.596138 1.50308
3.30406 0.597242 1.51007
3.30516 0.598449 1.52404
3.31129 0.601696 1.54095
3.29934 0.600793 1.54706
3.29643 0.600973 1.55908
3.30257 0.604235 1.57698
3.29563 0.604373 1.58604
3.29769 0.60549 1.59401
3.29177 0.605642 1.60405
3.29088 0.60685 1.61804
3.28596 0.608017 1.62906
3.2941 0.611277 1.64695
3.28315 0.610389 1.65405
3.28125 0.611597 1.66805
3.28231 0.6127 1.67503
3.2794 0.61288 1.68705
3.28453 0.616127 1.70396
3.27962 0.617309 1.71598
3.28073 0.618515 1.72996
3.27279 0.618654 1.73902
3.27894 0.621931 1.75793
3.26593 0.619925 1.75705
3.27005 0.622159 1.77299
3.26324 0.624534 1.79801
3.26134 0.625728 1.81101
3.26849 0.629004 1.82991
3.26156 0.629157 1.83996
3.2586 0.629233 1.84498
3.25771 0.631456 1.85996
3.25983 0.633676 1.87491
3.2509 0.632831 1.88499
3.25704 0.637092 1.90289
3.25213 0.637274 1.91492
3.25023 0.638467 1.92792
3.25431 0.640627 1.93886
3.24638 0.640766 1.94792
3.24247 0.641946 1.95993
3.2446 0.644196 1.97689
3.23567 0.644336 1.98595
3.23578 0.645558 2.00093
3.24093 0.648835 2.01985
3.23697 0.648912 2.02488
3.22502 0.648025 2.03198
3.2372 0.653371 2.05582
3.22525 0.652468 2.06192
3.22035 0.653664 2.07494
3.2275 0.656955 2.09484
3.21857 0.657095 2.10391
3.22265 0.659255 2.11485
3.22779 0.662532 2.13376
3.21886 0.662672 2.14283
3.20893 0.661812 2.15192
3.20905 0.664049 2.16789
3.20314 0.665216 2.17891
3.20125 0.666439 2.19391
3.20734 0.669612 2.20582
3.19942 0.669766 2.21588
3.20471 0.675324 2.25376
3.19376 0.675436 2.26084
3.19388 0.677673 2.27681
3.19199 0.678896 2.29181
3.18904 0.679987 2.29782
3.18515 0.681197 2.31183
3.1893 0.68449 2.33175
3.17937 0.68463 2.34083
3.17748 0.685854 2.35583
3.18465 0.690174 2.37771
3.17472 0.690314 2.38679
3.17277 0.691419 2.39378
3.17391 0.693685 2.41175
3.17102 0.695909 2.42674
3.16712 0.697104 2.43975
3.17632 0.702482 2.4656
3.16055 0.703937 2.49571
3.15766 0.706161 2.5107
3.15377 0.707371 2.52471
3.15303 0.71289 2.55964
3.15129 0.717394 2.59359
3.14633 0.717472 2.59863
3.14244 0.719682 2.61263
3.14258 0.721963 2.63159
3.14071 0.724215 2.64858
3.1348 0.725397 2.6606
3.13696 0.728706 2.68154
3.13206 0.730902 2.69455
3.13012 0.731022 2.70256
3.1343 0.735359 2.72547
3.12638 0.736528 2.73651
3.12552 0.738795 2.75449
3.12465 0.742061 2.77245
3.11876 0.743273 2.78648
3.12805 0.750828 2.8243
3.1151 0.749941 2.83141
3.11021 0.751152 2.84543
3.10936 0.754449 2.86539
3.10548 0.755673 2.88041
3.10664 0.759983 2.90134
3.10074 0.761195 2.91537
3.10384 0.763385 2.92831
3.09997 0.765639 2.94531
3.10012 0.768935 2.96526
3.09625 0.771174 2.98126
3.08547 0.774626 3.0113
3.08362 0.777908 3.03026
3.08269 0.779042 3.03926
3.08991 0.784466 3.06812
3.07797 0.784593 3.07621
3.0741 0.786847 3.09321
3.08334 0.793299 3.12405
3.06653 0.794681 3.14916
3.07569 0.799985 3.17002
3.06577 0.800155 3.18109
3.06593 0.804466 3.20203
3.06611 0.807806 3.22498
3.05921 0.809018 3.23902
3.05031 0.810217 3.25207
3.05249 0.81457 3.27599
3.05158 0.816734 3.28697
3.04872 0.819002 3.30496
3.04587 0.8223 3.32493
3.04604 0.82664 3.34787
3.04219 0.828924 3.36687
3.04136 0.833265 3.38981
3.03245 0.833449 3.40188
3.0386 0.837725 3.42077
3.03171 0.839952 3.43579
3.02584 0.842208 3.45281
3.02805 0.846606 3.47973
3.02621 0.849918 3.5007
3.02338 0.854245 3.52266
3.01852 0.85653 3.54166
3.02063 0.858735 3.55561
3.01779 0.863048 3.57658
3.01091 0.86429 3.59261
3.01313 0.869702 3.62052
3.00727 0.871988 3.63953
3.00444 0.876315 3.66149
3.00261 0.879656 3.68446
3.00474 0.882892 3.7004
2.99685 0.885119 3.71543
2.99806 0.889518 3.74235
2.98735 0.895102 3.78136
2.98554 0.899459 3.80531
2.98767 0.902709 3.82225
2.98181 0.905994 3.84125
2.97696 0.908293 3.86125
2.97818 0.913721 3.89017
2.9693 0.91595 3.9052
2.96346 0.919265 3.9262
2.96367 0.923679 3.95414
2.95074 0.923821 3.96323
2.96299 0.931286 3.99504
2.94703 0.931386 4.00115
2.95534 0.938972 4.04099
2.9495 0.942286 4.06198
3.1718 0.750368 2.52494
2.96909 0.958486 3.87357
2.96121 0.960714 3.8886
2.95739 0.965071 3.91257
3.4251 0.609424 0.716866
3.42227 0.610766 0.739871
3.41334 0.608906 0.748967
3.41949 0.612183 0.767875
3.41256 0.611336 0.777941
3.41666 0.613525 0.790879
3.41675 0.614703 0.802863
3.40982 0.613841 0.811929
3.408 0.615198 0.835926
3.39578 0.621731 0.938936
3.39487 0.62291 0.950927
3.39095 0.623061 0.960955
3.38712 0.624404 0.983967
3.38626 0.625671 1.00196
3.38635 0.626848 1.01394
3.38042 0.627001 1.02398
3.37492 0.631967 1.08896
3.37119 0.634502 1.12496
3.3645 0.637114 1.16597
3.35098 0.641057 1.22903
3.34715 0.6434 1.25202
3.34267 0.649424 1.32098
3.33986 0.651781 1.34497
3.27241 0.696757 1.81288
3.21157 0.745956 2.22866
3.20207 0.75394 2.29462
3.02375 0.947856 3.56327
3.01697 0.95229 3.59226
3.00707 0.95349 3.60532
3.00929 0.959902 3.63321
3.38833 0.646816 0.876612
3.37607 0.653275 0.974622
3.36933 0.654784 1.00866
3.36454 0.656202 1.03667
3.3579 0.659902 1.08368
3.35502 0.661156 1.10068
3.3513 0.663691 1.13668
3.34509 0.674235 1.24058
3.32656 0.677166 1.30269
3.3248 0.680641 1.33465
3.30757 0.689163 1.43667
3.30311 0.697217 1.50759
3.29364 0.70426 1.57757
3.28391 0.7068 1.61361
3.28122 0.711394 1.65357
3.16283 0.821337 2.52195
3.15203 0.82373 2.548
3.15755 0.836747 2.61678
3.1397 0.837056 2.63691
3.1459 0.842421 2.66179
3.132 0.842638 2.67589
3.14022 0.849046 2.70374
3.12741 0.851426 2.7288
3.12755 0.854707 2.74776
3.12166 0.855918 2.76179
3.12195 0.862495 2.80069
3.11613 0.865839 2.82369
3.11226 0.868093 2.84069
3.11241 0.872374 2.85963
3.1117 0.878952 2.89854
3.10488 0.882297 2.92154
3.09596 0.882466 2.93261
3.10117 0.887862 2.95949
3.09947 0.895455 2.9994
3.09181 0.902111 3.04337
3.07616 0.908803 3.08939
3.35414 0.707284 1.24402
3.08527 0.949955 3.09971
3.08443 0.953266 3.12067
3.07551 0.954435 3.13173
3.0656 0.95462 3.1438
3.06375 0.958902 3.16275
3.34288 0.816643 1.19948
3.29855 0.85387 1.55032
3.29062 0.853024 1.56039
3.28311 0.860976 1.62434
3.267 0.875719 1.74126
3.24623 0.897131 1.90312
3.23 0.910637 2.00406
3.20718 0.932947 2.15892
3.20353 0.94063 2.20484
-5.35723 -0.455781 0.277737
-5.35542 -0.456152 0.252725
-5.33126 -0.456828 0.140538
-5.31834 -0.457955 -0.00256244
-5.30503 -0.458328 -0.0946699
-5.29854 -0.459324 -0.161713
-5.85949 -0.41686 3.83044
-5.82518 -0.416217 3.60514
-5.81841 -0.415681 3.57407
-5.81363 -0.416114 3.54504
-5.81283 -0.415515 3.51802
-5.80825 -0.415333 3.46298
-5.79839 -0.415621 3.4439
-5.79162 -0.41507 3.41384
-5.78982 -0.415472 3.38683
-5.78305 -0.414921 3.35677
-5.77527 -0.415371 3.32671
-5.77645 -0.414725 3.30271
-5.76769 -0.415191 3.27164
-5.76578 -0.414385 3.25861
-5.76896 -0.414738 3.23464
-5.76118 -0.414173 3.20557
-5.75937 -0.414545 3.18056
-5.74463 -0.414059 3.14643
-5.75178 -0.41435 3.12649
-5.74599 -0.414769 3.09845
-5.74028 -0.41435 3.05939
-5.73069 -0.414157 3.00531
-5.74082 -0.414416 2.98739
-5.72806 -0.413885 2.95628
-5.72425 -0.414273 2.93025
-5.72244 -0.413644 2.90523
-5.71655 -0.413871 2.89018
-5.71274 -0.414244 2.86516
-5.70993 -0.413616 2.84012
-5.70613 -0.414004 2.8141
-5.71228 -0.414295 2.79414
-5.70946 -0.413653 2.77011
-5.69967 -0.414075 2.74204
-5.69677 -0.413269 2.729
-5.68897 -0.413675 2.70195
-5.68616 -0.414047 2.67693
-5.67753 -0.413779 2.62785
-5.67072 -0.413169 2.60179
-5.67089 -0.413495 2.57979
-5.67197 -0.413657 2.5688
-5.66815 -0.413015 2.54476
-5.67032 -0.413339 2.52278
-5.66051 -0.413732 2.49671
-5.65271 -0.413122 2.47063
-5.65088 -0.413464 2.44762
-5.65005 -0.413791 2.42562
-5.64614 -0.412986 2.41257
-5.63933 -0.413361 2.38753
-5.64049 -0.413671 2.36654
-5.63866 -0.413013 2.34351
-5.63184 -0.413374 2.31946
-5.62902 -0.413716 2.29644
-5.63018 -0.413027 2.27544
-5.63224 -0.413158 2.26645
-5.62343 -0.413535 2.24139
-5.62758 -0.413828 2.22142
-5.61179 -0.413254 2.19329
-5.6269 -0.413451 2.1794
-5.6141 -0.41386 2.15231
-5.61127 -0.413188 2.13028
-5.61334 -0.413334 2.12029
-5.59855 -0.413745 2.09318
-5.60967 -0.413974 2.07727
-5.60185 -0.413335 2.0532
-5.5872 -0.413042 2.00608
-5.59234 -0.413305 1.98812
-5.59356 -0.413748 1.95813
-5.58574 -0.414109 1.93407
-5.58191 -0.413438 1.91203
-5.58804 -0.413685 1.89508
-5.5704 -0.413409 1.84693
-5.5786 -0.413803 1.82
-5.56977 -0.41415 1.79693
-5.56808 -0.413743 1.75691
-5.54828 -0.414157 1.72976
-5.55057 -0.413733 1.69077
-5.54266 -0.413917 1.67871
-5.54495 -0.414478 1.64073
-5.54809 -0.414757 1.62175
-5.53656 -0.414683 1.55966
-5.53763 -0.414816 1.55067
-5.53578 -0.415114 1.53065
-5.53393 -0.414411 1.51063
-5.52424 -0.415025 1.46956
-5.5164 -0.414357 1.44748
-5.51861 -0.41477 1.4195
-5.51192 -0.415367 1.37946
-5.51106 -0.414649 1.36044
-5.49152 -0.414582 1.29828
-5.4866 -0.414733 1.28824
-5.49872 -0.414961 1.27234
-5.48004 -0.415597 1.2302
-5.48331 -0.415128 1.19421
-5.48451 -0.415527 1.16722
-5.47381 -0.416127 1.12715
-5.4691 -0.415693 1.0891
-5.46225 -0.415994 1.06905
-5.46239 -0.416261 1.05105
-5.46059 -0.416662 1.02404
-5.46472 -0.416925 1.00607
-5.45515 -0.416762 0.94999
-5.43345 -0.416385 0.908815
-5.43551 -0.416502 0.900831
-5.42866 -0.416788 0.881781
-5.42993 -0.41732 0.845794
-5.41641 -0.417278 0.781683
-5.42168 -0.417792 0.746725
-5.41795 -0.418328 0.7107
-5.40622 -0.417885 0.6736
-5.39843 -0.41829 0.646543
-5.3947 -0.418826 0.610518
-5.38797 -0.418364 0.574456
-5.3813 -0.41902 0.530409
-5.3727 -0.419811 0.477349
-5.37296 -0.419315 0.443339
-5.36242 -0.420226 0.382264
-5.36094 -0.421249 0.313259
-5.34514 -0.42066 0.286127
-5.34652 -0.421414 0.235142
-5.3431 -0.422542 0.159122
-5.33023 -0.421818 0.141012
-5.31519 -0.42371 0.0139092
-5.31757 -0.424448 -0.0360689
-5.31075 -0.424824 -0.0611181
-5.29689 -0.4241 -0.0792358
-5.29933 -0.424957 -0.137213
-5.30145 -0.425193 -0.153195
-5.86045 -0.241027 3.81784
-5.85569 -0.241489 3.7868
-5.85787 -0.241858 3.76182
-5.85311 -0.24232 3.73079
-5.84734 -0.242783 3.69975
-5.84854 -0.243168 3.67376
-5.83769 -0.243472 3.65368
-5.83391 -0.243919 3.62365
-5.81938 -0.244847 3.56155
-5.82157 -0.245216 3.53657
-5.81878 -0.245633 3.50855
-5.81898 -0.246017 3.48255
-5.80235 -0.245755 3.43342
-5.79296 -0.246976 3.35135
-5.76333 -0.249678 3.17014
-5.73582 -0.25263 2.97195
-5.73202 -0.253018 2.94593
-5.71887 -0.253701 2.83282
-5.71025 -0.254462 2.78176
-5.70743 -0.25482 2.75774
-5.68248 -0.256896 2.61857
-5.653 -0.259909 2.41636
-5.63779 -0.260475 2.31124
-5.63496 -0.260803 2.28922
-5.61124 -0.263323 2.12006
-5.61347 -0.26378 2.08908
-5.59154 -0.265899 1.94692
-5.58188 -0.266572 1.90185
-5.56859 -0.267989 1.80676
-5.56406 -0.26791 1.74472
-5.56136 -0.268504 1.7047
-5.55146 -0.268704 1.69163
-5.54762 -0.269018 1.6706
-5.53624 -0.27024 1.58852
-5.55334 -0.270435 1.57465
-5.53376 -0.271264 1.51951
-5.52991 -0.271563 1.49948
-5.52207 -0.271894 1.47742
-5.50775 -0.273238 1.38732
-5.50803 -0.273785 1.35033
-5.49933 -0.274384 1.31026
-5.50247 -0.274648 1.29229
-5.49555 -0.274816 1.28124
-5.48827 -0.276228 1.18619
-5.47464 -0.276978 1.13609
-5.47092 -0.277529 1.09907
-5.46407 -0.27783 1.07902
-5.47241 -0.278476 1.03508
-5.44999 -0.278632 0.957907
-5.45525 -0.279147 0.92295
-5.43562 -0.279887 0.873806
-5.43275 -0.280155 0.855786
-5.44201 -0.280652 0.821858
-5.42078 -0.282178 0.719707
-5.40153 -0.283658 0.62057
-5.37052 -0.28759 0.356358
-5.3455 -0.289533 0.226181
-5.3342 -0.290933 0.132103
-5.31341 -0.293318 -0.0280401
-5.30461 -0.293709 -0.0541043
-5.2848 -0.295063 -0.212255
-5.84668 -0.165548 3.64759
-5.83443 -0.167037 3.54751
-5.80635 -0.169864 3.42532
-5.80105 -0.171245 3.33229
-5.76995 -0.17403 3.21308
-5.7754 -0.1749 3.15413
-5.76897 -0.17603 3.07808
-5.76417 -0.177433 3.05107
-5.75168 -0.178449 2.98298
-5.74108 -0.179242 2.9299
-5.72911 -0.182264 2.79384
-5.71949 -0.183026 2.74277
-5.70689 -0.18382 2.68968
-5.68633 -0.187649 2.49955
-5.6727 -0.188399 2.44946
-5.66192 -0.189821 2.42139
-5.66622 -0.190425 2.38043
-5.66049 -0.190948 2.34539
-5.64459 -0.193121 2.19928
-5.63479 -0.194513 2.17322
-5.62652 -0.195971 2.07517
-5.61686 -0.196644 2.0301
-5.61502 -0.196956 2.00909
-5.61235 -0.197595 1.96607
-5.59662 -0.199139 1.92997
-5.58442 -0.200718 1.82389
-5.57182 -0.201527 1.7698
-5.57412 -0.202103 1.73082
-5.56145 -0.203763 1.68674
-5.56958 -0.204009 1.6698
-5.56075 -0.204356 1.64674
-5.549 -0.204853 1.61365
-5.53847 -0.205779 1.55158
-5.55158 -0.205992 1.53668
-5.53484 -0.206507 1.50255
-5.53698 -0.206787 1.48357
-5.54211 -0.207035 1.46661
-5.52928 -0.207385 1.44352
-5.52957 -0.207947 1.40552
-5.52679 -0.209394 1.37552
-5.51795 -0.209711 1.35445
-5.52109 -0.209975 1.33648
-5.51823 -0.210259 1.31746
-5.50041 -0.210627 1.29333
-5.5039 -0.211587 1.22836
-5.48536 -0.212489 1.16822
-5.47879 -0.213338 1.11118
-5.48199 -0.214735 1.08422
-5.47015 -0.215055 1.06313
-5.47428 -0.215304 1.04617
-5.4784 -0.215552 1.0292
-5.46357 -0.215889 1.00709
-5.45392 -0.216592 0.960019
-5.46318 -0.217089 0.926091
-5.44934 -0.21741 0.904989
-5.44149 -0.217712 0.884932
-5.43869 -0.218113 0.857913
-5.44396 -0.218628 0.822955
-5.44209 -0.218896 0.804943
-5.43636 -0.219433 0.768902
-5.43451 -0.219716 0.74989
-5.41486 -0.221426 0.702761
-5.42012 -0.221925 0.668803
-5.40927 -0.22223 0.648723
-5.41752 -0.222712 0.615788
-5.4026 -0.222886 0.604677
-5.40586 -0.223402 0.569704
-5.397 -0.223675 0.551639
-5.40026 -0.224191 0.516666
-5.3924 -0.224463 0.498608
-5.3946 -0.224846 0.472627
-5.38673 -0.225119 0.454569
-5.38899 -0.225621 0.420589
-5.37227 -0.226181 0.383466
-5.37233 -0.226299 0.375467
-5.36117 -0.228966 0.263407
-5.35244 -0.22949 0.228344
-5.35082 -0.230247 0.177336
-5.33796 -0.230522 0.159241
-5.34014 -0.230891 0.13426
-5.33327 -0.231148 0.117209
-5.33653 -0.231649 0.0832365
-5.33166 -0.231904 0.0662012
-5.32198 -0.232548 0.023132
-5.32523 -0.233034 -0.00984093
-5.31436 -0.233294 -0.0269213
-5.31361 -0.233798 -0.0609242
-5.30005 -0.234667 -0.119022
-5.30218 -0.234917 -0.136004
-5.29574 -0.236032 -0.211046
-5.91289 -0.109116 4.14633
-5.91708 -0.109498 4.12036
-5.91332 -0.110959 4.08935
-5.90956 -0.111436 4.05732
-5.88422 -0.113757 3.96915
-5.88543 -0.114171 3.94116
-5.87133 -0.116943 3.82208
-5.8596 -0.118485 3.78601
-5.85672 -0.118724 3.76999
-5.85593 -0.119124 3.74299
-5.84319 -0.119652 3.7079
-5.8424 -0.121067 3.67991
-5.83086 -0.121979 3.61883
-5.82509 -0.123427 3.5888
-5.81483 -0.124886 3.49073
-5.81302 -0.126272 3.46473
-5.77582 -0.131823 3.2265
-5.75008 -0.0923482 2.92168
-5.70635 -0.100837 2.62044
-5.67689 -0.105864 2.41726
-5.67423 -0.107532 2.37226
-5.65021 -0.110475 2.2421
-5.63911 -0.114259 2.12206
-5.61321 -0.11744 1.97589
-5.6027 -0.11941 1.91083
-5.59142 -0.121825 1.81577
-5.5829 -0.123764 1.75273
-5.58312 -0.124208 1.72273
-5.57444 -0.124836 1.68067
-5.54876 -0.129446 1.50552
-5.54128 -0.131473 1.43648
-5.53159 -0.132088 1.39541
-5.5204 -0.13468 1.28835
-5.5022 -0.137278 1.18124
-5.46786 -0.142545 0.962028
-5.46147 -0.143764 0.879987
-5.45675 -0.144316 0.842954
-5.4529 -0.1456 0.823942
-5.44438 -0.146554 0.759883
-5.43013 -0.14903 0.660798
-5.4264 -0.149566 0.624773
-5.41387 -0.150508 0.561684
-5.40914 -0.152044 0.525666
-5.40167 -0.153086 0.455616
-5.39887 -0.153473 0.429597
-5.3874 -0.154518 0.359516
-5.36451 -0.157726 0.211371
-5.36757 -0.157842 0.203394
-5.35784 -0.158368 0.168324
-5.35596 -0.159621 0.151326
-5.34935 -0.160381 0.100281
-5.34842 -0.160515 0.0912742
-5.34755 -0.160767 0.074269
-5.33905 -0.161765 0.00721059
-5.33425 -0.162154 -0.0188235
-5.31057 -0.165777 -0.194972
-5.75124 -0.0596915 2.8982
-5.70823 -0.0676317 2.63396
-5.69985 -0.069852 2.55192
-5.68341 -0.0719744 2.47682
-5.67984 -0.0738062 2.42081
-5.66637 -0.0758672 2.34973
-5.66387 -0.0778463 2.28373
-5.65215 -0.0784027 2.24664
-5.64964 -0.0803669 2.18165
-5.64098 -0.0820395 2.1366
-5.62857 -0.0842034 2.05853
-5.59612 -0.0902772 1.85234
-5.59136 -0.0907545 1.82031
-5.54898 -0.0999233 1.47308
-5.53252 -0.101987 1.40198
-5.52026 -0.104447 1.30391
-5.51562 -0.106161 1.25589
-5.50891 -0.106728 1.21784
-5.48858 -0.109061 1.12871
-5.47729 -0.111461 1.03465
-5.46618 -0.114231 0.91559
-5.45141 -0.114686 0.885481
-5.45668 -0.1162 0.850539
-5.44695 -0.116755 0.813468
-5.43417 -0.117194 0.784375
-5.44443 -0.11769 0.750455
-5.43271 -0.119246 0.713384
-5.42698 -0.119784 0.677344
-5.42631 -0.120436 0.633343
-5.42145 -0.121706 0.615322
-5.41385 -0.122511 0.56127
-5.39946 -0.124706 0.481183
-5.39885 -0.125476 0.429182
-5.39192 -0.125615 0.420131
-5.3817 -0.128162 0.316077
-5.38077 -0.128296 0.307071
-5.3749 -0.128552 0.290028
-5.37503 -0.128803 0.27303
-5.37416 -0.129056 0.256025
-5.37428 -0.129308 0.239028
-5.36942 -0.129578 0.220992
-5.36955 -0.129829 0.203995
-5.36561 -0.129965 0.194966
-5.36174 -0.13122 0.177953
-5.36087 -0.131472 0.160948
-5.35113 -0.131983 0.126877
-5.35626 -0.132231 0.109917
-5.35238 -0.132485 0.0928895
-5.34271 -0.133129 0.0498201
-5.32784 -0.134392 0.0327244
-5.34296 -0.133618 0.0168247
-5.33709 -0.133874 -0.000218105
-5.33334 -0.13538 -0.0342287
