-3.48912 1.67544 2.58783
-3.50515 1.67838 2.5829
-3.50728 1.67513 2.56597
-3.52033 1.67704 2.55904
-3.52339 1.67594 2.55207
-3.53545 1.67781 2.54314
-3.54155 1.67562 2.53021
-3.55461 1.67751 2.52228
-3.5627 1.67734 2.51034
-3.57278 1.67719 2.49942
-3.58279 1.68018 2.49845
-3.59485 1.68205 2.48951
-3.60493 1.68291 2.47957
-3.62409 1.6826 2.45772
-3.6463 1.68322 2.43087
-3.65539 1.68305 2.41894
-3.66347 1.68289 2.40801
-3.67766 1.68151 2.38213
-3.68475 1.68034 2.3702
-3.69888 1.6811 2.35329
-3.70696 1.68094 2.34235
-3.71804 1.6818 2.33242
-3.72215 1.67958 2.31748
-3.73224 1.68043 2.30655
-3.7433 1.6813 2.29762
-3.74642 1.67908 2.28267
-3.74159 1.67176 2.26074
-3.76651 1.68291 2.26976
-3.75968 1.67458 2.24783
-3.7608 1.67134 2.23189
-3.75497 1.66403 2.21095
2.89036 1.59014 2.90107
2.87042 1.58727 2.90927
2.85746 1.58537 2.91539
2.85561 1.59065 2.93433
2.83962 1.58769 2.9365
2.82868 1.58681 2.94359
2.82178 1.589 2.95661
2.81076 1.58498 2.95476
2.79982 1.58511 2.96284
2.7909 1.58626 2.97289
2.77693 1.58435 2.97802
2.76902 1.58552 2.98907
2.76413 1.58874 3.00406
2.74915 1.5858 3.00721
2.74621 1.5879 3.01421
2.74132 1.59213 3.02918
2.72231 1.58613 3.02841
2.70531 1.58214 3.0286
2.70245 1.58741 3.04655
2.68545 1.58342 3.04674
2.67855 1.58562 3.05976
2.67265 1.58883 3.07376
2.66264 1.58581 3.07188
2.65271 1.58696 3.08193
2.64379 1.58712 3.092
2.60794 1.58544 3.1123
2.52142 1.58645 3.17694
2.48961 1.58783 3.20117
2.46074 1.58712 3.2194
2.40016 1.59298 3.27477
2.36623 1.58813 3.2841
2.29461 1.59093 3.33461
2.13233 1.59247 3.43182
2.04473 1.5943 3.48446
2.00989 1.59564 3.50571
2.00493 1.59671 3.51073
1.99297 1.59681 3.51682
1.98 1.59588 3.52093
1.93524 1.59937 3.55222
1.93028 1.60045 3.55724
1.91528 1.59747 3.5584
1.90333 1.59757 3.56449
1.89138 1.59767 3.57058
1.88043 1.59878 3.57765
1.86747 1.59888 3.58374
1.86251 1.59994 3.58777
1.85157 1.60107 3.59583
1.83758 1.59911 3.59797
1.80073 1.60042 3.61723
1.7908 1.60257 3.62727
1.77681 1.6006 3.62841
1.77083 1.60065 3.63145
1.75991 1.6028 3.6415
1.74999 1.60497 3.65255
1.73498 1.60195 3.65071
1.72202 1.60205 3.6568
1.71108 1.60316 3.66387
1.70613 1.60527 3.67088
1.69215 1.60431 3.673
1.68324 1.60749 3.68502
1.66925 1.60553 3.68715
1.65627 1.60559 3.69025
1.64637 1.60877 3.70228
1.63341 1.60886 3.70738
1.62437 1.6058 3.70349
1.61243 1.60592 3.71058
1.6015 1.60907 3.72061
1.58954 1.60915 3.7257
1.57963 1.61234 3.73773
1.56463 1.60933 3.73689
1.55472 1.61252 3.74892
1.55284 1.61874 3.76384
1.53781 1.61571 3.761
1.52179 1.61168 3.75818
1.51393 1.61795 3.77615
1.49891 1.61493 3.77431
1.48594 1.615 3.77841
1.47706 1.61923 3.79341
1.46104 1.61621 3.79158
1.46018 1.62348 3.80948
-1.37273 1.6655 3.8282
-1.56021 1.66568 3.7646
-1.57424 1.66664 3.76169
-1.58726 1.66761 3.75878
-1.59833 1.66548 3.74989
-1.62438 1.66638 3.74207
-1.63239 1.66738 3.74112
-1.64346 1.66525 3.73223
-1.65846 1.66826 3.7323
-1.68452 1.66815 3.7235
-1.69657 1.66807 3.71759
-1.71268 1.66487 3.70375
-1.73875 1.66574 3.69394
-1.74784 1.66257 3.68205
-1.76481 1.66764 3.6861
-1.78597 1.66235 3.66534
-1.81092 1.66945 3.67142
-1.90721 1.67095 3.63312
-1.92736 1.66666 3.61333
-1.95344 1.66854 3.6035
-1.96143 1.67056 3.60453
-1.97348 1.67046 3.59762
-1.99363 1.66618 3.57783
-2.05992 1.66467 3.54035
-2.08182 1.67286 3.5524
-2.13111 1.66932 3.51382
-2.23848 1.67267 3.46557
-2.61728 1.67438 3.22736
-2.64138 1.67519 3.21353
-2.66954 1.6749 3.19274
-2.69562 1.67775 3.1819
-2.70487 1.66927 3.14909
-2.72783 1.67736 3.15414
-2.72494 1.67115 3.14021
-2.73996 1.67412 3.13728
-2.753 1.67604 3.13135
-2.76308 1.6749 3.12144
-2.78125 1.67258 3.09961
-2.79627 1.67555 3.09668
-2.80031 1.67447 3.09072
-2.80642 1.67126 3.07681
-2.82755 1.67101 3.05897
-2.83664 1.66986 3.04806
-2.8586 1.67693 3.05212
-2.85678 1.66859 3.02923
-2.8609 1.66536 3.0133
-2.87585 1.67147 3.02033
-2.87997 1.66724 3.00442
-2.90491 1.67636 3.01147
-2.89615 1.66389 2.98059
-2.91118 1.66684 2.97665
-2.9153 1.66261 2.96075
-2.93925 1.67072 2.96681
-2.93735 1.66652 2.95385
-2.9385 1.66124 2.93494
-2.95947 1.6673 2.93801
-2.96459 1.66408 2.92309
-2.97665 1.66497 2.91517
-2.99267 1.66894 2.91223
-2.99679 1.66471 2.89632
-3.00281 1.66567 2.89335
-3.02181 1.67068 2.89342
-3.02295 1.6654 2.8745
-3.03004 1.66323 2.86259
-3.04905 1.66923 2.86164
-3.05515 1.66604 2.84873
-3.06225 1.66485 2.8358
-3.06629 1.66377 2.82985
-3.0843 1.66875 2.82791
-3.08743 1.66451 2.81199
-3.09452 1.66234 2.80008
-3.10558 1.66322 2.79115
-3.1216 1.66718 2.78821
-3.12969 1.66603 2.77729
-3.13374 1.66493 2.77033
-3.14083 1.66375 2.7584
-3.14793 1.66157 2.74548
-3.16891 1.66861 2.74754
-3.177 1.66744 2.73562
-3.19204 1.67137 2.73067
-3.19217 1.66511 2.71276
-3.2082 1.66906 2.70882
-3.21026 1.66694 2.70087
-3.22034 1.6668 2.69094
-3.22644 1.66562 2.67801
-3.24048 1.66754 2.67208
-3.25254 1.66943 2.66414
-3.26559 1.67133 2.65721
-3.26565 1.66921 2.64924
-3.28466 1.6742 2.64731
-3.27587 1.66381 2.6214
-3.2919 1.66774 2.61646
-3.30595 1.66965 2.60954
-3.31303 1.66949 2.59859
-3.32212 1.66934 2.58766
-3.33014 1.6703 2.58471
-3.33226 1.66606 2.56878
-3.34531 1.66897 2.56184
-3.36135 1.67191 2.55691
-3.37042 1.67176 2.54698
-3.37354 1.66853 2.53105
-3.3866 1.67144 2.52411
-3.37275 1.66113 2.50415
-3.3868 1.66405 2.49821
-3.39687 1.66391 2.48829
-3.40992 1.66682 2.48134
-3.42199 1.66769 2.47242
-3.4251 1.66447 2.45749
-3.43816 1.66736 2.44954
-3.44326 1.66517 2.43661
-3.44929 1.66612 2.43264
-3.46234 1.66803 2.42571
-3.47042 1.66787 2.41477
-3.4805 1.66873 2.40484
-3.49256 1.6696 2.39591
-3.50363 1.67148 2.38697
-3.51171 1.67132 2.37603
-3.51873 1.67228 2.37307
-3.53379 1.67519 2.36614
-3.53491 1.67194 2.34919
-3.53802 1.66873 2.33526
-3.55108 1.67162 2.32731
-3.56712 1.67455 2.32139
-3.57222 1.67336 2.30845
-3.58819 1.67941 2.31148
-3.59828 1.68026 2.30054
-3.58746 1.67089 2.27659
-3.6055 1.67483 2.27167
-3.62352 1.68079 2.26772
-3.61968 1.67349 2.24779
-3.63871 1.67944 2.24385
-3.63777 1.67731 2.23487
-3.64088 1.6741 2.22094
-3.65792 1.67903 2.21499
-3.65407 1.67274 2.19606
-3.66912 1.67665 2.18911
-3.6772 1.67649 2.17817
-3.6833 1.67531 2.16523
-3.68436 1.67319 2.15727
-3.6994 1.67711 2.15133
-3.69754 1.67184 2.13339
-3.70763 1.67269 2.12245
-3.70973 1.67048 2.1085
-3.72379 1.67337 2.10056
-3.71695 1.66606 2.07961
-3.73399 1.67098 2.07367
-3.73206 1.66785 2.0647
-3.73319 1.66461 2.04875
-3.7353 1.66139 2.03381
2.9061 1.58565 2.734
2.90222 1.58989 2.74997
2.88624 1.58594 2.75214
2.88739 1.59223 2.77205
2.8714 1.58827 2.77422
2.86046 1.5874 2.78232
2.85154 1.58855 2.79237
2.84665 1.59176 2.80636
2.83563 1.58774 2.80451
2.81762 1.58274 2.80372
2.81374 1.58698 2.81968
2.8028 1.58609 2.82678
2.78883 1.58418 2.83192
2.78293 1.58637 2.84493
2.77292 1.58335 2.84305
2.77206 1.58863 2.86198
2.75204 1.5826 2.85922
2.74512 1.58477 2.87024
2.73014 1.58183 2.8734
2.72627 1.58607 2.88937
2.71734 1.58622 2.89943
2.71136 1.58627 2.90248
2.69942 1.58538 2.90958
2.6915 1.58655 2.92063
2.6745 1.58256 2.92081
2.66557 1.5837 2.92986
2.65361 1.5818 2.93598
2.64974 1.58705 2.95294
2.63872 1.58302 2.95008
2.62389 1.58737 2.97313
2.6079 1.5834 2.97431
2.601 1.58559 2.98733
2.59409 1.58778 2.99935
2.54433 1.58629 3.03175
2.42991 1.58551 3.10964
2.41602 1.58673 3.12373
2.39616 1.58901 3.14184
2.38116 1.58603 3.143
2.37123 1.58718 3.15206
2.33646 1.58964 3.18229
2.32552 1.58977 3.19037
2.31356 1.58885 3.19548
2.30059 1.58792 3.19959
2.29766 1.59006 3.20858
2.28183 1.59441 3.23164
2.26988 1.59451 3.23773
2.25387 1.5905 3.23691
2.24393 1.59163 3.24497
2.23098 1.59073 3.25108
2.21901 1.58981 3.25618
2.20513 1.59204 3.27126
2.18121 1.59122 3.28245
2.1723 1.59339 3.29349
2.15547 1.59874 3.31654
2.11848 1.5918 3.31892
2.10956 1.59296 3.32897
2.09761 1.59307 3.33606
2.09072 1.59728 3.35005
2.0817 1.59424 3.34717
2.07076 1.59537 3.35523
2.05981 1.59548 3.36231
2.04988 1.59662 3.37137
2.028 1.59887 3.38751
2.01604 1.59796 3.39261
2.00307 1.59703 3.39672
2.00216 1.6012 3.40867
1.98715 1.5982 3.40783
1.97927 1.60243 3.42283
1.96628 1.60047 3.42495
1.95231 1.59952 3.42807
1.94339 1.60169 3.43911
1.93641 1.60073 3.44118
1.92038 1.59769 3.43834
1.90153 1.601 3.45844
1.88756 1.60006 3.46156
1.88068 1.6043 3.47755
1.87075 1.60644 3.48659
1.8607 1.60236 3.48073
1.85486 1.60866 3.50068
1.83883 1.60463 3.49786
1.82688 1.60472 3.50395
1.81795 1.60788 3.51397
1.80092 1.60283 3.51018
1.79608 1.61015 3.53111
1.78808 1.60914 3.53018
1.77917 1.61232 3.5422
1.76518 1.60935 3.54335
1.75628 1.61356 3.55736
1.73923 1.60847 3.55056
1.72727 1.60855 3.55565
1.71634 1.60969 3.56472
1.69929 1.60462 3.55892
1.69941 1.61085 3.57483
1.68849 1.61301 3.58488
1.67653 1.61309 3.58997
1.65948 1.60801 3.58417
1.65465 1.61634 3.60609
1.64066 1.61437 3.60723
1.62667 1.61341 3.60935
1.62579 1.61863 3.62428
1.6067 1.61148 3.61353
1.59678 1.61364 3.62357
1.58889 1.61886 3.63855
1.57185 1.6138 3.63376
1.56601 1.6211 3.65369
1.55303 1.62016 3.65681
1.544 1.61711 3.65292
1.53001 1.61613 3.65404
1.51907 1.61726 3.66211
1.5112 1.62351 3.67908
1.49517 1.61947 3.67526
1.47127 1.62068 3.68842
1.46631 1.62277 3.69443
-1.13393 1.66195 3.80045
-1.145 1.65982 3.79156
-1.14909 1.65566 3.78066
-1.16307 1.6577 3.78273
-1.17609 1.65868 3.78081
-1.18719 1.6545 3.76796
-1.20215 1.65858 3.77301
-1.2142 1.65649 3.76613
-1.22526 1.65538 3.75823
-1.23324 1.65743 3.76126
-1.24529 1.65633 3.75437
-1.2593 1.65733 3.75346
-1.27035 1.65623 3.74656
-1.28241 1.65412 3.73868
-1.29641 1.65613 3.73875
-1.30747 1.65402 3.73087
-1.31448 1.654 3.72892
-1.32653 1.65292 3.72302
-1.34248 1.65802 3.72907
-1.3555 1.65898 3.72615
-1.36656 1.65689 3.71927
-1.38155 1.6589 3.71935
-1.3936 1.65882 3.71344
-1.39569 1.65364 3.70153
-1.40971 1.65461 3.69862
-1.42763 1.66178 3.70965
-1.43673 1.6576 3.69678
-1.45269 1.66167 3.70084
-1.46572 1.66263 3.69793
-1.47286 1.65536 3.67909
-1.48476 1.66256 3.69207
-1.4929 1.6563 3.67422
-1.50886 1.66138 3.67927
-1.51797 1.65617 3.66441
-1.53392 1.66127 3.67046
-1.54499 1.65914 3.66157
-1.55607 1.657 3.65168
-1.56601 1.66213 3.65968
-1.57608 1.65899 3.64981
-1.58421 1.65374 3.63294
-1.60116 1.65886 3.63999
-1.61223 1.65773 3.63109
-1.62132 1.65456 3.61921
-1.6363 1.6576 3.62128
-1.64135 1.65552 3.61534
-1.65438 1.65647 3.61143
-1.67132 1.66158 3.61848
-1.67847 1.65531 3.59962
-1.69051 1.65523 3.59372
-1.70452 1.65721 3.59179
-1.71656 1.65714 3.58688
-1.72062 1.65403 3.57896
-1.7366 1.65808 3.58202
-1.74765 1.65699 3.57512
-1.75675 1.6538 3.56223
-1.78772 1.66087 3.56536
-1.79878 1.65976 3.55746
-1.80579 1.66075 3.5565
-1.81094 1.65347 3.53764
-1.83676 1.66681 3.55964
-1.84487 1.66361 3.54575
-1.88395 1.66648 3.535
-1.8912 1.65501 3.50322
-1.9121 1.6632 3.51526
-1.92316 1.66309 3.50734
-1.94111 1.66819 3.5134
-1.97834 1.66378 3.48374
-2.00046 1.66256 3.46792
-2.02555 1.6624 3.45611
-2.03758 1.66335 3.45219
-2.04657 1.66537 3.45323
-2.05565 1.66321 3.44233
-2.08171 1.66511 3.43449
-2.09377 1.66502 3.42759
-2.10383 1.66491 3.41966
-2.1139 1.66276 3.40977
-2.12388 1.66582 3.4128
-2.13198 1.66263 3.3999
-2.15092 1.66975 3.40694
-2.15902 1.66656 3.39405
-2.17305 1.66851 3.39013
-2.18311 1.6674 3.38222
-2.19813 1.66937 3.3793
-2.19822 1.66419 3.36738
-2.21323 1.66819 3.36643
-2.22429 1.66706 3.35753
-2.24324 1.67316 3.36358
-2.25134 1.67099 3.35167
-2.26537 1.67194 3.34776
-2.28846 1.67277 3.33492
-2.37892 1.67093 3.27463
-2.404 1.67378 3.26377
-2.44319 1.67343 3.23807
-2.50749 1.6749 3.19952
-2.51855 1.67479 3.19161
-2.53374 1.66943 3.1668
-2.54776 1.67238 3.16286
-2.56179 1.67434 3.15994
-2.57285 1.67423 3.15202
-2.56996 1.66801 3.13709
-2.58697 1.67201 3.13616
-2.60198 1.67499 3.13423
-2.60611 1.67074 3.11732
-2.61519 1.6696 3.1074
-2.63219 1.67359 3.10647
-2.62939 1.66421 3.08058
-2.6454 1.66721 3.07966
-2.65933 1.67433 3.08766
-2.66149 1.66704 3.06778
-2.67155 1.66691 3.05886
-2.67865 1.66473 3.04594
-2.68574 1.66255 3.03403
-2.69384 1.66038 3.02212
-2.71183 1.66539 3.02218
-2.71191 1.66225 3.01223
-2.71703 1.65803 2.99732
-2.73403 1.66303 2.99638
-2.74211 1.66087 2.98547
-2.75416 1.66177 2.97855
-2.76423 1.66165 2.96962
-2.77232 1.65948 2.95771
-2.77933 1.66147 2.95674
-2.78643 1.65828 2.94384
-2.79946 1.66121 2.93889
-2.81152 1.66212 2.93197
-2.82455 1.66406 2.92704
-2.82868 1.65982 2.91113
-2.84271 1.66176 2.9062
-2.84873 1.66272 2.90323
-2.85583 1.66053 2.89032
-2.86887 1.66247 2.88539
-2.89412 1.659 2.85262
-2.91021 1.65983 2.84073
-2.92424 1.66177 2.83581
-2.93629 1.66367 2.82887
-2.9485 1.65828 2.80204
-2.9655 1.66328 2.80109
-2.9787 1.65892 2.77625
-2.99365 1.665 2.78128
-3.00387 1.65959 2.75343
-3.0189 1.66255 2.7495
-3.02599 1.66037 2.73758
-3.043 1.66536 2.73564
-3.05116 1.66105 2.71476
-3.07541 1.65858 2.68197
-3.09753 1.66036 2.66611
-3.10157 1.65927 2.66016
-3.11065 1.65913 2.65023
-3.12369 1.66105 2.6443
-3.12879 1.65886 2.63136
-3.14893 1.6596 2.6125
-3.19225 1.66001 2.57082
-3.20941 1.65969 2.54895
-3.25075 1.65906 2.50426
-3.28095 1.66168 2.47745
-3.29208 1.66044 2.46055
-3.31024 1.66014 2.43969
-3.35766 1.66034 2.38403
-3.36773 1.6612 2.37409
-3.37482 1.66003 2.36216
-3.39086 1.66397 2.35723
-3.40105 1.66059 2.33135
-3.40708 1.66053 2.32739
-3.41715 1.66141 2.31846
-3.42822 1.66328 2.30951
-3.43033 1.66006 2.29457
-3.4414 1.66094 2.28564
-3.45942 1.66691 2.28269
-3.47048 1.66778 2.27376
-3.46259 1.66157 2.25979
-3.47864 1.66549 2.25385
-3.49865 1.67147 2.25191
-3.49778 1.66622 2.23498
-3.51083 1.66913 2.22803
-3.51891 1.66897 2.2171
-3.526 1.6688 2.20515
-3.54701 1.67578 2.20321
-3.54906 1.67468 2.19624
-3.56013 1.67556 2.18731
-3.56821 1.6754 2.17637
-3.56834 1.67215 2.15941
-3.57643 1.67199 2.14848
-3.57456 1.66674 2.13154
-3.58364 1.66758 2.12059
-3.59165 1.66956 2.11862
-3.59676 1.66735 2.10469
-3.60583 1.66821 2.09475
-3.61888 1.67112 2.0878
-3.61802 1.66685 2.06985
-3.62311 1.66568 2.05791
-3.64016 1.6706 2.05196
-3.6422 1.66951 2.04599
-3.64332 1.66628 2.03005
-3.65439 1.66715 2.02112
-3.66546 1.67003 2.01216
-3.67653 1.67089 2.00223
-3.6866 1.67276 1.99327
-3.67777 1.66443 1.97133
-3.69574 1.67149 1.97436
-3.6889 1.66419 1.95441
-3.70494 1.66911 1.94846
-3.70904 1.66692 1.93552
-3.7022 1.6596 1.91457
2.93389 1.58027 2.57384
2.92597 1.58042 2.5839
2.92006 1.5826 2.59592
2.91107 1.58062 2.59701
2.90414 1.58078 2.60707
2.89824 1.58397 2.62007
2.88629 1.58208 2.62718
2.88441 1.58631 2.64214
2.87245 1.58441 2.64826
2.86346 1.58243 2.64935
2.86159 1.58768 2.66629
2.84964 1.58578 2.67241
2.8518 1.59309 2.69329
2.82371 1.58195 2.68267
2.81982 1.58515 2.69665
2.80484 1.58221 2.69981
2.79988 1.58229 2.70484
2.80204 1.5896 2.72572
2.78907 1.58667 2.72986
2.77711 1.58576 2.73597
2.76516 1.58386 2.74209
2.75421 1.58297 2.74918
2.74225 1.58207 2.75529
2.73124 1.57805 2.75343
2.72332 1.57922 2.76447
2.71641 1.58139 2.77549
2.70949 1.58355 2.78652
2.69753 1.58165 2.79264
2.68356 1.57972 2.79677
2.67168 1.58097 2.81284
2.66073 1.58006 2.81894
2.63294 1.5825 2.84712
2.62199 1.58161 2.85421
2.62013 1.58788 2.87214
2.61516 1.58794 2.87617
2.60017 1.58397 2.87735
2.5963 1.58822 2.89432
2.54745 1.58255 2.91477
2.47587 1.58342 2.9703
2.45498 1.58366 2.98546
2.43914 1.58698 3.00653
2.27307 1.59191 3.12973
2.26507 1.58993 3.13082
2.25412 1.59004 3.1379
2.23545 1.60167 3.17987
2.22248 1.59974 3.184
2.21953 1.60185 3.19099
2.20048 1.59577 3.18523
2.20067 1.60413 3.2091
2.19276 1.60731 3.22112
2.07013 1.59913 3.27117
2.05917 1.59922 3.27725
2.01923 1.59437 3.28563
2.01234 1.59858 3.29962
1.99532 1.59355 3.29682
1.99846 1.60183 3.31568
1.98041 1.59474 3.30892
1.97555 1.60101 3.32686
1.96055 1.59903 3.328
1.9567 1.60532 3.34694
1.93763 1.5982 3.33819
1.92363 1.59523 3.33934
1.92476 1.60246 3.35523
1.90672 1.5964 3.35045
1.89576 1.5965 3.35653
1.88686 1.59968 3.36856
1.87793 1.60182 3.37759
1.86395 1.59988 3.38073
1.85299 1.59997 3.38681
1.84103 1.60005 3.3919
1.83302 1.59803 3.38999
1.82614 1.60327 3.40596
1.81214 1.60028 3.40611
1.80322 1.60345 3.41714
1.79331 1.60562 3.42818
1.77727 1.60056 3.42338
1.76531 1.60066 3.42946
1.76644 1.60791 3.44635
1.7494 1.60283 3.44055
1.73948 1.605 3.4516
1.7265 1.60404 3.45371
1.71961 1.60827 3.4687
1.70563 1.60731 3.47082
1.69061 1.60429 3.46898
1.68463 1.60434 3.47202
1.67369 1.60445 3.47911
1.66375 1.60658 3.48715
1.6528 1.60769 3.49422
1.63779 1.60468 3.49338
1.63195 1.61198 3.51331
1.62202 1.61414 3.52336
1.6079 1.60491 3.5076
1.60204 1.61218 3.52554
1.59111 1.61332 3.5346
1.57913 1.61238 3.53771
1.56819 1.6145 3.54576
1.55318 1.61148 3.54392
1.54224 1.61261 3.55199
1.5383 1.61573 3.55997
1.52531 1.61376 3.5611
1.51437 1.61588 3.56915
1.50548 1.6201 3.58316
1.4795 1.61717 3.5874
-1.29906 1.65984 3.65171
-1.31223 1.65253 3.62991
-1.32916 1.65867 3.63895
-1.35618 1.66165 3.63611
-1.36625 1.65852 3.62723
-1.38025 1.66052 3.6263
-1.38528 1.65946 3.62236
-1.39734 1.65837 3.61546
-1.4123 1.66245 3.62052
-1.42239 1.65928 3.60864
-1.43835 1.66335 3.6127
-1.45038 1.6633 3.60879
-1.46341 1.66427 3.60587
-1.46845 1.66218 3.59994
-1.49057 1.65998 3.58514
-1.51659 1.66194 3.5813
-1.52766 1.66081 3.5724
-1.54167 1.66181 3.57149
-1.57176 1.66165 3.55972
-1.62593 1.66135 3.53713
-1.63896 1.6623 3.53321
-1.64903 1.66117 3.52431
-1.66106 1.66111 3.5194
-1.67802 1.66519 3.52446
-1.70013 1.664 3.51065
-1.7091 1.66707 3.51467
-1.73023 1.66382 3.49687
-1.74227 1.66375 3.49197
-1.76931 1.6667 3.48712
-1.77839 1.66454 3.47622
-1.7994 1.66753 3.47434
-1.80652 1.66231 3.45947
-1.84264 1.6631 3.44372
-1.86059 1.6682 3.44978
-1.86464 1.6671 3.44283
-1.89584 1.66274 3.41713
-1.92484 1.66775 3.41627
-1.93393 1.66559 3.40537
-1.94093 1.66658 3.40441
-1.95713 1.65922 3.37964
-2.01516 1.67019 3.37491
-2.31451 1.66873 3.19616
-2.32754 1.66968 3.19225
-2.34866 1.66846 3.17642
-2.3607 1.66937 3.1705
-2.3918 1.6722 3.15769
-2.42596 1.67292 3.13693
-2.47224 1.67039 3.09931
-2.4904 1.66809 3.07848
-2.50145 1.66901 3.07255
-2.52355 1.66982 3.0587
-2.52958 1.66977 3.05475
-2.54162 1.67068 3.04882
-2.69442 1.67421 2.94291
-2.71371 1.66666 2.90516
-2.71883 1.66345 2.89024
-2.72881 1.66648 2.89227
-2.73888 1.66636 2.88335
-2.73309 1.65595 2.85646
-2.75405 1.66303 2.86051
-2.75618 1.65778 2.8436
-2.7722 1.66176 2.84166
-2.79118 1.66679 2.84273
-2.79324 1.66568 2.83576
-2.79934 1.6635 2.82284
-2.80247 1.65825 2.80594
-2.81848 1.66223 2.804
-2.82557 1.66006 2.79208
-2.83464 1.65993 2.78315
-2.85363 1.66596 2.78421
-2.84875 1.65872 2.76828
-2.86277 1.66268 2.76532
-2.87284 1.66256 2.7564
-2.88489 1.66346 2.74947
-2.90487 1.66951 2.75154
-2.90006 1.66115 2.72762
-2.90912 1.66102 2.71869
-2.9221 1.66508 2.72173
-2.92621 1.66187 2.7078
-2.93727 1.66276 2.69987
-2.94535 1.6616 2.68895
-2.95541 1.66249 2.68101
-2.96647 1.66338 2.67308
-2.97753 1.66427 2.66515
-2.97561 1.66011 2.65419
-2.9837 1.65895 2.64327
-3.0017 1.66395 2.64233
-2.99886 1.65664 2.62142
-3.01587 1.66163 2.62047
-3.02395 1.66048 2.60955
-3.036 1.66238 2.60261
-3.04302 1.66334 2.59965
-3.04713 1.66014 2.58572
-3.05421 1.65998 2.57478
-3.07818 1.66806 2.57884
-3.07931 1.66281 2.56192
-3.08143 1.65957 2.54599
-3.10441 1.66662 2.54805
-3.10156 1.66033 2.52912
-3.10659 1.66026 2.52416
-3.13553 1.6724 2.5322
-3.14076 1.66495 2.50135
-3.14586 1.66176 2.48843
-3.15593 1.66263 2.47949
-3.16202 1.66146 2.46755
-3.18295 1.67061 2.47658
-3.17216 1.6592 2.44966
-3.18321 1.6611 2.44271
-3.2052 1.66812 2.44278
-3.19838 1.65878 2.41986
-3.22447 1.66462 2.40797
-3.22652 1.66251 2.40101
-3.23162 1.66033 2.38808
-3.2387 1.66017 2.37714
-3.27686 1.66688 2.35632
-3.26997 1.65967 2.34238
-3.27706 1.6595 2.33043
-3.30401 1.66959 2.33548
-3.30824 1.66315 2.30561
-3.32428 1.66709 2.30067
-3.32745 1.66177 2.27877
-3.35342 1.67081 2.28083
-3.3487 1.65928 2.24496
-3.36076 1.66217 2.23701
-3.36288 1.65795 2.22208
-3.38289 1.66493 2.22013
-3.39494 1.66684 2.21319
-3.39301 1.66369 2.20322
-3.39513 1.66047 2.18829
-3.40718 1.66237 2.18135
-3.4093 1.65915 2.16641
-3.42335 1.66206 2.15947
-3.44733 1.67109 2.16052
-3.44852 1.66474 2.13662
-3.45262 1.66355 2.12366
-3.45871 1.66237 2.11173
-3.46777 1.66325 2.10278
-3.49078 1.67125 2.10183
-3.48294 1.66293 2.0809
-3.49201 1.66379 2.07095
-3.50501 1.6678 2.07099
-3.51408 1.66866 2.06104
-3.53112 1.6736 2.0561
-3.5382 1.67344 2.04515
-3.53036 1.66512 2.02421
-3.55137 1.67211 2.02227
-3.55847 1.67193 2.01032
-3.54658 1.6637 1.99535
-3.56661 1.67066 1.9914
-3.57966 1.67356 1.98445
-3.58674 1.67341 1.97351
-3.57791 1.66509 1.95256
-3.6039 1.67411 1.95262
-3.59606 1.66579 1.93169
-3.59711 1.6657 1.92569
-3.61216 1.66961 1.91875
-3.61626 1.66742 1.90581
-3.61837 1.6652 1.89086
-3.62247 1.66301 1.87792
-3.63652 1.66692 1.87097
-3.64161 1.66574 1.85902
-3.64372 1.66354 1.84507
-3.6398 1.65937 1.8341
-3.64987 1.66025 1.82516
-3.65795 1.66109 1.8142
-3.67101 1.66398 1.80626
-3.68705 1.6689 1.80031
-3.68816 1.6667 1.78635
-3.67926 1.6595 1.77338
-3.68734 1.66034 1.76243
-3.69044 1.65915 1.74947
-3.7045 1.66304 1.74152
-3.70461 1.65882 1.72658
3.01733 1.58112 2.36518
3.02142 1.5863 2.37707
3.00543 1.58134 2.37926
2.99059 1.58366 2.40034
2.96856 1.57563 2.39763
2.97675 1.58498 2.42143
2.96681 1.58511 2.42951
2.95177 1.57805 2.42472
2.9378 1.57512 2.42887
2.92194 1.57641 2.44797
2.91301 1.57655 2.45704
2.9071 1.57873 2.46906
2.90112 1.57778 2.47211
2.89018 1.57589 2.47923
2.88528 1.57909 2.49222
2.85949 1.57952 2.52041
2.84349 1.57555 2.52159
2.82959 1.57575 2.53469
2.81864 1.57385 2.5408
2.81187 1.58129 2.57075
2.79386 1.57629 2.56996
2.78493 1.57643 2.57902
2.77895 1.57548 2.58208
2.77002 1.57562 2.59115
2.75315 1.5769 2.60926
2.74624 1.57808 2.6213
2.72535 1.57731 2.63547
2.71649 1.58058 2.65349
2.7015 1.57662 2.65566
2.63415 1.58594 2.74204
2.45512 1.58297 2.87145
2.41738 1.5855 2.9057
2.15294 1.59673 3.11256
2.13793 1.59272 3.11173
2.13103 1.59592 3.12474
2.09108 1.59005 3.13213
2.06725 1.5934 3.15426
2.03237 1.59266 3.17054
1.98662 1.59518 3.20385
1.67388 1.60087 3.37214
1.66089 1.5999 3.37426
1.64906 1.60622 3.39525
1.63302 1.60116 3.39045
1.58821 1.60456 3.41574
1.54734 1.60485 3.43305
1.53536 1.6039 3.43615
1.5244 1.605 3.44222
1.51448 1.60715 3.45226
1.50149 1.60518 3.45339
1.4996 1.61138 3.46731
1.48354 1.60529 3.46052
1.47871 1.61362 3.48244
1.47084 1.61986 3.49841
-2.74098 1.67218 2.73626
-2.76713 1.6739 2.71643
-2.86979 1.67466 2.62818
-2.90912 1.67405 2.58548
-2.93136 1.66959 2.55371
-2.99279 1.67178 2.49613
-3.00987 1.67364 2.48623
-3.03509 1.67222 2.45644
-3.04714 1.67514 2.45048
-3.06732 1.67378 2.42565
-3.0805 1.67145 2.40278
-3.09057 1.67132 2.39386
-3.1087 1.67207 2.37598
-3.11572 1.67403 2.37301
-3.13485 1.67479 2.35614
-3.133 1.66851 2.33721
-3.15014 1.66924 2.31833
-3.16617 1.6732 2.31439
-3.17927 1.674 2.30047
-3.18436 1.67182 2.28854
-3.2025 1.67256 2.26967
-3.20661 1.66935 2.25574
-3.22263 1.67432 2.25279
-3.21481 1.66497 2.22987
-3.22282 1.66795 2.22788
-3.24083 1.67293 2.22594
-3.24592 1.67176 2.214
-3.25102 1.66957 2.20107
-3.26109 1.67044 2.19213
-3.27115 1.67233 2.18418
-3.26929 1.66606 2.16625
-3.27134 1.66496 2.15928
-3.28637 1.66891 2.15534
-3.29743 1.67079 2.14639
-3.31048 1.67371 2.14045
-3.30961 1.66846 2.12351
-3.32265 1.67138 2.11757
-3.33669 1.6753 2.11162
-3.33477 1.67115 2.10166
-3.34582 1.67405 2.0947
-3.3539 1.67391 2.08476
-3.36596 1.6758 2.07682
-3.36409 1.67055 2.05989
-3.37315 1.67142 2.05094
-3.38825 1.67424 2.03801
-3.38837 1.67 2.02207
-3.39546 1.66985 2.01113
-3.40453 1.6697 2.00119
-3.41957 1.67464 1.99623
-3.42963 1.67551 1.9873
-3.43373 1.67432 1.97434
-3.44281 1.67418 1.96441
-3.43988 1.67105 1.95543
-3.44696 1.67089 1.94449
-3.45603 1.67175 1.93454
-3.47119 1.67245 1.91364
-3.49138 1.67309 1.88878
-3.50343 1.67598 1.88083
-3.51461 1.67465 1.85793
-3.52381 1.67227 1.83203
-3.52585 1.67119 1.82606
-3.53691 1.67308 1.81812
-3.542 1.6719 1.80617
-3.54112 1.66766 1.79022
-3.5502 1.66952 1.78026
-3.56822 1.67548 1.77631
-3.57033 1.67227 1.76237
-3.5684 1.67014 1.75339
-3.5715 1.66795 1.74044
-3.57957 1.6688 1.73049
-3.58965 1.67066 1.72054
-3.59075 1.66746 1.70659
-3.6048 1.67136 1.69964
-3.61487 1.67324 1.69068
-3.611 1.66798 1.67373
-3.61405 1.6679 1.66775
-3.62411 1.66977 1.6588
-3.63319 1.67063 1.64885
-3.62633 1.66436 1.63089
-3.64038 1.66826 1.62394
-3.64846 1.66911 1.61299
-3.6635 1.67303 1.60704
-3.65261 1.66581 1.59306
-3.65769 1.66565 1.5821
-3.66578 1.6665 1.57115
-3.65991 1.66024 1.5542
-3.66799 1.66108 1.54324
-3.66212 1.65483 1.52629
2.91203 1.58861 2.32585
2.85256 1.59169 2.39626
2.84363 1.59183 2.40533
2.82374 1.59006 2.42051
2.79095 1.5895 2.44877
2.76817 1.59095 2.47792
2.75924 1.59107 2.48599
2.7503 1.59121 2.49506
2.74036 1.59132 2.50213
2.72947 1.59255 2.5172
2.71953 1.59168 2.52528
2.70064 1.59192 2.54043
2.6897 1.59103 2.54752
2.68976 1.59315 2.55549
2.67983 1.59329 2.56457
2.67089 1.59341 2.57263
2.66094 1.59252 2.57972
2.65402 1.59469 2.59074
2.64205 1.59276 2.59486
2.62909 1.58984 2.6
2.62815 1.59296 2.60797
2.62224 1.59514 2.61998
2.61533 1.59731 2.631
2.60135 1.59337 2.63416
2.59241 1.59349 2.64223
2.58347 1.59362 2.6503
2.57454 1.59475 2.65935
2.56451 1.59072 2.65648
2.5586 1.5939 2.66848
2.55068 1.59405 2.67854
2.52761 1.58495 2.67085
2.52372 1.58916 2.68482
2.24852 1.60187 2.92374
2.2406 1.60403 2.93377
2.23065 1.60414 2.94084
2.21665 1.60115 2.94099
2.21177 1.60639 2.95695
2.18969 1.59624 2.94627
2.18876 1.59937 2.95523
2.1869 1.60666 2.97414
2.1709 1.60267 2.97432
2.15994 1.60175 2.97941
2.15202 1.60392 2.99044
2.14208 1.60403 2.99752
2.12504 1.59898 2.99372
1.86042 1.61186 3.17655
1.84247 1.61096 3.1827
1.83456 1.61414 3.19471
1.81953 1.61011 3.19188
1.81062 1.61228 3.20292
1.79865 1.61134 3.20703
1.78668 1.61141 3.21111
1.77175 1.61157 3.22123
1.74883 1.61174 3.2314
1.72691 1.61192 3.24256
1.70704 1.61517 3.25867
1.70105 1.6152 3.26071
1.69212 1.61634 3.26976
-2.95855 1.67327 2.39584
-2.96159 1.67319 2.38986
-2.97972 1.67295 2.373
-2.99487 1.67266 2.35311
-3.01201 1.67239 2.33424
-3.04636 1.66974 2.28853
-3.0715 1.67247 2.26968
-3.07957 1.67233 2.25974
-3.10082 1.67087 2.22792
-3.11286 1.67279 2.22198
-3.12093 1.67265 2.21204
-3.12199 1.67055 2.20508
-3.13615 1.67025 2.18419
-3.14422 1.67011 2.17425
-3.15528 1.671 2.16632
-3.16236 1.67085 2.15637
-3.16745 1.66968 2.14443
-3.17851 1.67057 2.1365
-3.18055 1.66948 2.13053
-3.18266 1.66628 2.11659
-3.20576 1.67108 2.10269
-3.21384 1.67094 2.09275
-3.22389 1.67283 2.0848
-3.216 1.66562 2.07084
-3.22408 1.66548 2.06091
-3.24718 1.67029 2.04701
-3.25724 1.67217 2.03905
-3.27339 1.67289 2.01916
-3.28041 1.67385 2.0162
-3.29158 1.67253 1.9943
-3.29269 1.66831 1.97937
-3.31071 1.67428 1.97642
-3.30785 1.66801 1.95848
-3.32189 1.67195 1.95353
-3.32692 1.67289 1.94956
-3.32803 1.66967 1.93461
-3.34008 1.67158 1.92767
-3.34219 1.66937 1.91372
-3.35524 1.67228 1.90677
-3.35435 1.66805 1.89183
-3.3674 1.67096 1.88488
-3.36652 1.66674 1.86993
-3.37653 1.67071 1.86795
-3.38559 1.6716 1.86
-3.3887 1.6694 1.84606
-3.39776 1.67027 1.83711
-3.41081 1.67418 1.83015
-3.41491 1.672 1.81821
-3.41801 1.66981 1.80527
-3.42802 1.67379 1.80328
-3.45235 1.67215 1.75948
-3.46341 1.67404 1.75154
-3.46651 1.67285 1.73858
-3.47762 1.67364 1.72365
-3.49887 1.67317 1.69081
-3.50594 1.67402 1.68085
-3.53841 1.67213 1.61911
-3.55156 1.67283 1.5982
-3.5566 1.67376 1.59322
-3.56268 1.6736 1.58227
-3.56877 1.67344 1.57132
-3.57386 1.67327 1.55936
-3.60732 1.67339 1.4986
-3.6134 1.67323 1.48764
-3.67031 1.67148 1.36708
-3.67135 1.67039 1.36111
-3.66848 1.66615 1.34514
-3.67455 1.66701 1.33518
-3.67177 1.65958 1.30626
-3.6958 1.66853 1.30231
2.36801 1.60181 2.72181
2.34911 1.60203 2.73595
-3.65736 1.65546 1.09618
3.22331 -0.386289 1.88768
3.20629 -0.386352 2.01783
3.18605 -0.386826 2.12
3.19114 -0.386667 2.13096
3.17181 -0.387335 2.22013
3.17507 -0.386819 2.2551
3.16715 -0.386665 2.26516
3.16451 -0.386952 2.31319
3.15866 -0.387652 2.33325
3.15288 -0.387218 2.36229
3.15502 -0.387938 2.38129
3.14709 -0.387799 2.39035
3.15225 -0.387477 2.41231
3.14628 -0.387414 2.41635
3.13346 -0.387064 2.43944
3.14466 -0.387672 2.46637
3.12869 -0.387601 2.47049
3.13083 -0.387321 2.48947
3.13197 -0.388041 2.50848
3.12808 -0.387831 2.52251
3.13519 -0.388614 2.53747
3.13231 -0.388375 2.55349
3.11935 -0.388291 2.55859
3.12251 -0.387982 2.57956
3.11056 -0.38787 2.58665
3.1097 -0.387603 2.60465
3.11997 -0.389062 2.6416
3.10904 -0.388936 2.64969
3.1132 -0.388613 2.67165
3.10241 -0.389191 2.69975
3.10054 -0.388937 2.71676
3.09859 -0.388832 2.72377
3.09471 -0.388593 2.7398
3.09283 -0.389354 2.75583
3.08996 -0.3891 2.77285
3.09313 -0.389762 2.79584
3.08925 -0.389537 2.81087
3.08745 -0.389136 2.83788
3.08357 -0.389896 2.85392
3.08171 -0.389628 2.87193
3.07294 -0.390163 2.90301
3.07209 -0.389866 2.92302
3.06526 -0.39052 2.94608
3.0575 -0.390041 2.97813
3.05463 -0.389787 2.99516
3.06185 -0.390363 3.02411
3.05092 -0.390221 3.03319
3.05309 -0.390882 3.05619
3.05116 -0.390748 3.06521
3.04241 -0.391252 3.09828
3.03567 -0.391729 3.13335
3.03584 -0.391403 3.15534
3.03096 -0.391148 3.17238
3.03844 -0.39222 3.23535
3.01962 -0.391851 3.25949
3.0129 -0.392298 3.29655
3.01298 -0.392136 3.30755
3.01921 -0.392681 3.33851
3.00442 -0.393256 3.36664
3.00663 -0.393857 3.39363
3.01084 -0.393431 3.4226
3.00093 -0.393261 3.43367
2.99497 -0.393182 3.43872
2.99313 -0.393855 3.46074
2.98359 -0.393945 3.52182
2.98984 -0.394461 3.55479
2.84668 -0.405923 4.59818
2.83378 -0.405707 4.61228
2.83303 -0.406217 4.6453
2.83026 -0.406756 4.67633
2.82068 -0.40692 4.73241
2.82793 -0.408436 4.76538
2.81909 -0.408119 4.78645
2.81127 -0.408758 4.81052
2.80648 -0.40834 4.83855
2.80374 -0.408834 4.87259
2.79693 -0.409444 4.89865
2.80113 -0.410047 4.92563
2.79536 -0.410599 4.95569
2.78856 -0.410194 4.98274
2.79293 -0.411471 5.03173
2.77903 -0.411269 5.04483
2.77428 -0.411776 5.07788
2.76952 -0.412299 5.10993
2.77475 -0.412844 5.1409
2.7629 -0.412554 5.15999
2.76729 -0.413787 5.21198
2.75341 -0.413539 5.22808
2.75271 -0.413932 5.2691
2.74696 -0.414439 5.30216
2.74222 -0.414932 5.3362
2.73342 -0.415525 5.36328
2.73462 -0.416141 5.38929
2.73193 -0.416532 5.43032
2.72618 -0.417024 5.46437
2.72247 -0.417444 5.50341
2.7147 -0.417994 5.53348
2.70899 -0.418427 5.57154
2.70121 -0.418977 5.60161
2.70242 -0.419563 5.62961
2.70076 -0.419895 5.67464
2.69607 -0.420285 5.71568
2.68424 -0.420935 5.73879
2.67955 -0.421325 5.77983
2.6769 -0.421627 5.82686
2.6771 -0.422242 5.85287
2.66937 -0.422703 5.88894
2.66367 -0.423106 5.929
2.66102 -0.424408 5.97604
2.64823 -0.423999 6.00314
2.65068 -0.425112 6.06314
2.63889 -0.425689 6.09125
2.63423 -0.426019 6.13629
2.62675 -0.427977 6.20639
2.62212 -0.428248 6.25543
2.61135 -0.428781 6.28653
2.60469 -0.429109 6.33159
2.59395 -0.429598 6.36568
3.34984 -0.36709 0.893305
3.34223 -0.366329 0.944358
3.27739 -0.363107 1.49688
3.26287 -0.363134 1.56199
3.23004 -0.36186 1.84926
3.20457 -0.36079 1.92045
3.20965 -0.361631 1.93142
3.20071 -0.361506 1.93949
3.20183 -0.36127 1.95548
3.19692 -0.361103 1.96652
3.20005 -0.360854 1.98349
3.19921 -0.361527 2.00551
3.19832 -0.361304 2.02052
3.18738 -0.361193 2.0276
3.19063 -0.360706 2.06057
3.17885 -0.361253 2.09067
3.17506 -0.360836 2.1187
3.18021 -0.360544 2.13866
3.17654 -0.360889 2.1827
3.1766 -0.360771 2.1907
3.17472 -0.360547 2.20571
3.1688 -0.36038 2.21675
3.16389 -0.361199 2.2288
3.15911 -0.360766 2.25784
3.1542 -0.360585 2.26987
3.15527 -0.360452 2.27886
3.15439 -0.360215 2.29487
3.15149 -0.36102 2.3079
3.1496 -0.360796 2.32292
3.14771 -0.360573 2.33793
3.15186 -0.36128 2.35791
3.14193 -0.360139 2.36697
3.14206 -0.360873 2.38498
3.14011 -0.360782 2.391
3.13634 -0.360321 2.42202
3.12968 -0.360649 2.46709
3.13378 -0.36046 2.48005
3.12989 -0.36125 2.4941
3.12297 -0.361082 2.50515
3.12008 -0.360857 2.52017
3.11632 -0.360396 2.55119
3.11854 -0.360953 2.58119
3.11465 -0.360743 2.59522
3.10686 -0.360308 2.62427
3.10599 -0.361055 2.64129
3.10412 -0.360802 2.65831
3.10123 -0.360578 2.67333
3.10835 -0.361346 2.68929
3.10346 -0.361135 2.70332
3.10059 -0.360881 2.72034
3.09267 -0.360713 2.7314
3.0918 -0.361445 2.74942
3.08691 -0.361234 2.76346
3.08813 -0.360806 2.79245
3.08526 -0.361552 2.80948
3.09044 -0.3612 2.83344
3.08655 -0.360975 2.84847
3.07865 -0.360777 2.86153
3.08081 -0.361468 2.88252
3.0729 -0.361284 2.89458
3.077 -0.36108 2.90855
3.07111 -0.360868 2.92259
3.06823 -0.361629 2.93863
3.07142 -0.361261 2.9636
3.06451 -0.361079 2.97565
3.06063 -0.361824 2.9927
3.05877 -0.361556 3.01071
3.06397 -0.362175 3.03668
3.06405 -0.362012 3.04768
3.05312 -0.361871 3.05676
3.0563 -0.361518 3.08074
3.05344 -0.362234 3.09977
3.04754 -0.362022 3.11381
3.03964 -0.361839 3.12587
3.05182 -0.362492 3.14979
3.03888 -0.362364 3.15789
3.03264 -0.362849 3.25996
3.02803 -0.363091 3.311
3.02518 -0.362792 3.33102
3.02333 -0.362495 3.35104
3.0146 -0.362955 3.38711
3.00881 -0.362536 3.41515
3.01202 -0.363124 3.44314
2.99844 -0.3633 3.49826
2.98669 -0.363787 3.53236
2.85069 -0.369945 4.59662
2.84185 -0.369628 4.61768
2.84501 -0.370319 4.63867
2.84123 -0.369872 4.6687
2.83441 -0.370512 4.69276
2.83064 -0.370065 4.72279
2.81773 -0.370877 4.7349
2.82004 -0.371257 4.77689
2.81931 -0.370738 4.8119
2.81235 -0.371644 4.81796
2.8167 -0.371966 4.86394
2.8028 -0.371749 4.87805
2.79396 -0.371431 4.89911
2.79123 -0.371911 4.93414
2.79354 -0.37229 4.97614
2.78269 -0.371986 4.99622
2.77605 -0.372271 5.04428
2.77129 -0.372793 5.07633
2.76653 -0.373331 5.10737
2.76075 -0.373882 5.13743
2.75701 -0.373376 5.17145
2.75378 -0.374863 5.27352
2.74496 -0.374501 5.29758
2.73718 -0.375066 5.32665
2.72094 -0.375558 5.42779
2.72112 -0.376203 5.45181
2.71638 -0.376681 5.48685
2.70861 -0.376231 5.51691
2.70018 -0.377084 5.594
2.69346 -0.377546 5.63006
2.68117 -0.37813 5.72517
2.67546 -0.378563 5.76323
2.65181 -0.37988 5.94345
2.64613 -0.380254 5.9855
2.64145 -0.380614 6.02855
2.63373 -0.38106 6.06562
2.62804 -0.381434 6.10768
2.61386 -0.382809 6.21682
2.61023 -0.383081 6.26586
2.60865 -0.38425 6.32189
3.21969 -0.342596 1.93407
3.20997 -0.343026 1.97215
3.21003 -0.342922 1.97915
3.21115 -0.342686 1.99514
3.20346 -0.342073 2.0362
3.20168 -0.342628 2.06622
3.19292 -0.342147 2.09828
3.19002 -0.341953 2.11131
3.19216 -0.341688 2.12929
3.18535 -0.342298 2.15535
3.18347 -0.342074 2.17036
3.18465 -0.341705 2.19535
3.18175 -0.34151 2.20837
3.17206 -0.341896 2.24946
3.17313 -0.341763 2.25845
3.16935 -0.341316 2.28848
3.16369 -0.341646 2.33353
3.15678 -0.341463 2.34558
3.16187 -0.341289 2.35754
3.14655 -0.340945 2.44766
3.123 -0.34107 2.64087
3.1171 -0.340873 2.65391
3.11155 -0.34098 2.71396
3.10027 -0.340565 2.80906
3.05939 -0.340359 3.0914
3.04333 -0.340511 3.21554
3.0356 -0.339972 3.2516
2.62515 -0.349303 6.25124
3.36661 -0.32361 0.85853
3.20182 -0.312364 1.94876
3.20294 -0.312128 1.96475
3.20104 -0.311934 1.97776
3.19612 -0.311767 1.9888
3.19323 -0.311558 2.00282
3.18943 -0.312155 2.02986
3.19156 -0.311905 2.04684
3.1876 -0.311828 2.05187
3.19374 -0.311551 2.07082
3.18481 -0.311411 2.07989
3.17901 -0.311007 2.10693
3.18013 -0.310771 2.12292
3.1793 -0.31143 2.14594
3.17641 -0.31122 2.15996
3.17552 -0.310998 2.17497
3.17464 -0.310775 2.18997
3.17576 -0.310524 2.20696
3.16985 -0.310357 2.218
3.17796 -0.310141 2.23294
3.16701 -0.310029 2.24002
3.16713 -0.309792 2.25602
3.16122 -0.30961 2.26806
3.16436 -0.310346 2.28605
3.15846 -0.310149 2.2991
3.15555 -0.309954 2.31212
3.15159 -0.309877 2.31715
3.15071 -0.30964 2.33315
3.15185 -0.309374 2.35114
3.15298 -0.309108 2.36913
3.14908 -0.308913 2.38216
3.14821 -0.309661 2.39918
3.14632 -0.309437 2.41419
3.14337 -0.309346 2.42022
3.14249 -0.309109 2.43622
3.13859 -0.308898 2.45025
3.13771 -0.308661 2.46626
3.13181 -0.308464 2.4793
3.13294 -0.308213 2.49629
3.12805 -0.308002 2.51032
3.13415 -0.308799 2.52429
3.13026 -0.308589 2.53832
3.12147 -0.308168 2.56638
3.12865 -0.307818 2.59033
3.12174 -0.307635 2.60238
3.11986 -0.307397 2.61839
3.10892 -0.307271 2.62647
3.11805 -0.308011 2.64442
3.10712 -0.307884 2.6525
3.10524 -0.307631 2.66951
3.10639 -0.30735 2.6885
3.10552 -0.307083 2.70651
3.10365 -0.30683 2.72352
3.1017 -0.306725 2.73053
3.10487 -0.307402 2.75252
3.103 -0.307148 2.76954
3.10012 -0.306895 2.78656
3.09019 -0.306754 2.79563
3.08545 -0.306247 2.82966
3.08955 -0.306058 2.84263
3.08467 -0.306817 2.85868
3.07776 -0.306634 2.87073
3.07892 -0.306324 2.89172
3.07805 -0.306057 2.90973
3.06611 -0.30593 2.91782
3.07131 -0.305549 2.94378
3.0734 -0.306372 2.95577
3.06851 -0.306147 2.97081
3.06262 -0.305935 2.98485
3.06378 -0.30561 3.00684
3.05587 -0.305427 3.0189
3.05905 -0.305074 3.04287
3.0572 -0.305791 3.0619
3.05038 -0.305431 3.08595
3.04852 -0.305148 3.10496
3.04667 -0.30485 3.12498
3.04582 -0.304554 3.14498
3.04699 -0.305214 3.16798
3.03708 -0.305044 3.17906
3.04017 -0.304853 3.19203
3.04236 -0.304485 3.21702
3.04051 -0.304187 3.23703
3.02958 -0.304046 3.24611
3.02976 -0.304691 3.27012
3.02388 -0.304464 3.28516
3.01698 -0.304252 3.29921
3.01926 -0.303706 3.33619
3.01961 -0.30401 3.3832
3.0018 -0.303627 3.40833
2.99555 -0.303156 3.50739
2.98766 -0.302928 3.52245
2.84887 -0.299685 4.6136
2.84203 -0.299354 4.63564
2.83826 -0.298907 4.66567
2.83449 -0.29946 4.69571
2.83259 -0.299251 4.70972
2.83085 -0.298747 4.74373
2.82504 -0.299357 4.76979
2.82127 -0.29891 4.79982
2.81141 -0.298622 4.81889
2.81575 -0.298958 4.86387
2.80186 -0.298741 4.87797
2.79403 -0.298395 4.90103
2.79925 -0.298969 4.93
2.79245 -0.298564 4.95705
2.78465 -0.298174 4.98311
2.78393 -0.298625 5.02012
2.78119 -0.298105 5.05514
2.77845 -0.298584 5.09018
2.77761 -0.298273 5.11118
2.76979 -0.297912 5.13524
2.76505 -0.298405 5.16928
2.75724 -0.298014 5.19534
2.75554 -0.297435 5.23435
2.74674 -0.298029 5.26143
2.74402 -0.297479 5.29845
2.72765 -0.297268 5.5146
2.71886 -0.296847 5.54266
2.72107 -0.297434 5.57066
2.71635 -0.296868 5.60869
2.70286 -0.296866 5.6758
2.69917 -0.297241 5.71784
2.69244 -0.296718 5.75289
2.68367 -0.297252 5.78397
2.68 -0.296613 5.82699
2.6755 -0.296618 5.89403
2.66573 -0.296151 5.9251
2.66106 -0.296511 5.96815
2.65638 -0.296871 6.0112
2.64968 -0.296274 6.05124
2.64095 -0.295734 6.08731
2.64217 -0.296306 6.11631
2.63854 -0.296577 6.16535
2.62369 -0.29627 6.18546
2.6221 -0.296469 6.23948
2.60875 -0.296171 6.32659
3.35004 -0.303786 0.913369
3.34808 -0.30371 0.918384
3.35519 -0.303493 0.933329
3.35136 -0.303165 0.955356
3.34557 -0.302746 0.983397
3.34274 -0.303403 1.00643
3.3318 -0.302277 1.0145
3.33923 -0.302438 1.07145
3.33149 -0.301929 1.10551
3.32556 -0.301777 1.11555
3.32866 -0.301586 1.12853
3.31977 -0.301358 1.14359
3.32689 -0.301126 1.15954
3.32106 -0.300796 1.18158
3.32015 -0.300618 1.19359
3.30481 -0.299318 1.28069
3.29693 -0.299075 1.29675
3.30114 -0.298664 1.32472
3.30224 -0.298472 1.33771
3.28838 -0.298181 1.35681
3.29445 -0.299052 1.36578
3.27868 -0.298581 1.3969
3.28079 -0.298375 1.41088
3.28801 -0.297936 1.44082
3.28003 -0.297886 1.44388
3.27923 -0.297501 1.46989
3.2723 -0.297362 1.47894
3.26472 -0.296528 1.53499
3.26884 -0.296294 1.55096
3.26804 -0.295893 1.57796
3.26227 -0.295445 1.608
3.25847 -0.295057 1.63403
3.25577 -0.295463 1.67406
3.24482 -0.295351 1.68114
3.24699 -0.295012 1.70412
3.23514 -0.294707 1.72421
3.23372 -0.293566 1.80122
3.22993 -0.293163 1.82824
3.0074 -0.279463 3.35193
2.98775 -0.277783 3.53208
2.84886 -0.269747 4.60915
2.84305 -0.270358 4.63521
2.83245 -0.269566 4.68828
2.82867 -0.269133 4.71731
2.8291 -0.26929 4.77432
2.82636 -0.268784 4.80833
2.81375 -0.268005 4.86042
2.80927 -0.26798 4.92947
2.80264 -0.267249 4.97851
2.79411 -0.26731 5.04159
2.78631 -0.266905 5.06864
2.78459 -0.267355 5.10567
2.7778 -0.266936 5.13372
2.75019 -0.265191 5.31792
2.73869 -0.265205 5.38402
2.73719 -0.264212 5.45103
2.72774 -0.264124 5.52411
2.71425 -0.264107 5.59222
2.69932 -0.263008 5.73333
2.68484 -0.261961 5.80344
2.66124 -0.261189 5.98963
2.64885 -0.260981 6.07073
2.63344 -0.259815 6.14884
2.63107 -0.259584 6.23187
2.61261 -0.259504 6.30401
3.34446 -0.278 0.966037
3.33352 -0.277873 0.974119
3.33862 -0.277669 0.988079
3.32886 -0.277189 1.02015
3.33898 -0.276959 1.03607
3.33903 -0.27687 1.04207
3.3362 -0.276528 1.06509
3.33028 -0.276375 1.07513
3.32176 -0.275421 1.13919
3.32285 -0.275244 1.15118
3.31793 -0.275078 1.16222
3.30799 -0.274952 1.17029
3.30814 -0.274671 1.18929
3.31935 -0.27425 1.21821
3.3045 -0.273957 1.23732
3.3097 -0.273561 1.26427
3.29981 -0.273332 1.27935
3.29398 -0.273002 1.30139
3.28706 -0.272849 1.31144
3.29833 -0.272309 1.34835
3.28749 -0.272005 1.36843
3.28658 -0.271827 1.38044
3.28467 -0.271633 1.39345
3.28401 -0.270966 1.43845
3.27838 -0.271236 1.48751
3.27151 -0.27098 1.50456
3.26287 -0.270263 1.55262
3.25339 -0.269234 1.62168
3.24546 -0.269095 1.63074
3.2516 -0.268833 1.6487
3.24773 -0.268563 1.66672
3.24381 -0.268398 1.67775
3.24794 -0.268149 1.69472
3.23399 -0.26805 1.70082
3.24715 -0.267749 1.72172
3.24133 -0.267374 1.74676
3.24048 -0.267077 1.76677
3.23255 -0.266938 1.77583
3.23066 -0.26673 1.78984
3.2359 -0.26626 1.8218
3.03413 -0.248003 3.18124
2.74959 -0.222424 5.23428
2.71257 -0.219518 5.49656
2.61211 -0.21056 6.23228
3.10886 -0.233516 2.7444
3.34552 -0.237931 0.970437
3.34059 -0.237779 0.980473
3.34365 -0.237678 0.987449
3.34574 -0.237487 1.00043
3.3358 -0.237361 1.00851
3.3369 -0.237169 1.0215
3.34401 -0.236952 1.03644
3.33307 -0.236841 1.04352
3.32714 -0.236688 1.05357
3.32427 -0.236434 1.07059
3.32537 -0.236243 1.08358
3.33248 -0.236026 1.09852
3.31853 -0.235927 1.10463
3.32875 -0.234505 1.13353
3.3148 -0.235391 1.14065
3.31986 -0.234276 1.1486
3.32096 -0.234085 1.16159
3.31503 -0.233947 1.17063
3.31011 -0.23378 1.18167
3.30829 -0.233424 1.20568
3.31536 -0.233296 1.21463
3.30552 -0.232978 1.2357
3.30059 -0.232826 1.24574
3.31273 -0.232568 1.26364
3.30579 -0.23243 1.2727
3.29185 -0.232316 1.2798
3.30394 -0.232147 1.29171
3.30102 -0.231982 1.30273
3.29409 -0.231844 1.31178
3.30021 -0.231611 1.32773
3.29629 -0.231446 1.33876
3.29137 -0.231294 1.3488
3.29749 -0.231061 1.36475
3.29051 -0.231012 1.3678
3.28359 -0.230859 1.37785
3.29171 -0.230628 1.39379
3.28277 -0.230488 1.40286
3.28287 -0.230296 1.41586
3.27705 -0.229951 1.4389
3.27514 -0.229772 1.45091
3.27428 -0.22949 1.46992
3.27238 -0.229296 1.48293
3.26454 -0.228964 1.50499
3.26464 -0.228772 1.51799
3.26479 -0.228476 1.53798
3.26791 -0.227256 1.55294
3.26812 -0.226842 1.58094
3.25215 -0.226771 1.58506
3.25732 -0.226434 1.60802
3.25441 -0.226254 1.62004
3.25361 -0.225854 1.64704
3.2507 -0.225674 1.65906
3.24188 -0.225327 1.68213
3.23892 -0.225251 1.68715
3.23812 -0.22485 1.71415
3.2305 -0.22409 1.76521
3.23067 -0.223764 1.7872
3.22575 -0.223597 1.79824
3.23401 -0.2231 1.83218
2.99437 -0.190656 3.47273
2.84279 -0.168006 4.59069
2.84306 -0.166488 4.62567
2.83117 -0.166257 4.64076
2.83549 -0.165638 4.68272
2.8336 -0.165415 4.69773
2.83083 -0.164954 4.72875
2.82402 -0.164579 4.7538
2.81141 -0.1628 4.80588
2.81373 -0.162179 4.84786
2.80793 -0.161775 4.8749
2.80215 -0.161356 4.90294
2.80432 -0.160018 4.92591
2.80461 -0.15944 4.9649
2.79477 -0.159122 4.98597
2.79103 -0.158616 5.02
2.77814 -0.158384 5.03509
2.78048 -0.15672 5.08006
2.77791 -0.155874 5.13707
2.76707 -0.155555 5.15815
2.77245 -0.154804 5.20911
2.76366 -0.153398 5.23616
2.75485 -0.153021 5.26122
2.75009 -0.152529 5.29425
2.75433 -0.152073 5.32522
2.75061 -0.151508 5.36325
2.74486 -0.15003 5.39527
2.73505 -0.149638 5.42134
2.73134 -0.149072 5.45937
2.72458 -0.148593 5.49142
2.71984 -0.147072 5.52643
2.71412 -0.146534 5.56247
2.70959 -0.145598 5.6255
2.70285 -0.14509 5.65955
2.69305 -0.143683 5.68661
2.69547 -0.142856 5.74259
2.68467 -0.142463 5.76866
2.68793 -0.141962 5.80264
2.67915 -0.140511 5.83269
2.67244 -0.139943 5.87073
2.66266 -0.139492 5.9008
2.66612 -0.137591 5.96176
2.65431 -0.137213 5.98685
2.64986 -0.136128 6.05987
2.63908 -0.135691 6.08895
2.64157 -0.133745 6.15291
2.63487 -0.133133 6.19396
2.62921 -0.132478 6.238
2.61233 -0.132214 6.25512
2.60769 -0.130514 6.30214
2.60383 -0.13023 6.32117
3.3401 -0.213819 1.04513
3.31749 -0.213032 1.0973
3.32192 -0.212191 1.15426
3.32115 -0.211732 1.18526
3.31442 -0.211209 1.22031
3.31751 -0.210018 1.23327
3.31561 -0.209824 1.24628
3.30476 -0.209535 1.26536
3.30791 -0.209227 1.28634
3.29817 -0.208716 1.32041
3.2944 -0.208269 1.35044
3.29168 -0.207704 1.38845
3.2852 -0.205678 1.45748
3.2853 -0.205486 1.47048
3.28339 -0.205306 1.48249
3.27445 -0.205181 1.49056
3.27772 -0.204651 1.52653
3.27581 -0.204472 1.53854
3.2719 -0.204306 1.54957
3.26799 -0.204125 1.5616
3.26418 -0.203752 1.58663
3.26824 -0.203622 1.5956
3.26634 -0.203428 1.60861
3.25138 -0.203343 1.61372
3.25751 -0.203096 1.63068
3.25386 -0.201412 1.67668
3.25005 -0.201025 1.70271
3.24011 -0.200899 1.71078
3.23557 -0.199992 1.77181
3.23869 -0.199758 1.78779
3.15087 -0.18749 2.34235
3.14315 -0.186937 2.3794
3.12615 -0.18397 2.5115
3.10559 -0.179127 2.70261
3.0986 -0.179092 2.70466
3.06914 -0.17505 2.90886
3.05302 -0.172306 3.02595
3.04257 -0.170232 3.09801
3.01701 -0.165371 3.29016
3.19998 -0.168245 1.95564
3.19819 -0.167829 1.98365
3.19535 -0.167516 2.00467
3.19647 -0.16728 2.02066
3.19758 -0.166059 2.03563
3.19368 -0.165863 2.04866
3.19279 -0.16564 2.06367
3.18681 -0.165592 2.06671
3.18705 -0.165133 2.09771
3.18616 -0.16491 2.11271
3.17734 -0.163548 2.13676
3.17746 -0.163311 2.15276
3.17652 -0.163192 2.16077
3.17362 -0.162998 2.17379
3.18078 -0.162692 2.19473
3.18091 -0.16144 2.21172
3.17399 -0.161273 2.22277
3.17008 -0.161092 2.2348
3.16517 -0.160911 2.24683
3.17631 -0.160652 2.26475
3.1714 -0.160471 2.27678
3.16862 -0.159025 2.30679
3.16171 -0.158857 2.31784
3.15781 -0.158647 2.33186
3.16096 -0.158368 2.35084
3.16303 -0.158221 2.36082
3.15914 -0.158011 2.37485
3.15826 -0.156774 2.39084
3.15637 -0.15655 2.40585
3.14141 -0.156465 2.41097
3.14858 -0.15613 2.43391
3.14167 -0.155962 2.44496
3.13972 -0.155857 2.45198
3.13494 -0.154409 2.482
3.1381 -0.1541 2.50297
3.13722 -0.153863 2.51898
3.12729 -0.153722 2.52805
3.12843 -0.153442 2.54704
3.13159 -0.152148 2.567
3.12562 -0.152085 2.57104
3.12374 -0.151846 2.58706
3.12689 -0.151538 2.60803
3.12502 -0.151284 2.62504
3.11911 -0.151102 2.63709
3.11933 -0.149688 2.66507
3.11745 -0.149435 2.68208
3.11472 -0.147915 2.71708
3.11183 -0.147691 2.7321
3.10305 -0.147255 2.76117
3.10313 -0.147092 2.77217
3.09838 -0.1456 2.80518
3.09853 -0.145304 2.82518
3.08774 -0.144896 2.85226
3.08688 -0.144614 2.87127
3.09099 -0.14341 2.88522
3.07904 -0.143298 2.89231
3.08222 -0.142945 2.91628
3.0743 -0.142776 2.92734
3.07648 -0.142437 2.95032
3.06654 -0.142296 2.9594
3.07376 -0.140872 2.98833
3.06685 -0.14069 3.00038
3.06507 -0.140259 3.02939
3.06625 -0.138919 3.05236
3.05834 -0.138721 3.06542
3.04959 -0.138241 3.09748
3.05774 -0.136951 3.11741
3.05402 -0.136385 3.15543
3.03906 -0.1363 3.16054
3.04729 -0.134847 3.19146
3.03738 -0.134677 3.20254
3.03451 -0.134409 3.22056
3.03376 -0.13292 3.25355
3.03292 -0.132608 3.27455
3.02704 -0.132367 3.29059
3.02217 -0.132112 3.30763
3.02234 -0.130771 3.33061
3.01443 -0.130588 3.34267
3.01755 -0.130353 3.35864
3.01572 -0.130026 3.38066
3.01993 -0.128615 3.40861
3.00699 -0.128487 3.4167
3.0102 -0.128074 3.44468
3.00432 -0.127848 3.45972
2.99238 -0.127706 3.46881
2.99753 -0.126428 3.48776
2.98982 -0.125845 3.52681
2.99101 -0.124476 3.55178
2.84553 -0.089654 4.68152
2.83669 -0.0893366 4.70259
2.83494 -0.0878468 4.73558
2.83217 -0.0873857 4.7666
2.82435 -0.0860395 4.78964
2.82348 -0.0857724 4.80765
2.81494 -0.0838778 4.86769
2.81118 -0.0834012 4.89972
2.80437 -0.0820113 4.92575
2.79656 -0.0816502 4.94981
2.79802 -0.0797481 5.01078
2.78544 -0.0779098 5.06685
2.77389 -0.076013 5.12692
2.77134 -0.0741228 5.18692
2.76387 -0.0710959 5.25594
2.75133 -0.0691687 5.31802
2.75168 -0.0674879 5.36399
2.74305 -0.0667561 5.41305
2.72378 -0.0633059 5.51016
2.72109 -0.0616969 5.55116
2.70049 -0.059912 5.6033
2.70798 -0.0579402 5.66922
2.7041 -0.0577005 5.68525
2.68656 -0.0557993 5.74536
2.67412 -0.0526799 5.82042
2.68063 -0.0506926 5.88735
2.66373 -0.050473 5.90148
2.6562 -0.0485495 5.96352
2.65866 -0.0466629 6.02348
2.65094 -0.0450947 6.06152
2.64525 -0.0434836 6.10254
2.62575 -0.0414922 6.16867
3.20427 -0.146702 1.99229
3.1964 -0.146445 2.00935
3.19148 -0.146278 2.02039
3.20267 -0.145916 2.0453
3.18983 -0.144596 2.06638
3.18391 -0.144429 2.07742
3.18397 -0.144311 2.08542
3.1861 -0.14406 2.1024
3.19124 -0.143783 2.12136
3.17741 -0.143447 2.14347
3.1735 -0.142266 2.15548
3.17066 -0.141939 2.1775
3.18084 -0.141591 2.20142
3.17405 -0.140186 2.22846
3.16512 -0.140046 2.23752
3.16927 -0.139753 2.25749
3.15731 -0.139656 2.26358
3.16549 -0.138306 2.2875
