2.61731 1.57468 4.33782
2.60339 1.57484 4.34792
2.60352 1.58009 4.36485
2.58553 1.57813 4.36701
2.5706 1.57826 4.37512
2.56276 1.58357 4.39611
2.54476 1.5806 4.39728
2.52982 1.58073 4.4054
2.51387 1.58083 4.41152
2.50197 1.58203 4.42459
2.49602 1.58414 4.4316
2.48005 1.58221 4.43575
2.46715 1.58441 4.44882
2.45221 1.58454 4.45693
2.4393 1.58672 4.468
2.42435 1.58683 4.47511
2.41043 1.58699 4.48521
2.40144 1.58702 4.48728
2.38547 1.5851 4.49143
2.3756 1.58935 4.50845
2.35965 1.58845 4.51458
2.33861 1.5844 4.5098
2.32875 1.58868 4.52881
2.30771 1.58463 4.52403
2.30177 1.58573 4.53106
2.2848 1.58481 4.5352
2.27493 1.58908 4.55321
2.25694 1.58711 4.55438
2.24505 1.58932 4.56844
2.22909 1.58941 4.57356
2.21314 1.58952 4.58068
2.20414 1.58853 4.58076
2.08376 1.59782 4.66254
2.0678 1.59792 4.66866
2.03996 1.60023 4.68884
2.02095 1.59823 4.68801
2.01502 1.60037 4.69702
2.00212 1.60257 4.71009
1.98412 1.6006 4.71126
1.92148 1.60834 4.75862
1.9035 1.60738 4.76077
1.88753 1.60645 4.7649
1.87159 1.60758 4.77301
1.85563 1.60767 4.77813
1.82576 1.60994 4.79532
1.82084 1.61209 4.80533
1.8059 1.61324 4.81443
1.78792 1.61228 4.81658
1.77297 1.6134 4.82367
1.71815 1.61478 4.84707
1.70527 1.61902 4.8631
1.69238 1.62224 4.87716
1.67643 1.62235 4.88428
1.66152 1.62453 4.89536
1.64557 1.62564 4.90246
1.62858 1.62467 4.9036
1.6206 1.62472 4.90666
1.61492 1.63733 4.94753
-0.232063 1.71544 5.21532
-0.60093 1.73093 5.23287
-0.617961 1.72989 5.22902
-0.652974 1.73088 5.22727
-0.669973 1.73189 5.22738
-0.687019 1.72982 5.22154
-0.696018 1.73082 5.22159
-0.713048 1.72978 5.21773
-0.732931 1.73601 5.23279
-0.749976 1.73494 5.22694
-0.76513 1.72865 5.20714
-0.783106 1.73071 5.21025
-0.801082 1.73277 5.21335
-0.810073 1.73379 5.2144
-0.827095 1.73376 5.21153
-0.846056 1.73584 5.21665
-0.863094 1.73478 5.21179
-0.880131 1.73472 5.20692
-0.898091 1.73681 5.21202
-0.916113 1.73678 5.20916
-0.925097 1.73881 5.2112
-0.943104 1.73881 5.21033
-0.96108 1.74087 5.21344
-0.978132 1.73978 5.20658
-0.995147 1.73976 5.20471
-1.01217 1.73973 5.20184
-1.03211 1.74386 5.20993
-1.04304 1.748 5.21895
-1.05716 1.74377 5.20312
-1.07614 1.74582 5.20523
-1.09511 1.74789 5.20934
-1.11214 1.74784 5.20547
-1.14909 1.75196 5.21169
-1.15616 1.74983 5.20277
-1.17516 1.75084 5.2029
-1.40535 1.76061 5.17749
-1.45745 1.76044 5.16388
-1.49443 1.7635 5.16611
-1.50953 1.76132 5.15326
-1.53948 1.76543 5.15942
-1.55361 1.7612 5.14359
-1.57161 1.76321 5.1437
-1.60863 1.7662 5.14093
-1.61664 1.76617 5.13899
-1.63662 1.76822 5.14111
-1.65268 1.76812 5.13423
-1.66776 1.76597 5.12338
-1.6897 1.77009 5.13048
-1.70381 1.76689 5.11663
-1.72181 1.76891 5.11674
-1.7418 1.77194 5.11785
-1.74689 1.76776 5.10594
-1.76784 1.77187 5.11204
-1.78392 1.77073 5.10218
-1.79509 1.76441 5.08035
-1.81896 1.77267 5.09641
-1.83406 1.76949 5.08357
-1.85404 1.77254 5.08668
-1.8601 1.77143 5.07874
-1.88106 1.77452 5.08385
-1.89712 1.77441 5.07597
-1.91319 1.77228 5.06612
-1.93414 1.77738 5.07221
-1.94727 1.77314 5.05537
-1.96725 1.7762 5.05847
-1.99135 1.77502 5.04567
-2.0133 1.77913 5.05178
-2.04836 1.78103 5.04401
-2.1085 1.7818 5.02545
3.80895 1.48163 2.83201
3.79417 1.48507 2.86107
3.78124 1.48422 2.87019
3.77032 1.48339 2.88128
3.29673 1.51633 3.46544
3.28683 1.51755 3.4795
3.28399 1.52285 3.49945
3.27023 1.52833 3.53147
3.25831 1.52849 3.54156
3.24841 1.52969 3.55462
3.25154 1.53493 3.57152
3.22851 1.52891 3.56878
3.21861 1.53111 3.58183
3.20769 1.53128 3.59291
3.18366 1.52524 3.58918
3.17174 1.52539 3.59927
3.1689 1.53071 3.62021
3.15386 1.52564 3.6154
3.14596 1.52786 3.62943
3.14011 1.53214 3.64841
3.12112 1.52817 3.64962
3.11021 1.53036 3.66167
3.10535 1.53364 3.68066
3.07151 1.53298 3.70193
3.04666 1.53328 3.72111
3.0408 1.53756 3.74009
3.02182 1.5346 3.74228
3.01292 1.53682 3.75632
3.00404 1.53905 3.77135
2.99605 1.53808 3.77343
2.98413 1.53924 3.7835
2.98131 1.5446 3.80745
2.95929 1.53957 3.80469
2.9504 1.5428 3.81971
2.94353 1.54605 3.83671
2.94162 1.54822 3.8477
2.93172 1.55043 3.86174
2.92891 1.55779 3.88566
2.91395 1.55589 3.8918
2.90204 1.55706 3.90287
2.89517 1.56133 3.92086
2.88023 1.56046 3.92899
2.87123 1.55847 3.92909
2.86135 1.5617 3.94412
2.84133 1.55668 3.94234
2.83145 1.55991 3.95737
2.81952 1.56007 3.96746
2.8066 1.56122 3.97754
2.79671 1.56344 3.99159
2.78873 1.56249 3.99466
2.77782 1.56467 4.00671
2.7659 1.56585 4.01779
2.75602 1.56807 4.03283
2.74207 1.56819 4.03993
2.72308 1.56522 4.04112
2.71015 1.56537 4.05122
2.69418 1.56343 4.05437
2.69024 1.56557 4.06337
2.6834 1.57087 4.08334
2.6644 1.56688 4.08354
2.65147 1.56804 4.09363
2.64867 1.57543 4.11954
2.63271 1.57451 4.12467
2.62181 1.57671 4.13773
2.61181 1.57472 4.13783
2.60395 1.57901 4.15683
2.58799 1.57809 4.16196
2.57203 1.57718 4.1671
2.55809 1.57731 4.1752
2.55226 1.58264 4.19717
2.53527 1.58068 4.19933
2.53237 1.58386 4.2113
2.52047 1.58606 4.22436
2.50653 1.58619 4.23247
2.48752 1.58319 4.23166
2.47966 1.58747 4.25065
2.45761 1.58139 4.24391
2.44671 1.5846 4.25795
2.43873 1.58364 4.26002
2.42683 1.58584 4.27308
2.41086 1.58491 4.27721
2.40098 1.58815 4.29324
2.38807 1.58932 4.30432
2.37311 1.58942 4.31044
2.35715 1.58851 4.31557
2.35322 1.59065 4.32457
2.33726 1.58973 4.3297
2.32332 1.58986 4.33781
2.30634 1.58892 4.34095
2.29342 1.59009 4.35203
2.27542 1.5881 4.3522
2.26453 1.59032 4.36625
2.2596 1.59245 4.37526
2.24871 1.59568 4.39029
2.22867 1.59162 4.3855
2.21577 1.59381 4.39757
2.20691 1.5981 4.41657
2.18383 1.59197 4.40684
2.17193 1.59415 4.4189
2.16699 1.59628 4.4269
2.15102 1.59536 4.43204
2.14117 1.59965 4.45105
2.12622 1.59976 4.45816
2.10923 1.59879 4.45931
2.09529 1.59892 4.46741
2.08035 1.60005 4.47551
2.07441 1.60116 4.48254
2.06047 1.60229 4.49063
2.04756 1.60447 4.50269
2.0326 1.60457 4.5088
2.0197 1.60576 4.52089
2.00373 1.60583 4.525
1.99183 1.60803 4.53806
1.9869 1.61118 4.54806
1.96789 1.60817 4.54624
1.95089 1.60618 4.5464
1.93288 1.60318 4.54558
1.92202 1.60847 4.56459
1.90708 1.60858 4.5717
1.8911 1.60764 4.57483
1.8872 1.61183 4.5878
1.87225 1.61193 4.59391
1.85629 1.61203 4.60003
1.84135 1.61315 4.60713
1.83049 1.61744 4.62615
1.81246 1.61439 4.62233
1.79752 1.61452 4.63044
1.79261 1.61869 4.64142
1.77255 1.6136 4.63465
1.76067 1.61784 4.65068
1.74674 1.61899 4.65976
1.72976 1.61803 4.66191
1.71584 1.6202 4.67298
1.70293 1.62239 4.68505
1.69292 1.62037 4.68315
1.67489 1.61732 4.67933
1.66303 1.62261 4.69835
1.645 1.61956 4.69453
1.63007 1.62071 4.70362
1.61614 1.62285 4.7127
1.59915 1.62088 4.71386
1.59629 1.62716 4.73279
0.00651194 1.6975 5.02676
-0.00950329 1.69648 5.0249
-0.0434634 1.69858 5.03013
-0.0604083 1.7017 5.03721
-0.0853072 1.70591 5.05033
-0.102438 1.70067 5.03354
-0.118445 1.70067 5.03266
-0.135391 1.70278 5.03976
-0.152382 1.70381 5.04087
-0.169397 1.70279 5.03901
-0.177397 1.7028 5.03907
-0.228372 1.70488 5.04243
-0.262324 1.70799 5.04864
-0.28647 1.70173 5.02991
-0.304376 1.70592 5.04198
-0.320422 1.70484 5.03612
-0.337421 1.70486 5.03625
-0.356203 1.71528 5.06424
-0.370497 1.70273 5.02653
-0.390194 1.71632 5.06548
-0.396419 1.7059 5.03668
-0.41524 1.71525 5.05968
-0.432193 1.71735 5.06578
-0.446509 1.70376 5.02508
-0.466229 1.7173 5.06104
-0.481329 1.71312 5.04821
-0.499267 1.71625 5.0563
-0.505491 1.70583 5.0275
-0.524304 1.7152 5.0515
-0.542241 1.71933 5.05958
-0.559256 1.71931 5.05771
-0.574355 1.71513 5.04488
-0.631538 1.70882 5.0214
-0.724587 1.71078 5.01507
-0.775569 1.71385 5.01741
-0.792583 1.71383 5.01554
-0.851595 1.71684 5.01394
-0.868617 1.71681 5.01107
-0.885624 1.71681 5.0102
-0.9036 1.71887 5.0133
-0.921552 1.72297 5.01938
-0.937605 1.72088 5.01253
-0.969348 1.73439 5.04557
-0.979664 1.72079 5.00485
-0.995686 1.72076 5.00197
-1.01561 1.72592 5.01204
-1.03262 1.7259 5.01017
-1.05059 1.72897 5.01426
-1.06664 1.72788 5.0074
-1.07561 1.72995 5.01143
-1.08973 1.72472 4.99562
-1.10772 1.72676 4.99772
-1.12378 1.72566 4.98986
-1.2246 1.74105 5.01239
-1.24161 1.74104 5.01052
-1.25864 1.742 5.00763
-1.2766 1.74408 5.01174
-1.28658 1.74613 5.01478
-1.29585 1.73462 4.98002
-1.3216 1.74811 5.01202
-1.33085 1.73763 4.97924
-1.3566 1.75112 5.01124
-1.36975 1.74585 4.99241
-1.38094 1.73849 4.9676
-1.40379 1.7468 4.98765
-1.405 1.73739 4.9598
-1.42591 1.74358 4.97187
-1.44198 1.74246 4.963
-1.45802 1.74138 4.95714
-1.48477 1.75487 4.98914
-1.49305 1.74334 4.95337
-1.51492 1.75161 4.97042
-1.51518 1.74011 4.93658
-1.54289 1.75468 4.97358
-1.55701 1.75145 4.95774
-1.57402 1.75245 4.95685
-1.59009 1.75133 4.94798
-1.60709 1.75232 4.9471
-1.62511 1.75331 4.94522
-1.63411 1.7543 4.94427
-1.6521 1.75633 4.94538
-1.66817 1.75522 4.93751
-1.68323 1.7541 4.92864
-1.6983 1.75198 4.91979
-1.71825 1.75608 4.92588
-1.73431 1.75597 4.918
-1.74037 1.75386 4.91007
-1.76661 1.74642 4.87938
-1.81964 1.7504 4.87572
-1.84372 1.75025 4.8649
-1.87581 1.7501 4.85314
-1.91183 1.75308 4.85037
-1.95488 1.75601 4.84365
-1.96996 1.75385 4.83279
-1.986 1.75479 4.8279
-2.02104 1.75673 4.82213
-2.03807 1.75768 4.81825
-2.06 1.76383 4.82732
-2.06116 1.75652 4.80644
-2.08407 1.7637 4.8175
-2.1021 1.76467 4.81463
-2.11618 1.76352 4.80375
-2.13027 1.76135 4.79188
-2.15418 1.76753 4.80297
-2.16433 1.76325 4.78411
-2.17826 1.7674 4.79316
-2.19431 1.76731 4.78628
-2.21232 1.76929 4.78438
-2.23034 1.77127 4.78249
-2.24738 1.7722 4.7766
-2.26735 1.77627 4.78069
-2.27947 1.77204 4.76485
-2.29732 1.78133 4.78385
-2.30847 1.77605 4.76401
-2.32943 1.78114 4.76909
-2.34255 1.77792 4.75423
-2.35761 1.7778 4.74535
-2.37859 1.78086 4.74846
-2.3907 1.77866 4.73458
-2.39578 1.7755 4.72367
-2.41971 1.78265 4.73274
3.64893 1.48569 2.82915
3.64203 1.4869 2.84319
3.64521 1.49324 2.86608
3.64536 1.49754 2.88601
3.63436 1.49555 2.88613
3.62042 1.49367 2.89426
3.58279 1.49541 2.94252
3.28549 1.51591 3.30151
3.27862 1.51916 3.31752
3.27677 1.52345 3.33747
3.27392 1.52875 3.35742
3.24376 1.51546 3.33684
3.23889 1.51972 3.35381
3.23503 1.52299 3.3718
3.21302 1.51799 3.37104
3.21017 1.52329 3.39098
3.19622 1.5224 3.3981
3.18732 1.5236 3.41115
3.17733 1.52162 3.41226
3.16943 1.52383 3.42629
3.15851 1.52399 3.43637
3.13163 1.52325 3.45258
3.11484 1.52666 3.47966
3.08704 1.52808 3.50685
3.05126 1.52853 3.53612
3.04034 1.5297 3.54719
3.0265 1.53201 3.56726
3.01456 1.53215 3.57635
2.99375 1.53452 3.60047
2.98282 1.53568 3.61054
2.9699 1.53584 3.62064
2.9609 1.53384 3.62073
2.96615 1.54433 3.65354
2.94614 1.54033 3.65275
2.94938 1.54977 3.68259
2.93442 1.54787 3.68874
2.92553 1.55008 3.70277
2.90754 1.54712 3.70495
2.90966 1.55236 3.72086
2.89976 1.55456 3.7339
2.8848 1.55264 3.73905
2.865 1.55704 3.76513
2.85511 1.55826 3.77919
2.84116 1.55837 3.7863
2.83025 1.55956 3.79836
2.80932 1.55872 3.80853
2.78345 1.55899 3.82573
2.7667 1.56548 3.85776
2.75578 1.56665 3.86883
2.73082 1.56374 3.87406
2.60464 1.57343 3.98288
2.53808 1.57932 4.04031
2.52515 1.58048 4.05039
2.51324 1.58165 4.06146
2.4804 1.58298 4.08269
2.45049 1.58218 4.09493
2.42462 1.58347 4.11311
2.37 1.59023 4.16243
2.35403 1.58831 4.16658
2.31815 1.58857 4.18284
2.30928 1.59283 4.19985
2.29229 1.59087 4.20201
2.28139 1.59307 4.21506
2.26542 1.59112 4.21821
2.25047 1.59124 4.22532
2.24146 1.58923 4.22442
2.2326 1.5945 4.24241
2.21155 1.58943 4.23664
2.20471 1.59473 4.25662
2.18367 1.58967 4.25185
2.17785 1.59703 4.27579
2.16086 1.59506 4.27695
2.15795 1.59824 4.28892
2.14807 1.60148 4.30495
2.12701 1.59638 4.29718
2.11816 1.60167 4.31618
2.10422 1.6018 4.32428
2.08927 1.60191 4.33139
2.06922 1.59784 4.3256
2.06632 1.60102 4.33758
2.05543 1.60425 4.35262
2.03436 1.59813 4.34386
2.02551 1.60443 4.36384
2.01564 1.60769 4.38087
1.99254 1.60051 4.36815
1.98268 1.60579 4.38615
1.9808 1.61001 4.4011
1.9638 1.60804 4.40226
1.94681 1.60707 4.4034
1.93186 1.60716 4.40951
1.92098 1.61041 4.42555
1.90602 1.61049 4.43066
1.88903 1.60854 4.43282
1.87899 1.60546 4.42694
1.86609 1.60866 4.43999
1.85317 1.61083 4.45106
1.8331 1.60571 4.44228
1.8212 1.60791 4.45534
1.80931 1.61114 4.47038
1.79128 1.6081 4.46656
1.7884 1.61332 4.48151
1.77447 1.61446 4.4906
1.75441 1.60938 4.48383
1.73944 1.60945 4.48794
1.73062 1.61579 4.51091
1.71362 1.6138 4.51107
1.69969 1.61595 4.52014
1.69374 1.61704 4.52617
1.67777 1.61611 4.53031
1.6628 1.6162 4.53542
1.65195 1.62148 4.55443
1.6329 1.6174 4.54763
1.61897 1.61955 4.55771
1.60912 1.62484 4.5767
1.5991 1.6228 4.57381
1.59027 1.62915 4.59679
0.298319 1.69093 5.00066
0.224375 1.69309 5.00819
0.190368 1.6921 5.00746
0.17443 1.69423 5.01555
0.157493 1.69736 5.02363
0.115432 1.69427 5.01599
0.0655259 1.69849 5.02831
0.0484486 1.69435 5.01849
0.0404645 1.69539 5.02054
-0.635349 1.7242 4.91219
-0.759404 1.72718 4.90508
-1.19268 1.74291 4.8691
3.91725 1.47133 2.20826
3.89527 1.46538 2.21051
3.88635 1.46455 2.2216
3.65618 1.48125 2.59713
3.65122 1.48133 2.60217
3.64532 1.48354 2.61618
3.63238 1.48167 2.62431
3.56821 1.49033 2.73368
3.54442 1.49076 2.76186
3.55766 1.50221 2.79259
3.55178 1.50443 2.80761
3.53682 1.50153 2.81376
3.52992 1.50273 2.8268
3.52403 1.50496 2.84181
3.49398 1.49588 2.83517
3.48731 1.50553 2.87909
3.48444 1.50879 2.89606
3.48259 1.51307 2.91501
3.46864 1.51118 2.92215
3.45075 1.5104 2.9363
3.23133 1.51166 3.14696
3.2315 1.518 3.16987
3.2236 1.5192 3.18291
3.21671 1.52141 3.19693
3.1868 1.51761 3.20922
3.18487 1.51974 3.2182
3.16991 1.51784 3.22434
3.15999 1.51901 3.2354
3.15411 1.52124 3.25041
3.13713 1.5183 3.25359
3.1163 1.51964 3.27573
3.10831 1.51867 3.2778
3.09739 1.51883 3.28788
3.1006 1.52722 3.31474
3.08563 1.52531 3.31988
3.06664 1.52134 3.32108
3.06379 1.52564 3.34104
3.05185 1.52576 3.34913
3.04084 1.52276 3.34826
3.03497 1.52601 3.36526
3.02708 1.52823 3.37929
3.01212 1.52631 3.38443
3.00624 1.53055 3.40041
2.99936 1.53279 3.41643
2.98944 1.53395 3.42649
2.97954 1.53515 3.43955
2.97357 1.53521 3.44359
2.96365 1.53638 3.45465
2.96081 1.54169 3.4756
2.9499 1.54287 3.48667
2.92887 1.53784 3.4839
2.91998 1.54005 3.49793
2.92219 1.54845 3.5248
2.90935 1.55177 3.54585
-0.537289 1.7173 4.78753
-0.568372 1.71516 4.7768
-0.601371 1.71618 4.77703
-0.642322 1.7203 4.78328
-0.673428 1.71711 4.76956
-0.705434 1.71812 4.76879
-0.731324 1.72435 4.78289
-0.763361 1.7243 4.77813
-0.779399 1.72324 4.77327
-0.884423 1.72825 4.76999
-0.942442 1.73125 4.76738
-0.974479 1.7312 4.76262
-1.01962 1.72795 4.744
-1.0395 1.73519 4.75905
-1.06353 1.73516 4.75623
-1.07956 1.7351 4.75135
-1.10869 1.73087 4.73463
-1.12761 1.73603 4.7447
-1.1446 1.73807 4.7468
-1.14874 1.73179 4.72792
-1.16187 1.72657 4.71209
-1.18274 1.73482 4.72813
-1.20166 1.73999 4.7392
-1.21479 1.73475 4.72237
-1.23468 1.74197 4.73642
-1.24392 1.73152 4.70564
-1.25872 1.7419 4.7306
-1.28979 1.74178 4.72083
-1.30386 1.73967 4.71297
-1.36384 1.74574 4.71533
-1.37987 1.74568 4.71045
-1.42404 1.74238 4.68883
-1.46897 1.74954 4.69706
-1.4981 1.74731 4.68031
-1.53211 1.75031 4.67953
-1.57023 1.74809 4.66284
-1.60227 1.75004 4.65806
-1.65232 1.75297 4.65139
-1.67343 1.75077 4.63658
-1.69435 1.75694 4.64765
-1.70841 1.75482 4.63878
-1.75456 1.75457 4.62013
-1.78252 1.75865 4.62428
-1.81458 1.76056 4.61649
-1.86168 1.76138 4.60283
3.74968 1.47128 2.26553
3.7407 1.46933 2.26863
3.73882 1.47257 2.2846
3.72099 1.47191 2.30674
3.70149 1.4809 2.37277
3.70162 1.48515 2.38971
3.68467 1.48125 2.39589
3.65865 1.47324 2.39421
3.66683 1.48159 2.41802
3.673 1.48791 2.43989
3.638 1.47795 2.4413
3.63453 1.49298 2.51011
3.63266 1.49723 2.52707
3.61376 1.49444 2.54025
3.5827 1.48436 2.53363
3.57178 1.48351 2.54373
3.51634 1.48666 2.61911
3.51462 1.4952 2.655
3.48407 1.50109 2.71415
3.48925 1.50843 2.73701
3.4674 1.50774 2.75719
3.46747 1.50989 2.76716
3.17693 1.5219 3.09321
3.15391 1.51588 3.09147
3.13995 1.51398 3.09761
3.13802 1.51612 3.10659
3.13314 1.51934 3.12158
3.12322 1.51951 3.13266
3.11128 1.51964 3.14075
3.11146 1.52598 3.16365
3.09549 1.52305 3.16782
3.08355 1.52218 3.17592
3.07968 1.52645 3.19389
3.07573 1.52754 3.1999
3.06783 1.52874 3.21295
3.05791 1.52991 3.22401
3.04396 1.52901 3.23013
3.03506 1.53021 3.24318
3.02917 1.53343 3.25818
3.01522 1.53153 3.26431
3.01228 1.53365 3.2723
3.00942 1.53893 3.29125
2.99143 1.53496 3.29244
2.98354 1.53718 3.30647
2.97564 1.53937 3.3195
2.96876 1.54162 3.33552
2.9549 1.54389 3.35359
-0.0645442 1.69254 4.62132
-0.0874971 1.69465 4.62746
-0.118488 1.69568 4.62868
-0.133542 1.69359 4.62182
-0.165502 1.69569 4.62703
-0.19647 1.69777 4.63123
-0.2346 1.69255 4.6146
-0.249592 1.69257 4.61571
-0.265552 1.69466 4.6208
-0.281559 1.69465 4.61992
-0.296613 1.69256 4.61306
-0.304512 1.69776 4.62605
-0.320534 1.69673 4.62318
-0.335557 1.69669 4.6203
-0.365664 1.69251 4.60658
-0.383484 1.70186 4.62958
-0.398523 1.6998 4.62473
-0.40467 1.69252 4.60588
-0.421568 1.69873 4.61891
-0.437459 1.70395 4.63296
-0.452559 1.69976 4.62013
-0.467582 1.69873 4.61726
-0.483596 1.69871 4.61538
-0.499502 1.7039 4.62743
-0.507556 1.7018 4.62052
-0.521625 1.69868 4.61167
-0.536671 1.6976 4.6058
-0.553561 1.70382 4.61983
-0.568654 1.69966 4.60801
-0.583691 1.69859 4.60314
-0.598706 1.69857 4.60125
-0.609543 1.70689 4.62221
-0.622705 1.69959 4.60141
-0.638673 1.70166 4.6055
-0.65275 1.69852 4.59566
-0.669663 1.7037 4.60671
-0.683779 1.69849 4.59189
-0.701654 1.70574 4.60792
-0.710606 1.70883 4.61394
-0.725621 1.70881 4.61205
-0.739713 1.70565 4.60021
-0.756658 1.70876 4.60729
-0.773602 1.71288 4.61436
-0.787679 1.70974 4.60451
-0.80274 1.70763 4.59665
-0.812623 1.71386 4.61164
-0.825769 1.70759 4.59282
-0.844644 1.71484 4.60886
-0.857736 1.71067 4.59702
-0.878548 1.72204 4.62101
-0.888765 1.71164 4.59324
-0.905733 1.71471 4.59732
-0.911825 1.71053 4.58543
-0.928778 1.71364 4.59151
-0.942831 1.71254 4.58463
-0.960783 1.71564 4.59072
-0.976775 1.71667 4.59183
-0.990843 1.71455 4.58296
-1.00783 1.71659 4.58506
-1.0139 1.71446 4.57614
-1.02697 1.71132 4.56628
-1.0478 1.72166 4.58829
-1.05899 1.7123 4.56351
-1.07597 1.71536 4.56659
-1.09001 1.71429 4.56171
-1.10699 1.71634 4.56381
-1.11596 1.7184 4.56785
-1.13099 1.71835 4.56396
-1.17708 1.71819 4.55131
-1.19113 1.71712 4.54543
-1.20617 1.71605 4.54056
-1.24619 1.71904 4.53782
-1.26122 1.71899 4.53393
-1.29324 1.72097 4.53114
-1.31411 1.72922 4.54718
-1.33227 1.72292 4.5264
-1.34926 1.72495 4.5275
-1.36624 1.728 4.53059
-1.3934 1.72271 4.50987
-1.41233 1.72785 4.51793
-1.41644 1.72366 4.50502
-1.43733 1.73086 4.51808
-1.45625 1.73602 4.52814
-1.46643 1.72969 4.50531
-1.5135 1.73159 4.49664
-1.52053 1.73054 4.49271
-1.53556 1.73048 4.48782
-1.54863 1.72935 4.47893
-1.56758 1.73345 4.48502
-1.59864 1.73336 4.47725
-1.60878 1.7291 4.45939
-1.61777 1.73012 4.46044
-1.63379 1.7311 4.45855
-1.65371 1.73725 4.46761
-1.66484 1.73302 4.45175
-1.71092 1.73388 4.44008
-1.71992 1.73488 4.44014
-1.7428 1.74414 4.45617
-1.7549 1.74095 4.44331
-1.76993 1.74089 4.43842
-1.78692 1.74392 4.43951
-1.79805 1.73969 4.42365
-1.818 1.74379 4.42974
-1.83304 1.74371 4.42386
-1.8381 1.7416 4.41592
-1.85609 1.74463 4.41701
-1.87505 1.74973 4.42308
-1.88813 1.74758 4.41221
-1.90907 1.75271 4.42029
-1.9192 1.74846 4.40343
-1.94504 1.75978 4.42346
-1.94322 1.75042 4.39958
-1.96121 1.75345 4.40067
-1.97527 1.75234 4.3928
-1.99326 1.75638 4.39487
-2.00339 1.75113 4.37702
-2.0263 1.75932 4.38908
-2.03152 1.74991 4.36125
-2.04444 1.75507 4.37127
-2.05949 1.75497 4.36439
-2.08465 1.75168 4.34362
-2.09969 1.75162 4.33874
-2.12766 1.75768 4.34186
-2.13779 1.75344 4.32499
-2.16464 1.76374 4.34405
-2.17673 1.76157 4.33217
-2.20485 1.76035 4.3164
-2.2199 1.76026 4.30951
-2.23494 1.7612 4.30461
-2.28092 1.76926 4.30684
3.49905 1.48313 2.44727
3.43668 1.4864 2.5307
3.43783 1.4917 2.55062
3.35749 1.49104 2.63824
2.92346 1.5251 3.16408
2.91252 1.52524 3.17316
2.91472 1.53361 3.19803
2.90783 1.53684 3.21303
2.89387 1.53492 3.21817
2.89101 1.54021 3.23711
2.87605 1.53729 3.24227
2.86806 1.53631 3.24335
2.86521 1.54161 3.26329
2.8563 1.54278 3.27434
2.84436 1.54291 3.28243
2.83646 1.5451 3.29546
2.82755 1.54629 3.30751
2.8045 1.53922 3.30179
2.79871 1.54663 3.32973
2.78476 1.54573 3.33585
2.77888 1.54897 3.35185
2.77098 1.55117 3.36487
2.72433 1.55589 3.41116
2.64288 1.56101 3.48371
-1.19298 1.72943 4.43125
-1.22304 1.72933 4.42347
-1.24604 1.73233 4.4226
-1.26302 1.73439 4.4257
-1.29112 1.73222 4.41294
-1.32311 1.73624 4.41312
-1.33523 1.73203 4.39827
-1.34714 1.73721 4.41029
-1.37621 1.73709 4.40051
-1.39122 1.73808 4.39961
-1.42225 1.73903 4.39483
-1.50441 1.74078 4.37442
3.48438 1.47587 2.22646
3.47156 1.47723 2.25054
3.47062 1.47934 2.25751
3.4382 1.4875 2.33465
3.42117 1.48145 2.33086
3.42029 1.48569 2.34681
3.42043 1.48996 2.36475
3.40144 1.485 2.36697
3.39453 1.48618 2.379
3.38661 1.48634 2.38906
3.37387 1.49085 2.42309
3.36997 1.49306 2.43709
3.36106 1.49323 2.44816
3.35515 1.49441 2.46019
3.33515 1.48944 2.46141
3.32925 1.49064 2.47444
2.9339 1.51705 2.9581
2.92102 1.51929 2.97416
2.91211 1.51946 2.98523
2.90117 1.5196 2.99431
2.8983 1.52486 3.01126
2.89947 1.53118 3.03316
2.89359 1.53441 3.04815
2.88164 1.53352 3.05526
2.88677 1.53975 3.07113
2.8728 1.53783 3.07626
2.86389 1.53902 3.08832
2.84302 1.53929 3.10547
2.83815 1.54353 3.12145
3.49626 1.48964 2.07614
3.48231 1.48675 2.08329
3.46836 1.48385 2.08944
3.44234 1.47484 2.08777
3.46653 1.48819 2.11239
3.44554 1.48222 2.11364
3.42957 1.47831 2.11882
3.42203 1.4902 2.17871
3.41304 1.48824 2.1808
3.40411 1.48738 2.18989
3.39318 1.48652 2.19898
3.38224 1.48464 2.20709
3.38035 1.48787 2.22206
3.36941 1.48699 2.23016
3.34572 1.48962 2.2713
3.35289 1.49694 2.29314
3.3329 1.49097 2.29438
3.17875 1.51069 2.53929
3.17278 1.50976 2.54335
3.12124 1.5117 2.60471
3.11038 1.51397 2.62277
3.09843 1.51208 2.62988
3.09555 1.51632 2.64585
3.06949 1.50722 2.63818
3.05165 1.50755 2.65931
3.05977 1.51478 2.67514
3.03976 1.50878 2.67438
3.03891 1.51406 2.69331
3.02696 1.51317 2.70042
3.02005 1.51435 2.71245
3.01214 1.51552 2.7235
3.00422 1.51669 2.73454
3.00731 1.52087 2.74646
2.99637 1.51999 2.75455
2.98746 1.52116 2.7656
2.97348 1.51823 2.76975
2.9575 1.51427 2.77193
2.95766 1.52058 2.79284
2.95781 1.52688 2.81275
2.94781 1.52387 2.81187
2.94594 1.52812 2.82882
2.94004 1.53134 2.84282
2.92506 1.52839 2.84598
2.92018 1.53162 2.86097
2.90622 1.5287 2.86612
2.89426 1.5278 2.87222
2.89535 1.53196 2.88315
2.86657 1.53241 2.91237
2.85967 1.53561 2.92538
2.84872 1.53472 2.93247
3.56755 1.45833 1.586
3.52235 1.46393 1.69227
3.52548 1.46917 1.70817
3.51454 1.46629 1.7163
3.49858 1.46239 1.72248
3.45154 1.47431 1.84968
3.45462 1.47745 1.85961
3.43866 1.47354 1.86479
3.44078 1.47777 1.88071
3.44793 1.48506 1.90055
3.43499 1.48218 1.90769
3.42706 1.48133 1.91777
3.42416 1.48453 1.93074
3.40713 1.4775 1.92797
3.38738 1.47898 1.9601
3.39051 1.48425 1.97801
3.39164 1.48848 1.99394
3.3807 1.48662 2.00305
3.36467 1.48058 1.99926
3.37183 1.48787 2.0191
3.36089 1.48601 2.02821
3.34191 1.48005 2.03044
3.20084 1.50093 2.28623
3.19688 1.50101 2.29126
3.18795 1.50116 2.30133
3.18908 1.50541 2.31826
3.17512 1.5025 2.32341
3.0881 1.51247 2.45293
3.06924 1.51175 2.47109
3.06031 1.5119 2.48115
3.05548 1.51623 2.50313
3.0395 1.51329 2.50629
3.03158 1.51346 2.51735
3.02568 1.51564 2.52937
3.02078 1.51784 2.54237
3.01487 1.52002 2.55439
3.00593 1.52016 2.56345
2.99895 1.51819 2.56553
2.99406 1.5204 2.57954
2.98412 1.52054 2.58861
2.97318 1.51966 2.59571
2.96224 1.51878 2.60381
2.96137 1.52403 2.62074
2.9484 1.52112 2.62588
2.94646 1.52322 2.63286
2.94056 1.52542 2.64588
2.92659 1.52249 2.65003
2.91867 1.52366 2.66107
2.90888 1.52906 2.68807
2.89297 1.52825 2.7002
2.88403 1.52839 2.70927
2.87612 1.52956 2.72031
2.85236 1.53305 2.75244
3.17287 1.49904 2.15745
3.16796 1.50122 2.16946
3.15701 1.49933 2.17657
3.15312 1.50154 2.19057
3.15519 1.50467 2.19951
3.15029 1.50687 2.21251
3.13633 1.50395 2.21766
3.13041 1.50512 2.22869
3.11946 1.50323 2.2358
3.11455 1.50541 2.24781
3.11367 1.50865 2.26377
3.10066 1.50463 2.26193
3.09486 1.51004 2.28889
3.08493 1.50918 2.29798
3.08002 1.51136 2.30999
3.06317 1.51165 2.32911
3.05216 1.50764 2.32826
3.04121 1.50676 2.33535
3.04235 1.51202 2.35327
3.03946 1.51523 2.36725
3.02851 1.51334 2.37436
3.01354 1.51041 2.37851
3.00864 1.51261 2.39152
3.00568 1.5137 2.39753
3.00581 1.51795 2.41447
2.99688 1.51809 2.42353
2.9731 1.51954 2.45269
2.96115 1.51765 2.45981
-1.19092 1.71468 3.90838
3.51981 1.46891 1.35317
3.50385 1.46401 1.35937
3.48709 1.4645 1.39149
3.44439 1.45613 1.43194
3.42964 1.45762 1.46503
3.43074 1.46083 1.47898
3.42779 1.46092 1.485
3.41986 1.46006 1.49408
3.41996 1.46327 1.50803
3.41404 1.46342 1.51807
3.39734 1.46502 1.55818
3.38941 1.46416 1.56725
3.40961 1.47752 1.59191
3.38862 1.47058 1.59517
3.37668 1.46769 1.6023
3.36272 1.46379 1.60847
3.3578 1.46496 1.61949
3.12222 1.4938 2.0719
3.12435 1.49905 2.08881
3.11743 1.50021 2.09884
3.10767 1.50469 2.13086
3.0927 1.50076 2.13503
3.08778 1.50292 2.14603
3.07986 1.50308 2.15609
3.07294 1.50323 2.16614
3.05796 1.4993 2.17031
3.05305 1.50147 2.18132
3.06318 1.50871 2.19814
3.04922 1.5058 2.20329
3.04329 1.50695 2.21332
3.02631 1.50201 2.21652
3.03147 1.5093 2.23638
3.02354 1.50944 2.24543
3.0136 1.50958 2.25451
3.01567 1.51271 2.26345
3.01076 1.51389 2.27547
2.98585 1.51007 2.28671
2.98094 1.51125 2.29874
2.97604 1.51345 2.31174
2.96113 1.51264 2.32387
2.95722 1.51482 2.33587
2.95433 1.51804 2.35084
2.94036 1.51511 2.35499
2.92249 1.51438 2.37214
2.85598 1.51439 2.43765
2.82998 1.50642 2.43896
2.82407 1.50859 2.44998
2.82824 1.51591 2.47184
2.81325 1.51295 2.474
2.81957 1.52755 2.51474
2.7878 1.52803 2.54598
-1.33994 1.71878 3.77342
-1.35396 1.71876 3.77153
-1.37805 1.71758 3.75872
-1.39906 1.71958 3.75785
-1.43716 1.7194 3.74414
-1.48422 1.72332 3.73643
-1.98654 1.73803 3.56098
-1.9976 1.73792 3.55306
3.13391 1.48922 1.89785
3.11402 1.48646 1.91305
3.09365 1.50068 1.995
3.04298 1.49639 2.04045
3.02599 1.49042 2.04167
3.0241 1.49362 2.05564
3.00528 1.49399 2.07978
3.00539 1.49821 2.09472
2.99042 1.49428 2.09889
2.9845 1.49544 2.10892
2.98764 1.50172 2.1278
2.97461 1.49667 2.12398
2.97474 1.50092 2.14091
2.97183 1.5041 2.15289
2.95585 1.49915 2.15608
2.95598 1.50439 2.17201
2.9571 1.50963 2.18792
2.93307 1.50058 2.18424
2.92816 1.50177 2.19626
2.93727 1.50998 2.21107
2.91424 1.50094 2.20738
2.91437 1.50619 2.2243
2.91752 1.51247 2.24319
2.90555 1.51055 2.24831
2.90165 1.51275 2.26131
2.88875 1.51295 2.2744
2.88686 1.51616 2.28837
2.8739 1.51426 2.2945
2.86395 1.51235 2.3006
2.85702 1.5135 2.31064
2.85413 1.51671 2.32461
2.84822 1.5189 2.33663
2.84022 1.5159 2.33673
2.82437 1.51719 2.35584
2.8245 1.52245 2.37276
2.81858 1.52361 2.38379
2.80864 1.52374 2.39186
2.77988 1.52422 2.42308
2.76704 1.52755 2.44513
2.73929 1.52905 2.47732
3.40174 1.45894 1.08017
3.40585 1.46315 1.09408
3.39586 1.45918 1.09621
3.37943 1.46731 1.17123
3.33857 1.45462 1.19073
3.35492 1.46927 1.23539
3.35105 1.47154 1.25339
3.33428 1.471 1.28353
3.30426 1.45901 1.28293
3.27983 -0.540808 12.3172
3.27904 -0.543423 12.4783
3.28346 -0.547627 12.6674
3.32443 -0.561881 13.4624
3.3311 -0.565583 13.6854
3.395 -0.593153 15.1355
3.51945 -0.640881 17.7257
3.66943 -0.698682 20.7848
3.68514 -0.707376 21.2789
3.7537 -0.731586 22.5509
3.78251 -0.744127 23.191
3.80731 -0.755666 23.831
3.8365 -0.768452 24.5221
3.26563 -0.457296 12.2831
3.2974 -0.461868 12.651
3.30076 -0.46419 12.832
3.30726 -0.466233 13.032
3.35618 -0.479658 14.086
3.36397 -0.482138 14.324
3.443 -0.502483 15.9249
3.45327 -0.506018 16.227
3.46568 -0.509288 16.547
3.55998 -0.532141 18.3168
3.57706 -0.537081 18.7268
3.60047 -0.542388 19.1798
3.61884 -0.547767 19.6278
3.65277 -0.559121 20.5508
3.27661 -0.396429 12.2741
3.28203 -0.397634 12.4631
3.28539 -0.398955 12.6441
3.30873 -0.400336 12.822
3.31629 -0.402261 13.03
3.32183 -0.403229 13.235
3.32532 -0.405299 13.433
3.37416 -0.411857 14.3429
3.3779 -0.413439 14.5739
3.39098 -0.415361 14.8499
3.40105 -0.41728 15.1259
3.45652 -0.424584 15.9857
3.46269 -0.426308 16.2747
3.48031 -0.429167 16.6227
3.49388 -0.432111 16.9647
3.50859 -0.43479 17.3246
3.57386 -0.443546 18.4244
3.59097 -0.446427 18.8384
3.66599 -0.46086 20.7033
3.27962 -0.297545 12.2656
3.28293 -0.296956 12.4406
3.28832 -0.297235 12.6246
3.31712 -0.297732 12.9975
3.32261 -0.297804 13.1954
3.32611 -0.297859 13.3944
3.33375 -0.297636 13.6124
3.38466 -0.298063 14.5312
3.39668 -0.298103 14.7991
3.40876 -0.298025 15.0751
3.41574 -0.298135 15.338
3.43002 -0.297643 15.642
3.50129 -0.298449 16.8736
3.51697 -0.298189 17.2295
3.53062 -0.298985 17.5815
3.54023 -0.298854 17.9285
3.67674 -0.299552 20.5208
3.69754 -0.300073 21.0267
3.78594 -0.300761 22.8073
3.32556 -0.226976 13.0484
3.33007 -0.226003 13.2493
3.33977 -0.224663 13.4753
3.38761 -0.220251 14.383
3.39548 -0.219569 14.6319
3.40962 -0.218374 14.9158
3.41761 -0.21647 15.1798
3.48654 -0.210942 16.3664
3.51673 -0.207746 17.0562
3.53453 -0.20625 17.4281
3.29183 -0.140335 12.2792
3.29309 -0.137863 12.4462
3.33038 -0.131464 13.0149
3.33793 -0.129404 13.2218
3.34349 -0.126358 13.4278
3.35217 -0.124062 13.6507
3.35882 -0.121809 13.8707
3.41718 -0.110383 14.8472
3.42512 -0.106569 15.1051
3.44037 -0.103167 15.403
3.45463 -0.0997347 15.7029
3.55971 -0.073226 17.97
3.66196 -0.0503135 19.9942
3.30127 -0.0775634 12.3312
3.30463 -0.0748857 12.5122
3.34548 -0.0624245 13.2878
3.35314 -0.0581724 13.5077
3.35771 -0.0550809 13.7167
3.36341 -0.0517533 13.9416
3.40984 -0.0401106 14.6622
3.41778 -0.0352961 14.9201
3.42993 -0.0310846 15.205
3.44313 -0.0257704 15.4968
3.45643 -0.0212489 15.8027
3.46255 -0.0170923 16.0836
3.54063 0.00566361 17.4209
3.5502 0.0107062 17.7618
3.67522 0.0520048 20.2856
3.70019 0.0607756 20.8113
3.70958 0.0674471 21.2622
3.28766 0.00313439 12.2421
3.29201 0.00678174 12.4211
3.33579 0.0241069 13.1876
3.3403 0.0290798 13.3885
3.34899 0.0343903 13.6124
3.35668 0.0387015 13.8363
3.41191 0.0608613 14.7947
3.425 0.0669682 15.0725
3.43921 0.0732815 15.3644
3.44933 0.0794498 15.6462
3.53731 0.115914 17.2343
3.54784 0.123882 17.5701
3.55329 0.13069 17.895
3.71571 0.200578 21.0002
3.29047 0.0816647 12.2099
3.29793 0.0875168 12.4028
3.30335 0.0932965 12.5907
3.3484 0.116138 13.3921
3.3571 0.122478 13.618
3.36895 0.129112 13.8639
3.3757 0.135528 14.0948
3.42429 0.157479 14.8362
3.43437 0.164543 15.111
3.44549 0.17271 15.3929
3.45874 0.182113 15.6907
3.46899 0.190533 15.9895
3.48138 0.199203 16.3053
3.55548 0.237974 17.6434
3.562 0.24693 17.9782
3.63013 0.285765 19.3203
3.67294 0.30815 20.0908
3.72704 0.339013 21.1641
3.75436 0.355477 21.7367
3.78708 0.372722 22.3623
3.85202 0.411175 23.6784
3.32701 0.193423 12.8021
3.33453 0.200393 13.003
3.34313 0.207526 13.2148
3.34764 0.215498 13.4157
3.39474 0.239473 14.0911
3.4046 0.248108 14.3369
3.41241 0.256655 14.5768
3.41722 0.264191 14.8156
3.43136 0.274385 15.0994
3.44143 0.284435 15.3732
3.51243 0.327061 16.5662
3.52695 0.338995 16.9
3.53951 0.351005 17.2388
3.55215 0.363178 17.5885
3.65708 0.433387 19.565
3.70553 0.468965 20.5512
3.34462 0.271467 13.0078
3.35185 0.359777 13.1635
3.36047 0.369939 13.3773
3.43099 0.43451 14.769
3.44719 0.447821 15.0607
3.38048 0.475749 13.6346
3.58526 0.704818 17.9683
3.6724 0.79053 19.5726
3.33936 0.582609 12.6772
3.3469 0.595623 12.881
3.40194 0.663318 13.9427
3.4159 0.680157 14.2024
3.42167 0.695616 14.4362
3.51033 0.803331 16.1081
3.61071 0.934352 18.1387
3.62382 0.96838 18.6812
3.36345 0.695532 13.0774
3.76854 1.28466 21.4048
3.57921 1.10728 17.5233
3.60772 1.15209 18.1195
3.62164 1.18178 18.504
3.72587 1.34444 20.6451
3.31123 0.775286 11.9775
3.32703 0.805736 12.346
3.33656 0.822719 12.5477
3.41477 0.944567 14.0255
3.45459 1.01887 14.9252
3.61926 1.29891 18.3093
2.91753 0.183804 4.23413
3.38612 0.985326 13.67
3.52912 1.2392 16.5696
3.54682 1.27046 16.9251
3.67561 1.4771 19.2683
3.85154 1.78957 22.8169
3.87718 1.84361 23.428
3.30752 0.911704 11.8695
3.30457 0.924763 12.0083
3.75916 1.76237 20.9087
3.85227 1.9508 22.8985
2.9294 0.271369 4.47478
2.93877 0.276073 4.52264
2.95044 0.284382 4.61145
2.93286 0.2863 4.2675
2.93233 0.292218 4.32943
2.93561 0.295778 4.36735
2.91955 0.293656 4.35851
3.27579 0.993314 11.2334
2.93772 0.344888 4.50963
2.92787 0.36719 4.39436
2.92811 0.370663 4.42631
2.94381 0.381013 4.51805
2.94271 0.39376 4.63589
2.93993 0.396206 4.66588
2.94122 0.400768 4.7038
3.49483 1.63637 15.4288
2.92175 0.373018 4.11228
2.91895 0.375404 4.13827
2.92524 0.379977 4.17716
2.9265 0.383479 4.2111
2.91762 0.384722 4.22715
2.93103 0.391497 4.27996
2.93824 0.394906 4.30786
2.93444 0.397293 4.33386
2.9286 0.399623 4.35587
2.95115 0.423625 4.55937
3.23186 1.07565 10.0384
3.27562 1.21668 11.1891
3.2839 1.23718 11.3578
3.4108 1.54488 13.8396
2.92785 0.407172 4.12273
2.91998 0.40843 4.13977
2.9192 0.411859 4.16873
2.92461 0.418654 4.2226
2.92003 0.424472 4.27755
2.92838 0.430146 4.32341
2.92458 0.432534 4.34941
3.24634 1.20034 10.4895
3.25654 1.22065 10.6461
3.29922 1.33363 11.5232
2.92987 0.438153 4.12126
2.93415 0.442697 4.15816
2.93474 0.451851 4.23603
2.93397 0.45531 4.26699
2.93826 0.459869 4.3049
2.94155 0.464429 4.34281
3.15966 1.00775 8.55671
3.18566 1.11141 9.34408
3.20737 1.14172 9.5685
3.20821 1.15635 9.6783
3.22135 1.17656 9.82792
3.213 1.18783 9.91383
3.22106 1.20688 10.0525
3.25312 1.26081 10.4535
3.25614 1.27879 10.5872
3.25817 1.2968 10.723
3.27047 1.33727 11.0253
3.30826 1.42155 11.6529
3.11433 0.976302 7.98443
3.17897 1.13306 9.11778
3.18179 1.14766 9.22556
3.18461 1.16225 9.33334
3.22708 1.26184 10.0496
3.22901 1.27865 10.1714
3.27944 1.39611 11.0144
3.28252 1.41623 11.1571
3.30113 1.46429 11.4993
2.93317 0.506661 4.15522
2.92935 0.510019 4.1792
2.93667 0.515635 4.22107
2.93692 0.520123 4.25401
2.9402 0.524653 4.28992
2.93538 0.527012 4.31393
2.94563 0.532493 4.34677
2.94183 0.53588 4.37275
3.1 0.956814 7.41075
3.10129 0.962375 7.44866
3.09164 0.968078 7.49566
3.12509 1.05169 8.07825
3.14373 1.08386 8.29266
3.14847 1.09731 8.39044
3.15426 1.11183 8.4932
3.15189 1.12406 8.57605
3.16858 1.13739 8.66673
3.17337 1.15291 8.76948
3.17614 1.16742 8.87126
3.17996 1.18201 8.97903
3.18479 1.19862 9.08776
3.18352 1.21203 9.18259
3.18941 1.22875 9.29931
3.21131 1.24648 9.4169
3.21007 1.26098 9.51771
3.2109 1.27658 9.62549
3.21482 1.29338 9.74723
3.21978 1.31222 9.87193
3.22682 1.33224 10.0086
3.22875 1.34905 10.1304
3.25278 1.37004 10.2659
3.25476 1.38793 10.3936
3.25777 1.4079 10.5263
3.26592 1.43013 10.6769
3.26591 1.44805 10.8067
3.27414 1.47243 10.9673
3.30242 1.51584 11.2665
2.93423 0.54373 4.15967
3.06187 0.931744 6.86433
3.08755 1.00389 7.34714
3.09625 1.01722 7.43789
3.09984 1.02838 7.51571
3.11859 1.06376 7.74507
3.11305 1.07166 7.80501
3.12037 1.09821 7.97758
3.12505 1.11154 8.06736
3.13283 1.12704 8.16909
3.15318 1.15366 8.34657
3.1569 1.16805 8.44034
3.15858 1.18138 8.53014
3.15723 1.19364 8.61498
3.16507 1.21026 8.72469
3.17192 1.2269 8.83541
3.18249 1.23901 8.91116
3.1914 1.25677 9.02985
3.18396 1.26785 9.10275
3.19394 1.28775 9.2314
3.19777 1.30336 9.34015
3.19549 1.31777 9.43497
3.20551 1.33874 9.5686
3.22333 1.35531 9.67524
3.22827 1.37413 9.79794
3.22503 1.38863 9.89876
3.22897 1.40744 10.0215
3.24113 1.43068 10.1731
3.24511 1.44959 10.3018
3.29262 1.58019 11.1536
3.08941 1.01762 7.1939
3.09503 1.03081 7.27467
3.10679 1.04628 7.37437
3.10223 1.05414 7.4323
3.12257 1.10167 7.73848
3.12521 1.11491 7.82228
3.12989 1.12822 7.91106
3.12643 1.13928 7.98193
3.13827 1.15589 8.09161
3.13379 1.16592 8.1605
3.14703 1.1913 8.32205
3.15486 1.20891 8.43075
3.15553 1.22221 8.51856
3.1603 1.2377 8.61931
3.1805 1.28296 8.90752
3.17918 1.2963 8.99735
3.18814 1.31614 9.122
3.1971 1.336 9.24766
3.19482 1.3504 9.34248
3.20566 1.38797 9.58387
3.22145 1.40449 9.68652
3.2223 1.42114 9.79829
3.23035 1.44316 9.93492
3.23226 1.46094 10.0547
3.26733 1.54481 10.5872
2.94031 0.626746 4.29541
3.0238 0.895868 6.06104
3.06851 0.993992 6.67834
3.06592 1.00278 6.73123
3.07451 1.01493 6.809
3.08644 1.03472 6.93063
3.10219 1.09204 7.28972
3.10603 1.10967 7.40044
3.11224 1.13501 7.55804
3.11992 1.14933 7.64778
3.12253 1.16251 7.72758
3.12006 1.17254 7.79646
3.13114 1.19563 7.93805
3.13073 1.20778 8.01589
3.14154 1.22534 8.12156
3.14728 1.24077 8.2183
3.15099 1.25615 8.31106
3.15573 1.27158 8.40781
3.16525 1.28358 8.47557
3.16695 1.29794 8.56736
3.1758 1.31557 8.67804
3.17342 1.32879 8.75988
3.17721 1.34532 8.86362
3.181 1.36184 8.96636
3.18175 1.37829 9.06413
3.20564 1.39801 9.18067
3.20719 1.43002 9.38421
3.21105 1.44869 9.49692
3.22109 1.4707 9.63254
3.25071 1.5487 10.1062
3.25264 1.56849 10.2269
3.25868 1.59051 10.3636
2.92833 0.707717 4.15728
2.92768 0.714383 4.2022
2.9441 0.724199 4.25793
2.93322 0.725444 4.274
2.93472 0.735404 4.33885
2.95117 0.745265 4.39759
2.93501 0.754011 4.10954
2.93524 0.758454 4.13948
2.93243 0.762841 4.16544
2.93458 0.76612 4.18438
2.93583 0.770608 4.2173
2.94113 0.777181 4.25617
2.94643 0.783754 4.29504
2.94262 0.788126 4.32001
2.94489 0.793657 4.35591
2.94918 0.799216 4.3938
2.94628 0.801411 4.4068
2.96728 0.887161 4.93044
2.97468 0.895925 4.98226
2.97903 0.903602 5.02812
2.97933 0.910193 5.06803
3.00455 0.981402 5.48784
3.00083 0.986967 5.52579
3.00625 0.996776 5.58061
3.00696 1.01214 5.67239
3.02347 1.04607 5.87079
3.02283 1.05376 5.91769
3.0368 1.09757 6.17497
3.04535 1.11063 6.24673
3.0488 1.1205 6.30556
3.0482 1.12928 6.35844
3.05067 1.14018 6.41927
3.0511 1.14903 6.47615
3.05662 1.16103 6.54394
3.06297 1.16969 6.58877
3.06138 1.17849 6.64265
3.06591 1.19052 6.71245
3.07044 1.20254 6.78125
3.06888 1.2124 6.83912
3.08434 1.24621 7.02953
3.08383 1.25716 7.09338
3.09916 1.30967 7.39853
3.12035 1.33795 7.55298
3.1148 1.34783 7.61188
3.12149 1.36317 7.70261
3.13124 1.38061 7.8003
3.1405 1.43298 8.09549
3.14521 1.44935 8.18823
3.154 1.46788 8.2919
2.926 0.798938 4.10394
2.93016 0.803246 4.12485
2.94051 0.810919 4.17067
2.93975 0.816378 4.20159
2.93593 0.819736 4.22558
2.94023 0.826309 4.26445
2.94856 0.834954 4.30827
2.95185 0.841514 4.34615
2.95627 0.850324 4.401
2.94843 0.85364 4.42201
2.95934 0.874392 4.54064
2.95658 0.878853 4.57159
2.96519 0.914968 4.78202
2.96548 0.921529 4.81993
2.97473 0.928026 4.85377
2.97199 0.933516 4.88671
2.98141 0.943337 4.9425
2.98474 0.950971 4.98537
2.98809 0.959648 5.03122
2.99245 0.967341 5.07808
2.99175 0.973918 5.117
2.99394 0.979286 5.1419
2.99121 0.98482 5.17785
2.99457 0.992513 5.22472
2.99794 1.00122 5.27257
2.99624 1.0078 5.31149
2.9986 1.01651 5.35935
3.00198 1.02523 5.4082
3.0113 1.03284 5.45002
3.01265 1.04052 5.49591
3.00893 1.04707 5.53284
3.00624 1.05368 5.57377
3.00863 1.06242 5.62363
3.01204 1.07222 5.67747
3.0136 1.08531 5.75127
3.02719 1.09944 5.82797
3.02757 1.10818 5.87784
3.02998 1.11797 5.93169
3.03038 1.12674 5.98356
3.03281 1.13757 6.03939
3.04357 1.15504 6.13907
3.03993 1.16374 6.18597
3.04644 1.17571 6.25175
3.04992 1.18665 6.31558
3.0473 1.19538 6.36447
3.0579 1.21054 6.44318
3.06037 1.22146 6.50501
3.06263 1.22696 6.53891
3.06208 1.23782 6.59677
3.06763 1.25089 6.66954
3.07012 1.26184 6.73337
3.07263 1.27482 6.80017
3.07719 1.2879 6.87295
3.07666 1.29882 6.9348
3.09015 1.31076 6.99853
3.09528 1.36088 7.27679
3.11702 1.40322 7.50303
3.11248 1.41412 7.56391
3.11816 1.43044 7.65264
3.1218 1.44566 7.7354
2.9422 0.844262 4.12615
2.94648 0.850806 4.16303
2.94266 0.854164 4.18701
2.951 0.862809 4.23083
2.9482 0.866195 4.2568
2.95892 0.883593 4.35148
2.95867 0.901042 4.44923
2.96196 0.907602 4.48712
2.96943 0.918514 4.54891
2.9697 0.925031 4.58381
2.96895 0.930505 4.61574
2.96923 0.937052 4.65265
2.96949 0.942555 4.68657
2.96369 0.946943 4.71255
2.97598 0.954511 4.75135
2.97626 0.961043 4.78726
2.97147 0.965461 4.81523
2.98291 0.976296 4.87199
2.97611 0.980685 4.89798
2.98146 0.989376 4.94482
2.97669 0.993824 4.9748
2.98901 1.00242 5.01558
2.99438 1.01114 5.06442
2.99467 1.0177 5.10232
2.99295 1.02425 5.13925
2.99834 1.034 5.19007
2.99459 1.03949 5.22302
2.99695 1.04717 5.26889
3.00758 1.06339 5.35159
2.99877 1.06677 5.37661
3.00926 1.07871 5.44036
3.0096 1.08736 5.48423
3.01096 1.09607 5.5321
3.0184 1.10692 5.58989
3.02163 1.11235 5.61879
3.02604 1.12214 5.67262
3.03351 1.13405 5.7344
3.02067 1.13737 5.75545
3.02205 1.14611 5.80532
3.02954 1.15805 5.86909
3.02483 1.16462 5.90703
3.03315 1.17323 5.94885
3.04574 1.18736 6.02556
3.04309 1.19603 6.07045
3.04145 1.20474 6.11834
3.05303 1.21886 6.19406
3.05751 1.23078 6.25686
3.05284 1.23842 6.29978
3.06669 1.26005 6.41038
3.07119 1.27201 6.47517
3.06859 1.2818 6.52806
3.06497 1.29053 6.57696
3.06846 1.30248 6.64177
3.07299 1.3155 6.71055
3.07933 1.32415 6.75438
3.0859 1.33825 6.82913
3.09554 1.35449 6.91283
3.09297 1.36432 6.96871
3.09651 1.37837 7.03949
3.11155 1.4283 7.30567
3.11262 1.45437 7.4453
2.94311 0.88802 4.1095
2.97234 0.990192 4.66184
2.97087 1.00223 4.73168
2.98663 1.0217 4.83129
2.97781 1.02504 4.85431
2.97606 1.03153 4.88723
2.99244 1.04224 4.93596
2.98159 1.04455 4.95601
2.99 1.05534 5.00979
2.99335 1.064 5.05464
2.99161 1.06952 5.08958
2.9889 1.07707 5.12649
3.01571 1.12357 5.36364
3.00488 1.12591 5.38569
3.01437 1.13884 5.44943
3.02062 1.14531 5.48129
3.01894 1.15295 5.5242
3.02335 1.16373 5.57701
3.02269 1.1714 5.62191
3.03219 1.18535 5.68664
3.03256 1.19406 5.73452
3.02175 1.19745 5.76055
3.03718 1.20927 5.81627
3.04366 1.22218 5.87804
3.04099 1.22982 5.92095
3.04341 1.24065 5.97678
3.04889 1.25256 6.03857
3.05437 1.26549 6.10135
3.05173 1.27418 6.14824
3.04706 1.28184 6.19217
3.05845 1.29258 6.24293
3.07194 1.33046 6.4373
3.07544 1.34342 6.50209
3.0769 1.3553 6.56191
3.07126 1.364 6.60883
3.0862 1.38781 6.73138
3.09076 1.40289 6.80413
3.0841 1.41056 6.84908
3.11392 1.50891 7.34647
3.10732 1.5197 7.39936
2.93889 0.943528 4.0757
2.939 0.946735 4.08966
2.94024 0.952207 4.12157
2.95059 0.961865 4.16635
2.93869 0.963066 4.17943
2.93891 0.96851 4.20935
2.95231 0.980269 4.26108
2.95053 0.984699 4.29003
2.95178 0.991171 4.32193
2.96203 0.998652 4.35475
2.95721 1.00201 4.37874
2.9605 1.00957 4.41661
2.96279 1.01712 4.45348
2.95899 1.0215 4.47945
2.95621 1.02693 4.5084
2.9695 1.03549 4.54617
2.96875 1.04197 4.57909
2.967 1.04746 4.61203
2.96828 1.055 4.64791
2.96653 1.06048 4.68085
2.96722 1.07782 4.7706
2.98836 1.13394 5.04964
2.98563 1.14046 5.08457
2.99608 1.15332 5.14331
2.9974 1.16194 5.18518
2.99367 1.16847 5.22012
3.00291 1.20085 5.38159
3.00529 1.21059 5.43144
3.01104 1.23104 5.5291
3.02583 1.2785 5.76332
3.0262 1.28821 5.81118
3.02555 1.29689 5.85706
3.04011 1.3389 6.06036
3.04154 1.35072 6.11618
3.05109 1.36577 6.1869
3.05557 1.3787 6.24968
3.05902 1.39057 6.30849
3.06048 1.40245 6.36831
3.07231 1.42605 6.47689
3.06563 1.43367 6.51783
3.06505 1.44449 6.57368
2.95591 1.02042 4.20345
2.97121 1.08086 4.50348
2.98356 1.11745 4.67887
2.97979 1.1229 4.70883
2.975 1.12832 4.73679
2.98629 1.13687 4.77458
2.98758 1.14443 4.81246
2.98889 1.15302 4.85233
2.99019 1.16061 4.89221
2.99455 1.1713 4.93903
2.98471 1.17361 4.95907
2.99109 1.18434 5.00887
2.99835 1.19184 5.04271
2.99866 1.20043 5.08259
2.99795 1.20801 5.12149
2.99928 1.21664 5.16435
2.99758 1.22422 5.20326
2.99993 1.2339 5.2491
2.99924 1.24249 5.28899
3.01869 1.25635 5.34765
3.01597 1.2639 5.38456
3.01733 1.27258 5.43043
3.0197 1.2833 5.47926
3.01802 1.29192 5.52115
3.01737 1.30059 5.56603
3.02584 1.3145 5.62777
3.03516 1.3241 5.66856
3.03248 1.33273 5.71146
3.03182 1.34139 5.75534
3.03017 1.35105 5.80022
3.03664 1.36396 5.86199
3.03601 1.37367 5.90986
3.04982 1.39723 6.01542
3.05225 1.40906 6.07123
3.05265 1.41983 6.12308
3.05713 1.43376 6.18585
3.05856 1.4456 6.24267
2.99065 1.1945 4.8167
2.99295 1.20307 4.85556
2.98818 1.20852 4.88552
2.99643 1.217 4.91834
2.9947 1.22352 4.95326
3.00503 1.26108 5.12665
3.00736 1.27072 5.16949
3.01361 1.27719 5.20135
3.01862 1.30615 5.33391
3.02098 1.31684 5.38074
3.02132 1.32549 5.42461
3.01862 1.33407 5.46351
3.03232 1.35442 5.55512
3.03064 1.36303 5.59601
3.03404 1.37481 5.64882
3.04049 1.38766 5.70659
3.04086 1.39837 5.75443
3.04529 1.41021 5.81123
3.05436 1.44126 5.94972
2.94286 1.08027 4.05764
2.93802 1.0846 4.07962
2.94737 1.09526 4.1244
2.95355 1.10061 4.14828
2.95885 1.11018 4.1871
2.95909 1.11564 4.21802
2.95933 1.12311 4.24991
2.95452 1.12747 4.27389
2.95906 1.14252 4.34464
2.96526 1.1489 4.3705
2.96755 1.15746 4.40837
2.97286 1.16605 4.4482
2.97237 1.18004 4.51501
2.97568 1.18963 4.55485
2.96886 1.19399 4.57884
2.97709 1.20042 4.60868
2.97635 1.20793 4.64258
2.97663 1.21546 4.67848
2.98399 1.22716 4.72625
2.97922 1.23261 4.75621
2.97848 1.24011 4.79011
2.97979 1.24871 4.82998
2.98602 1.25614 4.85983
2.98935 1.26578 4.90267
2.99471 1.27647 4.94947
2.99603 1.28509 4.99134
3.00343 1.29785 5.0431
2.99968 1.30434 5.07604
2.99797 1.31189 5.11295
3.00625 1.32143 5.14975
3.01468 1.33425 5.2055
3.01297 1.34282 5.24339
3.01228 1.35142 5.28428
3.00551 1.35687 5.31425
3.00585 1.36652 5.35811
3.01226 1.37932 5.41188
3.01852 1.38781 5.44571
3.02598 1.4017 5.50546
3.02431 1.41032 5.54735
3.01958 1.41785 5.58328
3.0288 1.4542 5.74169
3.04421 1.46798 5.79538
3.00205 1.33605 4.98854
3.01193 1.36274 5.10309
3.01661 1.38305 5.19176
3.01794 1.39269 5.23462
3.02753 1.44074 5.44086
2.94428 1.18997 4.10402
2.95362 1.20061 4.1478
2.95589 1.20913 4.18266
2.96207 1.21548 4.20652
2.96763 1.23256 4.27923
2.97141 1.25605 4.37987
2.97572 1.26565 4.4207
2.97408 1.27635 4.46756
2.97434 1.28385 4.50146
2.97967 1.29446 4.54326
2.9769 1.30091 4.57319
2.97717 1.30844 4.60909
2.98859 1.32223 4.6628
2.97961 1.32228 4.66587
2.9809 1.33084 4.70374
2.99233 1.34566 4.75944
2.99058 1.35315 4.79235
2.98073 1.35644 4.81138
2.98509 1.36713 4.85819
2.99769 1.38728 4.93581
3.00103 1.39794 4.98063
3.00134 1.40753 5.02049
3.01178 1.42238 5.0782
3.00501 1.42781 5.10718
3.00328 1.43635 5.14307
3.00158 1.44493 5.18196
2.94674 1.22784 4.02743
2.95505 1.23844 4.06821
2.95932 1.24695 4.10306
2.96146 1.25123 4.12198
2.9617 1.25869 4.15287
2.95712 1.27049 4.20674
2.96973 1.29067 4.28636
2.96288 1.29497 4.30635
2.97439 1.31193 4.37202
2.9706 1.31735 4.39997
2.97085 1.32482 4.43187
2.97313 1.33437 4.46871
2.96326 1.33663 4.48576
2.96656 1.3472 4.52458
2.96784 1.35573 4.56045
2.97708 1.36418 4.59126
2.98141 1.37482 4.63407
2.98471 1.38441 4.67391
2.97991 1.38979 4.69987
2.98757 1.41205 4.7845
2.99277 1.41844 4.81137
2.99509 1.42904 4.8522
2.99639 1.43862 4.89105
2.99162 1.44507 4.921
2.99597 1.45674 4.9668
2.9993 1.46738 5.00962
2.95569 1.28466 4.01552
2.96132 1.30487 4.09719
2.96178 1.31977 4.15797
2.948 1.33821 4.05179
2.94823 1.34565 4.08168
2.95858 1.35831 4.12642
2.96184 1.36783 4.16126
2.9641 1.37631 4.19412
2.96726 1.38162 4.21502
2.96851 1.39009 4.24689
2.9647 1.39547 4.27184
2.96393 1.40291 4.30174
2.96417 1.41138 4.33362
2.9614 1.41781 4.36255
2.96164 1.42629 4.39443
2.96784 1.43367 4.42028
2.96642 1.44288 4.09711
2.96261 1.44926 4.12204
2.96486 1.45874 4.15489
2.96003 1.46307 4.17687
-5.23077 -0.649427 17.7297
-5.55926 -0.510269 9.01393
-5.56172 -0.509185 8.95192
-5.57031 -0.506304 8.74091
-5.58066 -0.505993 8.69398
-5.5827 -0.502005 8.4229
-5.58413 -0.501863 8.3649
-5.59841 -0.5014 8.328
-5.59192 -0.500412 8.25992
-5.60323 -0.500011 8.219
-5.59257 -0.499686 8.1739
-5.60091 -0.498346 8.12894
-5.59639 -0.498297 8.0649
-5.60669 -0.497882 8.02496
-5.69476 -0.474483 5.88699
-5.69717 -0.473282 5.83298
-5.69674 -0.473422 5.75597
-5.70496 -0.472846 5.72702
-5.70326 -0.472439 5.68699
-5.7075 -0.47191 5.65501
-5.70679 -0.471474 5.61699
-5.70125 -0.471381 5.55594
-5.71045 -0.470774 5.529
-5.70874 -0.470338 5.49097
-5.71126 -0.470358 5.42198
-5.70768 -0.469205 5.36493
-5.71218 -0.469179 5.29896
-5.71939 -0.468589 5.271
-5.71766 -0.468123 5.23497
-5.72215 -0.468083 5.17
-5.72724 -0.468257 5.15804
-5.72253 -0.467823 5.11999
-5.72874 -0.467233 5.09202
-5.72402 -0.466799 5.05398
-5.73047 -0.466683 4.99402
-5.72787 -0.46647 4.94099
-5.73606 -0.466834 4.91605
-5.72537 -0.46545 4.87494
-5.73977 -0.466224 4.82206
-5.73901 -0.465698 4.79004
-5.74323 -0.465125 4.76106
-5.73662 -0.464915 4.708
-5.7458 -0.465248 4.68507
-5.73411 -0.463864 4.64395
-5.74253 -0.463688 4.58801
-5.7517 -0.464021 4.56508
-5.74497 -0.46356 4.52901
-5.75105 -0.463703 4.51906
-5.74432 -0.463241 4.483
-5.75448 -0.46356 4.46108
-5.74775 -0.463098 4.42501
-5.75493 -0.463448 4.40107
-5.7472 -0.462987 4.365
-5.87742 -0.463625 1.41258
-5.8778 -0.463365 1.36258
-5.87477 -0.464277 1.23355
-5.88828 -0.466244 1.03265
-5.8925 -0.46667 1.00369
-5.89407 -0.466795 0.927689
-5.89258 -0.467803 0.859683
-5.83375 -0.418554 2.16169
-5.84377 -0.419546 2.02676
-5.83902 -0.420053 1.99273
-5.83635 -0.419692 1.9497
-5.83766 -0.420298 1.90871
-5.83598 -0.419936 1.86569
-5.85394 -0.421818 1.73783
