3.07481 0.158981 2.70218
3.0679 0.160178 2.71521
3.0761 0.162557 2.74112
3.06812 0.161593 2.7432
3.06322 0.162804 2.75722
3.07042 0.165183 2.78313
3.05661 0.166563 2.80822
3.05676 0.167859 2.8282
3.05295 0.170232 2.8532
3.03021 0.18172 3.02022
3.01344 0.19413 3.18219
3.00478 0.197803 3.2272
2.99161 0.206426 3.33619
2.9928 0.208795 3.36115
2.98122 0.212632 3.41719
2.98791 0.220974 3.50803
2.97093 0.220031 3.51117
2.97214 0.22243 3.53813
2.96424 0.223643 3.55217
2.96545 0.226041 3.57913
2.95755 0.22624 3.59219
2.96169 0.228518 3.61113
2.96188 0.230888 3.63609
2.95905 0.232215 3.6581
2.95117 0.233458 3.67414
2.95035 0.235814 3.69812
2.94348 0.23707 3.71515
2.94368 0.23947 3.74212
2.94177 0.239634 3.75313
2.93994 0.241976 3.77611
2.93409 0.243261 3.79514
2.93429 0.245661 3.82211
2.93652 0.248103 3.85206
2.93066 0.250388 3.87107
2.9329 0.252846 3.90202
2.92896 0.252982 3.91105
2.92311 0.255267 3.93007
2.91928 0.256596 3.95208
2.91444 0.257925 3.9741
2.91264 0.260311 4.00008
2.91084 0.262697 4.02606
2.906 0.265026 4.04807
2.90915 0.266305 4.06703
2.90432 0.268649 4.09003
2.89645 0.269906 4.10707
2.89669 0.272365 4.13804
2.89185 0.273694 4.16006
2.88602 0.276024 4.18207
2.88322 0.278411 4.20806
2.88739 0.280748 4.231
2.87852 0.282006 4.24805
2.87977 0.284494 4.28101
2.87293 0.286809 4.30203
2.86608 0.28811 4.32206
2.86532 0.29057 4.35304
2.86557 0.294058 4.38599
2.86772 0.295352 4.40596
2.8619 0.297712 4.42997
2.85608 0.300071 4.45398
2.85126 0.30143 4.478
2.8447 0.307293 4.53597
2.84192 0.309724 4.56496
2.84307 0.31102 4.58493
2.84232 0.314508 4.61789
2.83754 0.316926 4.6459
2.82768 0.318215 4.66495
2.831 0.322834 4.70687
2.82216 0.324151 4.72792
2.81636 0.32654 4.75393
2.81953 0.328878 4.77687
2.80968 0.330167 4.79593
2.81099 0.333772 4.83687
2.80925 0.337292 4.87184
2.7994 0.338595 4.8919
2.7997 0.342172 4.93085
2.78986 0.34449 4.95189
2.79204 0.346843 4.97584
2.78525 0.349263 5.00386
2.78353 0.351812 5.04084
2.77775 0.355245 5.06984
2.773 0.357722 5.10184
2.77026 0.361242 5.13681
2.7645 0.36372 5.16883
2.76466 0.366016 5.18879
2.75788 0.368465 5.21881
2.75821 0.372101 5.26176
2.74738 0.374449 5.28481
2.74467 0.378013 5.32278
2.74095 0.381549 5.35877
2.73419 0.384027 5.39078
2.74148 0.388584 5.42867
2.72557 0.388774 5.44079
2.72085 0.392325 5.47777
2.72019 0.396991 5.52272
2.70217 0.408913 5.65169
2.69543 0.411421 5.68571
2.69377 0.416103 5.73166
2.81458 0.365937 4.78036
2.73998 0.42156 5.35918
3.34769 0.0951708 0.565772
3.33409 0.0959655 0.61887
3.32091 0.0985891 0.727946
3.31608 0.0999182 0.749966
3.2878 0.108314 0.978086
3.14065 0.172742 2.1484
3.13026 0.177934 2.22841
2.94913 0.294305 3.66325
2.93973 0.301481 3.74223
3.38716 0.109135 0.227222
3.38344 0.110685 0.264232
3.37305 0.111892 0.345303
3.36328 0.112359 0.376374
3.37167 0.115107 0.427278
3.36282 0.11441 0.447357
3.3591 0.115975 0.485367
3.34437 0.115505 0.52049
3.34546 0.115681 0.532481
3.34654 0.116843 0.543457
3.34062 0.115996 0.553516
3.34078 0.117321 0.575498
3.33895 0.118648 0.597495
3.34902 0.119774 0.606404
3.33708 0.118902 0.614508
3.33341 0.120556 0.658517
3.3355 0.120732 0.6705
3.32761 0.12096 0.685558
3.32669 0.121123 0.696564
3.32478 0.121288 0.707578
3.32695 0.122626 0.730545
3.31815 0.123018 0.756609
3.31522 0.123168 0.76663
3.31331 0.123332 0.777644
3.3184 0.124521 0.79059
3.30686 0.126418 0.850657
3.30102 0.126733 0.871699
3.30115 0.127999 0.889682
3.29732 0.128328 0.911709
3.29348 0.129656 0.933721
3.29015 0.133962 1.02169
3.27078 0.137205 1.1048
3.24375 0.150088 1.36585
3.23426 0.153087 1.43289
3.22175 0.157058 1.49793
3.22205 0.15965 1.5379
3.20384 0.165218 1.64297
3.18883 0.173153 1.77298
3.18894 0.174375 1.78796
3.18932 0.178115 1.83791
3.18251 0.17949 1.86295
3.17368 0.180837 1.886
3.17598 0.183412 1.92495
3.17207 0.184593 1.93696
3.16767 0.189765 2.01593
3.15383 0.191086 2.03702
3.15695 0.192336 2.05398
3.15708 0.193572 2.06996
3.1572 0.194809 2.08594
3.15027 0.194962 2.09599
3.14933 0.196067 2.10299
3.15749 0.198386 2.12489
3.15359 0.198581 2.13792
3.1517 0.19979 2.15192
3.14277 0.19993 2.16099
3.15093 0.202249 2.18289
3.13496 0.20132 2.18703
3.13905 0.20248 2.19798
3.14017 0.203731 2.21496
3.13728 0.20494 2.22896
3.14646 0.208289 2.25285
3.12948 0.206331 2.255
3.13363 0.208624 2.27494
3.12369 0.20875 2.28302
3.13683 0.211021 2.30189
3.12287 0.210105 2.30701
3.12905 0.213441 2.32991
3.1181 0.212553 2.33701
3.11722 0.21379 2.353
3.11333 0.215 2.36701
3.12453 0.218392 2.39388
3.11955 0.21844 2.39692
3.11969 0.219706 2.4149
3.11478 0.219887 2.42694
3.10887 0.221069 2.43897
3.11807 0.223447 2.46487
3.11217 0.224644 2.47789
3.1033 0.224917 2.49596
3.10344 0.227183 2.51393
3.10055 0.228407 2.52893
3.10069 0.229674 2.54692
3.09377 0.229842 2.55797
3.09593 0.232151 2.57892
3.09606 0.233402 2.5959
3.09311 0.234508 2.60291
3.08821 0.234704 2.61594
3.09138 0.237027 2.63789
3.08347 0.237211 2.64995
3.08058 0.238435 2.66495
3.07568 0.239631 2.67797
3.08289 0.243025 2.70487
3.07691 0.242074 2.70793
3.08511 0.245468 2.73483
3.08224 0.246706 2.75083
3.06742 0.248073 2.77493
3.06469 0.250607 2.81091
3.0698 0.252826 2.82584
3.06693 0.254079 2.84285
3.06809 0.256389 2.86381
3.05918 0.256559 2.87488
3.06033 0.258868 2.89584
3.05343 0.259051 2.90789
3.05157 0.261334 2.92687
3.05483 0.264834 2.9608
3.04405 0.266286 2.99086
3.04622 0.26861 3.01281
3.04134 0.269851 3.02883
3.03848 0.271119 3.04684
3.03755 0.272253 3.05583
3.03872 0.274593 3.07879
3.0399 0.276932 3.10175
3.03215 0.279441 3.13578
3.02728 0.280696 3.1528
3.02846 0.283036 3.17576
3.01946 0.283042 3.17582
3.02265 0.285425 3.20177
3.02182 0.287751 3.22374
3.01695 0.289006 3.24076
3.01208 0.290261 3.25778
3.01125 0.292587 3.27976
3.00637 0.293843 3.29678
3.01251 0.296104 3.3147
3.00462 0.297317 3.32875
3.00278 0.29863 3.34974
2.988 0.30107 3.37882
2.99322 0.30451 3.40874
2.98634 0.304737 3.42379
2.9925 0.308043 3.44469
2.98782 0.311668 3.48668
2.98497 0.312966 3.50669
2.98131 0.317635 3.55165
2.97039 0.317805 3.56273
2.97655 0.321112 3.58364
2.96886 0.324724 3.62465
2.96704 0.327066 3.64763
2.95916 0.328308 3.66368
2.96239 0.33075 3.69362
2.95855 0.333064 3.71462
2.96066 0.335284 3.72957
2.94915 0.341254 3.79458
2.93946 0.344868 3.8356
2.93473 0.34839 3.87059
2.92572 0.36132 4.00049
2.91481 0.361506 4.01257
2.91616 0.3672 4.05948
2.90752 0.370902 4.1065
2.90191 0.376661 4.15746
2.88705 0.391906 4.30837
2.87843 0.396652 4.35837
2.87477 0.401306 4.40233
2.86109 0.404952 4.44539
2.86163 0.412988 4.51528
2.85392 0.416571 4.55429
2.84129 0.421305 4.60332
2.83576 0.428226 4.66527
2.82923 0.435134 4.72622
2.72305 0.531514 5.62472
2.70508 0.546525 5.75965
2.69061 0.553572 5.82966
2.67536 0.565048 5.92862
3.25504 0.167671 1.27049
3.16139 0.21019 1.97667
3.14558 0.222525 2.13363
3.14167 0.222706 2.14565
3.13783 0.22502 2.16665
3.12377 0.23488 2.29163
3.1249 0.236131 2.3086
3.12302 0.237354 2.3236
3.1173 0.239921 2.36161
3.10762 0.243549 2.40364
3.10674 0.244787 2.41963
3.10586 0.246024 2.43562
3.10298 0.247248 2.45062
3.10606 0.248409 2.46159
3.10116 0.248605 2.47462
3.10129 0.250856 2.49159
3.10445 0.253165 2.51253
3.09653 0.253334 2.52359
3.09666 0.254585 2.54058
3.09076 0.255782 2.5536
3.09586 0.25697 2.56655
3.09096 0.258166 2.57957
3.09311 0.260476 2.60052
3.09023 0.2617 2.61553
3.09239 0.264009 2.63648
3.09252 0.26526 2.65347
3.0846 0.265429 2.66452
3.08266 0.266549 2.67252
3.0818 0.267816 2.69051
3.08294 0.270096 2.70947
3.08308 0.271377 2.72846
3.07921 0.272617 2.74447
3.0733 0.273799 2.7565
3.06941 0.275024 2.77151
3.07553 0.276256 2.78745
3.07064 0.277467 2.80147
3.06878 0.279735 2.81945
3.06993 0.281045 2.84043
3.06202 0.282213 2.85147
3.05813 0.283438 2.86648
3.05728 0.284735 2.88647
3.05836 0.285882 2.89645
3.05952 0.288192 2.91741
3.05362 0.289403 2.93144
3.05378 0.291714 2.95241
3.04487 0.291883 2.96347
3.05107 0.295278 2.99038
3.04216 0.295448 3.00145
3.04224 0.29661 3.01243
3.04542 0.298963 3.03637
3.03549 0.299104 3.04545
3.02859 0.300316 3.05948
3.02875 0.302626 3.08045
3.03597 0.30605 3.10935
3.02 0.305121 3.11348
3.03017 0.307439 3.13538
3.02328 0.308652 3.14941
3.02243 0.310948 3.16939
3.02058 0.312246 3.18939
3.01772 0.314514 3.20738
3.01082 0.315726 3.22141
3.011 0.318066 3.24438
3.0131 0.319272 3.25835
3.00941 0.322867 3.29833
3.00555 0.325151 3.31733
3.00673 0.327505 3.34128
3.00389 0.329803 3.36128
3.00003 0.331087 3.38029
3.00214 0.332293 3.39426
2.99038 0.334775 3.42631
2.99056 0.33813 3.45026
2.98974 0.340471 3.47324
2.98184 0.340684 3.4873
2.98102 0.343025 3.51027
2.98212 0.345231 3.52423
2.97928 0.346544 3.54524
2.9714 0.347772 3.56028
2.96774 0.35244 3.60525
2.9659 0.354767 3.62723
2.96206 0.357081 3.64823
2.95832 0.360587 3.68221
2.95973 0.366385 3.73612
2.95084 0.367599 3.75017
2.94901 0.36994 3.77315
2.94519 0.372283 3.79615
2.9473 0.373504 3.81112
2.94651 0.376904 3.83808
2.94469 0.37926 3.86206
2.93277 0.379432 3.87315
2.93299 0.382861 3.9021
2.92916 0.385189 3.9241
2.92735 0.387561 3.94908
2.92543 0.388725 3.96008
2.92261 0.391082 3.98407
2.92285 0.394541 4.01502
2.92002 0.396883 4.03801
2.91013 0.398097 4.05207
2.90834 0.401513 4.08003
2.90756 0.403943 4.10901
2.90665 0.405121 4.121
2.90284 0.408479 4.14498
2.89724 0.413267 4.19796
2.89241 0.415611 4.22096
2.8876 0.41797 4.24497
2.88582 0.4214 4.27393
2.88795 0.423665 4.29189
2.87606 0.424881 4.30596
2.87631 0.428369 4.33891
2.86946 0.43067 4.35893
2.8687 0.434129 4.38989
2.86288 0.436489 4.4139
2.86111 0.439934 4.44387
2.86023 0.441171 4.45986
2.86048 0.444659 4.49281
2.85973 0.449148 4.52575
2.85087 0.450436 4.54481
2.84912 0.453925 4.57777
2.83925 0.455184 4.59483
2.83548 0.458631 4.62481
2.84269 0.46304 4.6527
2.83689 0.465429 4.67871
2.83109 0.467818 4.70472
2.83137 0.472365 4.74165
2.82558 0.474784 4.76967
2.81877 0.478144 4.79367
2.815 0.481605 4.82465
2.7923 0.500152 4.99557
2.78957 0.503672 5.03055
2.76595 0.524382 5.21244
2.76424 0.528946 5.25039
2.76544 0.53233 5.27634
2.74919 0.542807 5.37532
2.7475 0.547415 5.41627
2.74175 0.551907 5.44925
2.73399 0.555386 5.48126
2.73721 0.558813 5.51019
2.73046 0.562291 5.54219
2.72778 0.56693 5.58515
2.72003 0.570409 5.61716
2.71531 0.57496 5.65414
2.70654 0.57841 5.68416
2.70285 0.583019 5.72512
2.69937 0.591043 5.79404
2.69163 0.595551 5.82803
2.6839 0.59909 5.86405
2.6782 0.603671 5.90303
3.24693 0.195392 1.38616
3.22355 0.208562 1.59917
3.21788 0.212217 1.64317
3.18443 0.225276 1.84825
3.19264 0.22767 1.87516
3.16579 0.237954 2.02823
3.10669 0.280605 2.54212
3.10206 0.284333 2.5911
3.09838 0.287957 2.63308
3.0616 0.31532 2.92599
3.03581 0.329692 3.085
3.039 0.33206 3.10994
2.9994 0.36378 3.42682
2.9927 0.367362 3.46582
2.97841 0.376764 3.5598
2.96534 0.389579 3.68172
2.95665 0.393192 3.72274
2.9503 0.402469 3.80866
2.94749 0.405826 3.83264
2.94084 0.410512 3.87863
2.9172 0.429192 4.05855
2.9051 0.442947 4.17646
2.9023 0.445349 4.20345
2.89545 0.447635 4.22247
2.8834 0.461493 4.34737
2.8715 0.462709 4.36144
2.87479 0.467269 4.39936
2.87491 0.468506 4.41534
2.86836 0.475369 4.4733
2.85571 0.480074 4.52033
2.85295 0.483534 4.5513
2.85118 0.487994 4.58225
2.84552 0.49265 4.62623
2.84478 0.497168 4.66118
2.83694 0.498485 4.68222
2.83144 0.50645 4.74715
2.82565 0.509869 4.77515
2.8268 0.512164 4.79511
2.80497 0.529459 4.94904
2.79918 0.532877 4.97703
2.79662 0.539722 5.03396
2.7759 0.559238 5.20285
2.74766 0.586677 5.43369
2.7411 0.59354 5.49164
2.72492 0.606149 5.5996
2.71716 0.610629 5.63159
2.71552 0.616325 5.67853
2.70226 0.62777 5.77547
2.69962 0.633467 5.82241
2.69086 0.636947 5.85443
2.68007 0.64037 5.88247
2.6754 0.645009 5.92544
2.8692 0.485087 4.31912
2.81758 0.537709 4.76379
2.80325 0.548006 4.85076
2.79284 0.557168 4.92872
2.78432 0.564107 4.99169
2.78057 0.568598 5.02465
2.77206 0.576566 5.08961
2.77018 0.577804 5.10561
2.7695 0.583411 5.14653
2.76475 0.587902 5.17951
2.75796 0.590322 5.20753
2.75152 0.600421 5.28144
2.74678 0.603928 5.31542
2.75 0.608355 5.34434
2.74527 0.611876 5.37933
2.73953 0.616383 5.41331
2.73175 0.619833 5.44332
2.72804 0.624383 5.48029
2.72128 0.627861 5.51229
2.72081 0.636897 5.58217
2.71408 0.64142 5.61716
2.70734 0.645928 5.65115
2.70466 0.651566 5.69409
2.69488 0.653988 5.72213
2.68568 0.667563 5.82801
2.68101 0.673202 5.87097
2.66656 0.682293 5.94395
3.42886 0.18949 -0.0853252
3.42395 0.188657 -0.0742743
3.41747 0.189683 -0.00523113
3.41055 0.188851 0.00583483
3.40963 0.189 0.015841
3.40683 0.189402 0.0428598
3.417 0.191735 0.0657518
3.40607 0.190876 0.0748481
3.41216 0.192049 0.0867865
3.40124 0.190205 0.0968975
3.41429 0.192299 0.103769
3.39451 0.190758 0.133945
3.40168 0.192079 0.155875
3.39876 0.192244 0.166896
3.38888 0.191473 0.181984
3.39697 0.192645 0.193907
3.38803 0.191785 0.202988
3.39613 0.193956 0.214897
3.3842 0.192113 0.225015
3.38328 0.192262 0.235021
3.38432 0.19335 0.240998
3.3884 0.19351 0.251967
3.3905 0.194686 0.263935
3.38256 0.193825 0.273009
3.38665 0.195 0.284962
3.38373 0.19515 0.294984
3.38093 0.195552 0.322002
3.38302 0.195728 0.333986
3.37717 0.196028 0.354028
3.37326 0.196194 0.365057
3.36933 0.196345 0.375085
3.37242 0.19652 0.387061
3.36745 0.196583 0.391098
3.36161 0.196898 0.41214
3.36069 0.197062 0.423147
3.36988 0.19941 0.447046
3.36691 0.198487 0.452083
3.36499 0.198636 0.462096
3.35932 0.200292 0.506121
3.36441 0.201466 0.518066
3.34846 0.199581 0.525215
3.34877 0.202173 0.56518
3.34893 0.202499 0.587177
3.35202 0.203674 0.599138
3.34505 0.202739 0.603205
3.34213 0.202889 0.613226
3.34322 0.204066 0.625202
3.34539 0.205404 0.648169
3.34548 0.205582 0.660168
3.34269 0.206984 0.687172
3.33184 0.206288 0.707267
3.32391 0.206427 0.716325
3.33415 0.208893 0.748216
3.3263 0.209195 0.768274
3.32438 0.209359 0.779287
3.32647 0.210535 0.791256
3.32565 0.211876 0.814245
3.32277 0.21213 0.831265
3.31393 0.212433 0.85133
3.31502 0.21361 0.863306
3.30808 0.212748 0.872373
3.31241 0.216381 0.915292
3.30648 0.215519 0.924351
3.29854 0.215658 0.93341
3.30767 0.217888 0.94931
3.29471 0.215987 0.955437
3.29595 0.218445 0.986395
3.29804 0.219621 0.998364
3.29713 0.219799 1.01037
3.28618 0.218911 1.01747
3.29229 0.221128 1.03239
3.28732 0.220191 1.03644
3.29152 0.222573 1.06238
3.28669 0.223902 1.0844
3.28377 0.224067 1.09542
3.2809 0.224321 1.11244
3.286 0.226524 1.12637
3.28008 0.226677 1.13641
3.27315 0.225815 1.14548
3.27826 0.228033 1.16041
3.27744 0.229389 1.1844
3.27147 0.228453 1.18846
3.27166 0.230823 1.21343
3.27075 0.231001 1.22543
3.26884 0.23218 1.23743
3.26593 0.232345 1.24845
3.26115 0.233778 1.27747
3.26325 0.234984 1.29144
3.26253 0.237532 1.32841
3.24772 0.237913 1.35352
3.25685 0.240158 1.37042
3.24792 0.240297 1.37949
3.24701 0.240476 1.39149
3.25012 0.242695 1.40644
3.24821 0.242874 1.41845
3.24424 0.242937 1.42248
3.24936 0.24417 1.43843
3.23842 0.244281 1.44551
3.24354 0.245514 1.46146
3.23761 0.245667 1.4715
3.2357 0.246846 1.4835
3.22892 0.24828 1.51253
3.22702 0.248474 1.52554
3.22813 0.24968 1.53952
3.2222 0.249833 1.54956
3.22833 0.25208 1.56649
3.22769 0.256776 1.61343
3.22076 0.255929 1.62349
3.22198 0.258343 1.65145
3.21404 0.258482 1.66051
3.21108 0.258558 1.66553
3.2152 0.260791 1.68147
3.20526 0.259917 1.68956
3.2114 0.262179 1.70748
3.2086 0.264566 1.73347
3.20871 0.265788 1.74846
3.20786 0.267085 1.76845
3.20496 0.268279 1.78145
3.20015 0.269653 1.80647
3.19082 0.276977 1.89545
3.18418 0.280677 1.94245
3.1766 0.284497 1.99746
3.17571 0.285719 2.01245
3.16718 0.290643 2.07445
3.16629 0.291866 2.08944
3.15879 0.297833 2.15441
3.13714 0.313498 2.33337
3.09172 0.343549 2.67231
3.0607 0.369434 2.9332
3.04568 0.383368 3.06313
3.0381 0.389188 3.1181
3.03053 0.395037 3.17508
2.95689 0.457584 3.74879
2.70251 0.712146 5.80022
2.6968 0.716727 5.8392
2.6911 0.722308 5.87817
2.67078 0.73364 5.96717
3.41168 0.21307 0.0204699
3.41275 0.213217 0.030461
3.40316 0.214024 0.0845287
3.39836 0.214412 0.110563
3.3938 0.215289 0.169592
3.40389 0.216459 0.181501
3.38796 0.215604 0.190635
3.39705 0.216775 0.20255
3.38512 0.215917 0.211654
3.38821 0.216093 0.22363
3.38533 0.216332 0.23965
3.3814 0.216483 0.249679
3.38249 0.216645 0.26067
3.38265 0.21797 0.282652
3.38474 0.218132 0.293636
3.3748 0.217272 0.302724
3.37392 0.21751 0.31873
3.37801 0.218685 0.330683
3.37009 0.217839 0.340757
3.38018 0.220009 0.35265
3.37026 0.219164 0.362739
3.37129 0.219237 0.367731
3.37338 0.220413 0.379699
3.37247 0.220577 0.390705
3.36653 0.219715 0.399764
3.36662 0.220877 0.410748
3.3667 0.22104 0.421746
3.36779 0.222217 0.433722
3.36787 0.22238 0.444721
3.36992 0.222467 0.450705
3.35406 0.221745 0.468837
3.35915 0.222934 0.481783
3.36524 0.224107 0.493722
3.3564 0.22341 0.513801
3.36045 0.224511 0.520756
3.35452 0.224648 0.529799
3.3516 0.224813 0.54082
3.34275 0.224116 0.5609
3.35085 0.226302 0.573809
3.34697 0.226542 0.589837
3.35006 0.227717 0.601797
3.34531 0.228209 0.634831
3.34238 0.22836 0.644852
3.33141 0.227412 0.647949
3.34051 0.229598 0.66085
3.3396 0.229776 0.672856
3.33475 0.230091 0.69389
3.34185 0.231278 0.706821
3.3229 0.229381 0.712993
3.329 0.231569 0.725916
3.33213 0.232833 0.743876
3.33322 0.23301 0.755867
3.31627 0.231111 0.762024
3.31435 0.232275 0.773023
3.32246 0.233477 0.786946
3.31557 0.233704 0.801996
3.31767 0.234895 0.814965
3.31292 0.236387 0.847983
3.31501 0.237563 0.859951
3.31209 0.237728 0.870972
3.30812 0.23679 0.875017
3.30821 0.237967 0.887
3.30429 0.238118 0.897029
3.3124 0.240334 0.911937
3.31349 0.240511 0.923928
3.30064 0.240802 0.943023
3.3077 0.241915 0.950955
3.29274 0.240015 0.957096
3.29985 0.242232 0.972012
3.29593 0.242383 0.982041
3.29001 0.242535 0.992084
3.29712 0.243752 1.00701
3.2972 0.244915 1.018
3.28731 0.244129 1.03209
3.29241 0.246333 1.04602
3.27847 0.244447 1.05315
3.28959 0.247675 1.06902
3.28868 0.247854 1.08103
3.28475 0.248005 1.09106
3.2838 0.248094 1.09706
3.28188 0.249258 1.10806
3.27897 0.249423 1.11908
3.28408 0.250642 1.13403
3.27715 0.25078 1.14308
3.27734 0.25315 1.16805
3.27537 0.253225 1.17306
3.27045 0.253377 1.1831
3.27656 0.254594 1.19804
3.27766 0.255786 1.21101
3.26371 0.254885 1.21713
3.26781 0.256089 1.23108
3.26891 0.257281 1.24406
3.26494 0.257343 1.24809
3.26705 0.258549 1.26206
3.26715 0.259741 1.27504
3.25218 0.257826 1.28018
3.2593 0.260058 1.2961
3.2594 0.26125 1.30908
3.25452 0.261491 1.32512
3.25965 0.263723 1.34105
3.25071 0.262849 1.34913
3.2498 0.264027 1.36112
3.24286 0.263165 1.37019
3.24799 0.265398 1.38612
3.25014 0.267707 1.40707
3.25024 0.2689 1.42005
3.23638 0.268176 1.43817
3.24351 0.270423 1.45509
3.23869 0.271782 1.47911
3.23592 0.274242 1.51009
3.23703 0.275449 1.52407
3.23111 0.275601 1.53411
3.22629 0.27696 1.55813
3.23036 0.27809 1.56709
3.22342 0.278229 1.57614
3.22554 0.279449 1.59111
3.21861 0.279587 1.60016
3.21781 0.281988 1.62713
3.22395 0.284249 1.64505
3.22098 0.284326 1.65008
3.21707 0.284491 1.66111
3.21617 0.285684 1.6741
3.20623 0.28481 1.68219
3.21035 0.287044 1.69812
3.20744 0.288224 1.71013
3.21157 0.289472 1.72708
3.20961 0.290562 1.73308
3.19967 0.289688 1.74117
3.20089 0.292102 1.76913
3.19396 0.292255 1.77918
3.19418 0.295684 1.80813
3.19926 0.296828 1.81808
3.18942 0.298161 1.84014
3.19255 0.29941 1.8571
3.19266 0.300617 1.87108
3.18384 0.301979 1.89513
3.17898 0.303249 1.91315
3.17932 0.307915 1.95808
3.18055 0.310373 1.98904
3.1719 0.31406 2.03506
3.15795 0.313159 2.04118
3.16711 0.316463 2.06206
3.16622 0.317686 2.07705
3.16539 0.320026 2.10003
3.16451 0.321249 2.11502
3.15883 0.32489 2.15801
3.14889 0.325001 2.16509
3.15121 0.32962 2.20701
3.14328 0.329774 2.21707
3.14453 0.333262 2.25001
3.13667 0.334534 2.26805
3.13415 0.340483 2.33199
3.12944 0.344049 2.36998
3.12756 0.345272 2.38498
3.11888 0.348915 2.428
3.11298 0.350111 2.44103
3.11217 0.352482 2.466
3.11444 0.357013 2.50192
3.11169 0.359503 2.53491
3.10391 0.361938 2.56394
3.0936 0.371278 2.65389
3.07359 0.384231 2.78486
3.07489 0.388822 2.82479
3.06828 0.394581 2.87576
3.05937 0.394751 2.88683
3.05316 0.406294 2.99072
3.04835 0.408682 3.01672
3.03891 0.416784 3.09069
3.008 0.447861 3.3645
2.80153 0.650396 5.01128
2.77213 0.678539 5.22212
2.7684 0.683059 5.25708
2.7476 0.704412 5.41494
2.74287 0.708933 5.44992
2.74018 0.714542 5.49086
2.7242 0.733536 5.62472
2.71847 0.738058 5.6597
2.7097 0.741508 5.68972
2.70602 0.747147 5.73267
2.70722 0.751531 5.7586
2.6958 0.761664 5.83454
2.6834 0.772841 5.91348
3.42987 0.228455 -0.0879099
3.43391 0.229526 -0.0829555
3.43208 0.229853 -0.0609435
3.42315 0.229008 -0.0508624
3.43224 0.230179 -0.0389465
3.41831 0.228323 -0.0298128
3.42444 0.22957 -0.0128751
3.42569 0.231058 0.020098
3.42477 0.231221 0.031104
3.40804 0.229767 0.0672566
3.41613 0.230938 0.0791799
3.41145 0.231564 0.121212
3.41253 0.231726 0.132203
3.40665 0.231967 0.148246
3.3938 0.230273 0.16837
3.40098 0.232608 0.191285
3.4021 0.232844 0.207275
3.39141 0.233474 0.249352
3.3965 0.234647 0.261298
3.38762 0.233876 0.276378
3.38595 0.235529 0.320373
3.38612 0.235854 0.34237
3.38324 0.236094 0.35839
3.38131 0.236243 0.368404
3.36374 0.2361 0.425546
3.37293 0.238463 0.450445
3.366 0.238602 0.459497
3.37009 0.239776 0.47145
3.36913 0.239851 0.476457
3.36228 0.239167 0.497522
3.35168 0.240959 0.550582
3.34681 0.2412 0.566618
3.34414 0.242853 0.610619
3.35128 0.245129 0.629534
3.33133 0.242233 0.635728
3.32957 0.243723 0.668724
3.31075 0.250031 0.823794
3.32291 0.253333 0.844656
3.29741 0.254344 0.911843
3.30789 0.259269 0.9747
3.30497 0.260433 0.985706
3.29517 0.260826 1.01178
3.29658 0.264639 1.06672
3.29066 0.263791 1.07678
3.27789 0.26426 1.10787
3.28514 0.267743 1.14077
3.27841 0.269266 1.1758
3.2795 0.270442 1.18778
3.26463 0.26972 1.2059
3.2698 0.272042 1.22783
3.24944 0.2763 1.31193
3.24736 0.286107 1.43382
3.24244 0.286259 1.44386
3.23957 0.287528 1.46186
3.22381 0.287998 1.49298
3.23204 0.291451 1.52387
3.22939 0.295134 1.56984
3.22166 0.297672 1.60587
3.22372 0.298789 1.61384
3.21992 0.300177 1.63985
3.21611 0.302549 1.66485
3.20426 0.302854 1.68493
3.21346 0.306247 1.71182
3.21357 0.307454 1.7258
3.20475 0.308801 1.74885
3.20485 0.310008 1.76283
3.20502 0.311334 1.78482
3.17085 0.33094 2.02682
3.15696 0.345111 2.17273
3.12389 0.368909 2.42766
2.9097 0.558998 4.1117
2.89673 0.57702 4.24755
2.8928 0.578156 4.25656
2.88544 0.589404 4.34046
2.87758 0.590691 4.3595
2.86912 0.600733 4.42943
2.8618 0.61207 4.51933
2.85525 0.619947 4.57827
2.84539 0.622221 4.59631
2.84 0.632408 4.67621
2.83825 0.637898 4.70915
2.83144 0.640288 4.73517
2.82362 0.643633 4.75818
2.8229 0.648181 4.79512
2.82 0.650376 4.80812
2.81653 0.659414 4.87802
2.80873 0.662804 4.90403
2.81005 0.669425 4.94593
2.80223 0.671786 4.96995
2.79646 0.676234 4.99994
2.79864 0.679587 5.02387
2.78337 0.692004 5.11882
2.78166 0.697567 5.15675
2.77014 0.706522 5.22072
2.76286 0.719918 5.31459
2.75407 0.723324 5.34161
2.75137 0.728918 5.38155
2.74461 0.733396 5.41354
2.73583 0.736817 5.44156
2.74007 0.741287 5.47346
2.73332 0.74578 5.50645
2.73065 0.752419 5.54938
2.72289 0.755898 5.58139
2.71614 0.760391 5.61438
2.71347 0.767029 5.65731
2.7047 0.770479 5.68733
2.70897 0.775994 5.72222
2.69819 0.779431 5.75125
2.69552 0.786084 5.79518
2.68677 0.790563 5.82718
2.68108 0.796174 5.86815
2.67742 0.802842 5.91308
3.43207 0.254806 -0.0643133
3.42214 0.252962 -0.0542098
3.43432 0.255293 -0.0313329
3.42139 0.254451 -0.0212216
3.42744 0.254535 -0.0152676
3.42251 0.254687 -0.00523136
3.41267 0.254005 0.0158558
3.42176 0.255176 0.0277716
3.42084 0.255325 0.0377777
3.41992 0.255489 0.0487838
3.40895 0.254556 0.0528808
3.41804 0.255727 0.0647966
3.42113 0.256887 0.0757577
3.41721 0.256053 0.0868011
3.41028 0.256206 0.0968524
3.41337 0.256367 0.107828
3.40456 0.255758 0.133907
3.40289 0.257396 0.176902
3.39897 0.257562 0.18793
3.39641 0.258438 0.246945
3.3786 0.256821 0.272106
3.3927 0.260003 0.284955
3.38486 0.25932 0.306027
3.38052 0.262611 0.393023
3.37175 0.263076 0.424086
3.36098 0.262543 0.455179
3.36119 0.263958 0.483161
3.36128 0.264121 0.494159
3.35565 0.26585 0.543183
3.3529 0.267341 0.576186
3.34714 0.267819 0.608227
3.35119 0.268919 0.615181
3.35227 0.270081 0.626157
3.3426 0.270725 0.669226
3.33906 0.273631 0.730218
3.33213 0.273769 0.73927
3.33427 0.275049 0.758237
3.32568 0.276855 0.812283
3.30872 0.274956 0.81844
3.32381 0.278108 0.829281
3.31171 0.283878 0.948303
3.30577 0.284016 0.957347
3.30687 0.285207 0.970323
3.3019 0.284255 0.973375
3.30099 0.285434 0.985366
3.30218 0.286803 1.01034
3.29542 0.288296 1.04337
3.29346 0.288372 1.04839
3.29255 0.28955 1.06038
3.29064 0.289714 1.07139
3.26914 0.301676 1.2704
3.24938 0.313103 1.43341
3.22513 0.318586 1.53252
3.21706 0.328412 1.65545
3.20247 0.332222 1.70952
3.193 0.33728 1.78052
3.18589 0.348017 1.89743
3.17545 0.35412 1.97143
3.1806 0.357412 1.99135
3.1768 0.359799 2.01734
3.17485 0.35989 2.02336
3.17118 0.364543 2.06732
3.16728 0.364739 2.08035
3.16248 0.367142 2.10735
3.15888 0.372914 2.1593
3.15095 0.373068 2.16936
3.14559 0.381315 2.25329
3.14382 0.38476 2.28326
3.12654 0.393179 2.37828
3.12585 0.397786 2.41922
3.10122 0.416467 2.59915
3.09292 0.42585 2.69209
3.07473 0.437432 2.79807
3.07308 0.443113 2.84401
3.0099 0.500602 3.3467
2.98722 0.522193 3.52057
2.98539 0.52452 3.54256
2.96909 0.535893 3.63452
2.96524 0.538192 3.65452
2.96342 0.541534 3.67749
2.95958 0.543847 3.69849
2.95604 0.551752 3.7594
2.94857 0.560779 3.82834
2.94676 0.56415 3.8533
2.94 0.567628 3.88531
2.93256 0.577714 3.95823
2.92603 0.585636 4.02017
2.91356 0.59468 4.09014
2.91099 0.602511 4.14605
2.90514 0.604811 4.16606
2.89002 0.620538 4.28196
2.88218 0.622855 4.30298
2.88141 0.627299 4.33293
2.87318 0.640799 4.4338
2.86736 0.644159 4.4578
2.8666 0.648618 4.48875
2.85976 0.650948 4.51077
2.85058 0.666538 4.61762
2.83925 0.678848 4.70553
2.81577 0.706824 4.90532
2.76105 0.76824 5.33589
2.74401 0.786102 5.46077
2.72882 0.801696 5.56767
2.71286 0.820719 5.70352
2.70347 0.83291 5.78343
3.4108 0.34513 0.0235221
3.40804 0.345606 0.0555403
3.40524 0.346008 0.0825591
3.4004 0.345322 0.103609
3.39948 0.345486 0.114615
3.39957 0.346649 0.125598
3.39865 0.346812 0.136604
3.39772 0.346961 0.14661
3.39484 0.3472 0.162631
3.39793 0.347375 0.174607
3.39109 0.347676 0.194657
3.38825 0.348004 0.216676
3.38929 0.348078 0.221668
3.39538 0.349251 0.233606
3.38754 0.349567 0.254664
3.39162 0.350727 0.265617
3.37869 0.34887 0.274743
3.38182 0.350119 0.291704
3.37589 0.349272 0.301762
3.37798 0.350433 0.312731
3.38607 0.35162 0.325654
3.37213 0.349749 0.333788
3.38223 0.351933 0.346681
3.3703 0.351076 0.355785
3.38135 0.353171 0.362672
3.37142 0.351312 0.371775
3.3675 0.351463 0.381804
3.3766 0.353663 0.395705
3.36666 0.352789 0.403794
3.37376 0.353976 0.416724
3.37384 0.354139 0.427723
3.35894 0.353342 0.440849
3.36404 0.354531 0.453795
3.36211 0.354681 0.463808
3.3602 0.354845 0.474822
3.36529 0.356019 0.486768
3.35536 0.355159 0.495856
3.36141 0.356258 0.502796
3.36049 0.356422 0.513802
3.35256 0.355561 0.522875
3.35365 0.356738 0.534851
3.35073 0.356888 0.544873
3.3468 0.357039 0.554901
3.35286 0.358153 0.56284
3.34693 0.357291 0.571899
3.34802 0.358468 0.583875
3.3431 0.358619 0.593911
3.34418 0.358781 0.604902
3.33634 0.359098 0.625959
3.33943 0.360273 0.63792
3.33245 0.359323 0.640987
3.33655 0.360512 0.653941
3.33964 0.361688 0.665902
3.3287 0.360814 0.673998
3.32578 0.360979 0.685019
3.33389 0.36318 0.698928
3.32896 0.363332 0.708964
3.329 0.363406 0.713963
3.3321 0.364596 0.726924
3.32918 0.364746 0.736945
3.33327 0.365936 0.749898
3.32434 0.365076 0.75898
3.32042 0.365227 0.769008
3.32151 0.366403 0.780984
3.32756 0.367503 0.787924
3.31662 0.366629 0.79602
3.32273 0.367832 0.809958
3.3188 0.367983 0.819987
3.31388 0.368135 0.830023
3.31597 0.369311 0.841992
3.31406 0.36949 0.854005
3.31009 0.369552 0.858034
3.30617 0.369703 0.868063
3.30826 0.370894 0.881032
3.30635 0.371058 0.892045
3.30844 0.372234 0.904014
3.31054 0.373425 0.916982
3.29959 0.372537 0.924079
3.29863 0.372626 0.930085
3.29873 0.373804 0.942069
3.30383 0.375007 0.956014
3.29088 0.37412 0.963126
3.29799 0.376322 0.977042
3.29407 0.376488 0.98807
3.29717 0.377678 1.00103
3.28819 0.376714 1.00311
3.28536 0.378057 1.02612
3.28545 0.378235 1.03812
3.28655 0.379426 1.05109
3.29667 0.382655 1.06697
3.28172 0.380755 1.07311
3.28878 0.381883 1.08204
3.27993 0.382186 1.10211
3.27401 0.382338 1.11215
3.2751 0.383515 1.12413
3.27419 0.384693 1.13612
3.27529 0.385885 1.14909
3.26932 0.384949 1.15315
3.27142 0.386139 1.16612
3.2685 0.386304 1.17714
3.26458 0.386455 1.18717
3.2707 0.388688 1.2031
3.2708 0.38988 1.21608
3.26487 0.390018 1.22512
3.26391 0.390107 1.23113
3.26501 0.391299 1.24411
3.25717 0.392615 1.26515
3.25526 0.392794 1.27716
3.25435 0.393973 1.28915
3.25646 0.395178 1.30312
3.2555 0.395268 1.30913
3.25369 0.397639 1.33411
3.2578 0.399843 1.34805
3.24886 0.398983 1.35713
3.24796 0.400161 1.36912
3.24605 0.40034 1.38113
3.24509 0.40043 1.38714
3.24318 0.401609 1.39914
3.24328 0.402801 1.41212
3.24338 0.403994 1.42511
3.24649 0.406213 1.44005
3.24057 0.406366 1.45009
3.23163 0.405491 1.45818
3.2357 0.406621 1.46713
3.23379 0.4078 1.47913
3.2369 0.40902 1.49409
3.22997 0.409158 1.50314
3.22907 0.410351 1.51613
3.23419 0.412584 1.53206
3.22626 0.412723 1.54112
3.22731 0.412826 1.54811
3.2244 0.414006 1.56012
3.22953 0.416253 1.57705
3.22361 0.416406 1.58709
3.2198 0.417779 1.6121
3.21689 0.418958 1.62411
3.21895 0.420075 1.63208
3.22006 0.421296 1.64706
3.20911 0.420393 1.65315
3.21424 0.422656 1.67108
3.21636 0.424876 1.68604
3.20742 0.424001 1.69412
3.20752 0.426208 1.70809
3.20367 0.426493 1.72711
3.19875 0.427659 1.73813
3.20199 0.431115 1.76906
3.19606 0.431268 1.77911
3.20421 0.434558 1.799
3.19622 0.433578 1.80007
3.19633 0.4348 1.81506
3.19443 0.435994 1.82806
3.18952 0.436161 1.83909
3.18561 0.437341 1.85111
3.18684 0.440784 1.88105
3.1889 0.441916 1.89002
3.18812 0.444345 1.91899
3.1812 0.444499 1.92904
3.1764 0.446902 1.95605
3.1745 0.448095 1.96905
3.17367 0.450422 1.99102
3.17278 0.451644 2.00601
3.169 0.454061 2.03401
3.1681 0.456269 2.04798
3.17225 0.458547 2.06692
3.16929 0.458638 2.07294
3.16337 0.458805 2.08399
3.1655 0.461055 2.10094
3.15657 0.461195 2.11001
3.15882 0.465682 2.14293
3.14687 0.464779 2.14903
3.15196 0.465953 2.16098
3.15019 0.469413 2.19194
3.15334 0.471692 2.21089
3.14353 0.474069 2.23593
3.14063 0.475264 2.24894
3.1407 0.476397 2.25792
3.13881 0.47762 2.27292
3.1339 0.477802 2.28496
3.13704 0.48108 2.30389
3.12812 0.481235 2.31395
3.13126 0.483499 2.3319
3.13441 0.485793 2.35184
3.12441 0.4848 2.35193
3.12353 0.487037 2.36791
3.12567 0.489317 2.38686
3.12178 0.490527 2.40088
3.11789 0.491737 2.41489
3.11097 0.491905 2.42594
3.11412 0.495198 2.44587
3.12023 0.497401 2.45979
3.11331 0.497569 2.47084
3.10741 0.498766 2.48387
3.10553 0.500004 2.49987
3.10768 0.503283 2.51881
3.10278 0.503494 2.53284
3.10393 0.506774 2.55179
3.09997 0.506851 2.55682
3.0991 0.509118 2.5748
3.0952 0.509314 2.58782
3.09535 0.512609 2.60778
3.09045 0.513805 2.6208
3.09059 0.515072 2.63878
3.08872 0.517324 2.65576
3.08979 0.518472 2.66574
3.08994 0.521753 2.68469
3.08606 0.522992 2.70071
3.08418 0.52423 2.7167
3.07426 0.524386 2.72678
3.08045 0.528751 2.75167
3.08059 0.531032 2.77064
3.07865 0.532152 2.77864
3.07477 0.533377 2.79365
3.07492 0.535672 2.81362
3.07119 0.540208 2.84958
3.07134 0.542504 2.86955
3.06646 0.543729 2.88457
3.06095 0.551695 2.9495
3.05808 0.553949 2.96649
3.05421 0.555203 2.98351
3.05336 0.558499 3.00347
3.03424 0.57123 3.11944
3.03081 0.581327 3.19333
3.02307 0.584851 3.22834
3.01947 0.591623 3.28027
3.01193 0.599531 3.34122
3.00219 0.603041 3.37525
2.99394 0.615497 3.47314
2.98321 0.619038 3.50917
2.98368 0.627954 3.57104
2.97883 0.630239 3.59005
2.97518 0.636937 3.63698
2.96931 0.638193 3.65401
2.96659 0.643727 3.68995
2.95608 0.651697 3.75492
2.94309 0.669674 3.88777
2.94028 0.673031 3.91175
2.93465 0.67976 3.9607
2.93273 0.680924 3.9717
2.91465 0.696713 4.09162
2.91387 0.701143 4.12056
2.90637 0.710124 4.18649
2.89317 0.724688 4.29139
2.89127 0.726881 4.30438
2.88189 0.738101 4.38629
2.8743 0.744906 4.44026
2.87152 0.749337 4.46922
2.85625 0.762768 4.56514
2.85449 0.767228 4.5961
2.85072 0.771675 4.62606
2.84593 0.775077 4.65305
2.83549 0.78618 4.72698
2.83172 0.790626 4.75694
2.82593 0.794045 4.78494
2.82318 0.799535 4.81788
2.8174 0.802953 4.84588
2.81956 0.806277 4.86782
2.80698 0.8141 4.92281
2.80526 0.819649 4.95974
2.79676 0.828617 5.02468
2.79097 0.833035 5.05266
2.78842 0.84191 5.11156
2.78469 0.84743 5.14651
2.78096 0.852951 5.18146
2.77147 0.861949 5.24841
2.76672 0.86744 5.28137
2.7669 0.870795 5.30532
2.76116 0.876302 5.33929
2.75744 0.881852 5.37624
2.75271 0.886374 5.41121
2.74494 0.890823 5.44121
2.73615 0.894244 5.46923
2.72839 0.899723 5.50121
2.7367 0.906308 5.54106
2.72793 0.910759 5.57106
2.7222 0.915295 5.60704
2.71446 0.920804 5.64102
2.71483 0.928528 5.68991
2.70302 0.931907 5.71495
2.69427 0.936387 5.74696
2.69955 0.94193 5.78384
2.68978 0.946381 5.81385
2.68511 0.953021 5.8568
2.68143 0.959659 5.89973
3.41452 0.378546 -0.0160061
3.40165 0.380777 0.134079
3.39002 0.380496 0.182177
3.38817 0.381808 0.203174
3.39631 0.383069 0.221097
3.38638 0.382209 0.230186
3.38245 0.38236 0.240214
3.38754 0.383534 0.25216
3.3797 0.382851 0.273232
3.3769 0.383238 0.299251
3.37698 0.384401 0.310235
3.37206 0.383552 0.320286
3.37315 0.384729 0.332262
3.37323 0.384892 0.343261
3.36931 0.385043 0.353289
3.36567 0.386756 0.401298
3.36375 0.386921 0.412312
3.35603 0.387474 0.449367
3.35912 0.388649 0.461328
3.3514 0.389203 0.498383
3.35649 0.390377 0.510329
3.35357 0.390527 0.52035
3.35182 0.392017 0.553346
3.34301 0.392408 0.57941
3.33817 0.392723 0.600444
3.33725 0.392886 0.61145
3.33634 0.39305 0.622456
3.33455 0.394466 0.650453
3.32896 0.397284 0.705461
3.32208 0.397511 0.720511
3.32817 0.398699 0.73345
3.31833 0.399002 0.753522
3.3195 0.400342 0.776497
3.32164 0.401607 0.794464
3.31479 0.401923 0.815514
3.30996 0.403252 0.837534
3.3151 0.405529 0.856464
3.30416 0.403656 0.864575
3.30425 0.404819 0.875559
3.30635 0.40601 0.888527
3.30242 0.406161 0.898556
3.2995 0.406311 0.908577
3.29763 0.407564 0.925575
3.29571 0.407728 0.936589
3.29489 0.409084 0.960578
3.29698 0.41026 0.972546
3.29106 0.410412 0.98259
3.29018 0.411665 0.999581
3.28627 0.41183 1.01061
3.29137 0.414034 1.02454
3.29046 0.414197 1.03555
3.29256 0.415388 1.04851
3.28061 0.414501 1.05562
3.28572 0.416704 1.06955
3.27774 0.415754 1.07262
3.28084 0.416959 1.08658
3.27692 0.41711 1.09661
3.27801 0.418287 1.10859
3.27309 0.418454 1.11963
3.27619 0.419644 1.13259
3.27127 0.419795 1.14262
3.27834 0.421923 1.15154
3.28144 0.423128 1.1655
3.27451 0.423266 1.17455
3.26858 0.423419 1.18459
3.26968 0.424596 1.19657
3.26275 0.423749 1.20664
3.26485 0.42594 1.21959
3.26791 0.427056 1.22755
3.26499 0.427221 1.23857
3.26208 0.427386 1.24959
3.25715 0.427537 1.25963
3.25624 0.428716 1.27162
3.26337 0.430947 1.28754
3.25142 0.43006 1.29464
3.25448 0.431176 1.3026
3.25458 0.432368 1.31559
3.25166 0.432533 1.32661
3.24774 0.433699 1.33762
3.24693 0.435069 1.36261
3.24702 0.436247 1.37459
3.24607 0.437336 1.38059
3.24918 0.438556 1.39555
3.24225 0.438694 1.4046
3.23933 0.438859 1.41562
3.23652 0.441231 1.44061
3.23968 0.44354 1.46155
3.24581 0.445787 1.47848
3.22783 0.443845 1.48164
3.22592 0.444024 1.49365
3.23014 0.44745 1.52258
3.22422 0.447602 1.53262
3.22336 0.449884 1.55159
3.22246 0.451077 1.56459
3.22658 0.453311 1.58052
3.21364 0.451424 1.58765
3.21374 0.452616 1.60063
3.22489 0.456904 1.62049
3.2159 0.45594 1.62257
3.21199 0.456106 1.6336
3.21611 0.45834 1.64954
3.20818 0.458479 1.6586
3.20928 0.459685 1.67257
3.21441 0.461933 1.6895
3.20547 0.462058 1.69757
3.21256 0.46423 1.70949
3.20574 0.46559 1.73352
3.20484 0.466784 1.74651
3.20696 0.469004 1.76146
3.20003 0.469157 1.77152
3.19411 0.469309 1.78156
3.20221 0.471496 1.79447
3.19427 0.471635 1.80353
3.18936 0.471801 1.81456
3.19249 0.474051 1.83151
3.18757 0.474217 1.84254
3.18768 0.476424 1.85651
3.19081 0.478673 1.87346
3.18684 0.47875 1.87849
3.18193 0.478917 1.88952
3.18806 0.482178 1.90743
3.18315 0.48236 1.91947
3.17623 0.482513 1.92952
3.18036 0.484761 1.94646
3.17143 0.484901 1.95552
3.1745 0.486047 1.96548
3.17864 0.48931 1.98341
3.17272 0.489477 1.99445
3.17283 0.490684 2.00843
3.17496 0.492934 2.02539
3.16212 0.494254 2.04647
3.16922 0.496442 2.05938
3.16028 0.496581 2.06845
3.1594 0.497804 2.08344
3.16454 0.501081 2.10236
3.1536 0.500208 2.11045
3.14969 0.501388 2.12247
3.15887 0.504722 2.14535
3.15491 0.504799 2.15038
3.14899 0.505966 2.16141
3.15112 0.508216 2.17836
3.1442 0.508384 2.18941
3.14332 0.509606 2.2044
3.1364 0.510774 2.21544
3.13652 0.512011 2.23142
3.13758 0.513129 2.2394
3.13973 0.516408 2.25834
3.13784 0.517631 2.27334
3.13595 0.51884 2.28733
3.13608 0.521091 2.3043
3.13218 0.522287 2.31732
3.12425 0.52244 2.32737
3.13036 0.524643 2.3413
3.12243 0.524782 2.35036
3.12658 0.528075 2.37028
3.12068 0.529272 2.38331
3.1198 0.530509 2.3993
3.12395 0.533802 2.41922
3.11804 0.534984 2.43125
3.11811 0.536117 2.44023
3.11522 0.537341 2.45524
3.11031 0.538522 2.46726
3.11045 0.540788 2.48523
3.10454 0.54097 2.49727
3.10468 0.543237 2.51524
3.1028 0.545475 2.53122
3.1069 0.547664 2.54416
3.10401 0.548888 2.55917
3.10113 0.551112 2.57416
3.10428 0.553406 2.5941
3.09939 0.554617 2.60812
3.09046 0.554771 2.61819
3.08658 0.556996 2.63319
3.09671 0.560255 2.65107
3.08981 0.561452 2.6641
3.08793 0.56269 2.6801
3.08908 0.565971 2.69905
3.08318 0.567182 2.71307
3.08433 0.569462 2.73203
3.07843 0.570674 2.74606
3.08355 0.572892 2.76099
3.07866 0.574103 2.77501
3.07679 0.57637 2.793
3.07694 0.579651 2.81195
3.07003 0.579834 2.824
3.07219 0.583143 2.84494
3.0673 0.584369 2.85996
3.06567 0.59108 2.90788
3.05993 0.594587 2.94188
3.05605 0.596842 2.95887
3.0552 0.599123 2.97785
3.04939 0.602498 3.00285
3.04853 0.604779 3.02182
3.04971 0.608119 3.04477
3.04785 0.610386 3.06275
3.04095 0.611599 3.07679
3.03809 0.613867 3.09478
3.03733 0.618326 3.12572
3.02757 0.621807 3.15775
3.02572 0.624104 3.17773
3.0279 0.627458 3.20167
3.01899 0.628642 3.21372
3.01908 0.629804 3.2247
3.02329 0.634215 3.25261
3.01337 0.634371 3.26268
3.01556 0.638739 3.2876
3.01187 0.644348 3.32855
3.00599 0.645589 3.34458
3.00525 0.650093 3.37853
3.00039 0.652363 3.39653
3.00158 0.656732 3.42146
2.99368 0.657945 3.4355
2.99286 0.661285 3.45846
2.98928 0.669116 3.51438
2.97856 0.672657 3.55042
2.97976 0.677041 3.57635
2.97509 0.682695 3.6203
2.96952 0.690528 3.67624
2.96669 0.693855 3.69821
2.95517 0.70281 3.76218
2.95446 0.708373 3.8001
2.93946 0.726322 3.93097
2.93563 0.72965 3.95295
2.92899 0.736351 3.99991
2.92416 0.739694 4.0229
2.92337 0.743094 4.04986
2.91348 0.745323 4.0649
2.90923 0.759776 4.16273
2.90541 0.763134 4.18672
2.89958 0.766464 4.20871
2.89476 0.769822 4.2327
2.8931 0.776475 4.27662
2.88929 0.779847 4.30161
2.88548 0.783235 4.32759
2.88269 0.787636 4.35455
2.87687 0.790995 4.37855
2.87712 0.796483 4.41147
2.85627 0.817718 4.56133
2.8535 0.823178 4.59227
2.84709 0.834322 4.66917
2.83274 0.84759 4.75409
2.82694 0.850979 4.78009
2.83011 0.855316 4.803
2.82432 0.858735 4.831
2.81955 0.863182 4.86098
2.81102 0.873091 4.9219
2.80625 0.877553 4.95288
2.80452 0.883072 4.98781
2.79142 0.901827 5.10565
2.78767 0.906318 5.13862
2.78394 0.911838 5.17357
2.77615 0.916258 5.20156
2.76885 0.930624 5.29342
2.76208 0.935073 5.32341
2.75937 0.941637 5.36134
2.75262 0.946115 5.39333
2.74485 0.950565 5.42332
2.74705 0.955963 5.45023
2.74131 0.96047 5.48421
2.73558 0.965992 5.51918
2.72679 0.970412 5.54718
2.72107 0.975964 5.58415
2.71636 0.981515 5.62111
2.71065 0.988081 5.65906
2.71388 0.993537 5.68996
2.70715 0.999059 5.72493
2.69431 1.00138 5.746
3.42635 0.410164 -0.0415668
3.43144 0.411323 -0.0306207
3.42856 0.411562 -0.0146003
3.41563 0.409719 -0.00447429
3.4198 0.411042 0.0174778
3.41687 0.410192 0.0275138
3.416 0.410445 0.044519
3.41308 0.410595 0.0545402
3.41024 0.410923 0.0765597
3.41132 0.41107 0.0865508
3.40648 0.411399 0.108585
3.41553 0.413482 0.114487
3.40969 0.412797 0.135544
3.40476 0.411949 0.145595
3.40193 0.412276 0.167615
3.40906 0.414523 0.18453
3.40013 0.413677 0.194611
3.39621 0.412828 0.204655
3.4043 0.415 0.216563
3.39337 0.413142 0.225675
3.39946 0.415315 0.237598
3.38757 0.413546 0.252716
3.38565 0.413695 0.26273
3.39574 0.41588 0.275623
3.38581 0.415021 0.284712
3.38389 0.415185 0.295725
3.39199 0.417356 0.307634
3.38206 0.415512 0.317737
3.3791 0.415588 0.322759
3.38326 0.416911 0.344711
3.38736 0.418085 0.356665
3.38644 0.419249 0.367656
3.3695 0.41638 0.375827
3.3786 0.418566 0.388728
3.37563 0.418627 0.39275
3.37171 0.417793 0.403793
3.37688 0.42013 0.426723
3.36695 0.41927 0.435812
3.36903 0.419431 0.446795
3.37013 0.420608 0.458771
3.36515 0.419671 0.462823
3.36625 0.420848 0.474799
3.36633 0.421011 0.485798
3.36541 0.422174 0.496789
3.36149 0.421325 0.506832
3.36057 0.422489 0.517824
3.35965 0.422652 0.52883
3.35268 0.421717 0.532897
3.35277 0.42188 0.543895
3.35185 0.423043 0.554886
3.35895 0.42423 0.567817
3.35602 0.42438 0.577838
3.34709 0.42352 0.586919
3.35219 0.425709 0.59985
3.35624 0.42681 0.606804
3.34831 0.425949 0.615878
3.33938 0.425089 0.62496
3.35148 0.428287 0.638823
3.34155 0.426427 0.647927
3.34072 0.427754 0.669916
3.33776 0.42783 0.674938
3.33684 0.427994 0.685944
3.33693 0.429171 0.697928
3.33601 0.429335 0.708934
3.33309 0.429485 0.718955
3.33226 0.430826 0.741944
3.33632 0.431926 0.748899
3.32947 0.432242 0.769948
3.32655 0.432393 0.77997
3.33065 0.434582 0.792908
3.32272 0.433721 0.801982
3.32594 0.436163 0.831925
3.31527 0.437807 0.874987
3.31741 0.439087 0.893955
3.30965 0.440566 0.925996
3.31276 0.441771 0.939957
3.30893 0.4431 0.961969
3.31097 0.444187 0.967938
3.30614 0.444531 0.990973
3.29821 0.444655 0.999032
3.29739 0.446011 1.02302
3.29661 0.448456 1.05299
3.28163 0.45745 1.18699
3.27513 0.462432 1.25298
3.27221 0.462597 1.264
3.26185 0.468848 1.348
3.25512 0.471385 1.38401
3.24864 0.476397 1.452
3.24 0.480113 1.50001
3.23454 0.486168 1.57098
3.2203 0.494673 1.67197
3.19771 0.512428 1.8569
3.1695 0.535955 2.0938
3.14023 0.560336 2.32069
3.13269 0.567244 2.38165
3.01574 0.68303 3.30695
2.97138 0.731196 3.65362
2.95271 0.757798 3.82839
2.90551 0.812277 4.19599
2.75562 1.00205 5.38847
2.74564 1.0011 5.39156
2.74091 1.00762 5.42651
3.10261 0.609009 2.49928
3.09026 0.62029 2.58522
3.07895 0.63063 2.67516
3.07736 0.638445 2.73007
3.06507 0.65083 2.82299
3.05529 0.653266 2.85203
3.05746 0.65759 2.87395
3.05063 0.659935 2.89697
3.05784 0.664329 2.92386
3.04318 0.670006 2.96889
3.03854 0.675705 3.01585
3.03297 0.683537 3.07178
3.01757 0.693717 3.15076
3.01874 0.698057 3.17369
3.01421 0.706962 3.2346
3.00741 0.710352 3.2606
3.00657 0.712678 3.28258
2.99968 0.71489 3.2966
2.9903 0.726095 3.37751
2.9924 0.728301 3.39147
2.99359 0.732655 3.4154
2.98569 0.733868 3.42944
2.98791 0.738281 3.45736
2.98304 0.740536 3.47437
2.97919 0.743834 3.49435
2.97836 0.747175 3.51731
2.97745 0.748339 3.5283
2.97057 0.75058 3.54432
2.97177 0.754964 3.57025
2.96994 0.758306 3.59322
2.96811 0.761632 3.61519
2.96528 0.76496 3.63716
2.95942 0.767245 3.65618
2.96255 0.770494 3.67311
2.95972 0.773822 3.69508
2.95992 0.778206 3.72102
2.95506 0.780491 3.74002
2.95022 0.78379 3.76001
2.94638 0.787119 3.782
2.95063 0.792589 3.81389
2.95073 0.794796 3.82786
2.94792 0.798153 3.85183
2.93721 0.803738 3.89084
2.93946 0.809209 3.92274
2.92855 0.810395 3.93481
2.93079 0.815867 3.96671
2.93192 0.818103 3.98268
2.92808 0.821431 4.00466
2.92629 0.825831 4.03161
2.91842 0.828089 4.04864
2.91078 0.835804 4.09659
2.91 0.840219 4.12453
2.91112 0.842455 4.14049
2.9063 0.846813 4.16447
2.90654 0.851272 4.1954
2.90071 0.854602 4.2174
2.89184 0.856859 4.23444
2.89005 0.861275 4.26239
2.88219 0.863562 4.28142
2.88762 0.874386 4.33722
2.878 0.882133 4.38719
2.87041 0.889922 4.44014
2.86877 0.898619 4.48703
2.867 0.903078 4.51798
2.86019 0.907438 4.54197
2.85465 0.917345 4.60287
2.84708 0.926179 4.65881
2.83112 0.948202 4.79462
2.82735 0.953663 4.82557
2.81954 0.957039 4.85058
2.79022 0.994314 5.07028
2.77937 0.996603 5.08933
2.78072 1.00528 5.1352
3.16469 0.58528 1.98009
3.13749 0.611807 2.21694
3.04504 0.705675 2.94634
3.0414 0.712373 2.99328
3.03568 0.717924 3.03024
3.0318 0.720164 3.04624
3.02061 0.73474 3.15213
2.99812 0.7647 3.35088
2.98198 0.781369 3.46277
2.97427 0.786937 3.50075
2.97061 0.793605 3.54569
2.96039 0.810121 3.64753
2.95958 0.814492 3.67248
2.95372 0.816777 3.69149
2.95008 0.824475 3.73841
2.94917 0.826653 3.75039
2.94433 0.828967 3.77139
2.9405 0.832296 3.79337
2.93586 0.839994 3.8403
2.93507 0.844394 3.86725
2.92832 0.849887 3.90022
2.93056 0.855359 3.93213
2.92471 0.857644 3.95114
2.91785 0.86093 3.97015
2.91021 0.868631 4.0171
2.91763 0.878439 4.0719
2.90619 0.890527 4.14482
2.88947 0.895087 4.18188
2.8897 0.90053 4.2118
2.89084 0.903796 4.22975
2.88525 0.912613 4.28467
2.87538 0.914872 4.30171
2.87487 0.925804 4.36456
2.865 0.928078 4.38261
2.86411 0.931286 4.39657
2.86741 0.93786 4.43545
2.86362 0.943277 4.4634
2.86186 0.948737 4.49434
2.85606 0.952125 4.52034
2.85024 0.956485 4.54432
2.84241 0.959816 4.56633
2.85065 0.966283 4.59818
2.83977 0.967528 4.61424
2.83599 0.972959 4.6432
2.8373 0.98055 4.68308
2.83961 0.988155 4.72396
3.42235 0.506023 -0.0519569
3.42142 0.506172 -0.0419508
3.4265 0.507331 -0.0310047
3.42155 0.506423 -0.0249531
3.42162 0.506571 -0.0149545
3.41671 0.505738 -0.00390361
3.41578 0.505887 0.00610253
3.41487 0.50605 0.0171085
3.41395 0.506214 0.0281146
3.41315 0.507614 0.0551036
3.41023 0.506764 0.0651395
3.41432 0.508939 0.0770782
3.40739 0.507092 0.0871591
3.40447 0.507242 0.0971803
3.4086 0.508491 0.114133
3.40768 0.508654 0.125139
3.40284 0.508969 0.146174
3.40492 0.51013 0.157142
3.4 0.509282 0.167193
3.40409 0.510457 0.179147
3.39612 0.508522 0.183236
3.3982 0.509683 0.194205
3.39128 0.508836 0.204271
3.39136 0.508999 0.215269
3.39344 0.51016 0.226238
3.38952 0.510326 0.237267
3.3846 0.509478 0.247318
3.39165 0.511562 0.253234
3.38572 0.510714 0.263293
3.3838 0.510878 0.274307
3.38789 0.512038 0.28526
3.38797 0.512201 0.296259
3.38414 0.512529 0.318286
3.3762 0.511669 0.327359
3.37725 0.512757 0.333336
3.37533 0.512921 0.34435
3.38342 0.515092 0.356258
3.38551 0.515254 0.367242
3.37758 0.514408 0.377315
3.37666 0.515571 0.388307
3.36773 0.513711 0.397403
3.37778 0.515807 0.404297
3.37587 0.515972 0.41531
3.37094 0.516123 0.425347
3.37103 0.516286 0.436345
3.3631 0.51544 0.446419
3.36418 0.516602 0.457395
3.36924 0.517702 0.464342
3.3593 0.516828 0.47243
3.36239 0.518003 0.484391
3.35955 0.518331 0.506411
3.35663 0.518481 0.516432
3.35671 0.519644 0.527416
3.35179 0.518796 0.537467
3.35985 0.520908 0.545376
3.35301 0.521224 0.566426
3.35008 0.521374 0.576447
3.34424 0.521689 0.597489
3.34934 0.522878 0.610435
3.35339 0.524964 0.616374
3.34946 0.524115 0.626418
3.35156 0.525306 0.639386
3.33669 0.523583 0.657526
3.33678 0.524746 0.66851
3.33787 0.525923 0.680486
3.34593 0.528035 0.688395
3.33198 0.526149 0.695529
3.33316 0.527489 0.718504
3.33325 0.528666 0.730487
3.33838 0.530929 0.748417
3.33447 0.531095 0.759446
3.32662 0.531397 0.779503
3.32671 0.531574 0.791502
3.32488 0.533916 0.814484
3.324 0.534153 0.830489
3.31306 0.53328 0.838586
3.31716 0.534469 0.851539
3.31524 0.535634 0.862538
3.31534 0.536811 0.874521
3.31342 0.536975 0.885535
3.30954 0.537215 0.901563
3.30562 0.537381 0.912591
3.30972 0.53957 0.92553
3.30379 0.539708 0.934574
3.3089 0.541911 0.948505
3.29805 0.541215 0.968599
3.29909 0.542303 0.974576
3.3042 0.544507 0.988507
3.28924 0.541607 0.994664
3.29133 0.543783 1.00662
3.30346 0.547025 1.02348
3.29352 0.546151 1.03157
3.29261 0.547329 1.04356
3.29275 0.548596 1.06154
3.2808 0.546708 1.06866
3.29494 0.550964 1.08649
3.29202 0.552129 1.0975
3.28911 0.552294 1.10852
3.28318 0.552446 1.11857
3.29025 0.554574 1.12748
3.28232 0.553713 1.13656
3.28341 0.55489 1.14853
3.27849 0.555042 1.15857
3.27758 0.55622 1.17056
3.27968 0.558426 1.18451
3.27677 0.558591 1.19553
3.27681 0.558679 1.20153
3.26897 0.559996 1.22258
3.27508 0.562213 1.2375
3.27026 0.563558 1.26052
3.26032 0.562683 1.26861
3.26548 0.56599 1.28952
3.26256 0.566155 1.30054
3.25774 0.568499 1.32355
3.25383 0.56868 1.33558
3.26195 0.57191 1.35147
3.262 0.573014 1.35845
3.25727 0.57555 1.39446
3.24532 0.573648 1.40058
3.25346 0.577908 1.41845
3.24853 0.57806 1.42849
3.24758 0.578149 1.4345
