3.19978 0.604476 1.73066
3.19983 0.60558 1.73764
3.19693 0.606774 1.75065
3.20005 0.609009 1.76659
3.19122 0.610341 1.78864
3.19233 0.612562 1.8036
3.19244 0.614784 1.81857
3.18747 0.613847 1.82262
3.1906 0.617081 1.83855
3.18769 0.617261 1.85058
3.17876 0.617401 1.85964
3.17988 0.619636 1.8756
3.17607 0.622024 1.9016
3.18317 0.625196 1.9135
3.17423 0.624336 1.92258
3.17233 0.62653 1.93557
3.17446 0.62878 1.95252
3.16955 0.629946 1.96354
3.16664 0.631141 1.97655
3.17781 0.635458 1.9984
3.1619 0.634647 2.01053
3.16113 0.639092 2.04048
3.16438 0.643577 2.07339
3.15343 0.642689 2.08049
3.15462 0.646043 2.10443
3.15072 0.647239 2.11745
3.14528 0.657337 2.19135
3.14132 0.657414 2.19638
3.13867 0.663112 2.24332
3.13018 0.671094 2.30928
3.12384 0.683386 2.39615
3.10483 0.700323 2.52606
3.08622 0.726044 2.70885
3.0796 0.732789 2.75881
3.0608 0.755125 2.91564
3.05274 0.774965 3.03942
3.05089 0.777263 3.0594
3.04214 0.781742 3.09141
3.03566 0.792753 3.1593
3.02808 0.800587 3.21525
2.9993 0.847912 3.50581
2.98602 0.862312 3.59971
2.97296 0.883141 3.72252
2.96469 0.899567 3.81835
3.44047 0.537274 -0.298441
3.43612 0.537566 -0.211401
3.43621 0.537729 -0.200402
3.42745 0.536209 -0.16831
3.42565 0.53661 -0.141298
3.42013 0.537562 -0.0772619
3.40894 0.538155 0.0298284
3.39662 0.539511 0.120914
3.27932 0.587682 1.14023
3.26326 0.597515 1.26322
3.25128 0.609521 1.39815
3.24937 0.6107 1.41015
3.23998 0.617891 1.49012
3.23325 0.621429 1.52613
3.2324 0.623725 1.5461
3.21753 0.638941 1.69501
3.20445 0.652726 1.81492
3.13521 0.731054 2.44137
3.1293 0.732236 2.4534
3.12561 0.73783 2.49335
3.12206 0.746706 2.55225
3.10988 0.762312 2.66013
3.10398 0.763509 2.67315
3.10125 0.769043 2.7091
3.1024 0.772324 2.72804
3.10054 0.774591 2.74603
3.09967 0.777858 2.76399
3.09874 0.778992 2.77298
3.09501 0.784512 2.80793
3.0881 0.785695 2.81997
3.08624 0.787963 2.83795
3.08437 0.79123 2.85592
3.07848 0.792442 2.86995
3.08367 0.797808 2.89483
3.08089 0.801224 2.92281
3.07701 0.803463 2.9388
3.07817 0.807773 2.95973
3.07127 0.808985 2.97377
3.07243 0.812295 2.99471
3.07252 0.814458 3.00568
3.06865 0.816712 3.02268
3.06191 0.822235 3.05766
3.06207 0.825545 3.07861
3.06023 0.828842 3.09858
3.05636 0.831097 3.11557
3.04888 0.842123 3.18448
3.05107 0.846476 3.2084
3.04417 0.848688 3.22242
3.04032 0.850972 3.24142
3.04242 0.854163 3.25436
3.04158 0.857489 3.27632
3.03874 0.860787 3.29629
3.03689 0.864084 3.31626
3.0312 0.87068 3.35621
3.02632 0.872935 3.37322
3.0256 0.879468 3.40913
3.02174 0.881737 3.42713
3.01403 0.888319 3.46609
3.00715 0.890546 3.48112
3.01239 0.896016 3.513
2.99744 0.896116 3.51911
3.00965 0.902521 3.54693
3.00479 0.904791 3.56493
2.99993 0.908075 3.58392
2.99508 0.91036 3.60293
3.00236 0.918887 3.63875
2.99042 0.919029 3.64784
2.98457 0.921314 3.66686
2.99274 0.926648 3.68972
2.97982 0.926806 3.69981
2.97597 0.930104 3.7198
2.98124 0.937618 3.75465
2.97133 0.938803 3.76671
2.97458 0.944274 3.79861
2.97378 0.949674 3.82554
2.96479 0.948695 3.82662
2.966 0.954108 3.85454
2.96623 0.959537 3.88346
2.95655 0.96718 3.92642
2.95474 0.971551 3.95138
2.95002 0.978087 3.98732
2.95226 0.984559 4.01921
2.94239 0.985802 4.03527
3.43448 0.564276 -0.298796
3.42421 0.56372 -0.201697
3.4193 0.562886 -0.190646
3.42045 0.563197 -0.169657
3.41257 0.562439 -0.153584
3.41566 0.5626 -0.142608
3.42574 0.565755 -0.131729
3.40506 0.562393 -0.0895176
3.41219 0.563639 -0.0725874
3.40226 0.561795 -0.0624839
3.40534 0.562955 -0.0515228
3.40442 0.563104 -0.0415167
3.41363 0.566512 -0.0136327
3.4017 0.563669 -0.00349936
3.39002 0.562299 0.0386148
3.40411 0.566466 0.0504486
3.39531 0.565858 0.0765275
3.38838 0.564011 0.0866084
3.39547 0.566183 0.0985245
3.39463 0.566495 0.119529
3.38266 0.564563 0.123648
3.38191 0.566052 0.156637
3.38307 0.567362 0.177611
3.38415 0.567524 0.188602
3.3872 0.568611 0.194564
3.37435 0.566917 0.214689
3.38452 0.570249 0.237566
3.3766 0.568404 0.247654
3.37079 0.568793 0.273696
3.36103 0.568259 0.304782
3.36912 0.570431 0.31669
3.3652 0.570596 0.327719
3.36424 0.570671 0.332726
3.36248 0.572146 0.364721
3.36765 0.574483 0.387651
3.35071 0.570614 0.395837
3.36277 0.573723 0.403701
3.36194 0.57505 0.425691
3.36002 0.575199 0.435705
3.35517 0.575514 0.456739
3.35627 0.57669 0.468715
3.34537 0.574906 0.482826
3.34645 0.576068 0.493802
3.35555 0.579253 0.506688
3.35163 0.578404 0.516732
3.34279 0.578722 0.537796
3.34483 0.578809 0.543781
3.34592 0.579971 0.554757
3.345 0.581135 0.565748
3.33707 0.579274 0.574836
3.34517 0.582475 0.58873
3.33724 0.581614 0.597804
3.34033 0.582789 0.609765
3.34037 0.583863 0.614749
3.33745 0.584028 0.62577
3.3215 0.580144 0.632949
3.33762 0.585354 0.647752
3.33187 0.586847 0.680778
3.32197 0.585061 0.694881
3.31621 0.586539 0.726907
3.32031 0.588729 0.739846
3.3214 0.589891 0.750822
3.31852 0.590145 0.767842
3.31661 0.591309 0.778841
3.3187 0.592485 0.790809
3.32079 0.593661 0.802778
3.31987 0.594824 0.813769
3.318 0.596077 0.830767
3.31107 0.595216 0.839833
3.31216 0.596392 0.851809
3.30022 0.59452 0.859928
3.31234 0.598747 0.875776
3.30942 0.598898 0.885797
3.30951 0.600075 0.897781
3.30554 0.599137 0.901825
3.30764 0.601328 0.914779
3.30171 0.600466 0.923837
3.29696 0.602973 0.957841
3.30207 0.605176 0.971771
3.2971 0.604239 0.975823
3.29317 0.60439 0.985852
3.29035 0.605732 1.00886
3.28843 0.606897 1.01986
3.2805 0.606036 1.02893
3.29268 0.610367 1.05178
3.27571 0.607454 1.05695
3.28583 0.611683 1.07281
3.28091 0.611835 1.08285
3.28602 0.614038 1.09678
3.2831 0.614203 1.1078
3.27717 0.614355 1.11784
3.27822 0.615443 1.12382
3.28133 0.617648 1.13777
3.28042 0.617826 1.14977
3.2775 0.618991 1.16078
3.27859 0.620168 1.17275
3.27768 0.621346 1.18475
3.27477 0.622511 1.19575
3.2688 0.621575 1.19981
3.25886 0.619701 1.20791
3.26999 0.623944 1.22477
3.26005 0.62307 1.23286
3.26014 0.624262 1.24584
3.26636 0.628672 1.27373
3.2644 0.628747 1.27875
3.25957 0.631091 1.30175
3.25063 0.630216 1.30983
3.25885 0.634639 1.33871
3.24992 0.633779 1.34779
3.25599 0.635908 1.35672
3.25207 0.637074 1.36773
3.25418 0.638279 1.3817
3.25036 0.640637 1.4057
3.24066 0.643236 1.44574
3.23785 0.646608 1.47071
3.23293 0.64676 1.48075
3.23212 0.649145 1.50672
3.23921 0.652303 1.51762
3.22545 0.653786 1.54971
3.22867 0.658213 1.57862
3.22491 0.660675 1.60962
3.21999 0.661841 1.62064
3.21619 0.664228 1.64664
3.2183 0.666449 1.66159
3.21851 0.669848 1.68854
3.20503 0.676879 1.75755
3.20715 0.6791 1.7725
3.20742 0.683632 1.80844
3.2006 0.685992 1.83246
3.20172 0.688213 1.84742
3.19787 0.690512 1.86742
3.19597 0.691706 1.88042
3.19217 0.695108 1.9074
3.19145 0.699641 1.94334
3.18073 0.703211 1.98137
3.18386 0.706446 1.9973
3.18208 0.709876 2.02627
3.17811 0.709953 2.0313
3.17735 0.714412 2.06224
3.17646 0.71662 2.07622
3.16752 0.71576 2.0853
3.16374 0.719177 2.11328
3.16883 0.72235 2.1252
3.16328 0.730227 2.18413
3.15837 0.731409 2.19615
3.1595 0.734659 2.2131
3.15861 0.735882 2.22809
3.15277 0.738182 2.2481
3.14999 0.742628 2.27806
3.14723 0.747088 2.30902
3.14541 0.750445 2.33299
3.13963 0.753863 2.36099
3.14076 0.757129 2.37893
3.13183 0.757268 2.388
3.13498 0.760562 2.40793
3.12424 0.764073 2.44196
3.13243 0.769422 2.46582
3.12954 0.771646 2.48082
3.12967 0.773897 2.49778
3.12074 0.774052 2.50785
3.12094 0.778436 2.53379
3.11316 0.781871 2.5628
3.11532 0.786165 2.58272
3.10639 0.78632 2.59279
3.11157 0.790656 2.61569
3.1097 0.792909 2.63267
3.1099 0.798308 2.65959
3.10717 0.802828 2.69455
3.0994 0.807278 2.72455
3.10048 0.809425 2.73451
3.09357 0.809622 2.74756
3.09775 0.814959 2.77045
3.08883 0.815114 2.78052
3.08998 0.818409 2.80047
3.08912 0.821675 2.81843
3.09028 0.824985 2.83937
3.08136 0.826155 2.85042
3.08244 0.827317 2.8614
3.08058 0.830584 2.87937
3.08577 0.83595 2.90425
3.07987 0.837147 2.91728
3.07499 0.839387 2.93329
3.07515 0.842698 2.95424
3.07422 0.844831 2.96322
3.06291 0.859171 3.0531
3.06509 0.863524 3.07702
3.06231 0.867955 3.10598
3.0534 0.869124 3.11703
3.04869 0.87569 3.15498
3.04986 0.879029 3.17792
3.04617 0.886624 3.21784
3.04524 0.887772 3.22783
3.0365 0.893281 3.26182
3.03668 0.897621 3.28476
3.03988 0.903018 3.31166
3.03401 0.905259 3.32767
3.02712 0.906486 3.34271
3.03427 0.911777 3.36258
3.02536 0.911961 3.37465
3.02086 0.923926 3.43951
3.01499 0.926181 3.45653
3.01426 0.9327 3.49144
3.01344 0.937055 3.51538
3.00959 0.940354 3.53537
3.00675 0.943652 3.55534
2.99886 0.945879 3.57037
3.00714 0.953406 3.6062
2.99117 0.952491 3.61134
2.99833 0.957797 3.63221
2.99954 0.963195 3.65912
2.98762 0.963367 3.67021
2.98175 0.965622 3.68722
2.98398 0.972049 3.71612
2.98114 0.975377 3.73809
2.97822 0.977527 3.74808
2.97741 0.981897 3.77303
3.10813 0.817752 2.5543
3.08954 0.846517 2.74004
3.44406 0.626328 -0.227777
3.43935 0.625895 -0.18973
3.42742 0.624052 -0.179611
3.43551 0.625208 -0.168688
3.42667 0.624541 -0.146608
3.42387 0.623928 -0.120574
3.42695 0.625089 -0.109613
3.41611 0.623408 -0.0885039
3.41519 0.623571 -0.0774979
3.41231 0.62281 -0.0614627
3.4194 0.624968 -0.0505465
3.41556 0.625296 -0.0285194
3.4128 0.625772 0.00349872
3.40808 0.625324 0.040546
3.40432 0.6258 0.0725717
3.39744 0.625042 0.088637
3.39152 0.624195 0.0986956
3.39176 0.625668 0.130676
3.38788 0.624908 0.146719
3.39096 0.626069 0.15768
3.39705 0.628242 0.169604
3.38813 0.626397 0.1797
3.38537 0.627872 0.211703
3.38257 0.628274 0.238722
3.37965 0.628424 0.248743
3.38574 0.630597 0.260667
3.38182 0.629749 0.27071
3.3819 0.630911 0.281694
3.37727 0.63264 0.33071
3.37534 0.63279 0.340724
3.37046 0.63203 0.356774
3.36771 0.633506 0.388777
3.36178 0.632658 0.398836
3.36587 0.633833 0.410789
3.36199 0.634073 0.426817
3.36516 0.636396 0.448762
3.33654 0.643126 0.631903
3.33675 0.645541 0.65987
3.33121 0.649448 0.720862
3.31449 0.660946 0.888841
3.28908 0.676073 1.09884
3.28257 0.68204 1.16381
3.27784 0.684562 1.19881
3.2741 0.688082 1.23379
3.26942 0.691707 1.27578
3.26101 0.699868 1.35373
3.2591 0.701047 1.36573
3.25443 0.704686 1.40872
3.24459 0.705005 1.42979
3.24393 0.711671 1.4747
3.24112 0.714043 1.49969
3.23645 0.718697 1.54366
3.23005 0.727856 1.62159
3.22317 0.728098 1.63764
3.22528 0.731318 1.65258
3.21645 0.73265 1.67463
3.22359 0.735911 1.69253
3.22079 0.739313 1.7195
3.2109 0.739542 1.73457
3.2081 0.742929 1.76055
3.21033 0.747371 1.79047
3.203 0.759678 1.87836
3.19524 0.762158 1.91038
3.18743 0.764518 1.93441
3.18002 0.775678 2.01231
3.17948 0.784566 2.07219
3.17664 0.786879 2.09318
3.16069 0.805932 2.23104
3.15389 0.809336 2.25804
3.1493 0.818138 2.31195
3.14654 0.822599 2.34291
3.14472 0.825955 2.36688
3.13794 0.829375 2.39489
3.1372 0.835878 2.4288
3.13363 0.844724 2.4857
3.12786 0.849172 2.51569
3.128 0.852438 2.53364
3.12028 0.856991 2.57063
3.11351 0.86144 2.60062
3.11681 0.869029 2.64049
3.11594 0.872281 2.65745
3.10199 0.87038 2.66359
3.10522 0.876836 2.69447
3.10651 0.883397 2.73237
3.10465 0.886665 2.75034
3.09573 0.886819 2.7604
3.09393 0.89122 2.78736
3.09509 0.895515 2.80729
3.09625 0.899825 2.82822
3.08445 0.903233 2.85526
3.07871 0.90774 2.88924
3.08197 0.91524 2.92311
3.08212 0.918521 2.94206
3.06716 0.917621 2.94819
3.07841 0.925086 2.98
3.06546 0.924199 2.98711
3.07662 0.930501 3.00794
3.0677 0.930671 3.019
3.06485 0.933954 3.03798
3.06097 0.936193 3.05398
3.0692 0.943631 3.08381
3.05828 0.943787 3.09389
3.05742 0.947069 3.11285
3.05953 0.950274 3.12679
3.05565 0.952514 3.14279
3.04977 0.954754 3.1588
3.04204 0.960278 3.19378
3.05028 0.96773 3.22461
3.04338 0.969942 3.23863
3.03751 0.972183 3.25465
3.04062 0.975403 3.26958
3.03473 0.977629 3.28459
3.02786 0.979871 3.30061
3.38981 0.907357 0.242537
-2.1596 0.871079 9.65018
-2.18968 0.869938 9.63942
-2.23385 0.868644 9.61777
-2.26683 0.869698 9.62
-2.29597 0.868438 9.60124
-2.32896 0.869477 9.60247
-2.35905 0.868321 9.59072
-2.40515 0.868162 9.57806
-2.66864 0.868376 9.51404
-2.83897 0.867834 9.47032
-3.10248 0.868019 9.40429
-1.72685 0.935178 9.74198
-1.82003 0.934891 9.71869
-1.99229 0.933483 9.684
-2.05537 0.934366 9.67346
-2.10245 0.934252 9.66382
-2.16555 0.934091 9.65029
-2.19273 0.931771 9.62753
-2.22766 0.933929 9.63676
-2.25677 0.932728 9.62199
-2.27183 0.931621 9.61412
-2.33392 0.932473 9.60158
-2.39604 0.932297 9.58705
-2.47321 0.930997 9.56364
-2.50329 0.930871 9.55387
-2.53435 0.930775 9.5461
-2.56636 0.931769 9.54433
-2.59647 0.930584 9.53057
-2.62653 0.930472 9.5218
-2.65856 0.930436 9.51804
-2.67458 0.931404 9.51515
-2.70564 0.931322 9.50838
-2.73767 0.931272 9.50362
-2.76873 0.931176 9.49586
-2.79883 0.931005 9.48309
-2.83086 0.930969 9.47933
-2.8629 0.931919 9.47455
-2.87597 0.93078 9.46467
-2.90605 0.930639 9.45389
-2.9381 0.930574 9.44814
-2.97014 0.931508 9.44236
-3.03322 0.932391 9.43182
-3.06428 0.932295 9.42406
-3.07933 0.932202 9.41717
-3.11038 0.932136 9.41141
-3.13948 0.93195 9.39763
-3.17054 0.931854 9.38986
-3.20651 0.933939 9.3941
-3.4681 0.93396 9.31706
-3.48704 0.935077 9.32419
-3.51617 0.934847 9.30741
-3.55017 0.935871 9.30765
-3.61328 0.936695 9.29311
-3.64141 0.935464 9.27634
-3.67836 0.937579 9.28259
-3.72642 0.938496 9.27493
-3.75161 0.937144 9.25014
-3.78561 0.938154 9.24938
-3.81865 0.939104 9.24462
-3.84874 0.938948 9.23284
-3.87784 0.938762 9.21906
-3.89682 0.93982 9.22219
-3.92788 0.939709 9.21343
-3.96288 0.941735 9.21366
-4.02503 0.941484 9.19413
-4.05414 0.941283 9.17935
-4.0921 0.943399 9.1856
-4.10222 0.94217 9.1697
-4.14018 0.944271 9.17495
-4.17027 0.944101 9.16218
-4.31552 0.946702 9.12923
-4.34758 0.947607 9.12146
-4.37572 0.946361 9.10369
-4.4127 0.948418 9.10593
-4.44476 0.949322 9.09816
-4.47289 0.948076 9.08039
-4.52394 0.950025 9.07474
-4.55502 0.950884 9.06396
-4.5861 0.950744 9.0532
-4.6231 0.952771 9.05345
-4.65713 0.953736 9.04969
-4.73927 0.9555 9.03028
-4.77233 0.956405 9.02251
-1.59543 1.00582 9.78995
-1.70372 1.00332 9.7518
-1.73379 1.00321 9.74303
-1.76584 1.00314 9.73727
-1.85998 1.00191 9.718
-1.87502 1.00185 9.71311
-1.90802 1.00287 9.71334
-2.68543 0.999626 9.52922
-2.87179 1.00005 9.48261
-2.91789 0.999877 9.46896
-2.98197 1.00076 9.45843
-3.01303 1.00066 9.45066
-3.07515 1.00147 9.43512
-3.12223 1.00134 9.42447
-3.21541 1.00204 9.40016
-3.24647 1.00195 9.3924
-3.29062 1.00068 9.37274
-3.32463 1.00269 9.37197
-3.35275 1.00148 9.3562
-3.38481 1.00138 9.34844
-3.41587 1.00227 9.33966
-3.4489 1.00225 9.33691
-3.52704 1.00402 9.31847
-3.5931 1.00494 9.30995
-3.62416 1.00584 9.30217
-3.65425 1.00569 9.2904
-3.70331 1.0066 9.28275
-3.73536 1.00652 9.27599
-3.76642 1.00743 9.26821
-3.83053 1.00825 9.25368
-4.599 1.02085 9.05926
-4.63108 1.02172 9.04949
-4.70014 1.02366 9.04198
-4.73221 1.02453 9.0322
-1.92309 1.06367 9.69855
-1.97018 1.06351 9.68591
-2.09537 1.06323 9.66185
-2.12836 1.06427 9.66309
-2.17448 1.06307 9.64745
-2.20553 1.06299 9.64068
-2.26667 1.06275 9.62214
-2.29677 1.06158 9.60939
-2.32781 1.06151 9.60362
-2.37587 1.06245 9.59697
-2.43701 1.06119 9.57745
-2.47 1.06325 9.57966
-2.53018 1.06194 9.55613
-2.57725 1.06182 9.54649
-2.60832 1.06171 9.53772
-2.64132 1.06274 9.53796
-2.70149 1.06144 9.51543
-2.74758 1.06129 9.50377
-2.81262 1.06325 9.49823
-2.87377 1.063 9.4787
-2.93394 1.0617 9.45617
-2.98198 1.06265 9.45051
-4.03494 1.07349 9.19325
-4.0971 1.07423 9.1727
-4.13111 1.07522 9.17094
-4.16121 1.07505 9.15817
-4.21225 1.077 9.15253
-4.24235 1.07683 9.13975
-4.30942 1.07873 9.13023
-4.37453 1.08055 9.11569
-4.39154 1.08155 9.11481
-4.4236 1.08144 9.10605
-4.76327 1.08935 9.01848
-4.79929 1.09034 9.01573
-4.88045 1.09207 8.99432
-1.72052 1.12757 9.76709
-1.75256 1.1275 9.76133
-1.78169 1.12527 9.74458
-1.81371 1.12627 9.74281
-1.84381 1.12508 9.72905
-2.07823 1.12342 9.67484
-2.10927 1.12336 9.66907
-2.31262 1.12281 9.6236
-2.3597 1.12268 9.61296
-2.42182 1.12249 9.59743
-2.515 1.1222 9.57413
-2.52906 1.12109 9.56625
-2.59118 1.1209 9.55072
-2.6232 1.12188 9.54795
-2.65426 1.12178 9.54018
-2.68531 1.1217 9.53341
-2.71735 1.12265 9.52864
-2.73241 1.12154 9.52077
-2.79452 1.12235 9.50522
-2.82461 1.12121 9.49447
-2.85566 1.12213 9.48769
-2.8877 1.12206 9.48193
-2.9168 1.12189 9.46915
-2.93381 1.12189 9.46827
-2.96387 1.12178 9.4595
-2.9969 1.12274 9.45574
-3.02502 1.12153 9.43996
-3.05707 1.12145 9.43321
-3.09008 1.12346 9.43242
-3.11821 1.12222 9.41565
-3.13521 1.12224 9.41578
-3.16725 1.12317 9.41001
-3.1993 1.12309 9.40325
-3.22643 1.12186 9.38647
-3.26338 1.12497 9.3927
-3.29247 1.12382 9.38094
-3.32158 1.12362 9.36616
-3.33761 1.12358 9.36328
-3.36966 1.1245 9.3565
-3.39972 1.12439 9.34773
-3.43277 1.12533 9.34196
-3.46285 1.12519 9.33119
-3.49587 1.12517 9.32844
-3.52693 1.12607 9.32066
-3.54001 1.12492 9.30977
-3.57599 1.12699 9.31302
-3.60804 1.12791 9.30624
-3.63715 1.12672 9.29248
-3.66919 1.12766 9.28671
-3.70026 1.12753 9.27694
-3.73328 1.12951 9.27416
-3.7503 1.12949 9.27229
-3.78333 1.13044 9.26752
-3.81441 1.13032 9.25776
-3.8435 1.13016 9.24597
-3.87752 1.13214 9.2432
-3.90959 1.13203 9.23444
-3.94164 1.13295 9.22767
-3.95766 1.13292 9.22479
-3.9907 1.13387 9.22003
-4.02176 1.13476 9.21125
-4.05285 1.1346 9.19948
-4.08589 1.13555 9.19471
-4.11893 1.13649 9.18895
-4.37641 1.14171 9.1258
-4.40256 1.14043 9.10602
-2.67936 1.17253 9.52162
-4.21205 1.19124 9.16784
-4.2451 1.19217 9.16207
-4.25916 1.19205 9.15318
-4.29221 1.19298 9.14741
-4.32132 1.19278 9.13263
-4.46463 1.19527 9.09167
-4.65998 1.2007 9.04505
-4.71399 1.20372 9.04442
-5.09764 1.21568 8.95812
-1.56508 1.25415 9.81205
-1.59615 1.25404 9.80329
-1.62529 1.25178 9.78454
-2.00289 1.24986 9.7064
-2.14216 1.24842 9.67147
-2.17128 1.24721 9.6557
-2.34359 1.24673 9.616
-2.37462 1.24668 9.61123
-2.40764 1.24767 9.60947
-2.48285 1.24631 9.58205
-2.57896 1.24716 9.56776
-2.60905 1.246 9.556
-2.64007 1.24697 9.55222
-2.67213 1.24689 9.54546
-2.68717 1.24681 9.53958
-2.74831 1.24659 9.52204
-2.78133 1.24757 9.51927
-2.87452 1.24725 9.49398
-2.88955 1.2472 9.49009
-2.92062 1.24707 9.48032
-2.94972 1.2459 9.46756
-2.98372 1.24793 9.46778
-3.0138 1.24679 9.45703
-3.04485 1.24772 9.45125
-3.09291 1.24862 9.44259
-3.12496 1.24854 9.43584
-3.21815 1.24924 9.41152
-3.28027 1.25003 9.39498
-3.29728 1.25003 9.39411
-3.48367 1.2514 9.34348
-3.53075 1.25225 9.33182
-3.56378 1.25322 9.32806
-3.65994 1.25498 9.30775
-1.94379 1.31794 9.71395
-2.30049 1.31479 9.62167
-2.33348 1.31583 9.6229
-2.37863 1.31457 9.60326
-2.4126 1.31665 9.60748
-2.47082 1.31426 9.57895
-2.53489 1.31516 9.56942
-2.54897 1.31403 9.55954
-2.61302 1.31497 9.55301
-2.6431 1.31483 9.54224
-2.67515 1.31475 9.53548
-2.70523 1.31462 9.52571
-2.73922 1.31566 9.52695
-2.75327 1.31557 9.52005
-2.78434 1.31546 9.51129
-2.81443 1.3143 9.49953
-2.84743 1.31632 9.49975
-2.87655 1.31509 9.48299
-2.90955 1.31612 9.48322
-2.93866 1.31492 9.46845
-2.95369 1.31487 9.46457
-2.98574 1.3158 9.45879
-3.01877 1.31677 9.45503
-3.04981 1.3167 9.44926
-3.08283 1.31768 9.4465
-3.11097 1.31642 9.42772
-3.14399 1.31741 9.42596
-3.16097 1.31846 9.42807
-3.19302 1.31939 9.4223
-3.2192 1.31705 9.39853
-3.25514 1.31918 9.40577
-3.28231 1.31788 9.38399
-3.31533 1.31886 9.38122
-3.3503 1.32094 9.38545
-3.36436 1.31982 9.37658
-3.39543 1.32071 9.3678
-3.42551 1.32057 9.35702
-3.48569 1.31926 9.33349
-3.52166 1.32234 9.33772
-3.55273 1.32222 9.32795
-3.63089 1.32296 9.30753
-3.69302 1.32374 9.28998
-3.72311 1.32358 9.27821
-3.75614 1.32455 9.27444
-3.77218 1.32449 9.26956
-3.80225 1.32536 9.25978
-3.83627 1.32634 9.25702
-3.87226 1.3284 9.25926
-3.90233 1.32927 9.24947
-3.93341 1.32913 9.23871
-3.96448 1.32902 9.22994
-3.97658 1.32782 9.21605
-4.01355 1.33091 9.22028
-4.1107 1.33367 9.19997
-4.17483 1.33446 9.18344
-4.18791 1.33332 9.17355
-4.22193 1.3353 9.17078
-4.35214 1.33897 9.1427
-4.38324 1.3388 9.12994
-4.82207 1.35144 9.02004
-4.85315 1.3513 9.00928
-4.89016 1.3543 9.00751
-5.02536 1.35898 8.98045
-1.90162 1.36617 9.73092
-1.98072 1.36603 9.71852
-2.04094 1.36365 9.69
-2.07102 1.36251 9.67924
-2.10401 1.36355 9.68048
-2.33452 1.36069 9.61325
-2.41363 1.36153 9.59883
-2.44468 1.36146 9.59306
-2.47478 1.36028 9.5793
-2.50583 1.36021 9.57354
-2.55291 1.36108 9.56288
-2.58688 1.36217 9.56712
-2.61504 1.35986 9.54536
-2.67714 1.36071 9.53281
-2.74123 1.36158 9.52128
-2.75919 1.36267 9.5264
-2.78733 1.36141 9.50763
-2.8174 1.3613 9.49886
-2.85237 1.36337 9.50209
-2.91157 1.36103 9.47657
-2.94164 1.3609 9.46679
-2.95766 1.36187 9.4639
-3.11492 1.36346 9.43006
-3.14501 1.36231 9.4183
-3.163 1.36435 9.42041
-3.19406 1.36425 9.41264
-3.28822 1.365 9.39134
-3.31732 1.36481 9.37755
-3.36539 1.36571 9.3689
-3.39744 1.36563 9.36214
-3.49063 1.36731 9.33682
-3.5217 1.3672 9.32805
-3.55864 1.37033 9.33529
-3.57174 1.36915 9.3224
-3.60182 1.36902 9.31263
-3.63486 1.36996 9.30686
-3.731 1.37175 9.28856
-3.77614 1.3715 9.2699
-3.80916 1.37348 9.26712
-3.83828 1.37226 9.25135
-3.87426 1.37432 9.25359
-3.90435 1.37416 9.24182
-3.96649 1.37494 9.22427
-3.98841 1.37811 9.2344
-4.01654 1.37686 9.21662
-4.04959 1.37779 9.21086
-4.11271 1.37959 9.1943
-4.14477 1.38049 9.18653
-4.19287 1.38134 9.17388
-4.22494 1.38123 9.16512
-4.39115 1.3879 9.13627
-1.90357 1.43918 9.73085
-2.33845 1.43475 9.61618
-2.44665 1.43443 9.59
-2.54081 1.43417 9.5687
-2.57186 1.4351 9.56292
-2.65097 1.43492 9.54752
-2.7131 1.43472 9.53099
-2.74415 1.43564 9.52421
-2.77812 1.43772 9.52843
-2.80724 1.4365 9.51267
-2.82131 1.43537 9.50279
-3.14991 1.43742 9.42523
-3.21105 1.43718 9.40669
-3.2892 1.43794 9.38726
-3.35327 1.43984 9.37772
-3.38435 1.4397 9.36695
-3.41738 1.44067 9.36318
-3.46838 1.4437 9.36352
-3.55962 1.44328 9.33121
-3.58873 1.44208 9.31645
-3.61979 1.44299 9.30867
-3.63877 1.44504 9.31178
-3.66787 1.44387 9.29902
-3.69992 1.44479 9.29224
-3.73196 1.44573 9.28647
-3.76207 1.44554 9.2727
-3.82715 1.44742 9.26216
-3.87915 1.45045 9.26151
-3.90924 1.45029 9.24973
-3.9763 1.45321 9.24119
-4.00737 1.4531 9.23243
-4.04957 1.45174 9.20676
-4.08751 1.45487 9.214
-5.8504 -0.460721 3.30682
-5.85087 -0.460654 3.24382
-5.84428 -0.460458 3.18976
-5.83568 -0.46025 3.13668
-5.82999 -0.459861 3.09563
-5.79354 -0.457923 2.75528
-5.78782 -0.457475 2.71822
-5.77421 -0.457255 2.66611
-5.76758 -0.456986 2.61705
-5.74974 -0.45628 2.46288
-5.73504 -0.455883 2.42276
-5.73421 -0.456209 2.40076
-5.72074 -0.45627 2.32965
-5.7219 -0.455581 2.30864
-5.70768 -0.455116 2.20551
-5.71381 -0.455378 2.18756
-5.70217 -0.455098 2.13946
-5.6886 -0.454952 2.08235
-5.68194 -0.454623 2.03729
-5.68708 -0.454901 2.01833
-5.67727 -0.455263 1.99426
-5.68041 -0.455542 1.97528
-5.67251 -0.454741 1.96221
-5.67067 -0.455068 1.9402
-5.67297 -0.454659 1.9002
-5.66714 -0.454989 1.87816
-5.65747 -0.454647 1.83408
-5.6597 -0.45509 1.8041
-5.65386 -0.45442 1.78204
-5.656 -0.4547 1.76306
-5.66214 -0.454962 1.7451
-5.65531 -0.455293 1.72306
-5.65646 -0.455588 1.70307
-5.65155 -0.454769 1.69101
-5.65169 -0.455051 1.67202
-5.64087 -0.454414 1.64792
-5.63418 -0.455026 1.60688
-5.62634 -0.454358 1.5848
-5.63248 -0.45462 1.56685
-5.62357 -0.454804 1.55479
-5.62172 -0.455101 1.53477
-5.61603 -0.454713 1.49372
-5.61019 -0.455028 1.47268
-5.61932 -0.455273 1.45575
-5.61747 -0.455571 1.43573
-5.61462 -0.454869 1.4157
-5.61768 -0.454985 1.40772
-5.61283 -0.4553 1.38669
-5.60214 -0.454915 1.3456
-5.60129 -0.455197 1.32659
-5.59344 -0.454513 1.30552
-5.59958 -0.455775 1.28758
-5.58667 -0.454963 1.27547
-5.58696 -0.455525 1.23748
-5.57926 -0.455123 1.19741
-5.58253 -0.455654 1.16143
-5.56463 -0.454874 1.14729
-5.57375 -0.455105 1.13136
-5.5719 -0.455387 1.11234
-5.55706 -0.454724 1.09022
-5.56533 -0.455236 1.05528
-5.56547 -0.455517 1.03629
-5.55755 -0.455671 1.02623
-5.5517 -0.455972 1.00619
-5.55383 -0.456237 0.988203
-5.55597 -0.455502 0.970206
-5.55211 -0.455786 0.951179
-5.5444 -0.456354 0.913124
-5.54247 -0.456504 0.90311
-5.53561 -0.45579 0.884045
-5.53502 -0.45659 0.830045
-5.52617 -0.455893 0.809965
-5.52232 -0.456177 0.790938
-5.51945 -0.456446 0.772918
-5.5305 -0.456541 0.766001
-5.51666 -0.456862 0.744899
-5.51779 -0.457113 0.727909
-5.51407 -0.456664 0.690869
-5.50321 -0.456953 0.671789
-5.49835 -0.457238 0.652754
-5.49942 -0.457356 0.644763
-5.49169 -0.45691 0.607693
-5.49981 -0.457141 0.591755
-5.49296 -0.457427 0.572705
-5.49309 -0.457693 0.554708
-5.49622 -0.457943 0.537732
-5.50128 -0.458058 0.529771
-5.48043 -0.457369 0.509601
-5.48656 -0.457616 0.492649
-5.4807 -0.457887 0.474606
-5.47284 -0.458174 0.455548
-5.48096 -0.458405 0.439611
-5.46917 -0.457829 0.41151
-5.4753 -0.458076 0.394557
-5.47543 -0.458327 0.377559
-5.46656 -0.4586 0.359494
-5.4647 -0.458868 0.341482
-5.45883 -0.459139 0.323439
-5.45496 -0.458394 0.306396
-5.45909 -0.459642 0.289444
-5.46316 -0.459773 0.280475
-5.45642 -0.459296 0.245412
-5.44456 -0.459571 0.227324
-5.44968 -0.459819 0.210364
-5.44981 -0.460071 0.193367
-5.45187 -0.460188 0.185383
-5.44401 -0.46046 0.167325
-5.43914 -0.45973 0.149275
-5.4334 -0.460238 0.115235
-5.43054 -0.460507 0.0972147
-5.43366 -0.460756 0.0802396
-5.42879 -0.461011 0.0632044
-5.43185 -0.461128 0.0552281
-5.43099 -0.461395 0.037223
-5.41512 -0.460658 0.0200901
-5.42824 -0.4619 0.00320512
-5.42337 -0.462155 -0.0138302
-5.4185 -0.461411 -0.0308802
-5.41663 -0.461664 -0.0478929
-5.4147 -0.461799 -0.0569067
-5.41382 -0.462051 -0.0739119
-5.41395 -0.462303 -0.0909096
-5.40721 -0.462811 -0.124958
-5.40234 -0.463066 -0.141993
-5.39846 -0.463321 -0.159021
-5.39853 -0.463454 -0.168019
-5.40266 -0.463703 -0.184987
-5.39292 -0.463214 -0.219072
-5.48425 -0.422059 0.53011
-5.47299 -0.422519 0.432018
-5.46826 -0.423055 0.395986
-5.46073 -0.422979 0.333919
-5.45486 -0.42325 0.315877
-5.45612 -0.423752 0.281889
-5.45138 -0.424274 0.246856
-5.44259 -0.42468 0.219792
-5.44572 -0.42493 0.202817
-5.43698 -0.424454 0.167739
-5.44123 -0.424955 0.133774
-5.42837 -0.425231 0.115679
-5.43057 -0.425614 0.0896974
-5.42882 -0.426119 0.0556871
-5.42508 -0.426625 0.0216617
-5.42427 -0.427011 -0.00434227
-5.41354 -0.426537 -0.039435
-5.41079 -0.427042 -0.0734529
-5.40824 -0.427918 -0.132467
-5.40175 -0.428929 -0.200511
-5.87014 -0.384301 3.33385
-5.86635 -0.384718 3.30582
-5.86155 -0.384121 3.27877
-5.85416 -0.384312 3.19871
-5.84927 -0.384537 3.18367
-5.84068 -0.384343 3.1296
-5.83805 -0.385085 3.07958
-5.7942 -0.384338 2.7942
-5.77739 -0.38469 2.63606
-5.75556 -0.385017 2.47987
-5.7377 -0.386266 2.32874
-5.70548 -0.386799 2.09147
-5.67613 -0.387049 1.87322
-5.64502 -0.388788 1.62198
-5.63179 -0.389309 1.51987
-5.83621 -0.332493 3.1868
-5.83359 -0.33225 3.13577
-5.81713 -0.333314 3.06465
-5.79012 -0.334258 2.79943
-5.78077 -0.335538 2.71336
-5.77414 -0.335269 2.6643
-5.76652 -0.336015 2.61425
-5.751 -0.335974 2.55012
-5.75034 -0.336641 2.50512
-5.73896 -0.336878 2.42203
-5.73514 -0.337236 2.398
-5.72733 -0.337612 2.37295
-5.72766 -0.337263 2.32894
-5.72583 -0.337591 2.30692
-5.73297 -0.337867 2.28798
-5.71328 -0.338488 2.24684
-5.71444 -0.338798 2.22585
-5.70977 -0.338453 2.1818
-5.7061 -0.339108 2.13778
-5.69729 -0.339484 2.11271
-5.69753 -0.338958 2.0807
-5.68819 -0.340253 1.99364
-5.67561 -0.340092 1.93753
-5.67208 -0.341027 1.87451
-5.66663 -0.341112 1.80146
-5.65143 -0.342693 1.69536
-5.64567 -0.342171 1.6633
-5.62787 -0.342569 1.63717
-5.6333 -0.343409 1.58021
-5.62554 -0.343889 1.54816
-5.62882 -0.343434 1.51117
-5.60802 -0.343849 1.48402
-5.60332 -0.34443 1.44498
-5.61644 -0.344658 1.42908
-5.61465 -0.345088 1.40007
-5.59185 -0.34449 1.37389
-5.60012 -0.345017 1.33795
-5.57496 -0.345679 1.22676
-5.57424 -0.346242 1.18876
-5.56754 -0.346825 1.14971
-5.56076 -0.347259 1.12066
-5.55804 -0.347824 1.08264
-5.55632 -0.348373 1.04563
-5.54955 -0.347822 1.01557
-5.54982 -0.348355 0.979575
-5.5491 -0.348904 0.942573
-5.54138 -0.349472 0.904518
-5.53659 -0.34989 0.876484
-5.53987 -0.350421 0.840511
-5.53115 -0.34999 0.802434
-5.52436 -0.350409 0.774385
-5.52949 -0.350657 0.757425
-5.51878 -0.351228 0.719348
-5.51591 -0.351497 0.701328
-5.51219 -0.352047 0.664303
-5.5064 -0.352451 0.637261
-5.50067 -0.352003 0.600206
-5.49395 -0.352541 0.564159
-5.49721 -0.353057 0.529186
-5.49828 -0.35319 0.520195
-5.49355 -0.353726 0.484162
-5.47609 -0.354805 0.412037
-5.47729 -0.355189 0.386048
-5.47742 -0.355441 0.36905
-5.46969 -0.35498 0.33298
-5.86627 -0.296683 3.30752
-5.84846 -0.296052 3.28337
-5.85063 -0.296391 3.26039
-5.84684 -0.296808 3.23236
-5.84901 -0.297147 3.20938
-5.83925 -0.297613 3.17831
-5.83165 -0.297419 3.12424
-5.8388 -0.297709 3.1043
-5.82595 -0.298 3.0852
-5.79631 -0.300657 2.77197
-5.77946 -0.300965 2.75185
-5.78561 -0.301257 2.7319
-5.77881 -0.301662 2.70485
-5.77217 -0.302377 2.6568
-5.77633 -0.302685 2.63583
-5.76753 -0.302092 2.60876
-5.76961 -0.302238 2.59877
-5.74985 -0.302726 2.56663
-5.74802 -0.303068 2.54361
-5.75517 -0.303345 2.52467
-5.74637 -0.303751 2.4976
-5.74554 -0.304077 2.4756
-5.7467 -0.304402 2.45361
-5.73283 -0.303664 2.43649
-5.731 -0.304006 2.41348
-5.73217 -0.304331 2.39149
-5.72934 -0.304673 2.36847
-5.72851 -0.305 2.34647
-5.73166 -0.305294 2.32649
-5.71886 -0.305703 2.2994
-5.71927 -0.305502 2.24539
-5.70547 -0.305912 2.21829
-5.71261 -0.306174 2.20035
-5.7018 -0.306566 2.17427
-5.71193 -0.306811 2.15734
-5.70113 -0.307204 2.13126
-5.69722 -0.307384 2.11924
-5.6894 -0.307745 2.09518
-5.70251 -0.307958 2.08028
-5.68473 -0.3074 2.05113
-5.69884 -0.307612 2.03624
-5.68404 -0.308008 2.01013
-5.67929 -0.3085 1.9771
-5.68144 -0.308795 1.95712
-5.6766 -0.309124 1.93508
-5.68175 -0.309402 1.91612
-5.67591 -0.309732 1.89408
-5.66947 -0.309832 1.82002
-5.66663 -0.310145 1.799
-5.66379 -0.310458 1.77798
-5.65695 -0.310789 1.75593
-5.6571 -0.311085 1.73594
-5.65626 -0.311397 1.71493
-5.64237 -0.311614 1.70083
-5.53511 -0.320946 0.805034
-5.47837 -0.326399 0.371628
-5.57425 -0.276339 1.18172
-5.52741 -0.280623 0.894392
-5.51917 -0.282124 0.793338
-5.48496 -0.284659 0.556085
-5.4735 -0.285733 0.484005
-5.43395 -0.290575 0.158734
-5.42666 -0.291987 0.0636864
-5.42212 -0.292879 0.00365709
-5.40838 -0.293407 -0.0314434
-5.39908 -0.294791 -0.124506
-5.38872 -0.296057 -0.209577
-5.7574 -0.184993 2.61495
-5.68474 -0.196575 2.03849
-5.61543 -0.204867 1.54902
-5.59358 -0.208133 1.39689
-5.595 -0.208962 1.3409
-5.58838 -0.209707 1.29086
-5.57412 -0.212168 1.19277
-5.56049 -0.212919 1.14267
-5.55193 -0.213784 1.08461
-5.55069 -0.21528 0.983612
-5.53713 -0.216149 0.925515
-5.51991 -0.218701 0.821409
-5.52224 -0.219351 0.77743
-5.49056 -0.221966 0.602206
-5.49496 -0.222732 0.550243
-5.47931 -0.22344 0.503129
-5.47944 -0.223692 0.486131
-5.4837 -0.224207 0.451166
-5.46685 -0.2255 0.432056
-5.46605 -0.225901 0.405052
-5.47243 -0.226651 0.354104
-5.45458 -0.226946 0.334971
-5.46183 -0.227444 0.301029
-5.44692 -0.227617 0.289917
-5.45616 -0.228099 0.25699
-5.44156 -0.228895 0.203884
-5.4347 -0.229166 0.185834
-5.4349 -0.229551 0.159837
-5.43002 -0.229807 0.142802
-5.43115 -0.230057 0.125812
-5.43541 -0.230558 0.0918469
-5.42055 -0.23085 0.0727367
-5.43074 -0.231213 0.0478153
-5.41987 -0.231472 0.0307349
-5.41826 -0.232244 -0.021273
-5.41539 -0.232497 -0.0382932
-5.41758 -0.232866 -0.0632747
-5.40271 -0.233143 -0.0813851
-5.41196 -0.233625 -0.114313
-5.4041 -0.233898 -0.132371
-5.85615 -0.080729 3.30324
-5.85535 -0.0821145 3.27725
-5.84459 -0.0825962 3.24517
-5.83282 -0.0840637 3.2141
-5.84884 -0.0830966 3.21121
-5.83627 -0.0849497 3.15413
-5.82949 -0.0863839 3.1251
-5.8227 -0.0868035 3.09705
-5.82489 -0.0871573 3.07307
-5.81321 -0.0888024 3.03
-5.8018 -0.0909656 2.95194
-5.79999 -0.0913372 2.92692
-5.77706 -0.0954564 2.78479
-5.77922 -0.0957806 2.76281
-5.76862 -0.0975582 2.71075
-5.77278 -0.0978661 2.68978
-5.75809 -0.0994987 2.64769
-5.76125 -0.0998073 2.62672
-5.76341 -0.100117 2.60573
-5.76856 -0.100409 2.58577
-5.75479 -0.101863 2.55569
-5.74798 -0.102253 2.52964
-5.74308 -0.102449 2.5166
-5.73927 -0.103822 2.49159
-5.73262 -0.104523 2.44455
-5.72499 -0.106239 2.39651
-5.73312 -0.1065 2.37857
-5.71842 -0.107088 2.33946
-5.73154 -0.107315 2.32356
-5.71409 -0.109409 2.25045
-5.70245 -0.111128 2.20238
-5.70053 -0.111292 2.19137
-5.69304 -0.11329 2.12433
-5.68921 -0.113633 2.10131
-5.6985 -0.114189 2.06338
-5.68761 -0.114419 2.0483
-5.6758 -0.115798 2.02323
-5.67412 -0.116421 1.98122
-5.66745 -0.118077 1.93718
-5.66661 -0.118389 1.91618
-5.65871 -0.118587 1.90312
-5.65717 -0.120506 1.84113
-5.64666 -0.121462 1.77706
-5.64006 -0.123251 1.72403
-5.63252 -0.124175 1.66197
-5.62469 -0.125506 1.63993
-5.62976 -0.125636 1.63097
-5.62805 -0.126215 1.59196
-5.62521 -0.126528 1.57094
-5.62251 -0.127122 1.53092
-5.61169 -0.12847 1.50786
-5.61789 -0.128866 1.48091
-5.60022 -0.12953 1.43678
-5.59438 -0.130845 1.41575
-5.60379 -0.131653 1.36083
-5.59603 -0.132117 1.32977
-5.59218 -0.132416 1.30974
-5.59332 -0.132697 1.29075
-5.5765 -0.13405 1.26764
-5.58762 -0.134278 1.25173
-5.57478 -0.134613 1.22963
-5.57685 -0.134745 1.22065
-5.57599 -0.135027 1.20165
-5.57813 -0.135292 1.18366
-5.5673 -0.136626 1.1616
-5.57841 -0.135855 1.14567
-5.56458 -0.13719 1.12358
-5.56772 -0.137455 1.10561
-5.5578 -0.137625 1.09453
-5.55994 -0.13789 1.07655
-5.54909 -0.139209 1.05548
-5.56321 -0.138421 1.04058
-5.54139 -0.139792 1.01643
-5.5575 -0.140002 1.00155
-5.55164 -0.140288 0.982509
-5.55179 -0.140569 0.963512
-5.53788 -0.140757 0.951408
-5.53416 -0.141307 0.914383
-5.54528 -0.141536 0.898468
-5.53743 -0.142838 0.878426
-5.52166 -0.143294 0.848309
-5.53191 -0.14379 0.814389
-5.52806 -0.144074 0.795362
-5.52719 -0.144341 0.777357
-5.52147 -0.144893 0.740317
-5.51069 -0.14633 0.711253
-5.50896 -0.146865 0.675243
-5.50323 -0.147402 0.639202
-5.5005 -0.147937 0.603185
-5.50271 -0.148335 0.576204
-5.48999 -0.149892 0.539126
-5.49325 -0.150408 0.504153
-5.48745 -0.150812 0.477112
-5.45625 -0.155359 0.238911
-5.85017 -0.045826 3.29668
-5.8424 -0.0472758 3.26664
-5.84856 -0.0475823 3.24569
-5.83879 -0.0480485 3.21462
-5.83997 -0.0494029 3.19064
-5.82612 -0.0497091 3.17054
-5.82831 -0.0510628 3.14657
-5.82849 -0.0514181 3.12257
-5.82667 -0.0517896 3.09756
-5.82587 -0.0531751 3.07157
-5.81311 -0.0536434 3.04048
-5.81627 -0.0549668 3.01852
-5.82143 -0.055274 2.99756
-5.7988 -0.057016 2.94841
-5.81093 -0.0572589 2.9315
-5.76196 -0.0652774 2.66221
-5.75706 -0.0654883 2.64818
-5.72976 -0.0728395 2.42305
-5.72926 -0.0738172 2.35705
-5.71372 -0.0757317 2.29596
-5.71919 -0.0776457 2.23402
-5.689 -0.0812668 2.12583
-5.69645 -0.082135 2.06689
-5.67774 -0.083726 2.02777
-5.67806 -0.0843477 1.98577
-5.67538 -0.0859715 1.94377
-5.6687 -0.087613 1.90074
-5.65797 -0.0881391 1.86566
-5.66724 -0.0886802 1.82873
-5.65481 -0.0907998 1.75366
-5.65211 -0.092394 1.71366
-5.63028 -0.095705 1.55852
-5.61148 -0.0971036 1.5324
-5.62089 -0.0979111 1.47747
-5.60529 -0.0997072 1.42437
-5.59161 -0.101339 1.38229
-5.57272 -0.104529 1.23517
-5.58591 -0.10489 1.21027
-5.56223 -0.106544 1.16711
-5.5675 -0.107073 1.13116
-5.54431 -0.109674 1.02401
-5.54445 -0.109941 1.00601
-5.53673 -0.111509 0.967969
-5.54007 -0.112173 0.922998
-5.53336 -0.112741 0.88495
-5.52764 -0.114292 0.847925
-5.52398 -0.114976 0.801901
-5.52526 -0.115508 0.765914
-5.5184 -0.116795 0.746879
-5.50502 -0.118019 0.664784
-5.50229 -0.118554 0.628767
-5.48658 -0.120128 0.590667
-5.4949 -0.120759 0.547733
-5.48604 -0.121046 0.528668
-5.48631 -0.121564 0.493672
-5.47878 -0.123488 0.431636
-5.47091 -0.12376 0.413578
-5.46905 -0.124028 0.395565
-5.45851 -0.125954 0.333506
-5.44205 -0.127017 0.262388
-5.44531 -0.127518 0.228415
-5.43477 -0.129429 0.167356
-5.44102 -0.129928 0.133405
-5.43122 -0.13032 0.107334
-5.42348 -0.130844 0.0722783
-5.42374 -0.131347 0.038283
-5.427 -0.131848 0.00431028
-5.41619 -0.132241 -0.0217689
-5.40845 -0.13375 -0.0558096
-5.3977 -0.134262 -0.0898877
-5.40296 -0.134761 -0.123845
-5.40316 -0.135146 -0.149842
-5.38541 -0.135662 -0.183973
-5.38866 -0.136149 -0.216945
-5.65023 -0.0537113 1.82709
-5.63326 -0.0577373 1.691
-5.62082 -0.059842 1.61693
-5.62097 -0.0601381 1.59693
-5.61727 -0.0607331 1.55691
-5.61542 -0.0620305 1.53691
-5.61664 -0.062459 1.50792
-5.6068 -0.062792 1.48585
-5.60995 -0.063071 1.46687
-5.61408 -0.0643345 1.44892
-5.60539 -0.0649479 1.40786
-5.60447 -0.0650967 1.39785
-5.59264 -0.0664457 1.37478
-5.59293 -0.0670082 1.33678
-5.58608 -0.0683093 1.31675
-5.58423 -0.0686068 1.29674
-5.58636 -0.0688718 1.27875
-5.57746 -0.069056 1.26669
-5.5689 -0.0709357 1.20764
-5.57703 -0.0711816 1.19071
-5.57417 -0.071465 1.17169
-5.56932 -0.0717647 1.15165
-5.57146 -0.0730296 1.13368
-5.56482 -0.0737452 1.08564
-5.56496 -0.0740264 1.06664
-5.54813 -0.0753643 1.04453
-5.55626 -0.0756102 1.02759
-5.54648 -0.0760467 0.998522
-5.53564 -0.0773655 0.977457
-5.54676 -0.0775943 0.961542
-5.53492 -0.0779139 0.940454
-5.53306 -0.0781966 0.921442
-5.54417 -0.0784106 0.906527
-5.52734 -0.0797485 0.884416
-5.52841 -0.079881 0.875425
-5.53653 -0.0801269 0.858488
-5.51769 -0.0804515 0.837348
-5.53181 -0.0806782 0.821455
-5.5201 -0.0822493 0.783385
-5.52024 -0.0825157 0.765388
-5.51331 -0.0826689 0.755336
-5.51657 -0.0831848 0.720364
-5.51172 -0.0834697 0.701329
-5.50486 -0.0847559 0.682293
-5.50799 -0.0850054 0.665318
-5.51013 -0.0852703 0.647336
-5.49421 -0.0854448 0.636217
-5.49048 -0.0869805 0.600207
-5.48462 -0.0872661 0.581164
-5.48176 -0.0875348 0.563144
-5.48116 -0.08832 0.510144
-5.48223 -0.0884525 0.501153
-5.47936 -0.0887211 0.483132
-5.4735 -0.0899918 0.465105
-5.47963 -0.0902391 0.448152
-5.46577 -0.0905306 0.429049
-5.4669 -0.0907815 0.412059
-5.46723 -0.0914328 0.368065
-5.46736 -0.0916844 0.351068
-5.46149 -0.0929551 0.33304
-5.45963 -0.093223 0.315027
-5.46176 -0.0934732 0.298045
-5.44889 -0.0937491 0.279949
-5.45196 -0.0938802 0.270973
-5.45409 -0.0941303 0.253991
-5.44123 -0.0954061 0.23591
-5.44448 -0.0959072 0.201937
-5.43263 -0.0961972 0.18285
-5.43195 -0.0968345 0.139848
-5.42308 -0.0970927 0.122783
-5.43421 -0.0973363 0.105868
-5.43133 -0.0975901 0.0888475
-5.42447 -0.0988616 0.0708122
-5.42959 -0.0980949 0.0548372
-5.42873 -0.098362 0.0368321
-5.42479 -0.0994833 0.0288179
-5.42192 -0.0997519 0.0107978
-5.42105 -0.100004 -0.00620732
-5.41818 -0.100258 -0.0232276
-5.42031 -0.100508 -0.0402102
-5.40544 -0.100771 -0.0573207
-5.4155 -0.100897 -0.0662442
-5.41463 -0.101149 -0.0832494
-5.3974 -0.103672 -0.185356
-5.85341 0.0395894 3.25643
-5.84862 0.0381862 3.22941
-5.82873 0.0319954 3.08234
-5.82511 0.0302377 3.03133
-5.82131 0.0298499 3.0053
-5.8195 0.0284785 2.9803
-5.81189 0.026703 2.92827
-5.77363 0.01727 2.69809
-5.77778 0.0169769 2.67812
-5.77497 0.0166046 2.6531
-5.76053 0.0134837 2.57803
-5.75962 0.0133202 2.56702
-5.75481 0.0119466 2.542
-5.75597 0.0116216 2.52001
-5.73853 0.00851337 2.44592
-5.73272 0.00713905 2.42089
-5.7358 0.00699321 2.41091
-5.73795 0.00668381 2.38993
-5.70461 -0.00158287 2.17077
-5.69635 -0.00503984 2.07275
-5.85303 0.0822805 3.30281
-5.85621 0.0809423 3.27985
-5.85142 0.0795243 3.25183
-5.83867 0.0780265 3.21875
-5.83985 0.0766721 3.19477
-5.84013 0.0761244 3.15778
-5.81661 0.0721747 3.09465
-5.82395 0.0715137 3.04971
-5.79187 0.060715 2.79459
-5.78209 0.0592786 2.76554
-5.78127 0.0579227 2.74155
-5.77166 0.0561606 2.69049
-5.76187 0.054739 2.66244
-5.75913 0.0532188 2.62743
-5.75831 0.0528628 2.60343
-5.75566 0.0511799 2.55743
-5.74213 0.0482521 2.49536
-5.74463 0.0462767 2.4294
-5.72843 0.0416956 2.32333
-5.71265 0.0402548 2.29423
-5.72094 0.0396833 2.2553
-5.71529 0.0379982 2.20927
-5.71246 0.0366704 2.18727
-5.69559 0.0353917 2.16916
-5.69277 0.0340492 2.14615
-5.67469 0.0302297 2.02406
-5.67185 0.0289019 2.00205
-5.63172 0.0162613 1.62288
-5.62909 0.0145191 1.57288
-5.56475 -0.00170867 1.08757
-5.5024 -0.0159056 0.604245
-5.83258 0.117151 3.22712
-5.83693 0.115458 3.18018
-5.76819 0.0960275 2.74889
-5.75619 0.0900646 2.61687
-5.74756 0.0883328 2.56782
-5.73918 0.0841128 2.48581
-5.72622 0.0790602 2.34777
-5.72463 0.0772595 2.29377
-5.70303 0.0744592 2.24064
-5.71615 0.0742318 2.22474
-5.69346 0.0716083 2.18361
-5.69661 0.0713145 2.16363
-5.68979 0.0699542 2.1396
-5.68496 0.0686102 2.11658
-5.68444 0.0666771 2.05359
-5.68851 0.0665468 2.04463
-5.68398 0.0646107 1.98161
-5.66919 0.0622003 1.95453
-5.65768 0.0602295 1.88946
-5.67272 0.0601664 1.88458
-5.66788 0.0598371 1.86254
-5.65522 0.0571618 1.81748
-5.63957 0.0554693 1.77138
-5.63673 0.0541564 1.75038
-5.64777 0.0550755 1.74445
-5.63411 0.0523994 1.69938
-5.63626 0.0521196 1.6804
-5.64039 0.0518561 1.66243
-5.62757 0.0504914 1.63835
-5.61982 0.0490121 1.60631
-5.61797 0.0487145 1.58629
-5.61612 0.0474172 1.5663
-5.61826 0.0471374 1.54731
-5.61641 0.0468399 1.5273
-5.61556 0.0455432 1.50731
-5.61371 0.0452457 1.4873
-5.61492 0.0448319 1.45931
-5.60424 0.0432023 1.41725
-5.59555 0.041589 1.3762
-5.58971 0.0402739 1.35517
-5.58379 0.0401215 1.34513
-5.57909 0.0385259 1.30511
-5.5912 0.0383126 1.29021
-5.59034 0.0380306 1.2712
-5.58051 0.0366978 1.24914
-5.57487 0.034983 1.20112
-5.57302 0.0347003 1.18211
-5.56133 0.0330847 1.14104
-5.56745 0.0328375 1.12409
-5.5656 0.0325548 1.10507
-5.55476 0.031236 1.08401
-5.55482 0.0311028 1.07501
-5.54598 0.0297855 1.05396
-5.5424 0.0279686 0.998951
-5.55066 0.0274563 0.964016
-5.54587 0.0270382 0.935983
-5.52705 0.0246841 0.912872
-5.52233 0.0241328 0.87584
-5.5236 0.0236006 0.839852
-5.51282 0.0221635 0.810788
-5.52992 0.0219686 0.796918
-5.51608 0.0216476 0.775816
-5.52121 0.0213996 0.758856
-5.51948 0.0198653 0.72286
-5.50184 0.0181418 0.674746
-5.49898 0.0178732 0.656726
-5.49824 0.0163545 0.621738
-5.50244 0.0159725 0.595772
-5.48885 0.0141483 0.540689
-5.482 0.0138619 0.521639
-5.48613 0.0136132 0.504672
-5.4774 0.0120739 0.468624
-5.46287 0.0101305 0.405534
-5.461 0.00987741 0.388522
-5.46913 0.0096316 0.371584
-5.45234 0.00820486 0.343475
-5.45312 0.0066802 0.240489
-5.44832 0.00527701 0.21347
-5.44059 0.0047531 0.178415
-5.43404 0.00285996 0.118385
-5.42943 0.00208659 0.0663546
-5.42169 0.000577588 0.0323139
-5.39928 -0.00159364 -0.0458336
-5.4014 -0.00184382 -0.0628162
-5.40653 -0.00209183 -0.0797762
-5.39198 -0.00397599 -0.138866
-5.39911 -0.00322264 -0.155826
-5.39323 -0.00447854 -0.172854
-5.71284 0.114788 2.26212
-5.70718 0.113103 2.2161
-5.68988 0.108728 2.12402
-5.68492 0.103681 1.98604
-5.67833 0.100877 1.93202
-5.67265 0.0992362 1.889
-5.66115 0.0962507 1.82295
-5.6524 0.0947557 1.7899
-5.65755 0.0944781 1.77094
-5.65271 0.093149 1.74892
-5.64241 0.0897645 1.65588
-5.63359 0.0884176 1.63283
-5.63373 0.0881364 1.61383
-5.62427 0.0850635 1.5418
-5.62058 0.0834686 1.50179
-5.61403 0.0815755 1.44176
-5.57819 0.0752694 1.28756
-5.53487 0.0619967 0.933382
-5.52251 0.0597292 0.84831
-5.48417 0.0484747 0.49514
-5.76433 0.170646 2.72275
-5.76667 0.168982 2.67779
-5.75489 0.167544 2.64871
-5.74925 0.164844 2.6017
-5.74934 0.164666 2.58971
-5.74353 0.163292 2.56468
-5.7417 0.16195 2.54168
-5.73788 0.160592 2.51767
-5.74303 0.1603 2.49771
-5.7442 0.158975 2.47574
-5.74436 0.158649 2.45374
-5.72385 0.154687 2.38963
-5.71521 0.15197 2.3416
-5.71976 0.149893 2.26866
-5.70198 0.14745 2.23956
-5.69732 0.145781 2.19454
-5.69465 0.143142 2.15155
-5.68982 0.141798 2.12853
-5.69489 0.142669 2.11956
-5.68424 0.13998 2.07351
-5.6804 0.138651 2.0515
-5.68171 0.137045 2.01053
-5.6709 0.135667 1.98546
-5.67597 0.135538 1.9765
-5.67612 0.135242 1.9565
-5.67528 0.13393 1.93551
-5.66745 0.132584 1.91247
-5.66661 0.132273 1.89147
-5.65878 0.130926 1.86842
-5.65702 0.129466 1.83743
-5.64636 0.126792 1.79238
-5.6485 0.126512 1.7734
-5.64366 0.125198 1.75238
-5.6498 0.124936 1.73443
-5.63107 0.12239 1.69832
-5.63237 0.121798 1.65833
-5.63452 0.120518 1.63936
-5.63481 0.119941 1.60037
-5.76523 0.216775 2.73107
-5.63748 0.1675 1.77271
-5.63401 0.165446 1.7017
-5.62947 0.16254 1.6407
-5.62464 0.161211 1.61868
-5.61773 0.160028 1.60665
-5.61389 0.159714 1.58562
-5.61204 0.158417 1.56562
-5.61219 0.158136 1.54663
-5.62431 0.157908 1.53072
-5.60664 0.155243 1.48662
-5.60771 0.155096 1.47663
-5.59988 0.153765 1.45459
-5.59902 0.153483 1.43558
-5.60516 0.153221 1.41763
-5.58933 0.150869 1.39454
-5.60245 0.151641 1.37863
-5.59561 0.150325 1.35759
-5.59269 0.149175 1.34758
-5.58785 0.148861 1.32655
-5.58413 0.147295 1.28854
-5.58329 0.145999 1.26855
-5.58442 0.145733 1.25056
-5.57758 0.144417 1.22952
-5.57194 0.142702 1.1815
-5.57508 0.142438 1.16353
-5.56638 0.14084 1.12348
-5.56552 0.139558 1.10449
-5.55974 0.138124 1.07546
-5.55789 0.137842 1.05645
-5.55117 0.136274 1.01842
-5.54532 0.134974 0.998389
-5.53761 0.133406 0.960349
-5.53569 0.133256 0.950336
-5.54381 0.133025 0.934398
-5.53709 0.131458 0.896365
-5.52938 0.129889 0.858325
-5.51075 0.12715 0.809219
-5.51388 0.126901 0.792243
-5.52101 0.126654 0.775299
-5.51715 0.12637 0.756271
-5.51629 0.126103 0.738266
-5.50151 0.123663 0.709187
-5.50963 0.124417 0.692234
-5.49093 0.121826 0.653126
-5.49705 0.121594 0.637174
-5.49133 0.120042 0.600149
-5.49346 0.119792 0.583166
-5.48367 0.11837 0.555109
-5.48281 0.118103 0.537104
-5.48207 0.117584 0.502102
-5.4862 0.117335 0.485134
-5.47641 0.115914 0.457078
-5.47654 0.115662 0.44008
-5.47067 0.114391 0.422052
-5.4748 0.114143 0.405084
-5.47294 0.113875 0.387072
-5.46707 0.112604 0.369044
-5.4672 0.112352 0.352046
-5.46428 0.112202 0.342025
-5.45854 0.11068 0.307
-5.44981 0.110155 0.271937
-5.45393 0.109906 0.254969
-5.45014 0.108504 0.227958
-5.44727 0.10825 0.210937
-5.44739 0.107999 0.19394
-5.43766 0.106473 0.158884
-5.43205 0.104699 0.106861
-5.43012 0.104565 0.0978472
-5.42664 0.10354 0.0288267
-5.41122 0.100389 -0.0482535
-5.4058 0.0992449 -0.125288
-5.75299 0.286189 2.62394
-5.74819 0.283801 2.59794
-5.7438 0.279598 2.51695
-5.70168 0.264882 2.26782
-5.69611 0.261049 2.21183
-5.68861 0.258051 2.14481
-5.68678 0.256724 2.12281
-5.67805 0.2542 2.08777
-5.6782 0.252889 2.06679
-5.67752 0.251267 2.02481
-5.66986 0.248595 1.97978
-5.66595 0.248415 1.96775
-5.65928 0.245773 1.92474
-5.65744 0.244446 1.90274
-5.64993 0.241493 1.83872
-5.64616 0.239032 1.80772
-5.65245 0.238473 1.76977
-5.64163 0.23611 1.74572
-5.64377 0.235831 1.72674
-5.63396 0.234468 1.70268
-5.62812 0.233138 1.68065
-5.63119 0.233007 1.67168
-5.62635 0.231693 1.65066
-5.63048 0.231429 1.63269
-5.62664 0.230116 1.61168
-5.62181 0.228786 1.58966
-5.61996 0.227489 1.56966
-5.6221 0.227209 1.55068
-5.6112 0.226009 1.53761
-5.60736 0.224695 1.5166
-5.61549 0.22445 1.49966
-5.60566 0.223117 1.47761
-5.60581 0.221821 1.45762
-5.60495 0.221539 1.43862
-5.59712 0.220207 1.41658
-5.59619 0.219059 1.40658
-5.59334 0.218775 1.38756
-5.59947 0.218513 1.36961
-5.59662 0.217215 1.34961
-5.58978 0.215899 1.32857
-5.58394 0.214584 1.30754
-5.59206 0.214353 1.29161
-5.57916 0.213151 1.27853
-5.58829 0.213906 1.26158
-5.57745 0.211588 1.24053
-5.5766 0.211291 1.22053
-5.5669 0.208692 1.18049
-5.5681 0.208293 1.1535
-5.56825 0.207012 1.13451
-5.55741 0.205693 1.11345
-5.5507 0.20411 1.07442
-5.55883 0.203865 1.05748
-5.55112 0.202296 1.01944
-5.54035 0.199845 0.98939
-5.54847 0.200599 0.972438
-5.54262 0.199313 0.95341
-5.52692 0.19671 0.913325
-5.53212 0.196328 0.887366
-5.53339 0.195796 0.851379
-5.51868 0.193208 0.812301
-5.52395 0.192694 0.777343
-5.51517 0.190258 0.748309
-5.50772 0.188172 0.675274
-5.50292 0.186769 0.648255
-5.4942 0.185215 0.611207
-5.48495 0.181742 0.512175
-5.46535 0.175974 0.326087
-5.45662 0.174449 0.291039
-5.76827 0.329558 2.71543
-5.77442 0.328266 2.69549
-5.76962 0.326878 2.66947
-5.75402 0.323082 2.6164
-5.74829 0.320545 2.58039
-5.74381 0.31652 2.51141
-5.74332 0.312528 2.44445
-5.73261 0.309958 2.4064
-5.72796 0.307273 2.3604
-5.71756 0.302082 2.28039
-5.71307 0.299086 2.21339
-5.70067 0.293908 2.13436
-5.69185 0.291546 2.11033
-5.68304 0.29017 2.08528
-5.68535 0.288565 2.04431
-5.66442 0.280447 1.90226
-5.63162 0.264116 1.61121
-5.62002 0.261323 1.55816
-5.61048 0.258413 1.49712
-5.61178 0.256836 1.45815
-5.59832 0.252775 1.3871
-5.59475 0.249914 1.32911
-5.58813 0.247184 1.28009
-5.58442 0.245604 1.24108
-5.57757 0.244303 1.22104
-5.57486 0.242738 1.18304
-5.57408 0.241308 1.15405
-5.56723 0.240007 1.13402
-5.54844 0.23361 0.972949
-5.53622 0.229076 0.86991
-5.52864 0.226256 0.814887
-5.77713 0.369782 2.7299
-5.76951 0.366036 2.67989
-5.77259 0.365891 2.66991
-5.75383 0.362403 2.63782
-5.76115 0.360787 2.59589
-5.75634 0.358413 2.57089
-5.73882 0.353453 2.50682
-5.74099 0.353129 2.48484
-5.73119 0.350722 2.4578
-5.73833 0.350461 2.43985
-5.73949 0.349136 2.41788
-5.73667 0.347794 2.39487
-5.73086 0.345419 2.36986
-5.71416 0.341815 2.32978
-5.71931 0.341523 2.30982
-5.71848 0.340197 2.28783
-5.70668 0.337788 2.26078
-5.70883 0.337494 2.24079
