-3.15064 1.69496 3.85087
-3.17164 1.69997 3.85095
-3.17481 1.69365 3.82907
-3.20591 1.69646 3.81526
-3.22096 1.69737 3.80836
-3.23107 1.69617 3.79445
-3.25394 1.70542 3.81049
-3.25514 1.69905 3.78559
-3.26128 1.69478 3.76669
-3.28922 1.70292 3.77479
-3.32944 1.7035 3.74507
-3.32359 1.69622 3.72614
-3.35965 1.70211 3.71732
-3.37074 1.70194 3.7054
-3.37886 1.69871 3.68951
-3.39193 1.69958 3.6806
-3.41195 1.70355 3.67769
-3.41303 1.70039 3.66674
-3.43205 1.70336 3.66384
-3.44216 1.70216 3.64993
-3.45523 1.70302 3.64002
-3.4693 1.7029 3.63112
-3.48932 1.70687 3.62821
-3.49546 1.70361 3.61031
-3.49753 1.70146 3.60035
-3.52251 1.70752 3.60345
-3.53459 1.70737 3.59254
-3.55263 1.71029 3.58663
-3.55678 1.70601 3.56773
-3.5768 1.70998 3.56482
-3.5869 1.7088 3.55191
-3.60087 1.71285 3.55496
-3.61098 1.71164 3.54005
-3.631 1.71561 3.53714
-3.64011 1.71441 3.52322
-3.65318 1.71427 3.51332
-3.66924 1.71616 3.50541
-3.70135 1.71996 3.4906
-3.70839 1.72089 3.48564
-3.72246 1.72177 3.47673
-3.91684 1.72317 3.29315
-3.93605 1.72177 3.26531
-3.92223 1.71242 3.24234
-3.93035 1.71021 3.22743
2.71002 1.58551 3.79533
2.699 1.58347 3.79244
2.68809 1.58466 3.80451
2.67515 1.58478 3.8126
2.66323 1.58594 3.82268
2.65131 1.5861 3.83277
2.63533 1.58417 3.83692
2.62442 1.58634 3.84797
2.6225 1.58849 3.85795
2.60957 1.58965 3.86803
2.59259 1.58669 3.87021
2.58065 1.58783 3.87928
2.56873 1.58899 3.88935
2.55478 1.58809 3.89547
2.53983 1.5872 3.9026
2.54197 1.59347 3.92049
2.52599 1.59152 3.92364
2.50799 1.58853 3.92382
2.4991 1.59175 3.93785
2.48009 1.58776 3.93805
2.47424 1.59305 3.95702
2.45929 1.59215 3.96314
2.45128 1.59115 3.96322
2.43431 1.58921 3.96637
2.41731 1.58624 3.96755
2.41248 1.59257 3.98949
2.37546 1.58555 3.98688
2.36658 1.58879 4.0029
2.35859 1.58883 4.00496
2.34463 1.58791 4.01008
2.33069 1.58804 4.01818
2.32383 1.59331 4.03616
2.30582 1.58931 4.03535
2.28884 1.58735 4.03751
2.28097 1.59163 4.05551
2.26994 1.58856 4.05063
2.26309 1.59386 4.07061
2.24712 1.59293 4.07475
2.23214 1.59199 4.07787
2.22633 1.59835 4.10183
2.20832 1.59534 4.10101
2.18826 1.59026 4.09423
2.18942 1.59655 4.11413
2.1714 1.59353 4.11231
2.15949 1.59572 4.12437
2.15164 1.60101 4.14335
2.13261 1.59696 4.13956
2.11459 1.59295 4.13775
2.10979 1.60133 4.16367
2.0967 1.59518 4.15286
2.08378 1.59734 4.16292
2.07084 1.59747 4.17102
2.05588 1.59755 4.17613
2.04294 1.59768 4.18423
2.0341 1.60398 4.2042
2.01709 1.60098 4.20338
2.01112 1.60206 4.20841
2.00022 1.60426 4.22146
1.97917 1.59917 4.21469
1.96521 1.59927 4.2208
1.96044 1.6087 4.2497
1.94138 1.60361 4.24291
1.92337 1.60059 4.24109
1.91944 1.60275 4.25109
1.9055 1.60386 4.25818
1.89053 1.60293 4.26231
1.8776 1.60509 4.27238
1.8657 1.60727 4.28444
1.85073 1.60734 4.28855
1.8429 1.61367 4.31052
1.81569 1.60131 4.2849
1.8179 1.61071 4.31175
1.80191 1.60873 4.3129
1.78695 1.60882 4.31801
1.77503 1.61099 4.32907
1.75906 1.61006 4.3332
1.74001 1.60597 4.32641
1.73915 1.61224 4.34432
1.72419 1.61234 4.35044
1.7082 1.61036 4.35159
1.69425 1.61046 4.35769
1.68645 1.61885 4.38363
1.67248 1.61894 4.38873
1.65241 1.61382 4.37996
1.64953 1.61904 4.39491
1.62946 1.61293 4.38615
1.61757 1.61714 4.40017
1.60568 1.62036 4.41422
1.58967 1.61835 4.41337
1.57675 1.62053 4.42444
-0.858841 1.66887 4.6161
-0.922844 1.6729 4.61552
-0.960911 1.6728 4.6068
-1.04603 1.67262 4.59145
-1.10713 1.67246 4.57791
-1.13019 1.67237 4.57108
-1.17819 1.67639 4.57038
-1.22525 1.67731 4.56272
-1.23323 1.67834 4.56477
-1.31136 1.68015 4.54833
-1.3254 1.67907 4.54245
-1.33439 1.6801 4.5445
-1.36348 1.67893 4.53174
-1.39259 1.67675 4.51799
-1.48983 1.67534 4.48673
-1.50682 1.67737 4.48783
-1.516 1.67104 4.46499
-1.52792 1.67519 4.47502
-1.54392 1.67721 4.47511
-1.55798 1.6761 4.46723
-1.57106 1.67395 4.45636
-1.591 1.67908 4.46444
-1.60602 1.67904 4.46155
-1.62692 1.68624 4.47361
-1.63101 1.68308 4.46268
-1.6771 1.68392 4.45001
-1.69312 1.68488 4.44712
-1.70033 1.67649 4.4203
-1.71537 1.67643 4.41541
-1.71848 1.67222 4.40149
-1.74037 1.67945 4.41555
-1.75345 1.67729 4.40468
-1.76457 1.67306 4.38883
-1.78255 1.67612 4.39192
-1.79758 1.67707 4.38801
-1.81165 1.67595 4.37914
-1.82161 1.67802 4.38318
-1.84057 1.68312 4.38925
-1.8556 1.68306 4.38436
-1.86966 1.68195 4.37648
-1.90073 1.68384 4.36769
-1.90987 1.67858 4.34983
-1.92573 1.68685 4.36783
-1.93783 1.68467 4.35495
-1.95777 1.68979 4.36203
-1.96789 1.68556 4.34617
-1.98785 1.69065 4.35124
-1.99406 1.68125 4.32442
-2.01203 1.68531 4.3275
-2.02202 1.68735 4.32955
-2.03214 1.68412 4.31367
-2.057 1.6934 4.33172
-2.06811 1.69019 4.31685
-2.08708 1.69426 4.32093
-2.09721 1.69002 4.30407
-2.11422 1.692 4.30217
-2.12139 1.68568 4.28031
-2.13727 1.69291 4.29533
-2.14642 1.68764 4.27647
-2.15948 1.68753 4.26857
-2.18661 1.6853 4.2518
-2.21445 1.69661 4.27185
-2.21261 1.6893 4.25094
-2.23257 1.69439 4.25602
-2.24368 1.69119 4.24215
-2.26561 1.69732 4.25022
-2.27967 1.69723 4.24333
-2.30582 1.69495 4.22356
-2.31679 1.69801 4.22659
-2.32788 1.69584 4.21471
-2.34195 1.69471 4.20583
-2.41013 1.69841 4.18229
-2.49646 1.69982 4.13891
-2.65109 1.70067 4.05505
-2.68216 1.70255 4.04525
-2.73336 1.7052 4.0196
-2.74445 1.70303 4.00771
-2.76565 1.69864 3.98093
-2.78267 1.70163 3.97902
-2.79464 1.70468 3.98206
-2.80476 1.70147 3.96718
-2.82595 1.6981 3.94139
-2.8489 1.7042 3.94747
-2.86099 1.70405 3.93656
-2.87405 1.70392 3.92766
-2.87911 1.70181 3.91973
-2.90009 1.70787 3.9228
-2.90031 1.69844 3.89394
-2.91733 1.70041 3.89104
-2.93435 1.70337 3.88812
-2.94941 1.70427 3.88022
-2.95457 1.69898 3.86033
-2.97862 1.70187 3.85247
-3.0006 1.70693 3.85556
-3.00477 1.70161 3.83367
-3.0208 1.70355 3.82876
-3.0319 1.70236 3.81586
-3.05684 1.70949 3.82294
-3.04903 1.70013 3.79902
-3.06803 1.70412 3.7981
-3.08605 1.70709 3.7952
-3.09813 1.70695 3.78529
-3.10427 1.70268 3.76639
-3.1223 1.70563 3.76249
-3.12745 1.70135 3.74358
-3.13547 1.70131 3.74065
-3.1525 1.70427 3.73673
-3.1626 1.70308 3.72382
-3.17369 1.7009 3.71094
-3.19964 1.70902 3.71801
-3.20874 1.70682 3.70411
-3.21786 1.7046 3.68921
-3.22984 1.70864 3.69124
-3.23894 1.70644 3.67734
-3.24904 1.70426 3.66445
-3.26906 1.70824 3.66254
-3.27618 1.70601 3.64662
-3.30114 1.71209 3.65072
-3.30728 1.70882 3.63281
-3.30836 1.70566 3.62187
-3.31846 1.70448 3.60896
-3.3464 1.71362 3.61704
-3.34262 1.70418 3.58814
-3.36462 1.7092 3.58823
-3.36877 1.70491 3.56833
-3.40186 1.70875 3.55652
-3.41781 1.71485 3.56255
-3.41798 1.70851 3.53964
-3.44395 1.71559 3.54373
-3.45009 1.71233 3.52582
-3.46712 1.71427 3.52092
-3.47028 1.70996 3.50001
-3.49129 1.71396 3.49911
-3.49733 1.71387 3.49315
-3.51852 1.71252 3.46833
-3.54267 1.71324 3.4485
-3.5627 1.7172 3.44459
-3.91731 1.71829 3.0982
-3.93436 1.72119 3.09128
-3.92659 1.71176 3.06236
-3.93569 1.71057 3.04944
2.70618 1.58984 3.68228
2.69425 1.59099 3.69235
2.65351 1.59353 3.72663
2.63855 1.59261 3.73175
2.5978 1.59513 3.76503
2.58588 1.59629 3.7751
2.57496 1.59746 3.78617
2.56202 1.59758 3.79426
2.52612 1.5948 3.80758
2.51824 1.59905 3.82358
2.50429 1.59814 3.8297
2.49135 1.59827 3.83779
2.41765 1.59792 3.87836
2.38187 1.60137 3.90758
2.36589 1.59943 3.91073
2.35002 1.60269 3.92781
2.3239 1.59248 3.91215
2.32008 1.59983 3.93607
2.30614 1.59995 3.94318
2.29522 1.60112 3.95424
2.27416 1.59603 3.94748
2.26821 1.59712 3.95351
2.25831 1.59932 3.96655
2.24436 1.59942 3.97266
2.22634 1.59541 3.97085
2.22152 1.60276 3.99478
2.20554 1.60081 3.99693
2.19258 1.6009 4.00303
2.1846 1.59994 4.0051
2.17167 1.60108 4.01418
2.15364 1.59704 4.01038
2.1478 1.60337 4.03233
2.1308 1.60038 4.03251
2.11888 1.60253 4.04256
2.10594 1.60266 4.05066
2.09593 1.60064 4.04877
2.084 1.6028 4.05883
2.07512 1.60603 4.07385
2.0571 1.60301 4.07203
2.04416 1.60314 4.08012
2.02715 1.60113 4.07928
2.01421 1.60126 4.08738
2.0084 1.60862 4.11132
1.99329 1.60143 4.09753
1.98544 1.60773 4.1175
1.96844 1.60473 4.11668
1.9504 1.60068 4.11287
1.94357 1.60699 4.13383
1.92148 1.59985 4.1231
1.91552 1.60093 4.12813
1.9087 1.60827 4.15108
1.89167 1.60424 4.14827
1.87772 1.60434 4.15437
1.87192 1.61273 4.18029
1.84369 1.59932 4.1517
1.83483 1.60459 4.16969
1.82888 1.6057 4.17672
1.81085 1.60265 4.1729
1.79995 1.60485 4.18595
1.78702 1.607 4.19502
1.77511 1.60917 4.20608
1.76014 1.60824 4.21021
1.74516 1.60729 4.21333
1.73223 1.60944 4.2224
1.72117 1.60533 4.21454
1.71232 1.61063 4.23453
1.69632 1.60864 4.23468
1.68336 1.60974 4.24077
1.67453 1.61607 4.26274
1.66263 1.61826 4.2748
1.64559 1.61521 4.27097
1.63966 1.61733 4.27899
1.62672 1.61846 4.28707
1.6097 1.61644 4.28523
1.58486 1.62077 4.30635
1.56785 1.61776 4.30453
1.535 1.62107 4.32473
-0.130517 1.65507 4.5248
-0.17657 1.653 4.51818
-0.244552 1.65508 4.52066
-0.260504 1.65818 4.52673
-0.275495 1.6592 4.52783
-0.290503 1.6592 4.52694
-0.343539 1.65816 4.52236
-0.358593 1.65607 4.5155
-0.373616 1.65504 4.51263
-0.411645 1.65501 4.50892
-0.427535 1.66122 4.52295
-0.441667 1.65498 4.50614
-0.456642 1.65704 4.50923
-0.472642 1.65705 4.50935
-0.502664 1.65703 4.50657
-0.511538 1.66427 4.52253
-0.524701 1.65697 4.50174
-0.540654 1.65907 4.50783
-0.555683 1.65902 4.50394
-0.570698 1.659 4.50205
-0.585737 1.65694 4.4972
-0.602619 1.66417 4.51222
-0.609688 1.66105 4.50332
-0.622804 1.65583 4.48849
-0.653794 1.65787 4.4897
-0.666879 1.65472 4.47884
-0.684738 1.662 4.49687
-0.699768 1.66195 4.49298
-0.704938 1.65363 4.47114
-0.723736 1.66403 4.49713
-0.734014 1.6515 4.46139
-0.751874 1.65878 4.47942
-0.767864 1.66081 4.48051
-0.780941 1.65767 4.47065
-0.795972 1.65662 4.46678
-0.810994 1.65659 4.4639
-0.820869 1.66383 4.47987
-0.834937 1.66171 4.471
-0.849983 1.65963 4.46514
-0.864974 1.66165 4.46623
-0.878097 1.65643 4.4504
-0.899848 1.66992 4.48237
-0.91487 1.66988 4.47948
-0.918994 1.66365 4.4636
-0.934985 1.66568 4.4647
-0.948085 1.66149 4.45185
-0.960192 1.65729 4.43801
-0.978113 1.66246 4.44807
-0.996027 1.66763 4.45913
-1.00717 1.66136 4.4403
-1.01519 1.66133 4.43836
-1.02924 1.66024 4.43148
-1.04716 1.6654 4.44154
-1.06218 1.66538 4.43965
-1.07621 1.66532 4.43476
-1.09223 1.6653 4.43288
-1.1024 1.65798 4.41106
-1.11523 1.66732 4.43302
-1.12541 1.65997 4.40921
-1.14139 1.66201 4.4113
-1.15934 1.66613 4.41837
-1.17241 1.664 4.4095
-1.18549 1.66085 4.39864
-1.20342 1.666 4.40771
-1.21337 1.66911 4.41473
-1.2245 1.66385 4.39689
-1.24245 1.66797 4.40397
-1.25454 1.6648 4.39211
-1.27443 1.67202 4.40615
-1.28071 1.65949 4.37038
-1.30352 1.67086 4.39438
-1.30956 1.66879 4.38946
-1.32653 1.67286 4.39353
-1.33959 1.67074 4.38466
-1.35267 1.6686 4.37479
-1.36869 1.66857 4.37191
-1.38858 1.67579 4.38595
-1.40164 1.67468 4.37807
-1.42663 1.67773 4.38021
-1.44265 1.6787 4.37732
-1.45082 1.67138 4.35548
-1.49199 1.66807 4.33284
-1.57121 1.66669 4.30445
-1.58526 1.6656 4.29757
-1.59229 1.66555 4.29363
-1.62037 1.6654 4.28284
-1.65042 1.66632 4.27605
-1.71559 1.66704 4.25453
-1.74859 1.67105 4.25372
-1.77471 1.66884 4.23794
-1.79676 1.66975 4.2311
-1.85493 1.66946 4.20953
-1.86996 1.67042 4.20563
-1.93414 1.67109 4.1811
-1.9482 1.671 4.17421
-1.96912 1.67715 4.18328
-1.97122 1.67296 4.17035
-2.01435 1.67274 4.15368
-2.03135 1.67575 4.15376
-2.05031 1.67982 4.15785
-2.06141 1.67765 4.14596
-2.08248 1.67752 4.13612
-2.09457 1.67535 4.12424
-2.10665 1.67421 4.11435
-2.12661 1.6793 4.11942
-2.13868 1.67716 4.10954
-2.15174 1.67705 4.10164
-2.16368 1.68118 4.10967
-2.17479 1.67898 4.09579
-2.19079 1.68098 4.09488
-2.20188 1.67881 4.08299
-2.22383 1.68492 4.09007
-2.22802 1.67656 4.06522
-2.24306 1.6775 4.06032
-2.25598 1.68264 4.06934
-2.26412 1.67838 4.05146
-2.2831 1.68242 4.05355
-2.30799 1.69164 4.0676
-2.30824 1.68017 4.03577
-2.32328 1.68111 4.03087
-2.34226 1.68515 4.03295
-2.33941 1.67785 4.01303
-2.36826 1.69017 4.03307
-2.37836 1.68697 4.01919
-2.38355 1.67962 3.99534
-2.41239 1.69194 4.01538
-2.4225 1.68874 4.0015
-2.42372 1.67931 3.97264
-2.43666 1.68444 3.98066
-2.45366 1.68743 3.97975
-2.46476 1.68525 3.96686
-2.47684 1.68411 3.95697
-2.50075 1.69227 3.96703
-2.50692 1.68597 3.94617
-2.52985 1.6931 3.95423
-2.52503 1.68476 3.93132
-2.54007 1.6857 3.92642
-2.5709 1.69903 3.94745
-2.56619 1.68548 3.91061
-2.58714 1.69157 3.91568
-2.59726 1.68835 3.9008
-2.60834 1.6872 3.8899
-2.62448 1.68494 3.87206
-2.63458 1.68276 3.85916
-2.67059 1.68875 3.85735
-2.6787 1.68554 3.84245
-2.69978 1.68639 3.8316
-2.79924 1.68756 3.77132
-2.92186 1.68742 3.68923
-3.13693 1.69244 3.54676
-3.3341 1.69428 3.3922
-3.45882 1.69895 3.29706
-3.47701 1.69657 3.27122
-3.50299 1.70364 3.27432
-3.53111 1.7064 3.25748
-3.53136 1.69793 3.22561
-3.55336 1.70293 3.2247
-3.57536 1.70893 3.22378
-3.5795 1.70468 3.20687
-3.59951 1.70965 3.20394
-3.60167 1.70436 3.18404
-3.61664 1.70942 3.18707
-3.62574 1.70823 3.17416
-3.64079 1.71114 3.16723
-3.64493 1.70687 3.14932
-3.659 1.70775 3.14041
-3.65816 1.70242 3.11848
-3.68414 1.71047 3.12056
-3.69217 1.71143 3.1176
-3.70424 1.71229 3.10768
-3.7193 1.71419 3.09977
-3.7284 1.713 3.08685
-3.72857 1.70668 3.06494
-3.75554 1.71574 3.06801
-3.77159 1.71865 3.06109
-3.75983 1.70618 3.03018
-3.76389 1.70606 3.02221
-3.79384 1.71517 3.0283
-3.79101 1.70883 3.00537
-3.79714 1.7066 2.98945
-3.81219 1.70849 2.98153
-3.83222 1.71345 2.97761
-3.83743 1.70805 2.95073
-3.85249 1.70994 2.94281
-3.84668 1.70257 2.91787
-3.85678 1.70238 2.90495
2.79522 1.57394 3.42281
2.77924 1.57199 3.42596
2.7865 1.58349 3.45974
2.75637 1.57228 3.44413
2.7415 1.57452 3.46021
2.73361 1.57675 3.47524
2.71864 1.57482 3.47938
2.71176 1.57906 3.49537
2.69679 1.57713 3.49951
2.68283 1.57522 3.50465
2.67191 1.57637 3.51471
2.66391 1.5754 3.51579
2.65501 1.57759 3.52882
2.63519 1.58095 3.55193
2.60322 1.57605 3.55724
2.59939 1.58136 3.57819
2.5754 1.57741 3.58043
2.56751 1.58062 3.59445
2.5396 1.57882 3.60669
2.51583 1.58428 3.63679
2.49882 1.58029 3.63698
2.43611 1.5809 3.67544
2.43116 1.58199 3.68147
2.27793 1.5876 3.78355
1.55554 1.6012 4.13184
1.46105 1.61426 4.19937
1.45222 1.62159 4.22133
1.43416 1.61649 4.21354
1.4202 1.61759 4.21963
1.39823 1.61565 4.22282
-0.658715 1.66505 4.36661
-0.666715 1.66506 4.36667
-0.681714 1.66607 4.36677
-0.709821 1.66188 4.35304
-0.739796 1.66495 4.35622
-0.755756 1.66803 4.3613
-0.762763 1.66802 4.36035
-0.777801 1.66696 4.35548
-0.805869 1.66585 4.3467
-0.819914 1.66477 4.34082
-0.834905 1.6658 4.34192
-0.849928 1.66576 4.33904
-0.871957 1.66572 4.3352
-0.901002 1.66565 4.32942
-0.946022 1.66764 4.32673
-0.952052 1.66658 4.32279
-0.967059 1.66758 4.32189
-0.99708 1.66856 4.3191
-1.01403 1.67266 4.32517
-1.02517 1.6664 4.30734
-1.04307 1.67361 4.32037
-1.04621 1.66634 4.3025
-1.06316 1.67044 4.30857
-1.07431 1.66416 4.28874
-1.09223 1.66933 4.2998
-1.10625 1.6693 4.29691
-1.12321 1.67338 4.30198
-1.13531 1.6692 4.28913
-1.14328 1.67126 4.29316
-1.15636 1.66811 4.2823
-1.18541 1.66803 4.27552
-1.20139 1.67108 4.2786
-1.22752 1.66785 4.26184
-1.24038 1.67613 4.27982
-1.25248 1.67194 4.26697
-1.26942 1.67606 4.27403
-1.28054 1.67185 4.25918
-1.29847 1.67698 4.26724
-1.30959 1.67276 4.25238
-1.32559 1.67377 4.25249
-1.34761 1.67575 4.24962
-1.3636 1.67777 4.25072
-1.37959 1.6798 4.25181
-1.3907 1.6756 4.23795
-1.4028 1.67242 4.22509
-1.41489 1.66925 4.21322
-1.42386 1.6713 4.21626
-1.43789 1.67226 4.21335
-1.45193 1.67119 4.20747
-1.46401 1.66905 4.19759
-1.47903 1.67001 4.19469
-1.496 1.67308 4.19878
-1.511 1.67508 4.19786
-1.51021 1.66468 4.171
-1.53207 1.67396 4.18903
-1.54219 1.66973 4.17317
-1.55624 1.66865 4.16729
-1.57321 1.67171 4.17037
-1.58723 1.67268 4.16746
-1.59834 1.66948 4.15359
-1.6083 1.67156 4.15864
-1.62233 1.67251 4.15473
-1.63735 1.67348 4.15183
-1.65041 1.67238 4.14494
-1.66542 1.67436 4.14303
-1.6736 1.66603 4.12021
-1.69352 1.67319 4.13025
-1.69955 1.67214 4.12631
-1.70965 1.66894 4.11243
-1.72959 1.67407 4.12051
-1.74166 1.67295 4.11162
-1.75863 1.676 4.1147
-1.77071 1.67386 4.10482
-1.78574 1.67481 4.10092
-1.78785 1.67061 4.087
-1.81071 1.67988 4.10403
-1.81691 1.67151 4.0792
-1.83388 1.67557 4.08227
-1.85087 1.67859 4.08335
-1.86197 1.67541 4.07048
-1.87798 1.67741 4.06957
-1.88695 1.67946 4.07261
-1.9059 1.68456 4.07868
-1.91011 1.67516 4.05184
-1.93005 1.68128 4.05891
-1.93819 1.67602 4.04104
-1.95421 1.678 4.03913
-1.96923 1.67897 4.03623
-1.97527 1.6779 4.03129
-1.99323 1.68297 4.03535
-2.00925 1.68495 4.03344
-2.02131 1.68283 4.02456
-2.03929 1.68789 4.02763
-2.04841 1.68266 4.01177
-2.05852 1.67946 3.99789
-2.06752 1.68146 3.99793
-2.09139 1.69072 4.01397
-2.09067 1.67818 3.97815
-2.10864 1.68226 3.98223
-2.12367 1.68319 3.97732
-2.13771 1.68413 3.97241
-2.15471 1.68714 3.9725
-2.16271 1.68813 3.97154
-2.17183 1.68392 3.95667
-2.18587 1.68485 3.95176
-2.20582 1.68994 3.95684
-2.21199 1.68364 3.93598
-2.22998 1.68766 3.93705
-2.24696 1.6907 3.93914
-2.25201 1.6896 3.93219
-2.26212 1.68641 3.91831
-2.28602 1.6956 3.93036
-2.2902 1.68826 3.90749
-2.3072 1.69026 3.90659
-2.32125 1.69118 3.90068
-2.33726 1.69316 3.89877
-2.33147 1.68276 3.87188
-2.36128 1.69714 3.8959
-2.36942 1.69288 3.87802
-2.38149 1.69175 3.86912
-2.40858 1.69258 3.85631
-2.42164 1.69247 3.84841
-2.43557 1.69761 3.85744
-2.4427 1.69337 3.84056
-2.45478 1.69223 3.83066
-2.47991 1.69199 3.81385
-2.49692 1.69398 3.81195
-2.51195 1.69593 3.80804
-2.5091 1.68864 3.78912
-2.52018 1.68749 3.77822
-2.5441 1.69565 3.78828
-2.55024 1.69139 3.77039
-2.55934 1.68819 3.7565
-2.57241 1.68807 3.7476
-2.58447 1.68796 3.73969
-2.5915 1.68791 3.73575
-2.60751 1.69089 3.73382
-2.61662 1.68769 3.71994
-2.62671 1.68552 3.70804
-2.64175 1.68745 3.70313
-2.65481 1.68733 3.69423
-2.66786 1.68725 3.68832
-2.66994 1.68509 3.67737
-2.67904 1.6829 3.66447
-2.69606 1.68489 3.66257
-2.70812 1.68476 3.65366
-2.72218 1.68567 3.64675
-2.73227 1.6845 3.63484
-2.74928 1.68648 3.63294
-2.7563 1.68744 3.62998
-2.76442 1.68422 3.61509
-2.78044 1.68719 3.61216
-2.79053 1.68602 3.60025
-2.80556 1.68696 3.59535
-2.85176 1.68859 3.56867
-2.86581 1.69051 3.56275
-2.885 1.68716 3.53794
-2.89607 1.68602 3.52804
-2.91517 1.68684 3.51517
-2.94128 1.68764 3.50035
-2.95434 1.68853 3.49244
-2.96542 1.68737 3.48154
-2.97848 1.68826 3.47362
-3.00965 1.68896 3.45184
-3.02765 1.69296 3.45092
-3.03477 1.68974 3.43602
-3.04585 1.68859 3.42512
-3.05892 1.68946 3.4162
-3.07395 1.6914 3.41128
-3.08908 1.69016 3.39441
-3.10313 1.69106 3.38751
-3.11917 1.694 3.38258
-3.1253 1.69075 3.36567
-3.14133 1.69271 3.36176
-3.15042 1.69152 3.34885
-3.15942 1.69353 3.34889
-3.17546 1.69646 3.34396
-3.18257 1.69325 3.32906
-3.19266 1.69208 3.31715
-3.20374 1.69194 3.30724
-3.23086 1.69472 3.2914
-3.23986 1.69671 3.29044
-3.25491 1.69863 3.28452
-3.26004 1.69437 3.26662
-3.27706 1.69834 3.26369
-3.29112 1.69923 3.25578
-3.29426 1.69497 3.23787
-3.30832 1.69586 3.22996
-3.31237 1.69576 3.22299
-3.32939 1.69873 3.22007
-3.3385 1.69752 3.20616
-3.35057 1.6984 3.19723
-3.36164 1.69826 3.18732
-3.37669 1.70017 3.1804
-3.38479 1.69798 3.16749
-3.39976 1.70305 3.17153
-3.40587 1.70083 3.15661
-3.41498 1.69963 3.14269
-3.43101 1.70157 3.13779
-3.44506 1.70448 3.13085
-3.45317 1.70228 3.11694
-3.47317 1.70727 3.11602
-3.47632 1.703 3.0971
-3.48533 1.70497 3.09514
-3.50336 1.70893 3.09122
-3.50947 1.70571 3.07631
-3.51659 1.70349 3.06139
-3.54058 1.71052 3.06247
-3.54271 1.70626 3.04454
-3.55876 1.70917 3.03762
-3.56876 1.71217 3.03765
-3.57389 1.70893 3.02074
-3.59688 1.71496 3.02182
-3.61905 1.71565 2.99997
-3.67056 1.71168 2.93241
-3.6876 1.7156 2.92648
-3.70777 1.71527 2.90364
-3.70983 1.71316 2.89568
-3.72787 1.7181 2.89074
-3.73001 1.71282 2.87183
-3.7401 1.71265 2.85991
-3.75912 1.71762 2.85698
-3.75232 1.70923 2.83105
-3.76042 1.70804 2.81813
-3.7774 1.7141 2.82117
-3.77655 1.7088 2.80123
-3.7926 1.71171 2.79431
-3.8166 1.71871 2.79339
-3.8098 1.71034 2.76846
-3.8169 1.70913 2.75453
-3.83195 1.71104 2.74761
-3.82409 1.70478 2.73064
-3.83218 1.7036 2.71772
-3.84426 1.70546 2.70778
2.8209 1.57733 3.24754
2.80693 1.5754 3.25167
2.79095 1.57245 3.25484
2.78204 1.57462 3.26587
2.77617 1.57788 3.28287
2.76817 1.5769 3.28395
2.75522 1.576 3.29006
2.75438 1.58231 3.31098
2.73739 1.57835 3.31316
2.72545 1.57848 3.32125
2.71755 1.58167 3.33427
2.70056 1.5777 3.33545
2.69661 1.57881 3.34247
2.68871 1.58201 3.35548
2.67172 1.57803 3.35667
2.66483 1.58125 3.37067
2.65996 1.58552 3.38865
2.64195 1.58151 3.38784
2.629 1.58061 3.39396
2.62909 1.58479 3.4059
2.61311 1.58183 3.40806
2.59309 1.57682 3.40628
2.59429 1.5852 3.43216
2.57324 1.57913 3.4264
2.5613 1.57926 3.43449
2.5534 1.58145 3.44752
2.54642 1.58049 3.44959
2.53852 1.5837 3.4636
2.52861 1.58587 3.47465
2.50756 1.5788 3.46891
2.49866 1.581 3.48195
2.49177 1.58522 3.49694
2.47579 1.58226 3.4991
2.46779 1.58127 3.49918
2.45787 1.58244 3.51023
2.44896 1.58462 3.52227
2.43298 1.58167 3.52444
2.42305 1.58382 3.53448
2.40707 1.58086 3.53664
2.39117 1.58208 3.55075
2.35738 1.58551 3.57796
2.32945 1.58267 3.58821
2.24879 1.58338 3.63281
1.51658 1.60135 4.00511
1.5026 1.60141 4.00822
1.48675 1.6067 4.02726
1.47279 1.60678 4.03237
1.4588 1.60481 4.0335
1.44993 1.61108 4.05148
1.43597 1.61116 4.05658
1.41996 1.60916 4.05573
1.41008 1.61339 4.07075
1.40719 1.6186 4.08469
1.3973 1.62283 4.09971
-0.573592 1.66327 4.24998
-0.809809 1.666 4.22171
-1.06711 1.67158 4.18256
-1.07411 1.67157 4.18162
-1.0901 1.67361 4.18371
-1.13025 1.67034 4.16406
-1.19531 1.67327 4.1565
-1.20446 1.66698 4.13666
-1.23934 1.67623 4.15179
-1.26468 1.6616 4.10819
-1.44179 1.67649 4.0933
-1.46984 1.67739 4.0855
-1.48289 1.67631 4.07961
-1.49986 1.68038 4.08368
-1.51487 1.68136 4.08178
-1.52596 1.6782 4.06991
-1.55809 1.67597 4.05318
-1.57506 1.68004 4.05725
-1.59009 1.67999 4.05336
-1.61814 1.68191 4.04654
-1.62025 1.6767 4.03263
-1.63625 1.67871 4.03273
-1.64929 1.67863 4.02682
-1.66431 1.6796 4.02392
-1.69629 1.68467 4.02709
-1.70542 1.67941 4.00923
-1.71734 1.68456 4.01925
-1.73039 1.68448 4.01335
-1.74246 1.68336 4.00445
-1.75453 1.68224 3.99556
-1.76956 1.68219 3.99167
-1.78259 1.68212 3.98677
-1.7986 1.68412 3.98586
-1.80561 1.68511 3.9849
-1.81277 1.6788 3.96404
-1.82975 1.68185 3.96613
-1.84182 1.68072 3.95723
-1.85387 1.67963 3.95034
-1.86792 1.67955 3.94445
-1.88096 1.67947 3.93855
-1.88698 1.67943 3.93559
-1.92095 1.6865 3.93874
-1.93598 1.68746 3.93584
-1.94706 1.68531 3.92495
-1.9611 1.68625 3.92005
-1.97316 1.68514 3.91215
-1.98018 1.6851 3.90921
-2.00234 1.6808 3.88843
-2.01932 1.68484 3.8905
-2.03434 1.68581 3.8876
-2.04838 1.68675 3.88269
-2.06538 1.68976 3.88277
-2.06549 1.68454 3.86785
-2.0815 1.68653 3.86694
-2.09258 1.68539 3.85704
-2.11253 1.6905 3.86312
-2.11769 1.68419 3.84225
-2.13764 1.69029 3.84831
-2.14281 1.68297 3.82645
-2.15475 1.68808 3.83347
-2.17076 1.69008 3.83256
-2.19391 1.6878 3.81276
-2.21188 1.69186 3.81584
-2.21705 1.68454 3.79398
-2.22912 1.68441 3.78507
-2.246 1.69266 3.80108
-2.25509 1.68947 3.78819
-2.30631 1.68908 3.75958
-2.35544 1.69285 3.74189
-2.37048 1.69479 3.73698
-2.41161 1.69655 3.71926
-2.41665 1.69548 3.71431
-2.42673 1.69433 3.7034
-2.44078 1.69425 3.69751
-2.4829 1.69804 3.68177
-2.50099 1.69686 3.66892
-2.51601 1.69883 3.66601
-2.52611 1.69664 3.65311
-2.55321 1.69847 3.64029
-2.56329 1.69631 3.62939
-2.57042 1.69308 3.61349
-2.58238 1.69716 3.61852
-2.59048 1.69396 3.60463
-2.6075 1.69695 3.60271
-2.62669 1.69259 3.57792
-2.64171 1.69456 3.575
-2.65673 1.69751 3.57107
-2.65882 1.69435 3.56013
-2.66792 1.69216 3.54723
-2.68097 1.69207 3.54033
-2.696 1.69402 3.53641
-2.7051 1.69183 3.52351
-2.72013 1.69378 3.5196
-2.73021 1.69263 3.50869
-2.74425 1.69355 3.50278
-2.75028 1.6935 3.49883
-2.76433 1.69542 3.4929
-2.77936 1.69737 3.48899
-2.78351 1.69208 3.46909
-2.7936 1.69091 3.45719
-2.81258 1.69595 3.45925
-2.81663 1.69385 3.45231
-2.83068 1.69577 3.44639
-2.83681 1.69152 3.4295
-2.85581 1.69554 3.42958
-2.85797 1.69023 3.40867
-2.87894 1.69529 3.41176
-2.89398 1.69822 3.40683
-2.90001 1.69815 3.40187
-2.91207 1.69806 3.39496
-2.91523 1.69175 3.37408
-2.93026 1.69469 3.36915
-2.94728 1.69767 3.36723
-2.95637 1.6965 3.35531
-2.96051 1.69123 3.33742
-2.97249 1.69527 3.33945
-2.98852 1.69822 3.33553
-2.99958 1.6981 3.32661
-3.01462 1.70004 3.3217
-3.02273 1.69784 3.30779
-3.03974 1.7018 3.30486
-3.04785 1.6986 3.29096
-3.05388 1.69855 3.28701
-3.06397 1.69838 3.27509
-3.08 1.70133 3.27116
-3.08512 1.6971 3.25526
-3.09223 1.69489 3.24135
-3.11519 1.70197 3.24541
-3.1352 1.70697 3.24449
-3.13934 1.70271 3.22658
-3.14636 1.70367 3.22362
-3.15942 1.70456 3.21571
-3.16454 1.70032 3.1998
-3.17661 1.7012 3.19088
-3.19363 1.70517 3.18795
-3.19578 1.69987 3.16804
-3.21082 1.70179 3.16213
-3.22777 1.70791 3.16916
-3.22694 1.70158 3.14725
-3.23802 1.70143 3.13633
-3.25603 1.70541 3.13441
-3.2681 1.70629 3.12549
-3.27917 1.70615 3.11557
-3.29521 1.70909 3.11065
-3.29132 1.70386 3.09569
-3.3014 1.70372 3.08577
-3.31149 1.70255 3.07386
-3.31959 1.70136 3.06094
-3.34256 1.70842 3.06401
-3.35761 1.71033 3.05709
-3.35877 1.70504 3.03718
-3.37075 1.70906 3.03821
-3.38894 1.70672 3.01438
-3.402 1.70861 3.00644
-3.41803 1.71055 3.00154
-3.4311 1.71242 2.99261
-3.4382 1.71023 2.97969
-3.44324 1.71015 2.97373
-3.45134 1.70896 2.9608
-3.46241 1.70982 2.95087
-3.47448 1.7097 2.94197
-3.47364 1.70439 2.92103
-3.49068 1.70732 2.91612
-3.51168 1.71332 2.91519
-3.50977 1.70915 2.90323
-3.51986 1.70899 2.89231
-3.53392 1.71188 2.88437
-3.53605 1.70662 2.86646
-3.55209 1.71055 2.86153
-3.56814 1.71346 2.8546
-3.56432 1.70612 2.83168
-3.57631 1.70913 2.83173
-3.6216 1.71258 2.79301
-3.62871 1.71038 2.77909
-3.64674 1.71533 2.77516
-3.65079 1.71423 2.7682
-3.6569 1.71303 2.75426
-3.66699 1.71286 2.74234
-3.68204 1.71477 2.73543
-3.70121 1.71444 2.71257
-3.71832 1.71623 2.69767
-3.72741 1.71606 2.68574
-3.73452 1.71386 2.67183
-3.74062 1.71266 2.65789
-3.75469 1.71453 2.64896
-3.7608 1.71333 2.63503
-3.76392 1.7101 2.6191
-3.775 1.71094 2.60816
-3.78104 1.71087 2.60321
-3.78217 1.70762 2.58627
-3.79922 1.71053 2.57935
-3.80333 1.70831 2.56441
-3.80745 1.70609 2.54947
-3.81257 1.70386 2.53354
-3.81569 1.70062 2.51761
2.8029 1.57937 3.11463
2.79196 1.5795 3.12271
2.78709 1.58374 3.13868
2.77818 1.58492 3.15074
2.76421 1.58299 3.15487
2.75327 1.58313 3.16395
2.74738 1.58634 3.17795
2.74141 1.58641 3.18199
2.72341 1.58142 3.1822
2.71954 1.58667 3.19916
2.70759 1.58579 3.20626
2.69464 1.58488 3.21237
2.68775 1.5881 3.22638
2.66772 1.58207 3.22362
2.6678 1.58523 3.23457
2.65687 1.58537 3.24366
2.64796 1.58754 3.25469
2.63602 1.58767 3.26278
2.62609 1.58882 3.27284
2.60404 1.58074 3.26612
2.59411 1.58188 3.27518
2.59016 1.58298 3.2822
2.57619 1.58105 3.28633
2.56626 1.58219 3.29539
2.55432 1.58232 3.30348
2.54642 1.58452 3.31651
2.53548 1.58464 3.32459
2.52657 1.58683 3.33663
2.51757 1.58484 3.33673
2.50865 1.58699 3.34676
2.50581 1.5923 3.36771
2.48475 1.58621 3.36096
2.46775 1.58223 3.36114
2.4639 1.58751 3.3801
2.43981 1.57937 3.3694
2.43889 1.58253 3.38036
2.43504 1.58781 3.39931
2.41095 1.57967 3.38861
2.40811 1.58598 3.40954
2.39314 1.58404 3.41269
2.38624 1.58725 3.42669
2.36923 1.58325 3.42588
2.36833 1.58742 3.43783
2.34342 1.58664 3.45103
2.32944 1.58468 3.45316
2.30353 1.58387 3.46537
2.29664 1.5871 3.48038
2.28561 1.58403 3.4755
2.27366 1.58415 3.48259
2.26577 1.58636 3.49662
2.24976 1.58437 3.49677
2.23883 1.58451 3.50585
2.22486 1.58358 3.50997
2.21494 1.58474 3.52003
2.19601 1.58488 3.52917
2.17516 1.58719 3.5493
2.16321 1.58729 3.55539
2.1482 1.5853 3.55553
2.11835 1.58561 3.57475
1.97995 1.58988 3.65475
1.83152 1.59309 3.73083
1.73889 1.59687 3.77947
1.73393 1.59796 3.7855
1.69301 1.59616 3.79683
1.66709 1.59632 3.80703
1.65413 1.59641 3.81212
1.59834 1.59886 3.84051
1.57549 1.60316 3.85962
1.55249 1.60018 3.85984
1.5436 1.60441 3.87485
1.53371 1.60862 3.88886
1.52177 1.60975 3.89694
1.51392 1.61603 3.9159
1.49688 1.61197 3.91109
1.49194 1.61509 3.91908
1.47693 1.61208 3.91724
1.46908 1.61838 3.93721
1.451 1.61224 3.92744
1.43908 1.6154 3.93748
1.4292 1.61963 3.95249
-2.54447 1.69699 3.47322
-2.5927 1.69657 3.44259
-2.60674 1.6985 3.43766
-2.61781 1.69736 3.42776
-2.62086 1.69626 3.4208
-2.64795 1.6981 3.40897
-2.65803 1.69696 3.39907
-2.67108 1.69787 3.39215
-2.68512 1.69879 3.38624
-2.69223 1.69559 3.37234
-2.70025 1.69756 3.37037
-2.71032 1.69642 3.36046
-2.72238 1.69631 3.35255
-2.73542 1.69823 3.34662
-2.74352 1.69505 3.33373
-2.75261 1.69388 3.32181
-2.76962 1.69787 3.32088
-2.78061 1.7009 3.32192
-2.78376 1.69462 3.30303
-2.80471 1.70171 3.30809
-2.81282 1.6995 3.29418
-2.82389 1.69938 3.28526
-2.83596 1.69925 3.27636
-2.84702 1.69913 3.26744
-2.85313 1.69593 3.25353
-2.86016 1.69687 3.24957
-2.88328 1.69665 3.23374
-2.89931 1.6996 3.22982
-2.91533 1.70257 3.2269
-2.92639 1.70245 3.21798
-2.93648 1.70229 3.20706
-2.94349 1.70327 3.2051
-2.94664 1.69799 3.1862
-2.95672 1.69683 3.17529
-2.9767 1.70288 3.17735
-2.98183 1.69863 3.16045
-2.98992 1.69746 3.14852
-3.00991 1.70249 3.1496
-3.01297 1.70137 3.14164
-3.01809 1.69815 3.12672
-3.03808 1.70317 3.1268
-3.04221 1.69892 3.10989
-3.05725 1.70085 3.10498
-3.06732 1.70071 3.09505
-3.07542 1.69954 3.08313
-3.07946 1.69846 3.07717
-3.09747 1.70344 3.07524
-3.09962 1.69716 3.05634
-3.11268 1.69905 3.04841
-3.13167 1.70406 3.04848
-3.13481 1.6998 3.03057
-3.14688 1.69967 3.02166
-3.1529 1.70063 3.01869
-3.16398 1.70049 3.00877
-3.17108 1.69931 2.99584
-3.18909 1.70329 2.99392
-3.19322 1.69904 2.97701
-3.20329 1.6989 2.96709
-3.22825 1.70699 2.97215
-3.22138 1.70074 2.95519
-3.23146 1.70058 2.94427
-3.24551 1.7025 2.93835
-3.25757 1.70338 2.92942
-3.26269 1.70016 2.91451
-3.27773 1.70308 2.90858
-3.29078 1.70399 2.90166
-3.2859 1.69876 2.8867
-3.30391 1.70275 2.88478
-3.31101 1.70156 2.87184
-3.32407 1.70245 2.86393
-3.33713 1.70434 2.856
-3.34125 1.70111 2.84007
-3.35232 1.70198 2.83114
-3.35835 1.70193 2.82719
-3.36545 1.70074 2.81426
-3.38645 1.70674 2.81333
-3.38164 1.69838 2.78941
-3.39966 1.70233 2.78549
-3.41172 1.70422 2.77755
-3.4208 1.70407 2.76662
-3.42485 1.70298 2.76067
-3.43393 1.70283 2.74974
-3.44501 1.70369 2.7398
-3.46204 1.70662 2.73489
-3.46417 1.70337 2.71795
-3.47921 1.7063 2.71202
-3.48235 1.70205 2.6951
-3.50434 1.70906 2.69517
-3.50143 1.70488 2.6832
-3.51548 1.70679 2.67628
-3.52159 1.70559 2.66234
-3.5406 1.71057 2.66041
-3.54175 1.70529 2.6415
-3.55381 1.70717 2.63256
-3.56389 1.70802 2.62262
-3.56595 1.70591 2.61467
-3.58497 1.71088 2.61173
-3.58909 1.70764 2.59581
-3.59817 1.70749 2.58488
-3.61422 1.71141 2.57894
-3.6304 1.71007 2.55508
-3.66057 1.71375 2.53225
-3.7434 1.71216 2.42188
-3.75951 1.71395 2.40698
-3.76859 1.7138 2.39605
-3.78067 1.71566 2.38611
-3.78577 1.71345 2.37218
-3.7879 1.71022 2.35624
-3.80096 1.71309 2.34729
-3.79116 1.70372 2.32235
-3.80315 1.70673 2.3224
-3.79136 1.69733 2.29645
2.8336 1.58677 2.94026
2.82359 1.58376 2.93938
2.81063 1.58186 2.94551
2.80675 1.58609 2.96048
2.79076 1.58213 2.96266
2.78386 1.58532 2.97566
2.7709 1.58342 2.98179
2.75189 1.57841 2.98001
2.75096 1.58054 2.98898
2.75112 1.58785 3.00988
2.71511 1.57786 3.0093
2.71124 1.58312 3.02625
2.69929 1.58223 3.03335
2.6944 1.58544 3.04734
2.68742 1.58449 3.05041
2.67446 1.58357 3.05552
2.66251 1.58269 3.06263
2.65459 1.58386 3.07367
2.63961 1.58091 3.07683
2.6307 1.58308 3.08786
2.62985 1.58938 3.10778
2.61479 1.58327 3.09998
2.61092 1.58752 3.11695
2.602 1.58868 3.127
2.58399 1.58468 3.1262
2.57203 1.58377 3.1323
2.56816 1.58803 3.14927
2.55318 1.58507 3.15143
2.54721 1.58513 3.15547
2.54233 1.58937 3.17145
2.52432 1.58537 3.17064
2.51439 1.58551 3.17972
2.50648 1.5887 3.19173
2.49251 1.58577 3.19588
2.48156 1.58588 3.20296
2.48064 1.58903 3.21292
2.46061 1.58298 3.20916
2.45371 1.58618 3.22217
2.44378 1.58733 3.23223
2.43081 1.5864 3.23634
2.41987 1.58653 3.24442
2.4069 1.5846 3.24855
2.40498 1.58775 3.25852
2.38898 1.58376 3.2587
2.38309 1.58798 3.27368
2.36912 1.58705 3.2778
2.36223 1.59027 3.29181
2.35027 1.58936 3.29791
2.33124 1.58432 3.29413
2.33335 1.58952 3.30804
2.3204 1.58862 3.31415
2.3135 1.59183 3.32816
2.29245 1.58475 3.32142
2.28859 1.59102 3.33936
2.27056 1.58599 3.33657
2.2667 1.59125 3.35452
2.25263 1.58513 3.34572
2.24574 1.58834 3.35972
2.23277 1.58843 3.36482
2.22285 1.58958 3.37488
2.21494 1.59177 3.38691
2.20096 1.59082 3.39003
2.18597 1.58785 3.39119
2.18303 1.58997 3.39918
2.17109 1.59008 3.40627
2.15711 1.58913 3.40939
2.1482 1.59132 3.42142
2.13522 1.58937 3.42455
2.12429 1.59051 3.43362
2.10929 1.58752 3.43377
2.10839 1.59272 3.44671
2.09237 1.5887 3.44489
2.08752 1.59498 3.46383
2.07151 1.59098 3.46301
2.05551 1.58799 3.46318
2.04558 1.59013 3.47222
2.03363 1.59025 3.47931
2.02765 1.59029 3.48236
2.01772 1.59143 3.49142
2.00171 1.58742 3.48959
1.99077 1.58854 3.49766
1.98491 1.59381 3.51563
1.97295 1.59391 3.52172
1.96202 1.59605 3.53077
1.95502 1.59406 3.53085
1.93902 1.59107 3.53102
1.93011 1.59425 3.54304
1.91713 1.59331 3.54615
1.90315 1.59135 3.54829
1.89323 1.59452 3.55932
1.88128 1.59461 3.56541
1.87429 1.59363 3.56647
1.86233 1.59373 3.57256
1.84835 1.59179 3.5757
1.83742 1.59393 3.58475
1.82749 1.59507 3.59381
1.81554 1.59618 3.60088
1.80257 1.59525 3.605
1.7966 1.5953 3.60804
1.78769 1.59848 3.62006
1.77372 1.59855 3.62417
1.76176 1.59863 3.62926
1.74981 1.59875 3.63635
1.73888 1.60089 3.6454
1.72896 1.60306 3.65644
1.71993 1.60001 3.65255
1.70799 1.60112 3.65963
1.69703 1.60221 3.6657
1.6851 1.60336 3.67477
1.67417 1.6055 3.68382
1.66425 1.60765 3.69387
1.64923 1.60463 3.69202
1.64122 1.60263 3.69111
1.63235 1.60787 3.7071
1.61529 1.60278 3.70031
1.60231 1.60183 3.70342
1.59752 1.61122 3.72932
1.58045 1.60611 3.72152
1.56953 1.60827 3.73158
1.55774 1.61668 3.75854
1.54375 1.6157 3.75966
1.51986 1.61794 3.77481
1.50791 1.61904 3.78089
-1.56503 1.67915 3.79515
-1.99729 1.68595 3.62828
-2.56957 1.69683 3.32639
-2.60781 1.6954 3.2957
-2.62184 1.69734 3.29077
-2.63488 1.69827 3.28586
-2.66115 1.69276 3.25013
-2.67914 1.69779 3.25119
-2.68319 1.6967 3.24524
-2.70235 1.69439 3.22341
-2.73653 1.69406 3.19967
-2.75453 1.69907 3.19973
-2.75362 1.69489 3.18779
-2.76468 1.69478 3.17987
-2.7807 1.69775 3.17695
-2.78879 1.69658 3.16502
-2.80184 1.6975 3.15911
-2.8139 1.69839 3.15119
-2.81308 1.69005 3.1283
-2.83297 1.69925 3.14131
-2.83909 1.69604 3.12641
-2.85114 1.69694 3.11948
-2.86121 1.69681 3.11056
-2.87723 1.69977 3.10664
-2.88036 1.69552 3.08972
-2.89045 1.69436 3.07881
-2.90044 1.69738 3.07984
-2.90159 1.69109 3.05994
-2.90968 1.68892 3.04803
-2.92868 1.69493 3.04809
-2.93478 1.69174 3.03518
-2.94684 1.69263 3.02725
-2.96386 1.6966 3.02432
-2.95897 1.69038 3.00938
-2.97698 1.69437 3.00845
-2.99102 1.6973 3.00252
-2.98721 1.68794 2.97862
-3.00919 1.69498 2.98068
-3.02322 1.69692 2.97576
-3.02437 1.69164 2.95684
-3.03039 1.6926 2.95387
-3.04444 1.69452 2.94795
-3.04955 1.6913 2.93304
-3.05269 1.68704 2.91512
-3.06871 1.69 2.9122
-3.08176 1.69191 2.90526
-3.09183 1.69177 2.89534
-3.09588 1.69068 2.88939
-3.10496 1.69054 2.87946
-3.12197 1.69451 2.87653
-3.12907 1.69234 2.86461
-3.13517 1.69014 2.85069
-3.14823 1.69203 2.84276
-3.15235 1.68881 2.82783
-3.17233 1.69484 2.82889
-3.16944 1.68964 2.81595
-3.1805 1.69052 2.80702
-3.18759 1.68834 2.7951
-3.19768 1.68819 2.78418
-3.21271 1.69113 2.77925
-3.21683 1.68791 2.76432
-3.23881 1.69494 2.76538
-3.24087 1.69383 2.75841
-3.25194 1.69371 2.7495
-3.25606 1.69048 2.73358
-3.2701 1.6934 2.72764
-3.28216 1.69429 2.71971
-3.29422 1.69618 2.71178
-3.29833 1.69296 2.69685
-3.30139 1.69186 2.68989
-3.31741 1.69581 2.68595
-3.31557 1.68951 2.66603
-3.3336 1.69347 2.66211
-3.34962 1.69742 2.65817
-3.35175 1.69317 2.64124
-3.35885 1.69198 2.62831
-3.36786 1.69397 2.62735
-3.37793 1.69483 2.61741
-3.38105 1.69161 2.60248
-3.39907 1.69556 2.59856
-3.41412 1.69849 2.59263
-3.42816 1.70141 2.58669
-3.42731 1.69613 2.56776
-3.43831 1.69912 2.5668
-3.43944 1.69487 2.54987
-3.45448 1.69779 2.54394
-3.46058 1.6966 2.531
-3.47662 1.70054 2.52606
-3.4857 1.70038 2.51513
-3.49677 1.70126 2.5062
-3.49883 1.70014 2.49823
-3.51486 1.70308 2.49331
-3.52693 1.70495 2.48437
-3.53999 1.70684 2.47644
-3.53614 1.70055 2.4565
-3.55815 1.70755 2.45556
-3.55828 1.70228 2.43764
-3.57724 1.71037 2.44266
-3.57141 1.70204 2.42074
-3.59341 1.70904 2.4198
-3.59554 1.7058 2.40386
-3.60362 1.70565 2.39292
-3.61668 1.70852 2.38398
-3.62577 1.70837 2.37305
-3.64798 1.70797 2.34522
-3.66203 1.71087 2.33828
-3.67721 1.71053 2.31439
-3.67734 1.70628 2.29746
-3.68835 1.70926 2.29549
-3.69345 1.70707 2.28256
-3.70452 1.70893 2.27262
-3.70665 1.70569 2.25668
-3.71871 1.70758 2.24874
-3.73873 1.71354 2.2448
-3.74384 1.71233 2.23086
-3.74298 1.70707 2.21293
-3.74801 1.708 2.20795
-3.7541 1.70682 2.19601
-3.75921 1.70562 2.18207
-3.77824 1.71056 2.17714
-3.7734 1.70426 2.15719
-3.77154 1.69899 2.13925
-3.7856 1.70189 2.13131
-3.77372 1.69464 2.11533
2.94867 1.58291 2.68442
2.94075 1.58308 2.69548
2.92376 1.57911 2.69666
2.91584 1.58026 2.70671
2.91087 1.58034 2.71174
2.85537 1.58434 2.77711
2.84544 1.58448 2.78618
2.7918 1.58523 2.83458
2.77581 1.58227 2.83675
2.77092 1.58548 2.85074
2.762 1.58564 2.86081
2.75409 1.58782 2.87284
2.73506 1.58179 2.87007
2.72614 1.58294 2.88012
2.72824 1.58714 2.89304
2.71427 1.58521 2.89718
2.70534 1.58636 2.90723
2.6954 1.58649 2.9153
2.68345 1.58458 2.92142
2.66241 1.57753 2.91668
2.65449 1.57969 2.92771
2.64751 1.57773 2.9298
2.63454 1.57681 2.93491
2.62562 1.57697 2.94497
2.62274 1.58221 2.96092
2.60877 1.58027 2.96505
2.59985 1.58043 2.97512
2.58789 1.58053 2.98121
2.59202 1.58676 2.99709
2.57198 1.5797 2.99234
2.57114 1.58701 3.01325
2.55615 1.58405 3.0154
2.54419 1.58214 3.02052
2.53629 1.58533 3.03354
2.52938 1.58752 3.04556
2.51936 1.58449 3.04368
2.51953 1.5918 3.06457
2.49949 1.58576 3.06081
2.49056 1.5859 3.06988
2.4675 1.5778 3.06217
2.46564 1.58408 3.08109
2.45672 1.58524 3.09114
2.45378 1.58736 3.09914
2.44283 1.58645 3.10523
2.43391 1.58862 3.11627
2.41487 1.58256 3.1115
2.41405 1.5899 3.1344
2.40309 1.59 3.14048
2.39012 1.58807 3.14461
2.38415 1.58813 3.14866
2.37928 1.59337 3.16462
2.35012 1.5791 3.14505
2.35739 1.59361 3.17978
2.34037 1.58859 3.17798
2.32842 1.58769 3.18409
2.31849 1.58883 3.19315
2.31351 1.58888 3.19618
2.29548 1.58385 3.19339
2.29061 1.58809 3.20937
2.27966 1.5882 3.21645
2.26568 1.58626 3.21959
2.25677 1.58843 3.23062
2.2438 1.58749 3.23473
2.23883 1.58756 3.23877
2.22788 1.58767 3.24585
2.22099 1.59188 3.25985
2.21105 1.59202 3.26892
2.19909 1.5921 3.27401
2.18917 1.59326 3.28407
2.17114 1.58821 3.28028
2.16921 1.59135 3.28925
2.16028 1.5925 3.2993
2.14832 1.59258 3.30439
2.14043 1.5958 3.3184
2.12441 1.59178 3.31658
2.11042 1.58982 3.31872
2.10353 1.59303 3.33272
2.1006 1.59617 3.3417
2.09067 1.59731 3.35076
2.07365 1.59328 3.34795
2.06473 1.59545 3.35898
2.04973 1.59246 3.35914
2.04183 1.59565 3.37215
2.02987 1.59474 3.37726
2.01983 1.59067 3.37239
2.0099 1.59281 3.38144
2.00098 1.59498 3.39248
1.987 1.59403 3.39559
1.9791 1.59723 3.40861
1.97121 1.60045 3.42262
1.96433 1.60467 3.43761
1.95632 1.60366 3.43669
1.93826 1.59757 3.42991
1.92427 1.5946 3.43106
1.90825 1.59158 3.42923
1.90544 1.59994 3.45313
1.89043 1.59693 3.45229
1.88559 1.60425 3.47322
1.87961 1.6043 3.47626
1.86156 1.59821 3.46949
1.85367 1.60142 3.4835
1.83764 1.59839 3.48067
1.83788 1.60984 3.5115
1.81982 1.60374 3.50373
1.80379 1.59971 3.50091
1.7968 1.59873 3.50197
1.77493 1.602 3.51909
1.77009 1.60929 3.53902
1.75712 1.60836 3.54313
1.73905 1.60226 3.53536
1.73015 1.60544 3.54738
1.72315 1.60446 3.54845
1.70711 1.5994 3.54364
1.70026 1.60569 3.56261
1.68931 1.6068 3.56967
1.67737 1.60791 3.57675
1.66744 1.61006 3.58679
1.65344 1.60808 3.58693
1.64543 1.60607 3.58602
1.63653 1.61025 3.59802
1.62457 1.61033 3.60311
1.60955 1.60631 3.60128
1.59964 1.6105 3.6133
1.59075 1.61371 3.62732
-1.27608 1.67387 3.78805
-1.29009 1.67486 3.78714
-1.37426 1.67657 3.76375
-1.3943 1.67651 3.7589
-1.40636 1.6754 3.751
-1.43339 1.67736 3.74718
-1.45749 1.67618 3.73438
-1.47652 1.67612 3.72952
-1.50258 1.67702 3.7217
-1.51464 1.67592 3.71381
-1.52767 1.67588 3.71091
-1.5397 1.67581 3.706
-1.54783 1.67057 3.68913
-1.55876 1.67571 3.69814
-1.56982 1.6746 3.69024
-1.58384 1.67557 3.68733
-1.59294 1.67239 3.67544
-1.60891 1.67545 3.67852
-1.61704 1.67021 3.66166
-1.63399 1.67532 3.66871
-1.64002 1.67525 3.66375
-1.64912 1.67208 3.65187
-1.66508 1.67515 3.65594
-1.6791 1.67713 3.65402
-1.69114 1.67705 3.64811
-1.70517 1.678 3.6442
-1.72113 1.68209 3.64926
-1.71931 1.67275 3.62638
-1.73527 1.67783 3.63143
-1.74928 1.67881 3.62952
-1.75248 1.66943 3.60368
-1.77043 1.67453 3.60974
-1.78839 1.68063 3.61579
-1.79551 1.6754 3.59991
-1.80055 1.67432 3.59397
-1.82661 1.67623 3.58714
-1.8416 1.67824 3.58722
-1.85661 1.68124 3.58629
-1.86472 1.67702 3.57141
-1.89374 1.68101 3.56957
-1.92286 1.6808 3.55379
-1.93294 1.67764 3.54291
-1.94695 1.68062 3.54097
-1.96393 1.68466 3.54304
-1.96996 1.68462 3.54008
-1.97706 1.68042 3.5262
-1.99405 1.68446 3.52827
-2.00019 1.6782 3.5104
-2.01222 1.67914 3.50548
-2.0292 1.68318 3.50755
-2.0373 1.67999 3.49465
-2.0463 1.68201 3.49569
-2.06129 1.68502 3.49576
-2.07629 1.68803 3.49583
-2.08735 1.68692 3.48793
-2.09547 1.68371 3.47303
-2.10948 1.68569 3.47111
-2.12252 1.68662 3.46619
-2.12459 1.68348 3.45625
-2.13763 1.68341 3.45135
-2.14869 1.6833 3.44344
-2.16566 1.68736 3.44651
-2.17869 1.68931 3.44257
-2.20576 1.6912 3.43375
-2.20685 1.68702 3.42182
-2.23193 1.68887 3.41098
-2.24299 1.68776 3.40308
-2.25602 1.68971 3.39914
-2.26611 1.68756 3.38825
-2.29514 1.69251 3.3834
-2.30115 1.69248 3.38144
-2.31222 1.69236 3.37253
-2.33237 1.68909 3.35372
-2.3535 1.68784 3.3359
-2.37256 1.68873 3.32803
-2.38362 1.68862 3.32011
-2.4328 1.6913 3.29644
-2.45384 1.69523 3.29054
-2.46689 1.69515 3.28464
-2.49907 1.6948 3.25988
-2.5052 1.69057 3.24399
-2.52021 1.69355 3.24206
-2.52327 1.69044 3.23412
-2.53037 1.68825 3.22121
-2.54638 1.69123 3.21929
-2.55744 1.69112 3.21137
-2.56355 1.68792 3.19746
-2.57263 1.68676 3.18654
-2.58666 1.68871 3.18262
-2.5917 1.68764 3.17767
-2.60672 1.69061 3.17474
-2.6148 1.68945 3.16382
-2.63082 1.69243 3.1619
-2.63495 1.68718 3.145
-2.647 1.68809 3.13808
-2.65509 1.68592 3.12617
-2.66408 1.68894 3.12719
-2.67316 1.6878 3.11728
-2.67828 1.68356 3.10138
-2.69924 1.69064 3.10543
-2.70535 1.68744 3.09152
-2.70948 1.68219 3.07463
-2.72847 1.68822 3.07568
-2.7335 1.68816 3.07172
-2.74159 1.68599 3.05981
-2.75265 1.68588 3.0519
-2.76469 1.6878 3.04596
-2.77081 1.68458 3.03105
-2.78187 1.68447 3.02313
-2.79095 1.68331 3.01222
-2.79995 1.68532 3.01225
-2.80903 1.68418 3.00234
-2.81712 1.68301 2.99041
-2.83511 1.68803 2.99148
-2.85525 1.68677 2.97264
-2.86433 1.68661 2.96171
-2.87233 1.68862 2.96174
-2.87547 1.68335 2.94384
-2.88851 1.68527 2.93791
-2.8956 1.6831 2.926
-2.92368 1.68797 2.91613
-2.94091 1.68253 2.88534
-2.97211 1.68315 2.85856
-2.98616 1.68507 2.85264
-2.99523 1.68493 2.84271
-3.01842 1.68358 2.8179
-3.04863 1.68418 2.79011
-3.07777 1.68692 2.77129
-3.15131 1.68691 2.69983
-3.2067 1.68818 2.64823
-3.27627 1.68811 2.57274
-3.37506 1.68962 2.46845
-3.39726 1.68924 2.44162
-3.44251 1.69477 2.40787
-3.44066 1.68949 2.38893
-3.44669 1.68943 2.38498
-3.46272 1.69337 2.38004
-3.46684 1.69115 2.3651
-3.48088 1.69407 2.35916
-3.49493 1.69698 2.35223
-3.49904 1.69477 2.33829
-3.51408 1.69869 2.33234
-3.51619 1.69547 2.3174
-3.52819 1.69848 2.31745
-3.5323 1.69626 2.30251
-3.54336 1.69815 2.29457
-3.55741 1.70106 2.28763
-3.55456 1.69478 2.2687
-3.5706 1.6987 2.26276
-3.5757 1.69751 2.24981
-3.58671 1.7015 2.24884
-3.58584 1.69625 2.23191
-3.60884 1.70425 2.23096
-3.63085 1.71124 2.22902
-3.626 1.70394 2.20909
-3.63111 1.70274 2.19515
-3.6372 1.70156 2.18321
-3.64721 1.70454 2.18124
-3.6553 1.70438 2.1703
-3.65642 1.70115 2.15435
-3.66948 1.70304 2.14642
-3.67856 1.70388 2.13548
-3.68564 1.70372 2.12453
-3.68279 1.69844 2.10559
-3.69379 1.70243 2.10461
-3.69989 1.70125 2.09167
-3.70499 1.69906 2.07874
-3.71109 1.69887 2.06579
-3.72912 1.70381 2.06085
-3.7382 1.70465 2.0499
-3.73136 1.69735 2.02996
-3.73341 1.69625 2.02299
-3.7405 1.69608 2.01104
2.96459 1.57878 2.54134
2.95969 1.58098 2.55434
2.95177 1.58213 2.56439
2.93176 1.57613 2.56363
2.92088 1.57738 2.57969
2.91598 1.58057 2.59268
2.90301 1.57766 2.59783
2.89006 1.57575 2.60395
2.89121 1.58203 2.62285
2.87824 1.58012 2.62798
2.86925 1.57714 2.62909
2.86133 1.57829 2.63914
2.85239 1.57843 2.6482
2.85253 1.5847 2.66611
2.83554 1.57973 2.66731
2.83064 1.58294 2.6813
2.81264 1.57795 2.68151
2.81473 1.58211 2.69244
2.80277 1.58021 2.69856
2.79686 1.58239 2.71057
2.77886 1.5774 2.71078
2.77397 1.58061 2.72477
2.76302 1.57973 2.73187
2.74602 1.57574 2.73206
2.74912 1.57993 2.74497
2.73919 1.58007 2.75405
2.72622 1.57814 2.75817
2.72233 1.58236 2.77314
2.71138 1.58147 2.78024
2.6954 1.57752 2.78242
2.69353 1.58277 2.79936
2.68654 1.58079 2.80044
2.67862 1.58296 2.81147
2.6697 1.58411 2.82152
2.6648 1.58732 2.83551
2.64375 1.57925 2.82979
2.64088 1.5845 2.84673
2.63305 1.58882 2.86773
2.60207 1.58189 2.87107
2.6002 1.58815 2.88899
2.58118 1.58112 2.88624
2.57124 1.58125 2.89431
2.55221 1.57521 2.89055
2.56038 1.58552 2.91233
2.54034 1.57847 2.90759
2.52433 1.57448 2.90777
2.54065 1.59307 2.94838
2.51556 1.58193 2.93773
2.5026 1.58101 2.94284
2.49669 1.58319 2.95485
2.49072 1.58326 2.9589
2.4818 1.58441 2.96895
2.46983 1.58248 2.97307
2.46798 1.58978 2.99298
2.44693 1.58169 2.98626
2.438 1.58284 2.99631
2.43614 1.58911 3.01423
2.42714 1.58712 3.01433
2.41316 1.58417 3.01748
2.39816 1.58018 3.01765
2.39631 1.58747 3.03656
2.38435 1.58656 3.04266
2.36936 1.58359 3.04382
2.36448 1.58781 3.0588
2.35344 1.58376 3.05494
2.34856 1.58799 3.06992
2.33154 1.58297 3.06812
2.32767 1.58823 3.08507
2.3147 1.5863 3.0892
2.30275 1.58539 3.0953
2.29382 1.58755 3.10534
2.28885 1.5876 3.10838
2.27891 1.58874 3.11744
2.26898 1.58888 3.12651
2.26308 1.59207 3.13951
2.24505 1.58703 3.13572
2.23714 1.58921 3.14775
2.23429 1.59649 3.16666
2.21717 1.58628 3.15194
2.2125 1.60091 3.19377
2.19445 1.59483 3.18799
2.18655 1.59803 3.20101
2.09886 1.59472 3.24372
2.08386 1.59173 3.24388
2.07383 1.58768 3.24001
2.06288 1.58777 3.2461
2.05395 1.58993 3.25613
2.0501 1.59621 3.27507
2.028 1.58705 3.26337
2.0211 1.59125 3.27636
2.00915 1.59135 3.28245
2.00418 1.59141 3.28649
1.9983 1.59563 3.30147
1.98736 1.59676 3.30954
1.97336 1.59479 3.31067
1.96546 1.59798 3.32369
1.95451 1.59808 3.32977
1.94052 1.59511 3.33092
1.93252 1.59411 3.331
1.91954 1.59217 3.33412
1.91265 1.59638 3.34811
1.90373 1.59955 3.35914
1.88567 1.59244 3.35138
1.87677 1.59564 3.3644
1.86277 1.59367 3.36553
1.85374 1.59061 3.36164
1.84887 1.59587 3.37861
1.83896 1.59904 3.38964
1.82395 1.59603 3.38879
1.814 1.59615 3.39587
1.80205 1.59624 3.40196
1.79212 1.59838 3.411
1.78207 1.5943 3.40514
1.77214 1.59644 3.41418
1.76119 1.59655 3.42126
1.74822 1.59662 3.42536
1.7393 1.59878 3.4354
1.72835 1.59989 3.44246
1.71741 1.601 3.44953
1.71345 1.60209 3.45554
1.69846 1.60012 3.45669
1.69157 1.60434 3.47168
1.67961 1.60443 3.47677
1.66663 1.60347 3.47888
1.65366 1.60254 3.48299
1.64474 1.6057 3.49401
1.63278 1.60579 3.4991
1.62273 1.60169 3.49224
1.61688 1.60899 3.51218
1.60389 1.60703 3.51431
1.58582 1.60091 3.50553
1.57311 1.61347 3.54245
1.56712 1.61249 3.54351
1.54524 1.61674 3.55961
-1.46022 1.67673 3.63637
-1.49537 1.67448 3.61767
-1.52436 1.6785 3.61783
-1.53346 1.67431 3.60496
-1.56651 1.67725 3.59916
-1.6046 1.67808 3.58644
-1.62265 1.67901 3.58056
-1.63568 1.67894 3.57565
-1.65977 1.6788 3.56484
-1.67378 1.68078 3.56291
-1.69786 1.68063 3.5521
-1.72697 1.67943 3.53733
-1.75106 1.67929 3.52651
-1.76605 1.68231 3.52758
-1.77317 1.67708 3.51171
-1.80721 1.68102 3.50591
-1.83129 1.68087 3.49509
-1.84433 1.68181 3.49017
-1.85637 1.68174 3.48526
-1.85845 1.6786 3.47532
-1.87247 1.67956 3.47242
-1.88746 1.68359 3.47347
-1.93169 1.67916 3.44286
-1.95467 1.68521 3.44495
-1.96474 1.68308 3.43605
-1.97778 1.68402 3.43114
-2.03098 1.68465 3.40452
-2.32516 1.68951 3.24765
-2.3283 1.68425 3.22975
-2.34628 1.68829 3.23182
-2.35734 1.68818 3.22391
-2.36346 1.68396 3.20901
-2.38439 1.6921 3.21705
-2.38457 1.68376 3.19417
-2.39455 1.68779 3.19619
-2.40758 1.68874 3.19227
-2.41864 1.68863 3.18436
-2.43563 1.69366 3.18541
-2.44471 1.69152 3.17551
-2.45792 1.68511 3.1477
-2.47401 1.68495 3.13582
-2.49001 1.68896 3.13588
-2.49613 1.68474 3.12099
-2.50818 1.68565 3.11407
-2.52417 1.68966 3.11413
-2.53028 1.68646 3.10022
-2.53729 1.68745 3.09926
-2.54539 1.68526 3.08635
-2.56435 1.69133 3.0904
-2.57245 1.68915 3.07749
