-2.39326 1.69123 4.16748
-2.41915 1.70045 4.18154
-2.43419 1.70038 4.17566
-2.45121 1.70234 4.17275
-2.47538 1.70004 4.15097
-2.50238 1.70406 4.15111
-2.53149 1.70485 4.13632
-2.56059 1.70567 4.12252
-2.57662 1.70762 4.11861
-2.59068 1.70751 4.11072
-2.62386 1.70618 4.08699
-2.66406 1.70483 4.06131
-2.68108 1.70779 4.05839
-2.67922 1.70053 4.04048
-2.69723 1.70351 4.03857
-2.71425 1.70648 4.03566
-2.73226 1.70946 4.03375
-2.7394 1.7052 4.01586
-2.76456 1.70291 3.99508
-2.77159 1.70285 3.99113
-2.77873 1.69859 3.97325
-2.80564 1.70777 3.98432
-2.80586 1.69834 3.95546
-2.83475 1.70857 3.96952
-2.83793 1.70122 3.94565
-2.86089 1.70831 3.95072
-2.85111 1.69689 3.92281
-2.87308 1.70295 3.92589
-2.88121 1.6987 3.90901
-2.9101 1.70993 3.92306
-2.91921 1.70672 3.90818
-2.93426 1.70764 3.90228
-2.9503 1.70956 3.89637
-2.95832 1.71054 3.89441
-2.95952 1.70315 3.86853
-2.99337 1.71546 3.88761
-2.9916 1.706 3.85673
-2.99873 1.70275 3.83983
-3.02268 1.70886 3.84592
-3.02388 1.70147 3.82003
-3.03685 1.70554 3.82407
-3.06379 1.71368 3.83215
-3.06201 1.70425 3.80328
-3.0929 1.71548 3.81734
-3.09507 1.70914 3.79445
-3.1042 1.70591 3.77857
-3.1133 1.70371 3.76467
-3.14221 1.71389 3.77573
-3.13439 1.70555 3.7528
-3.15538 1.70958 3.75389
-3.15855 1.70425 3.73199
-3.17856 1.70824 3.73009
-3.18668 1.70502 3.71519
-3.21162 1.71313 3.72126
-3.21679 1.70782 3.70038
-3.21985 1.70671 3.69241
-3.23391 1.70658 3.68352
-3.24798 1.70746 3.67461
-3.26402 1.7094 3.6697
-3.28601 1.71443 3.67079
-3.2862 1.70806 3.64589
-3.30719 1.71207 3.64599
-3.30927 1.70993 3.63603
-3.32731 1.71287 3.63112
-3.33145 1.70859 3.61222
-3.35741 1.71568 3.61731
-3.35166 1.7052 3.58541
-3.3677 1.70713 3.57951
-3.37581 1.70491 3.5646
-3.39176 1.71101 3.57063
-3.41277 1.71501 3.56973
-3.43377 1.72001 3.56881
-3.43099 1.71159 3.54091
-3.44307 1.71144 3.53
-3.45614 1.71232 3.52109
-3.46028 1.70804 3.50218
-3.48319 1.71623 3.51423
-3.4913 1.71401 3.49932
-3.5234 1.71885 3.48649
-3.53449 1.71768 3.47459
-3.54855 1.71955 3.46567
-3.56866 1.72036 3.45181
-3.5857 1.72328 3.44589
-3.59481 1.72208 3.43197
-3.61582 1.72607 3.43007
-3.62294 1.72384 3.41416
-3.65008 1.72557 3.39533
-3.9381 1.73078 3.12739
-3.94025 1.72649 3.10747
-3.93645 1.71912 3.08254
-3.93562 1.71379 3.06061
-3.94364 1.71474 3.05666
2.28418 1.59914 3.95158
-0.00159804 1.65091 4.51611
-0.00964424 1.64883 4.5102
-0.0245735 1.65297 4.51925
-0.0395731 1.65298 4.51936
-0.0546041 1.65094 4.51551
-0.070549 1.65405 4.52258
-0.100571 1.65303 4.51982
-0.107703 1.64678 4.50297
-0.122703 1.64679 4.50308
-0.138609 1.65198 4.51512
-0.152694 1.64783 4.50429
-0.168569 1.65408 4.52032
-0.18363 1.65097 4.51248
-0.199521 1.65719 4.52651
-0.206614 1.65302 4.51462
-0.221644 1.65097 4.51076
-0.236682 1.64991 4.50589
-0.251713 1.64786 4.50204
-0.282556 1.65718 4.52213
-0.297602 1.6551 4.51628
-0.305609 1.65509 4.51534
-0.319648 1.65303 4.51047
-0.335655 1.65302 4.50959
-0.3647 1.65195 4.50383
-0.381552 1.65925 4.52285
-0.397543 1.66027 4.52395
-0.404582 1.6592 4.51902
-0.418643 1.6561 4.51117
-0.448711 1.65399 4.50243
-0.463749 1.65292 4.49756
-0.477795 1.65084 4.49169
-0.495632 1.65917 4.51271
-0.499879 1.6477 4.4809
-0.517677 1.65809 4.50689
-0.529878 1.64872 4.48112
-0.545862 1.64976 4.48322
-0.560829 1.65283 4.48729
-0.575875 1.65075 4.48143
-0.59182 1.65487 4.48849
-0.599812 1.65489 4.48955
-0.612912 1.65071 4.47671
-0.643926 1.6517 4.47493
-0.658932 1.65269 4.47403
-0.673001 1.64957 4.46518
-0.690876 1.65682 4.48121
-0.695984 1.65162 4.46732
-0.71196 1.65367 4.47041
-0.72792 1.65676 4.47549
-0.747733 1.66613 4.4995
-0.756042 1.65254 4.45976
-0.772956 1.65672 4.47083
-0.787033 1.65458 4.46096
-0.79504 1.65457 4.46002
-0.809094 1.65248 4.45316
-0.825038 1.65659 4.46022
-0.856067 1.65656 4.45645
-0.871089 1.65652 4.45357
-0.884166 1.65438 4.4437
-0.900141 1.65644 4.44679
-0.906195 1.65434 4.43986
-0.940115 1.66051 4.45003
-0.995065 1.66664 4.45635
-1.03628 1.65926 4.42877
-1.09637 1.66012 4.41721
-1.11841 1.66005 4.41137
-1.13536 1.66315 4.41745
-1.19545 1.66502 4.40588
-1.20054 1.66086 4.39498
-1.21848 1.66498 4.40205
-1.24559 1.66277 4.38729
-1.27465 1.66268 4.37951
-1.31465 1.6667 4.37975
-1.32675 1.66252 4.3669
-1.34569 1.66765 4.37497
-1.36655 1.67593 4.393
-1.37767 1.67171 4.37715
-1.39466 1.67373 4.37825
-1.39678 1.6685 4.36234
-1.40987 1.66533 4.35048
-1.42586 1.66736 4.35157
-1.43893 1.66625 4.34369
-2.44666 1.68651 3.98193
-2.47673 1.6894 3.97311
-2.49276 1.69034 3.96822
-2.49891 1.68606 3.94932
-2.52097 1.68695 3.94048
-2.537 1.68891 3.93757
-2.57004 1.69283 3.93076
-2.61033 1.6883 3.89312
-2.64041 1.69116 3.8823
-3.55726 1.70821 3.23987
-3.58241 1.70894 3.22005
-3.61351 1.71375 3.20621
-3.60863 1.70851 3.19025
-3.62865 1.71349 3.18832
-3.62981 1.70818 3.16741
-3.65082 1.71317 3.16549
-3.65198 1.70786 3.14458
-3.68192 1.71698 3.15167
-3.69003 1.71577 3.13675
-3.69905 1.71775 3.13478
-3.71212 1.71861 3.12487
-3.72221 1.71844 3.11294
-3.75018 1.7265 3.11604
-3.76242 1.72205 3.08519
-3.78046 1.72497 3.07928
-3.79048 1.72795 3.07731
-3.7807 1.71752 3.04839
-3.78881 1.71532 3.03448
-3.81778 1.72438 3.03757
-3.81892 1.7201 3.01864
-3.82704 1.71888 3.00371
-3.84309 1.72179 2.99679
-3.84217 1.71863 2.98583
-3.86816 1.72666 2.98691
-3.88024 1.72651 2.976
-3.88338 1.72324 2.95807
-3.86665 1.70971 2.92314
-3.8817 1.71162 2.91622
2.85792 1.57638 3.38451
2.83183 1.56724 3.37384
2.82596 1.5715 3.39083
2.821 1.57159 3.39686
2.80603 1.56966 3.401
2.78418 1.57096 3.42015
2.77021 1.57004 3.42527
2.76637 1.57434 3.44524
2.75443 1.57447 3.45333
2.74139 1.5704 3.44849
2.73653 1.57467 3.46646
2.72662 1.57686 3.47851
2.71468 1.57698 3.4866
2.70173 1.5761 3.49371
2.68575 1.57314 3.49587
2.68191 1.57945 3.51681
2.68402 1.58467 3.53172
2.664 1.57964 3.52894
2.647 1.57567 3.53013
2.63911 1.57888 3.54415
2.62414 1.57695 3.54829
2.61322 1.57811 3.55835
2.60836 1.58339 3.57731
2.59228 1.57626 3.56754
2.58035 1.57639 3.57563
2.56941 1.57753 3.5847
2.55647 1.57765 3.59279
2.54555 1.57881 3.60286
2.53766 1.58202 3.61687
2.51966 1.57804 3.61707
2.51267 1.57707 3.61914
2.5068 1.58233 3.6361
2.48678 1.5773 3.63333
2.48192 1.58258 3.65229
2.46492 1.5786 3.65248
2.43801 1.57779 3.66469
2.43205 1.57787 3.66974
2.42011 1.578 3.67783
2.40615 1.57808 3.68293
2.39623 1.57925 3.69399
2.38025 1.57731 3.69714
2.37339 1.58156 3.71413
2.35943 1.58066 3.72025
2.33746 1.57874 3.72445
2.32654 1.5799 3.73451
2.29963 1.57911 3.74773
2.28668 1.57921 3.75382
2.26979 1.58144 3.76892
2.25786 1.58158 3.77801
2.22105 1.58396 3.80226
2.1921 1.58109 3.80952
2.18715 1.5822 3.81654
2.16429 1.58548 3.83467
2.1483 1.58252 3.83683
2.13357 1.59205 3.8718
2.11149 1.58592 3.86206
2.09461 1.58815 3.87716
2.08471 1.59035 3.8902
2.06464 1.58423 3.88144
2.05881 1.59056 3.90339
2.05196 1.59686 3.92335
2.02491 1.59079 3.91765
2.0069 1.58678 3.91584
1.99293 1.58685 3.91995
1.9932 1.59836 3.95478
1.97211 1.59122 3.94404
1.95611 1.58923 3.94419
1.94519 1.5914 3.95524
1.94737 1.59974 3.97811
1.9273 1.59362 3.96935
1.9164 1.59682 3.98238
1.90447 1.59796 3.99146
1.88541 1.59186 3.98369
1.87552 1.59609 3.99871
1.86971 1.60345 4.02264
1.86068 1.60139 4.01874
1.84571 1.60046 4.02287
1.83582 1.60369 4.0379
1.82593 1.60791 4.05191
1.80891 1.60388 4.0491
1.80004 1.60915 4.06709
1.78097 1.60403 4.05831
1.77094 1.60098 4.05443
1.76515 1.60938 4.08135
1.74607 1.60323 4.07059
1.73211 1.60333 4.07669
1.7212 1.60652 4.08873
1.70724 1.6066 4.09383
1.69328 1.60668 4.09894
1.67848 1.61408 4.12494
1.66552 1.61416 4.13004
1.65054 1.61322 4.13317
1.63556 1.61226 4.13529
1.62262 1.61339 4.14338
1.58975 1.61568 4.16159
0.126375 1.64977 4.51216
-0.164568 1.65611 4.38724
-0.334554 1.66024 4.38946
-0.349561 1.66024 4.38857
-0.371575 1.66023 4.38674
-0.385582 1.66022 4.38584
-0.399652 1.6571 4.377
-0.414643 1.65812 4.37809
-0.429673 1.65708 4.37422
-0.445579 1.66226 4.38627
-0.466702 1.65704 4.3705
-0.482593 1.66326 4.38453
-0.496646 1.66117 4.37767
-0.509746 1.65699 4.36483
-0.539714 1.66007 4.36901
-0.546768 1.65697 4.3621
-0.56272 1.66007 4.36818
-0.577704 1.66211 4.37026
-0.590812 1.65691 4.35644
-0.606725 1.66209 4.36748
-0.62174 1.66207 4.36559
-0.634863 1.65684 4.34977
-0.651754 1.66306 4.3638
-0.656846 1.65889 4.3519
-0.670907 1.65678 4.34404
-0.685883 1.65883 4.34712
-0.700913 1.65778 4.34325
-0.718772 1.66606 4.36127
-0.730919 1.65979 4.34245
-0.737942 1.65875 4.33952
-0.753871 1.6629 4.34857
-0.766018 1.65662 4.32976
-0.782924 1.66181 4.34181
-0.796016 1.65865 4.32995
-0.812929 1.66382 4.341
-0.825037 1.65962 4.32716
-0.842904 1.66689 4.34419
-0.847051 1.65961 4.32532
-0.863019 1.66268 4.3294
-0.877064 1.6616 4.32352
-0.892063 1.66261 4.32362
-0.907054 1.66464 4.3247
-0.920162 1.65944 4.31087
-0.935138 1.6615 4.31396
-0.943153 1.66147 4.31202
-0.958128 1.66453 4.31508
-0.971212 1.66137 4.30423
-0.985234 1.66134 4.30133
-0.999303 1.65922 4.29247
-1.01814 1.66854 4.31348
-1.02832 1.66019 4.28967
-1.03826 1.66432 4.29769
-1.05131 1.66222 4.29082
-1.06633 1.66321 4.28892
-1.08037 1.66214 4.28404
-1.09635 1.66418 4.28613
-1.11231 1.66827 4.29119
-1.12345 1.66201 4.27336
-1.13629 1.67132 4.29332
-1.14355 1.65883 4.26056
-1.16241 1.6671 4.27758
-1.1755 1.66394 4.26672
-1.19437 1.67219 4.28275
-1.2026 1.66177 4.25396
-1.22245 1.67107 4.27297
-1.2256 1.66377 4.2531
-1.24253 1.66892 4.26216
-1.25562 1.66575 4.2503
-1.26866 1.66569 4.2454
-1.28757 1.67188 4.25745
-1.29773 1.66557 4.23662
-1.31566 1.67072 4.24568
-1.32072 1.66761 4.23776
-1.33769 1.67066 4.24084
-1.35756 1.67993 4.25786
-1.37064 1.67677 4.247
-1.37979 1.6705 4.22816
-1.39188 1.66733 4.2163
-1.4069 1.66831 4.2144
-1.41783 1.67244 4.22242
-1.426 1.66512 4.20059
-1.45407 1.66501 4.1918
-1.65647 1.67135 4.13922
-1.77382 1.67074 4.09311
-1.81481 1.67577 4.09334
-1.84093 1.67456 4.07755
-1.92922 1.67404 4.03922
-1.97837 1.67478 4.01958
-2.03452 1.67653 3.99997
-2.0515 1.67957 4.00206
-2.09672 1.67717 3.97343
-2.1307 1.68422 3.97558
-2.13786 1.67793 3.95572
-2.14882 1.68202 3.96075
-2.15991 1.67885 3.94888
-2.17197 1.67872 3.93997
-2.20005 1.67959 3.93017
-2.21606 1.68158 3.92826
-2.22813 1.68145 3.91935
-2.23909 1.68453 3.92439
-2.25117 1.68338 3.91349
-2.28418 1.68839 3.91267
-2.31129 1.68819 3.89787
-2.32336 1.68806 3.88896
-2.32347 1.68284 3.87404
-2.34342 1.68794 3.88011
-2.35255 1.68471 3.86423
-2.36362 1.68257 3.85434
-2.38556 1.68969 3.8614
-2.39861 1.68961 3.8555
-2.40575 1.68534 3.83662
-2.41672 1.6884 3.84065
-2.43077 1.68932 3.83475
-2.44383 1.68922 3.82684
-2.45392 1.68703 3.81395
-2.47191 1.69006 3.81504
-2.48201 1.68787 3.80215
-2.49506 1.68879 3.79623
-2.50308 1.68876 3.79329
-2.51416 1.6876 3.78239
-2.5282 1.68854 3.77748
-2.53928 1.68738 3.76658
-2.55234 1.68727 3.75868
-2.57648 1.68602 3.74088
-2.58844 1.69111 3.74589
-3.2479 1.69773 3.2877
-3.38779 1.70007 3.16971
-3.40383 1.70201 3.1648
-3.41292 1.70184 3.15287
-3.42301 1.70066 3.14096
-3.43309 1.70051 3.13003
-3.48312 1.71247 3.12523
-3.4803 1.70511 3.10132
-3.49734 1.70905 3.09639
-3.51338 1.71097 3.09048
-3.51354 1.70566 3.06956
-3.52859 1.70757 3.06264
-3.55356 1.71563 3.06571
-3.54671 1.70836 3.04776
-3.55878 1.70922 3.03784
-3.58375 1.71728 3.04091
-3.58887 1.71405 3.02499
-3.60591 1.71799 3.02006
-3.63105 1.71973 3.00122
-3.63412 1.7176 2.99228
-3.65528 1.7183 2.97142
-3.66637 1.71813 2.95951
-3.68952 1.71884 2.93867
-3.70259 1.72071 2.92974
-3.71459 1.72372 2.92978
-3.72169 1.72252 2.91585
-3.72582 1.71927 2.89893
-3.74783 1.72526 2.89701
-3.74203 1.71688 2.87208
-3.75907 1.71981 2.86617
-3.76617 1.7186 2.85224
-3.76327 1.71542 2.84026
-3.77037 1.71322 2.82635
-3.7904 1.71818 2.82242
-3.78459 1.7098 2.7975
-3.81073 1.71355 2.77964
2.84863 1.57386 3.2136
2.8467 1.57599 3.22258
2.83374 1.57509 3.22869
2.82483 1.57626 3.23974
2.81289 1.5764 3.24883
2.80297 1.57756 3.25889
2.79103 1.57669 3.267
2.77707 1.57577 3.27211
2.77917 1.57996 3.28504
2.76521 1.57806 3.29117
2.75126 1.57716 3.29729
2.74336 1.57936 3.31032
2.72939 1.57743 3.31446
2.71644 1.57654 3.32157
2.71258 1.58182 3.34052
2.70054 1.57776 3.33567
2.69062 1.57891 3.34573
2.68172 1.58111 3.35877
2.66473 1.57714 3.35995
2.65884 1.58137 3.37494
2.65196 1.58459 3.38994
2.63597 1.58163 3.39211
2.63 1.5817 3.39615
2.61806 1.58183 3.40424
2.60107 1.57785 3.40543
2.59518 1.58208 3.42041
2.59234 1.58739 3.44136
2.5713 1.58233 3.43659
2.55633 1.5804 3.44073
2.56148 1.58768 3.45959
2.53841 1.57956 3.45088
2.52647 1.57969 3.45897
2.52262 1.58599 3.47891
2.50157 1.57892 3.47317
2.49166 1.58109 3.48422
2.4868 1.58637 3.50318
2.47273 1.58025 3.49437
2.46282 1.58142 3.50543
2.45796 1.58669 3.52339
2.43691 1.58062 3.51764
2.428 1.5828 3.52968
2.42011 1.58601 3.54369
2.40311 1.58203 3.54388
2.39308 1.57999 3.54098
2.38317 1.58116 3.55204
2.3692 1.58024 3.55716
2.35119 1.57623 3.55536
2.34734 1.58253 3.57529
2.33033 1.57852 3.57448
2.32042 1.58069 3.58553
2.3185 1.58386 3.59649
2.29846 1.5778 3.59173
2.29056 1.581 3.60475
2.28065 1.58318 3.61679
2.26364 1.58018 3.61596
2.25271 1.58132 3.62503
2.24787 1.58662 3.64499
2.23379 1.58148 3.63517
2.21092 1.58275 3.65233
2.20101 1.58493 3.66437
2.18197 1.57988 3.65959
2.17306 1.58206 3.67163
2.1591 1.58214 3.67673
2.14119 1.58233 3.68887
2.13634 1.58863 3.70881
2.1173 1.58357 3.70403
2.11044 1.58884 3.72201
2.09545 1.58687 3.72315
2.08046 1.58491 3.72529
2.07246 1.58292 3.72538
2.06358 1.58715 3.74039
2.0397 1.5884 3.75655
2.02471 1.58643 3.75769
2.00285 1.58972 3.77681
1.97987 1.58678 3.78003
1.97098 1.591 3.79403
1.95396 1.58698 3.79222
1.9161 1.58727 3.8105
1.91116 1.5894 3.81851
1.88422 1.58853 3.82673
1.87229 1.58968 3.8358
1.86543 1.59495 3.85378
1.8474 1.5909 3.84997
1.83444 1.59099 3.85507
1.83051 1.59414 3.86506
1.81653 1.59218 3.86719
1.80664 1.59639 3.8812
1.79267 1.59546 3.88532
1.78174 1.5976 3.89438
1.76879 1.59771 3.90147
1.75583 1.59781 3.90757
1.74987 1.59888 3.9116
1.7359 1.59794 3.91572
1.72804 1.60423 3.93469
1.71407 1.6033 3.93881
1.69907 1.60131 3.93895
1.68509 1.60037 3.94207
1.67419 1.60355 3.95411
1.66923 1.60564 3.96011
1.65323 1.60366 3.96026
1.64639 1.60997 3.98122
1.63345 1.61108 3.98831
1.61947 1.61014 3.99143
1.60347 1.60815 3.99158
1.59459 1.61238 4.00658
1.58862 1.61346 4.01161
1.5716 1.61043 4.00879
1.56272 1.61467 4.02479
1.54876 1.61475 4.0299
-0.0985504 1.65313 4.25677
-0.16351 1.65525 4.26223
-0.399576 1.65828 4.25396
-0.429544 1.66136 4.25814
-0.443551 1.66135 4.25725
-0.499641 1.65822 4.24571
-0.507602 1.6613 4.25073
-0.5366 1.66232 4.25093
-0.551599 1.66333 4.25103
-0.563731 1.65709 4.23421
-0.616634 1.6643 4.24651
-0.644664 1.66426 4.24272
-0.658725 1.66215 4.23485
-0.671786 1.66005 4.22698
-0.686746 1.66313 4.23205
-0.693769 1.66209 4.22912
-0.707784 1.66207 4.22722
-0.721814 1.66102 4.22334
-0.737743 1.66617 4.23239
-0.750851 1.66097 4.21856
-0.765811 1.66405 4.22363
-0.778888 1.66092 4.21377
-0.801847 1.66501 4.21889
-0.814924 1.66187 4.20903
-0.832798 1.66912 4.22506
-0.843914 1.6639 4.21022
-0.860835 1.66906 4.22027
-0.871974 1.66281 4.20245
-0.880927 1.6659 4.20847
-0.894949 1.66587 4.20557
-0.907041 1.6627 4.19371
-0.924923 1.66993 4.20874
-0.937016 1.66576 4.19689
-0.952983 1.66883 4.20097
-0.967021 1.66877 4.19607
-0.974989 1.67084 4.2001
-0.98805 1.66873 4.19223
-1.00112 1.6656 4.18337
-1.01319 1.66348 4.1745
-1.02819 1.66447 4.17359
-1.04222 1.66443 4.1697
-1.05722 1.66545 4.1708
-1.06423 1.66543 4.16885
-1.07824 1.66641 4.16694
-1.09034 1.66224 4.15509
-1.10921 1.67049 4.17111
-1.11937 1.6642 4.15128
-1.13922 1.67348 4.1693
-1.14936 1.66722 4.15146
-1.1554 1.66515 4.14654
-1.17136 1.66924 4.1516
-1.18441 1.66814 4.14471
-1.19844 1.66809 4.14082
-1.21929 1.67739 4.15984
-1.23136 1.67527 4.15096
-1.24149 1.67002 4.13411
-1.24851 1.67 4.13217
-1.26351 1.67101 4.13226
-1.27851 1.673 4.13135
-1.29351 1.67402 4.13145
-1.30853 1.67498 4.12854
-1.32548 1.6791 4.13561
-1.3395 1.68006 4.1327
-1.36152 1.68103 4.12985
-1.37361 1.67788 4.11899
-1.38861 1.67988 4.11807
-1.39287 1.66739 4.08529
-1.41276 1.6756 4.09832
-1.42386 1.67141 4.08546
-1.42891 1.66933 4.07953
-1.44393 1.6703 4.07663
-1.45796 1.67025 4.07273
-1.46905 1.66708 4.06086
-1.48111 1.66597 4.05297
-1.50199 1.67522 4.06899
-1.52402 1.67618 4.06514
-1.53413 1.67196 4.05028
-1.54815 1.67193 4.04738
-1.55926 1.66873 4.03351
-1.5723 1.66866 4.02861
-1.58437 1.66652 4.01873
-1.61325 1.67678 4.0348
-1.62238 1.67154 4.01794
-1.63445 1.66941 4.00907
-1.66448 1.67136 4.00426
-1.67948 1.67437 4.00433
-1.6994 1.68053 4.01439
-1.69465 1.66806 3.98254
-1.71161 1.67214 3.9876
-1.72662 1.67412 3.98569
-1.73968 1.67302 3.9778
-1.75273 1.67192 3.97091
-1.78079 1.67382 3.9631
-1.80479 1.67684 3.96323
-1.82597 1.67152 3.94047
-1.86091 1.67964 3.94761
-1.87901 1.67745 3.93378
-1.88615 1.67219 3.91591
-1.90412 1.67626 3.91998
-1.91422 1.67308 3.90711
-1.9312 1.67712 3.90917
-1.9413 1.67393 3.89629
-1.95731 1.67593 3.89539
-1.96431 1.67692 3.89442
-1.97933 1.67789 3.89152
-1.99337 1.67882 3.88661
-2.00642 1.67874 3.88071
-2.02439 1.6828 3.88379
-2.0404 1.6858 3.88286
-2.04655 1.67951 3.863
-2.04863 1.67534 3.85208
-2.06563 1.67836 3.85216
-2.07967 1.67929 3.84725
-2.0937 1.68024 3.84334
-2.11266 1.68533 3.84841
-2.12177 1.68212 3.83352
-2.13875 1.68516 3.83561
-2.14381 1.68406 3.82866
-2.15587 1.68295 3.82077
-2.16301 1.67767 3.8019
-2.18689 1.68791 3.81693
-2.19602 1.68368 3.80106
-2.20905 1.68462 3.79614
-2.22606 1.68761 3.79522
-2.22914 1.68447 3.78529
-2.24909 1.68957 3.79137
-2.26312 1.69152 3.78744
-2.27617 1.69143 3.78054
-2.28035 1.68409 3.75768
-2.29141 1.68297 3.74878
-2.3094 1.68699 3.74985
-2.31741 1.68798 3.7489
-2.33045 1.6889 3.74298
-2.34548 1.68986 3.73908
-2.35755 1.68873 3.73019
-2.3696 1.68864 3.72328
-2.3797 1.68645 3.71039
-2.39177 1.68633 3.70148
-2.4057 1.69147 3.71051
-2.42467 1.69653 3.71358
-2.43081 1.69127 3.6957
-2.43892 1.68807 3.6818
-2.4668 1.69931 3.69685
-2.46897 1.69197 3.67397
-2.48895 1.69703 3.67705
-2.48905 1.69283 3.66411
-2.50111 1.69272 3.6562
-2.51317 1.69262 3.64829
-2.53413 1.69869 3.65236
-2.53631 1.69035 3.6295
-2.54739 1.69021 3.61958
-2.56736 1.69527 3.62266
-2.57043 1.69314 3.61371
-2.58249 1.69303 3.6058
-2.58961 1.6888 3.58992
-2.60662 1.69279 3.58899
-2.61374 1.68856 3.5731
-2.62878 1.6895 3.5682
-2.65072 1.69762 3.57524
-2.64687 1.68932 3.55534
-2.65497 1.68715 3.54343
-2.72429 1.68856 3.50092
-2.75039 1.69037 3.48709
-2.76048 1.6882 3.4752
-2.79667 1.68886 3.45046
-2.80667 1.69087 3.4505
-2.83889 1.68945 3.42076
-2.86698 1.69229 3.40893
-2.87806 1.69113 3.39803
-2.88805 1.69417 3.40006
-2.89615 1.69197 3.38615
-2.91929 1.69172 3.36833
-2.93432 1.69366 3.36341
-2.95647 1.69238 3.34359
-2.97952 1.69629 3.33671
-2.98564 1.69307 3.3218
-2.9987 1.69396 3.31388
-3.01374 1.69588 3.30797
-3.02481 1.69576 3.29905
-3.03886 1.69667 3.29214
-3.04192 1.69555 3.28418
-3.05795 1.6985 3.28026
-3.06803 1.69735 3.26935
-3.08307 1.69928 3.26443
-3.09117 1.6981 3.25151
-3.12125 1.70196 3.24068
-3.11539 1.69569 3.22273
-3.12845 1.69558 3.21482
-3.1415 1.69748 3.20789
-3.15257 1.69734 3.19798
-3.15968 1.69514 3.18406
-3.18563 1.70325 3.19014
-3.18778 1.69795 3.17023
-3.21183 1.70287 3.16334
-3.22488 1.70377 3.15642
-3.22604 1.69746 3.13552
-3.25612 1.70232 3.12467
-3.2672 1.70217 3.11376
-3.27026 1.70106 3.1068
-3.29125 1.70708 3.10687
-3.29142 1.70077 3.08596
-3.32448 1.70666 3.07712
-3.32266 1.70032 3.05419
-3.34465 1.70633 3.05427
-3.35167 1.70731 3.05231
-3.35084 1.70097 3.02939
-3.35894 1.69878 3.01649
-3.38391 1.70686 3.02055
-3.393 1.70569 3.00864
-3.39911 1.70347 2.99372
-3.41217 1.70536 2.98579
-3.41721 1.70529 2.98082
-3.43126 1.7072 2.9739
-3.44432 1.70807 2.96498
-3.45441 1.70792 2.95406
-3.46647 1.70879 2.94514
-3.48053 1.71068 2.93721
-3.4926 1.71156 2.92829
-3.49565 1.71046 2.92133
-3.50773 1.71132 2.91141
-3.52178 1.71323 2.90448
-3.52292 1.70895 2.88555
-3.54294 1.71393 2.88363
-3.54309 1.70863 2.86371
-3.55516 1.70849 2.8538
-3.57418 1.71446 2.85085
-3.57923 1.71438 2.84489
-3.57839 1.70807 2.82397
-3.59443 1.711 2.81905
-3.60451 1.71085 2.80813
-3.61757 1.71273 2.7992
-3.63659 1.71769 2.79627
-3.64072 1.71445 2.77934
-3.64874 1.71541 2.77639
-3.67075 1.72241 2.77545
-3.66395 1.71302 2.74954
-3.67701 1.71491 2.74161
-3.69007 1.71679 2.73267
-3.69519 1.71457 2.71774
-3.70925 1.71646 2.70982
-3.70237 1.71022 2.69386
-3.71046 1.70905 2.68194
-3.72254 1.71091 2.672
-3.73261 1.71177 2.66206
-3.73674 1.70852 2.64514
-3.75278 1.71144 2.63921
-3.75094 1.70513 2.61829
-3.75797 1.70707 2.61431
-3.77302 1.70998 2.60738
-3.7851 1.71084 2.59746
-3.78723 1.70759 2.58052
2.84561 1.57886 3.07853
2.78901 1.58067 3.13093
2.76511 1.5799 3.14513
2.74223 1.57915 3.16131
2.73037 1.58243 3.17936
2.71944 1.58257 3.18844
2.7085 1.58269 3.19652
2.69555 1.58179 3.20263
2.68663 1.58296 3.21368
2.67771 1.58513 3.22472
2.66973 1.58317 3.22681
2.65575 1.58122 3.22994
2.64987 1.58546 3.24593
2.64096 1.58663 3.25698
2.62901 1.58574 3.26408
2.60108 1.5829 3.27334
2.59915 1.58605 3.2833
2.59024 1.58722 3.29436
2.57727 1.5863 3.29947
2.56027 1.58231 3.29965
2.55541 1.58658 3.31763
2.53841 1.58359 3.3178
2.52747 1.58372 3.32588
2.52453 1.58584 3.33388
2.50855 1.58288 3.33604
2.49861 1.58402 3.3451
2.48566 1.58312 3.35121
2.47776 1.58532 3.36424
2.46784 1.58749 3.37529
2.45183 1.58349 3.37446
2.44384 1.58251 3.37554
2.43291 1.58265 3.38462
2.41893 1.5807 3.38776
2.40901 1.58287 3.3988
2.40213 1.5861 3.41381
2.38613 1.58311 3.41397
2.37722 1.5853 3.42601
2.36821 1.58329 3.4251
2.36133 1.58652 3.44011
2.34837 1.58561 3.44622
2.33541 1.5857 3.45132
2.3275 1.58788 3.46335
2.3105 1.58389 3.46354
2.29855 1.58401 3.47063
2.29055 1.58301 3.4707
2.27557 1.58105 3.47284
2.2697 1.58531 3.48983
2.2537 1.58233 3.49099
2.2458 1.58553 3.504
2.2369 1.58772 3.51604
2.22495 1.58783 3.52313
2.21391 1.58476 3.51826
2.20095 1.58385 3.52337
2.19406 1.58707 3.53838
2.16409 1.58316 3.54266
2.15417 1.58531 3.5527
2.1412 1.58439 3.55782
2.1332 1.5824 3.55791
2.10932 1.58364 3.57307
2.10244 1.58788 3.58906
2.08643 1.58488 3.58823
2.07449 1.586 3.5963
2.06559 1.5882 3.60934
2.05454 1.58411 3.60248
2.05579 1.59659 3.63529
2.02964 1.58432 3.61567
2.02378 1.58959 3.63364
2.00777 1.58659 3.6328
1.99887 1.58979 3.64582
1.98387 1.58781 3.64696
1.97003 1.59212 3.66701
1.95299 1.58807 3.6632
1.938 1.5861 3.66434
1.92606 1.58721 3.67141
1.91614 1.58938 3.68246
1.90419 1.58948 3.68855
1.90229 1.59367 3.7015
1.88323 1.58758 3.69473
1.87432 1.59076 3.70675
1.86035 1.58983 3.71087
1.85248 1.59508 3.72686
1.83849 1.59312 3.72899
1.8235 1.59114 3.73013
1.81854 1.59323 3.73614
1.7967 1.59655 3.75626
1.7766 1.58938 3.74452
1.7718 1.59776 3.76943
1.75678 1.59474 3.76759
1.74383 1.59585 3.77467
1.73684 1.59487 3.77574
1.7249 1.596 3.78381
1.71192 1.59505 3.78692
1.69898 1.59617 3.79401
1.69009 1.59938 3.80803
1.68223 1.60566 3.827
1.66314 1.5985 3.81525
1.65717 1.59957 3.81927
1.64728 1.60278 3.8333
1.63738 1.60699 3.84732
1.62441 1.60605 3.85043
1.61452 1.61026 3.86444
1.59644 1.60414 3.85567
1.58655 1.60834 3.86868
1.57854 1.60633 3.86777
1.57068 1.61262 3.88674
1.55568 1.61063 3.88688
-0.917954 1.6709 4.07165
-0.959997 1.67184 4.06596
-0.987041 1.67177 4.06016
-1.02013 1.67062 4.04842
-1.03319 1.66852 4.04155
-1.04912 1.67365 4.0496
-1.07521 1.67149 4.03783
-1.08221 1.6715 4.03788
-1.12622 1.6755 4.03615
-1.13829 1.67338 4.02727
-1.15229 1.67439 4.02736
-1.16339 1.6712 4.01449
-1.1743 1.67637 4.0255
-1.18637 1.67425 4.01662
-1.20233 1.67733 4.02169
-1.21439 1.67622 4.0138
-1.22743 1.67516 4.00891
-1.23853 1.67098 3.99606
-1.25451 1.67403 3.99913
-1.2625 1.67605 4.00016
-1.27553 1.676 3.99626
-1.29052 1.67803 3.99735
-1.31758 1.67793 3.98955
-1.32965 1.67581 3.98067
-1.36567 1.67877 3.9769
-1.37772 1.67769 3.971
-1.39372 1.6797 3.97109
-1.40675 1.67965 3.96719
-1.41881 1.67854 3.9593
-1.43888 1.67743 3.95047
-1.45385 1.68048 3.95353
-1.46787 1.68145 3.95062
-1.47799 1.67623 3.93578
-1.49201 1.6772 3.93287
-1.50406 1.6761 3.92597
-1.52006 1.67911 3.92605
-1.52315 1.67495 3.91513
-1.53911 1.67902 3.91919
-1.55117 1.67692 3.91131
-1.56617 1.67893 3.9114
-1.57726 1.67576 3.89953
-1.59129 1.67672 3.89662
-1.60334 1.67563 3.88972
-1.61723 1.68384 3.90371
-1.62242 1.67448 3.87888
-1.64134 1.68164 3.88892
-1.65733 1.68467 3.89
-1.66448 1.67839 3.87114
-1.68145 1.68146 3.87522
-1.6984 1.68655 3.88028
-1.70052 1.68133 3.86537
-1.70964 1.6761 3.84951
-1.73151 1.68636 3.86653
-1.73767 1.67906 3.84568
-1.75072 1.67796 3.83879
-1.76867 1.68407 3.84484
-1.78073 1.68297 3.83794
-1.78677 1.6819 3.833
-1.80372 1.68699 3.83806
-1.81186 1.68073 3.82021
-1.82491 1.68065 3.81431
-1.84384 1.68678 3.82236
-1.85492 1.68564 3.81246
-1.86796 1.68558 3.80756
-1.87497 1.68655 3.8056
-1.88999 1.68753 3.80369
-1.89418 1.67917 3.77885
-1.91017 1.68219 3.77992
-1.92617 1.6852 3.78
-1.94018 1.68618 3.77809
-1.95814 1.69227 3.78313
-1.95926 1.68605 3.76823
-1.98928 1.69001 3.7644
-2.00134 1.6889 3.75651
-2.00847 1.68467 3.74062
-2.0284 1.6918 3.74867
-2.0385 1.68862 3.73579
-2.04255 1.68652 3.72885
-2.05757 1.68848 3.72593
-2.07553 1.69357 3.73099
-2.08661 1.69143 3.72111
-2.09375 1.68617 3.70324
-2.11566 1.69435 3.71428
-2.12674 1.69321 3.70438
-2.13276 1.69317 3.70143
-2.14777 1.69515 3.69951
-2.15983 1.69404 3.69162
-2.17188 1.69394 3.68471
-2.20904 1.69366 3.66399
-2.24511 1.69754 3.6542
-2.25618 1.69641 3.6453
-2.26923 1.69632 3.6384
-2.28326 1.69827 3.63447
-2.35056 1.69773 3.59498
-2.38269 1.6985 3.57821
-2.40977 1.70035 3.56739
-2.4159 1.69511 3.55051
-2.42894 1.69603 3.54459
-2.44496 1.69901 3.54267
-2.45109 1.69476 3.52578
-2.46106 1.69781 3.52881
-2.47609 1.69977 3.52489
-2.4842 1.69656 3.511
-2.49823 1.69752 3.50709
-2.50436 1.69325 3.48919
-2.51939 1.69522 3.48628
-2.52649 1.69202 3.47238
-2.53549 1.69402 3.47242
-2.54557 1.69287 3.46151
-2.55862 1.69379 3.45559
-2.57167 1.6937 3.44869
-2.57779 1.69046 3.43278
-2.59479 1.69348 3.43286
-2.60784 1.69438 3.42595
-2.60892 1.69123 3.416
-2.61901 1.69006 3.40409
-2.63798 1.69512 3.40716
-2.64213 1.68984 3.38827
-2.65815 1.69281 3.38535
-2.67218 1.69476 3.38142
-2.68226 1.69261 3.37053
-2.68136 1.68841 3.35758
-2.69936 1.69243 3.35766
-2.70844 1.69127 3.34674
-2.72249 1.69219 3.34083
-2.73256 1.69205 3.33091
-2.74957 1.69505 3.32999
-2.75272 1.68975 3.31009
-2.76073 1.69175 3.30912
-2.77477 1.69267 3.30321
-2.7898 1.69462 3.2993
-2.79789 1.69345 3.28738
-2.80698 1.69128 3.27547
-2.82399 1.69527 3.27454
-2.83407 1.69412 3.26363
-2.84605 1.69817 3.26667
-2.84721 1.69186 3.24576
-2.85927 1.69174 3.23686
-2.87925 1.69779 3.23992
-2.88339 1.69353 3.22201
-2.89941 1.6965 3.21909
-2.91246 1.6974 3.21217
-2.91453 1.69527 3.20322
-2.92064 1.69206 3.18831
-2.94261 1.69913 3.19237
-2.94872 1.69591 3.17746
-2.9578 1.69476 3.16654
-2.98076 1.70185 3.17161
-2.98391 1.69657 3.15271
-2.98399 1.69341 3.14176
-3.00695 1.7015 3.14681
-3.00811 1.69519 3.12591
-3.02612 1.69918 3.12499
-3.0471 1.70521 3.12606
-3.0443 1.69684 3.10116
-3.05833 1.69878 3.09623
-3.06832 1.7018 3.09726
-3.07246 1.69754 3.07935
-3.08551 1.69844 3.07244
-3.10352 1.70342 3.0705
-3.10766 1.69918 3.05359
-3.12071 1.70008 3.04668
-3.1407 1.70611 3.04774
-3.12987 1.69678 3.02579
-3.14391 1.6987 3.01987
-3.16192 1.70268 3.01794
-3.17101 1.70253 3.00701
-3.17316 1.69623 2.98712
-3.19514 1.70328 2.98918
-3.20224 1.70209 2.97625
-3.20628 1.701 2.9703
-3.22033 1.70293 2.96437
-3.23339 1.70382 2.95646
-3.24247 1.70366 2.94553
-3.24957 1.70147 2.93261
-3.25568 1.69926 2.91769
-3.26873 1.70116 2.91076
-3.28576 1.70411 2.90684
-3.27989 1.69787 2.89089
-3.30187 1.70492 2.89295
-3.30798 1.7027 2.87802
-3.32301 1.70564 2.87309
-3.33211 1.70447 2.86118
-3.34616 1.70637 2.85425
-3.35126 1.70417 2.84032
-3.35532 1.70307 2.83337
-3.36539 1.70293 2.82345
-3.38341 1.7079 2.82051
-3.3915 1.70672 2.80858
-3.40357 1.7076 2.79966
-3.40768 1.70438 2.78474
-3.42075 1.70626 2.77581
-3.43075 1.70926 2.77584
-3.42792 1.70194 2.75392
-3.44892 1.70794 2.75299
-3.458 1.70778 2.74206
-3.46412 1.70556 2.72714
-3.48412 1.71156 2.7262
-3.50115 1.7155 2.72127
-3.49626 1.70929 2.70732
-3.50832 1.71118 2.69938
-3.52138 1.71307 2.69145
-3.5255 1.70984 2.67553
-3.53658 1.7107 2.6656
-3.54268 1.70851 2.65268
-3.55674 1.7114 2.64474
-3.56475 1.71338 2.64277
-3.5798 1.71628 2.63584
-3.59087 1.71714 2.62591
-3.59101 1.71188 2.60798
-3.61003 1.71685 2.60505
-3.61217 1.71358 2.58712
-3.6282 1.71652 2.58219
-3.63722 1.71948 2.57922
-3.64035 1.71625 2.56328
-3.65241 1.71712 2.55436
-3.66647 1.71901 2.54644
-3.67357 1.71883 2.53349
-3.6967 1.72158 2.51562
-3.69678 1.71843 2.50567
-3.6999 1.71519 2.48974
-3.71197 1.71707 2.4808
-3.71708 1.71487 2.46687
-3.72816 1.71571 2.45594
-3.74122 1.7176 2.44801
-3.74831 1.71741 2.43506
-3.7464 1.71425 2.42409
-3.76244 1.71717 2.41817
-3.76456 1.71394 2.40223
-3.77067 1.71274 2.38829
-3.78473 1.71563 2.38036
-3.7779 1.7073 2.35843
-3.79594 1.71222 2.35249
-3.80502 1.71306 2.34154
-3.79117 1.70377 2.32257
2.72814 1.583 3.01534
2.6933 1.58134 3.03663
2.63665 1.58307 3.08404
2.57598 1.58275 3.12751
2.57109 1.58698 3.14248
2.55418 1.58615 3.15362
2.54425 1.58729 3.16268
2.53533 1.58846 3.17373
2.51429 1.58241 3.16898
2.51143 1.58767 3.18693
2.5015 1.58881 3.19599
2.48045 1.58174 3.19025
2.47345 1.57976 3.19133
2.47567 1.59017 3.21916
2.45765 1.58514 3.21637
2.4467 1.58525 3.22346
2.43778 1.58642 3.23451
2.42483 1.58652 3.2406
2.41085 1.58358 3.24375
2.41093 1.58774 3.25469
2.39191 1.58271 3.25191
2.38805 1.58798 3.26986
2.37509 1.58706 3.27498
2.36211 1.58513 3.2791
2.35118 1.58627 3.28817
2.34024 1.58638 3.29525
2.33325 1.58542 3.29732
2.3223 1.58553 3.3044
2.3134 1.58771 3.31644
2.29942 1.58577 3.31957
2.28746 1.58485 3.32468
2.27652 1.58599 3.33374
2.26456 1.58508 3.33885
2.25657 1.5841 3.33992
2.25171 1.58937 3.35788
2.23468 1.58533 3.35507
2.21766 1.58032 3.35327
2.21077 1.58453 3.36726
2.20085 1.58568 3.37732
2.18788 1.58475 3.38144
2.18191 1.58482 3.38548
2.16996 1.58491 3.39157
2.16003 1.58607 3.40163
2.14605 1.58411 3.40376
2.13511 1.58524 3.41183
2.12518 1.58639 3.42189
2.11221 1.58545 3.425
2.10724 1.58652 3.43002
2.09631 1.58666 3.43911
2.08233 1.58572 3.44222
2.06834 1.58374 3.44336
2.05842 1.5849 3.45342
2.0485 1.58707 3.46446
2.03756 1.5882 3.47253
2.03158 1.58723 3.47459
2.02064 1.58836 3.48266
2.00767 1.58742 3.48677
1.99775 1.59059 3.4978
1.98478 1.58865 3.50092
1.97891 1.59392 3.51889
1.96291 1.59092 3.51806
1.95592 1.59095 3.52011
1.94599 1.59209 3.52917
1.9381 1.59632 3.54417
1.92208 1.59229 3.54135
1.91014 1.59341 3.54942
1.89717 1.59248 3.55353
1.88522 1.59258 3.55962
1.88025 1.59364 3.56365
1.86829 1.59374 3.56974
1.85532 1.59281 3.57385
1.84743 1.59702 3.58785
1.83347 1.59611 3.59297
1.82048 1.59514 3.59508
1.80854 1.59526 3.60217
1.80561 1.59841 3.61215
1.7906 1.59539 3.6103
1.78068 1.59856 3.62133
1.7667 1.5966 3.62347
1.75475 1.59771 3.63054
1.7428 1.59781 3.63663
1.7339 1.60202 3.65064
1.72588 1.59898 3.64774
1.71495 1.60112 3.65679
1.70402 1.60227 3.66586
1.69207 1.60338 3.67294
1.67911 1.60346 3.67803
1.66715 1.60354 3.68312
1.65622 1.6057 3.69317
1.64618 1.60262 3.68729
1.63727 1.6058 3.69932
1.62635 1.60796 3.70937
1.61133 1.60494 3.70753
1.5994 1.60608 3.7166
1.57754 1.61036 3.7347
1.57258 1.61246 3.74071
1.54766 1.61262 3.7509
-1.16916 1.6747 3.91247
-1.18022 1.67257 3.90358
-1.36252 1.67911 3.86485
-1.38957 1.68003 3.85804
-1.40064 1.67689 3.84817
-1.41369 1.67681 3.84227
-1.42475 1.6747 3.83438
-1.44073 1.67775 3.83746
-1.44969 1.68082 3.84148
-1.45783 1.67456 3.82363
-1.47283 1.67657 3.82372
-1.47997 1.67031 3.80586
-1.49791 1.67642 3.81291
-1.50702 1.67222 3.79904
-1.52104 1.67319 3.79613
-1.52903 1.67421 3.79717
-1.54206 1.67518 3.79425
-1.55411 1.67408 3.78736
-1.5691 1.67611 3.78844
-1.58018 1.67395 3.77756
-1.59322 1.67389 3.77266
-1.60428 1.67278 3.76475
-1.62433 1.6727 3.75891
-1.65235 1.67566 3.75507
-1.68136 1.67965 3.75323
-1.69539 1.68061 3.74932
-1.71052 1.67638 3.7335
-1.72551 1.67941 3.73457
-1.74275 1.66996 3.70383
-1.76266 1.67814 3.71486
-1.77569 1.67809 3.71096
-1.78172 1.67802 3.70601
-1.79279 1.67589 3.69712
-1.81663 1.6882 3.71712
-1.81393 1.67264 3.67932
-1.83288 1.67774 3.68539
-1.85697 1.67758 3.67357
-1.86791 1.68269 3.68058
-1.87997 1.6816 3.67369
-1.90605 1.68246 3.66287
-1.91712 1.68033 3.65398
-1.95217 1.68425 3.64719
-1.95732 1.67796 3.62732
-1.97824 1.68612 3.63736
-1.99938 1.68286 3.61856
-2.03039 1.68786 3.61772
-2.03936 1.69091 3.62074
-2.04649 1.68668 3.60486
-2.05855 1.68557 3.59696
-2.08462 1.68644 3.58715
-2.10161 1.69047 3.58822
-2.11969 1.69034 3.57835
-2.13174 1.69024 3.57144
-2.14181 1.6891 3.56153
-2.15683 1.69108 3.55962
-2.16986 1.69202 3.5547
-2.19989 1.69598 3.55087
-2.20098 1.6918 3.53894
-2.216 1.69478 3.53701
-2.24306 1.69667 3.52818
-2.25117 1.69347 3.51429
-2.26322 1.69337 3.50738
-2.27923 1.69637 3.50645
-2.2813 1.69322 3.49652
-2.29435 1.69415 3.4906
-2.30836 1.69613 3.48868
-2.31647 1.69292 3.47478
-2.33148 1.69491 3.47287
-2.34354 1.6948 3.46496
-2.36556 1.69877 3.46206
-2.41378 1.69937 3.43341
-2.44392 1.69911 3.41464
-2.45696 1.70005 3.40973
-2.46802 1.69992 3.40081
-2.49214 1.69972 3.38599
-2.50122 1.69856 3.37508
-2.50733 1.69435 3.36018
-2.52227 1.70047 3.36821
-2.5274 1.69623 3.35131
-2.53352 1.69199 3.33541
-2.55645 1.70014 3.34447
-2.56751 1.70003 3.33655
-2.57759 1.69888 3.32564
-2.58866 1.69875 3.31672
-2.58776 1.69356 3.30379
-2.60476 1.69757 3.30386
-2.61681 1.69848 3.29694
-2.62293 1.69424 3.28104
-2.62706 1.689 3.26415
-2.64506 1.69401 3.26421
-2.66009 1.69596 3.2603
-2.65621 1.68972 3.24436
-2.67618 1.69579 3.24842
-2.68725 1.69567 3.2395
-2.69633 1.69451 3.22859
-2.70542 1.69234 3.21669
-2.72342 1.69736 3.21675
-2.7226 1.68901 3.19386
-2.73357 1.69307 3.19688
-2.74167 1.69088 3.18398
-2.74877 1.68769 3.17107
-2.77073 1.69477 3.17514
-2.76991 1.68643 3.15225
-2.79088 1.6935 3.1563
-2.79798 1.69131 3.14339
-2.805 1.69227 3.14043
-2.81309 1.6901 3.12852
-2.82911 1.69307 3.12559
-2.83126 1.68779 3.10669
-2.84925 1.6928 3.10675
-2.86329 1.69474 3.10182
-2.87039 1.69255 3.08891
-2.87246 1.68942 3.07997
-2.88649 1.69236 3.07503
-2.90847 1.69842 3.07811
-2.91969 1.692 3.04928
-2.93274 1.6939 3.04235
-2.94083 1.69173 3.03044
-2.94991 1.69157 3.01951
-2.9708 1.7008 3.03353
-2.96502 1.69138 3.00563
-2.97806 1.6923 2.99971
-2.99111 1.6942 2.99278
-2.99722 1.691 2.97887
-3.00829 1.69088 2.96995
-3.02034 1.69278 2.96302
-3.02736 1.69374 2.96005
-3.03446 1.69155 2.94714
-3.05148 1.69552 2.94421
-3.06568 1.69115 2.91838
-3.07574 1.69102 2.90945
-3.09185 1.69183 2.89556
-3.11298 1.69257 2.87771
-3.12404 1.69246 2.86979
-3.13908 1.6954 2.86486
-3.14816 1.69524 2.85393
-3.16221 1.69717 2.848
-3.1603 1.69299 2.83605
-3.17831 1.69797 2.83411
-3.1864 1.6968 2.82219
-3.19746 1.69769 2.81426
-3.22159 1.69945 2.79741
-3.2257 1.69623 2.78249
-3.23173 1.69718 2.77852
-3.25287 1.69691 2.75968
-3.27004 1.6966 2.73781
-3.27813 1.69543 2.72589
-3.29316 1.69837 2.72096
-3.29523 1.69625 2.713
-3.30928 1.69915 2.70606
-3.31537 1.69698 2.69414
-3.32545 1.69683 2.68322
-3.34446 1.70281 2.68127
-3.34659 1.69856 2.66435
-3.3617 1.69936 2.65045
-3.36681 1.69615 2.63553
-3.38483 1.70111 2.63259
-3.39391 1.70096 2.62166
-3.40995 1.70489 2.61672
-3.41108 1.69964 2.59981
-3.42414 1.70153 2.59188
-3.42421 1.6994 2.58291
-3.43328 1.69926 2.57298
-3.44535 1.70114 2.56404
-3.46536 1.70712 2.5621
-3.47046 1.70392 2.54819
-3.47656 1.70273 2.53525
-3.49261 1.70665 2.52931
-3.4987 1.70446 2.51639
-3.5107 1.70847 2.51642
-3.52078 1.70933 2.50648
-3.52389 1.70611 2.49155
-3.53695 1.708 2.48362
-3.54106 1.70578 2.46868
-3.5571 1.70972 2.46374
-3.57314 1.71264 2.45782
-3.57619 1.71254 2.45084
-3.59024 1.71545 2.4439
-3.59038 1.71018 2.42598
-3.61338 1.7182 2.42603
-3.60755 1.70987 2.40411
-3.63254 1.71789 2.40418
-3.63168 1.71362 2.38623
-3.62877 1.70945 2.37527
-3.64878 1.71542 2.37233
-3.65886 1.71628 2.3624
-3.658 1.71102 2.34446
-3.66808 1.71186 2.33353
-3.68014 1.71375 2.32559
-3.69022 1.7146 2.31465
-3.69426 1.71452 2.30968
-3.69638 1.71129 2.29374
-3.70745 1.71315 2.2838
-3.70659 1.70788 2.26587
-3.73656 1.71895 2.26893
-3.73371 1.71266 2.25
-3.73882 1.71146 2.23605
-3.74883 1.71444 2.23408
-3.74896 1.71019 2.21714
-3.75803 1.71105 2.2072
-3.76115 1.70883 2.19225
-3.76327 1.70559 2.17632
-3.77534 1.70747 2.16738
2.81842 1.57756 2.78671
2.64168 1.58414 2.95397
2.63074 1.58427 2.96205
2.61877 1.58335 2.96715
2.58602 1.58587 3.00037
2.55908 1.582 3.00863
2.55117 1.58417 3.01966
2.5372 1.58124 3.02381
2.53434 1.58751 3.04174
2.49939 1.58165 3.05009
2.49451 1.58588 3.06507
2.47059 1.58306 3.07629
2.4637 1.58627 3.0903
2.45569 1.58426 3.08938
2.4498 1.58849 3.10437
2.44089 1.58966 3.11542
2.40889 1.58268 3.11576
2.40096 1.58384 3.12581
2.39103 1.58498 3.13487
2.38202 1.58297 3.13397
2.38018 1.58927 3.15389
2.36822 1.58836 3.15999
2.34918 1.5823 3.15523
2.3443 1.58754 3.17119
2.32932 1.58358 3.17336
2.32039 1.58574 3.1834
2.31645 1.58785 3.19039
2.30348 1.58591 3.19452
2.28949 1.58395 3.19666
2.28765 1.59127 3.21757
2.27064 1.58625 3.21577
2.25867 1.58533 3.22087
2.2538 1.59059 3.23783
2.24074 1.58448 3.23002
2.22575 1.5815 3.23118
2.22593 1.59086 3.25504
2.21296 1.58893 3.25917
2.19594 1.5849 3.25636
2.18905 1.58912 3.27135
2.18115 1.59131 3.28338
2.1691 1.58623 3.27754
2.15916 1.58735 3.2856
2.14618 1.58541 3.28873
2.13423 1.58552 3.29582
2.12936 1.59076 3.31178
2.11436 1.58777 3.31194
2.10039 1.58584 3.31607
2.10251 1.59307 3.33195
2.08751 1.59009 3.33211
2.07759 1.59124 3.34216
2.06258 1.58825 3.34232
2.05367 1.59042 3.35336
2.04271 1.59052 3.35944
2.03279 1.59267 3.36949
2.02783 1.59375 3.37451
2.00876 1.58663 3.36576
1.99984 1.5888 3.37679
1.99297 1.59404 3.39277
1.97796 1.59105 3.39293
1.9721 1.59631 3.40989
1.95303 1.58921 3.40214
1.95517 1.59647 3.42002
1.94423 1.59758 3.42709
1.93227 1.59768 3.43318
1.92641 1.60295 3.45115
1.90835 1.59686 3.44437
1.90147 1.60109 3.45936
1.88444 1.59704 3.45555
1.88253 1.60122 3.4675
1.86853 1.59823 3.46765
1.85759 1.59935 3.47572
1.84462 1.59842 3.47983
1.83367 1.59953 3.4869
1.82477 1.60273 3.49992
1.81281 1.60282 3.50501
1.80378 1.59976 3.50112
1.79285 1.6019 3.51018
1.77886 1.59893 3.51133
1.76995 1.60211 3.52335
1.74502 1.60227 3.53253
1.73001 1.59926 3.53169
1.72708 1.6024 3.54067
1.71512 1.60249 3.54676
1.70418 1.60362 3.55482
1.68917 1.60062 3.55398
1.68129 1.60584 3.56897
1.66831 1.60388 3.57109
1.65838 1.60604 3.58114
1.64935 1.60299 3.57725
1.63841 1.60511 3.5853
1.62645 1.6052 3.59039
1.61349 1.60528 3.59549
1.59365 1.6106 3.61656
-1.14391 1.66821 3.81336
-1.15694 1.66816 3.80946
-1.17092 1.6702 3.81153
-1.182 1.66705 3.80066
-1.19893 1.67319 3.8097
-1.20805 1.66798 3.79484
-1.21895 1.67416 3.80684
-1.22904 1.66999 3.79497
-1.24305 1.67199 3.79405
-1.2551 1.67091 3.78815
-1.27202 1.67705 3.79719
-1.28212 1.67287 3.78433
-1.30215 1.67384 3.78147
-1.31421 1.67273 3.77357
-1.32331 1.66753 3.75972
-1.33734 1.66849 3.75681
-1.35036 1.66946 3.75389
-1.35948 1.66323 3.73805
-1.37445 1.6673 3.7421
-1.3795 1.6652 3.73517
-1.39058 1.66306 3.72528
-1.4036 1.66302 3.72238
-1.41858 1.66608 3.72545
-1.42768 1.66289 3.71256
-1.44169 1.66387 3.71065
-1.45275 1.66276 3.70275
-1.46173 1.66482 3.70579
-1.49883 1.66463 3.69207
-1.52587 1.66557 3.68626
-1.53595 1.66343 3.67637
-1.55598 1.66538 3.67249
-1.59408 1.6652 3.65878
-1.60907 1.66824 3.66084
-1.62419 1.66502 3.645
-1.64212 1.67115 3.65305
-1.64927 1.66487 3.63419
-1.66819 1.67203 3.64423
-1.67532 1.66579 3.62737
-1.70629 1.67185 3.63052
-1.70739 1.66766 3.61759
-1.73444 1.66959 3.61176
-1.74747 1.67054 3.60785
-1.77647 1.67455 3.607
-1.7836 1.6693 3.59013
-1.80365 1.67123 3.58425
-1.82945 1.68561 3.60924
-1.8297 1.67213 3.57644
-1.84175 1.67205 3.57053
-1.85674 1.67507 3.5716
-1.87567 1.68222 3.58063
-1.86988 1.6708 3.55276
-1.89571 1.68414 3.57476
-1.90087 1.67685 3.5549
-1.91685 1.68089 3.55696
-1.92299 1.67463 3.5391
-1.93505 1.67352 3.5312
-1.95103 1.67756 3.53326
-1.95606 1.67751 3.5293
-1.96712 1.6764 3.5214
-1.9772 1.67426 3.51151
-1.99319 1.67727 3.51158
-2.00819 1.68028 3.51165
-2.03206 1.69155 3.52867
-2.04509 1.69248 3.52375
-2.03436 1.67697 3.48989
-2.04641 1.67688 3.48299
-2.06338 1.68195 3.48704
-2.07345 1.67981 3.47715
-2.08748 1.68176 3.47322
-2.09854 1.68065 3.46532
-2.11749 1.68675 3.47137
-2.12154 1.68567 3.46542
-2.12668 1.6794 3.44755
-2.14169 1.68238 3.44562
-2.15276 1.68126 3.43672
-2.16875 1.68528 3.43778
-2.17981 1.68417 3.42988
-2.18988 1.68305 3.42097
-2.19985 1.6861 3.424
-2.20993 1.68496 3.41409
-2.22592 1.68899 3.41515
-2.23797 1.68889 3.40824
-2.24608 1.68569 3.39435
-2.25515 1.68355 3.38445
-2.27312 1.68962 3.38849
-2.28309 1.69267 3.39152
-2.29022 1.68844 3.37564
-2.30127 1.68834 3.36872
-2.31826 1.69237 3.36979
-2.32932 1.69226 3.36187
-2.33742 1.68907 3.34898
-2.35539 1.69413 3.35204
-2.35747 1.69099 3.3421
-2.36852 1.69089 3.33518
-2.38552 1.6949 3.33525
-2.39856 1.69584 3.33034
-2.4106 1.69676 3.32441
-2.41969 1.69459 3.31251
-2.42383 1.68832 3.29463
-2.43281 1.69136 3.29666
-2.44388 1.69123 3.28774
-2.45494 1.69112 3.27982
-2.46402 1.68897 3.26892
-2.47607 1.68989 3.263
-2.48812 1.69079 3.25608
-2.49621 1.68762 3.24418
-2.50817 1.6927 3.2492
-2.5133 1.68746 3.23231
-2.52338 1.68731 3.22239
-2.53345 1.68619 3.21348
-2.54648 1.68712 3.20856
-2.55358 1.68494 3.19565
-2.56959 1.68792 3.19372
-2.56968 1.68376 3.18279
-2.59674 1.68764 3.17393
-2.60187 1.68341 3.15803
-2.62795 1.68627 3.14718
-2.6489 1.69335 3.15224
-2.65214 1.68391 3.1224
-2.67012 1.68895 3.12446
-2.6863 1.68561 3.10062
-2.70529 1.69064 3.10169
-2.70743 1.68536 3.08279
-2.72146 1.68731 3.07886
-2.72551 1.68623 3.07291
-2.74466 1.68494 3.05307
-2.7577 1.68586 3.04715
-2.77883 1.68563 3.03031
-2.81606 1.68621 3.00058
-2.85831 1.68674 2.96689
-2.99616 1.68915 2.85387
-3.04445 1.69061 2.81521
-3.47883 1.69624 2.36734
-3.51005 1.69884 2.33853
-3.51608 1.69878 2.33458
-3.52515 1.69964 2.32463
-3.53523 1.7005 2.31469
-3.54232 1.69931 2.30176
-3.55041 1.69915 2.29082
-3.55849 1.699 2.27988
-3.56756 1.69986 2.26994
-3.57765 1.7007 2.259
-3.58268 1.70164 2.25502
-3.60469 1.70863 2.25309
-3.6068 1.70441 2.23816
-3.61887 1.70729 2.22921
-3.63093 1.70918 2.22127
-3.62708 1.70288 2.20133
-3.64411 1.70782 2.19639
-3.65413 1.71079 2.19442
-3.64033 1.6994 2.16848
-3.66532 1.70742 2.16855
-3.66942 1.70623 2.1556
-3.68547 1.71013 2.14866
-3.67565 1.70079 2.12572
-3.70065 1.7098 2.12577
-3.69474 1.70462 2.1138
-3.69487 1.70037 2.09687
-3.70892 1.70328 2.08993
-3.71601 1.70311 2.07798
-3.72808 1.70598 2.06903
-3.73716 1.70582 2.0581
-3.73231 1.69954 2.03915
2.85533 1.5774 2.64241
2.83344 1.57562 2.65661
2.82551 1.57677 2.66665
2.78583 1.57843 2.70893
2.76798 1.57972 2.72805
2.74997 1.57472 2.72726
2.74903 1.57684 2.73524
2.7391 1.57698 2.74431
2.73218 1.57915 2.75533
2.72526 1.58031 2.76637
2.70136 1.57852 2.77958
2.6925 1.5818 2.7976
2.64972 1.58026 2.82695
2.6418 1.58143 2.83799
2.58917 1.58417 2.88635
2.57014 1.57814 2.88358
2.56625 1.58137 2.89857
2.55725 1.57938 2.89867
2.53317 1.57025 2.88898
2.53636 1.5786 2.91284
2.52238 1.57665 2.91597
2.51447 1.57882 2.927
2.50957 1.58203 2.94099
2.50266 1.58422 2.95301
2.49467 1.58224 2.9541
2.48574 1.58338 2.96315
2.47378 1.58246 2.96826
2.46889 1.58668 2.98323
2.45795 1.58681 2.99132
2.44396 1.58284 2.99248
2.43201 1.58295 2.99957
2.43512 1.58815 3.01347
2.4181 1.58314 3.01167
2.4102 1.58632 3.02369
2.40126 1.58746 3.03274
2.38121 1.58039 3.02699
2.37331 1.58257 3.03902
2.3664 1.58475 3.05104
2.36548 1.5879 3.06101
2.34846 1.58388 3.05919
2.33953 1.58504 3.06925
2.32656 1.58309 3.07237
2.32067 1.58732 3.08736
2.30872 1.58641 3.09346
2.29775 1.5855 3.09856
2.29077 1.58453 3.10063
2.28588 1.58876 3.1156
2.27089 1.58578 3.11676
2.26804 1.59207 3.13569
2.24495 1.58292 3.125
2.23501 1.58405 3.13306
2.2352 1.5924 3.15693
2.22618 1.58938 3.15505
2.21036 1.59473 3.17809
2.19941 1.59484 3.18517
2.08659 1.5793 3.21126
2.07665 1.58042 3.21932
2.0727 1.58251 3.22532
2.05871 1.57955 3.22746
2.0508 1.58272 3.23848
2.04087 1.58388 3.24854
2.02788 1.5819 3.24967
2.01796 1.58406 3.25971
2.01105 1.58724 3.27172
2.0071 1.58834 3.27873
1.99616 1.58946 3.2858
1.98217 1.5875 3.28793
1.97933 1.59479 3.30785
1.96635 1.59285 3.31098
1.95946 1.59707 3.32597
1.94142 1.592 3.32018
1.93848 1.59412 3.32817
1.92448 1.59214 3.3293
1.91049 1.58917 3.33045
1.90461 1.59441 3.34642
1.89468 1.59555 3.35548
1.88171 1.5946 3.35859
1.86772 1.59264 3.36073
1.86784 1.59887 3.37564
1.85587 1.59793 3.37974
1.84086 1.59493 3.3789
1.8289 1.59503 3.38499
1.8149 1.59304 3.38512
1.80089 1.58903 3.38429
1.79504 1.59632 3.40323
1.78601 1.59327 3.39934
1.7781 1.59645 3.41135
1.76716 1.59658 3.41944
1.75215 1.59356 3.41759
1.74324 1.59674 3.42961
1.73432 1.59991 3.44064
1.72134 1.59795 3.44276
1.71231 1.59591 3.43986
1.70544 1.60115 3.45584
1.69144 1.59816 3.45599
1.68151 1.6003 3.46503
1.66954 1.60039 3.47012
1.65657 1.59944 3.47323
1.64766 1.60263 3.48526
1.64067 1.60165 3.48632
1.62666 1.59966 3.48646
1.61673 1.60178 3.4945
1.60783 1.605 3.50852
1.59993 1.60919 3.52152
1.589 1.61133 3.53057
1.54814 1.61263 3.54887
-1.31588 1.6754 3.68353
-1.32989 1.67739 3.68261
-1.33997 1.67424 3.67173
-1.35105 1.6711 3.66186
-1.36406 1.67208 3.65994
-1.36909 1.67102 3.65599
-1.38114 1.67094 3.65008
-1.3922 1.66883 3.6422
-1.40816 1.67392 3.64724
-1.4163 1.66666 3.62941
-1.43127 1.67071 3.63246
-1.44233 1.66962 3.62556
-1.44737 1.66753 3.61963
-1.46039 1.66851 3.61771
-1.47341 1.66948 3.6148
-1.48348 1.66634 3.60492
-1.49946 1.67039 3.60798
-1.50854 1.66723 3.59709
-1.52354 1.67025 3.59716
-1.52464 1.66505 3.58424
-1.53963 1.66708 3.58533
-1.55462 1.67011 3.5864
-1.56468 1.66899 3.57849
-1.58557 1.67722 3.59252
-1.58976 1.66886 3.56868
-1.60278 1.66983 3.56576
-1.61174 1.67391 3.57077
-1.62476 1.67387 3.56787
-1.63876 1.67688 3.56793
-1.64787 1.67268 3.55406
-1.6599 1.67262 3.54915
-1.67194 1.67255 3.54424
-1.68399 1.67247 3.53833
-1.68607 1.66831 3.5274
-1.70402 1.67341 3.53346
-1.71605 1.67438 3.53054
-1.72809 1.6743 3.52463
-1.74112 1.67525 3.52072
-1.75316 1.67518 3.51581
-1.7652 1.6751 3.5099
-1.76926 1.67299 3.50196
-1.78621 1.67809 3.50801
-1.79531 1.67492 3.49613
-1.80832 1.6759 3.49421
-1.81938 1.67579 3.48629
-1.83241 1.67574 3.48239
-1.84445 1.67566 3.47648
-1.85637 1.68281 3.48647
-1.86153 1.67552 3.46661
-1.8785 1.67958 3.46968
-1.89941 1.68877 3.4817
-1.89864 1.67633 3.45188
-1.92568 1.67926 3.44604
-1.93171 1.67922 3.44308
-1.94571 1.68221 3.44214
-1.96268 1.68727 3.4452
-1.96684 1.67898 3.42535
-1.98085 1.68196 3.42341
-1.99881 1.68704 3.42847
-2.00395 1.68178 3.41058
-2.01195 1.68279 3.41063
-2.02892 1.68786 3.41468
-2.03801 1.68569 3.40278
-2.05004 1.68662 3.39786
-2.30108 1.68874 3.2607
-2.30522 1.68348 3.24281
-2.31915 1.68962 3.25182
-2.32526 1.68541 3.23693
-2.33632 1.6853 3.22901
-2.35232 1.68931 3.22907
-2.35251 1.67995 3.20521
-2.36554 1.6819 3.20128
-2.39241 1.69414 3.2163
-2.38756 1.68586 3.19738
-2.40059 1.68781 3.19345
-2.4156 1.69079 3.19152
-2.42567 1.68967 3.18261
-2.4397 1.69162 3.17869
-2.44778 1.69047 3.16877
-2.45884 1.69036 3.16085
-2.45596 1.68313 3.14493
-2.4779 1.69124 3.15198
-2.48203 1.687 3.13507
-2.49408 1.68692 3.12916
-2.50315 1.68679 3.12023
-2.5152 1.68669 3.11332
-2.53219 1.69172 3.11438
-2.53921 1.69268 3.11141
-2.5364 1.68231 3.08654
-2.54944 1.68425 3.08161
-2.57237 1.69338 3.08965
-2.58244 1.69325 3.08073
-2.60142 1.6983 3.08279
-2.67379 1.70061 3.0333
-2.68782 1.70256 3.02938
-2.712 1.70124 3.00657
-2.71711 1.69702 2.99167
-2.72916 1.69894 2.98573
-2.74022 1.69881 2.97682
-2.73839 1.69049 2.95492
-2.73749 1.68631 2.94298
-2.74359 1.68412 2.93005
-2.78172 1.68788 2.91228
-2.79788 1.68558 2.89144
-2.81397 1.68642 2.87954
-2.89641 1.68959 2.82011
-2.9035 1.68842 2.80818
-2.93774 1.68797 2.77644
-2.94681 1.68784 2.76751
-3.00112 1.69127 2.72686
-3.04642 1.69171 2.68719
-3.1059 1.69079 2.62264
-3.18041 1.69384 2.55515
-3.18651 1.69165 2.54223
-3.26407 1.6946 2.46776
-3.27613 1.69649 2.45982
-3.31448 1.69582 2.41311
-3.37689 1.70105 2.3585
-3.43856 1.69778 2.27
-3.46181 1.69731 2.23717
-3.48704 1.69686 2.20637
-3.4881 1.69575 2.19839
-3.49818 1.69661 2.18845
-3.53012 1.70872 2.19451
-3.53137 1.70124 2.16263
-3.55649 1.70603 2.14675
-3.55568 1.69866 2.12185
-3.57184 1.69934 2.09995
-3.57993 1.69918 2.08902
-3.58701 1.69903 2.07807
-3.59311 1.69784 2.06513
-3.60809 1.70388 2.06716
