3.32242 0.389262 -0.16401
3.32246 0.389336 -0.159011
3.31853 0.388487 -0.148967
3.32161 0.389648 -0.138006
3.31569 0.3888 -0.127948
3.31076 0.387952 -0.117897
3.31485 0.389112 -0.106943
3.31592 0.389259 -0.0969519
3.31196 0.388336 -0.0919077
3.31104 0.3885 -0.0809017
3.31212 0.389647 -0.0709254
3.31128 0.389959 -0.0499208
3.31143 0.390269 -0.0289237
3.30847 0.390346 -0.0239018
3.30563 0.389659 -0.00286732
3.29886 0.390108 0.0271812
3.30194 0.390269 0.0381571
3.30206 0.391505 0.0541401
3.30029 0.391966 0.0851509
3.29737 0.392116 0.0951721
3.29349 0.391356 0.111215
3.29256 0.391504 0.121221
3.29372 0.392815 0.142196
3.29181 0.392979 0.153209
3.29296 0.394289 0.174184
3.28899 0.393351 0.178228
3.28815 0.393663 0.199233
3.29224 0.394837 0.211186
3.28339 0.394125 0.230266
3.28748 0.3953 0.24222
3.28058 0.395512 0.25627
3.28267 0.395688 0.268254
3.28383 0.396998 0.289229
3.28199 0.397311 0.310241
3.27702 0.397373 0.314278
3.2751 0.397538 0.325291
3.27919 0.398698 0.336245
3.27325 0.397835 0.345304
3.27134 0.398 0.356317
3.2685 0.398313 0.377337
3.26953 0.399386 0.382314
3.2717 0.40071 0.404281
3.26678 0.399862 0.414332
3.27287 0.402035 0.426256
3.26493 0.401174 0.435329
3.26602 0.401336 0.44632
3.27107 0.403436 0.453252
3.27015 0.403584 0.463258
3.26338 0.404048 0.494307
3.26555 0.405387 0.517274
3.26258 0.405449 0.521296
3.26167 0.405612 0.532302
3.25974 0.405762 0.542315
3.25883 0.406925 0.553306
3.25607 0.408401 0.58531
3.25511 0.408476 0.590317
3.24834 0.40894 0.621365
3.25544 0.411127 0.634281
3.2485 0.410265 0.643347
3.2496 0.411442 0.655323
3.24897 0.414183 0.705294
3.24434 0.416911 0.754295
3.23566 0.418539 0.796343
3.24172 0.419653 0.804282
3.23688 0.420968 0.825301
3.23897 0.422144 0.83727
3.23514 0.422472 0.859297
3.23221 0.422623 0.869318
3.23343 0.426051 0.898262
3.2296 0.426379 0.920289
3.19578 0.457621 1.34014
2.97762 0.778398 3.94739
2.97312 0.788362 4.01229
2.96268 0.799465 4.08621
2.96291 0.804908 4.11614
2.95361 0.818276 4.20802
2.94827 0.831552 4.29388
2.93827 0.852497 4.42466
2.9327 0.861344 4.48158
2.92778 0.862496 4.4916
3.12559 0.543022 1.97149
3.12137 0.555534 2.07335
3.11646 0.556716 2.08537
3.11356 0.557925 2.09938
3.11581 0.562397 2.1313
3.11108 0.565933 2.16729
3.11119 0.568155 2.18226
3.11245 0.572642 2.21519
3.10464 0.575032 2.24121
3.10074 0.576228 2.25423
3.0998 0.576347 2.26223
3.10093 0.579597 2.27918
3.10206 0.581848 2.29614
3.09817 0.583058 2.31015
3.1013 0.585322 2.3281
3.10949 0.589671 2.35197
3.09653 0.58877 2.35809
3.09962 0.59093 2.36903
3.10478 0.594237 2.38995
3.0888 0.593293 2.39308
3.08793 0.594545 2.41007
3.09006 0.59781 2.42801
3.09221 0.60009 2.44696
3.08932 0.602314 2.46195
3.08651 0.604671 2.48594
3.0806 0.605853 2.49797
3.09583 0.6123 2.52877
3.08187 0.611384 2.53389
3.08201 0.61365 2.55185
3.09221 0.619042 2.5787
3.07919 0.617008 2.57583
3.08134 0.620302 2.59577
3.08652 0.623638 2.61868
3.07759 0.623793 2.62875
3.07975 0.627087 2.64869
3.08291 0.63041 2.67062
3.06996 0.629509 2.67673
3.08212 0.63481 2.69756
3.0742 0.634979 2.70862
3.06931 0.63619 2.72264
3.06643 0.638429 2.73863
3.07262 0.642794 2.76352
3.06168 0.64292 2.7716
3.06485 0.646243 2.79353
3.06407 0.649673 2.82249
3.06221 0.652941 2.84046
3.05747 0.657447 2.87444
3.05762 0.659743 2.8944
3.05676 0.663025 2.91336
3.05986 0.665215 2.92631
3.05598 0.666454 2.94232
3.05428 0.672032 2.98126
3.04739 0.674245 2.99528
3.05359 0.678639 3.02217
3.04467 0.678794 3.03224
3.04878 0.682013 3.04716
3.04996 0.685352 3.07011
3.04911 0.688649 3.09007
3.04222 0.689861 3.1041
3.03649 0.694398 3.14008
3.03767 0.697737 3.16303
3.04178 0.700956 3.17795
3.03993 0.703253 3.19793
3.03506 0.705508 3.21494
3.03725 0.709862 3.23886
3.03237 0.712117 3.25587
3.03154 0.715443 3.27783
3.03273 0.718797 3.30177
3.02895 0.723229 3.33074
3.02325 0.728825 3.3707
3.0214 0.732122 3.39067
3.01957 0.734449 3.41266
3.01472 0.737733 3.43165
3.01252 0.754288 3.53643
3.00684 0.759914 3.5784
2.99883 0.779842 3.70818
2.98601 0.804145 3.86294
2.97405 0.82518 3.99974
2.96114 0.84829 4.14151
2.95452 0.856049 4.19245
2.95071 0.859407 4.21643
2.94751 0.876962 4.32121
2.94091 0.885751 4.37414
2.93812 0.890152 4.4011
2.92585 0.905581 4.49698
3.17569 0.524346 1.45532
3.17178 0.525512 1.46633
3.16696 0.52687 1.49035
3.16801 0.527973 1.49733
3.1661 0.529152 1.50933
3.17223 0.531399 1.52625
3.16631 0.531552 1.53629
3.15948 0.533897 1.55931
3.15873 0.537371 1.59127
3.15783 0.538564 1.60426
3.15602 0.54095 1.63025
3.15311 0.54213 1.64225
3.15221 0.543323 1.65524
3.1573 0.545482 1.66617
3.15237 0.545633 1.67621
3.15158 0.549048 1.70417
3.15068 0.550241 1.71716
3.1509 0.553656 1.74511
3.14994 0.553745 1.75112
3.14804 0.555939 1.7641
3.15519 0.559215 1.783
3.14625 0.558354 1.79208
3.14134 0.559521 1.80311
3.14446 0.561755 1.81905
3.14356 0.562948 1.83204
3.14262 0.564067 1.84003
3.13769 0.564219 1.85007
3.14082 0.566468 1.86702
3.14395 0.569717 1.88395
3.13501 0.568842 1.89203
3.13624 0.573285 1.92196
3.14535 0.576486 1.93584
3.13451 0.577819 1.95791
3.13162 0.579029 1.97191
3.13173 0.580236 1.9859
3.13185 0.582472 2.00186
3.13096 0.58468 2.01584
3.12811 0.586993 2.03683
3.13527 0.590298 2.05773
3.13338 0.591507 2.07173
3.12746 0.592674 2.08276
3.12959 0.594924 2.09971
3.12972 0.597161 2.11568
3.12575 0.597237 2.12071
3.12285 0.598432 2.13371
3.12612 0.603947 2.16861
3.12624 0.606184 2.18458
3.12133 0.606365 2.19662
3.11642 0.607546 2.20864
3.11145 0.607609 2.21268
3.12164 0.611972 2.23754
3.10969 0.611069 2.24364
3.11485 0.615376 2.26454
3.11295 0.616585 2.27854
3.11409 0.61885 2.2965
3.10346 0.624583 2.3455
3.10862 0.62789 2.36642
3.09567 0.626988 2.37253
3.10097 0.633561 2.4114
3.10016 0.636932 2.43636
3.10331 0.640225 2.45629
3.09137 0.639352 2.46439
3.09754 0.643673 2.48628
3.09164 0.64487 2.49931
3.08673 0.646066 2.51233
3.09083 0.648255 2.52527
3.09399 0.651564 2.5462
3.08608 0.652732 2.55725
3.08621 0.654984 2.57421
3.08548 0.660517 2.61014
3.08159 0.661741 2.62516
3.07879 0.665128 2.65113
3.07994 0.668408 2.67008
3.08209 0.671703 2.69001
3.07821 0.672942 2.70603
3.07836 0.676223 2.72498
3.0785 0.679504 2.74393
3.07555 0.679595 2.74995
3.07368 0.681863 2.76794
3.07384 0.685158 2.78789
3.07096 0.687412 2.80488
3.06606 0.688608 2.8179
3.06925 0.692961 2.84182
3.06133 0.693129 2.85288
3.06745 0.696361 2.86878
3.06071 0.700869 2.90277
3.06102 0.707461 2.94268
3.05311 0.708659 2.95572
3.05125 0.710927 2.9737
3.05637 0.71416 2.98962
3.04443 0.713287 2.99772
3.05468 0.719753 3.02956
3.04794 0.724275 3.06454
3.04223 0.729827 3.10151
3.03541 0.733187 3.12552
3.04265 0.73864 3.15638
3.03575 0.739852 3.17042
3.03894 0.74422 3.19533
3.03306 0.746461 3.21135
3.03248 0.755275 3.26623
3.03367 0.759644 3.29116
3.02678 0.760856 3.3052
3.02999 0.765253 3.33211
3.01604 0.764367 3.33923
3.0142 0.767679 3.3602
3.02035 0.771955 3.37909
3.01952 0.775296 3.40205
3.02172 0.780679 3.42796
3.01686 0.782964 3.44696
3.00998 0.784205 3.463
3.01218 0.788588 3.48892
3.00935 0.792916 3.51088
3.00963 0.798463 3.5478
3.00699 0.80616 3.59471
3.00435 0.813857 3.64163
2.99748 0.816114 3.65865
3.00062 0.819378 3.67658
2.99052 0.83813 3.79439
2.98397 0.848023 3.8543
2.98036 0.85578 3.90522
2.97349 0.858036 3.92224
2.97371 0.863465 3.95117
2.97192 0.867866 3.97812
2.96798 0.868987 3.98613
2.96765 0.884289 4.07392
2.9608 0.886575 4.09294
2.95495 0.889875 4.11294
2.95216 0.894291 4.1409
2.95835 0.898642 4.16479
2.94971 0.906358 4.21275
2.9383 0.919505 4.28965
2.94563 0.927136 4.33249
2.9369 0.93266 4.36748
2.9412 0.940248 4.40734
2.93539 0.944607 4.43132
2.92855 0.947938 4.45332
2.91971 0.95024 4.47336
3.31983 0.479981 -0.251346
3.3139 0.479133 -0.241287
3.32598 0.481287 -0.230408
3.32006 0.48044 -0.22035
3.32511 0.481525 -0.214403
3.31518 0.47968 -0.2043
3.32126 0.481838 -0.193376
3.31434 0.479992 -0.183295
3.31641 0.481138 -0.173326
3.3145 0.480303 -0.162298
3.30757 0.479456 -0.152232
3.30961 0.480528 -0.147262
3.31069 0.48069 -0.136271
3.30877 0.48084 -0.126258
3.31185 0.481 -0.115282
3.30993 0.48115 -0.105268
3.307 0.4813 -0.0952469
3.31408 0.482458 -0.0843159
3.30412 0.480539 -0.0792117
3.3052 0.481686 -0.0692355
3.30428 0.48185 -0.0582294
3.31336 0.484006 -0.0473283
3.30251 0.48231 -0.0272187
3.29759 0.481462 -0.0171676
3.29763 0.481536 -0.0121683
3.2947 0.480686 -0.00213232
3.29979 0.482845 0.00879894
3.29686 0.481996 0.0188349
3.29394 0.482146 0.0288561
3.29402 0.482309 0.0398546
3.29509 0.483456 0.0498309
3.28713 0.481536 0.05492
3.29221 0.482695 0.0658661
3.29229 0.483843 0.0758499
3.29646 0.485166 0.0978019
3.28752 0.483306 0.106898
3.29161 0.484465 0.117852
3.28564 0.483544 0.122911
3.28572 0.484692 0.132895
3.28079 0.483844 0.142946
3.28288 0.485005 0.153914
3.28395 0.485152 0.163905
3.27803 0.484305 0.173964
3.28512 0.486477 0.18588
3.28015 0.48554 0.189932
3.28624 0.487713 0.201856
3.27731 0.485853 0.210952
3.28347 0.488174 0.232874
3.27955 0.488325 0.242903
3.27863 0.488474 0.252909
3.26965 0.48654 0.257005
3.27374 0.4877 0.267959
3.26781 0.486852 0.278018
3.2719 0.489012 0.288956
3.27398 0.489173 0.29994
3.27006 0.489324 0.309969
3.27014 0.489487 0.320967
3.26717 0.489548 0.324989
3.27527 0.491735 0.337897
3.27735 0.492896 0.348866
3.26942 0.492035 0.35794
3.2715 0.493196 0.368908
3.27158 0.493344 0.378907
3.26665 0.493496 0.388943
3.26068 0.49156 0.393018
3.26978 0.494745 0.405904
3.26586 0.493896 0.415947
3.26694 0.495058 0.426923
3.26309 0.495357 0.446951
3.26217 0.496521 0.457942
3.26522 0.496607 0.463918
3.2663 0.497769 0.474895
3.26238 0.49792 0.484923
3.26747 0.499094 0.496869
3.26454 0.499244 0.50689
3.25862 0.499397 0.516934
3.26074 0.500632 0.532902
3.25582 0.499784 0.542953
3.26291 0.501971 0.555869
3.25397 0.501096 0.563951
3.25706 0.502271 0.575911
3.25723 0.504597 0.597879
3.25427 0.503673 0.602916
3.24842 0.503974 0.622958
3.24049 0.503113 0.632032
3.24566 0.505449 0.654961
3.25176 0.507637 0.667885
3.25089 0.508889 0.684875
3.24095 0.508015 0.692964
3.24705 0.510203 0.705887
3.24713 0.510366 0.716886
3.24421 0.510516 0.726907
3.24128 0.510666 0.736928
3.24734 0.51278 0.744852
3.24041 0.511919 0.753919
3.24058 0.514244 0.775886
3.23766 0.514409 0.786907
3.23975 0.515585 0.798876
3.23683 0.515735 0.808897
3.23486 0.515811 0.813911
3.23102 0.517124 0.834924
3.23111 0.518302 0.846907
3.22627 0.518616 0.867942
3.22034 0.518754 0.876986
3.23543 0.521906 0.887827
3.22449 0.521032 0.895923
3.22056 0.521183 0.905952
3.22967 0.523398 0.920853
3.22073 0.522523 0.928934
3.22784 0.525725 0.942835
3.22191 0.524863 0.951894
3.21995 0.524953 0.957908
3.22004 0.526116 0.968892
3.22323 0.528484 0.993836
3.2193 0.528635 1.00386
3.22039 0.530811 1.01583
3.21246 0.52995 1.0249
3.21451 0.531038 1.03087
3.21159 0.531203 1.04189
3.21469 0.533393 1.05484
3.21277 0.533557 1.06585
3.20192 0.533846 1.08493
3.20501 0.535036 1.09789
3.21309 0.538178 1.10778
3.20415 0.536303 1.11588
3.20323 0.537467 1.12687
3.20734 0.539671 1.14081
3.20142 0.539823 1.15085
3.2005 0.540987 1.16185
3.20661 0.543204 1.17677
3.20767 0.544307 1.18375
3.19772 0.543418 1.19083
3.20383 0.545635 1.20576
3.1959 0.544775 1.21483
3.20102 0.547993 1.22975
3.1981 0.548158 1.24077
3.19718 0.549321 1.25176
3.19422 0.549397 1.25678
3.20033 0.551615 1.2717
3.19742 0.55278 1.28271
3.19249 0.552931 1.29275
3.1946 0.554137 1.30672
3.19469 0.556314 1.31868
3.19479 0.557507 1.33167
3.19092 0.558761 1.34868
3.18399 0.5579 1.35775
3.18719 0.561297 1.38468
3.18729 0.563489 1.39764
3.1904 0.565694 1.41159
3.18843 0.565769 1.4166
3.18954 0.566976 1.43058
3.17668 0.567266 1.44968
3.18582 0.570526 1.46756
3.1799 0.570678 1.4776
3.17798 0.571843 1.4886
3.18316 0.575179 1.51152
3.18025 0.576359 1.52352
3.17331 0.575497 1.53259
3.17643 0.577717 1.54754
3.17352 0.578897 1.55954
3.17161 0.580076 1.57154
3.17568 0.582206 1.58048
3.17477 0.583384 1.59247
3.17398 0.586784 1.61943
3.16715 0.588129 1.64247
3.16842 0.592646 1.67739
3.16461 0.595019 1.70239
3.16471 0.597226 1.71636
3.16292 0.599627 1.74334
3.15816 0.603104 1.77533
3.15436 0.605491 1.80133
3.15658 0.609919 1.83025
3.15083 0.613411 1.86324
3.15004 0.616826 1.8912
3.14815 0.618035 1.9052
3.14239 0.621513 1.9372
3.14262 0.624956 1.96715
3.14374 0.627192 1.98311
3.13592 0.629553 2.00714
3.14101 0.632727 2.01905
3.1332 0.634088 2.0431
3.13332 0.636324 2.05906
3.12852 0.639713 2.08505
3.1297 0.643067 2.109
3.1268 0.644276 2.123
3.1239 0.64547 2.13601
3.12716 0.650971 2.16991
3.12125 0.651138 2.18095
3.12238 0.654389 2.1979
3.11853 0.656702 2.2189
3.12269 0.659995 2.23882
3.11375 0.66012 2.24689
3.11488 0.662371 2.26385
3.114 0.664608 2.27982
3.10407 0.664749 2.2889
3.11117 0.666936 2.30181
3.11243 0.672453 2.33672
3.10552 0.67362 2.34776
3.10865 0.676884 2.36569
3.10275 0.677081 2.37874
3.10087 0.679304 2.39372
3.10194 0.681452 2.40368
3.10005 0.68266 2.41768
3.10019 0.685926 2.43563
3.10435 0.689234 2.45655
3.09757 0.692668 2.48556
3.09669 0.694905 2.50153
3.09373 0.694996 2.50756
3.09488 0.698276 2.5265
3.08595 0.698431 2.53657
3.0871 0.701711 2.55551
3.09025 0.705005 2.57544
3.0924 0.708299 2.59538
3.08852 0.710524 2.61038
3.08556 0.710615 2.6164
3.08081 0.715092 2.64838
3.08296 0.718386 2.66831
3.07907 0.720611 2.68331
3.0762 0.722864 2.7003
3.07735 0.726144 2.71925
3.07555 0.729545 2.74621
3.07468 0.732797 2.76318
3.07282 0.735065 2.78116
3.07196 0.738332 2.79912
3.06807 0.739557 2.81413
3.06923 0.742866 2.83508
3.06729 0.743986 2.84308
3.06946 0.74831 2.865
3.06659 0.750564 2.88199
3.06271 0.752803 2.89799
3.06085 0.755071 2.91597
3.05798 0.757324 2.93296
3.05914 0.761634 2.95389
3.06023 0.763811 2.96585
3.05938 0.766092 2.98483
3.05046 0.767262 2.99588
3.0486 0.769529 3.01386
3.04977 0.773869 3.03679
3.04489 0.775094 3.05181
3.04304 0.778391 3.07178
3.05118 0.782666 3.09066
3.04832 0.785935 3.10863
3.04344 0.787175 3.12466
3.04563 0.791528 3.14858
3.03571 0.792698 3.15964
3.03386 0.794996 3.17962
3.03503 0.79932 3.20155
3.03714 0.802526 3.21549
3.03831 0.805865 3.23843
3.0284 0.807035 3.24949
3.0326 0.811431 3.2764
3.02875 0.814715 3.29538
3.02286 0.815942 3.31041
3.02304 0.820282 3.33335
3.0211 0.821416 3.34235
3.02432 0.826828 3.37025
3.01743 0.829055 3.38527
3.01862 0.833424 3.4102
3.02184 0.837835 3.43811
3.01797 0.841105 3.45609
3.0121 0.84336 3.47311
3.0144 0.849935 3.512
3.00853 0.852191 3.52901
3.01175 0.858618 3.5579
3.00185 0.858817 3.57097
3.0081 0.865286 3.60283
3.00252 0.875118 3.65874
2.99686 0.881773 3.70269
2.99504 0.88613 3.72664
2.9902 0.889429 3.74663
2.98838 0.892785 3.7706
2.98949 0.896006 3.78554
2.98788 0.904762 3.83643
2.98203 0.908062 3.85643
2.98426 0.913504 3.88634
2.97335 0.91469 3.8984
2.97155 0.919075 3.92435
2.97874 0.924425 3.94822
2.96985 0.926653 3.96326
2.96401 0.928968 3.98427
2.97029 0.936496 4.02012
2.95658 0.942068 4.05815
2.95276 0.946426 4.08211
2.95894 0.950777 4.10601
2.95614 0.955163 4.13197
2.95435 0.960564 4.1589
2.94447 0.961808 4.17496
2.94166 0.967179 4.19991
2.94394 0.97371 4.2358
2.93507 0.975968 4.25283
2.93821 0.980247 4.27175
2.93947 0.986749 4.30565
2.97053 0.991905 4.0473
2.96402 1.00286 4.1112
2.95211 1.00404 4.12327
2.95133 1.00947 4.1522
3.33277 0.541772 -0.26536
3.32551 0.542243 -0.166298
3.31077 0.543727 0.000813881
3.29763 0.545425 0.114903
3.29879 0.546735 0.135878
3.29707 0.547284 0.172888
3.28685 0.550831 0.276927
3.2712 0.557493 0.455971
3.27129 0.557656 0.466969
2.98475 0.990385 3.81018
2.98991 0.994691 3.83108
2.98405 0.997977 3.85008
2.9701 0.997091 3.8572
2.97033 1.00352 3.88611
3.29579 0.56975 0.00154159
3.29503 0.571209 0.0325301
3.29622 0.571594 0.0585189
3.29647 0.573067 0.0904997
3.218 0.629868 1.08639
3.21029 0.632451 1.12541
3.21272 0.639278 1.1813
3.19985 0.638554 1.19941
3.20095 0.639746 1.21239
3.19603 0.639897 1.22242
3.1911 0.640049 1.23246
3.19426 0.643343 1.25239
3.19645 0.646726 1.27833
3.19153 0.646877 1.28836
3.19364 0.649083 1.30232
3.1988 0.65239 1.32323
3.18785 0.651502 1.33033
3.19699 0.655761 1.3482
3.19125 0.658283 1.38321
3.1924 0.661578 1.40315
3.17618 0.6711 1.50515
3.16924 0.670238 1.51422
3.17839 0.674512 1.53309
3.16257 0.674879 1.5572
3.16668 0.677098 1.57214
3.17282 0.681345 1.58904
3.17292 0.682552 1.60302
3.16398 0.682677 1.61109
3.17011 0.685924 1.62799
3.16022 0.686153 1.64307
3.16636 0.689415 1.66097
3.15351 0.689706 1.68007
3.15473 0.693134 1.70901
3.1498 0.694285 1.71903
3.16293 0.698512 1.73488
3.14997 0.697611 1.74099
3.16012 0.701899 1.76085
3.15219 0.702038 1.76991
3.15029 0.703232 1.78291
3.14436 0.703384 1.79295
3.15152 0.707675 1.81284
3.14252 0.705682 1.81293
3.14163 0.707904 1.82791
3.15179 0.713207 1.84876
3.14285 0.712332 1.85684
3.14408 0.716775 1.88677
3.13621 0.718033 1.90381
3.13431 0.720226 1.9168
3.13442 0.721448 1.93178
3.13767 0.726919 1.96368
3.12885 0.729281 1.98771
3.13092 0.730412 1.99668
3.12601 0.731594 2.0087
3.12423 0.736024 2.03765
3.12849 0.741524 2.07155
3.11754 0.740635 2.07864
3.12062 0.742781 2.08859
3.11772 0.744975 2.10158
3.12388 0.749281 2.12247
3.12198 0.75049 2.13647
3.11607 0.751657 2.1475
3.11921 0.754936 2.16643
3.11128 0.755075 2.17549
3.11751 0.761514 2.20535
3.10857 0.760639 2.21343
3.10769 0.762876 2.22941
3.10581 0.7651 2.24439
3.10392 0.767323 2.25937
3.10512 0.771707 2.2853
3.10436 0.77718 2.31723
3.11053 0.781501 2.33913
3.09555 0.779557 2.34227
3.09468 0.781809 2.35924
3.09783 0.786102 2.37916
3.10193 0.788277 2.3911
3.09803 0.790487 2.4051
3.09715 0.792724 2.42107
3.08836 0.79613 2.44809
3.08762 0.801634 2.48202
3.08567 0.802739 2.48902
3.08594 0.808256 2.52394
3.08508 0.811523 2.5419
3.09226 0.816873 2.56577
3.08536 0.81807 2.57881
3.07463 0.821596 2.61384
3.0798 0.826932 2.63673
3.08297 0.831255 2.65864
3.07606 0.832438 2.67068
3.07015 0.83262 2.68272
3.06937 0.838049 2.71165
3.07959 0.84447 2.74048
3.07772 0.847723 2.75745
3.07082 0.848921 2.77049
3.06593 0.850131 2.78451
3.07034 0.860912 2.83732
3.06948 0.864194 2.85628
3.06661 0.866447 2.87327
3.05567 0.866574 2.88135
3.04893 0.871082 2.91534
3.05413 0.877462 2.94121
3.0594 0.883991 2.97708
3.04746 0.884118 2.98517
3.05772 0.891598 3.01799
3.04291 0.893979 3.04307
3.04004 0.897247 3.06104
3.04214 0.899438 3.074
3.03525 0.90165 3.08802
3.04147 0.908074 3.11688
3.03154 0.908215 3.12595
3.03273 0.912584 3.15088
3.03895 0.918993 3.17875
3.03012 0.92234 3.20177
3.03534 0.928765 3.23064
3.02056 0.93119 3.25871
3.02724 0.949501 3.34741
3.01227 0.948586 3.35253
3.01447 0.953969 3.37844
3.01365 0.95831 3.40138
3.00878 0.960565 3.41839
3.0031 0.96819 3.46033
3.02229 0.98856 3.35086
3.02348 0.993929 3.37578
3.0166 0.996156 3.3908
3.25348 0.682892 0.481252
3.25047 0.691818 0.61116
3.2379 0.693671 0.668235
3.23239 0.698637 0.733212
3.23085 0.703541 0.79416
3.22413 0.706094 0.831178
3.18322 0.760085 1.36876
3.17672 0.767067 1.43472
3.16823 0.775064 1.50167
3.16742 0.77845 1.52763
3.16376 0.784103 1.57158
3.16196 0.787489 1.59755
3.16015 0.790875 1.62351
3.15348 0.795516 1.6665
3.15258 0.797709 1.67948
3.15771 0.800957 1.69639
3.15792 0.805371 1.72433
3.14925 0.811014 1.76732
3.14746 0.814429 1.79528
3.13991 0.822308 1.85423
3.13924 0.828944 1.89715
3.13338 0.831215 1.91516
3.14164 0.838726 1.94999
3.13182 0.840074 1.97305
3.12702 0.843462 1.99904
3.1292 0.847815 2.02296
3.1224 0.851205 2.04896
3.12683 0.862045 2.10578
3.11713 0.866629 2.14479
3.07982 0.948815 2.62792
3.26114 0.718172 0.432665
3.2603 0.719483 0.453655
3.24719 0.725225 0.570685
3.24443 0.7277 0.602673
3.24998 0.735776 0.675522
3.23366 0.740121 0.765593
3.22058 0.748921 0.886578
3.21866 0.750085 0.897577
3.20591 0.765522 1.06147
3.205 0.7667 1.07346
3.20217 0.768028 1.09546
3.20929 0.772259 1.11135
3.19848 0.772637 1.13643
3.20258 0.775841 1.15035
3.19665 0.774979 1.15941
3.20477 0.779209 1.17529
3.19483 0.777321 1.18239
3.20396 0.781565 1.19926
3.20305 0.782743 1.21125
3.19306 0.780781 1.21336
3.20219 0.78601 1.22922
3.18933 0.785301 1.24833
3.19143 0.787492 1.26128
3.19468 0.791978 1.29419
3.18775 0.792116 1.30324
3.18784 0.793308 1.31623
3.18994 0.795499 1.32918
3.18603 0.796665 1.34019
3.18613 0.798857 1.35316
3.18522 0.800035 1.36515
3.18527 0.801139 1.37214
3.18044 0.802468 1.39416
3.17883 0.810223 1.44506
3.17787 0.810313 1.45107
3.184 0.81456 1.46796
3.17506 0.813685 1.47604
3.17516 0.814877 1.48903
3.1735 0.821544 1.53395
3.16869 0.823903 1.55795
3.16508 0.830675 1.60989
3.17428 0.837053 1.63573
3.15641 0.836317 1.65287
3.15471 0.84191 1.69281
3.16481 0.846095 1.70567
3.15498 0.847428 1.72773
3.15017 0.850801 1.75272
3.15732 0.855077 1.77161
3.15341 0.856257 1.78362
3.15468 0.862789 1.81952
3.15278 0.863983 1.83252
3.14786 0.865149 1.84354
3.15702 0.870453 1.86439
3.14407 0.868551 1.87052
3.15015 0.871709 1.88143
3.14624 0.87289 1.89344
3.13831 0.873029 1.9025
3.14245 0.876292 1.92042
3.13854 0.877473 1.93244
3.14369 0.88275 1.95132
3.14582 0.885999 1.96826
3.1328 0.88298 1.9664
3.13795 0.887257 1.9853
3.13303 0.887423 1.99634
3.12711 0.88859 2.00737
3.13025 0.891854 2.0253
3.1374 0.897145 2.04517
3.13054 0.899416 2.06319
3.12362 0.899569 2.07324
3.12374 0.901806 2.08921
3.12788 0.907084 2.1081
3.11617 0.910654 2.14614
3.12139 0.917065 2.17401
3.11345 0.917204 2.18307
3.10968 0.92165 2.21304
3.11515 0.934548 2.27382
3.11226 0.936772 2.28881
3.10433 0.936911 2.29787
3.10044 0.938121 2.31188
3.10069 0.944609 2.34479
3.10076 0.946742 2.35375
3.09787 0.948966 2.36875
3.09913 0.955468 2.40264
3.08947 0.962126 2.44663
3.09759 0.967356 2.46249
3.09484 0.972832 2.49443
3.18106 0.882584 1.46898
3.3082 0.870138 0.0260051
3.30539 0.870525 0.052024
3.31048 0.871684 0.0629701
3.3003 0.875305 0.172008
3.28937 0.872446 0.181134
3.2904 0.87252 0.186126
3.29758 0.875855 0.209026
3.29165 0.874992 0.218084
-5.72868 -0.45632 2.46506
-5.71888 -0.455727 2.43797
-5.72195 -0.455873 2.428
-5.71913 -0.456215 2.40498
-5.71746 -0.455868 2.36095
-5.70682 -0.455587 2.31286
-5.70108 -0.455109 2.27781
-5.69841 -0.454763 2.23377
-5.70472 -0.455351 2.19383
-5.70487 -0.455661 2.17283
-5.65458 -0.455015 1.81339
-5.65573 -0.45531 1.7934
-5.66102 -0.454884 1.75443
-5.66124 -0.455313 1.72543
-5.65241 -0.45466 1.70235
-5.65855 -0.454922 1.6844
-5.65171 -0.455253 1.66235
-5.63989 -0.454617 1.63825
-5.65001 -0.454847 1.62233
-5.64318 -0.455177 1.60028
-5.63471 -0.455235 1.5292
-5.62688 -0.455567 1.50715
-5.63201 -0.455829 1.48919
-5.62817 -0.455128 1.46915
-5.63131 -0.455408 1.45017
-5.6224 -0.455592 1.4381
-5.62254 -0.455873 1.41911
-5.62169 -0.45517 1.39909
-5.62184 -0.455451 1.38009
-5.61499 -0.455767 1.35904
-5.61727 -0.455313 1.32205
-5.60637 -0.455514 1.30897
-5.61549 -0.455744 1.29303
-5.60466 -0.456078 1.27096
-5.61378 -0.456323 1.25403
-5.59895 -0.45566 1.2319
-5.60309 -0.455923 1.21393
-5.59731 -0.456372 1.18389
-5.60087 -0.456465 1.10991
-5.58603 -0.455802 1.08779
-5.59216 -0.456049 1.07083
-5.58438 -0.456484 1.04178
-5.58366 -0.457032 1.00477
-5.58693 -0.457563 0.968802
-5.57509 -0.456883 0.9477
-5.57071 -0.457115 0.864659
-5.56999 -0.457664 0.827656
-5.5652 -0.458082 0.799623
-5.54811 -0.457871 0.679474
-5.53179 -0.4602 0.455355
-5.52313 -0.459873 0.410278
-5.49472 -0.462973 0.067063
-5.47982 -0.464161 -0.0800519
-5.47241 -0.465321 -0.158101
-5.50115 -0.426906 0.138587
-5.6707 -0.388336 1.79052
-5.66232 -0.388571 1.70745
-5.65871 -0.388329 1.65641
-5.64803 -0.388974 1.61334
-5.65018 -0.389254 1.59435
-5.64762 -0.389129 1.53532
-5.63701 -0.389907 1.48325
-5.6383 -0.389469 1.44525
-5.63068 -0.39023 1.39419
-5.62983 -0.390512 1.37519
-5.62912 -0.39109 1.33619
-5.62056 -0.39097 1.27711
-5.61892 -0.391682 1.2291
-5.61065 -0.392109 1.13303
-5.60786 -0.392526 1.10502
-5.7233 -0.335744 2.50324
-5.73542 -0.335972 2.48733
-5.71865 -0.336429 2.45721
-5.71026 -0.336635 2.37614
-5.71597 -0.338037 2.28119
-5.7133 -0.338691 2.23717
-5.699 -0.339063 2.14505
-5.68612 -0.33931 2.12896
-5.69525 -0.339555 2.11203
-5.66812 -0.341262 1.86282
-5.67034 -0.34169 1.83383
-5.66466 -0.341331 1.79078
-5.66197 -0.34194 1.74976
-5.6622 -0.342384 1.71977
-5.65267 -0.342324 1.65669
-5.64998 -0.342933 1.61567
-5.64522 -0.343396 1.58464
-5.64352 -0.343989 1.54463
-5.63183 -0.34362 1.50253
-5.62714 -0.34423 1.4615
-5.63235 -0.344626 1.43454
-5.63463 -0.345187 1.39656
-5.61796 -0.345836 1.35344
-5.62823 -0.346362 1.31752
-5.62045 -0.345812 1.28744
-5.61875 -0.346391 1.24843
-5.61803 -0.346954 1.21043
-5.60427 -0.347438 1.17833
-5.60156 -0.348002 1.14031
-5.587 -0.347887 1.08119
-5.60312 -0.348097 1.06632
-5.59934 -0.348529 1.03729
-5.59462 -0.349095 0.999259
-5.58612 -0.350079 0.9332
-5.57768 -0.350196 0.858128
-5.57696 -0.350744 0.821125
-5.58017 -0.351142 0.794152
-5.57172 -0.352244 0.720094
-5.56421 -0.352197 0.656028
-5.54737 -0.35252 0.634903
-5.56348 -0.352731 0.620025
-5.53811 -0.353993 0.535841
-5.53538 -0.354528 0.499824
-5.5475 -0.354756 0.483916
-5.53425 -0.355232 0.38481
-5.52639 -0.355519 0.365752
-5.52053 -0.35579 0.34771
-5.51772 -0.356177 0.321691
-5.52099 -0.356693 0.286718
-5.51426 -0.357231 0.25067
-5.51239 -0.357484 0.233658
-5.51751 -0.357732 0.216698
-5.51372 -0.358134 0.189671
-5.51285 -0.358387 0.172666
-5.50412 -0.358926 0.136603
-5.50438 -0.359444 0.101608
-5.49951 -0.3587 0.084558
-5.49858 -0.358834 0.0755517
-5.49384 -0.359355 0.0405189
-5.49697 -0.359605 0.0235438
-5.4941 -0.359873 0.00552373
-5.49536 -0.360376 -0.0284641
-5.49643 -0.360508 -0.0374553
-5.48856 -0.360766 -0.0545131
-5.49168 -0.361015 -0.0714882
-5.48782 -0.361285 -0.0895158
-5.48308 -0.361792 -0.123549
-5.48227 -0.362177 -0.149553
-5.72871 -0.303588 2.44579
-5.72904 -0.304239 2.4018
-5.71183 -0.305807 2.29668
-5.71399 -0.305116 2.27568
-5.71032 -0.30577 2.23166
-5.69968 -0.306474 2.18458
-5.70198 -0.30708 2.1436
-5.69326 -0.307619 2.10754
-5.67816 -0.310377 1.85443
-5.67249 -0.310018 1.81138
-5.66764 -0.310332 1.79034
-5.66879 -0.310627 1.77035
-5.66197 -0.310973 1.7473
-5.6661 -0.311237 1.72934
-5.65222 -0.311469 1.71423
-5.66035 -0.311715 1.6973
-5.65351 -0.312045 1.67525
-5.65965 -0.312307 1.65729
-5.65381 -0.312637 1.63525
-5.64897 -0.311952 1.6142
-5.6442 -0.312414 1.58317
-5.64251 -0.313008 1.54316
-5.64365 -0.313289 1.52417
-5.63781 -0.313604 1.50313
-5.63995 -0.313884 1.48415
-5.63318 -0.314348 1.4531
-5.63547 -0.314909 1.41512
-5.63361 -0.315191 1.39611
-5.62877 -0.315506 1.37507
-5.62008 -0.315119 1.33399
-5.62414 -0.315235 1.32602
-5.62029 -0.315534 1.306
-5.61345 -0.31585 1.28495
-5.61459 -0.31613 1.26596
-5.60489 -0.31673 1.22589
-5.61309 -0.317109 1.19995
-5.60738 -0.31769 1.16091
-5.60467 -0.318255 1.12289
-5.59682 -0.317557 1.10282
-5.59211 -0.318138 1.06379
-5.59418 -0.31827 1.05481
-5.59632 -0.318535 1.03682
-5.59645 -0.318801 1.01883
-5.58261 -0.319122 0.997724
-5.59673 -0.319349 0.981832
-5.58688 -0.319652 0.961759
-5.59102 -0.319916 0.943792
-5.57724 -0.32037 0.913691
-5.58237 -0.320618 0.896731
-5.57852 -0.320917 0.876703
-5.57367 -0.321202 0.857668
-5.58093 -0.321715 0.822726
-5.56616 -0.32217 0.792617
-5.56928 -0.322419 0.775642
-5.56743 -0.321702 0.756615
-5.56256 -0.321972 0.73858
-5.56969 -0.322219 0.721635
-5.55285 -0.322542 0.70051
-5.5639 -0.322638 0.693593
-5.55904 -0.322922 0.674558
-5.55618 -0.323191 0.656538
-5.54932 -0.323477 0.637488
-5.56044 -0.323706 0.621573
-5.5436 -0.32403 0.600448
-5.55172 -0.324261 0.584511
-5.55878 -0.324374 0.576564
-5.54593 -0.324679 0.556469
-5.55406 -0.324925 0.539532
-5.5532 -0.325192 0.521527
-5.54733 -0.325463 0.503484
-5.54048 -0.32575 0.484434
-5.53261 -0.326022 0.466376
-5.53475 -0.326287 0.448394
-5.54394 -0.32665 0.423465
-5.53008 -0.326942 0.404362
-5.53421 -0.32719 0.387395
-5.53434 -0.327457 0.369397
-5.52449 -0.326746 0.35031
-5.52461 -0.326997 0.333312
-5.52768 -0.327128 0.324336
-5.52382 -0.327398 0.306308
-5.52895 -0.327646 0.289348
-5.51708 -0.327921 0.271261
-5.51822 -0.328186 0.253271
-5.52035 -0.328437 0.236288
-5.51748 -0.328705 0.218268
-5.51654 -0.328824 0.210261
-5.51368 -0.329093 0.192241
-5.51381 -0.329345 0.175244
-5.51694 -0.329609 0.157269
-5.51207 -0.329864 0.140233
-5.5152 -0.330129 0.122259
-5.50034 -0.330406 0.104148
-5.5054 -0.330521 0.0961869
-5.50653 -0.330772 0.0791967
-5.49766 -0.331045 0.0611315
-5.50479 -0.331291 0.0441865
-5.49593 -0.331564 0.0261213
-5.49406 -0.331817 0.00910856
-5.50118 -0.332064 -0.00783642
-5.49625 -0.332201 -0.0168728
-5.49239 -0.33247 -0.0349004
-5.49552 -0.332719 -0.0518755
-5.48764 -0.332977 -0.0689333
-5.48478 -0.333246 -0.0869534
-5.48891 -0.333494 -0.103921
-5.48404 -0.33375 -0.120956
-5.4821 -0.333884 -0.12997
-5.48423 -0.334134 -0.146953
-5.48449 -0.334638 -0.180948
-5.72033 -0.188 2.48503
-5.71211 -0.189546 2.38097
-5.7285 -0.104447 2.45385
-5.72269 -0.104822 2.4288
-5.73282 -0.105066 2.41188
-5.71198 -0.106392 2.39074
-5.72211 -0.106636 2.37382
-5.71279 -0.10899 2.28277
-5.71594 -0.109284 2.2628
-5.71212 -0.109628 2.23977
-5.70223 -0.110857 2.22471
-5.69841 -0.1112 2.20168
-5.6939 -0.113181 2.13567
-5.69123 -0.113819 2.09265
-5.68333 -0.114033 2.0786
-5.67966 -0.115672 2.03559
-5.68181 -0.115966 2.0156
-5.67897 -0.116294 1.99359
-5.65558 -0.121465 1.78046
-5.65872 -0.121744 1.76148
-5.58068 -0.139499 0.971047
-5.57645 -0.142012 0.869038
-5.56529 -0.143664 0.757963
-5.55877 -0.145616 0.693934
-5.55505 -0.146167 0.656909
-5.54507 -0.149173 0.52186
-5.54254 -0.150108 0.458846
-5.53282 -0.150663 0.421776
-5.53002 -0.15105 0.395757
-5.54227 -0.151544 0.361852
-5.52555 -0.153104 0.324744
-5.51982 -0.153642 0.288704
-5.52202 -0.154025 0.262722
-5.52128 -0.154544 0.22772
-5.51142 -0.154818 0.209647
-5.51455 -0.155067 0.192672
-5.50982 -0.155604 0.156639
-5.50789 -0.155738 0.147625
-5.52001 -0.155966 0.131718
-5.50515 -0.156259 0.112608
-5.51227 -0.15649 0.0966626
-5.49941 -0.157781 0.0775822
-5.51053 -0.15701 0.0616524
-5.49967 -0.158284 0.0435869
-5.50374 -0.158414 0.0346182
-5.49887 -0.15867 0.017583
-5.50399 -0.158918 0.000622921
-5.50013 -0.159187 -0.0174047
-5.50126 -0.159438 -0.0343948
-5.49439 -0.15971 -0.052445
-5.49852 -0.159958 -0.0694126
-5.49972 -0.160342 -0.0954015
-5.48385 -0.160606 -0.112519
-5.49497 -0.160849 -0.129434
-5.48111 -0.161126 -0.147537
-5.49324 -0.161369 -0.164445
-5.48737 -0.161625 -0.181487
-5.7185 -0.0724875 2.4513
-5.73461 -0.071698 2.43641
-5.72198 -0.0734327 2.38733
-5.71243 -0.0753132 2.32828
-5.72355 -0.0755568 2.31136
-5.70295 -0.0773417 2.25923
-5.70566 -0.0797316 2.16527
-5.69102 -0.0814529 2.11718
-5.69648 -0.0823522 2.05622
-5.69273 -0.0838435 2.02321
-5.67279 -0.0879457 1.8821
-5.6721 -0.0885534 1.8411
-5.66465 -0.0906397 1.76807
-5.66795 -0.0912148 1.72909
-5.66725 -0.0918076 1.68909
-5.65857 -0.0934506 1.64605
-5.64912 -0.0955235 1.57399
-5.6504 -0.0960853 1.53601
-5.64963 -0.0965301 1.506
-5.63595 -0.0981767 1.46292
-5.63325 -0.0987561 1.4239
-5.62056 -0.100387 1.38183
-5.62078 -0.100816 1.35283
-5.61408 -0.102414 1.3128
-5.61323 -0.102696 1.29379
-5.62535 -0.102924 1.27788
-5.61088 -0.103971 1.20778
-5.60203 -0.105288 1.18673
-5.61515 -0.105501 1.17183
-5.60845 -0.106098 1.13178
-5.60395 -0.108078 1.06577
-5.59651 -0.109194 0.990721
-5.57917 -0.111495 0.903612
-5.58051 -0.112161 0.858626
-5.58677 -0.112674 0.823676
-5.56242 -0.114965 0.737514
-5.56982 -0.115745 0.684574
-5.56543 -0.117947 0.603562
-5.54872 -0.119522 0.565455
-5.544 -0.120073 0.528422
-5.55712 -0.120301 0.512522
-5.54033 -0.120728 0.484398
-5.54573 -0.121509 0.431443
-5.53401 -0.122065 0.394358
-5.5312 -0.123452 0.368354
-5.52887 -0.124757 0.280343
-5.52507 -0.125159 0.253317
-5.51234 -0.126702 0.217239
-5.51693 -0.127853 0.13928
-5.5012 -0.128398 0.103164
-5.50546 -0.128898 0.069199
-5.50372 -0.129418 0.0341888
-5.49292 -0.129811 0.00810964
-5.49518 -0.130327 -0.0268705
-5.48644 -0.131837 -0.0609187
-5.48363 -0.132224 -0.0869377
-5.47742 -0.133768 -0.190976
-5.47461 -0.134156 -0.216995
-5.63831 -0.0609646 1.5444
-5.61604 -0.0673715 1.31529
-5.6124 -0.068085 1.26727
-5.60385 -0.0699648 1.20823
-5.60021 -0.0706782 1.1602
-5.58908 -0.074389 1.04516
-5.50064 -0.096305 0.0416765
-5.4939 -0.0968282 0.00662865
-5.49503 -0.0970791 -0.0103615
-5.72551 0.00342116 2.30921
-5.69385 -0.0071769 2.00008
-5.67729 -0.013017 1.80902
-5.66715 -0.0167122 1.69498
-5.65899 -0.0193617 1.58394
-5.6122 -0.0327032 1.15773
-5.58947 -0.0401767 0.856627
-5.57485 -0.0448969 0.673562
-5.55628 -0.0467544 0.616441
-5.73602 0.0483118 2.50365
-5.73154 0.045287 2.43465
-5.73104 0.0433094 2.36867
-5.72729 0.0418033 2.33466
-5.72081 0.0397918 2.26663
-5.69833 0.0317995 2.06555
-5.67618 0.0231412 1.81948
-5.66045 0.0215968 1.78338
-5.66674 0.0210386 1.74543
-5.66106 0.0194127 1.7034
-5.65438 0.017786 1.66137
-5.65061 0.0173242 1.63034
-5.64093 0.0156805 1.58729
-5.64522 0.014121 1.54934
-5.63953 0.0125099 1.50831
-5.63077 0.0120296 1.47625
-5.62736 0.00887236 1.39826
-5.62117 0.00628351 1.29124
-5.61832 0.00498538 1.27123
-5.60948 0.00466798 1.25017
-5.61055 0.00452068 1.24018
-5.60499 0.00265788 1.18216
-5.60228 0.00109331 1.14415
-5.60241 0.000826865 1.12616
-5.60149 0.000678112 1.11615
-5.59977 0.000114161 1.07814
-5.58936 -0.00303342 1.0011
-5.58358 -0.00346706 0.972055
-5.5937 -0.00369662 0.956133
-5.59583 -0.00396161 0.93815
-5.58997 -0.00524711 0.919123
-5.58113 -0.00556452 0.898058
-5.57741 -0.00711501 0.861048
-5.57462 -0.00753167 0.833029
-5.58189 -0.00804466 0.798087
-5.57017 -0.00961578 0.760016
-5.56433 -0.0099162 0.739974
-5.56939 -0.010031 0.732013
-5.56167 -0.0115844 0.694972
-5.5608 -0.0118516 0.676967
-5.56394 -0.0121158 0.658992
-5.55622 -0.0126693 0.621937
-5.55255 -0.0143382 0.576928
-5.55169 -0.0146054 0.558923
-5.54896 -0.0151405 0.522906
-5.55309 -0.0153892 0.505938
-5.54743 -0.0170596 0.460914
-5.53757 -0.0173481 0.441841
-5.53971 -0.0176131 0.423859
-5.53598 -0.0191488 0.387848
-5.53704 -0.0192665 0.379857
-5.53744 -0.020051 0.326864
-5.52572 -0.0216073 0.289794
-5.52098 -0.0221291 0.254761
-5.51605 -0.0222659 0.245725
-5.53317 -0.0224904 0.229855
-5.52244 -0.0230313 0.193777
-5.52957 -0.0232778 0.176832
-5.52071 -0.0235508 0.158767
-5.51491 -0.0249548 0.13174
-5.52217 -0.025453 0.0977976
-5.51057 -0.0262462 0.0447146
-5.51569 -0.0264942 0.0277546
-5.50676 -0.026634 0.0186881
-5.51089 -0.0268827 0.00172058
-5.49916 -0.0284094 -0.0333501
-5.49642 -0.0289297 -0.0683678
-5.49888 -0.0298312 -0.129344
-5.49701 -0.0300843 -0.146357
-5.49713 -0.030336 -0.163355
-5.49526 -0.0305891 -0.180367
-5.65138 0.0517209 1.65684
-5.64023 0.0480545 1.5448
-5.60669 0.0372033 1.21866
-5.58741 0.0298135 0.990594
-5.51355 0.0077071 0.176253
-5.48143 2.72844e-05 -0.205928
-5.68663 0.105102 2.01837
-5.66785 0.0976897 1.85631
-5.66708 0.0972301 1.82531
-5.66539 0.0956219 1.78432
-5.65573 0.0929635 1.74028
-5.65211 0.0912058 1.68927
-5.64687 0.0877066 1.58827
-5.63855 0.084368 1.49824
-5.63386 0.0827576 1.45722
-5.63401 0.0824763 1.43823
-5.6271 0.0812937 1.42619
-5.62354 0.0794176 1.36718
-5.61606 0.0773905 1.29815
-5.61321 0.0761072 1.27914
-5.6095 0.075527 1.24012
-5.61313 0.0732858 1.15617
-5.59945 0.070669 1.1151
-5.60358 0.0704054 1.09713
-5.59688 0.0688232 1.0581
-5.59109 0.0683895 1.02906
-5.59323 0.0671246 1.01109
-5.58566 0.0652752 0.954051
-5.57716 0.0632918 0.888007
-5.57644 0.0627434 0.851005
-5.56972 0.0611759 0.812972
-5.5682 0.059242 0.749981
-5.57361 0.0584463 0.696026
-5.56874 0.0571763 0.678005
-5.56183 0.0570084 0.666954
-5.55896 0.0567397 0.648934
-5.5601 0.056474 0.630944
-5.56123 0.0552084 0.612969
-5.55438 0.0549221 0.593919
-5.55564 0.0544047 0.558931
-5.55271 0.0532694 0.549925
-5.55184 0.0530022 0.53192
-5.55198 0.0527358 0.513922
-5.54812 0.0524664 0.495895
-5.54725 0.0511994 0.477904
-5.54739 0.0509329 0.459907
-5.54552 0.050665 0.441894
-5.55058 0.0505503 0.433933
-5.54286 0.0499967 0.396878
-5.539 0.0487275 0.378865
-5.53713 0.0484596 0.360853
-5.53926 0.0482094 0.34387
-5.54339 0.0479607 0.326902
-5.54046 0.0478253 0.317881
-5.54059 0.0475588 0.299884
-5.52913 0.0454992 0.228818
-5.52727 0.0452313 0.210805
-5.52333 0.0440953 0.201791
-5.5166 0.0435721 0.166743
-5.52399 0.0428075 0.114803
-5.51246 0.0408811 0.0527363
-5.50959 0.0406273 0.0357161
-5.69539 0.139534 2.04693
-5.64835 0.122696 1.65477
-5.64288 0.119641 1.58376
-5.64517 0.11808 1.5458
-5.63749 0.116453 1.50376
-5.63963 0.116173 1.48478
-5.63279 0.114857 1.46374
-5.62446 0.111533 1.37472
-5.61976 0.109938 1.3347
-5.61983 0.109804 1.3257
-5.61926 0.10796 1.26872
-5.61071 0.10508 1.20969
-5.60778 0.10493 1.19966
-5.59765 0.10122 1.08463
-5.5978 0.0999389 1.06564
-5.59029 0.0979562 0.999609
-5.58479 0.095975 0.933587
-5.58906 0.0954598 0.898622
-5.57749 0.0926076 0.841569
-5.56998 0.0906397 0.776533
-5.57125 0.0901075 0.740546
-5.5646 0.0884216 0.694514
-5.564 0.0866217 0.640529
-5.55429 0.085052 0.602473
-5.54977 0.0831159 0.539459
-5.54704 0.0825808 0.503442
-5.54451 0.080661 0.441443
-5.53578 0.0791217 0.405395
-5.5439 0.0798758 0.388442
-5.54004 0.0786065 0.37043
-5.53218 0.0783342 0.352372
-5.5373 0.0780862 0.335412
-5.52452 0.0766624 0.307333
-5.52778 0.0761465 0.27236
-5.53191 0.0758978 0.255393
-5.52118 0.074357 0.21933
-5.51651 0.073702 0.175298
-5.5109 0.071928 0.123275
-5.51004 0.0716609 0.10527
-5.50711 0.0715255 0.0962484
-5.51024 0.071276 0.0792734
-5.5085 0.0707565 0.0442631
-5.50963 0.0705056 0.027273
-5.50176 0.0692334 0.00923009
-5.50689 0.0689854 -0.00772993
-5.50995 0.0688692 -0.0157063
-5.50209 0.0685969 -0.033764
-5.49335 0.0670724 -0.068812
-5.49648 0.0668229 -0.0857871
-5.49661 0.0665713 -0.102785
-5.50174 0.0673231 -0.11976
-5.4938 0.0661842 -0.128804
-5.49593 0.065934 -0.145786
-5.4852 0.0654079 -0.180864
-5.48932 0.0651592 -0.197832
-5.47945 0.0639004 -0.21489
-5.47959 0.0636339 -0.232887
-5.69304 0.209147 1.95287
-5.63475 0.180882 1.32976
-5.62114 0.173147 1.14575
-5.6088 0.16985 1.05869
-5.61193 0.169586 1.04072
-5.59135 0.161788 0.852651
-5.56104 0.150495 0.496541
-5.54166 0.143312 0.282472
-5.51764 0.175322 0.148799
-5.5089 0.173797 0.11375
-5.5061 0.17341 0.0877315
-5.48948 0.168688 -0.0953491
-5.48674 0.168168 -0.130367
-5.4848 0.168048 -0.138381
-5.48219 0.166276 -0.190381
-5.66344 0.27329 1.76067
-5.66659 0.273011 1.74169
-5.65559 0.266034 1.6087
-5.64229 0.261662 1.51665
-5.64343 0.260382 1.49767
-5.63411 0.256043 1.40765
-5.62656 0.253149 1.34763
-5.62393 0.251436 1.29963
-5.59947 0.241399 1.09557
-5.57566 0.230088 0.805516
-5.56356 0.225317 0.686479
-5.54859 0.220278 0.549422
-5.53414 0.213232 0.344389
-5.52661 0.211309 0.282352
-5.52973 0.211059 0.265377
-5.52787 0.210791 0.247364
-5.5166 0.207347 0.150317
-5.51886 0.206845 0.116337
-5.50906 0.205438 0.08928
-5.50804 0.203512 -0.0407172
-5.49518 0.201237 -0.0587829
-5.49857 0.201469 -0.110768
-5.4887 0.20021 -0.127826
-5.49777 0.200084 -0.136757
-5.68401 0.3141 1.81423
-5.6801 0.31292 1.80221
-5.67726 0.311607 1.78121
-5.66644 0.309244 1.75716
-5.66959 0.308965 1.73818
-5.67373 0.308686 1.71922
-5.67288 0.30739 1.69923
-5.65608 0.304993 1.67313
-5.66712 0.305912 1.6672
-5.6563 0.303549 1.64315
-5.65246 0.302235 1.62214
-5.65161 0.300938 1.60215
-5.64992 0.299345 1.56215
-5.65505 0.299082 1.54419
-5.64822 0.297752 1.52216
-5.65029 0.29762 1.51318
-5.64644 0.296321 1.49316
-5.6426 0.295007 1.47215
-5.63876 0.293694 1.45114
-5.64189 0.293429 1.43316
-5.63605 0.292114 1.41214
-5.63919 0.291835 1.39316
-5.62729 0.289634 1.3801
-5.63243 0.289371 1.36214
-5.62758 0.288072 1.34212
-5.63072 0.287808 1.32415
-5.63386 0.287529 1.30517
-5.61918 0.283896 1.26311
-5.62124 0.283764 1.25413
-5.6124 0.282447 1.23308
-5.61953 0.282201 1.21613
-5.62267 0.281936 1.19816
-5.60983 0.280601 1.17608
-5.61597 0.280339 1.15812
-5.60912 0.279038 1.13809
-5.61319 0.278908 1.12912
-5.60848 0.276342 1.09112
-5.61061 0.276077 1.07314
-5.60476 0.274777 1.05311
-5.60591 0.274496 1.03412
-5.59606 0.273193 1.01406
-5.60212 0.273079 1.00611
-5.59428 0.271762 0.985064
-5.59441 0.271496 0.967066
-5.59456 0.270215 0.948084
-5.59469 0.269948 0.930086
-5.59982 0.2697 0.913126
-5.58399 0.267363 0.891038
-5.59005 0.268249 0.88307
-5.59417 0.268 0.866102
-5.58533 0.266698 0.846052
-5.58547 0.265417 0.82707
-5.58661 0.265151 0.80908
-5.58189 0.2636 0.772062
-5.58501 0.26335 0.755087
-5.5791 0.262183 0.744058
-5.57623 0.261915 0.726038
-5.57737 0.260649 0.708063
-5.57565 0.2601 0.671053
-5.56793 0.257547 0.634027
-5.57299 0.258432 0.626051
-5.57212 0.257165 0.608061
-5.56927 0.256881 0.589041
-5.5694 0.25663 0.572043
-5.56454 0.255345 0.553023
-5.56068 0.254076 0.53501
-5.55582 0.253791 0.515975
-5.56288 0.253677 0.508029
-5.56101 0.253409 0.490017
-5.56015 0.252142 0.472026
-5.55442 0.251605 0.435986
-5.54669 0.249067 0.399961
-5.5499 0.248669 0.372987
-5.54356 0.246362 0.284961
-5.5399 0.244693 0.239952
-5.53717 0.244172 0.204934
-5.49174 0.23309 -0.136291
-5.4922 0.232187 -0.197283
-5.67218 0.426605 1.78047
-5.68031 0.42636 1.76353
-5.67316 0.420696 1.65155
-5.66448 0.417054 1.60853
-5.6657 0.415625 1.57955
-5.6449 0.412225 1.55344
-5.65119 0.411667 1.51549
-5.64649 0.409072 1.47549
-5.63318 0.402715 1.38447
-5.63346 0.401153 1.34649
-5.62363 0.39982 1.32444
-5.62278 0.398538 1.30545
-5.62784 0.398423 1.29748
-5.62998 0.398143 1.2785
-5.61815 0.395809 1.25644
-5.62827 0.39658 1.24051
-5.62143 0.394264 1.21949
-5.61771 0.392699 1.18148
-5.61564 0.386876 1.05853
-5.61385 0.38546 1.03053
-5.60301 0.384142 1.00947
-5.59916 0.382857 0.990457
-5.60628 0.382611 0.973512
-5.59744 0.381308 0.953462
-5.59259 0.380009 0.933442
-5.5908 0.378593 0.905445
-5.60005 0.378096 0.871518
-5.58422 0.375759 0.84943
-5.58037 0.374475 0.830417
-5.58549 0.374227 0.813457
-5.57564 0.372924 0.7934
-5.57671 0.372791 0.784408
-5.5871 0.372029 0.732491
-5.57226 0.369707 0.71141
-5.5694 0.368439 0.693405
-5.5736 0.368042 0.666439
-5.57787 0.367527 0.631474
-5.56416 0.364955 0.593403
-5.56429 0.363688 0.575421
-5.55943 0.362418 0.5574
-5.56649 0.363305 0.549439
-5.55164 0.360998 0.529359
-5.55777 0.361751 0.512391
-5.55291 0.360466 0.493371
-5.54905 0.359197 0.475358
-5.54318 0.357926 0.457331
-5.55231 0.358681 0.440386
-5.54738 0.357544 0.431364
-5.54352 0.356275 0.413351
-5.54165 0.356007 0.395339
-5.54179 0.35574 0.377341
-5.54191 0.355489 0.360344
-5.54205 0.354222 0.342361
-5.53619 0.352952 0.324333
-5.53925 0.353821 0.315342
-5.53838 0.352568 0.298352
-5.53465 0.352032 0.262327
-5.53578 0.351782 0.245337
-5.53392 0.350514 0.227339
-5.53705 0.350264 0.210364
-5.52126 0.347838 0.182277
-5.51592 0.345546 0.0952585
-5.51504 0.345294 0.0782533
-5.51411 0.34516 0.069247
-5.51724 0.344911 0.0522719
-5.51238 0.343641 0.0342516
-5.50677 0.341867 -0.0177716
-5.5039 0.341598 -0.0357917
-5.5071 0.341215 -0.0617655
-5.50523 0.340962 -0.0787782
-5.49636 0.339704 -0.0958288
-5.49362 0.338184 -0.130832
-5.49582 0.3388 -0.156828
-5.54135 0.391551 0.431816
-5.50436 0.376631 0.0337027
-5.48953 0.372311 -0.122367
-5.49666 0.373064 -0.139326
-5.68778 0.503304 1.82646
-5.68295 0.501975 1.80444
-5.68103 0.500811 1.79344
-5.67021 0.498448 1.76939
-5.67535 0.498185 1.75143
-5.67749 0.496906 1.73246
-5.66568 0.494527 1.7074
-5.6748 0.494297 1.69147
-5.67595 0.493001 1.6715
-5.66206 0.490784 1.65743
-5.66221 0.489488 1.63744
-5.67034 0.490242 1.62049
-5.65553 0.486862 1.59543
-5.66366 0.486616 1.57849
-5.66381 0.48632 1.55849
-5.66295 0.485038 1.5395
-5.66203 0.483889 1.52951
-5.64921 0.481525 1.50544
-5.64537 0.480211 1.48443
-5.64751 0.478946 1.46646
-5.64666 0.47765 1.44647
-5.65079 0.477386 1.42851
-5.64794 0.476088 1.4085
-5.64702 0.475939 1.3985
-5.63919 0.473608 1.37647
-5.64033 0.473327 1.35748
-5.6305 0.470995 1.33544
-5.64062 0.470765 1.31951
-5.63777 0.469467 1.29951
-5.63107 0.46687 1.25949
-5.62715 0.465719 1.24948
-5.6223 0.46442 1.22946
-5.61945 0.463122 1.20945
-5.63057 0.463893 1.19352
-5.62472 0.462592 1.17349
-5.61389 0.460259 1.15144
-5.62102 0.460012 1.1345
-5.61709 0.458862 1.12449
-5.61624 0.45858 1.10548
-5.61238 0.457295 1.08647
-5.62051 0.45705 1.06953
-5.61666 0.455751 1.04952
-5.61201 0.453052 1.00252
-5.60817 0.451753 0.982504
-5.6063 0.450485 0.964506
-5.60045 0.449185 0.944478
-5.60459 0.448921 0.926511
-5.59873 0.447636 0.907483
-5.59794 0.446221 0.879494
-5.59609 0.445938 0.860482
-5.59722 0.444672 0.842507
-5.58738 0.443369 0.822449
-5.58851 0.442103 0.804474
-5.59264 0.441855 0.787506
-5.59178 0.441588 0.769501
-5.58386 0.440419 0.758458
-5.585 0.439153 0.740482
-5.58613 0.438888 0.722492
-5.58327 0.437619 0.704487
-5.57641 0.436333 0.685452
-5.57355 0.43605 0.666432
-5.58068 0.435803 0.649487
-5.57076 0.434648 0.639428
-5.57089 0.433381 0.621445
-5.56804 0.433098 0.602425
-5.57517 0.432851 0.58548
-5.56445 0.430296 0.548432
-5.56158 0.429027 0.530427
-5.56371 0.428777 0.513444
-5.56278 0.428643 0.504438
-5.55592 0.427357 0.485403
-5.55606 0.427091 0.467405
-5.56019 0.426842 0.450438
-5.55333 0.425556 0.431402
-5.54747 0.424285 0.413375
-5.5496 0.42402 0.395392
-5.55066 0.423902 0.387401
-5.5488 0.422635 0.369403
-5.54693 0.422367 0.35139
-5.54507 0.421099 0.333393
-5.53834 0.419561 0.29736
-5.54447 0.420314 0.280392
-5.54154 0.419178 0.271386
-5.53867 0.418924 0.254366
-5.5348 0.417655 0.236353
-5.53194 0.416387 0.218348
-5.53407 0.416136 0.201365
-5.5334 0.415484 0.157363
-5.53266 0.413966 0.122376
-5.5198 0.41269 0.104295
-5.52893 0.413445 0.0873503
-5.52519 0.411924 0.0523399
-5.51926 0.410786 0.0433108
-5.52152 0.41027 0.00833064
-5.51666 0.409 -0.00968969
-5.51592 0.408496 -0.0436925
-5.51025 0.40684 -0.0877168
-5.49903 0.404292 -0.191778
-5.50123 0.403909 -0.217759
-5.67286 0.614985 1.80469
-5.67401 0.61369 1.78471
-5.68521 0.614313 1.75879
-5.67141 0.610918 1.73273
-5.67155 0.609637 1.71375
-5.66373 0.606291 1.69073
-5.66188 0.604979 1.66974
-5.65904 0.603666 1.64873
-5.66011 0.603534 1.63974
-5.65428 0.601204 1.61773
-5.65159 0.598595 1.57674
-5.65573 0.597331 1.55879
-5.65004 0.59472 1.51778
-5.65824 0.594327 1.49084
-5.64142 0.590959 1.46676
-5.64157 0.589663 1.44678
-5.64272 0.588383 1.4278
-5.64087 0.587086 1.40781
-5.644 0.586821 1.38983
-5.6371 0.584639 1.37781
-5.63525 0.583341 1.35781
-5.63753 0.581795 1.32085
-5.63383 0.5792 1.28085
-5.62321 0.575453 1.23082
-5.6235 0.57289 1.19286
-5.62164 0.572608 1.17384
-5.62477 0.571344 1.15588
-5.61394 0.56901 1.13383
-5.61009 0.567726 1.11482
-5.60731 0.565295 1.08583
-5.61144 0.565031 1.06786
-5.61757 0.565784 1.0509
-5.61871 0.564503 1.03192
-5.60687 0.562184 1.01086
-5.60309 0.560752 0.981852
-5.59538 0.557184 0.943841
-5.60351 0.557938 0.926889
-5.60478 0.556406 0.890916
-5.59893 0.555106 0.870889
-5.58702 0.55292 0.85883
-5.58916 0.551655 0.840862
-5.58444 0.550103 0.803845
-5.58357 0.548836 0.785854
-5.57772 0.547536 0.765827
-5.57686 0.546269 0.747836
-5.58192 0.547154 0.73986
-5.57435 0.54332 0.683852
-5.57148 0.542051 0.665847
-5.57262 0.541786 0.647857
-5.56776 0.540501 0.628837
-5.57588 0.54127 0.612884
-5.56396 0.539098 0.601825
-5.56124 0.537563 0.565823
-5.55638 0.536278 0.546802
-5.5725 0.538053 0.530895
-5.55985 0.534363 0.484848
-5.56198 0.534113 0.467866
-5.55013 0.531808 0.447808
-5.55226 0.531558 0.430825
-5.55139 0.530291 0.412835
-5.55952 0.531045 0.395883
-5.55366 0.529774 0.377855
-5.55272 0.52964 0.368848
-5.53887 0.526349 0.34979
-5.547 0.527103 0.332838
-5.53814 0.525816 0.313788
-5.53041 0.523277 0.277762
-5.54353 0.52505 0.261832
-5.53474 0.522644 0.234798
-5.53587 0.522393 0.217808
-5.538 0.522128 0.199825
-5.53527 0.520608 0.164823
-5.5344 0.52034 0.146817
-5.52747 0.519202 0.137781
-5.52261 0.517932 0.119761
-5.52773 0.518684 0.102786
-5.52087 0.517413 0.0847503
-5.526 0.517165 0.0677903
-5.51114 0.514888 0.0497095
-5.51433 0.514505 0.0237357
-5.5106 0.512984 -0.0112748
-5.50299 0.511208 -0.063313
-5.50631 0.510574 -0.106285
-5.49884 0.508532 -0.17632
-5.50297 0.508284 -0.193288
-5.5031 0.508032 -0.210285
-5.68021 0.640277 1.75636
-5.67537 0.637948 1.73436
-5.67867 0.636373 1.6954
-5.67682 0.635075 1.6754
-5.67106 0.632598 1.64339
-5.66867 0.626412 1.56345
-5.66198 0.6238 1.52244
-5.64738 0.618005 1.46941
-5.65053 0.617726 1.45043
-5.6538 0.616181 1.41347
-5.64796 0.613866 1.39246
-5.64505 0.612701 1.38145
-5.6402 0.611401 1.36143
-5.64234 0.610121 1.34247
-5.64263 0.608559 1.30449
-5.6338 0.606227 1.28245
-5.63294 0.604945 1.26346
-5.62403 0.602761 1.25143
-5.62318 0.601479 1.23243
-5.63244 0.600968 1.19751
-5.62489 0.597089 1.1385
-5.61797 0.595921 1.12746
-5.6134 0.592074 1.07048
-5.61069 0.58951 1.03249
-5.61482 0.589261 1.01552
-5.60305 0.586794 0.984467
-5.60332 0.585261 0.948486
-5.59348 0.581943 0.927458
-5.60674 0.582449 0.893546
