3.24478 0.0255254 0.0503506
3.25186 0.0266831 0.0612816
3.24398 0.025911 0.0763545
3.24706 0.0270716 0.0873156
3.23913 0.0262107 0.0963894
3.24421 0.0273698 0.107335
3.24737 0.0276785 0.12831
3.23856 0.0280551 0.153374
3.24772 0.0293741 0.175289
3.23278 0.0285035 0.183415
3.23494 0.0288129 0.204397
3.23498 0.0288869 0.209397
3.23706 0.0300482 0.220365
3.23314 0.0291992 0.230409
3.23021 0.0293494 0.24043
3.23029 0.0294975 0.250429
3.24038 0.0306677 0.262337
3.23557 0.0310562 0.288371
3.23473 0.0323677 0.309361
3.22479 0.0314935 0.31745
3.22287 0.031643 0.327463
3.22391 0.0317311 0.333455
3.226 0.0318924 0.344438
3.22007 0.03203 0.353482
3.22716 0.0332024 0.365413
3.22331 0.0335014 0.385441
3.2314 0.0346879 0.398364
3.22443 0.0337375 0.401431
3.22251 0.0339018 0.412444
3.21758 0.0340387 0.421481
3.21766 0.0342015 0.432479
3.22283 0.0355234 0.454424
3.2149 0.0356624 0.463483
3.21598 0.0358245 0.474474
3.21902 0.0359112 0.48045
3.21309 0.0360488 0.489494
3.21217 0.0362123 0.5005
3.21726 0.0373862 0.512446
3.22035 0.0385467 0.523407
3.20841 0.037674 0.531511
3.20748 0.0378228 0.541517
3.21053 0.0379094 0.547494
3.20961 0.0380729 0.5585
3.2087 0.0392364 0.569491
3.21379 0.0394104 0.581452
3.20897 0.0397841 0.606486
3.20914 0.0411096 0.628468
3.20622 0.0412598 0.638489
3.20931 0.0424352 0.65045
3.20037 0.0415603 0.658532
3.20145 0.0417223 0.669523
3.20751 0.0428363 0.677462
3.2106 0.0440116 0.689423
3.19965 0.0431234 0.696519
3.20776 0.0443247 0.710442
3.19682 0.0434512 0.718539
3.20191 0.0446251 0.730485
3.19498 0.0447634 0.739536
3.20308 0.0459499 0.752459
3.20513 0.0460521 0.759443
3.2002 0.0461889 0.76848
3.2063 0.0473769 0.781418
3.20237 0.0475278 0.791447
3.19544 0.0466662 0.800513
3.19657 0.047917 0.817488
3.19264 0.048068 0.827517
3.19874 0.0492559 0.840455
3.1878 0.0483825 0.848552
3.18997 0.0497214 0.871519
3.19407 0.0509108 0.884472
3.19913 0.0520255 0.892418
3.19721 0.0521749 0.902432
3.18627 0.0513015 0.910529
3.18434 0.051451 0.920542
3.18243 0.0516152 0.931556
3.18251 0.0527779 0.942539
3.19564 0.05402 0.959424
3.19368 0.0540955 0.964439
3.18774 0.0542331 0.973483
3.19485 0.0554351 0.987413
3.1799 0.054535 0.99354
3.18217 0.0570662 1.02949
3.1813 0.0573185 1.0465
3.18339 0.0584946 1.05846
3.17846 0.0586463 1.0685
3.18959 0.0598898 1.0854
3.17964 0.0600007 1.09247
3.17682 0.0603433 1.11549
3.17586 0.0604181 1.1205
3.18096 0.0616216 1.13445
3.17403 0.0617599 1.1435
3.17823 0.0631417 1.16945
3.17636 0.0644095 1.18745
3.17244 0.0645604 1.19748
3.17472 0.0671065 1.23443
3.16377 0.0662182 1.24152
3.16788 0.0674372 1.25648
3.17094 0.0685385 1.26344
3.16601 0.0686902 1.27347
3.1651 0.0688686 1.28548
3.17122 0.0700861 1.30042
3.08764 0.137623 2.4132
3.08676 0.13886 2.42919
3.07066 0.156602 2.68109
3.00655 0.240056 3.72148
3.26536 0.0626933 -0.2754
3.2654 0.0627821 -0.2694
3.27148 0.0639256 -0.259462
3.27155 0.0640737 -0.249463
3.26963 0.0632232 -0.239435
3.27471 0.0643823 -0.228489
3.27479 0.0645304 -0.21849
3.26686 0.0636843 -0.208416
3.27398 0.0649159 -0.192486
3.26206 0.0640728 -0.182382
3.26121 0.0643696 -0.162378
3.26329 0.064531 -0.151394
3.2684 0.0657493 -0.136449
3.26156 0.0650653 -0.115384
3.25779 0.0655123 -0.0853581
3.25686 0.0656611 -0.0753519
3.24894 0.064815 -0.0652783
3.25398 0.0659001 -0.0593316
3.25314 0.0661969 -0.0393268
3.25021 0.0653472 -0.0292908
3.26238 0.0676639 -0.00741372
3.25348 0.0668778 0.00666687
3.25564 0.0671872 0.0276489
3.2548 0.0684986 0.0486387
3.24587 0.0676385 0.05772
3.25191 0.067723 0.0636741
3.24899 0.0678732 0.0736952
3.2463 0.0684823 0.114712
3.24237 0.0686332 0.124741
3.24542 0.0697197 0.130703
3.2505 0.0698789 0.141664
3.24958 0.0700277 0.15167
3.24765 0.0701771 0.161683
3.24207 0.0720103 0.217706
3.24023 0.0723226 0.238718
3.24631 0.073481 0.249657
3.23746 0.0727837 0.269736
3.24259 0.0740168 0.285682
3.2409 0.0746399 0.327691
3.23994 0.0747147 0.332698
3.23009 0.075018 0.35277
3.22824 0.0753155 0.372783
3.22143 0.0756907 0.397832
3.22852 0.0768631 0.409763
3.2266 0.0770126 0.419776
3.23169 0.0781865 0.431722
3.23177 0.0783493 0.442721
3.22985 0.0784988 0.452734
3.21899 0.0777881 0.471829
3.22312 0.0790368 0.488782
3.22821 0.0802106 0.500728
3.22829 0.0803735 0.511727
3.22544 0.0806717 0.531746
3.21049 0.0797864 0.538873
3.21864 0.0810617 0.557795
3.21479 0.0823605 0.577808
3.216 0.0827743 0.605797
3.22109 0.0839482 0.617743
3.21524 0.0842486 0.637785
3.21048 0.085711 0.668803
3.21453 0.0858117 0.675772
3.20359 0.0849382 0.683869
3.2137 0.0871379 0.697762
3.21679 0.0873134 0.709738
3.19983 0.0864147 0.71588
3.20893 0.0876005 0.728795
3.20701 0.0877647 0.739809
3.20212 0.0879904 0.754844
3.19343 0.0896038 0.795892
3.19361 0.0909441 0.818874
3.20668 0.0920826 0.82876
3.20176 0.0922342 0.838796
3.20184 0.093397 0.84978
3.19792 0.0935479 0.859808
3.19107 0.093849 0.879858
3.20215 0.0949889 0.889759
3.20031 0.096316 0.911757
3.18736 0.0954291 0.918868
3.20048 0.0966564 0.934753
3.18553 0.0957562 0.94088
3.19264 0.0969583 0.954811
3.19979 0.099249 0.974726
3.19286 0.0993873 0.983777
3.19395 0.0995642 0.995768
3.19203 0.0997285 1.00678
3.18008 0.0998409 1.01387
3.18318 0.100031 1.02685
3.18828 0.10122 1.03979
3.19234 0.102335 1.04775
3.19343 0.103512 1.05972
3.1875 0.10265 1.06878
3.1926 0.103853 1.08273
3.17581 0.10428 1.11085
3.18197 0.105586 1.13179
3.18216 0.107941 1.15575
3.17221 0.107052 1.16284
3.18138 0.109386 1.18574
3.17554 0.109701 1.20679
3.16962 0.109854 1.21683
3.16669 0.110004 1.22685
3.16587 0.11136 1.25084
3.16693 0.112463 1.25782
3.162 0.112614 1.26785
3.16812 0.113832 1.28279
3.17022 0.115038 1.29676
3.16739 0.11638 1.31976
3.15369 0.125921 1.49075
3.14881 0.126162 1.50678
3.15695 0.128422 1.52469
3.14901 0.127561 1.53377
3.15213 0.129781 1.54871
3.15323 0.129988 1.5627
3.14429 0.130113 1.57077
3.14434 0.130201 1.57677
3.14745 0.131421 1.59173
3.15559 0.133682 1.60964
3.15088 0.136247 1.64764
3.13993 0.135359 1.65474
3.14199 0.136476 1.66271
3.14913 0.137737 1.68064
3.13617 0.137836 1.68673
3.13527 0.138029 1.69974
3.13939 0.139263 1.71569
3.14251 0.141497 1.73164
3.1396 0.141677 1.74366
3.13568 0.141843 1.75469
3.13875 0.142973 1.76365
3.14389 0.145236 1.78158
3.146 0.146456 1.79655
3.13807 0.145596 1.80562
3.13818 0.146803 1.8196
3.1223 0.15702 1.96859
3.12443 0.15827 1.98556
3.12768 0.160741 2.0175
3.13075 0.161887 2.02746
3.12595 0.163275 2.05348
3.12305 0.164485 2.06749
3.11311 0.164596 2.07456
3.1205 0.16836 2.12646
3.11654 0.168437 2.13149
3.11275 0.170854 2.15949
3.12193 0.173188 2.18238
3.10495 0.172245 2.18553
3.11111 0.174551 2.20645
3.10738 0.177086 2.24244
3.10058 0.178491 2.26948
3.10474 0.180784 2.28942
3.1019 0.182112 2.31142
3.0931 0.183503 2.33747
3.09436 0.18702 2.37241
3.09248 0.187243 2.38743
3.08858 0.188439 2.40044
3.09065 0.189585 2.41041
3.09883 0.191934 2.43432
3.08614 0.194551 2.47538
3.08245 0.197145 2.51537
3.08386 0.201958 2.5703
3.07608 0.204393 2.59933
3.07528 0.206779 2.6253
3.07296 0.214112 2.71522
3.0703 0.21778 2.76019
3.05932 0.228772 2.89413
3.04484 0.246742 3.094
3.04508 0.249216 3.12597
3.27755 0.0860373 -0.251834
3.27375 0.086425 -0.225807
3.27482 0.0865723 -0.215816
3.2649 0.0857278 -0.205727
3.26406 0.0860393 -0.184723
3.27213 0.0871814 -0.174799
3.26417 0.0862614 -0.169725
3.26933 0.0865686 -0.148765
3.26848 0.0868654 -0.128761
3.26067 0.0872561 -0.102704
3.26475 0.0874012 -0.0927355
3.26583 0.0875633 -0.0817446
3.26406 0.0880088 -0.0517337
3.25949 0.0888562 0.00529608
3.25964 0.0901521 0.0252785
3.25607 0.0909988 0.0823008
3.25526 0.0913844 0.108305
3.22641 0.10258 0.525414
3.21817 0.106081 0.626438
3.21378 0.109284 0.707435
3.21591 0.110534 0.724403
3.20322 0.11115 0.765495
3.20452 0.113726 0.804452
3.2077 0.115079 0.828412
3.20386 0.115393 0.849439
3.19514 0.116947 0.886487
3.20124 0.11815 0.900425
3.19932 0.118299 0.910438
3.19648 0.119627 0.932443
3.18877 0.120196 0.970498
3.19597 0.122575 0.996412
3.1971 0.123841 1.01439
3.18925 0.124143 1.03444
3.18241 0.124458 1.05549
3.18752 0.125662 1.06944
3.18556 0.125737 1.07445
3.18464 0.126901 1.08545
3.18072 0.127052 1.09547
3.17378 0.12719 1.10453
3.1829 0.12842 1.12044
3.183 0.129613 1.13342
3.18108 0.129762 1.14344
3.18719 0.13098 1.15838
3.17419 0.129989 1.15849
3.17438 0.131359 1.18347
3.17246 0.132523 1.19447
3.17557 0.132728 1.20844
3.18274 0.135049 1.23036
3.17279 0.13516 1.23743
3.16495 0.135476 1.25849
3.16905 0.136681 1.27244
3.17417 0.137899 1.28739
3.16624 0.138038 1.29645
3.16537 0.139305 1.31444
3.16958 0.140702 1.34139
3.16264 0.14084 1.35044
3.16475 0.142046 1.36441
3.16686 0.143251 1.37838
3.16418 0.14589 1.42137
3.1693 0.147123 1.43731
3.16362 0.149749 1.47932
3.1597 0.149914 1.49035
3.16291 0.152326 1.51829
3.15398 0.152451 1.52636
3.15418 0.153851 1.55334
3.15624 0.154968 1.56131
3.16036 0.156202 1.57726
3.15644 0.156367 1.58829
3.14348 0.155451 1.5934
3.15273 0.158933 1.62629
3.14776 0.158995 1.63032
3.15188 0.160229 1.64628
3.15219 0.163836 1.68723
3.14627 0.163988 1.69727
3.13934 0.164141 1.70732
3.14844 0.165312 1.71924
3.14765 0.167727 1.74721
3.14575 0.167921 1.76022
3.13278 0.168005 1.76532
3.14294 0.170308 1.78621
3.14003 0.170488 1.79824
3.13808 0.170578 1.80425
3.13819 0.1718 1.81923
3.14143 0.174257 1.85018
3.12947 0.174354 1.85627
3.13562 0.176631 1.87519
3.13601 0.1804 1.92714
3.1321 0.180581 1.93916
3.1302 0.181774 1.95216
3.12328 0.181928 1.96221
3.1244 0.183164 1.97819
3.12054 0.184448 1.9972
3.12568 0.186725 2.01613
3.12279 0.186934 2.03015
3.11888 0.188115 2.04217
3.11698 0.188309 2.05518
3.12615 0.191642 2.07807
3.11918 0.190692 2.08113
3.12243 0.194178 2.11406
3.12054 0.195401 2.12906
3.11462 0.195568 2.1401
3.1238 0.197902 2.163
3.1058 0.19693 2.16415
3.11593 0.19916 2.18004
3.11404 0.200383 2.19504
3.11617 0.201633 2.21201
3.10624 0.201773 2.22109
3.11541 0.204107 2.24398
3.09944 0.203178 2.24812
3.11069 0.206658 2.28099
3.10793 0.209134 2.31298
3.10906 0.211385 2.32994
3.11121 0.212664 2.3489
3.10127 0.21279 2.35698
3.1014 0.214042 2.37396
3.09643 0.214104 2.378
3.10159 0.216426 2.39993
3.09971 0.21765 2.41493
3.09581 0.21886 2.42894
3.09091 0.219056 2.44198
3.0952 0.222615 2.4799
3.09527 0.223748 2.48888
3.09238 0.224972 2.50389
3.09756 0.227309 2.52681
3.08661 0.22742 2.5339
3.08171 0.227631 2.54793
3.09192 0.231023 2.57481
3.08804 0.232263 2.59082
3.0881 0.233381 2.59881
3.09228 0.235719 2.62174
3.07731 0.234789 2.62587
3.08953 0.238224 2.65573
3.07456 0.237294 2.65986
3.08378 0.240702 2.68774
3.07888 0.241912 2.70176
3.07391 0.241975 2.7058
3.07306 0.243257 2.72479
3.07823 0.245594 2.74772
3.06831 0.245749 2.75779
3.0686 0.250326 2.79673
3.07177 0.252649 2.81867
3.06983 0.252769 2.82669
3.07618 0.257445 2.87258
3.07028 0.258657 2.88661
3.06656 0.261207 2.9236
3.07075 0.264559 2.94752
3.06997 0.267004 2.9775
3.06812 0.268286 2.99649
3.06122 0.269498 3.01053
3.05634 0.270724 3.02555
3.05953 0.273092 3.0505
3.05566 0.274346 3.06751
3.05472 0.27548 3.0765
3.0559 0.277819 3.09946
3.05304 0.279088 3.11747
3.0532 0.281413 3.13943
3.05538 0.283767 3.16338
3.04547 0.283937 3.17446
3.0416 0.286191 3.19146
3.05076 0.28851 3.21336
3.04792 0.289808 3.23336
3.039 0.290978 3.24441
3.03615 0.292276 3.26442
3.03732 0.294615 3.28738
3.03347 0.296899 3.30637
3.03062 0.298197 3.32638
3.03879 0.301517 3.34827
3.02804 0.304013 3.38132
3.02721 0.305354 3.40431
3.0284 0.308723 3.42926
3.0207 0.312306 3.46827
3.0218 0.313498 3.48124
3.01814 0.317166 3.52622
3.02034 0.320564 3.55316
3.01447 0.32182 3.57019
3.01265 0.324177 3.59417
3.01294 0.327739 3.63212
2.99871 0.351197 3.86491
2.99138 0.360505 3.95284
3.26041 0.103737 -0.272969
3.26349 0.104897 -0.262008
3.25956 0.104048 -0.251965
3.26376 0.10543 -0.226013
3.26184 0.10558 -0.216
3.25899 0.104878 -0.195965
3.25418 0.105267 -0.169931
3.25426 0.105415 -0.159932
3.25733 0.10556 -0.149956
3.25541 0.10571 -0.139943
3.25649 0.105872 -0.128952
3.25957 0.107018 -0.11899
3.26561 0.108102 -0.113051
3.25168 0.106246 -0.103918
3.25407 0.108014 -0.0519546
3.25115 0.107164 -0.0419186
3.24718 0.107241 -0.0368892
3.26027 0.109394 -0.0260181
3.25334 0.108547 -0.015952
3.25442 0.108695 -0.00596091
3.24657 0.107997 0.0141113
3.25369 0.109228 0.0300416
3.24676 0.109382 0.0400929
3.23983 0.10852 0.0491591
3.24791 0.109677 0.0600826
3.251 0.110837 0.0710438
3.24607 0.109989 0.0810948
3.24619 0.110211 0.0960927
3.24126 0.110363 0.106129
3.24734 0.111521 0.117068
3.24242 0.110673 0.127119
3.2375 0.110825 0.137155
3.24358 0.111983 0.148093
3.24169 0.112206 0.163106
3.24878 0.113364 0.174037
3.24886 0.113527 0.185036
3.23993 0.112667 0.194117
3.23608 0.112966 0.214144
3.2442 0.114211 0.231067
3.23026 0.11334 0.239186
3.24151 0.11582 0.272069
3.23759 0.115971 0.282098
3.24168 0.116146 0.294066
3.23871 0.116208 0.298088
3.23279 0.11636 0.308132
3.24088 0.117532 0.320055
3.23694 0.116668 0.329099
3.23102 0.11682 0.339143
3.23711 0.117993 0.351081
3.23338 0.118529 0.387106
3.23146 0.118679 0.39712
3.22761 0.118978 0.417147
3.22465 0.119054 0.422169
3.23174 0.120226 0.4341
3.2198 0.119354 0.442204
3.22104 0.120826 0.474177
3.22613 0.122 0.486123
3.2232 0.12215 0.496144
3.21823 0.122213 0.500181
3.22742 0.123562 0.524096
3.21147 0.122677 0.53123
3.21656 0.122851 0.543191
3.22466 0.125038 0.556099
3.2087 0.123138 0.562248
3.21776 0.12425 0.570165
3.20791 0.124539 0.589237
3.20699 0.124702 0.600243
3.20715 0.126028 0.622225
3.21321 0.127127 0.629164
3.2183 0.128301 0.64111
3.20844 0.127589 0.660198
3.20352 0.127741 0.670234
3.2046 0.127903 0.681225
3.20168 0.128053 0.691246
3.21374 0.130178 0.700125
3.2028 0.129304 0.708221
3.20598 0.130642 0.731181
3.19913 0.130943 0.751231
3.20222 0.132119 0.763192
3.20435 0.133369 0.78016
3.20744 0.134544 0.79212
3.2036 0.134858 0.813148
3.20469 0.136035 0.825124
3.19274 0.135147 0.832228
3.19583 0.135323 0.844204
3.2049 0.137449 0.853105
3.19004 0.136727 0.87123
3.19213 0.137903 0.883199
3.1882 0.138054 0.893227
3.1943 0.139242 0.906166
3.19435 0.13933 0.912165
3.19944 0.140519 0.925111
3.1905 0.139644 0.933192
3.19761 0.141846 0.947108
3.18985 0.142326 0.979164
3.18588 0.142388 0.983193
3.18597 0.142565 0.995192
3.18314 0.143893 1.0172
3.18423 0.14507 1.02917
3.18541 0.146424 1.05315
3.17547 0.14555 1.06124
3.17678 0.148156 1.10219
3.17199 0.149574 1.13021
3.17217 0.150929 1.15419
3.17829 0.153147 1.16912
3.16743 0.152436 1.18821
3.17154 0.15464 1.20215
3.17158 0.154729 1.20815
3.16675 0.156058 1.23017
3.16985 0.156248 1.24314
3.16904 0.158619 1.26812
3.17018 0.159899 1.28709
3.16926 0.160063 1.2981
3.16033 0.160203 1.30717
3.15951 0.161559 1.33116
3.15769 0.162915 1.35515
3.16979 0.165099 1.36803
3.16486 0.165235 1.37707
3.16094 0.165401 1.3881
3.1533 0.168103 1.43512
3.15741 0.169322 1.45007
3.15044 0.169371 1.45313
3.16158 0.171644 1.47201
3.15766 0.171795 1.48204
3.15987 0.174208 1.50999
3.14591 0.173292 1.51511
3.15299 0.17445 1.52604
3.1561 0.17567 1.541
3.15419 0.176834 1.552
3.15128 0.177013 1.56402
3.14646 0.178372 1.58804
3.14656 0.179565 1.60102
3.15364 0.180722 1.61196
3.14571 0.180861 1.62101
3.14882 0.182081 1.63598
3.14893 0.183288 1.64996
3.14501 0.183454 1.66099
3.13909 0.183606 1.67103
3.14924 0.186895 1.69091
3.14828 0.186984 1.69691
3.14537 0.187164 1.70894
3.13665 0.189703 1.74497
3.13876 0.190924 1.75994
3.12983 0.191064 1.769
3.13093 0.19227 1.78298
3.14004 0.19447 1.79688
3.13109 0.193581 1.80396
3.12919 0.194774 1.81696
3.13935 0.197078 1.83785
3.1255 0.197384 1.85795
3.13165 0.199661 1.87688
3.12477 0.199917 1.89393
3.12488 0.201125 1.90791
3.13303 0.203415 1.92782
3.12019 0.204735 1.9489
3.12829 0.205921 1.96182
3.11834 0.206032 1.9689
3.13053 0.209378 1.99276
3.11869 0.209713 2.01485
3.11377 0.209879 2.02588
3.11389 0.211101 2.04086
3.12211 0.214524 2.06976
3.11217 0.21465 2.07783
3.10927 0.215844 2.09084
3.12246 0.219205 2.11569
3.11365 0.219581 2.14075
3.10968 0.219658 2.14578
3.10803 0.22434 2.19173
3.11318 0.226632 2.21166
3.11141 0.229078 2.24164
3.0994 0.228072 2.24075
3.10556 0.230378 2.26167
3.1087 0.231642 2.27963
3.09688 0.233006 2.3037
3.09801 0.234257 2.32068
3.09412 0.235467 2.33469
3.09619 0.236613 2.34466
3.10135 0.23892 2.36559
3.09255 0.240312 2.39164
3.09065 0.24152 2.40564
3.08978 0.242773 2.42263
3.09093 0.245053 2.44159
3.08696 0.245115 2.44562
3.08709 0.246381 2.4636
3.08333 0.248843 2.4946
3.0797 0.253571 2.54356
3.0838 0.25476 2.55652
3.08306 0.258279 2.59147
3.07729 0.260727 2.62149
3.07175 0.265619 2.68146
3.06988 0.267872 2.69845
3.07102 0.269152 2.71742
3.07218 0.271462 2.73838
3.06728 0.272658 2.7514
3.07448 0.276052 2.7783
3.07066 0.27741 2.80231
3.0688 0.279678 2.8203
3.07197 0.282001 2.84224
3.06507 0.282199 2.85529
3.05932 0.284691 2.8883
3.06041 0.286868 2.90026
3.0656 0.289249 2.92619
3.06575 0.29153 2.94516
3.06188 0.292785 2.96217
3.06001 0.294052 2.98017
3.06219 0.296391 3.00312
3.06033 0.298659 3.02111
3.05637 0.298751 3.02714
3.06258 0.302146 3.05404
3.05467 0.302344 3.0671
3.05283 0.304641 3.08708
3.05903 0.308036 3.11399
3.04911 0.308206 3.12506
3.04827 0.310503 3.14504
3.05542 0.312793 3.16495
3.04852 0.313991 3.17799
3.04767 0.315288 3.19798
3.05087 0.31867 3.22391
3.04196 0.318869 3.23698
3.0391 0.321137 3.25497
3.0423 0.323535 3.28191
3.04844 0.325796 3.29983
3.04055 0.327009 3.31388
3.04274 0.329378 3.33883
3.03484 0.330591 3.35287
3.03621 0.3353 3.4008
3.02941 0.33769 3.42682
3.03262 0.341102 3.45475
3.02574 0.342344 3.47078
3.02207 0.346983 3.51375
3.01639 0.350623 3.55674
3.0175 0.352829 3.5707
3.01403 0.359868 3.64064
3.00552 0.365836 3.70562
3.00967 0.368114 3.72456
3.0923 0.286698 2.61999
3.08876 0.292603 2.68094
3.08516 0.29739 2.7339
3.08438 0.29982 2.76287
3.0756 0.302256 2.79191
3.07777 0.30458 2.81386
3.07404 0.308101 2.84884
3.06984 0.318672 2.95473
3.07202 0.321011 2.97768
3.07008 0.322146 2.98668
3.0652 0.323386 3.0027
3.06334 0.324654 3.0207
3.06249 0.32695 3.04067
3.06165 0.329247 3.06065
3.06298 0.333897 3.10458
3.05617 0.335272 3.12961
3.0513 0.337527 3.14662
3.05146 0.339853 3.16858
3.05062 0.342164 3.18956
3.04878 0.343461 3.20956
3.05097 0.34683 3.23449
3.03996 0.345823 3.23359
3.04231 0.350517 3.28051
3.04754 0.353957 3.31042
3.03963 0.35514 3.32247
3.0378 0.357467 3.34445
3.0289 0.357666 3.35752
3.03422 0.363284 3.3994
3.03338 0.365595 3.42037
3.03154 0.367922 3.44236
3.02971 0.370249 3.46434
3.01898 0.372789 3.50039
3.02917 0.376152 3.52526
3.02937 0.379536 3.55122
3.02249 0.380763 3.56625
3.02268 0.383133 3.59122
3.01296 0.386703 3.62924
3.02034 0.393422 3.6781
3.01064 0.397021 3.71812
3.00578 0.398306 3.73714
3.007 0.40172 3.76509
3.00338 0.407462 3.81503
2.99964 0.410983 3.85002
2.98769 0.426033 3.9879
3.24618 0.143193 -0.0404143
3.24527 0.143357 -0.0294083
3.25177 0.145344 0.0375225
3.24227 0.146329 0.103589
3.23654 0.146866 0.139629
3.23569 0.147163 0.159634
3.23789 0.148546 0.1856
3.23428 0.149319 0.237623
3.22654 0.149842 0.272678
3.23078 0.151313 0.304629
3.22991 0.152551 0.32062
3.22213 0.152001 0.35069
3.22021 0.15215 0.360704
3.2178 0.155321 0.439686
3.21399 0.155694 0.464713
3.21624 0.158181 0.497664
3.20712 0.161905 0.613693
3.20619 0.162054 0.623699
3.20193 0.166508 0.721679
3.19901 0.166658 0.7317
3.18978 0.172175 0.833702
3.19827 0.176131 0.898589
3.17793 0.187388 1.11761
3.18715 0.215793 1.14512
3.18524 0.215957 1.15613
3.18537 0.217223 1.17412
3.18287 0.221202 1.24008
3.09962 0.329296 2.52529
3.09045 0.339931 2.63522
3.08873 0.343465 2.67118
3.08786 0.345732 2.68916
3.08498 0.346956 2.70416
3.08807 0.348146 2.71712
3.07945 0.352877 2.76613
3.07657 0.354116 2.78213
3.08276 0.357482 2.80704
3.0809 0.359764 2.82602
3.07997 0.360898 2.83501
3.07352 0.367983 2.90797
3.06762 0.36918 2.92099
3.07181 0.371547 2.94593
3.07104 0.374991 2.97589
3.06918 0.377259 2.99387
3.06833 0.379555 3.01385
3.06563 0.384149 3.05381
3.06479 0.386446 3.07378
3.06201 0.388877 3.10277
3.05629 0.392429 3.13977
3.05242 0.394683 3.15676
3.05561 0.398065 3.18269
3.05478 0.400391 3.20467
3.05402 0.403866 3.23663
3.05235 0.408503 3.27958
3.0505 0.4108 3.29956
3.04262 0.412028 3.3146
3.04279 0.414368 3.33757
3.04692 0.417617 3.35449
3.04306 0.418901 3.37351
3.04324 0.422241 3.39646
3.04141 0.424568 3.41844
3.03653 0.425823 3.43546
3.03874 0.429221 3.4624
3.03489 0.43152 3.4824
3.03719 0.436095 3.52132
3.03233 0.43838 3.54032
3.03354 0.441778 3.56727
3.02564 0.441991 3.58132
3.02786 0.446404 3.60925
3.01998 0.447646 3.62529
3.02008 0.448839 3.63827
3.02027 0.452209 3.66322
3.02047 0.455608 3.69018
3.01462 0.456893 3.7092
3.0132 0.467034 3.78608
3.0133 0.468226 3.79906
3.01554 0.471683 3.82999
3.00463 0.472869 3.84206
3.01393 0.478454 3.88191
2.99415 0.480897 3.91103
3.00649 0.486554 3.95586
2.99548 0.485533 3.95396
2.99268 0.488919 3.97993
2.99334 0.500206 4.06677
2.98346 0.50145 4.08283
2.98076 0.506044 4.12279
2.98404 0.510574 4.1587
3.26705 0.190847 -0.06328
3.08946 0.367899 2.63281
3.07017 0.407195 2.98942
3.04466 0.445067 3.3171
3.04252 0.458741 3.42993
3.03445 0.473567 3.55279
3.0195 0.472667 3.55891
3.023 0.481641 3.62476
3.02542 0.488453 3.67965
3.02258 0.49078 3.70164
3.02379 0.494179 3.72859
3.02086 0.495314 3.73759
3.016 0.497599 3.7566
3.01157 0.506712 3.83151
3.00794 0.512439 3.88046
3.00805 0.514646 3.89442
3.01028 0.519089 3.92435
3.00949 0.522503 3.95231
3.00566 0.524832 3.9743
3.00386 0.528218 4.00027
3.00105 0.53159 4.02524
2.99519 0.532875 4.04427
2.99431 0.535098 4.05925
2.98542 0.536326 4.0743
2.98666 0.540784 4.10523
2.99093 0.545314 4.14113
2.98104 0.546543 4.15619
3.27671 0.203203 -0.24156
3.27287 0.202517 -0.220518
3.26665 0.204046 -0.11748
3.26599 0.204728 -0.0714787
3.2633 0.205337 -0.0304618
3.18688 0.252197 1.10458
3.19103 0.254489 1.12451
3.18101 0.262421 1.25449
3.16877 0.26891 1.3545
3.16915 0.273665 1.40543
3.15373 0.289755 1.61334
3.14659 0.299432 1.72627
3.14887 0.302978 1.7632
3.12113 0.342377 2.19389
3.10974 0.349569 2.27388
3.07003 0.425897 2.96914
3.04406 0.47282 3.3677
3.04332 0.476324 3.40166
3.03377 0.483219 3.46164
3.03497 0.486602 3.48758
3.02188 0.501373 3.60648
3.02531 0.509213 3.66334
3.02248 0.511541 3.68533
3.02156 0.512705 3.69632
3.02278 0.517133 3.72525
3.00985 0.517275 3.73435
3.01612 0.521789 3.76924
3.00621 0.522988 3.7823
3.00137 0.525302 3.8033
3.00067 0.53088 3.84223
2.99887 0.533266 3.86821
3.01121 0.540923 3.91301
2.99424 0.539994 3.91716
2.99142 0.543351 3.94113
2.99064 0.546766 3.96909
2.99085 0.55018 3.99704
2.99422 0.556903 4.04592
2.98659 0.562619 4.0939
2.9802 0.573822 4.1748
2.98031 0.575029 4.18878
3.11322 0.386466 2.33431
3.10613 0.399247 2.45419
3.09767 0.406304 2.52516
3.09708 0.413103 2.57908
3.09721 0.415355 2.59604
3.08604 0.426976 2.70497
3.07863 0.435135 2.78292
3.07792 0.439698 2.82086
3.07613 0.443099 2.84783
3.07845 0.448719 2.88973
3.06851 0.448859 2.89881
3.06767 0.451156 2.91878
3.07007 0.457938 2.97167
3.06921 0.46022 2.99064
3.06434 0.46146 3.00666
3.06752 0.465813 3.03058
3.06178 0.469335 3.06558
3.06001 0.47278 3.09554
3.05849 0.480714 3.15845
3.05865 0.484024 3.1794
3.05378 0.485279 3.19642
3.05789 0.487498 3.21136
3.04933 0.494348 3.26833
3.05052 0.497717 3.29327
3.04968 0.500028 3.31425
3.03875 0.500184 3.32433
3.04187 0.503404 3.33926
3.04204 0.505744 3.36223
3.03616 0.506985 3.37825
3.03534 0.510326 3.40121
3.04056 0.514751 3.43011
3.02964 0.514922 3.4412
3.0268 0.518235 3.46217
3.03093 0.520483 3.47911
3.02405 0.52171 3.49414
3.02323 0.525066 3.5181
3.03047 0.529534 3.54999
3.02076 0.534103 3.588
3.01691 0.536402 3.608
3.01802 0.538608 3.62196
3.0172 0.541964 3.64592
3.01841 0.545377 3.67386
3.0087 0.549947 3.71187
3.00437 0.561237 3.79875
2.99993 0.571335 3.87264
2.9809 0.606181 4.13131
3.27768 0.316982 -0.257254
3.1999 0.360117 0.963862
3.19797 0.361266 0.973861
3.19646 0.365215 1.03782
3.19093 0.369151 1.10081
3.19025 0.372773 1.14277
3.18733 0.372923 1.15279
3.18483 0.377902 1.21875
3.1799 0.378054 1.22878
3.18219 0.381615 1.26672
3.18123 0.381704 1.27273
3.18042 0.384075 1.2977
3.17851 0.384239 1.30871
3.1776 0.385417 1.3207
3.17321 0.391619 1.40166
3.13922 0.439473 1.93028
3.12041 0.468749 2.21803
3.12053 0.470985 2.23399
3.11669 0.472299 2.25501
3.11505 0.47801 2.30294
3.11116 0.479221 2.31695
3.11229 0.481471 2.33391
3.10745 0.482786 2.35493
3.09965 0.485191 2.38196
3.09878 0.487443 2.39894
3.10092 0.489708 2.41689
3.09905 0.490961 2.43389
3.09509 0.491038 2.43892
3.09723 0.494317 2.45786
3.10139 0.496625 2.47879
3.0985 0.498849 2.49378
3.09461 0.500059 2.5078
3.09172 0.501283 2.5228
3.09589 0.504605 2.54472
3.0869 0.503627 2.54581
3.08502 0.504865 2.56181
3.08314 0.507103 2.57779
3.08832 0.510454 2.6017
3.08242 0.511636 2.61373
3.09061 0.515015 2.63962
3.08371 0.516212 2.65266
3.08781 0.518402 2.6656
3.08291 0.519598 2.67862
3.07903 0.520837 2.69463
3.07817 0.523104 2.71261
3.07428 0.524329 2.72762
3.07342 0.526596 2.7456
3.07256 0.528863 2.76357
3.07767 0.531081 2.7785
3.07581 0.533349 2.79649
3.081 0.537715 2.82139
3.07207 0.537855 2.83045
3.07021 0.540137 2.84943
3.07438 0.543474 2.87236
3.06346 0.54363 2.88244
3.0716 0.545891 2.90035
3.06773 0.548145 2.91734
3.06702 0.552723 2.95629
3.06618 0.556019 2.97625
3.06533 0.558316 2.99622
3.06447 0.560597 3.0152
3.06255 0.561747 3.0252
3.06875 0.566142 3.05209
3.06488 0.567396 3.0691
3.06504 0.570707 3.09005
3.05513 0.570877 3.10113
3.05428 0.573173 3.1211
3.05445 0.576513 3.14406
3.05554 0.57869 3.15602
3.05269 0.580973 3.17501
3.04982 0.582242 3.19301
3.04899 0.585568 3.21497
3.04714 0.587865 3.23495
3.0463 0.591177 3.25592
3.04143 0.592432 3.27294
3.04354 0.594637 3.28689
3.04473 0.598006 3.31183
3.04288 0.600304 3.33182
3.04003 0.603601 3.35179
3.03618 0.605885 3.37079
3.03838 0.609268 3.39673
3.03048 0.610481 3.41077
3.03259 0.612687 3.42472
3.03177 0.616043 3.44868
3.03499 0.619455 3.47661
3.02407 0.620625 3.48768
3.0283 0.625066 3.51759
3.02243 0.626322 3.53461
3.01757 0.628607 3.55362
3.0207 0.631856 3.57055
3.02089 0.635225 3.5955
3.01704 0.637524 3.6155
3.01138 0.643179 3.65946
3.0139 0.653183 3.72731
3.00602 0.654426 3.74335
3.0034 0.661182 3.79428
3.28336 0.350308 -0.302796
3.27759 0.349771 -0.271741
3.27878 0.350141 -0.246752
3.27109 0.349754 -0.205682
3.27214 0.349842 -0.199691
3.27621 0.350987 -0.189737
3.27136 0.350286 -0.169687
3.27052 0.350598 -0.148683
3.27172 0.351982 -0.122709
3.26795 0.351444 -0.091668
3.2651 0.351742 -0.0716482
3.26522 0.351979 -0.0556504
3.26637 0.353274 -0.0356755
3.26253 0.352588 -0.0146334
3.26161 0.352737 -0.00462731
3.26095 0.354418 0.0413591
3.25738 0.355265 0.0983813
3.23717 0.361789 0.33547
3.22844 0.369283 0.503448
3.22376 0.370908 0.545465
3.22421 0.373796 0.605427
3.22057 0.376509 0.653421
3.21786 0.378073 0.691423
3.21602 0.379386 0.712421
3.20546 0.381252 0.770481
3.21072 0.384766 0.805394
3.19981 0.393906 0.94936
3.19589 0.394057 0.959389
3.19911 0.396498 0.989333
3.19007 0.40537 1.11529
3.18551 0.409232 1.17327
3.18382 0.41284 1.21424
3.12145 0.508773 2.21943
3.11786 0.514575 2.27337
3.11597 0.516798 2.28836
3.11609 0.518035 2.30434
3.1122 0.519245 2.31835
3.1134 0.522629 2.3443
3.10862 0.526061 2.37329
3.10775 0.528314 2.39026
3.10687 0.529551 2.40625
3.108 0.531802 2.42321
3.10304 0.531879 2.42825
3.10619 0.535173 2.44818
3.1043 0.536396 2.46318
3.09639 0.537565 2.47422
3.09853 0.539844 2.49318
3.09665 0.542082 2.50916
3.09175 0.542279 2.5222
3.09686 0.545482 2.53611
3.09511 0.548986 2.57008
3.09121 0.550181 2.58309
3.08934 0.552434 2.60007
3.08243 0.553617 2.61211
3.08257 0.555883 2.63008
3.08969 0.558115 2.64599
3.08882 0.560367 2.66297
3.08824 0.568181 2.71787
3.08638 0.570449 2.73585
3.08753 0.572744 2.75581
3.08357 0.572835 2.76184
3.08372 0.576116 2.78079
3.08185 0.577369 2.79779
3.07696 0.579595 2.81279
3.07711 0.581876 2.83176
3.07827 0.585186 2.85271
3.07337 0.586396 2.86673
3.07763 0.590896 2.90063
3.0719 0.595418 2.93562
3.07205 0.597714 2.95558
3.06716 0.59994 2.97059
3.06732 0.60225 2.99156
3.07059 0.607766 3.02645
3.06788 0.61233 3.06441
3.06401 0.614584 3.08141
3.06333 0.620206 3.12334
3.06139 0.621326 3.13134
3.05954 0.623623 3.15132
3.05785 0.629231 3.19226
3.05298 0.631486 3.20926
3.04827 0.636052 3.24723
3.05139 0.638286 3.26318
3.0467 0.643881 3.30314
3.0398 0.645094 3.31717
3.04705 0.650562 3.34904
3.03612 0.650703 3.35812
3.03629 0.654043 3.38108
3.04547 0.658376 3.40395
3.03455 0.658547 3.41503
3.03372 0.661873 3.43699
3.03895 0.667328 3.46787
3.03408 0.668583 3.48489
3.02821 0.670839 3.50191
3.02942 0.675237 3.52884
3.02446 0.67533 3.53487
3.02666 0.679713 3.56079
3.02787 0.683111 3.58774
3.01897 0.684325 3.60179
3.01816 0.687681 3.62575
3.02239 0.693136 3.65664
3.01663 0.697599 3.68762
3.01581 0.700955 3.71158
3.00894 0.702211 3.72862
3.01015 0.706625 3.75655
3.00732 0.709952 3.77852
3.00248 0.712266 3.79953
3.00066 0.715623 3.82349
3.01088 0.721029 3.85134
3.00098 0.722229 3.8644
2.99816 0.725586 3.88838
2.99737 0.729986 3.91532
3.09534 0.590381 2.59647
3.04282 0.70701 3.44625
3.03797 0.709294 3.46526
3.04026 0.71587 3.50415
3.03843 0.719196 3.52612
3.03175 0.724823 3.56809
3.0281 0.731506 3.61402
3.02122 0.732748 3.63006
3.02739 0.737069 3.65195
3.02758 0.741438 3.67689
3.02071 0.742695 3.69393
3.02092 0.747094 3.72086
3.01808 0.750422 3.74284
3.01223 0.752707 3.76185
3.0084 0.756035 3.78383
3.01759 0.760413 3.8097
3.01174 0.762698 3.82872
3.00791 0.766027 3.8507
3.00407 0.769355 3.87268
3.00024 0.772683 3.89466
3.00046 0.777112 3.9236
2.99361 0.779398 3.94262
2.99877 0.783705 3.96352
2.99393 0.786034 3.98553
2.99517 0.791492 4.01644
2.98832 0.793778 4.03546
2.98954 0.799221 4.06537
2.98293 0.805965 4.11533
2.98508 0.809259 4.13527
2.98126 0.813617 4.15924
3.2395 0.406435 0.10876
3.18744 0.443124 0.895718
3.19153 0.444299 0.907671
3.19001 0.449233 0.970618
3.18221 0.450623 0.99666
3.18047 0.453128 1.03064
3.1847 0.456583 1.06156
3.17644 0.46404 1.15953
3.1716 0.464354 1.18056
3.17772 0.467572 1.19547
3.17293 0.46899 1.22349
3.16709 0.47032 1.24552
3.17422 0.472551 1.26143
3.16068 0.476464 1.32248
3.1612 0.483485 1.39139
3.15538 0.484829 1.41441
3.15748 0.487035 1.42837
3.15371 0.489482 1.45836
3.154 0.493059 1.49731
3.15426 0.496547 1.53026
3.14833 0.496699 1.54031
3.14752 0.50007 1.56527
3.14487 0.504752 1.61122
3.14216 0.508317 1.6492
3.13824 0.508483 1.66023
3.15041 0.512799 1.68207
3.14046 0.51191 1.68916
3.13961 0.514207 1.70914
3.14174 0.516442 1.72509
3.1338 0.516566 1.73315
3.13591 0.518786 1.7481
3.13412 0.521202 1.77609
3.14422 0.524387 1.78896
3.13629 0.524526 1.79802
3.14142 0.526774 1.81495
3.13449 0.526927 1.825
3.13059 0.528107 1.83702
3.12768 0.529287 1.84902
3.13081 0.531536 1.86597
3.13499 0.534888 1.88989
3.1351 0.53711 1.90486
3.13119 0.537291 1.91689
3.12427 0.537444 1.92694
3.13041 0.540705 1.94485
3.1265 0.541886 1.95686
3.12757 0.543018 1.96584
3.12667 0.544226 1.97983
3.12176 0.545392 1.99085
3.12388 0.547642 2.0078
3.12299 0.54885 2.02179
3.11707 0.550017 2.03282
3.11619 0.55124 2.04781
3.1263 0.555454 2.06268
3.12139 0.555621 2.07371
3.11547 0.555788 2.08476
3.12061 0.559065 2.10367
3.10967 0.558192 2.11177
3.11784 0.562511 2.13365
3.12098 0.565775 2.15158
3.11902 0.565865 2.15759
3.12015 0.568116 2.17455
3.11725 0.569311 2.18756
3.11234 0.570492 2.19958
3.10945 0.571701 2.21358
3.11058 0.573952 2.23054
3.10768 0.575146 2.24355
3.10975 0.577293 2.2535
3.1119 0.579572 2.27246
3.10699 0.580753 2.28448
3.10711 0.58299 2.30045
3.10724 0.585241 2.31741
3.09831 0.585381 2.32648
3.1075 0.589744 2.35135
3.10856 0.590862 2.35933
3.10266 0.592058 2.37236
3.10379 0.594309 2.38932
3.10392 0.596561 2.40628
3.09096 0.595659 2.4124
3.09008 0.597896 2.42837
3.09827 0.602245 2.45225
3.09633 0.603365 2.46025
3.09847 0.605645 2.4792
3.09269 0.609078 2.5082
3.09585 0.612386 2.52913
3.09197 0.613611 2.54414
3.08606 0.614793 2.55617
3.09216 0.617996 2.57008
3.08855 0.624753 2.62101
3.09171 0.628061 2.64194
3.07977 0.627174 2.64905
3.0789 0.629441 2.66702
3.07811 0.633841 2.69397
3.07725 0.636108 2.71194
3.08041 0.639431 2.73387
3.07955 0.641698 2.75185
3.07566 0.643922 2.76685
3.07984 0.64726 2.78977
3.08294 0.64945 2.80271
3.07201 0.649591 2.8118
3.08223 0.655012 2.84064
3.0723 0.655153 2.84972
3.07346 0.658463 2.87066
3.07462 0.661772 2.89161
3.06469 0.661928 2.90168
3.0688 0.665132 2.9156
3.07198 0.668484 2.93953
3.06206 0.66864 2.94961
3.06322 0.671949 2.97055
3.07043 0.677358 2.99842
3.05849 0.676485 3.00653
3.05764 0.679782 3.02649
3.06881 0.684099 3.04834
3.05586 0.684212 3.05544
3.05703 0.687537 3.07738
3.06224 0.691932 3.10428
3.05434 0.693131 3.11733
3.05047 0.695385 3.13432
3.05467 0.699781 3.16123
3.04971 0.699859 3.16627
3.05189 0.704212 3.19019
3.05811 0.709637 3.21907
3.05022 0.71085 3.23311
3.04333 0.712062 3.24715
3.04955 0.716486 3.27604
3.03762 0.716628 3.28513
3.04779 0.721961 3.30798
3.04797 0.725301 3.33093
3.03906 0.726485 3.34298
3.04428 0.73191 3.37186
3.0374 0.733152 3.3879
3.03557 0.736479 3.40987
3.03272 0.738777 3.42986
3.0328 0.740939 3.44083
3.03096 0.744251 3.46179
3.03115 0.747621 3.48675
3.02932 0.750948 3.50871
3.0285 0.755289 3.53166
3.02364 0.757573 3.55066
3.01979 0.759872 3.57066
3.03201 0.766277 3.59848
3.02412 0.76749 3.61252
3.02331 0.77186 3.63747
3.01239 0.772031 3.64855
3.01663 0.777487 3.67944
3.01379 0.780814 3.70141
3.01713 0.788462 3.74528
3.01329 0.790776 3.76628
3.02056 0.797303 3.80213
3.00561 0.797403 3.80825
3.00987 0.802903 3.84214
2.99896 0.804088 3.8542
3.0022 0.809559 3.8861
3.00231 0.811766 3.90007
2.99747 0.81508 3.92106
2.99183 0.82178 3.96801
2.99003 0.826166 3.99396
2.98823 0.830566 4.02092
2.98744 0.834966 4.04786
2.98654 0.837159 4.06084
2.99182 0.843703 4.0977
2.98217 0.85039 4.14368
3.242 0.433424 0.0403322
3.21893 0.447185 0.428356
3.21557 0.451446 0.51333
3.21197 0.454233 0.566323
3.21318 0.455632 0.593297
3.21025 0.455782 0.603318
3.21234 0.456958 0.615287
3.21042 0.457108 0.6253
3.20457 0.457408 0.645343
3.20666 0.458584 0.657311
3.21271 0.460683 0.664235
3.20578 0.459822 0.673302
3.20395 0.461149 0.695299
3.20111 0.462462 0.716304
3.2052 0.463636 0.728257
3.1994 0.465025 0.754284
3.20287 0.469955 0.817194
3.19411 0.470421 0.848257
3.18922 0.470646 0.863293
3.19131 0.472822 0.875246
3.18939 0.472986 0.88626
3.19659 0.476366 0.912159
3.18604 0.479247 0.971204
3.18521 0.481588 0.994179
3.18338 0.482915 1.01618
3.1785 0.483156 1.03221
3.17968 0.48551 1.05617
3.1779 0.48794 1.08515
3.17698 0.489104 1.09614
3.18118 0.492485 1.12207
3.17224 0.491611 1.13015
3.17749 0.495095 1.16306
3.16714 0.502375 1.24904
3.16423 0.50254 1.26006
3.16633 0.503731 1.27303
3.16361 0.507281 1.31
3.16169 0.508445 1.321
3.16877 0.510588 1.33092
3.15992 0.510905 1.35198
3.16002 0.512083 1.36397
3.16524 0.516508 1.39287
3.16427 0.516583 1.39787
3.15734 0.516721 1.40693
3.15453 0.519093 1.43192
3.15765 0.521313 1.44686
3.15508 0.526158 1.50382
3.16221 0.529404 1.52072
3.15227 0.52853 1.52881
3.15237 0.530722 1.54177
3.14754 0.532066 1.56479
3.15563 0.535238 1.57669
3.16075 0.537471 1.59262
3.15985 0.538664 1.60561
3.15494 0.53883 1.61665
3.14901 0.538983 1.62669
3.1515 0.546928 1.69056
3.1516 0.549135 1.70453
3.15271 0.550341 1.71851
3.15287 0.553652 1.73946
3.14795 0.553818 1.75049
3.14616 0.557219 1.77746
3.14325 0.557399 1.78948
3.14347 0.560828 1.81843
3.14576 0.566388 1.85634
3.14386 0.567582 1.86934
3.13705 0.569957 1.89436
3.14017 0.572191 1.9103
3.12961 0.59501 2.10007
3.12589 0.599561 2.13704
3.12324 0.605228 2.18198
3.11688 0.615476 2.26589
3.11229 0.622278 2.31983
3.11355 0.627795 2.35474
3.10664 0.627963 2.36579
3.10589 0.632466 2.39974
3.10502 0.634704 2.41571
3.09515 0.635963 2.43277
3.10635 0.641354 2.45961
3.10044 0.642536 2.47164
3.09152 0.64269 2.48171
3.09467 0.645984 2.50164
3.09683 0.649293 2.52257
3.09703 0.652677 2.54853
3.09213 0.653888 2.56255
3.08522 0.655056 2.57358
3.09242 0.659435 2.59947
3.09054 0.661673 2.61545
3.09363 0.663849 2.6274
3.08471 0.664003 2.63746
3.09089 0.668353 2.66135
3.08802 0.670607 2.67835
3.08715 0.672874 2.69632
3.08629 0.676141 2.71428
3.08441 0.678379 2.73026
3.0868 0.686132 2.78114
3.08393 0.688385 2.79813
3.08408 0.690666 2.8171
3.07415 0.690822 2.82717
3.07229 0.694089 2.84514
3.08143 0.697364 2.86402
3.06849 0.697477 2.87112
3.06965 0.700786 2.89207
3.07384 0.705153 2.91697
3.07097 0.707407 2.93396
3.06306 0.70859 2.94601
3.06523 0.711929 2.96895
3.06733 0.714105 2.9809
3.06849 0.717429 3.00284
3.05857 0.717585 3.01292
3.06277 0.721966 3.03883
3.05889 0.724206 3.05482
3.06108 0.728574 3.07975
3.05822 0.730842 3.09774
3.05931 0.733019 3.1097
3.05241 0.734231 3.12373
3.05763 0.739641 3.15162
3.05679 0.742953 3.17258
3.05796 0.746292 3.19552
3.04703 0.746433 3.2046
3.05023 0.751815 3.2305
3.04729 0.751936 3.23853
3.04444 0.755234 3.2585
3.04361 0.75856 3.28046
3.04479 0.762914 3.30439
3.04094 0.765198 3.32339
3.03909 0.768495 3.34336
3.0423 0.772907 3.37127
3.04037 0.775042 3.38026
3.03753 0.77734 3.40025
3.03671 0.781695 3.42419
3.02982 0.782922 3.43923
3.03 0.787262 3.46216
3.02413 0.788533 3.48019
3.02533 0.793916 3.50611
3.03048 0.797194 3.52502
3.03269 0.802606 3.55293
3.02884 0.804905 3.57293
3.02297 0.807161 3.58994
3.0262 0.812602 3.61984
3.0163 0.813802 3.6329
3.02266 0.822492 3.67973
3.01275 0.823677 3.69179
3.01093 0.827033 3.71575
3.01114 0.831433 3.74269
3.00368 0.843488 3.81358
3.00703 0.851166 3.85945
3.00016 0.853423 3.87647
2.99634 0.856766 3.89945
2.99408 0.873202 3.99624
2.98924 0.876516 4.01723
3.12157 0.657816 2.22122
3.11591 0.662486 2.2662
3.11704 0.665737 2.28314
3.11616 0.667974 2.29912
3.11522 0.669078 2.30611
3.11446 0.673552 2.33806
3.10881 0.679237 2.38402
3.10498 0.681565 2.40602
3.10511 0.684832 2.42397
3.10121 0.686027 2.43698
3.10135 0.688293 2.45495
3.09154 0.69067 2.47999
3.1047 0.695971 2.50082
3.09591 0.699377 2.52784
3.09805 0.701656 2.54679
3.09417 0.703881 2.56179
3.08524 0.704036 2.57186
3.08839 0.707329 2.59179
3.08458 0.710687 2.61577
3.08774 0.71501 2.63768
3.08889 0.71829 2.65663
3.084 0.719501 2.67065
3.08615 0.722795 2.69059
3.08528 0.725062 2.70856
3.08564 0.732757 2.75545
3.07975 0.733969 2.76948
3.07083 0.734123 2.77955
3.07601 0.739474 2.80343
3.07213 0.740714 2.81945
3.07825 0.744946 2.83534
3.07537 0.747185 2.85133
3.0725 0.749438 2.86832
3.06661 0.75065 2.88235
3.07281 0.75603 2.90823
3.06692 0.757241 2.92226
3.06505 0.759509 2.94024
3.06917 0.762728 2.95516
3.0673 0.765995 2.97313
3.06041 0.767208 2.98717
3.06762 0.772616 3.01504
3.05669 0.772743 3.02312
3.05685 0.776053 3.04407
3.05802 0.779393 3.06701
3.06214 0.782612 3.08194
3.05423 0.783795 3.09398
3.05238 0.787092 3.11395
3.05355 0.790432 3.13689
3.04565 0.791615 3.14894
3.0559 0.799095 3.18175
3.04195 0.798209 3.18887
3.05111 0.802513 3.20974
3.05128 0.806838 3.23168
3.04439 0.808051 3.24572
3.04355 0.811377 3.26768
3.03566 0.813589 3.28171
3.03684 0.816929 3.30465
3.03399 0.820227 3.32463
3.04517 0.825573 3.34847
3.03728 0.826786 3.36251
3.03141 0.829042 3.37952
3.03361 0.834425 3.40543
3.0348 0.838794 3.43036
3.02791 0.840021 3.4454
3.03011 0.845404 3.4713
3.03122 0.84761 3.48526
3.02434 0.849852 3.50129
3.02453 0.854221 3.52622
3.02168 0.857519 3.5462
3.01903 0.865202 3.59211
3.01528 0.870692 3.62506
3.01649 0.875091 3.65199
3.01467 0.879432 3.67494
3.00851 0.898064 3.78473
3.00003 0.910091 3.85363
3.03295 0.910964 3.57633
3.03021 0.916484 3.61127
3.03143 0.921897 3.63918
3.02374 0.928509 3.68015
3.02496 0.933923 3.70806
3.02325 0.941486 3.74597
3.0178 0.953555 3.81784
3.01296 0.956869 3.83883
3.01519 0.963311 3.86873
3.00428 0.964496 3.88079
3.01349 0.969904 3.90865
3.00786 0.978633 3.95757
3.00302 0.981932 3.97756
3.00325 0.98839 4.00846
2.99438 0.989633 4.02451
2.99258 0.995034 4.05145
3.00077 1.0014 4.0763
3.03154 0.965055 3.64955
3.028 0.975945 3.70942
3.02315 0.979245 3.72941
3.01951 0.987943 3.77632
3.01365 0.991228 3.79531
3.00982 0.994556 3.8173
3.00588 0.995677 3.82531
3.16288 0.662589 1.46473
3.15721 0.66723 1.50771
3.15742 0.670629 1.53466
3.16078 0.677337 1.58255
3.15797 0.680709 1.60752
3.15353 0.689792 1.68043
3.15564 0.692013 1.69538
3.14977 0.693268 1.71241
3.14545 0.704588 1.80129
3.14567 0.709017 1.83023
3.14287 0.712419 1.8572
3.14399 0.714655 1.87316
3.14024 0.719146 1.90613
3.14137 0.721381 1.92209
3.14149 0.724618 1.93804
3.13456 0.724756 1.94709
3.13781 0.730242 1.97999
3.12781 0.72825 1.9801
3.13496 0.73254 1.99998
3.13105 0.73372 2.01199
3.13017 0.734943 2.02699
3.12123 0.735083 2.03605
3.11945 0.739513 2.065
3.13058 0.743742 2.08086
3.12768 0.745951 2.09485
3.12981 0.748201 2.1118
3.11585 0.746285 2.11694
3.11798 0.749535 2.13388
3.11106 0.750703 2.14491
3.11017 0.751911 2.1589
3.11527 0.755099 2.17182
3.11538 0.757321 2.18679
3.10746 0.757475 2.19685
3.12067 0.764864 2.22364
3.10973 0.763991 2.23174
3.10783 0.766199 2.24572
3.10998 0.769479 2.26466
3.10802 0.769569 2.27067
3.10514 0.771793 2.28566
3.11431 0.777126 2.30852
3.09834 0.775197 2.31267
3.10048 0.778462 2.33061
3.10263 0.781742 2.34954
3.10879 0.787062 2.37142
3.10182 0.786112 2.37449
3.09402 0.788517 2.40152
3.09517 0.791797 2.42046
3.10738 0.799202 2.44826
3.10046 0.79937 2.45932
3.09052 0.799496 2.46739
3.08872 0.802867 2.49236
3.09993 0.810273 2.52017
3.09704 0.812497 2.53516
3.09517 0.814735 2.55114
3.08725 0.814904 2.5622
3.09746 0.82131 2.59003
3.08545 0.81929 2.58815
3.09163 0.82464 2.61203
3.09681 0.828976 2.63493
3.09091 0.830173 2.64796
3.08299 0.831341 2.659
3.07623 0.835805 2.68999
3.09055 0.845416 2.73175
3.07371 0.846753 2.75386
3.07401 0.85333 2.79276
3.0782 0.858682 2.81665
3.07252 0.865322 2.85961
3.06477 0.869801 2.8916
3.06795 0.874154 2.91552
3.07012 0.878478 2.93744
3.0702 0.88064 2.94841
3.05826 0.880767 2.9565
3.06161 0.88943 3.00135
3.06479 0.893783 3.02526
3.06193 0.897051 3.04324
3.05309 0.899383 3.06528
3.06233 0.906835 3.0961
3.05258 0.91133 3.12911
3.04872 0.914599 3.14709
3.04485 0.916854 3.16409
3.05217 0.926469 3.2059
3.04242 0.930964 3.23891
3.04361 0.935319 3.26284
3.03505 0.945183 3.32077
3.0323 0.951673 3.3537
3.03146 0.954984 3.37466
3.02798 0.967992 3.4425
3.04618 0.989377 3.33403
3.04232 0.991646 3.35203
3.03644 0.993887 3.36804
3.03258 0.997156 3.38603
3.02882 1.00262 3.41698
3.10492 0.841282 2.25063
3.07808 0.91141 2.66285
3.0646 0.946363 2.86147
3.27904 0.65524 -0.242269
3.27423 0.654629 -0.21622
3.27831 0.655774 -0.206267
3.27547 0.655087 -0.185232
3.27466 0.655473 -0.159228
3.27212 0.656378 -0.0982141
3.26716 0.655456 -0.0931624
3.26632 0.655767 -0.0721577
3.26539 0.655916 -0.0621516
3.26066 0.656453 -0.0261189
3.26374 0.657598 -0.0161577
3.26297 0.658058 0.0148455
3.26406 0.65922 0.0258217
3.25913 0.658372 0.0358727
3.26021 0.658519 0.0458639
3.25432 0.657746 0.0609217
3.2554 0.658893 0.070898
3.25668 0.661439 0.107856
3.25775 0.661587 0.117847
3.25199 0.66205 0.148888
3.25018 0.662436 0.174899
3.24926 0.662585 0.184905
3.25334 0.664745 0.195844
3.24056 0.663184 0.224968
3.24665 0.665357 0.236891
3.24777 0.666593 0.252867
3.24708 0.6682 0.293854
3.24524 0.669513 0.314851
3.23643 0.668889 0.33993
3.23459 0.669201 0.360942
3.22962 0.678233 0.497865
3.22798 0.680945 0.545844
3.22196 0.690859 0.67476
3.21904 0.691009 0.684781
3.20881 0.697526 0.786776
3.21086 0.698628 0.793745
3.19873 0.707324 0.907724
3.20301 0.712869 0.944614
3.20105 0.712944 0.949629
3.1972 0.714258 0.970641
3.20231 0.716461 0.984572
3.19646 0.717761 1.0046
3.1935 0.717838 1.00962
3.18792 0.72267 1.0656
3.18459 0.731975 1.1535
3.18474 0.734256 1.17247
3.18291 0.736598 1.19545
3.17598 0.736736 1.2045
3.17516 0.740092 1.22846
3.17927 0.742296 1.2424
3.16828 0.740319 1.24351
3.17248 0.744715 1.27042
3.17257 0.745893 1.2824
3.16463 0.745017 1.29048
3.17376 0.749262 1.30735
3.16778 0.748311 1.31041
3.17291 0.751544 1.32632
3.16807 0.753873 1.34833
3.16114 0.753011 1.35739
3.16626 0.756229 1.37231
3.16133 0.756381 1.38234
3.17243 0.760565 1.3952
3.15948 0.758663 1.40133
3.16861 0.762908 1.4182
3.16067 0.763047 1.42726
3.17081 0.767306 1.44512
3.15605 0.768775 1.47621
3.1562 0.771071 1.49618
3.16433 0.775317 1.51306
3.15539 0.774442 1.52114
3.15449 0.776635 1.53412
3.16267 0.781983 1.55798
3.15172 0.780095 1.56509
3.14891 0.783467 1.59007
3.15515 0.788921 1.62094
3.15425 0.791114 1.63392
3.15229 0.79119 1.63893
3.14647 0.793549 1.66295
3.14557 0.795742 1.67592
3.14568 0.797949 1.68989
3.15181 0.801196 1.7068
3.1499 0.80339 1.71978
3.15197 0.804506 1.72775
3.15408 0.807727 1.74269
3.1361 0.803785 1.74588
3.13431 0.808185 1.77284
3.14446 0.813474 1.79268
3.13754 0.813627 1.80273
3.1406 0.815757 1.81168
3.1377 0.816937 1.82369
3.13792 0.822381 1.85361
3.13814 0.826795 1.88155
3.13222 0.826962 1.89259
3.1253 0.827115 1.90264
3.13943 0.833356 1.91944
3.13563 0.836743 1.94543
3.12469 0.83587 1.95352
3.12278 0.837064 1.96652
3.11905 0.842584 2.00147
3.1262 0.846875 2.02136
3.12833 0.850124 2.0383
3.12543 0.852319 2.05129
3.11862 0.854694 2.07631
3.11679 0.858021 2.09827
3.11389 0.860215 2.11127
3.11828 0.869966 2.1621
3.11242 0.872251 2.18111
3.10651 0.872419 2.19215
3.10889 0.882156 2.242
3.10122 0.888798 2.28496
3.10932 0.892999 2.29884
3.10556 0.89746 2.32981
3.09822 0.911738 2.41566
3.09042 0.915143 2.44268
3.09996 0.930171 2.51239
3.08158 0.942383 2.59336
3.28185 0.69182 -0.270836
3.27789 0.690897 -0.265792
3.27905 0.692207 -0.244817
3.2712 0.690509 -0.22473
3.27328 0.69067 -0.213746
3.26935 0.689821 -0.203703
3.27043 0.690969 -0.193727
3.27247 0.691041 -0.188742
3.27755 0.6932 -0.177811
3.2637 0.689507 -0.157649
3.26886 0.691814 -0.136719
3.2739 0.692884 -0.131772
3.26197 0.690041 -0.121639
3.25912 0.690339 -0.101619
3.26328 0.691647 -0.0806671
3.26239 0.69187 -0.0656617
3.25955 0.692183 -0.044642
3.2577 0.692481 -0.0246297
3.2549 0.692868 0.00138928
3.25597 0.693015 0.0113804
3.26213 0.695321 0.0323027
3.25629 0.694636 0.0533598
3.25444 0.694934 0.0733721
3.24855 0.69416 0.0884299
3.25264 0.69632 0.0993687
3.25572 0.697481 0.11033
3.23985 0.693759 0.128507
3.24698 0.697005 0.145408
3.25507 0.699162 0.156316
3.24321 0.697452 0.175433
3.24129 0.697602 0.185447
3.25339 0.700785 0.198311
3.24642 0.69985 0.202378
3.24957 0.701158 0.223337
3.23864 0.6993 0.232448
3.24072 0.700461 0.243417
3.24489 0.702783 0.265354
3.24793 0.703855 0.270316
3.24016 0.70332 0.301387
3.24032 0.705631 0.322354
3.24241 0.706792 0.333323
3.24349 0.707954 0.344299
3.23359 0.706154 0.357402
3.23984 0.709652 0.391308
3.23792 0.709802 0.401322
3.23599 0.709951 0.411335
3.23102 0.709014 0.415387
3.23612 0.711188 0.427318
3.23419 0.711338 0.437332
3.23243 0.713812 0.469313
3.2257 0.71435 0.505361
3.22595 0.716824 0.537327
3.21839 0.720688 0.595334
3.22056 0.723027 0.618287
3.22461 0.724113 0.624241
3.21676 0.724414 0.644298
3.22185 0.726588 0.656229
3.2132 0.72829 0.703276
3.21229 0.729454 0.714267
3.21839 0.731642 0.72719
3.21848 0.733819 0.739159
3.20674 0.734346 0.774245
3.20382 0.734496 0.784266
3.21292 0.737696 0.798152
3.21302 0.738874 0.810135
3.2111 0.740038 0.821134
3.21022 0.741276 0.837125
3.20237 0.741577 0.857182
3.20455 0.743931 0.881134
3.20464 0.745094 0.892118
3.20071 0.745245 0.902147
3.19875 0.74532 0.907161
3.19892 0.74866 0.930113
3.1981 0.751001 0.953088
3.19718 0.752165 0.964079
3.20028 0.754355 0.977025
3.19732 0.753431 0.982062
3.1964 0.754595 0.993053
3.19749 0.756771 1.00501
3.19667 0.759112 1.02799
3.19275 0.759278 1.03902
3.19781 0.761392 1.04695
3.19489 0.762542 1.05696
3.18896 0.761695 1.06701
3.18613 0.764023 1.089
3.19133 0.768403 1.1149
3.18663 0.771999 1.15489
3.18089 0.775506 1.18889
3.18701 0.778723 1.2038
3.18303 0.777786 1.20784
3.18514 0.779991 1.22179
3.18432 0.783347 1.24575
3.17582 0.790315 1.31072
3.17214 0.794939 1.35269
3.17826 0.799171 1.36858
3.1663 0.796269 1.37472
3.16841 0.799475 1.38865
3.16951 0.801666 1.40162
3.17463 0.804899 1.41753
3.17072 0.805065 1.42856
3.17086 0.808346 1.44751
3.15976 0.823114 1.56639
3.16098 0.827528 1.59432
3.15812 0.829811 1.61331
3.16124 0.83303 1.62824
3.15934 0.835224 1.64123
3.15753 0.83861 1.6672
3.15563 0.839804 1.68019
3.14474 0.840019 1.69427
3.15388 0.844293 1.71314
3.155 0.847514 1.72809
3.14918 0.849874 1.7521
3.1503 0.853095 1.76705
3.15236 0.854212 1.77502
3.14242 0.853337 1.78311
3.14755 0.8576 1.80101
3.14778 0.863028 1.82993
3.14297 0.865402 1.85493
3.13599 0.864452 1.858
3.14236 0.874172 1.90682
3.13767 0.879767 1.94677
3.13678 0.882989 1.96174
3.13584 0.884093 1.96873
3.13696 0.886329 1.98469
3.12713 0.888677 2.00773
3.12725 0.890899 2.0227
3.13239 0.896176 2.04158
