3.11065 0.220606 2.15402
3.11178 0.222857 2.17098
3.1109 0.223079 2.18599
3.10913 0.226539 2.21695
3.11019 0.226657 2.22495
3.10944 0.230131 2.25691
3.10767 0.232591 2.28789
3.10679 0.233829 2.30388
3.10295 0.235142 2.32489
3.10509 0.237422 2.34384
3.10019 0.237603 2.35588
3.09642 0.240065 2.38687
3.09554 0.241302 2.40286
3.09976 0.244728 2.43179
3.09888 0.245966 2.44778
3.09197 0.246134 2.45883
3.09814 0.24947 2.48173
3.0925 0.253184 2.52973
3.08653 0.253233 2.53277
3.0927 0.255569 2.5557
3.09083 0.256822 2.57269
3.09499 0.259129 2.59363
3.08707 0.259298 2.60469
3.09729 0.263705 2.63255
3.09238 0.263901 2.64559
3.09347 0.265063 2.65656
3.09159 0.266301 2.67256
3.09073 0.268568 2.69054
3.08986 0.269835 2.70853
3.09202 0.272144 2.72948
3.08813 0.273369 2.74449
3.08727 0.274636 2.76248
3.08835 0.275783 2.77246
3.08345 0.276994 2.78648
3.0836 0.27929 2.80645
3.07972 0.279515 2.82148
3.07382 0.280726 2.8355
3.08102 0.284106 2.8614
3.08218 0.286416 2.88236
3.07823 0.286522 2.88939
3.07939 0.288832 2.91035
3.06761 0.290255 2.93842
3.06775 0.292536 2.95739
3.07598 0.295974 2.98728
3.07008 0.297186 3.00131
3.0742 0.298405 3.01626
3.0683 0.299616 3.03029
3.06846 0.301927 3.05126
3.06862 0.304237 3.07223
3.06374 0.305478 3.08825
3.0639 0.307788 3.10922
3.05902 0.309029 3.12524
3.06415 0.310262 3.14118
3.05927 0.312517 3.15819
3.05575 0.318437 3.22014
3.0539 0.319735 3.24013
3.05718 0.32428 3.27705
3.04239 0.325705 3.30514
3.04054 0.328002 3.32512
3.04274 0.330385 3.35107
3.05098 0.334853 3.38295
3.0431 0.336081 3.39799
3.03951 0.340882 3.45196
3.04272 0.344294 3.47989
3.03886 0.345578 3.4989
3.02997 0.346792 3.51295
3.03116 0.350161 3.53789
3.03833 0.352481 3.55981
3.03245 0.353737 3.57684
3.03264 0.357107 3.60179
3.03183 0.359463 3.62576
3.02192 0.359648 3.63784
3.01322 0.363246 3.67786
3.01433 0.365452 3.69182
3.01352 0.367823 3.71679
3.01877 0.371307 3.7497
3.01715 0.377063 3.80064
3.00928 0.378306 3.81668
3.21557 0.155766 0.819008
3.1234 0.254015 2.24944
3.11617 0.26253 2.35139
3.10722 0.274593 2.4903
3.08552 0.303093 2.79308
3.08582 0.30667 2.83203
3.07208 0.323152 2.99891
3.06821 0.324406 3.01592
3.05962 0.329212 3.06993
3.06491 0.33377 3.10782
3.06206 0.336053 3.12681
3.06323 0.338393 3.14977
3.06154 0.342001 3.19074
3.06071 0.344327 3.21271
3.04869 0.343291 3.20982
3.05004 0.348986 3.25673
3.04416 0.350212 3.27176
3.05139 0.353666 3.30266
3.05258 0.356035 3.32762
3.04973 0.358333 3.34761
3.05082 0.35951 3.35958
3.05001 0.362865 3.38354
3.0411 0.363049 3.39561
3.04734 0.366518 3.42752
3.04348 0.368788 3.44551
3.03559 0.370015 3.46056
3.03679 0.372399 3.48652
3.03385 0.37352 3.49452
3.04111 0.378017 3.52841
3.03524 0.379288 3.54643
3.03442 0.381629 3.56941
3.02754 0.382871 3.58544
3.03077 0.386313 3.61537
3.02481 0.386391 3.62042
3.03207 0.390903 3.6553
3.02419 0.392131 3.67034
3.01732 0.393403 3.68838
3.01751 0.396772 3.71333
3.01974 0.400215 3.74327
3.00882 0.400385 3.75435
3.0241 0.405907 3.79016
3.01318 0.406078 3.80124
3.01137 0.409449 3.82621
3.01461 0.41292 3.85813
3.27939 0.16562 -0.268769
3.27959 0.166005 -0.242773
3.27866 0.166154 -0.232767
3.28001 0.166834 -0.18678
3.27717 0.167147 -0.165761
3.27032 0.166448 -0.145696
3.26948 0.16676 -0.124691
3.27355 0.167905 -0.114738
3.26559 0.166985 -0.109663
3.26174 0.166284 -0.0896212
3.26682 0.167443 -0.0786751
3.27291 0.168601 -0.0677366
3.26998 0.168752 -0.0577154
3.2711 0.168988 -0.0417251
3.27125 0.169284 -0.0217279
3.26833 0.169434 -0.0117067
3.26756 0.169894 0.0192965
3.26067 0.169121 0.0343619
3.26376 0.170281 0.045323
3.26183 0.170431 0.0553367
3.26291 0.170593 0.0663277
3.26399 0.17174 0.076304
3.25457 0.172887 0.153369
3.25962 0.172972 0.15933
3.25677 0.173271 0.17935
3.24992 0.173572 0.1994
3.24943 0.175579 0.267383
3.24759 0.175891 0.288395
3.24879 0.17729 0.315369
3.24386 0.177427 0.324406
3.24422 0.179137 0.372384
3.24154 0.180761 0.414386
3.22547 0.190563 0.670398
3.22364 0.19189 0.692395
3.22084 0.193292 0.719399
3.21537 0.196332 0.789405
3.21145 0.196483 0.799433
3.20051 0.19561 0.80753
3.20661 0.196798 0.820468
3.2107 0.197987 0.833421
3.20778 0.198137 0.843443
3.21083 0.199239 0.850404
3.20599 0.199553 0.871439
3.19806 0.199692 0.880498
3.19526 0.200094 0.907517
3.20237 0.202296 0.921432
3.20573 0.206004 0.969359
3.19779 0.205128 0.977433
3.20294 0.20742 0.997363
3.19327 0.209064 1.04042
3.20038 0.210281 1.05535
3.18141 0.208354 1.05952
3.1955 0.211521 1.07137
3.18656 0.210632 1.07845
3.19267 0.211849 1.09339
3.18474 0.211988 1.10245
3.19596 0.215409 1.13132
3.19303 0.215559 1.14134
3.18341 0.218306 1.19138
3.18652 0.219511 1.20534
3.18675 0.22197 1.2363
3.13677 0.282759 2.02989
3.08197 0.361904 2.84724
3.08514 0.364227 2.86919
3.07622 0.37935 3.01205
3.07235 0.381604 3.02905
3.07353 0.383944 3.05201
3.06704 0.390955 3.11996
3.06351 0.39786 3.1809
3.05196 0.419695 3.37169
3.04728 0.42432 3.41366
3.03637 0.440458 3.55752
3.03758 0.443857 3.58447
3.03576 0.446213 3.60845
3.0322 0.453074 3.66638
3.03139 0.456445 3.69134
3.02372 0.461087 3.73434
3.0219 0.463443 3.75832
3.02321 0.469049 3.79923
3.27825 0.187323 -0.289085
3.28233 0.188468 -0.279131
3.27041 0.186639 -0.268012
3.27252 0.18686 -0.25303
3.2726 0.187008 -0.243031
3.27268 0.187171 -0.232032
3.27576 0.188317 -0.222071
3.27383 0.188466 -0.212058
3.27392 0.188629 -0.201059
3.27499 0.188776 -0.191068
3.27103 0.187853 -0.186024
3.2691 0.188003 -0.17601
3.26734 0.188463 -0.144999
3.26341 0.188614 -0.134971
3.2705 0.189772 -0.12404
3.27654 0.190841 -0.1191
3.27369 0.190154 -0.0980658
3.26276 0.189296 -0.0889694
3.26284 0.189458 -0.077971
3.26592 0.189604 -0.0679949
3.273 0.191762 -0.0570787
3.25703 0.188833 -0.0529144
3.26411 0.189991 -0.0419834
3.26519 0.191138 -0.0320071
3.26226 0.190288 -0.0219712
3.26335 0.19145 -0.010995
3.26042 0.1906 -0.000959007
3.26554 0.191833 0.0149864
3.26262 0.191984 0.0250076
3.26169 0.192132 0.0350137
3.25877 0.192283 0.0450349
3.26285 0.193442 0.0559885
3.25192 0.191584 0.0650996
3.261 0.19374 0.0760008
3.26205 0.193828 0.0819924
3.26221 0.194139 0.10299
3.25551 0.194736 0.143037
3.25655 0.194824 0.149028
3.25771 0.196134 0.170003
3.25379 0.195285 0.180047
3.25286 0.195434 0.190053
3.25602 0.196743 0.211012
3.24705 0.195808 0.215094
3.25122 0.197131 0.237047
3.24845 0.198592 0.26805
3.25149 0.198664 0.273027
3.24063 0.197953 0.292122
3.24781 0.200288 0.315036
3.23687 0.198415 0.323148
3.24203 0.200737 0.345077
3.24308 0.200825 0.351069
3.24332 0.202298 0.38305
3.23519 0.206007 0.498072
3.23008 0.211758 0.616042
3.22331 0.212222 0.64709
3.22448 0.213546 0.669065
3.22156 0.213711 0.680086
3.22068 0.214949 0.696076
3.22378 0.216124 0.708037
3.22294 0.216451 0.730042
3.21199 0.215562 0.737138
3.21518 0.217915 0.761083
3.21722 0.218003 0.767067
3.21145 0.219466 0.798093
3.20962 0.220793 0.82009
3.21568 0.221907 0.828029
3.2073 0.226127 0.910041
3.20948 0.22748 0.934008
3.19954 0.226606 0.942097
3.20464 0.227795 0.955043
3.20194 0.230389 0.99503
3.193 0.229514 1.00311
3.2023 0.234084 1.04198
3.18502 0.248457 1.26893
3.1188 0.334705 2.29529
3.09648 0.370945 2.64797
3.03777 0.480179 3.60593
3.02572 0.495052 3.73182
3.02612 0.501821 3.78372
3.02229 0.504149 3.80572
3.01159 0.508749 3.84574
3.28317 0.203125 -0.302357
3.27251 0.201814 -0.256251
3.28659 0.203952 -0.246388
3.27986 0.204489 -0.21034
3.26709 0.202958 -0.179217
3.26124 0.202259 -0.15916
3.27436 0.204486 -0.143289
3.27144 0.204636 -0.133268
3.27552 0.204796 -0.1223
3.25866 0.20309 -0.103145
3.26478 0.204322 -0.0872069
3.27487 0.206477 -0.0763132
3.2641 0.204944 -0.0452051
3.26325 0.205241 -0.0252004
3.25228 0.204309 -0.0211033
3.26645 0.206624 0.000758659
3.25767 0.206075 0.030837
3.2648 0.208321 0.0477524
3.2521 0.206923 0.0878743
3.25469 0.210076 0.165819
3.24411 0.210913 0.221894
3.24039 0.211448 0.257919
3.23561 0.211896 0.287953
3.24783 0.215316 0.316814
3.24791 0.215479 0.327812
3.2385 0.217626 0.404862
3.22291 0.217452 0.45999
3.23317 0.220962 0.494865
3.22236 0.220326 0.51896
3.22861 0.222825 0.55288
3.21704 0.224677 0.609948
3.22522 0.227026 0.633855
3.21132 0.226229 0.646973
3.22652 0.229602 0.672812
3.21587 0.230306 0.719888
3.21504 0.231632 0.741878
3.21914 0.232822 0.754831
3.22022 0.233984 0.765807
3.20937 0.233273 0.784902
3.21258 0.2357 0.813846
3.19697 0.236467 0.86496
3.21215 0.240796 0.887784
3.2022 0.239922 0.895873
3.19326 0.239032 0.902955
3.20447 0.242438 0.930824
3.20761 0.243702 0.948784
3.20016 0.247788 1.02179
3.19031 0.248092 1.04186
3.19363 0.251726 1.08479
3.18916 0.25575 1.15377
3.18438 0.257183 1.18279
3.19158 0.260577 1.20969
3.17987 0.262148 1.24776
3.18598 0.264366 1.26268
3.18517 0.265737 1.28767
3.17738 0.267142 1.31472
3.18359 0.269567 1.34364
3.16132 0.275004 1.43974
3.16358 0.278505 1.47367
3.15921 0.284737 1.55663
3.15666 0.301566 1.74742
3.15586 0.303966 1.7744
3.15217 0.307575 1.81538
3.14854 0.312288 1.86334
3.14246 0.323098 1.98524
3.1273 0.332752 2.09623
3.12955 0.336239 2.12916
3.11852 0.349141 2.25707
3.1228 0.353671 2.29298
3.09691 0.380819 2.57181
3.08914 0.399207 2.73262
3.05177 0.46926 3.34195
3.02699 0.487645 3.50189
3.03968 0.500982 3.59261
3.03401 0.505638 3.63659
3.02714 0.507879 3.65261
3.02158 0.514756 3.71155
3.02502 0.522597 3.76842
3.01734 0.527239 3.81142
3.00937 0.527289 3.81448
3.28521 0.22718 -0.298728
3.28129 0.226346 -0.287685
3.27537 0.226498 -0.277641
3.27144 0.225649 -0.267598
3.27353 0.225811 -0.256614
3.2726 0.225959 -0.246608
3.28068 0.227101 -0.236684
3.2808 0.227338 -0.220687
3.27395 0.227639 -0.200637
3.27003 0.226805 -0.189593
3.27011 0.226953 -0.179595
3.28118 0.229093 -0.169708
3.27722 0.22817 -0.164664
3.27638 0.228482 -0.14366
3.26645 0.227637 -0.133571
3.26353 0.226787 -0.123535
3.2606 0.226938 -0.113514
3.26981 0.22933 -0.0866148
3.26888 0.229479 -0.0766087
3.26712 0.22994 -0.0455979
3.26419 0.22909 -0.0355619
3.26023 0.229167 -0.0305325
3.2613 0.229314 -0.0205414
3.26639 0.230473 -0.00959533
3.26746 0.23062 0.000395752
3.26454 0.230771 0.010417
3.25865 0.229997 0.0254748
3.25773 0.230146 0.035481
3.25988 0.231455 0.0564482
3.26204 0.231765 0.0774303
3.25812 0.231916 0.087459
3.25205 0.235756 0.211465
3.25025 0.236142 0.237476
3.25433 0.237302 0.24843
3.24536 0.241322 0.384457
3.24259 0.242783 0.41546
3.23679 0.243172 0.441502
3.23687 0.24332 0.451501
3.23711 0.244809 0.484481
3.23063 0.24782 0.552495
3.23 0.250546 0.601466
3.23016 0.251857 0.622448
3.22828 0.252095 0.638461
3.21935 0.251235 0.647542
3.22243 0.252396 0.658504
3.22252 0.253573 0.670487
3.21257 0.251684 0.677591
3.21687 0.255273 0.717511
3.21897 0.256449 0.729479
3.22006 0.256626 0.74147
3.22214 0.257787 0.752439
3.21149 0.259491 0.7995
3.20896 0.263396 0.86047
3.21305 0.264585 0.873423
3.21122 0.265912 0.895421
3.21044 0.267342 0.924409
3.20551 0.267479 0.933446
3.19766 0.267781 0.953503
3.20116 0.272755 1.01941
3.19412 0.28164 1.14635
3.18865 0.28568 1.21634
3.18716 0.291673 1.28327
3.13799 0.35809 2.05177
3.13 0.371079 2.18565
3.12219 0.373455 2.21068
3.12534 0.375733 2.22963
3.11822 0.38847 2.34651
3.11264 0.393288 2.40149
3.10182 0.41059 2.55633
3.10202 0.413989 2.58328
3.09942 0.41976 2.63523
3.09366 0.423223 2.66622
3.08941 0.434691 2.7651
3.08317 0.446175 2.86499
3.08262 0.453049 2.9239
3.07998 0.458761 2.97184
3.0744 0.465579 3.02679
3.07456 0.467889 3.04776
3.07093 0.473617 3.09671
3.06823 0.479211 3.13665
3.06639 0.481508 3.15663
3.05907 0.491845 3.24655
3.05033 0.495355 3.28057
3.04749 0.498667 3.30154
3.05398 0.50761 3.36537
3.04342 0.514475 3.42335
3.03552 0.514688 3.43741
3.04571 0.519036 3.46127
3.03983 0.521277 3.47729
3.04323 0.528059 3.53017
3.02625 0.527116 3.53331
3.0325 0.532599 3.56619
3.03472 0.536012 3.59412
3.03279 0.537146 3.60312
3.02995 0.540474 3.6251
3.03015 0.543858 3.65105
3.02226 0.545086 3.66609
3.01842 0.5474 3.68709
3.02064 0.551812 3.71501
3.01487 0.555275 3.74601
3.01711 0.559732 3.77693
3.01428 0.56206 3.79892
3.01953 0.567544 3.8318
3.01267 0.56983 3.85083
3.27963 0.3179 -0.251023
3.27979 0.318196 -0.231025
3.27386 0.317348 -0.220967
3.27098 0.317587 -0.204946
3.26706 0.316738 -0.194903
3.27421 0.318044 -0.173973
3.26937 0.318344 -0.153938
3.26348 0.31757 -0.138881
3.27056 0.318728 -0.127949
3.26664 0.317879 -0.117906
3.26171 0.31803 -0.10787
3.26079 0.318179 -0.0978636
3.26687 0.319338 -0.0869251
3.26195 0.318489 -0.076874
3.25798 0.317566 -0.0718298
3.26014 0.318876 -0.0508625
3.26322 0.320021 -0.0409013
3.26029 0.319172 -0.0308653
3.26138 0.320334 -0.0198892
3.2705 0.321564 -0.00397388
3.25556 0.319708 0.00516735
3.26065 0.320867 0.0161134
3.25772 0.321018 0.0261346
3.25079 0.320156 0.0352008
3.25587 0.321315 0.0461469
3.26696 0.322485 0.0580477
3.25599 0.321552 0.0621447
3.25707 0.321699 0.0721358
3.26516 0.323871 0.0840443
3.25623 0.322011 0.0931404
3.2513 0.322162 0.103177
3.24838 0.322313 0.113198
3.25346 0.322472 0.124159
3.24849 0.322535 0.128196
3.25458 0.323708 0.140134
3.25566 0.323855 0.150125
3.25173 0.324006 0.160154
3.24681 0.323158 0.170205
3.24888 0.324304 0.180174
3.25293 0.32539 0.186128
3.25301 0.325553 0.197127
3.24408 0.324693 0.206208
3.24816 0.325853 0.217161
3.24431 0.326152 0.237189
3.24339 0.3263 0.247195
3.24147 0.326465 0.258208
3.24451 0.326536 0.263185
3.24058 0.326687 0.273214
3.24868 0.328859 0.285122
3.24074 0.327998 0.294196
3.24683 0.329171 0.306135
3.24491 0.329321 0.316148
3.24499 0.329484 0.327147
3.24603 0.330557 0.332124
3.2381 0.329696 0.341197
3.23426 0.33001 0.362225
3.24435 0.33218 0.374118
3.23449 0.331468 0.393206
3.23654 0.331556 0.39919
3.23469 0.332868 0.420187
3.23979 0.334042 0.432133
3.23694 0.334355 0.453153
3.23807 0.335591 0.469128
3.23113 0.334729 0.478194
3.23622 0.335903 0.49014
3.22637 0.335192 0.509228
3.2335 0.337453 0.527143
3.22958 0.337604 0.537172
3.23066 0.338766 0.548148
3.23375 0.339941 0.560109
3.2218 0.338054 0.567228
3.2249 0.339229 0.579189
3.23299 0.341416 0.592097
3.22305 0.340541 0.600186
3.22109 0.340617 0.6052
3.21725 0.340931 0.626228
3.21132 0.340068 0.635286
3.22543 0.34328 0.650134
3.2185 0.342418 0.659201
3.21557 0.342568 0.669222
3.22172 0.344845 0.688145
3.21879 0.344995 0.698166
3.22389 0.347184 0.711097
3.20894 0.345284 0.717238
3.20802 0.345447 0.728244
3.21709 0.347574 0.737146
3.21015 0.346697 0.745212
3.21826 0.348899 0.75912
3.22135 0.350074 0.771081
3.21241 0.349214 0.780163
3.20648 0.349351 0.789206
3.21058 0.350541 0.80216
3.2056 0.349589 0.805212
3.20168 0.34974 0.815241
3.20778 0.351943 0.829164
3.20386 0.352094 0.839193
3.20595 0.35327 0.851161
3.20804 0.354446 0.863129
3.1991 0.353571 0.871211
3.2032 0.35476 0.884164
3.20124 0.354836 0.889179
3.19932 0.356 0.900177
3.1974 0.356149 0.910191
3.1995 0.35734 0.923159
3.19757 0.35749 0.933173
3.20268 0.359693 0.947104
3.19173 0.357805 0.954215
3.19981 0.359947 0.964124
3.19989 0.36111 0.975108
3.19797 0.361274 0.986121
3.19405 0.361425 0.99615
3.19915 0.363628 1.01008
3.18921 0.362754 1.01817
3.19828 0.36488 1.02707
3.19436 0.365031 1.0371
3.19946 0.366235 1.05105
3.19655 0.3674 1.06205
3.19262 0.367551 1.07208
3.18468 0.366675 1.08015
3.1908 0.368892 1.09508
3.18683 0.368955 1.09911
3.18793 0.369146 1.1121
3.18902 0.370323 1.12407
3.18308 0.370461 1.13312
3.18418 0.371652 1.14609
3.1923 0.373883 1.162
3.18236 0.372994 1.16909
3.18743 0.375123 1.17802
3.19153 0.376328 1.19198
3.18369 0.376644 1.21303
3.17877 0.376796 1.22307
3.17585 0.377961 1.23408
3.18196 0.380178 1.249
3.18301 0.380266 1.25499
3.18913 0.382499 1.27091
3.18722 0.383678 1.28291
3.18731 0.384855 1.2949
3.18138 0.383993 1.30395
3.17746 0.385159 1.31497
3.17756 0.386351 1.32795
3.1756 0.386426 1.33297
3.17771 0.387632 1.34693
3.17579 0.388796 1.35793
3.1779 0.390002 1.3719
3.17799 0.391194 1.38488
3.17608 0.391373 1.3969
3.17217 0.392539 1.40791
3.17321 0.392627 1.4139
3.17633 0.394847 1.42885
3.17241 0.395012 1.43988
3.17552 0.397232 1.45482
3.17261 0.397397 1.46584
3.17572 0.399617 1.48079
3.16678 0.398742 1.48887
3.17186 0.400886 1.4988
3.17296 0.402077 1.51178
3.16934 0.405835 1.56276
3.16844 0.407028 1.57575
3.16749 0.408117 1.58174
3.16658 0.408311 1.59475
3.16679 0.41171 1.6217
3.16399 0.414097 1.64769
3.15934 0.417781 1.69367
3.15764 0.421374 1.73364
3.1578 0.423685 1.75461
3.15209 0.426266 1.79362
3.15142 0.430903 1.83656
3.147 0.438046 1.9135
3.1441 0.43924 1.9265
3.14327 0.441567 1.94848
3.14137 0.44276 1.96148
3.14059 0.44619 1.99044
3.13769 0.447399 2.00444
3.13396 0.44992 2.03944
3.1352 0.453393 2.07138
3.12651 0.456991 2.1114
3.13059 0.459151 2.12234
3.12781 0.461582 2.15133
3.12793 0.463819 2.16729
3.12805 0.466055 2.18326
3.12617 0.467279 2.19826
3.12025 0.467446 2.2093
3.12836 0.470662 2.2242
3.11942 0.469787 2.23228
3.12056 0.472052 2.25024
3.11968 0.47429 2.26621
3.11678 0.475484 2.27922
3.11289 0.476694 2.29323
3.11503 0.478974 2.31219
3.11308 0.479064 2.3182
3.10717 0.480246 2.33023
3.11535 0.483595 2.35412
3.11649 0.48586 2.37208
3.10856 0.485999 2.38114
3.10769 0.488252 2.39812
3.11185 0.490559 2.41905
3.11191 0.491692 2.42804
3.10399 0.491846 2.4381
3.10412 0.494098 2.45507
3.10123 0.496322 2.47006
3.09432 0.49649 2.48111
3.09546 0.49877 2.50007
3.10567 0.503177 2.52793
3.0997 0.503226 2.53097
3.09983 0.505492 2.54894
3.09795 0.50673 2.56494
3.09608 0.508983 2.58192
3.09118 0.510179 2.59494
3.08729 0.511389 2.60896
3.08743 0.51367 2.62792
3.09455 0.515901 2.64384
3.09268 0.518154 2.66082
3.08577 0.519337 2.67286
3.09196 0.522702 2.69777
3.08405 0.522871 2.70883
3.08318 0.525138 2.7268
3.08938 0.529503 2.75169
3.08542 0.529595 2.75772
3.08557 0.531891 2.77769
3.08874 0.535214 2.79962
3.08098 0.538678 2.83063
3.08214 0.540988 2.85159
3.08129 0.543285 2.87157
3.08152 0.547728 2.9015
3.08368 0.551052 2.92344
3.0788 0.552293 2.93946
3.07996 0.554602 2.96042
3.0781 0.55687 2.9784
3.0702 0.558068 2.99145
3.0775 0.56364 3.03032
3.07363 0.565894 3.04731
3.07278 0.568191 3.06729
3.07294 0.570501 3.08826
3.0721 0.573827 3.11022
3.06319 0.573997 3.12128
3.0673 0.576216 3.13622
3.06344 0.578485 3.15422
3.06563 0.581853 3.17916
3.06074 0.584079 3.19416
3.05587 0.585334 3.21118
3.05605 0.588674 3.23413
3.05925 0.593071 3.26105
3.05732 0.594206 3.27005
3.05144 0.595447 3.28608
3.0506 0.597758 3.30705
3.04775 0.600056 3.32704
3.0449 0.602339 3.34603
3.05014 0.607794 3.37692
3.04426 0.609035 3.39294
3.04435 0.611212 3.40491
3.04049 0.612496 3.42393
3.03764 0.615794 3.4439
3.03885 0.619193 3.47084
3.03398 0.621448 3.48785
3.03619 0.624861 3.51579
3.03528 0.627024 3.52676
3.03344 0.629351 3.54875
3.03768 0.634806 3.57964
3.03182 0.636077 3.59767
3.02595 0.638333 3.61468
3.03018 0.642788 3.64559
3.02332 0.64506 3.66361
3.01745 0.646316 3.68063
3.02664 0.650679 3.7055
3.02078 0.652964 3.72452
3.01897 0.656321 3.74848
3.02119 0.660763 3.7784
3.27346 0.348516 -0.277433
3.27158 0.348754 -0.26142
3.26616 0.348898 -0.184371
3.26731 0.350194 -0.164396
3.26358 0.349729 -0.128356
3.26074 0.350042 -0.107336
3.26389 0.351336 -0.0873763
3.25932 0.352184 -0.0303466
3.25751 0.352555 -0.00533499
3.25767 0.352866 0.0156621
3.25382 0.353165 0.0356895
3.25594 0.3534 0.0516722
3.2541 0.353713 0.0726844
3.25425 0.355009 0.0926668
3.25749 0.35648 0.124625
3.24859 0.355694 0.138706
3.24975 0.356004 0.159695
3.24583 0.356155 0.169724
3.2429 0.356305 0.179745
3.24802 0.357538 0.19569
3.25119 0.358862 0.21765
3.23833 0.357153 0.236775
3.24554 0.359547 0.263689
3.24361 0.359696 0.273702
3.24169 0.359846 0.283716
3.23676 0.359998 0.293752
3.24498 0.362406 0.321659
3.24305 0.362555 0.331672
3.23913 0.362706 0.341701
3.23019 0.360832 0.349797
3.23135 0.362156 0.371772
3.23344 0.363318 0.382741
3.22963 0.363705 0.408767
3.22486 0.365153 0.438786
3.23496 0.367338 0.451679
3.23203 0.367488 0.4617
3.23817 0.36875 0.479638
3.22623 0.367877 0.487742
3.22931 0.369038 0.498703
3.23139 0.369199 0.509686
3.22847 0.369349 0.519708
3.22355 0.369501 0.529744
3.23561 0.371611 0.537623
3.22968 0.371763 0.547667
3.21974 0.369889 0.55577
3.22984 0.373074 0.568649
3.22099 0.372376 0.588729
3.21802 0.372438 0.592751
3.22412 0.373626 0.605689
3.21919 0.373763 0.614725
3.22028 0.374939 0.626701
3.21935 0.375088 0.636708
3.21643 0.375238 0.646729
3.2135 0.375389 0.65675
3.21254 0.375463 0.661757
3.20963 0.375628 0.672778
3.22374 0.37884 0.687626
3.21681 0.377978 0.696692
3.21488 0.379128 0.706691
3.21998 0.380316 0.719637
3.21104 0.379441 0.727718
3.21318 0.380706 0.745686
3.21134 0.382019 0.766683
3.21343 0.383195 0.778652
3.20649 0.382333 0.787718
3.20658 0.383496 0.798702
3.21268 0.385684 0.811625
3.20871 0.384761 0.816669
3.20579 0.384911 0.82669
3.19986 0.385048 0.835734
3.20396 0.386238 0.848688
3.20605 0.387414 0.860656
3.20814 0.38859 0.872625
3.19815 0.387627 0.874714
3.20024 0.388803 0.886683
3.20234 0.389979 0.898651
3.19841 0.39013 0.90868
3.20652 0.392346 0.923588
3.19858 0.39147 0.931662
3.20068 0.392646 0.943631
3.19671 0.392723 0.94866
3.1978 0.3939 0.960636
3.2019 0.39509 0.973589
3.19798 0.395241 0.983618
3.19706 0.396404 0.994609
3.19715 0.397581 1.00659
3.20225 0.39877 1.01954
3.2003 0.39886 1.02555
3.19236 0.398985 1.03361
3.19947 0.401201 1.04853
3.19153 0.400326 1.0566
3.19463 0.401516 1.06956
3.19171 0.402681 1.08057
3.1908 0.402844 1.09157
3.19786 0.404972 1.10049
3.19896 0.406164 1.11347
3.19504 0.406315 1.1235
3.19915 0.408519 1.13743
3.18619 0.406617 1.14356
3.1943 0.408833 1.15847
3.18938 0.408985 1.1685
3.18842 0.410075 1.1745
3.1845 0.410225 1.18453
3.19262 0.412456 1.20043
3.18478 0.412773 1.22149
3.19089 0.41499 1.23641
3.17995 0.414102 1.24351
3.18922 0.418628 1.27938
3.18338 0.419943 1.30041
3.17798 0.426116 1.37937
3.15888 0.434892 1.4984
3.17102 0.438164 1.51726
3.16475 0.446589 1.6132
3.16184 0.447769 1.6252
3.15962 0.45828 1.72708
3.15428 0.466586 1.81501
3.15143 0.467869 1.83401
3.14752 0.46905 1.84602
3.15265 0.471298 1.86296
3.14874 0.472478 1.87497
3.14584 0.473673 1.88797
3.14505 0.476088 1.91595
3.14635 0.480664 1.95488
3.14444 0.481858 1.96788
3.13663 0.484218 1.9919
3.13876 0.486468 2.00886
3.13893 0.488809 2.03182
3.14005 0.49103 2.04678
3.13123 0.492406 2.07183
3.12933 0.4936 2.08483
3.12945 0.495837 2.1008
3.13052 0.496954 2.10878
3.13064 0.498191 2.12476
3.12685 0.501608 2.15274
3.12999 0.503872 2.17069
3.1281 0.505095 2.18568
3.11715 0.505207 2.19277
3.12325 0.507395 2.20569
3.12438 0.509646 2.22265
3.1225 0.510869 2.23765
3.12262 0.513106 2.25362
3.1157 0.513273 2.26467
3.11884 0.515537 2.28261
3.11796 0.517775 2.29859
3.114 0.517852 2.30362
3.11312 0.520089 2.31959
3.11324 0.521326 2.33558
3.11639 0.524619 2.35551
3.10544 0.523731 2.3626
3.1086 0.527025 2.38253
3.10973 0.52929 2.40049
3.10879 0.530394 2.40749
3.10791 0.531632 2.42348
3.10804 0.533898 2.44144
3.10817 0.536149 2.45841
3.1073 0.538387 2.47439
3.10441 0.539611 2.48939
3.10152 0.541835 2.50438
3.10764 0.544052 2.51931
3.10173 0.545234 2.53134
3.10187 0.5475 2.5493
3.10301 0.549781 2.56826
3.10214 0.552033 2.58524
3.10027 0.554286 2.60222
3.09839 0.555524 2.61822
3.09846 0.556657 2.62721
3.0996 0.559937 2.64615
3.09773 0.56119 2.66315
3.09385 0.563415 2.67815
3.09197 0.564653 2.69415
3.09715 0.569004 2.71804
3.09427 0.570243 2.73405
3.09536 0.572405 2.74501
3.09061 0.575897 2.778
3.08773 0.578136 2.79399
3.08587 0.580403 2.81197
3.085 0.58267 2.82995
3.08616 0.58498 2.85091
3.08654 0.59172 2.90081
3.07793 0.598481 2.95179
3.08011 0.601819 2.97472
3.07577 0.613124 3.0626
3.06989 0.614351 3.07763
3.07206 0.617689 3.10057
3.07046 0.62446 3.15248
3.06559 0.626715 3.16949
3.06273 0.628983 3.18748
3.06499 0.634499 3.22239
3.06114 0.636783 3.24139
3.05643 0.641349 3.27936
3.05257 0.643633 3.29836
3.04888 0.649242 3.33931
3.04704 0.651554 3.36029
3.04731 0.657072 3.39521
3.0485 0.660441 3.42015
3.05171 0.664853 3.44807
3.0408 0.666024 3.45914
3.03996 0.668335 3.48011
3.04116 0.672733 3.50704
3.04327 0.674939 3.52099
3.03841 0.677224 3.54
3.04263 0.68165 3.56891
3.03476 0.683892 3.58493
3.03292 0.686219 3.60692
3.03211 0.690589 3.63186
3.02726 0.692874 3.65087
3.02937 0.695094 3.66582
3.03562 0.700578 3.6987
3.02472 0.701778 3.71176
3.02189 0.704106 3.73375
3.0221 0.708505 3.76069
3.01724 0.71079 3.77969
3.01341 0.714118 3.80168
3.02158 0.718452 3.82455
3.29147 0.381484 -0.279057
3.28774 0.38102 -0.243017
3.28282 0.380172 -0.232966
3.2869 0.381332 -0.222012
3.28697 0.38148 -0.212014
3.28305 0.380631 -0.20197
3.28217 0.380868 -0.185965
3.28056 0.38164 -0.133957
3.27964 0.381788 -0.123951
3.27249 0.383467 -0.0109062
3.26542 0.386308 0.113122
3.26458 0.38762 0.134112
3.25252 0.390464 0.258178
3.25111 0.393635 0.337152
3.24931 0.395021 0.363149
3.24554 0.395483 0.394175
3.24382 0.397032 0.43117
3.24123 0.399819 0.484156
3.23495 0.404244 0.580151
3.22956 0.408447 0.66114
3.22864 0.408596 0.671146
3.05357 0.704521 3.42546
3.04715 0.71565 3.50136
3.04449 0.722318 3.54629
3.04468 0.726688 3.57122
3.03345 0.74119 3.67211
3.03264 0.74456 3.69707
3.03285 0.74896 3.724
3.02901 0.751273 3.745
3.03113 0.754508 3.76094
3.03034 0.758908 3.78788
3.02448 0.761194 3.8069
3.02165 0.764521 3.82887
3.00973 0.764693 3.83996
3.17572 0.467581 1.20775
3.17422 0.473559 1.27368
3.17048 0.47708 1.30866
3.16901 0.483102 1.37759
3.16327 0.485624 1.4126
3.15979 0.492633 1.48053
3.15532 0.499672 1.55047
3.15161 0.502237 1.58847
3.15277 0.505547 1.60941
3.15186 0.50674 1.6224
3.14715 0.510306 1.66039
3.15344 0.514864 1.69828
3.1445 0.514989 1.70635
3.14471 0.518403 1.7343
3.14598 0.52192 1.76924
3.14106 0.523086 1.78026
3.13916 0.52428 1.79326
3.15434 0.528624 1.81709
3.1424 0.527736 1.82419
3.1425 0.529943 1.83816
3.14261 0.53115 1.85214
3.1487 0.533323 1.86407
3.13886 0.534641 1.88512
3.13797 0.536864 1.9001
3.13105 0.537017 1.91015
3.13719 0.539279 1.92807
3.13529 0.541487 1.94206
3.13334 0.541578 1.94807
3.13546 0.543813 1.96403
3.12765 0.546189 1.98905
3.12575 0.547382 2.00205
3.12989 0.549646 2.01999
3.12698 0.55084 2.03299
3.13107 0.553 2.04393
3.12515 0.553167 2.05498
3.12728 0.556417 2.07192
3.12337 0.556597 2.08394
3.12248 0.558805 2.09792
3.12171 0.562264 2.12888
3.12178 0.563383 2.13686
3.1229 0.565619 2.15282
3.12403 0.567869 2.16978
3.1161 0.568023 2.17984
3.11823 0.570273 2.1968
3.1254 0.574593 2.21868
3.11747 0.574747 2.22874
3.12156 0.576907 2.23968
3.12068 0.579144 2.25565
3.11879 0.580353 2.26965
3.1169 0.581576 2.28465
3.12005 0.584855 2.30358
3.11514 0.586036 2.3156
3.11527 0.588287 2.33257
3.12036 0.590476 2.3455
3.11646 0.591671 2.35851
3.11458 0.593894 2.3735
3.11068 0.595105 2.38751
3.1078 0.596329 2.40252
3.10289 0.59751 2.41454
3.10805 0.600817 2.43545
3.10812 0.60195 2.44444
3.11429 0.606285 2.46733
3.10147 0.607635 2.49041
3.10362 0.61093 2.51035
3.1008 0.613287 2.53434
3.10497 0.617609 2.55624
3.0992 0.621057 2.58624
3.09732 0.622295 2.60224
3.0976 0.627842 2.63916
3.09674 0.630109 2.65714
3.09896 0.634537 2.68606
3.09206 0.635734 2.69909
3.09637 0.642338 2.73997
3.09148 0.643548 2.75399
3.09069 0.647963 2.78193
3.0868 0.649188 2.79695
3.0871 0.654765 2.83587
3.08624 0.658046 2.85483
3.08453 0.66261 2.89278
3.08406 0.673631 2.96163
3.07671 0.684894 3.04653
3.06712 0.6917 3.10051
3.07055 0.70154 3.15734
3.0677 0.703824 3.17633
3.06197 0.70836 3.21232
3.06012 0.711657 3.23228
3.06442 0.718231 3.27116
3.06073 0.723841 3.31211
3.05586 0.726096 3.32912
3.05503 0.729422 3.35107
3.04832 0.733989 3.38906
3.05281 0.744947 3.45388
3.04997 0.748245 3.47385
3.04226 0.753827 3.51283
3.04245 0.757197 3.53778
3.04558 0.760431 3.55372
3.04293 0.767129 3.60064
3.03807 0.769399 3.61865
3.03826 0.773768 3.64359
3.03361 0.780452 3.68953
3.03391 0.787029 3.72843
3.03209 0.790385 3.7524
3.03027 0.794727 3.77535
3.02845 0.798083 3.79932
3.02766 0.802483 3.82627
3.01876 0.803697 3.84032
3.20265 0.468534 0.800473
3.15549 0.533964 1.56997
3.15691 0.540777 1.62486
3.16601 0.542963 1.63776
3.15606 0.543074 1.64484
3.15818 0.544309 1.6608
3.15728 0.546502 1.67378
3.15135 0.546639 1.68282
3.15347 0.547875 1.69879
3.16061 0.552136 1.71668
3.15363 0.551185 1.71975
3.14971 0.551351 1.73077
3.15484 0.554599 1.74769
3.15294 0.555792 1.76069
3.14501 0.555931 1.76975
3.15115 0.559208 1.78865
3.14523 0.55936 1.7987
3.15634 0.562574 1.81357
3.15143 0.562741 1.82461
3.14953 0.564934 1.83759
3.15064 0.566155 1.85256
3.15176 0.568391 1.86853
3.14383 0.56853 1.87758
3.14796 0.571779 1.89451
3.1431 0.573064 1.91353
3.14522 0.575299 1.92948
3.14835 0.577548 1.94643
3.13741 0.577674 1.95451
3.14155 0.579938 1.97245
3.14266 0.582159 1.98741
3.14373 0.583291 1.99638
3.1368 0.58343 2.00543
3.13301 0.586847 2.03342
3.13514 0.589097 2.05037
3.13929 0.592375 2.06929
3.13639 0.593569 2.0823
3.13544 0.594673 2.08929
3.13556 0.59691 2.10526
3.13267 0.598119 2.11926
3.13177 0.599327 2.13325
3.12598 0.602731 2.16025
3.1251 0.604968 2.17623
3.12327 0.607295 2.19821
3.12339 0.609532 2.21418
3.12754 0.612824 2.2341
3.12566 0.614048 2.2491
3.12176 0.615243 2.26211
3.12289 0.618508 2.28006
3.12195 0.618613 2.28706
3.11805 0.620823 2.30106
3.12321 0.62413 2.32198
3.11427 0.624255 2.33004
3.11038 0.625465 2.34406
3.11856 0.629814 2.36794
3.11164 0.629982 2.37899
3.10768 0.630058 2.38402
3.11298 0.636631 2.42288
3.10707 0.637813 2.43491
3.10822 0.640094 2.45387
3.10633 0.642317 2.46886
3.10144 0.643528 2.48288
3.10855 0.646744 2.49778
3.09861 0.64687 2.50585
3.10479 0.651206 2.52874
3.10795 0.654529 2.55067
3.10406 0.655739 2.56469
3.10018 0.657964 2.57969
3.10635 0.661299 2.60259
3.10139 0.661377 2.60763
3.10053 0.664644 2.62559
3.10269 0.667953 2.64653
3.09375 0.668093 2.6556
3.09289 0.67036 2.67357
3.10009 0.675739 2.69944
3.09116 0.675893 2.70951
3.09326 0.678069 2.72146
3.09153 0.682603 2.75741
3.09269 0.685913 2.77836
3.09283 0.689194 2.79731
3.08895 0.690419 2.81232
3.08306 0.69163 2.82635
3.09034 0.699172 2.86319
3.08546 0.700413 2.87921
3.08763 0.703736 2.90115
3.0777 0.703892 2.91122
3.07886 0.708201 2.93215
3.07499 0.709456 2.94916
3.08229 0.717027 2.988
3.07538 0.71821 3.00004
3.07385 0.727128 3.06193
3.07301 0.730425 3.08189
3.062 0.729418 3.08099
3.07124 0.734885 3.11284
3.06435 0.736097 3.12688
3.06552 0.740436 3.14981
3.06368 0.742733 3.16979
3.06081 0.746002 3.18776
3.05896 0.748299 3.20775
3.0651 0.752561 3.22564
3.05519 0.752731 3.23671
3.05133 0.755015 3.25571
3.05351 0.759368 3.27963
3.0537 0.763723 3.30357
3.04783 0.765979 3.32058
3.04901 0.769333 3.34453
3.04607 0.770453 3.35254
3.04827 0.774836 3.37846
3.05047 0.780234 3.40536
3.04661 0.782503 3.42336
3.04176 0.784788 3.44237
3.04395 0.789171 3.46829
3.0391 0.792455 3.48728
3.04424 0.795733 3.5062
3.04039 0.798016 3.52519
3.03553 0.801286 3.54318
3.03269 0.804614 3.56516
3.03288 0.807983 3.59011
3.02803 0.811268 3.6091
3.02722 0.814638 3.63406
3.03137 0.818916 3.65297
3.03156 0.823286 3.67791
3.02469 0.825557 3.69593
3.02893 0.831013 3.72682
3.02611 0.83437 3.75079
3.0243 0.838726 3.77475
3.0154 0.83994 3.7888
3.02562 0.846346 3.81663
3.01571 0.846546 3.8297
3.0129 0.850903 3.85366
3.28071 0.471852 -0.25531
3.28079 0.472 -0.245312
3.2749 0.471227 -0.230254
3.27799 0.472388 -0.219293
3.28206 0.473532 -0.209339
3.27814 0.472684 -0.199295
3.27021 0.470838 -0.189207
3.27133 0.472074 -0.173231
3.27841 0.473216 -0.1633
3.27649 0.473381 -0.152287
3.27557 0.473529 -0.142281
3.27964 0.474674 -0.132327
3.26872 0.472831 -0.122216
3.2728 0.472991 -0.111248
3.27388 0.474138 -0.101271
3.27591 0.47421 -0.096287
3.27099 0.473362 -0.0862359
3.26406 0.472515 -0.0761698
3.26415 0.472678 -0.0651714
3.27122 0.474821 -0.055255
3.2723 0.474983 -0.0442641
3.27538 0.476129 -0.0343028
3.26342 0.474212 -0.0291836
3.26049 0.473362 -0.0191476
3.26557 0.474506 -0.0092014
3.26665 0.475668 0.00177473
3.26173 0.47482 0.0118258
3.26681 0.475979 0.0227718
3.26789 0.477126 0.0327481
3.25891 0.475192 0.0368449
3.26801 0.477363 0.0487459
3.25907 0.475503 0.057842
3.26416 0.477662 0.0687733
3.25723 0.475816 0.0788542
3.26131 0.47796 0.0887931
3.26439 0.478121 0.099769
3.25943 0.478199 0.104806
3.26251 0.478359 0.115782
3.26159 0.478508 0.125788
3.25165 0.477649 0.134877
3.25674 0.478808 0.145823
3.25281 0.478959 0.155852
3.25389 0.479106 0.165843
3.26094 0.481204 0.172759
3.25809 0.481503 0.192779
3.25818 0.481665 0.203778
3.25525 0.481816 0.213799
3.25733 0.481962 0.223782
3.24439 0.480105 0.232909
3.25044 0.482189 0.238833
3.25152 0.482351 0.249824
3.25561 0.483511 0.260778
3.25168 0.483662 0.270806
3.25376 0.484823 0.281775
3.25184 0.484973 0.291789
3.24791 0.484124 0.301832
3.24494 0.484185 0.305854
3.24904 0.48536 0.317808
3.25112 0.486521 0.328776
3.24519 0.485659 0.337835
3.24334 0.485971 0.358847
3.24839 0.488056 0.364779
3.24247 0.487209 0.374838
3.24956 0.489381 0.386754
3.24771 0.489679 0.406766
3.24679 0.490842 0.417757
3.24487 0.490991 0.427771
3.24495 0.491154 0.438769
3.24299 0.49123 0.443784
3.23714 0.49153 0.463826
3.23622 0.491694 0.474832
3.24047 0.495179 0.507753
3.23658 0.495404 0.522781
3.22664 0.49353 0.530885
3.23792 0.498054 0.566738
3.23403 0.498279 0.581766
3.23111 0.498429 0.591787
3.23236 0.500917 0.624745
3.22948 0.501156 0.640766
3.22471 0.502618 0.671784
3.22179 0.502769 0.681805
3.22589 0.504958 0.694744
3.21895 0.504096 0.70381
3.221 0.505184 0.70978
3.22216 0.506508 0.731754
3.22626 0.508698 0.744693
3.2144 0.507973 0.762795
3.2185 0.509162 0.775749
3.22059 0.511338 0.787702
3.21762 0.5104 0.791739
3.2218 0.513752 0.815661
3.21688 0.512904 0.825712
3.21295 0.513055 0.835741
3.20911 0.514368 0.856753
3.21517 0.516482 0.864678
3.21726 0.517658 0.876646
3.21133 0.516796 0.885705
3.20741 0.516947 0.895733
3.21552 0.520163 0.910627
3.20357 0.518275 0.917746
3.20763 0.519376 0.9247
3.20178 0.520691 0.945727
3.20388 0.521867 0.957696
3.20497 0.523044 0.969672
3.20506 0.524221 0.981655
3.20113 0.524372 0.991684
3.2092 0.526499 1.00059
3.20227 0.526638 1.00964
3.20445 0.528991 1.0336
3.19652 0.52813 1.04267
3.19962 0.53032 1.05562
3.19067 0.529431 1.0627
3.18976 0.529609 1.0747
3.19282 0.53171 1.08165
3.19191 0.531889 1.09366
3.19099 0.533052 1.10465
3.19209 0.534244 1.11762
3.19719 0.536447 1.13155
3.18925 0.536571 1.13961
3.18634 0.536736 1.15063
3.19642 0.539892 1.16151
3.18647 0.539003 1.1686
3.18757 0.540194 1.18158
3.19569 0.54341 1.19647
3.19076 0.543562 1.20651
3.19287 0.544767 1.22048
3.18798 0.545993 1.2355
3.18808 0.547185 1.24848
3.18426 0.548528 1.27149
3.18736 0.550733 1.28544
3.18549 0.551986 1.30244
3.1877 0.555384 1.32937
3.18306 0.560098 1.37734
3.18411 0.561186 1.38332
3.1842 0.562378 1.3963
3.1823 0.563557 1.4083
3.18039 0.563736 1.42032
3.17254 0.565053 1.44136
3.1748 0.569554 1.47528
3.1751 0.574131 1.51422
3.1742 0.575324 1.52721
3.17234 0.577607 1.54619
3.17043 0.577786 1.5582
3.16581 0.583529 1.60816
3.15904 0.601931 1.76996
3.15461 0.611044 1.84487
3.15271 0.612238 1.85787
3.15092 0.615639 1.88483
3.14997 0.616743 1.89183
3.1445 0.624783 1.96176
3.14663 0.627033 1.97871
3.1401 0.634955 2.04065
3.14023 0.637191 2.05662
3.13537 0.639476 2.07563
3.13348 0.640684 2.08962
3.13661 0.643948 2.10755
3.13371 0.645143 2.12056
3.13183 0.646366 2.13556
3.12804 0.649783 2.16354
3.12608 0.650874 2.16954
3.13023 0.654151 2.18846
3.12533 0.655348 2.20148
3.12545 0.657584 2.21745
3.12356 0.658793 2.23145
3.11865 0.659974 2.24347
3.12481 0.66428 2.26436
3.12387 0.664399 2.27237
3.11695 0.665567 2.28341
3.11909 0.668832 2.30134
3.1162 0.670041 2.31535
3.11632 0.672292 2.33232
3.11645 0.674529 2.34829
3.11557 0.676766 2.36426
3.1096 0.67683 2.36831
3.10872 0.679067 2.38428
3.1169 0.683416 2.40816
3.11402 0.68564 2.42315
3.10307 0.684752 2.43025
3.11629 0.691171 2.45906
3.10635 0.691297 2.46713
3.10743 0.692444 2.47711
3.1126 0.696766 2.49901
3.09763 0.694836 2.50315
3.09575 0.697074 2.51913
3.10495 0.702452 2.54499
3.10206 0.704676 2.55998
3.09817 0.7059 2.57499
3.10227 0.70909 2.58791
3.09837 0.710285 2.60093
3.09853 0.713581 2.62088
3.09967 0.716861 2.63983
3.08772 0.715973 2.64693
3.09188 0.720281 2.66784
3.09505 0.723604 2.68977
3.0921 0.724695 2.69578
3.08822 0.725935 2.71179
3.0944 0.731285 2.73567
3.08448 0.73144 2.74574
3.08765 0.734763 2.76767
3.09586 0.740171 2.79553
3.07685 0.738171 2.7947
3.08399 0.741432 2.8126
3.09018 0.746797 2.83748
3.08227 0.74698 2.84954
3.0794 0.749234 2.86653
3.08862 0.755656 2.89537
3.07264 0.753712 2.89852
3.07582 0.75805 2.92144
3.08296 0.762311 2.93932
3.07605 0.763494 2.95136
3.07722 0.766833 2.9743
3.07536 0.770101 2.99227
3.07149 0.772355 3.00927
3.06963 0.774623 3.02725
3.06878 0.777919 3.04721
3.06987 0.780096 3.05917
3.07003 0.783406 3.08013
3.06314 0.784618 3.09416
3.06532 0.788972 3.11808
3.05741 0.790155 3.13013
3.06161 0.794537 3.15603
3.05674 0.796792 3.17304
3.06186 0.801024 3.18894
3.06304 0.804364 3.21189
3.05312 0.805534 3.22295
3.05834 0.810959 3.25183
3.05246 0.813185 3.26684
3.04556 0.814397 3.28088
3.04675 0.818766 3.30581
3.05188 0.822014 3.32272
3.04297 0.823198 3.33478
3.04517 0.827581 3.3607
3.04233 0.830879 3.38067
3.0425 0.835219 3.40361
3.04067 0.838546 3.42558
3.03884 0.841872 3.44755
3.04599 0.846163 3.46743
3.0371 0.847377 3.48148
3.03929 0.852759 3.50739
3.02875 0.861655 3.56735
3.03107 0.869259 3.60822
3.03226 0.873643 3.63415
3.02236 0.874843 3.64721
3.02257 0.880242 3.67413
3.02174 0.883583 3.69709
3.01791 0.887911 3.71906
3.01821 0.894488 3.75797
3.03951 0.927062 3.66231
3.29165 0.532631 -0.270294
3.29173 0.532793 -0.259296
3.27717 0.533633 -0.0681721
3.26111 0.540464 0.189883
3.05681 0.927702 3.43614
3.04126 0.961509 3.62478
3.03843 0.965836 3.64674
3.03023 0.984395 3.75154
3.03448 0.99188 3.7844
3.02872 0.996343 3.81539
3.02085 0.999614 3.8334
3.02105 1.004 3.85934
3.28101 0.563271 -0.0926432
3.27323 0.562721 -0.0625723
3.26742 0.562096 -0.0375158
3.26308 0.564402 0.0504949
3.26028 0.564789 0.0765139
3.26275 0.56772 0.139461
3.25594 0.567095 0.164525
3.24917 0.567544 0.194573
3.2486 0.569388 0.251558
3.24003 0.571239 0.308603
3.25048 0.577119 0.368445
3.23979 0.576734 0.409537
3.23639 0.581906 0.488497
3.22811 0.586318 0.583507
3.23049 0.591057 0.633426
3.22293 0.593935 0.692449
3.21528 0.607576 0.870329
3.20055 0.621073 1.03826
3.20479 0.625528 1.06917
3.19987 0.62568 1.07921
3.19996 0.626858 1.09119
3.20105 0.628034 1.10317
3.18532 0.628579 1.13928
3.19103 0.639966 1.23308
3.19041 0.645691 1.28201
3.18873 0.650329 1.32496
3.17879 0.649454 1.33305
3.18692 0.6537 1.34993
3.16995 0.650772 1.3541
3.16909 0.652039 1.37209
3.18234 0.659517 1.40488
3.16847 0.658794 1.423
3.18077 0.666362 1.4618
3.17686 0.666527 1.47283
3.16792 0.665652 1.48091
3.16601 0.666831 1.49291
3.16119 0.66919 1.51691
3.1733 0.673388 1.53076
3.17641 0.675608 1.54571
3.16154 0.67487 1.56283
3.17269 0.680158 1.58267
3.15974 0.678256 1.5888
3.16693 0.682621 1.61369
3.16143 0.690602 1.67962
3.14682 0.695382 1.73166
3.16301 0.70174 1.75645
3.1581 0.702906 1.76747
3.1472 0.702121 1.78157
3.1434 0.705509 1.80755
3.15155 0.709799 1.82743
3.15167 0.71202 1.8424
3.14977 0.713214 1.85539
3.14083 0.713339 1.86346
3.14893 0.716525 1.87636
3.13698 0.714638 1.88347
3.14211 0.718885 1.90037
3.13821 0.720081 1.91339
3.14033 0.722316 1.92934
3.13341 0.722469 1.93939
3.1466 0.728829 1.9642
3.13358 0.725809 1.96235
3.14475 0.731126 1.98419
3.14386 0.733349 1.99916
3.13191 0.732446 2.00527
3.13505 0.73571 2.0232
3.12611 0.73485 2.03228
3.13327 0.740141 2.05215
3.1293 0.740218 2.05718
3.13143 0.742468 2.07413
3.12552 0.743635 2.08516
3.13066 0.746912 2.10407
3.12777 0.749121 2.11807
3.12286 0.750302 2.13009
3.12506 0.754685 2.15601
3.1253 0.759158 2.18794
3.1214 0.761354 2.20094
3.11649 0.761535 2.21298
3.1136 0.763744 2.22697
3.11876 0.768051 2.24787
3.11781 0.769155 2.25486
3.11491 0.77035 2.26787
3.11706 0.773629 2.28681
3.11215 0.77481 2.29883
3.11127 0.777048 2.3148
3.12248 0.783439 2.34163
3.10851 0.781508 2.34576
3.11461 0.785711 2.35966
3.11475 0.787977 2.37762
3.10682 0.788116 2.38668
3.1081 0.794662 2.42358
3.10735 0.800151 2.45651
3.11447 0.804382 2.4724
3.10554 0.804522 2.48146
3.10165 0.805732 2.49548
3.10998 0.814362 2.53829
3.10912 0.817629 2.55625
3.10321 0.81881 2.56828
3.10429 0.820972 2.57924
3.09838 0.822154 2.59127
3.10169 0.828744 2.63115
3.10082 0.831996 2.64811
3.10405 0.837452 2.67901
3.09614 0.83862 2.69006
3.09341 0.844155 2.726
3.09658 0.848478 2.74792
3.09385 0.855012 2.78385
3.08393 0.855168 2.79392
3.08516 0.86061 2.82383
3.08662 0.871511 2.88467
3.07469 0.871639 2.89276
3.08298 0.879209 2.93159
3.08531 0.887843 2.97445
3.07741 0.889042 2.98749
3.07152 0.890253 3.00152
3.08075 0.897705 3.03235
3.06579 0.89679 3.03747
3.0689 0.898995 3.05142
3.07914 0.90746 3.08322
3.06721 0.906602 3.09232
3.06333 0.908842 3.10832
3.07561 0.918365 3.14409
3.05662 0.915394 3.14528
3.05477 0.918691 3.16525
3.06494 0.924009 3.1871
3.0584 0.934901 3.24699
3.04866 0.939411 3.28101
3.05782 0.944715 3.30186
3.04589 0.944872 3.31195
3.04928 0.955623 3.36277
3.03982 0.96768 3.43367
3.03818 0.976362 3.47956
3.06315 0.993313 3.34211
3.05728 0.995554 3.35812
3.05443 0.998852 3.3781
3.04543 0.996858 3.37819
3.08563 0.928477 2.74681
3.08342 0.948017 2.85056
3.07583 0.956806 2.90349
3.24395 0.666959 0.289154
3.24203 0.667108 0.299168
3.24107 0.667183 0.304174
3.23714 0.667334 0.314203
3.23722 0.667482 0.324202
3.2393 0.668643 0.33517
3.23938 0.669806 0.346154
3.23653 0.670104 0.366174
3.23357 0.67018 0.371196
3.23774 0.672503 0.393133
3.22849 0.676975 0.49215
3.23262 0.679224 0.509088
3.22192 0.679839 0.550165
3.22301 0.681001 0.561141
3.23115 0.684261 0.579034
3.23432 0.687599 0.601964
3.22146 0.685875 0.620089
3.21761 0.686189 0.641116
3.22576 0.690464 0.659994
3.21991 0.690764 0.680036
3.21699 0.690914 0.690058
3.21607 0.691078 0.701064
3.2121 0.69114 0.705093
3.21645 0.695818 0.750998
3.20736 0.705615 0.871938
3.19346 0.717757 1.01588
3.19154 0.718921 1.02688
3.17909 0.740948 1.23068
3.18458 0.749891 1.29451
3.17459 0.747928 1.29662
3.18381 0.754351 1.32546
3.17195 0.753641 1.34456
3.17214 0.75701 1.36951
3.16928 0.759279 1.3875
3.17368 0.76706 1.44036
3.17384 0.770355 1.46031
3.16208 0.771838 1.49238
3.16218 0.77403 1.50535
3.16741 0.77947 1.53524
3.15962 0.78189 1.56326
3.15808 0.789779 1.62317
3.15225 0.792123 1.64618
3.15135 0.794316 1.65916
3.15748 0.797563 1.67606
3.15569 0.801964 1.70302
3.15172 0.801026 1.70706
3.14981 0.80322 1.72004
3.15204 0.807647 1.74897
3.14935 0.814255 1.78989
3.14348 0.815526 1.80792
3.14258 0.817719 1.8209
3.1437 0.81994 1.83586
3.14895 0.826424 1.86873
3.14106 0.827652 1.88377
3.13627 0.831055 1.91076
3.14654 0.83858 1.94658
3.1327 0.838886 1.96668
3.13878 0.842044 1.97759
3.13388 0.84324 1.99061
3.13712 0.849711 2.02249
3.12931 0.852072 2.04652
3.12943 0.854309 2.06249
3.12747 0.855399 2.06849
3.12771 0.860857 2.09941
3.12234 0.874074 2.18127
3.11654 0.877478 2.20826
3.11698 0.88832 2.26511
3.11421 0.892781 2.29607
3.1117 0.903729 2.35993
3.10638 0.91905 2.44876
3.10155 0.922379 2.47075
3.10067 0.925616 2.48671
3.10007 0.935385 2.53857
3.09177 0.951752 2.63041
3.26808 0.692252 -0.0954554
3.26573 0.694541 -0.00845963
3.26152 0.698084 0.095534
3.24993 0.697907 0.150632
3.25109 0.699217 0.171606
3.2426 0.700216 0.238665
3.2448 0.702614 0.265616
3.24087 0.70175 0.27466
3.24095 0.702913 0.285644
3.24528 0.706546 0.328563
3.24548 0.708945 0.35553
3.23879 0.709557 0.396577
3.23282 0.708621 0.400636
3.24292 0.711806 0.413515
3.23398 0.709931 0.421611
3.23106 0.710081 0.431632
3.24015 0.713267 0.444518
3.24024 0.714429 0.455502
3.24036 0.715666 0.471485
3.23351 0.714967 0.49155
3.22958 0.715104 0.500579
3.22666 0.715269 0.5116
3.2338 0.71853 0.5295
3.22294 0.716819 0.54861
3.23003 0.719991 0.560511
3.21934 0.720606 0.601588
3.2264 0.723704 0.60849
3.22047 0.722857 0.618549
3.21955 0.723006 0.628555
3.22673 0.727355 0.65244
3.21888 0.726657 0.672512
3.218 0.727895 0.688502
3.21717 0.730221 0.710477
3.21237 0.731624 0.737496
3.21646 0.733799 0.749435
3.21363 0.735126 0.77144
3.2128 0.737453 0.793415
3.20424 0.741332 0.85243
3.2018 0.748429 0.926353
3.19788 0.74858 0.936382
3.19527 0.753337 0.987338
3.20338 0.757552 1.00222
3.19444 0.755678 1.01031
3.19567 0.760121 1.04024
3.19175 0.760271 1.05027
3.19394 0.76364 1.07521
3.19211 0.765981 1.09819
3.19717 0.768096 1.10612
3.19827 0.770287 1.11908
3.18631 0.768385 1.1252
3.20146 0.774655 1.144
3.19261 0.774958 1.16406
3.19472 0.777163 1.17802
3.19276 0.777238 1.18303
3.19395 0.780608 1.20798
3.19605 0.782798 1.22093
3.19514 0.783976 1.23292
3.19336 0.787422 1.26289
3.18945 0.788587 1.2739
3.18863 0.790943 1.29787
3.18672 0.792122 1.30987
3.19083 0.795326 1.3238
3.17888 0.793439 1.33092
3.17592 0.793515 1.33594
3.18002 0.795719 1.34988
3.17309 0.795857 1.35893
3.17621 0.799077 1.37386
3.17731 0.801283 1.38782
3.17957 0.80577 1.42074
3.17263 0.805908 1.42979
3.16671 0.80606 1.43984
3.18187 0.81236 1.46063
3.18107 0.815745 1.48659
3.17012 0.814857 1.49369
3.1773 0.819192 1.51657
3.16736 0.818317 1.52466
3.16545 0.819496 1.53666
3.16565 0.823896 1.5636
3.16179 0.826165 1.58159
3.16591 0.829398 1.59752
3.15999 0.829551 1.60756
3.15919 0.832951 1.63452
3.15327 0.833103 1.64456
3.15338 0.83631 1.65852
3.15665 0.84184 1.69442
3.16781 0.848142 1.71524
3.15787 0.847268 1.72333
3.15195 0.847421 1.73337
3.16211 0.852724 1.75422
3.16015 0.853814 1.76022
3.15221 0.852938 1.7683
3.15635 0.857201 1.7862
3.15857 0.862629 1.81511
3.14964 0.861768 1.82419
3.15076 0.864989 1.83914
3.14981 0.865094 1.84615
3.1459 0.866274 1.85816
3.13897 0.866413 1.86721
3.14311 0.870676 1.88512
3.15427 0.876993 1.90694
3.14149 0.878416 1.93502
3.14473 0.884887 1.96691
3.13414 0.891694 2.02089
3.14349 0.902352 2.06567
3.12586 0.90709 2.11474
3.12516 0.913668 2.15365
3.12049 0.921322 2.19758
3.12068 0.925677 2.22152
3.11577 0.926858 2.23354
3.10618 0.959601 2.41815
3.10336 0.963958 2.44211
3.11055 0.970308 2.46597
3.09807 0.981337 2.53491
3.183 0.882514 1.47059
3.17104 0.880612 1.4767
3.1783 0.974027 1.36925
3.18065 0.981705 1.41513
3.17372 0.980844 1.42419
3.17281 0.983022 1.43617
6.02435 -0.648312 16.807
3.57477 -0.615759 16.3369
3.51869 -0.615881 16.3263
3.46162 -0.614973 16.3177
3.40657 -0.614037 16.3111
3.34948 -0.614173 16.2995
3.29339 -0.613324 16.2869
3.2072 -0.612632 16.2626
3.15213 -0.61174 16.253
3.09708 -0.610789 16.2474
3.04201 -0.610897 16.2378
2.9859 -0.610078 16.2232
5.94025 -0.532604 16.7829
3.64202 -0.428547 16.3526
6.09763 -0.311254 16.8114
5.90334 -0.30969 16.7739
5.83924 -0.309851 16.7603
5.77515 -0.308997 16.7478
3.49175 -0.298163 16.3038
5.94146 -0.21761 16.7802
5.7802 -0.217011 16.7464
5.71712 -0.217128 16.7359
5.65812 -0.2161 16.7353
5.594 -0.21629 16.7198
5.5309 -0.216436 16.7073
5.49681 -0.216589 16.6955
5.43166 -0.215838 16.676
5.3706 -0.215912 16.6685
5.30954 -0.216001 16.6599
5.18534 -0.21531 16.6338
3.70219 -0.21154 16.3539
3.64407 -0.211735 16.3384
3.58802 -0.211813 16.3308
3.50393 -0.211929 16.3194
3.38868 -0.211349 16.2863
3.33262 -0.211412 16.2797
3.27551 -0.211607 16.2641
3.19136 -0.210842 16.2447
3.0241 -0.211239 16.211
2.97008 -0.210244 16.2084
5.85956 0.108207 16.762
5.79442 0.107973 16.7435
5.73134 0.107871 16.734
5.32174 0.104955 16.6551
5.16445 0.103492 16.6173
5.99093 0.346544 16.7885
5.95684 0.346377 16.7757
5.89479 0.345333 16.7702
5.82764 0.344086 16.7507
5.76559 0.344027 16.7442
5.7025 0.342881 16.7317
5.63634 0.341618 16.7112
5.57633 0.341647 16.7107
5.53814 0.34029 16.685
5.47605 0.340158 16.6734
5.41501 0.339113 16.6679
5.35087 0.337894 16.6504
5.29083 0.337848 16.6449
5.22875 0.336731 16.6343
5.16971 0.3367 16.6298
3.68143 0.319239 16.3342
3.48109 0.316704 16.2898
3.42398 0.315538 16.2762
3.36896 0.315534 16.2736
3.25888 0.314451 16.2635
3.06049 0.312811 16.212
2.94933 0.311566 16.1908
6.07907 0.440633 16.7974
5.13268 0.426539 16.6167
5.06953 0.425304 16.5982
3.85071 0.408565 16.3626
3.79364 0.407459 16.3531
5.92189 0.545232 16.7631
5.85985 0.544204 16.7585
5.79473 0.543014 16.743
5.72961 0.541825 16.7275
5.66857 0.540795 16.723
5.60446 0.53962 16.7085
5.56831 0.53835 16.6888
5.5093 0.538363 16.6873
5.44619 0.537202 16.6737
5.38311 0.536071 16.6622
5.31999 0.53488 16.6467
5.25687 0.533704 16.6322
5.19683 0.532659 16.6267
5.16373 0.531476 16.6129
3.64944 0.507034 16.3177
3.50722 0.504694 16.2888
3.33798 0.502343 16.2581
3.03051 0.497635 16.1975
3.56051 0.618072 16.3157
3.50341 0.616921 16.3032
3.33415 0.613527 16.2695
3.27806 0.61239 16.2579
3.19393 0.611199 16.2416
3.13787 0.610122 16.234
3.02566 0.607789 16.2069
2.97057 0.607637 16.1943
2.83238 0.605367 16.1704
5.83791 0.769047 16.7454
5.7138 0.7669 16.7303
