3.27731 0.381485 -0.165632
3.27539 0.380649 -0.154604
3.27458 0.38102 -0.1296
3.27274 0.381332 -0.108588
3.27081 0.381482 -0.0985739
3.27393 0.382716 -0.0826135
3.27101 0.381866 -0.0725775
3.27008 0.382015 -0.0625713
3.27117 0.383177 -0.0515952
3.26924 0.382327 -0.0415667
3.26739 0.382624 -0.0215544
3.26659 0.38401 0.00443472
3.26782 0.384468 0.0354229
3.26602 0.384854 0.0614344
3.26425 0.386314 0.0924303
3.26345 0.3867 0.118434
3.25868 0.387163 0.149468
3.25788 0.387548 0.175472
3.25719 0.389156 0.216459
3.25162 0.391004 0.273481
3.24197 0.391692 0.31955
3.24605 0.392852 0.330504
3.24421 0.393164 0.351516
3.24529 0.394326 0.362492
3.24641 0.395562 0.378467
3.2465 0.395725 0.389466
3.24565 0.397036 0.410456
3.24173 0.396187 0.420499
3.24381 0.397349 0.431468
3.24089 0.397499 0.441489
3.24393 0.398585 0.447451
3.24309 0.398897 0.468455
3.24017 0.399062 0.479476
3.23733 0.40036 0.499481
3.2334 0.399511 0.509525
3.23649 0.400686 0.521486
3.23753 0.40176 0.526463
3.23277 0.402237 0.558496
3.23385 0.403399 0.569472
3.22997 0.403624 0.5845
3.22905 0.403787 0.595506
3.22922 0.406113 0.617474
3.22429 0.40525 0.626525
3.22846 0.407587 0.649462
3.23051 0.408689 0.656431
3.22667 0.409003 0.677458
3.22775 0.410165 0.688434
3.22985 0.411341 0.700403
3.22692 0.411491 0.710424
3.22312 0.411879 0.736451
3.2212 0.413043 0.747449
3.22438 0.415396 0.771394
3.22359 0.416796 0.798383
3.22167 0.416961 0.809396
3.22184 0.419301 0.832364
3.21692 0.418453 0.842415
3.21709 0.420778 0.864382
3.21922 0.422043 0.88235
3.21556 0.424712 0.927344
3.13594 0.556015 2.29419
3.08315 0.681079 3.24087
3.07955 0.687851 3.2928
3.07402 0.696772 3.35472
3.06714 0.698014 3.37075
3.07044 0.704589 3.40964
3.06897 0.714625 3.47951
3.06512 0.717924 3.49949
3.06531 0.721294 3.52444
3.06137 0.7224 3.53146
3.05045 0.722571 3.54254
3.20043 0.457393 1.03999
3.19167 0.458858 1.07104
3.19189 0.461302 1.101
3.18537 0.466239 1.16399
3.18186 0.471204 1.22895
3.17664 0.480717 1.33086
3.17372 0.480882 1.34188
3.17693 0.484279 1.36881
3.17818 0.487767 1.40176
3.16943 0.489262 1.43481
3.16249 0.503338 1.57467
3.16179 0.506931 1.61463
3.15803 0.510407 1.64661
3.15343 0.51518 1.69858
3.15961 0.519531 1.72247
3.15088 0.52207 1.7585
3.14736 0.52899 1.82044
3.14494 0.537131 1.89735
3.14304 0.538325 1.91034
3.14416 0.540561 1.9263
3.14527 0.542782 1.94127
3.14238 0.543991 1.95527
3.14048 0.545185 1.96827
3.13752 0.545261 1.97329
3.13662 0.547469 1.98727
3.13875 0.549719 2.00422
3.13786 0.550927 2.01821
3.13999 0.553177 2.03516
3.13608 0.554357 2.04718
3.13218 0.555552 2.06019
3.13625 0.557697 2.07013
3.13638 0.559934 2.0861
3.13549 0.561156 2.10109
3.14164 0.564448 2.121
3.12868 0.563531 2.12611
3.13182 0.565795 2.14405
3.13597 0.569088 2.16398
3.14005 0.571248 2.17492
3.13111 0.571373 2.18298
3.13426 0.573652 2.20193
3.1384 0.57693 2.22085
3.13048 0.577083 2.23091
3.13664 0.58039 2.25182
3.13173 0.581571 2.26384
3.12884 0.58278 2.27784
3.13494 0.585983 2.29175
3.13104 0.587178 2.30477
3.12916 0.588401 2.31976
3.13229 0.591665 2.33769
3.12337 0.59182 2.34776
3.12148 0.593043 2.36276
3.1257 0.597469 2.39167
3.12886 0.600763 2.4116
3.12509 0.604224 2.44258
3.1212 0.606434 2.45658
3.12736 0.609755 2.47848
3.1175 0.611029 2.49654
3.11777 0.615546 2.53148
3.11992 0.61884 2.55142
3.11113 0.621261 2.57945
3.11853 0.630025 2.63127
3.11666 0.632278 2.64825
3.10989 0.635727 2.67826
3.11305 0.63905 2.70019
3.11226 0.64245 2.72715
3.10881 0.652533 2.80003
3.09886 0.671567 2.93685
3.08981 0.689422 3.06167
3.08617 0.696135 3.1096
3.08147 0.701716 3.14856
3.07861 0.703984 3.16655
3.08491 0.710556 3.20541
3.07954 0.722788 3.28828
3.07384 0.728369 3.32725
3.07393 0.729547 3.33923
3.06822 0.735128 3.3782
3.06941 0.739497 3.40313
3.07079 0.74722 3.45201
3.06592 0.749476 3.46901
3.06519 0.755009 3.50494
3.06355 0.762705 3.55185
3.17469 0.511774 1.33442
3.17326 0.5199 1.41032
3.1703 0.519976 1.41534
3.17241 0.521182 1.42931
3.1705 0.522361 1.44131
3.16959 0.523539 1.4533
3.1719 0.528144 1.49422
3.17597 0.530274 1.50316
3.17406 0.531453 1.51516
3.17014 0.531619 1.52619
3.16643 0.535184 1.56417
3.16759 0.537494 1.58513
3.16399 0.543266 1.63708
3.16509 0.544472 1.65105
3.16218 0.545652 1.66306
3.16023 0.546742 1.66906
3.15631 0.546908 1.68009
3.16647 0.551196 1.69995
3.15552 0.550308 1.70704
3.15763 0.552528 1.722
3.15774 0.553735 1.73598
3.15282 0.553902 1.74702
3.16594 0.558129 1.76286
3.16103 0.559295 1.77388
3.16113 0.560502 1.78786
3.15924 0.561711 1.80186
3.15834 0.562904 1.81485
3.15644 0.565098 1.82784
3.15152 0.565264 1.83887
3.16264 0.568478 1.85374
3.15873 0.569658 1.86576
3.15381 0.569825 1.87679
3.15694 0.573074 1.89372
3.14801 0.572214 1.9028
3.1441 0.573394 1.91482
3.15024 0.576671 1.93373
3.14527 0.576719 1.93676
3.14337 0.577927 1.95076
3.15656 0.583287 1.97559
3.1436 0.581371 1.98071
3.14573 0.584621 1.99765
3.14786 0.586871 2.0146
3.14496 0.588065 2.02761
3.142 0.588142 2.03263
3.13922 0.591573 2.06161
3.14638 0.595878 2.08249
3.14347 0.597073 2.0955
3.13756 0.59724 2.10654
3.1407 0.600518 2.12547
3.14592 0.604929 2.15337
3.13823 0.609556 2.19537
3.13333 0.609737 2.2074
3.13848 0.613029 2.22732
3.1325 0.613078 2.23036
3.13262 0.615315 2.24633
3.13187 0.619803 2.27927
3.12596 0.620985 2.2913
3.12911 0.623264 2.31025
3.12924 0.626516 2.3272
3.13031 0.627648 2.33618
3.13044 0.629899 2.35314
3.13157 0.632165 2.37111
3.12163 0.632291 2.37918
3.13082 0.636654 2.40405
3.11485 0.635725 2.40818
3.11498 0.637976 2.42515
3.12714 0.642263 2.445
3.11317 0.640332 2.44913
3.11934 0.644668 2.47203
3.12652 0.649018 2.49591
3.12163 0.651229 2.50992
3.11471 0.651396 2.52097
3.12191 0.655761 2.54585
3.11895 0.656852 2.55186
3.11304 0.657034 2.5639
3.12124 0.662412 2.58977
3.11434 0.66361 2.6028
3.11145 0.664834 2.61781
3.11462 0.669157 2.63972
3.10569 0.669297 2.64879
3.11108 0.677062 2.70064
3.11022 0.679329 2.71862
3.10836 0.682597 2.73658
3.10951 0.684892 2.75654
3.10973 0.69032 2.78547
3.10283 0.690518 2.79852
3.10197 0.693785 2.81648
3.09824 0.69832 2.85244
3.10344 0.702701 2.87834
3.10056 0.70494 2.89433
3.09662 0.706046 2.90135
3.09894 0.712666 2.94324
3.09018 0.716146 2.97526
3.08228 0.717344 2.9883
3.08647 0.72171 3.01321
3.08554 0.722844 3.0222
3.08974 0.727226 3.04811
3.07981 0.727381 3.05818
3.09107 0.734876 3.09199
3.07913 0.734003 3.10009
3.0793 0.737328 3.12205
3.07341 0.739554 3.13706
3.07854 0.742802 3.15398
3.08073 0.747155 3.1779
3.07787 0.749439 3.19689
3.06813 0.753949 3.2309
3.07031 0.758302 3.25482
3.06544 0.760557 3.27183
3.06856 0.762792 3.28777
3.07277 0.768188 3.31466
3.07498 0.772586 3.34159
3.06607 0.77377 3.35364
3.06624 0.77711 3.37659
3.0634 0.780423 3.39757
3.06652 0.783642 3.4125
3.06569 0.786983 3.43546
3.05881 0.788225 3.45149
3.05597 0.791523 3.47147
3.05717 0.795921 3.4984
3.04928 0.797134 3.51244
3.05048 0.802532 3.53936
3.04653 0.802624 3.54538
3.27066 0.470088 -0.260907
3.28474 0.47324 -0.250058
3.27882 0.472392 -0.239999
3.26689 0.46955 -0.229866
3.27797 0.472704 -0.218995
3.27805 0.472852 -0.208996
3.26609 0.469935 -0.203862
3.27216 0.472079 -0.193938
3.27725 0.473238 -0.182992
3.26732 0.471393 -0.172889
3.2694 0.47154 -0.162905
3.27648 0.473697 -0.151989
3.26255 0.470841 -0.14284
3.25958 0.470917 -0.137819
3.27167 0.473071 -0.12694
3.25874 0.471229 -0.116814
3.2659 0.472534 -0.0958843
3.27006 0.473842 -0.0749321
3.26209 0.472907 -0.0708577
3.26517 0.474068 -0.0598966
3.26232 0.473366 -0.0398619
3.2574 0.472518 -0.0298109
3.25848 0.47368 -0.0188347
3.25556 0.47283 -0.00879873
3.25359 0.472906 -0.00378438
3.25267 0.473055 0.00622176
3.25975 0.475212 0.017138
3.26384 0.476372 0.0280916
3.24989 0.473501 0.0362402
3.25198 0.474662 0.0472088
3.25506 0.475823 0.0581699
3.2551 0.475897 0.0631692
3.25517 0.476045 0.0731679
3.25425 0.476193 0.083174
3.25641 0.477503 0.104141
3.25649 0.477666 0.11514
3.24556 0.475807 0.124251
3.2526 0.47789 0.130168
3.24768 0.477042 0.140219
3.24775 0.47719 0.150217
3.24683 0.477339 0.160224
3.24391 0.477489 0.170245
3.24799 0.478649 0.181198
3.25408 0.480822 0.193122
3.2441 0.478874 0.196226
3.25219 0.481046 0.208135
3.24827 0.480197 0.218178
3.24834 0.481345 0.228162
3.24542 0.480495 0.238198
3.25351 0.482666 0.250107
3.24959 0.482817 0.260136
3.24262 0.481882 0.264202
3.25071 0.484053 0.276111
3.24878 0.484203 0.286125
3.24686 0.484352 0.296138
3.24493 0.484502 0.306152
3.25102 0.485675 0.31809
3.24109 0.484816 0.327179
3.24013 0.48489 0.332186
3.24421 0.48605 0.34314
3.24229 0.4862 0.353153
3.24037 0.486364 0.364167
3.24445 0.487524 0.37512
3.24354 0.488687 0.386112
3.2346 0.486812 0.394208
3.24666 0.489922 0.402072
3.24473 0.490071 0.412086
3.23981 0.489223 0.422137
3.24189 0.490384 0.433105
3.24298 0.491546 0.444082
3.23504 0.490685 0.453155
3.23312 0.490835 0.463169
3.23716 0.491921 0.469123
3.23124 0.491073 0.479182
3.23633 0.493247 0.491113
3.2304 0.492385 0.500172
3.23749 0.494557 0.512088
3.23177 0.496109 0.549113
3.23285 0.497271 0.560089
3.23294 0.497434 0.571087
3.23402 0.498596 0.582064
3.22617 0.498898 0.602121
3.23022 0.499983 0.608075
3.22337 0.499285 0.62814
3.22044 0.499435 0.638161
3.23255 0.503633 0.65201
3.22562 0.502786 0.662076
3.22366 0.502862 0.66709
3.21781 0.503162 0.687133
3.2229 0.504336 0.699079
3.229 0.506524 0.712002
3.22007 0.505664 0.721083
3.22617 0.507851 0.734007
3.21919 0.506901 0.737074
3.21927 0.508064 0.748058
3.21435 0.507216 0.758109
3.21159 0.509691 0.790097
3.2177 0.511894 0.80402
3.21076 0.511017 0.812087
3.21481 0.512118 0.819041
3.2169 0.514294 0.830995
3.21899 0.51547 0.842963
3.20905 0.514596 0.851052
3.20622 0.514924 0.873072
3.21128 0.517038 0.881003
3.21337 0.518214 0.892972
3.21346 0.519377 0.903955
3.21154 0.519541 0.914969
3.2077 0.520855 0.935981
3.2108 0.523045 0.948927
3.21485 0.524146 0.955881
3.21092 0.524297 0.96591
3.205 0.524449 0.975954
3.2101 0.526638 0.988885
3.19916 0.524764 0.996996
3.20527 0.526967 1.01092
3.20836 0.529157 1.02387
3.2064 0.529232 1.02888
3.20649 0.53041 1.04086
3.20056 0.529548 1.04992
3.19964 0.530711 1.06091
3.20074 0.531903 1.07389
3.19983 0.533066 1.08488
3.1959 0.533217 1.09491
3.19299 0.534382 1.10592
3.20507 0.537536 1.11678
3.19714 0.536675 1.12585
3.19522 0.536839 1.13687
3.19933 0.539043 1.1508
3.1944 0.539195 1.16084
3.19249 0.540359 1.17184
3.18861 0.541599 1.18785
3.19472 0.543816 1.20278
3.19682 0.546007 1.21573
3.18889 0.545146 1.2248
3.19099 0.547337 1.23776
3.18606 0.547488 1.24779
3.19122 0.549795 1.26872
3.19241 0.553164 1.29367
3.18949 0.553329 1.30469
3.19461 0.556548 1.3196
3.19169 0.556713 1.33063
3.18591 0.559146 1.35964
3.18701 0.560338 1.37261
3.18721 0.563722 1.39856
3.18329 0.563888 1.40959
3.18635 0.565004 1.41756
3.18444 0.566168 1.42855
3.18253 0.567347 1.44055
3.18574 0.570759 1.46848
3.18283 0.571939 1.48049
3.17996 0.573192 1.49749
3.18307 0.575412 1.51244
3.18016 0.576592 1.52444
3.17655 0.581349 1.57541
3.1777 0.584644 1.59535
3.17289 0.586003 1.61937
3.1741 0.590416 1.6473
3.1732 0.591609 1.66029
3.17336 0.59392 1.68126
3.17045 0.5951 1.69327
3.16675 0.599694 1.73323
3.1659 0.601991 1.75321
3.16601 0.603198 1.76719
3.16331 0.607792 1.80715
3.16253 0.611221 1.83611
3.16058 0.612312 1.84211
3.16181 0.615755 1.87205
3.15689 0.616921 1.88307
3.15801 0.619142 1.89803
3.15309 0.619309 1.90907
3.1522 0.621516 1.92305
3.15728 0.623675 1.93398
3.15538 0.624869 1.94698
3.14845 0.625022 1.95703
3.1517 0.630493 1.98893
3.15081 0.631716 2.00392
3.15294 0.634966 2.02085
3.15299 0.635069 2.02785
3.1511 0.637278 2.04184
3.14027 0.638611 2.0639
3.14039 0.640848 2.07987
3.14553 0.644125 2.09879
3.14264 0.645334 2.11279
3.1437 0.646452 2.12077
3.13879 0.647633 2.13279
3.13791 0.649856 2.14776
3.13199 0.650023 2.15881
3.14117 0.655356 2.18166
3.13324 0.65551 2.19172
3.13034 0.656705 2.20473
3.13544 0.658893 2.21766
3.13657 0.662144 2.23461
3.13669 0.66438 2.25057
3.13883 0.666645 2.26853
3.12486 0.665729 2.27365
3.12298 0.666953 2.28864
3.12914 0.671259 2.30954
3.12015 0.67028 2.31062
3.12128 0.672531 2.32758
3.12946 0.67788 2.35144
3.12556 0.679075 2.36446
3.11966 0.680272 2.37748
3.12783 0.684606 2.40036
3.12098 0.686907 2.42038
3.12514 0.6902 2.4403
3.11319 0.689312 2.44741
3.11333 0.692578 2.46536
3.11648 0.695872 2.48529
3.11862 0.699151 2.50423
3.11373 0.700362 2.51825
3.11984 0.703565 2.53216
3.1089 0.702691 2.54026
3.10802 0.704929 2.55623
3.10916 0.708209 2.57518
3.10427 0.70942 2.5892
3.10643 0.712729 2.61014
3.10757 0.716009 2.62908
3.10764 0.718127 2.63705
3.10677 0.720394 2.65503
3.11195 0.72473 2.67793
3.1 0.723843 2.68503
3.10317 0.728166 2.70694
3.10231 0.730433 2.72492
3.10144 0.7337 2.74288
3.10152 0.734848 2.75286
3.10873 0.740242 2.77973
3.09576 0.739325 2.78485
3.09088 0.740551 2.79987
3.09506 0.744903 2.82377
3.09622 0.749212 2.8447
3.09334 0.751451 2.86069
3.0914 0.751571 2.86871
3.09659 0.756937 2.89359
3.09372 0.75919 2.91058
3.09691 0.763543 2.9345
3.08698 0.763684 2.94357
3.08108 0.764895 2.9576
3.08031 0.770339 2.98753
3.08147 0.773649 3.00848
3.07861 0.775918 3.02647
3.07776 0.779214 3.04643
3.07809 0.78585 3.08933
3.08035 0.792351 3.12322
3.07648 0.794605 3.14022
3.0706 0.796846 3.15624
3.07093 0.804497 3.20013
3.06513 0.807886 3.22612
3.06833 0.812268 3.25204
3.06346 0.814523 3.26904
3.0628 0.822174 3.31294
3.05894 0.824458 3.33194
3.06626 0.833074 3.37376
3.05736 0.834273 3.38681
3.05203 0.848579 3.47465
3.05121 0.852919 3.4976
3.06661 0.909627 3.54565
3.06074 0.911883 3.56266
3.2884 0.53149 -0.300955
3.28072 0.531118 -0.258886
3.28191 0.531487 -0.233897
3.27606 0.530803 -0.21284
3.27714 0.53095 -0.202848
3.27526 0.531188 -0.186836
3.28042 0.532495 -0.165891
3.26984 0.531333 -0.109786
3.25914 0.529933 -0.0696794
3.26658 0.533786 -0.0117845
3.26892 0.535465 0.0341793
3.26708 0.535778 0.0551915
3.2605 0.536612 0.111236
3.25568 0.542925 0.267201
3.2548 0.544162 0.283191
3.24948 0.547484 0.372195
3.23422 0.550946 0.470272
3.23859 0.554668 0.519191
3.23512 0.558707 0.589167
3.23148 0.56142 0.63716
3.23256 0.562582 0.648137
3.22426 0.56895 0.740118
3.22464 0.57269 0.790066
3.21844 0.581263 0.896001
3.07627 0.917969 3.36643
3.07342 0.921267 3.3864
3.06232 0.94202 3.5042
3.0615 0.946361 3.52714
3.25909 0.558797 -0.0791076
3.26433 0.561266 -0.0471792
3.25648 0.560568 -0.027107
3.26453 0.561651 -0.0211828
3.25467 0.56094 -0.00209539
3.25375 0.561103 0.00891063
3.25695 0.562486 0.0348697
3.25818 0.563944 0.065843
3.2476 0.563781 0.121933
3.24784 0.56524 0.152914
3.24727 0.568084 0.209884
3.24847 0.569483 0.236858
3.24795 0.572416 0.299827
3.24515 0.573803 0.325831
3.23937 0.574251 0.355872
3.2338 0.576099 0.412895
3.22904 0.577562 0.443913
3.23626 0.580986 0.472812
3.2317 0.583848 0.530812
3.23195 0.586336 0.563778
3.22902 0.586486 0.573799
3.22166 0.59075 0.658803
3.22284 0.593089 0.681763
3.22356 0.601495 0.776646
3.21675 0.601885 0.802695
3.21296 0.616241 0.961533
3.20511 0.616542 0.981591
3.2093 0.619909 1.00651
3.2087 0.625694 1.05944
3.20419 0.631644 1.12339
3.19845 0.634152 1.1574
3.20269 0.638622 1.18931
3.19886 0.639965 1.21232
3.19795 0.641144 1.22431
3.19536 0.646945 1.27825
3.19064 0.650481 1.31424
3.18977 0.651748 1.33223
3.18686 0.652913 1.34324
3.18314 0.656463 1.38022
3.18659 0.664334 1.43909
3.18076 0.666678 1.4621
3.17986 0.667871 1.47509
3.18091 0.668974 1.48207
3.179 0.670153 1.49406
3.17609 0.671333 1.50607
3.16916 0.670471 1.51514
3.18232 0.675772 1.53596
3.17138 0.674884 1.54306
3.1755 0.677117 1.559
3.17756 0.679234 1.56695
3.16861 0.678344 1.57403
3.16972 0.680551 1.58799
3.17093 0.683964 1.61594
3.16802 0.685144 1.62794
3.16712 0.687337 1.64092
3.16517 0.687427 1.64693
3.16729 0.689662 1.66289
3.16839 0.691868 1.67685
3.16348 0.693035 1.68787
3.1676 0.695269 1.70381
3.16982 0.699696 1.73273
3.15983 0.698718 1.73382
3.15803 0.702119 1.76079
3.16629 0.708616 1.79463
3.15032 0.705687 1.7988
3.14741 0.706867 1.8108
3.15852 0.711065 1.82466
3.15663 0.712274 1.83866
3.14668 0.711385 1.84575
3.14691 0.715829 1.87568
3.15719 0.723368 1.9125
3.14417 0.720348 1.91064
3.14227 0.722542 1.92362
3.14641 0.725805 1.94155
3.13949 0.725958 1.9516
3.13859 0.728166 1.96558
3.14273 0.731429 1.9835
3.1409 0.734756 2.00547
3.14303 0.737006 2.02242
3.1361 0.737159 2.03247
3.14036 0.743659 2.06635
3.13954 0.747 2.08931
3.13965 0.749222 2.10427
3.13373 0.750389 2.1153
3.12983 0.750584 2.12833
3.13297 0.754848 2.14625
3.13007 0.756042 2.15925
3.13529 0.761467 2.18814
3.12648 0.763844 2.21317
3.13566 0.769192 2.23703
3.12472 0.768304 2.24412
3.12396 0.773778 2.27605
3.12403 0.774911 2.28504
3.12831 0.781455 2.32191
3.11649 0.783804 2.34497
3.12266 0.788139 2.36786
3.11876 0.790335 2.38086
3.11789 0.792587 2.39784
3.12312 0.798027 2.42772
3.11735 0.802475 2.4577
3.11144 0.803657 2.46973
3.11459 0.80695 2.48966
3.11984 0.813419 2.52153
3.11997 0.816685 2.53948
3.11924 0.822204 2.57441
3.11132 0.823372 2.58546
3.11355 0.828814 2.61536
3.117 0.839684 2.67419
3.10606 0.838811 2.68228
3.10132 0.844303 2.71524
3.09982 0.85528 2.7811
3.09709 0.861814 2.81703
3.1015 0.871595 2.86986
3.0936 0.872793 2.8829
3.10282 0.879215 2.91174
3.0929 0.879371 2.92181
3.09306 0.883681 2.94275
3.09926 0.889076 2.96963
3.0943 0.889153 2.97467
3.08337 0.889295 2.98375
3.08066 0.895859 3.02168
3.08284 0.901212 3.04558
3.082 0.904508 3.06554
3.07913 0.907777 3.08352
3.07417 0.907854 3.08856
3.0814 0.914293 3.11841
3.07266 0.918802 3.15241
3.07081 0.923099 3.17237
3.07931 0.936054 3.23712
3.06452 0.939479 3.26518
3.0556 0.964571 3.4059
3.08959 0.957608 3.13971
3.08689 0.965186 3.17862
3.07875 0.985864 3.29139
3.07717 0.996678 3.34625
3.07635 1.00102 3.3692
3.07047 1.00326 3.38521
3.06359 1.0045 3.40125
3.05671 1.00673 3.41627
3.05799 1.01427 3.45315
3.09898 0.915556 2.6642
3.09554 0.928638 2.73704
3.09737 0.949249 2.84573
3.23191 0.673194 0.418472
3.23216 0.675667 0.450438
3.22844 0.677218 0.487449
3.22575 0.679841 0.529436
3.23022 0.685741 0.590323
3.21765 0.687594 0.647398
3.21409 0.69147 0.706376
3.21155 0.69636 0.766331
3.19793 0.712063 0.948226
3.1971 0.714404 0.971201
3.18742 0.731972 1.14404
3.1886 0.735326 1.16798
3.18643 0.74894 1.27681
3.17878 0.752626 1.32282
3.18194 0.755935 1.34375
3.17319 0.75843 1.37679
3.17152 0.764082 1.42072
3.17346 0.781915 1.54446
3.16077 0.785516 1.58451
3.16133 0.79661 1.65835
3.15551 0.79897 1.68236
3.15562 0.801177 1.69633
3.15773 0.803397 1.71128
3.15192 0.805757 1.73529
3.15208 0.810067 1.75623
3.1505 0.817897 1.81214
3.14866 0.821194 1.8321
3.14776 0.823402 1.84608
3.14485 0.824581 1.85809
3.14508 0.829025 1.88802
3.14044 0.835724 1.93496
3.1457 0.842223 1.96883
3.14332 0.855422 2.04967
3.13361 0.860007 2.08868
3.13794 0.868625 2.13052
3.13257 0.881856 2.21338
3.12225 0.89618 2.30226
3.12195 0.912541 2.39403
3.11462 0.927848 2.48187
3.11034 0.945241 2.57566
3.10075 0.953047 2.62962
3.10204 0.960608 2.66751
3.09758 0.973661 2.73836
3.25991 0.690263 -0.116065
3.24784 0.697077 0.140961
3.24327 0.69891 0.196976
3.24435 0.699072 0.207967
3.24146 0.699296 0.222987
3.24771 0.70278 0.255893
3.23693 0.702217 0.284987
3.23637 0.706076 0.342942
3.23245 0.705227 0.352985
3.23858 0.708474 0.369893
3.23665 0.708624 0.379907
3.2399 0.71111 0.41285
3.23397 0.710247 0.421909
3.22724 0.711785 0.457942
3.23033 0.712961 0.469903
3.23045 0.714197 0.485886
3.23069 0.716671 0.517852
3.22677 0.716822 0.52788
3.22493 0.718134 0.548878
3.22305 0.718372 0.564891
3.22613 0.720533 0.575837
3.22338 0.723008 0.607826
3.22547 0.724184 0.619794
3.22158 0.724409 0.634822
3.22175 0.726735 0.656789
3.21782 0.726886 0.666818
3.22492 0.729073 0.679734
3.22204 0.730312 0.69574
3.20952 0.733254 0.758799
3.20864 0.734491 0.77479
3.20798 0.739157 0.819732
3.20807 0.740335 0.831715
3.20811 0.740409 0.836715
3.20619 0.741573 0.847713
3.20628 0.742736 0.858697
3.20645 0.745076 0.881664
3.20754 0.747253 0.893625
3.2027 0.747567 0.91466
3.20977 0.750695 0.923562
3.20493 0.752009 0.944582
3.19909 0.752325 0.965624
3.20223 0.755603 0.984554
3.19438 0.755905 1.00461
3.20049 0.759108 1.01852
3.2036 0.761313 1.03247
3.19767 0.76145 1.04151
3.19675 0.762614 1.0525
3.19679 0.762702 1.0585
3.20492 0.766933 1.07438
3.19497 0.765044 1.08148
3.2071 0.770287 1.09832
3.20117 0.769439 1.10837
3.20127 0.771616 1.12034
3.19032 0.769728 1.12745
3.2024 0.773882 1.1383
3.19355 0.774185 1.15837
3.19566 0.77639 1.17232
3.19977 0.779594 1.18625
3.19484 0.779746 1.19628
3.19694 0.781937 1.20924
3.19298 0.781014 1.21428
3.1991 0.785231 1.22917
3.19426 0.78656 1.25119
3.19135 0.787725 1.2622
3.18441 0.786863 1.27127
3.18456 0.789144 1.29023
3.18967 0.792362 1.30515
3.18073 0.791488 1.31323
3.17791 0.793845 1.33722
3.17801 0.796022 1.34919
3.18313 0.799255 1.3651
3.18217 0.800344 1.3711
3.17342 0.802839 1.40413
3.17654 0.805059 1.41908
3.17573 0.808429 1.44404
3.1808 0.811573 1.45395
3.18503 0.816999 1.48284
3.17609 0.816124 1.49093
3.18422 0.82037 1.5078
3.18332 0.822563 1.52078
3.17237 0.820674 1.52789
3.17844 0.823818 1.5378
3.17453 0.823984 1.54883
3.17363 0.826176 1.5618
3.17775 0.82941 1.57773
3.1659 0.829715 1.59782
3.15913 0.832164 1.62783
3.16939 0.840659 1.66164
3.16182 0.847508 1.7186
3.15199 0.848841 1.74066
3.1521 0.851048 1.75463
3.16126 0.856351 1.77548
3.15539 0.858607 1.79249
3.15348 0.859801 1.80549
3.15091 0.868631 1.86139
3.14505 0.870902 1.8794
3.1484 0.87858 1.92527
3.14551 0.880789 1.93926
3.1416 0.881969 1.95127
3.1417 0.884176 1.96524
3.14378 0.886323 1.9752
3.13821 0.895155 2.03112
3.13833 0.898392 2.04707
3.13643 0.899586 2.06007
3.1365 0.901718 2.06904
3.1356 0.903926 2.08301
3.13271 0.905136 2.09702
3.13484 0.909385 2.11394
3.13899 0.913663 2.13285
3.13325 0.919185 2.16782
3.13337 0.921422 2.18378
3.12646 0.92259 2.19482
3.12859 0.925839 2.21176
3.12382 0.930287 2.24173
3.12696 0.934551 2.25965
3.12602 0.93567 2.26764
3.1303 0.943214 2.3045
3.12036 0.943339 2.31258
3.12363 0.949869 2.34846
3.11692 0.956421 2.38542
3.11906 0.959701 2.40436
3.11765 0.974841 2.48115
3.11175 0.976037 2.49418
3.11692 0.981359 2.51607
3.11605 0.984611 2.53303
3.17701 0.88188 1.47394
3.16807 0.881005 1.48202
3.1847 0.984137 1.42336
3.18088 0.987495 1.44735
3.16994 0.985607 1.45446
3.2702 0.978477 -0.238426
-0.342297 0.725262 8.10769
1.32509 0.770782 8.4145
1.26697 0.767588 8.39898
1.25299 0.767627 8.40108
1.19488 0.765463 8.38755
1.13774 0.762223 8.36903
1.11079 0.763346 8.37622
1.0817 0.76119 8.36447
1.06664 0.760083 8.3566
1.0386 0.759029 8.35182
1.0106 0.759035 8.35103
0.982544 0.757951 8.34426
0.954522 0.756928 8.34148
0.9265 0.755904 8.33871
0.898386 0.753702 8.32395
0.884394 0.753727 8.32506
0.856311 0.752585 8.31428
0.828297 0.752576 8.3125
0.801328 0.752655 8.3167
0.773215 0.750453 8.30194
0.731147 0.749351 8.29327
0.676057 0.747213 8.28172
0.622028 0.746193 8.27814
0.593953 0.745066 8.26837
0.525939 0.744086 8.26689
0.497796 0.741825 8.24813
0.444775 0.741819 8.24553
0.376647 0.739618 8.22908
0.322572 0.737509 8.21951
0.295626 0.738632 8.2267
0.268566 0.737534 8.21892
0.241514 0.73645 8.21214
0.174462 0.735395 8.20566
0.0943358 0.734202 8.18928
1.51335 0.835082 8.44213
1.48328 0.832956 8.43239
1.44125 0.831942 8.42972
1.41014 0.829743 8.41498
1.01368 0.817115 8.35615
0.984549 0.813885 8.33941
0.956527 0.813861 8.33663
0.927444 0.811719 8.32587
0.914452 0.811743 8.32697
0.887475 0.811808 8.33017
0.803325 0.808573 8.31085
0.776311 0.808563 8.30906
0.747205 0.806377 8.29531
0.733159 0.805299 8.28943
0.65107 0.803181 8.27808
0.622979 0.801024 8.26632
0.597064 0.803205 8.27748
0.568897 0.7999 8.25574
0.527868 0.798871 8.25206
0.446786 0.797767 8.24169
0.419688 0.795595 8.22893
0.392651 0.794541 8.22414
0.378651 0.794551 8.22425
0.352659 0.794585 8.22544
0.298539 0.792387 8.20988
0.271517 0.792363 8.20709
0.244525 0.792397 8.20829
0.0713177 0.789109 8.18164
-0.13807 0.834427 8.12654
-0.165016 0.83555 8.13373
-0.191061 0.83448 8.12794
-0.231098 0.833436 8.12325
-0.257135 0.833381 8.11845
-0.310187 0.832316 8.11186
2.08822 0.916298 8.54761
2.05615 0.915188 8.53887
1.96503 0.910018 8.52363
1.91892 0.90783 8.50901
0.91853 0.865823 8.33214
0.861364 0.86254 8.31062
0.490817 0.84973 8.24059
0.43575 0.848637 8.23202
0.409774 0.8487 8.23522
0.38166 0.846499 8.22046
0.327617 0.846449 8.21486
0.314586 0.845399 8.21098
0.234558 0.844399 8.20759
0.207445 0.843196 8.19281
0.180476 0.843275 8.19702
0.153423 0.842191 8.19024
0.140333 0.841023 8.17835
0.113303 0.839984 8.17457
0.0872733 0.839944 8.17076
0.0593495 0.889047 8.17625
-0.0608222 0.885795 8.1542
2.5809 0.99519 8.62774
2.54681 0.992052 8.61705
2.51374 0.989928 8.60732
2.48475 0.988979 8.60956
2.38756 0.98268 8.58538
2.37254 0.982647 8.58249
2.34149 0.980581 8.57676
2.31253 0.980676 8.58197
2.28046 0.977552 8.57226
2.2194 0.975493 8.56575
2.11227 0.970304 8.54863
2.08122 0.968224 8.54189
2.05119 0.967201 8.53914
2.02013 0.965106 8.5314
1.99113 0.964112 8.53063
1.97509 0.96305 8.52577
1.88287 0.956688 8.49755
1.85285 0.95568 8.4958
1.82279 0.954584 8.48804
1.77875 0.952527 8.4824
1.74869 0.950431 8.47465
1.6606 0.947318 8.46336
1.62948 0.944119 8.44864
1.61758 0.94532 8.46172
1.58544 0.943062 8.44299
1.55742 0.942038 8.44022
1.52839 0.941015 8.43745
1.49934 0.938933 8.4307
1.42729 0.936882 8.42427
1.39823 0.934785 8.41652
1.36812 0.932585 8.40178
1.34015 0.932664 8.40599
1.31104 0.930478 8.39224
1.28203 0.92947 8.39047
1.25506 0.929549 8.39467
1.18291 0.925306 8.37527
1.15488 0.925282 8.37249
1.09883 0.923219 8.36594
1.06866 0.919916 8.34421
1.0557 0.919999 8.34931
1.02768 0.919975 8.34652
0.971606 0.917868 8.33697
0.943598 0.916874 8.3362
0.915515 0.914731 8.32544
0.873455 0.913644 8.31777
0.819449 0.912668 8.31719
0.790366 0.911527 8.30643
0.735291 0.909419 8.29687
0.708261 0.908379 8.29309
0.694208 0.907286 8.28621
0.666148 0.906188 8.27844
0.639088 0.90509 8.27066
0.611043 0.904021 8.26488
0.584028 0.903011 8.2631
0.557014 0.903001 8.2613
0.529961 0.901918 8.25452
0.515908 0.900824 8.24765
0.488932 0.900888 8.25085
0.461826 0.898701 8.23708
0.407781 0.897652 8.2315
0.353752 0.896632 8.22793
0.339669 0.895479 8.21705
0.312647 0.894455 8.21427
0.286647 0.894474 8.21446
0.205574 0.893385 8.20509
0.179521 0.8923 8.1983
0.165476 0.891222 8.19242
0.138462 0.891212 8.19062
0.0853488 0.889028 8.17605
-0.0267885 0.92978 8.15429
-0.0799087 0.927582 8.13872
-0.119915 0.927596 8.13802
2.80627 1.0567 8.67114
2.76912 1.05243 8.65148
2.21739 1.08432 8.55315
1.83994 1.06471 8.49628
1.76481 1.06051 8.4799
1.70675 1.05745 8.47339
1.63264 1.05428 8.45899
1.54348 1.04904 8.43874
1.44237 1.04489 8.42456
1.41434 1.04285 8.4208
1.29814 1.03754 8.39475
1.07084 1.02812 8.35759
0.958686 1.0229 8.33751
0.902596 1.02076 8.32597
0.861536 1.01867 8.31831
0.832384 1.0154 8.29857
0.805422 1.01549 8.30377
0.722341 1.01339 8.29343
0.681288 1.01231 8.28675
0.654243 1.01024 8.28099
0.626183 1.00915 8.27321
0.599176 1.00915 8.27242
0.5711 1.00702 8.26266
0.558078 1.00699 8.25976
0.531063 1.00598 8.25798
0.50301 1.0049 8.2512
0.394869 1.00169 8.23306
0.381861 1.00169 8.23216
0.0333497 1.04686 8.16111
-0.0197172 1.04576 8.15252
-0.0328078 1.04459 8.14064
-0.0598685 1.0425 8.13287
-0.231122 1.03812 8.10022
-0.570568 1.03148 8.04287
-0.596583 1.03147 8.04106
-0.674679 1.03033 8.02867
-0.700678 1.03135 8.02885
2.60406 1.17226 8.63195
2.57098 1.17013 8.62223
2.55291 1.16801 8.61339
2.49188 1.165 8.6099
2.45675 1.16077 8.59322
2.39471 1.15773 8.58774
2.36673 1.15679 8.59096
2.35072 1.15678 8.58908
2.31454 1.15146 8.56643
2.28659 1.15159 8.57364
2.14327 1.14006 8.53188
2.05114 1.13487 8.51565
2.02212 1.13386 8.51388
0.81939 1.07334 8.29381
0.79136 1.0723 8.29004
0.286617 1.0532 8.19511
0.113363 1.04783 8.16249
0.0864091 1.04794 8.16869
0.0392744 1.08366 8.14752
0.013321 1.08476 8.1537
-0.0136556 1.08483 8.1569
-0.0537461 1.08268 8.14523
-0.10592 1.07938 8.12267
-0.641641 1.06833 8.02986
-0.693716 1.06722 8.02026
-0.706707 1.06825 8.02135
2.76524 1.22445 8.65096
2.42979 1.20182 8.59482
2.2586 1.19156 8.57026
2.08626 1.17903 8.52773
2.0562 1.17694 8.51999
1.89101 1.16769 8.49637
1.83092 1.16456 8.48487
1.75476 1.1593 8.46452
1.7278 1.15939 8.46972
1.69879 1.15739 8.46797
1.66769 1.15522 8.45523
1.63971 1.15528 8.45844
1.60964 1.15317 8.4497
1.56455 1.15003 8.43808
1.53341 1.14577 8.41938
1.50749 1.14695 8.43056
1.47742 1.14484 8.42181
1.41931 1.14166 8.4073
1.37628 1.13963 8.40365
1.34827 1.13864 8.40288
1.31924 1.1376 8.39911
1.26214 1.13443 8.38558
1.18892 1.12807 8.35823
1.16302 1.13028 8.37139
1.13393 1.12813 8.35964
1.10382 1.12493 8.34491
1.0488 1.12392 8.34234
1.00675 1.12185 8.33569
0.978738 1.12086 8.33491
0.922633 1.11769 8.32138
0.853573 1.11562 8.31393
0.825505 1.11451 8.30516
0.769392 1.11133 8.29062
0.742392 1.11035 8.29084
0.687272 1.10815 8.27529
0.673234 1.10709 8.27041
0.646265 1.10717 8.27461
0.619235 1.10613 8.27083
0.592205 1.10509 8.26705
0.564145 1.10399 8.25928
0.537062 1.10185 8.24851
0.495964 1.09968 8.23585
0.468941 1.09866 8.23307
0.441935 1.09866 8.23227
0.41489 1.09759 8.22649
0.387913 1.09766 8.22969
0.360814 1.09549 8.21693
0.333777 1.09443 8.21215
0.319686 1.09227 8.20028
0.293725 1.09336 8.20546
0.266641 1.09122 8.1947
0.239642 1.09123 8.1949
0.185506 1.08801 8.17735
0.159523 1.08906 8.17953
0.146538 1.0891 8.18163
0.0923947 1.08585 8.16308
0.05538 1.14577 8.15548
0.0293651 1.14476 8.15369
0.00238907 1.14582 8.15687
-0.0237476 1.14258 8.13912
-0.0507469 1.1426 8.13932
-0.0768221 1.14147 8.12953
2.84347 1.29874 8.67328
2.80736 1.29455 8.65961
2.69421 1.28634 8.64058
2.65807 1.2821 8.62291
2.59811 1.28022 8.62839
2.2796 1.25746 8.56412
2.24649 1.25428 8.55042
2.21956 1.25443 8.55962
2.04721 1.24088 8.51511
2.01927 1.241 8.52232
1.98715 1.2378 8.50761
1.89498 1.23053 8.48541
1.88202 1.23163 8.49149
1.85199 1.23059 8.48773
1.82193 1.2275 8.48
1.73281 1.22232 8.46475
1.70382 1.22236 8.46597
1.68877 1.22027 8.45911
1.65768 1.21813 8.44837
1.62658 1.21494 8.43465
1.59963 1.21507 8.44186
1.57059 1.21401 8.43709
1.54158 1.21302 8.43632
1.52443 1.20874 8.41651
1.49541 1.20771 8.41375
1.40826 1.20248 8.39448
1.35122 1.20045 8.38994
1.33618 1.19937 8.38406
1.27907 1.19521 8.37055
1.25216 1.1964 8.38274
1.22201 1.19313 8.36302
1.16703 1.19221 8.36644
1.1509 1.18896 8.34861
0.939587 1.17851 8.30935
0.88455 1.17747 8.30478
0.856497 1.17539 8.29802
0.828452 1.17432 8.29225
0.80043 1.1733 8.28947
0.786392 1.17223 8.28459
0.759377 1.17222 8.2828
0.73237 1.17123 8.28202
0.704248 1.16801 8.26627
0.677264 1.16806 8.26848
0.649219 1.16699 8.2627
0.621128 1.16484 8.25094
0.581121 1.16385 8.25026
0.498971 1.16062 8.23092
0.471941 1.15958 8.22714
0.349784 1.15535 8.20712
0.322716 1.15324 8.19836
0.295694 1.15322 8.19556
0.269671 1.15219 8.19277
0.255611 1.15108 8.18489
0.228619 1.15112 8.1861
0.175522 1.14896 8.17353
0.122492 1.14794 8.16994
0.0823793 1.14575 8.15527
0.0494536 1.26476 8.15376
-0.175883 1.25826 8.11055
-0.201913 1.25722 8.10676
-0.267964 1.25616 8.10027
-0.581388 1.24955 8.04572
-0.657599 1.24619 8.01834
-0.684606 1.2462 8.01755
2.67616 1.4081 8.62291
2.17555 1.37429 8.54717
2.14448 1.37116 8.53745
2.11344 1.36911 8.53272
2.03628 1.36286 8.51239
2.00523 1.36179 8.50664
1.97623 1.3598 8.50589
1.94515 1.35767 8.49615
1.87005 1.35252 8.48279
1.70683 1.34321 8.45515
1.67675 1.34009 8.44542
1.64776 1.34012 8.44664
1.61873 1.3381 8.44389
1.45953 1.32982 8.41821
1.32829 1.32144 8.38732
1.30027 1.32043 8.38554
1.27123 1.31836 8.37979
1.24217 1.31626 8.37204
1.21517 1.31628 8.37224
1.18609 1.31316 8.36251
1.15809 1.31316 8.36172
1.14299 1.311 8.34986
1.11498 1.30999 8.34809
1.08486 1.30677 8.33236
1.05787 1.30581 8.33358
1.02878 1.30367 8.32283
0.98776 1.30265 8.32015
0.958677 1.30051 8.3094
0.931684 1.29954 8.31062
0.903601 1.2974 8.29986
0.847518 1.29528 8.28931
0.82048 1.29323 8.28455
0.779458 1.29221 8.28187
0.723345 1.28903 8.26734
0.641209 1.28482 8.25002
0.573135 1.28273 8.24056
0.51906 1.28062 8.231
0.491022 1.27956 8.22622
0.450977 1.2785 8.22054
0.342804 1.27324 8.19843
0.275745 1.27217 8.19095
0.248677 1.27006 8.18218
0.142573 1.26793 8.16901
0.115543 1.26689 8.16523
0.0754685 1.26577 8.15555
0.0494363 1.34662 8.14355
-0.658541 1.3282 8.01814
2.6812 1.49905 8.61853
2.6052 1.49612 8.62014
2.23859 1.46619 8.54234
2.00929 1.45078 8.50529
1.99427 1.44975 8.50242
1.96527 1.44877 8.50265
1.93212 1.44351 8.48397
1.90415 1.44359 8.48819
1.84408 1.43949 8.4787
1.81299 1.43633 8.46698
1.80002 1.43741 8.47206
1.76895 1.43429 8.46234
1.74097 1.43435 8.46555
1.68189 1.43023 8.45505
1.65181 1.42711 8.44532
1.62279 1.42609 8.44256
1.60674 1.42399 8.43571
1.57664 1.42082 8.42298
1.54864 1.42086 8.42419
1.51858 1.41775 8.41546
1.49058 1.41777 8.41567
1.46155 1.41575 8.41292
1.44649 1.41362 8.40407
1.41744 1.41256 8.3983
1.38737 1.40944 8.38957
1.35833 1.40838 8.3838
1.32927 1.40628 8.37605
1.2722 1.40319 8.36753
1.25714 1.40108 8.35967
1.23017 1.40116 8.36387
1.0729 1.39174 8.32919
0.905669 1.38342 8.30057
0.890615 1.38133 8.29372
0.752412 1.37503 8.26785
0.725412 1.37405 8.26806
0.711344 1.37293 8.25919
0.479044 1.3625 8.22108
0.451991 1.36142 8.2143
0.397908 1.3593 8.20374
0.370871 1.35824 8.19896
0.249759 1.35511 8.18492
0.222722 1.35406 8.18013
0.195608 1.35085 8.16539
0.182593 1.35083 8.16348
0.102526 1.34876 8.15512
0.0765272 1.34878 8.15531
-0.173755 1.4163 8.11219
2.58417 1.57496 8.60813
-5.62389 -0.415312 1.77949
-5.60776 -0.416027 1.66436
-5.61219 -0.415882 1.60639
-5.59404 -0.416554 1.49424
-5.59433 -0.416132 1.45523
-5.59148 -0.41643 1.43522
-5.585 -0.416457 1.36616
-5.63036 -0.341337 1.70943
-5.62368 -0.341964 1.66739
-5.62191 -0.342424 1.63638
-5.61822 -0.343019 1.59635
-5.62036 -0.343299 1.57737
-5.61681 -0.34319 1.51733
-5.61204 -0.343638 1.4873
-5.60534 -0.34425 1.44625
-5.60549 -0.344531 1.42726
-5.60279 -0.345126 1.38724
-5.60599 -0.344523 1.36025
-5.58932 -0.345172 1.31713
-5.61685 -0.269392 1.63826
-5.61216 -0.270002 1.59723
-5.61031 -0.270314 1.57621
-5.60739 -0.270465 1.56619
-5.62065 -0.270973 1.53129
-5.60328 -0.272215 1.44817
-5.6015 -0.272646 1.41916
-5.60193 -0.273504 1.36117
-5.62839 -0.202576 1.69236
-5.62853 -0.202857 1.67337
-5.62307 -0.203913 1.60233
-5.61225 -0.204276 1.57825
-5.61454 -0.205837 1.54029
-5.61767 -0.206101 1.52231
-5.60821 -0.207159 1.45125
-5.61463 -0.207984 1.3953
-5.60102 -0.208764 1.3432
-5.59318 -0.20908 1.32214
-5.63011 -0.123124 1.7222
-5.64223 -0.123352 1.7063
-5.63739 -0.123667 1.68526
-5.62856 -0.124014 1.6622
-5.6307 -0.124294 1.64321
-5.63086 -0.12559 1.62323
-5.62402 -0.12592 1.60118
-5.62616 -0.1262 1.5822
-5.63022 -0.126316 1.57423
-5.61541 -0.126697 1.54912
-5.63052 -0.126893 1.53524
-5.6177 -0.128258 1.51116
-5.615 -0.128852 1.47114
-5.61514 -0.129133 1.45214
-5.60824 -0.129316 1.44009
-5.61536 -0.129562 1.42315
-5.61466 -0.13014 1.38414
-5.60895 -0.131722 1.34512
-5.59805 -0.131922 1.33204
-5.60518 -0.132169 1.31509
-5.60347 -0.132748 1.27608
-5.59263 -0.134066 1.25502
-5.57621 -0.138188 1.04493
-5.57849 -0.138734 1.00795
-5.56964 -0.139037 0.987883
-5.57877 -0.139282 0.970953
-5.56692 -0.140587 0.95088
-5.58097 -0.13968 0.943972
-5.56713 -0.141001 0.922884
-5.57825 -0.14123 0.906969
-5.56855 -0.141814 0.867899
-5.56968 -0.142065 0.850909
-5.56982 -0.142347 0.831912
-5.5599 -0.142517 0.820838
-5.55618 -0.144067 0.783828
-5.55745 -0.144599 0.74784
-5.56058 -0.144849 0.730865
-5.55372 -0.145135 0.711815
-5.55679 -0.145266 0.702839
-5.54994 -0.145553 0.683789
-5.55306 -0.145802 0.666814
-5.5522 -0.146069 0.648809
-5.54249 -0.147639 0.610753
-5.55461 -0.146867 0.594831
-5.53976 -0.148174 0.574736
-5.55081 -0.14727 0.567805
-5.54795 -0.148538 0.549799
-5.54808 -0.148805 0.531802
-5.54522 -0.149073 0.513782
-5.5355 -0.149628 0.476712
-5.53796 -0.150545 0.414735
-5.53623 -0.151064 0.379725
-5.53069 -0.152986 0.317703
-5.52697 -0.153522 0.281678
-5.52823 -0.154039 0.246691
-5.52643 -0.154426 0.220679
-5.51596 -0.155485 0.149606
-5.51922 -0.156 0.114633
-5.64663 -0.0902125 1.78285
-5.63282 -0.0915926 1.75776
-5.63933 -0.0925948 1.68982
-5.62666 -0.0942407 1.64674
-5.62396 -0.0948498 1.60572
-5.61827 -0.0964461 1.5657
-5.62476 -0.0974187 1.49975
-5.62291 -0.0977162 1.47974
-5.61508 -0.0990476 1.4577
-5.60931 -0.0995109 1.42666
-5.61259 -0.100056 1.38968
-5.61687 -0.100601 1.35272
-5.59442 -0.102698 1.27957
-5.60454 -0.102928 1.26365
-5.60369 -0.10321 1.24464
-5.58826 -0.108316 1.03557
-5.58741 -0.108598 1.01657
-5.57756 -0.109901 0.996512
-5.58482 -0.110414 0.96157
-5.58097 -0.110713 0.941542
-5.57918 -0.111129 0.913531
-5.56062 -0.113001 0.855411
-5.56974 -0.113231 0.839481
-5.57587 -0.113479 0.822528
-5.56337 -0.114465 0.75644
-5.55851 -0.11575 0.73742
-5.55379 -0.116301 0.700387
-5.56391 -0.116531 0.684465
-5.54999 -0.116704 0.673361
-5.56111 -0.116933 0.657446
-5.56025 -0.1172 0.639441
-5.54415 -0.119974 0.520344
-5.54455 -0.120758 0.467351
-5.53582 -0.121298 0.431289
-5.53329 -0.123217 0.369289
-5.53342 -0.123484 0.351292
-5.52589 -0.124407 0.28924
-5.52602 -0.124659 0.272242
-5.51129 -0.126203 0.236149
-5.51275 -0.127105 0.175165
-5.51988 -0.126352 0.158206
-5.51215 -0.12789 0.122165
-5.50241 -0.128416 0.0870947
-5.50661 -0.128798 0.0611284
-5.51186 -0.129297 0.0271707
-5.50013 -0.129824 -0.00791477
-5.49932 -0.13021 -0.0339187
-5.50059 -0.130727 -0.0689063
-5.49398 -0.132502 -0.120937
-5.4893 -0.133142 -0.163969
-5.48656 -0.133647 -0.197987
-5.64174 -0.0544865 1.76428
-5.63398 -0.0559659 1.73224
-5.63513 -0.0562612 1.71225
-5.64426 -0.0564915 1.69632
-5.64341 -0.0568031 1.67532
-5.6306 -0.0581677 1.65124
-5.63274 -0.0584475 1.63225
-5.62484 -0.0596457 1.61921
-5.63596 -0.0588746 1.60328
-5.62827 -0.0604872 1.56224
-5.62542 -0.0608003 1.54122
-5.62657 -0.0610808 1.52223
-5.62073 -0.0623959 1.5012
-5.62579 -0.0625107 1.49324
-5.6211 -0.0631212 1.45221
-5.62124 -0.0634025 1.43321
-5.61853 -0.0649818 1.39421
-5.61169 -0.0652978 1.37316
-5.60693 -0.0667602 1.34214
-5.61006 -0.0670244 1.32417
-5.61134 -0.0675714 1.28718
-5.60151 -0.0689042 1.26512
-5.59473 -0.0693534 1.23507
-5.5983 -0.0714613 1.16012
-5.58946 -0.0717787 1.13906
-5.5811 -0.0740434 1.05402
-5.57739 -0.0746088 1.01599
-5.58551 -0.0748546 0.999054
-5.58166 -0.0751387 0.980026
-5.57773 -0.0762896 0.970012
-5.56789 -0.0766077 0.94894
-5.57601 -0.0768387 0.933003
-5.56617 -0.0771568 0.91193
-5.5703 -0.0774056 0.894962
-5.57543 -0.0776536 0.878003
-5.56958 -0.0789539 0.857975
-5.57464 -0.0780688 0.849999
-5.57278 -0.0793514 0.831001
-5.55607 -0.079941 0.791879
-5.5652 -0.0801861 0.774949
-5.56554 -0.0808522 0.729955
-5.55269 -0.0821577 0.709875
-5.55782 -0.0824057 0.692915
-5.56096 -0.0826699 0.67494
-5.54611 -0.0839768 0.654844
-5.54937 -0.0844927 0.619872
-5.54052 -0.0847805 0.600807
-5.55071 -0.0851581 0.574886
-5.53985 -0.0854473 0.555805
-5.54199 -0.0857123 0.537823
-5.54512 -0.0859618 0.520848
-5.54725 -0.086212 0.503865
-5.53739 -0.0875004 0.484807
-5.54246 -0.0866301 0.475831
-5.54559 -0.0868795 0.458856
-5.53773 -0.0881665 0.439814
-5.54386 -0.0884138 0.422861
-5.53599 -0.088686 0.404803
-5.52814 -0.0889731 0.385746
-5.5372 -0.089085 0.377815
-5.52733 -0.0893587 0.359742
-5.52947 -0.0896237 0.341759
-5.5276 -0.0908767 0.324762
-5.52273 -0.0911468 0.306726
-5.52487 -0.0914117 0.288744
-5.533 -0.0916576 0.271806
-5.51414 -0.0919526 0.252666
-5.51521 -0.0920851 0.243675
-5.51933 -0.0923339 0.226707
-5.51846 -0.0925862 0.209702
-5.5136 -0.0928563 0.191667
-5.51573 -0.0931065 0.174684
-5.51286 -0.094375 0.156679
-5.51706 -0.0937571 0.130698
-5.51219 -0.0950271 0.112678
-5.51532 -0.0952765 0.0957026
-5.51245 -0.0955304 0.0786824
-5.50559 -0.0958019 0.0606322
-5.51471 -0.096047 0.0437023
-5.50705 -0.0967041 -0.000351853
-5.50717 -0.0969558 -0.0173495
-5.50231 -0.0972258 -0.0353846
-5.50069 -0.0979822 -0.0863927
-5.49676 -0.0981184 -0.0954215
-5.4949 -0.0993861 -0.113419
-5.50015 -0.0988859 -0.147392
-5.50028 -0.0991376 -0.164389
-5.61434 0.00533394 1.28012
-5.59017 0.00168769 1.16998
-5.58524 -0.00240361 1.02898
-5.57928 -0.00546614 0.889965
-5.57942 -0.00573259 0.871967
-5.57271 -0.00730007 0.833935
-5.5799 -0.00767984 0.807991
-5.57346 -0.00978021 0.733963
-5.56974 -0.0103308 0.696938
-5.56495 -0.0117488 0.668919
-5.54778 -0.0143901 0.558814
-5.55797 -0.0147529 0.533892
-5.54272 -0.0172447 0.433801
-5.54285 -0.0174963 0.416803
-5.54112 -0.0190305 0.380808
-5.60584 0.0412568 1.34254
-5.61098 0.040994 1.32458
-5.60114 0.039676 1.30352
-5.60521 0.0395457 1.29455
-5.59751 0.0379479 1.25451
-5.60064 0.0376836 1.23653
-5.5958 0.036384 1.21651
-5.60192 0.0361368 1.19956
-5.57951 0.0300111 0.989455
-5.58564 0.0297638 0.972502
-5.58192 0.0282133 0.935492
-5.56942 0.0262122 0.868418
-5.56305 0.0239786 0.785392
-5.55746 0.0221602 0.730369
-5.55859 0.0219093 0.713379
-5.5548 0.0214919 0.685353
-5.54935 0.0194071 0.612333
-5.54969 0.0177559 0.568354
-5.54483 0.017471 0.549319
-5.54096 0.0172016 0.531291
-5.53824 0.0156667 0.495288
-5.5331 0.0129601 0.380274
-5.53337 0.012442 0.345278
-5.5317 0.0117893 0.30127
-5.52297 0.0102499 0.265222
-5.51911 0.00998059 0.247194
-5.52423 0.00973259 0.230234
-5.52143 0.00934554 0.204215
-5.52856 0.00909899 0.18727
-5.51696 0.00730583 0.134202
-5.51809 0.00704012 0.116212
-5.52042 0.00640507 0.0732328
-5.51355 0.00613352 0.0551826
-5.51468 0.00588261 0.0381924
-5.51182 0.00561398 0.0201724
-5.50208 0.00408872 -0.0148832
-5.50214 0.0039703 -0.0228821
-5.50527 0.00372084 -0.0398572
-5.50541 0.0034544 -0.0578547
-5.50053 0.00319912 -0.07489
-5.50866 0.0029533 -0.0918275
-5.5078 0.00268612 -0.109833
-5.49593 0.00242575 -0.12692
-5.50199 0.00229689 -0.135874
-5.49912 0.00204306 -0.152894
-5.49725 0.00178997 -0.169907
-5.50339 0.00152789 -0.187859
-5.49351 0.000269074 -0.204917
-5.49764 0.00102024 -0.2219
-5.62562 0.0796669 1.36912
-5.62384 0.0792362 1.34011
-5.62099 0.077938 1.3201
-5.61643 0.0760612 1.26109
-5.60552 0.0748756 1.24902
-5.60667 0.0745951 1.23003
-5.5889 0.0691688 1.06696
-5.59118 0.0686226 1.02998
-5.5973 0.0683753 1.01302
-5.59352 0.0669432 0.984013
-5.58595 0.0650938 0.926976
-5.58908 0.0648443 0.910001
-5.58323 0.063544 0.889973
-5.58258 0.0628624 0.843972
-5.57587 0.0612949 0.805939
-5.573 0.0610262 0.787919
-5.57314 0.0607598 0.769922
-5.57534 0.0593617 0.742955
-5.57448 0.0590945 0.72495
-5.57561 0.0588288 0.70696
-5.57189 0.0582782 0.669935
-5.56417 0.0567248 0.632895
-5.56351 0.0550581 0.587908
-5.56365 0.0547916 0.569911
-5.55619 0.0527201 0.497875
-5.55439 0.052319 0.470864
-5.52702 0.0461157 0.25572
-5.51914 0.0429037 0.106687
-5.51252 0.0391891 -0.0763327
-5.50711 0.0370302 -0.154352
-5.61357 0.106745 1.23961
-5.61472 0.106464 1.22062
-5.60929 0.103335 1.14462
-5.59622 0.0994896 1.02056
-5.59458 0.0977925 0.973563
-5.59472 0.0975261 0.955565
-5.59286 0.0962435 0.936568
-5.58036 0.0942424 0.869494
-5.58748 0.0940106 0.853549
-5.58277 0.0924446 0.815531
-5.58005 0.0918947 0.778514
-5.57753 0.0899601 0.715515
-5.56868 0.0886576 0.695465
-5.56809 0.0868576 0.641479
-5.56629 0.0864565 0.614468
-5.56742 0.0861908 0.596478
-5.5547 0.0846337 0.5594
-5.55584 0.084368 0.54141
-5.55398 0.0831002 0.523412
-5.5561 0.08285 0.50643
-5.55418 0.0827006 0.496416
-5.55631 0.0824504 0.479434
-5.54645 0.081162 0.460376
-5.55458 0.081916 0.443423
-5.54972 0.0806461 0.425403
-5.54199 0.0791075 0.389363
-5.54505 0.0799763 0.380372
-5.54119 0.0787071 0.362359
-5.54059 0.0779218 0.309359
-5.53345 0.0752286 0.195329
-5.52871 0.073707 0.160311
-5.52145 0.0712654 0.0632791
-5.52264 0.0708813 0.0372901
-5.58205 0.134802 0.906912
-5.53244 0.117163 0.325719
-5.50148 0.106174 -0.0774075
-5.49661 0.105904 -0.0954427
-5.49474 0.105651 -0.112455
-5.49987 0.105403 -0.129415
-5.49794 0.105268 -0.138429
-5.49607 0.105015 -0.155442
-5.49733 0.104497 -0.19043
-5.49546 0.104244 -0.207442
-5.48759 0.102987 -0.224485
-5.61234 0.215058 1.26
-5.61754 0.214662 1.23304
-5.59407 0.205654 1.03097
-5.58636 0.204071 0.99193
-5.58485 0.202108 0.926939
-5.58813 0.200577 0.890981
-5.57635 0.199124 0.86091
-5.57562 0.197591 0.824922
-5.5769 0.197044 0.787935
-5.57239 0.195093 0.723921
-5.56467 0.19354 0.686881
-5.56095 0.191989 0.649871
-5.55915 0.190588 0.622874
-5.56141 0.190071 0.587894
-5.55269 0.188517 0.550846
-5.55796 0.188003 0.515889
-5.55516 0.186601 0.488885
-5.54271 0.184511 0.415812
-5.5559 0.184151 0.390913
-5.54218 0.182593 0.353827
-5.53845 0.181057 0.317817
-5.54171 0.180556 0.283844
-5.53078 0.1794 0.273778
-5.54291 0.180157 0.256856
-5.53405 0.178884 0.238805
-5.52818 0.178613 0.220763
-5.53131 0.178364 0.203787
-5.53844 0.178117 0.186842
-5.53257 0.177847 0.1688
-5.5357 0.177597 0.151825
-5.52478 0.176441 0.141758
-5.53591 0.177197 0.124828
-5.51704 0.174917 0.106718
-5.51731 0.174399 0.0717224
-5.52643 0.175154 0.0547777
-5.51164 0.172744 0.0276981
-5.51877 0.173497 0.0107383
-5.51703 0.171978 -0.0242571
-5.51516 0.171724 -0.0412698
-5.52029 0.172476 -0.0582446
-5.51562 0.170822 -0.102261
-5.51114 0.169797 -0.171289
-5.59305 0.23865 1.03047
-5.59126 0.238234 1.00246
-5.58755 0.236669 0.964453
-5.58768 0.235402 0.94647
-5.58111 0.233553 0.88944
-5.57918 0.232419 0.880441
-5.57646 0.231869 0.843424
-5.57374 0.230319 0.806421
-5.57488 0.230054 0.788431
-5.57102 0.22877 0.769419
-5.57122 0.22837 0.742422
-5.56537 0.227084 0.723395
-5.57462 0.226588 0.689467
-5.56577 0.225285 0.669417
-5.5709 0.225037 0.652457
-5.55899 0.223866 0.641383
-5.56012 0.2236 0.623393
-5.55866 0.221548 0.552402
-5.55087 0.220127 0.524361
-5.54814 0.218592 0.488358
-5.55027 0.218342 0.471375
-5.5484 0.218074 0.453363
-5.54454 0.216805 0.43535
-5.53888 0.215135 0.390326
-5.54514 0.214621 0.355376
-5.53828 0.214349 0.337326
-5.54241 0.214101 0.320358
-5.54454 0.213836 0.302376
-5.53868 0.212565 0.284348
-5.53575 0.21243 0.275326
-5.545 0.211933 0.241399
-5.52455 0.208852 0.16928
-5.52761 0.208736 0.161304
-5.52587 0.208216 0.126294
-5.52601 0.20795 0.108296
-5.52714 0.207699 0.0913062
-5.52427 0.20643 0.0733009
-5.52947 0.207049 0.0473274
-5.5186 0.20579 0.0302617
-5.51773 0.205522 0.0122567
-5.52586 0.205277 -0.00468078
-5.52099 0.205021 -0.0217161
-5.51658 0.202848 -0.100728
-5.50671 0.20159 -0.117786
-5.5101 0.200822 -0.169756
-5.62645 0.28375 1.23809
-5.61269 0.276312 1.07407
-5.60819 0.274331 1.00806
-5.60648 0.272767 0.970062
-5.60269 0.27135 0.942051
-5.59783 0.270065 0.92303
-5.59526 0.268234 0.86703
-5.59539 0.266968 0.849048
-5.59061 0.266535 0.820014
-5.58789 0.264985 0.783011
-5.58365 0.261501 0.683017
-5.57254 0.256732 0.563988
-5.53098 0.240965 0.108845
-5.5249 0.238154 -0.0131759
-5.51275 0.235472 -0.126243
-5.61587 0.391782 1.1724
-5.61701 0.391502 1.15341
-5.60096 0.38464 1.02837
-5.60109 0.383373 1.01039
-5.6063 0.382977 0.983431
-5.60458 0.381428 0.946436
-5.58902 0.377558 0.888368
-5.60214 0.378331 0.872453
-5.59628 0.377045 0.853426
-5.58551 0.374593 0.823377
-5.59364 0.375348 0.806424
-5.58678 0.374061 0.787389
-5.58791 0.372796 0.769414
-5.58805 0.372529 0.751416
-5.5772 0.370225 0.731366
-5.58226 0.37111 0.72339
-5.5854 0.370846 0.705415
-5.58054 0.369561 0.686395
-5.58167 0.369311 0.669405
-5.58081 0.368029 0.650414
-5.56597 0.365722 0.630334
-5.56603 0.365589 0.621335
-5.5733 0.365076 0.586393
-5.56371 0.362255 0.531355
-5.56298 0.361736 0.496352
-5.55619 0.360316 0.468318
-5.56644 0.35982 0.434398
-5.56158 0.35855 0.416378
-5.55585 0.357013 0.380352
-5.56092 0.357883 0.371376
-5.55906 0.356616 0.353379
-5.55319 0.355345 0.335351
-5.55832 0.356097 0.318376
-5.55259 0.35456 0.28235
-5.55172 0.354307 0.265345
-5.55279 0.354175 0.256354
-5.55092 0.352907 0.238356
-5.54645 0.350867 0.168343
-5.53618 0.347424 0.0713034
-5.52765 0.345514 0.0102589
-5.53091 0.344998 -0.0247137
-5.52517 0.343476 -0.0597393
-5.5099 0.340044 -0.155817
-5.57238 0.403833 0.704828
-5.55874 0.397143 0.5238
-5.54889 0.390886 0.371797
-5.5433 0.389082 0.317774
-5.54576 0.387181 0.256813
-5.5429 0.386912 0.238792
-5.54702 0.386664 0.221825
-5.53417 0.384373 0.202759
-5.53636 0.38399 0.176778
-5.5279 0.381932 0.105735
-5.52503 0.380679 0.0887295
-5.53216 0.381432 0.0717697
-5.52722 0.380295 0.0627481
-5.53235 0.381047 0.0457733
-5.52949 0.379778 0.027768
-5.52062 0.378506 0.00971754
-5.52475 0.379257 -0.00726482
-5.51789 0.377985 -0.0253002
-5.51902 0.377734 -0.0422903
-5.53108 0.378625 -0.0502137
-5.52021 0.37735 -0.0682792
-5.51435 0.37608 -0.0863071
-5.52148 0.376833 -0.103267
-5.5216 0.376581 -0.120265
-5.51374 0.375309 -0.138307
-5.51887 0.375061 -0.155267
-5.50894 0.373921 -0.164327
