-4.09938 1.74702 7.60293
-4.1166 1.74261 7.57412
-4.14464 1.74454 7.56831
-4.16579 1.74226 7.5485
-4.17512 1.73463 7.50567
-4.18914 1.73559 7.50277
-4.21423 1.73543 7.49096
-4.23835 1.73523 7.47614
-4.26442 1.7361 7.46632
-4.29049 1.73597 7.45652
-4.3547 1.7376 7.42897
-3.20581 1.73659 7.54335
-3.22988 1.73646 7.53353
-3.28199 1.73829 7.51989
-3.30608 1.73813 7.50808
-3.33312 1.73906 7.50226
-3.34933 1.73466 7.47445
-3.36629 1.73674 7.47955
-3.39333 1.73769 7.47474
-3.41939 1.73859 7.46692
-3.44446 1.73947 7.45809
-3.46755 1.7383 7.44528
-3.48869 1.73705 7.42746
-3.51868 1.74008 7.42864
-3.5317 1.74005 7.42574
-3.55186 1.73775 7.40492
-3.57398 1.73653 7.3891
-3.60988 1.74175 7.4023
-3.63495 1.74262 7.39247
-3.65214 1.73926 7.36765
-3.68805 1.74447 7.37984
-3.69812 1.74434 7.37092
-3.72319 1.74421 7.36111
-3.75123 1.74616 7.35629
-3.77334 1.74495 7.34147
-3.79743 1.74479 7.32965
-3.84758 1.74553 7.31002
-4.09833 1.7502 7.20983
-4.14849 1.75093 7.18919
-4.16863 1.74966 7.17036
-4.18858 1.75278 7.17746
-4.21998 1.74602 7.12479
-4.25986 1.75327 7.13999
-4.27408 1.74885 7.11116
-4.2962 1.74864 7.09632
-4.30529 1.74647 7.08442
-4.32839 1.74628 7.0706
-4.35643 1.74823 7.06578
-4.38249 1.75011 7.05695
-4.39869 1.74674 7.03111
-4.42772 1.7487 7.0273
-4.45181 1.74954 7.01547
-4.46089 1.74839 7.00455
-4.48498 1.74823 6.99274
-4.51006 1.74908 6.98191
-4.53712 1.75098 6.97409
-4.55824 1.74976 6.95826
-4.5853 1.75166 6.95044
-4.60643 1.75041 6.93261
-4.61749 1.75031 6.92569
-4.64455 1.75222 6.91787
-4.66766 1.75201 6.90305
-4.69175 1.75285 6.89121
-4.72078 1.7548 6.8864
-4.74488 1.75562 6.87357
-4.76798 1.75543 6.85974
-4.79011 1.7552 6.84291
-4.80116 1.7551 6.836
-4.82525 1.75494 6.82418
-4.84638 1.7547 6.80734
-4.87049 1.75451 6.79352
-4.89655 1.7564 6.78469
-4.92263 1.75726 6.77387
-4.94278 1.75699 6.75502
-4.96175 1.76005 6.75812
-4.98089 1.75878 6.73928
-5.00301 1.75857 6.72445
-5.0291 1.75941 6.71263
-5.05318 1.76025 6.7008
-5.08224 1.76217 6.69399
-5.10023 1.7652 6.69508
-5.11542 1.76184 6.67024
-5.14743 1.76582 6.66742
-5.16262 1.76346 6.64257
-5.17386 1.75901 6.61171
-5.2128 1.76514 6.61892
-5.22898 1.7628 6.59507
-5.24301 1.76375 6.59116
-5.27108 1.76564 6.58234
-5.31828 1.76727 6.55567
-5.33743 1.76599 6.53583
-5.36055 1.76677 6.51999
-5.38266 1.76656 6.50516
-5.39967 1.76856 6.50426
-5.41882 1.76728 6.48442
-5.44887 1.77019 6.4776
-5.46702 1.76891 6.45776
-0.553078 1.69031 7.63506
-0.628991 1.69452 7.64657
-0.653989 1.69554 7.64675
-0.679004 1.69553 7.64493
-0.704034 1.69449 7.64114
-0.729025 1.69552 7.64231
-0.741063 1.69446 7.63742
-0.766069 1.69546 7.63659
-0.792068 1.69548 7.63679
-0.815167 1.6933 7.62399
-0.842096 1.69646 7.63315
-0.866134 1.6954 7.62834
-0.879156 1.69537 7.62544
-0.903178 1.69534 7.62262
-0.930116 1.69748 7.6308
-0.955122 1.69848 7.62997
-0.979159 1.69742 7.62516
-1.00326 1.69525 7.61238
-1.02733 1.69413 7.60357
-1.04123 1.69732 7.61563
-1.06629 1.69622 7.60784
-1.09318 1.70045 7.62198
-1.11631 1.69721 7.6052
-1.13846 1.69295 7.58643
-1.16727 1.70034 7.61154
-1.19134 1.69921 7.60173
-1.20436 1.69919 7.59983
-1.23032 1.70026 7.60401
-1.25056 1.69382 7.57326
-1.28035 1.70124 7.60037
-1.30347 1.69902 7.58458
-1.32659 1.6958 7.5688
-1.3554 1.70319 7.59391
-1.36555 1.6989 7.57405
-1.38866 1.69671 7.56025
-1.41846 1.70412 7.58637
-1.4387 1.69666 7.55463
-1.46372 1.69765 7.5528
-1.49256 1.70397 7.57293
-1.51566 1.70179 7.56013
-1.52577 1.69859 7.54625
-1.55755 1.70703 7.57437
-1.57775 1.70166 7.5486
-1.60182 1.70054 7.5398
-1.63261 1.70796 7.56692
-1.65474 1.70573 7.55012
-1.67494 1.70036 7.52435
-1.69373 1.70777 7.55138
-1.7149 1.70346 7.5296
-1.73702 1.70023 7.51282
-1.76978 1.70972 7.54493
-1.78901 1.70329 7.51516
-1.81116 1.70001 7.49538
-1.84586 1.7106 7.53349
-1.85303 1.70628 7.5116
-1.87903 1.7073 7.51178
-1.90891 1.71254 7.52693
-1.93297 1.71244 7.51911
-1.95606 1.7113 7.5083
-1.97623 1.70697 7.48552
-2.01099 1.71645 7.51664
-2.01913 1.71219 7.49876
-2.0422 1.71106 7.48895
-2.0721 1.71629 7.5031
-2.08936 1.70879 7.46834
-2.11051 1.70551 7.44854
-2.14722 1.71709 7.48665
-2.16543 1.71171 7.45987
-2.17846 1.71166 7.45597
-2.20932 1.71793 7.47311
-2.22948 1.71465 7.45331
-2.25647 1.71567 7.45349
-2.28636 1.7209 7.46764
-2.30558 1.7155 7.43986
-2.32866 1.71535 7.42904
-2.34752 1.72063 7.4471
-2.3706 1.71949 7.43629
-2.39076 1.71619 7.41549
-2.42166 1.72141 7.42865
-2.44669 1.72236 7.42482
-2.46783 1.7191 7.40603
-2.49776 1.72327 7.41619
-2.51172 1.72534 7.42027
-2.52896 1.71989 7.38947
-2.58686 1.72611 7.40182
-2.60994 1.72598 7.39199
-2.67403 1.72785 7.38045
-2.74915 1.72965 7.36399
-2.90949 1.73209 7.31915
-2.95568 1.73075 7.29452
-2.98171 1.73171 7.2907
-2.9908 1.73054 7.27878
-3.01388 1.72939 7.26797
-3.03796 1.72926 7.25815
-3.0679 1.73339 7.26532
-3.08411 1.72898 7.2375
-3.11015 1.72993 7.23268
-3.13716 1.73192 7.23086
-3.14232 1.72763 7.21096
-3.16835 1.72957 7.20612
-3.19241 1.72947 7.19831
-3.21649 1.72934 7.18849
-3.24252 1.73028 7.18367
-3.26659 1.73117 7.17484
-3.29261 1.73214 7.17202
-3.29973 1.72991 7.1561
-3.32675 1.73189 7.15328
-3.34983 1.73174 7.14245
-3.37293 1.73057 7.12964
-3.39995 1.73256 7.12781
-3.42303 1.73239 7.11599
-3.44415 1.73119 7.10116
-3.46012 1.73326 7.10525
-3.48419 1.73413 7.09542
-3.50727 1.73398 7.08459
-3.53035 1.73384 7.07377
-3.55148 1.7316 7.05696
-3.57948 1.73462 7.05713
-3.60059 1.73341 7.0423
-3.61855 1.73651 7.04839
-3.63966 1.73531 7.03357
-3.66766 1.73831 7.03273
-3.69075 1.73815 7.02091
-3.71285 1.73698 7.00809
-3.74086 1.73997 7.00626
-3.75192 1.73986 6.99834
-3.77993 1.74186 6.99752
-3.80203 1.74167 6.98369
-3.85511 1.74455 6.97304
-3.88213 1.74652 6.97022
-3.89735 1.74212 6.94239
-3.91333 1.74516 6.94447
-3.95852 1.74482 6.91981
-3.98061 1.74466 6.90798
-4.00568 1.74553 6.89815
-4.02384 1.74223 6.87734
-4.0489 1.74413 6.86949
-4.05994 1.74405 6.86358
-4.08206 1.74284 6.84876
-4.10612 1.74373 6.83993
-4.13119 1.74461 6.8311
-4.14835 1.74232 6.81026
-4.17046 1.74211 6.79543
-4.19552 1.74301 6.78761
-4.22059 1.74389 6.77878
-4.22275 1.73958 6.75786
-4.26163 1.74783 6.77303
-4.27583 1.74345 6.7462
-4.30782 1.74748 6.74738
-4.3151 1.74094 6.71053
-4.35302 1.74813 6.72171
-4.36524 1.74371 6.69286
-4.37431 1.74257 6.68294
-4.40728 1.74765 6.68712
-4.42148 1.74326 6.66029
-4.43963 1.742 6.64144
-4.47952 1.74923 6.65563
-4.49075 1.74478 6.62478
-4.50773 1.74784 6.62786
-4.52391 1.74449 6.60403
-4.55787 1.74959 6.60921
-4.57998 1.74939 6.59438
-4.58528 1.74281 6.55551
-4.62418 1.75002 6.5677
-4.64036 1.74669 6.54487
-4.65635 1.74972 6.54594
-4.68636 1.75271 6.54413
-4.70056 1.74933 6.51828
-4.72068 1.7491 6.50143
-4.75663 1.75421 6.50763
-4.77578 1.75294 6.48879
-4.78996 1.7506 6.46493
-4.81288 1.75576 6.47502
-4.82807 1.7524 6.45019
-4.84919 1.75218 6.43435
-4.88316 1.75727 6.43853
-4.89834 1.75491 6.41367
-4.91353 1.75156 6.38983
-4.95542 1.75978 6.40303
-4.95954 1.75755 6.38709
-4.97274 1.75418 6.36124
-5.01465 1.76238 6.37343
-5.03478 1.76113 6.3556
-5.05787 1.76197 6.34376
-5.06513 1.75747 6.30988
-5.10918 1.7614 6.30315
-5.12832 1.76013 6.28431
-5.18244 1.76494 6.26864
-5.20157 1.76468 6.25079
-5.2458 1.76527 6.22111
-5.25783 1.76621 6.21619
-5.30007 1.76576 6.18451
-5.36244 1.76508 6.13598
-5.46591 1.76922 6.07369
-0.487163 1.69216 7.3575
-0.572198 1.69214 7.35314
-0.596167 1.69322 7.3573
-0.619242 1.69209 7.34749
-0.644226 1.69214 7.34968
-0.668225 1.69315 7.34985
-0.679278 1.69206 7.34295
-0.704224 1.69418 7.3501
-0.729223 1.6942 7.35029
-0.753245 1.69417 7.34747
-0.77629 1.6931 7.34166
-0.801265 1.69516 7.34482
-0.824334 1.69305 7.33602
-0.837264 1.69619 7.34507
-0.861286 1.69616 7.34226
-0.884416 1.69193 7.32549
-0.909329 1.69611 7.33662
-0.933367 1.69505 7.33181
-0.957358 1.69608 7.33298
-0.979533 1.69176 7.31021
-0.994364 1.69709 7.33224
-1.01745 1.69495 7.32145
-1.04051 1.69385 7.31364
-1.06643 1.69701 7.32379
-1.08953 1.69484 7.31099
-1.11255 1.69481 7.30816
-1.13851 1.6969 7.31333
-1.14863 1.69369 7.29845
-1.17262 1.69471 7.29862
-1.19667 1.69464 7.2928
-1.21875 1.69249 7.28199
-1.24373 1.69455 7.28515
-1.26967 1.69669 7.29332
-1.29177 1.6945 7.27952
-1.30285 1.69236 7.26963
-1.3307 1.69866 7.28875
-1.35376 1.69756 7.28094
-1.37683 1.69644 7.27213
-1.40179 1.69853 7.27728
-1.42391 1.69631 7.26148
-1.44792 1.6963 7.25966
-1.46092 1.69732 7.26075
-1.48492 1.69833 7.25991
-1.50993 1.69933 7.25908
-1.5349 1.70141 7.26324
-1.55702 1.69819 7.24745
-1.58102 1.69919 7.24662
-1.60891 1.70443 7.26175
-1.61416 1.69695 7.2289
-1.64208 1.70011 7.23907
-1.66512 1.70006 7.23424
-1.68722 1.69888 7.22142
-1.71222 1.6999 7.22159
-1.73721 1.70092 7.22177
-1.75736 1.69765 7.20297
-1.7752 1.70396 7.22301
-1.80019 1.70501 7.22518
-1.81743 1.69855 7.1934
-1.84146 1.6995 7.18957
-1.87034 1.70476 7.20571
-1.89048 1.7015 7.18691
-1.91938 1.70571 7.20007
-1.9314 1.70567 7.19716
-1.94862 1.70026 7.16836
-1.97557 1.70338 7.17552
-2.00154 1.70544 7.17869
-2.02072 1.7011 7.15489
-2.04572 1.70313 7.15605
-2.07267 1.70623 7.16121
-2.08079 1.70301 7.14632
-2.10191 1.70079 7.1305
-2.13276 1.70709 7.14965
-2.14997 1.70171 7.12285
-2.17499 1.70268 7.12003
-2.20292 1.70683 7.12918
-2.22304 1.70461 7.11336
-2.23214 1.70243 7.10046
-2.26204 1.70764 7.11361
-2.27824 1.70225 7.08681
-2.30816 1.70644 7.09797
-2.3312 1.70736 7.09213
-2.3572 1.70838 7.09231
-2.37634 1.70612 7.07349
-2.39618 1.71244 7.09454
-2.41239 1.70704 7.06674
-2.44034 1.71016 7.07391
-2.46733 1.7122 7.07508
-2.48647 1.70993 7.05626
-2.51443 1.71302 7.06142
-2.54238 1.71713 7.06757
-2.54952 1.71289 7.05069
-2.57453 1.71487 7.04885
-2.60445 1.71904 7.05901
-2.62653 1.7189 7.04818
-2.64861 1.71777 7.03836
-2.67657 1.72184 7.04251
-2.70062 1.72177 7.03669
-2.71361 1.7228 7.03777
-2.73864 1.72476 7.03393
-2.75974 1.72256 7.02012
-2.78673 1.72561 7.02228
-2.80979 1.7255 7.01346
-2.8309 1.72431 6.99963
-2.85494 1.72523 6.9938
-2.86795 1.72523 6.9929
-2.88906 1.72404 6.97907
-2.9131 1.72497 6.97324
-2.93813 1.72592 6.96941
-2.96021 1.72578 6.95858
-2.98229 1.72463 6.94776
-3.0034 1.72444 6.93392
-3.01247 1.7223 6.92402
-3.03456 1.72215 6.91318
-3.05272 1.71885 6.89237
-3.08168 1.72295 6.89753
-3.10377 1.72179 6.88571
-3.12879 1.72374 6.88187
-3.13492 1.72051 6.86596
-3.15602 1.71932 6.85213
-3.18301 1.72236 6.85329
-3.20214 1.72012 6.83647
-3.22521 1.72 6.82764
-3.24827 1.7209 6.8198
-3.26937 1.71971 6.80598
-3.27942 1.71861 6.79907
-3.3084 1.72268 6.80223
-3.32654 1.72041 6.78339
-3.35059 1.72132 6.77656
-3.37957 1.72439 6.77973
-3.40165 1.72424 6.7689
-3.42373 1.72409 6.75807
-3.4397 1.72716 6.76214
-3.45785 1.72388 6.74232
-3.48879 1.72902 6.75048
-3.50891 1.7278 6.73465
-3.52508 1.72449 6.71282
-3.5521 1.72646 6.70999
-3.5791 1.72947 6.70915
-3.60217 1.73035 6.70031
-3.61223 1.72924 6.6924
-3.64318 1.73435 6.69856
-3.65738 1.72997 6.67273
-3.68933 1.73509 6.67889
-3.70944 1.73388 6.66406
-3.74139 1.73901 6.67123
-3.76051 1.73677 6.6544
-3.77056 1.73669 6.64848
-3.79166 1.73649 6.63464
-3.8246 1.74164 6.64281
-3.84965 1.74355 6.63597
-3.87668 1.74551 6.63214
-3.89481 1.74327 6.61531
-3.90388 1.74313 6.60538
-3.92696 1.74298 6.59456
-3.952 1.74493 6.58972
-3.97015 1.74265 6.56988
-3.99322 1.74353 6.56104
-4.01334 1.74231 6.54521
-4.03246 1.74108 6.52937
-4.04154 1.73994 6.51945
-4.06362 1.7408 6.50861
-4.08571 1.74063 6.49677
-4.10977 1.74152 6.48794
-4.12791 1.74027 6.47009
-4.15296 1.74118 6.46327
-4.16715 1.73782 6.43842
-4.18313 1.74086 6.4405
-4.20423 1.74068 6.42766
-4.22533 1.74049 6.41382
-4.24742 1.74033 6.40198
-4.26852 1.74015 6.38914
-4.28765 1.73892 6.3723
-4.31072 1.73978 6.36246
-4.31979 1.73966 6.35353
-4.34484 1.74057 6.34671
-4.36496 1.74035 6.33086
-4.38804 1.74122 6.32102
-4.39628 1.73575 6.28916
-4.4243 1.73873 6.28632
-4.45431 1.74273 6.28549
-4.46534 1.74267 6.28057
-4.48842 1.74352 6.26973
-4.50557 1.74225 6.25088
-4.52074 1.73892 6.22804
-4.55174 1.74295 6.22821
-4.57778 1.74588 6.22236
-4.59592 1.74462 6.20452
-4.59311 1.73925 6.17957
-4.63994 1.74961 6.20177
-4.6452 1.7431 6.16691
-4.67423 1.74706 6.16307
-4.70226 1.75002 6.15923
-4.71643 1.74669 6.13639
-4.73753 1.74751 6.12353
-4.76359 1.74941 6.1157
-4.76572 1.74615 6.09776
-4.79177 1.74806 6.09093
-4.82377 1.75308 6.09109
-4.83299 1.74866 6.06222
-4.8541 1.74847 6.04838
-4.89006 1.75455 6.05257
-4.89418 1.75234 6.03763
-4.91528 1.75214 6.02379
-4.94431 1.7561 6.01995
-4.95154 1.75067 5.99008
-4.98255 1.75466 5.98825
-5.01357 1.75864 5.98543
-5.02179 1.75421 5.95655
-5.03185 1.7541 5.94863
-5.06187 1.75806 5.94479
-5.07703 1.75677 5.92392
-5.09318 1.75448 5.90408
-5.13015 1.76157 5.90825
-5.14035 1.75719 5.88239
-5.17236 1.76218 5.88056
-5.1956 1.75973 5.84876
-5.22265 1.76164 5.84194
-5.26388 1.76221 5.81123
-5.28399 1.763 5.79637
-5.38246 1.76616 5.73506
-5.8513 1.77287 5.35844
-5.89961 1.77428 5.31678
-5.93093 1.77168 5.27505
-5.94211 1.77034 5.25115
-0.989199 1.69848 7.08815
-1.07127 1.69939 7.07875
-1.11827 1.70042 7.07909
-1.14035 1.69928 7.06827
-1.17443 1.69815 7.05855
-1.20032 1.70238 7.07268
-1.24738 1.70229 7.06504
-1.27038 1.7033 7.06419
-1.31552 1.70006 7.04658
-1.32653 1.70004 7.04466
-1.37647 1.7052 7.05296
-1.39758 1.702 7.03917
-1.44364 1.7019 7.03052
-1.46762 1.70397 7.03367
-1.5017 1.70283 7.02294
-1.52571 1.70383 7.0221
-1.57562 1.70903 7.0334
-1.59383 1.70363 7.00562
-1.62267 1.70996 7.02674
-1.63275 1.70782 7.01685
-1.65288 1.70558 7.00003
-1.70088 1.7076 6.99936
-1.72489 1.70859 6.99753
-1.74986 1.71067 7.00169
-1.77098 1.70846 6.98688
-1.78493 1.71056 6.99295
-1.80601 1.70941 6.98213
-1.83003 1.7104 6.98029
-1.85016 1.70716 6.96349
-1.87805 1.71239 6.97763
-1.89914 1.71123 6.9658
-1.92607 1.71438 6.97496
-1.93613 1.71327 6.96705
-1.95528 1.70999 6.94724
-1.97928 1.71099 6.9464
-2.00526 1.71305 6.94957
-2.02537 1.71085 6.93475
-2.04938 1.71185 6.93392
-2.07632 1.71599 6.94206
-2.08345 1.71173 6.92418
-2.10651 1.71164 6.91735
-2.13149 1.71469 6.91949
-2.15063 1.71143 6.90168
-2.17659 1.71451 6.90583
-2.20063 1.71446 6.90101
-2.21878 1.71117 6.8812
-2.23177 1.71221 6.88328
-2.2587 1.71635 6.89142
-2.28175 1.71626 6.8846
-2.3009 1.713 6.86579
-2.35284 1.71914 6.87309
-2.37489 1.71905 6.86625
-2.38594 1.71797 6.86035
-2.40995 1.71996 6.8585
-2.43594 1.72199 6.85967
-2.4791 1.72071 6.83901
-2.5291 1.72373 6.83834
-2.5833 1.72239 6.81277
-2.81181 1.72653 6.74542
-2.83585 1.72747 6.74059
-2.85791 1.72736 6.73175
-2.87901 1.72618 6.71893
-2.90302 1.72817 6.71708
-2.92215 1.72594 6.70125
-2.94422 1.72581 6.69142
-2.95133 1.72259 6.67652
-2.97634 1.7246 6.67568
-2.99939 1.72551 6.66884
-3.02343 1.72645 6.664
-3.04354 1.72525 6.64917
-3.06364 1.72407 6.63634
-3.08963 1.7271 6.63749
-3.10483 1.72173 6.61168
-3.11488 1.72163 6.60475
-3.14186 1.7247 6.60791
-3.15803 1.72137 6.58508
-3.18305 1.72334 6.58224
-3.20806 1.72534 6.5814
-3.23505 1.72836 6.58156
-3.25909 1.72931 6.57672
-3.26816 1.72818 6.56781
-3.28925 1.72802 6.55597
-3.31032 1.72789 6.54613
-3.33928 1.73198 6.55129
-3.36038 1.7318 6.53844
-3.37752 1.72853 6.51962
-3.3925 1.73159 6.52269
-3.4126 1.7304 6.50885
-3.43959 1.73343 6.51001
-3.46265 1.73433 6.50217
-3.48669 1.73527 6.49734
-3.5068 1.73407 6.48251
-3.52788 1.73392 6.47167
-3.53891 1.73487 6.46773
-3.56493 1.73684 6.4649
-3.58996 1.7388 6.46106
-3.615 1.74074 6.45622
-3.63609 1.74058 6.44438
-4.22524 1.74973 6.15964
0.0295786 1.68044 6.7907
0.0184867 1.67727 6.77883
-0.00452774 1.67726 6.777
-0.0265735 1.67519 6.7712
-0.0484267 1.68048 6.79029
-0.0705026 1.67835 6.78048
-0.0933714 1.68262 6.7976
-0.115555 1.67628 6.77385
-0.126539 1.67732 6.77592
-0.148647 1.67313 6.76215
-0.170515 1.6784 6.77924
-0.192583 1.67628 6.77043
-0.21466 1.67315 6.76064
-0.237613 1.67525 6.76679
-0.259527 1.67843 6.77791
-0.271488 1.68051 6.78297
-0.292595 1.67632 6.76919
-0.314648 1.67523 6.76237
-0.336671 1.67421 6.75955
-0.360531 1.67949 6.77765
-0.381661 1.67525 6.76087
-0.403668 1.67526 6.76004
-0.415614 1.67737 6.7671
-0.437628 1.67735 6.76526
-0.460566 1.68049 6.77339
-0.479826 1.672 6.73966
-0.504648 1.67836 6.76275
-0.526663 1.67834 6.76092
-0.547731 1.67623 6.75211
-0.558754 1.67519 6.74921
-0.585415 1.68786 6.79322
-0.603737 1.67725 6.75151
-0.624859 1.67303 6.73573
-0.647796 1.67617 6.74386
-0.669826 1.67512 6.74004
-0.680795 1.67719 6.74409
-0.702825 1.67615 6.74027
-0.725831 1.67715 6.73943
-0.746907 1.67502 6.72962
-0.791851 1.67815 6.73692
-0.82678 1.68131 6.74613
-0.846933 1.67703 6.72635
-0.893831 1.68226 6.73962
-0.97185 1.68427 6.73718
-1.03604 1.67995 6.71273
-1.37412 1.691 6.70211
-1.57242 1.69155 6.66359
-1.7137 1.69009 6.62667
-1.90489 1.69583 6.60102
-1.95383 1.70198 6.6093
-2.02609 1.69752 6.57491
-2.08927 1.69621 6.5514
-2.12818 1.70241 6.5636
-2.15023 1.70233 6.55677
-2.21047 1.6989 6.52527
-2.25455 1.69976 6.51458
-2.26656 1.70076 6.51366
-2.28762 1.70066 6.50582
-2.33463 1.70366 6.50413
-2.35667 1.7036 6.4993
-2.39585 1.70126 6.47462
-2.40787 1.70224 6.4727
-2.45586 1.70629 6.474
-2.49505 1.70295 6.44934
-2.52102 1.70601 6.45249
-2.53815 1.70377 6.43565
-2.55897 1.71113 6.4587
-2.58299 1.7131 6.45585
-2.6153 1.70553 6.4162
-2.6954 1.70937 6.40175
-3.51187 1.71906 6.07671
-3.52586 1.72108 6.07779
-3.56504 1.72076 6.05408
-3.59301 1.72482 6.05723
-3.61112 1.72363 6.04339
-3.63417 1.72554 6.03653
-3.66215 1.72959 6.03868
-3.67712 1.73166 6.04276
-3.70214 1.73463 6.03991
-3.75219 1.73956 6.03321
-3.77524 1.74048 6.02637
-3.81837 1.74224 6.00867
-3.86563 1.74077 5.97504
-3.88275 1.73953 5.95819
-3.90482 1.74042 5.94934
-3.92194 1.73919 5.93348
-3.93511 1.73588 5.91163
-3.94911 1.73789 5.9117
-3.9603 1.73352 5.88685
-3.98731 1.73651 5.88501
-4.00838 1.7374 5.87615
-4.01464 1.7309 5.84229
-4.03176 1.72967 5.82644
-4.06271 1.73477 5.83159
-4.06386 1.73049 5.81266
-4.08197 1.73028 5.7978
-4.10699 1.73325 5.79495
-4.12313 1.731 5.7771
-4.15508 1.73711 5.78325
-4.17913 1.73903 5.7764
-4.18438 1.73256 5.74453
-4.20826 1.73978 5.75861
-4.22835 1.73962 5.74676
-4.23855 1.73524 5.7209
-4.26952 1.74132 5.72504
-4.28665 1.74008 5.70819
-4.31069 1.74201 5.70234
-4.33771 1.74498 5.6995
-4.33092 1.73857 5.67154
-4.35894 1.74256 5.66969
-4.37804 1.74236 5.65583
-4.39515 1.74115 5.64098
-4.42119 1.7441 5.63613
-4.43435 1.7418 5.61526
-4.4584 1.74371 5.60841
-4.45854 1.73943 5.58947
-4.4816 1.74133 5.58162
-4.48982 1.73692 5.55374
-4.51584 1.73988 5.54989
-4.52702 1.73655 5.52702
-4.55107 1.73946 5.52016
-4.56805 1.7415 5.52226
-4.59805 1.74652 5.52241
-4.59436 1.73791 5.48151
-4.62536 1.74194 5.48168
-4.6395 1.74067 5.4628
-4.66851 1.74467 5.46196
-4.68563 1.74443 5.44509
-4.69171 1.74329 5.43515
-4.70487 1.74099 5.41428
-4.74082 1.7481 5.42045
-4.74109 1.74057 5.38456
-4.76713 1.74351 5.37971
-4.78029 1.74121 5.35884
-4.80533 1.74414 5.35298
-4.80645 1.74091 5.33704
-4.83746 1.74591 5.3362
-4.85656 1.74672 5.32233
-4.86377 1.74233 5.29544
-4.88882 1.74524 5.28859
-4.89701 1.74088 5.26371
-4.91611 1.74168 5.24984
-4.94328 1.74138 5.22805
-4.95743 1.74009 5.20817
-4.98842 1.74511 5.20833
-5.00357 1.74384 5.18946
-5.01969 1.7436 5.17258
-5.03681 1.74338 5.15671
-5.0698 1.74942 5.15787
-5.05902 1.74199 5.1299
-5.09003 1.74699 5.12806
-5.1002 1.74365 5.10518
-5.12427 1.74654 5.09632
-5.14337 1.74734 5.08245
-5.16942 1.75027 5.0766
-5.1636 1.74492 5.05263
-5.18965 1.74783 5.04578
-5.2028 1.74654 5.0259
-5.2229 1.74737 5.01304
-5.24002 1.74714 4.99717
-5.26706 1.75107 4.99131
-5.2812 1.7498 4.97243
-5.31011 1.757 4.98455
-5.32029 1.75465 4.96065
-5.34932 1.7586 4.95581
-5.35155 1.75316 4.92591
-5.38059 1.7581 4.92105
-5.40068 1.75892 4.90819
-5.42476 1.76179 4.89833
-5.43382 1.76168 4.8904
-5.46285 1.76563 4.88556
-5.47203 1.76328 4.86166
0.0734544 1.67617 6.77443
0.0275074 1.67737 6.51572
0.0055313 1.67843 6.51887
-0.0154524 1.67948 6.52102
-0.0366137 1.67318 6.50027
-0.047513 1.67738 6.51329
-0.0695896 1.67425 6.5035
-0.0905808 1.67528 6.50464
-0.11158 1.6753 6.5048
-0.133587 1.6753 6.50397
-0.154571 1.67534 6.50612
-0.176517 1.67746 6.51326
-0.186624 1.67426 6.49938
-0.207631 1.67426 6.49854
-0.229545 1.67744 6.50966
-0.250614 1.67532 6.50085
-0.272606 1.67535 6.50201
-0.293628 1.67532 6.49917
-0.303658 1.67427 6.49526
-0.325634 1.67533 6.49841
-0.347572 1.67747 6.50655
-0.36861 1.67641 6.50172
-0.389617 1.67641 6.50088
-0.411601 1.67745 6.50303
-0.433569 1.67953 6.50716
-0.443599 1.67848 6.50326
-0.463745 1.67321 6.48448
-0.486636 1.67744 6.49859
-0.507712 1.6753 6.48878
-0.528696 1.67635 6.49093
-0.549733 1.67529 6.4861
-0.570825 1.67313 6.47429
-0.582655 1.67946 6.49629
-0.60277 1.67525 6.4815
-0.623846 1.67312 6.47169
-0.645775 1.67627 6.48081
-0.687835 1.67518 6.47314
-0.708895 1.67408 6.46531
-0.719902 1.67407 6.4644
-0.742794 1.6783 6.47851
-0.763839 1.67722 6.47268
-0.804937 1.67506 6.46002
-0.826959 1.67503 6.45719
-0.868965 1.67605 6.45649
-1.10604 1.68306 6.44717
-1.13711 1.68193 6.43742
-1.15815 1.68087 6.43259
-1.17919 1.6808 6.42675
-1.22316 1.68389 6.43104
-1.26621 1.68382 6.42436
-1.27527 1.68272 6.41745
-1.30016 1.68793 6.43056
-1.34032 1.68366 6.41092
-1.36135 1.68361 6.40608
-1.4034 1.68453 6.39938
-1.47848 1.68642 6.38892
-1.54353 1.68837 6.38238
-1.61859 1.6903 6.37491
-1.6377 1.6881 6.36009
-1.68169 1.69114 6.36138
-1.69562 1.6943 6.37144
-1.71374 1.69106 6.35462
-1.73381 1.68994 6.34578
-3.6136 1.71974 5.71342
-3.63368 1.72061 5.70355
-3.65768 1.72361 5.70269
-3.67973 1.72452 5.69584
-3.70079 1.72542 5.68799
-3.7128 1.72741 5.68705
-3.73584 1.72934 5.68119
-3.75888 1.73128 5.67634
-3.78389 1.73427 5.67448
-3.80101 1.73305 5.65863
-3.82206 1.73396 5.65177
-3.84609 1.73692 5.64791
-3.85316 1.73579 5.63897
-3.87028 1.73456 5.62312
-3.89034 1.73545 5.61426
-3.91043 1.7353 5.60341
-3.92753 1.7351 5.58954
-3.94761 1.73497 5.57969
-3.96373 1.73374 5.56383
-3.97773 1.73675 5.56389
-3.99385 1.73453 5.54804
-4.00799 1.73226 5.52918
-4.03201 1.73623 5.5263
-4.04813 1.73401 5.51045
-4.06425 1.73278 5.49459
-4.07825 1.73579 5.49465
-4.09438 1.73355 5.4778
-4.11346 1.7344 5.46693
-4.13947 1.73839 5.46507
-4.15262 1.7361 5.4452
-4.16973 1.73491 5.43134
-4.19178 1.73682 5.42448
-4.20282 1.73776 5.41955
-4.21299 1.73442 5.39667
-4.24199 1.73844 5.39683
-4.2581 1.73823 5.38195
-4.27324 1.73598 5.3641
-4.29726 1.73894 5.36024
-4.31735 1.73979 5.34937
-4.32442 1.73864 5.33944
-4.3445 1.73951 5.32958
-4.36259 1.74033 5.3167
-4.38069 1.74015 5.30384
-4.40275 1.74205 5.29597
-4.41392 1.73872 5.27311
-4.43301 1.73957 5.26224
-4.45111 1.73937 5.24837
-4.47006 1.74348 5.25446
-4.48817 1.74328 5.24059
-4.50626 1.7441 5.22771
-4.52734 1.74497 5.21786
-4.5385 1.74267 5.19697
-4.56155 1.74458 5.19012
-4.58164 1.74542 5.17826
-4.58673 1.74424 5.16631
-4.60581 1.74509 5.15544
-4.62689 1.74595 5.14459
-4.64697 1.7468 5.13372
-4.67003 1.7497 5.12585
-4.68615 1.74847 5.10999
-4.68627 1.74523 5.09404
-4.71429 1.74921 5.09119
-4.72545 1.74691 5.0703
-4.75149 1.75085 5.06544
-4.76165 1.74753 5.04356
-4.78075 1.74835 5.03069
-4.80183 1.75022 5.02082
-4.81188 1.75013 5.0139
-4.82799 1.74992 4.99902
-4.84312 1.74967 4.98214
-4.86023 1.74946 4.96727
-4.87833 1.74927 4.9534
-4.89147 1.74801 4.93552
-4.91354 1.74988 4.92566
-4.9216 1.74977 4.91772
-4.93673 1.74953 4.90083
-4.95484 1.74933 4.88697
-4.97293 1.75015 4.87409
-4.99203 1.75098 4.86122
-5.0141 1.75284 4.85136
-5.03518 1.7547 4.84049
-5.04523 1.75561 4.83455
-5.06234 1.7554 4.81968
-5.07152 1.75307 4.79678
-5.09756 1.756 4.79093
-5.10773 1.75368 4.76904
-5.12881 1.75553 4.75817
-5.15993 1.75831 4.74136
-5.17804 1.75911 4.72748
-5.21425 1.75971 4.69874
-5.92573 1.77038 3.97185
-5.93788 1.7701 3.95194
-5.94108 1.76671 3.92601
-5.94527 1.76335 3.90109
-5.96438 1.76515 3.8872
-5.96548 1.76295 3.87324
-5.96868 1.75957 3.84731
0.0694912 1.67731 6.51341
0.0484761 1.6763 6.51158
-0.332359 1.68493 6.26829
-0.35335 1.68596 6.26943
-0.394372 1.68595 6.26674
-0.414394 1.68492 6.26391
-0.467353 1.68803 6.26926
-0.487391 1.68697 6.26443
-0.507452 1.68487 6.25661
-0.528389 1.688 6.26472
-0.538497 1.6838 6.25086
-0.560396 1.68801 6.26396
-0.579479 1.68586 6.25314
-0.600448 1.68693 6.25728
-0.621447 1.68795 6.25742
-0.643392 1.69007 6.26456
-0.661584 1.68371 6.23978
-0.672506 1.68687 6.24982
-0.692597 1.6847 6.238
-0.713581 1.68575 6.24015
-0.733642 1.68365 6.23233
-0.754587 1.68676 6.23944
-0.777478 1.69199 6.25354
-0.797554 1.68885 6.24373
-0.806592 1.68779 6.23882
-0.828583 1.68882 6.23997
-0.848605 1.68879 6.23712
-0.868651 1.68771 6.23128
-0.888703 1.68662 6.22445
-0.908771 1.68551 6.21562
-0.928778 1.68551 6.21477
-0.939747 1.68757 6.21882
-0.958869 1.68335 6.20302
-0.980806 1.68648 6.21114
-1.00083 1.68645 6.20829
-1.02186 1.68641 6.20445
-1.04094 1.68426 6.19363
-1.06192 1.68632 6.19675
-1.0839 1.68737 6.19891
-1.09296 1.68626 6.19099
-1.11397 1.68626 6.19015
-1.13592 1.68936 6.19627
-1.15404 1.68614 6.18045
-1.17598 1.68927 6.18857
-1.19316 1.68394 6.16577
-1.20509 1.68607 6.17383
-1.22512 1.68603 6.16999
-1.24518 1.68492 6.16215
-1.26521 1.68488 6.1583
-1.28814 1.68903 6.16742
-1.3082 1.68792 6.15958
-1.32629 1.68576 6.14775
-1.33922 1.6889 6.1568
-1.35538 1.6836 6.136
-1.37738 1.68563 6.13713
-1.3984 1.6856 6.13429
-1.41647 1.68447 6.12444
-1.4375 1.68443 6.1206
-1.45851 1.68543 6.11975
-1.46852 1.68542 6.11882
-1.54964 1.68623 6.10242
-3.21357 1.71159 5.58451
-3.25961 1.71653 5.57878
-3.27867 1.71642 5.57092
-3.28376 1.71425 5.55899
-3.30481 1.71516 5.55214
-3.32487 1.71606 5.54427
-3.34393 1.71695 5.5364
-3.36596 1.71891 5.53254
-3.38405 1.71773 5.51969
-3.40904 1.72176 5.52082
-3.41019 1.71748 5.50189
-3.43716 1.72156 5.50603
-3.44932 1.71826 5.48517
-3.47529 1.72232 5.48831
-3.49734 1.72424 5.48144
-3.50751 1.71992 5.45958
-3.52742 1.72609 5.47064
-3.54946 1.72804 5.46578
-3.56853 1.7279 5.45592
-3.57971 1.72457 5.43305
-3.61063 1.73074 5.44319
-3.62279 1.72744 5.42233
-3.64581 1.73041 5.41946
-3.65881 1.73242 5.41953
-3.6759 1.73124 5.40667
-3.69893 1.7342 5.4028
-3.71603 1.73302 5.38995
-3.7262 1.72968 5.36707
-3.76208 1.73893 5.38221
-3.7782 1.73772 5.36734
-3.78229 1.73555 5.3554
-3.80433 1.73747 5.34954
-3.82242 1.73731 5.33768
-3.83655 1.73507 5.32082
-3.86057 1.73804 5.31795
-3.88559 1.74101 5.3151
-3.89774 1.73873 5.29522
-3.92487 1.73849 5.27842
-3.94196 1.73833 5.26655
-3.96797 1.74232 5.26469
-3.99722 1.73885 5.23196
-4.02124 1.74182 5.22909
-4.04244 1.73945 5.20329
-4.08555 1.74326 5.18855
-4.0967 1.73998 5.16868
-4.13684 1.74272 5.14994
-4.14984 1.74473 5.15001
-4.18602 1.7454 5.12627
-4.25541 1.74568 5.07478
-5.70036 1.76404 3.75521
-5.72255 1.76468 3.73037
-5.73072 1.76336 3.70844
-5.74484 1.76312 3.69155
-5.75399 1.76183 3.67164
-5.76514 1.76156 3.65272
-5.77926 1.76132 3.63583
-5.78842 1.76001 3.61492
-5.79051 1.75885 3.60395
-5.80762 1.76064 3.58905
-5.82175 1.7604 3.57216
-5.8319 1.76011 3.55223
-5.84403 1.75985 3.53433
-5.84225 1.75444 3.50639
-5.86831 1.75932 3.49751
-5.8708 1.74938 3.43367
-5.88393 1.74912 3.41577
-5.90522 1.74857 3.37793
0.0256922 1.66488 6.00985
0.00667709 1.66387 6.00801
-0.0133374 1.66385 6.00616
-0.0332678 1.666 6.01528
-0.0532823 1.66598 6.01343
-0.0732666 1.66603 6.01558
-0.0832814 1.666 6.01366
-0.103273 1.66603 6.01481
-0.122319 1.66496 6.00897
-0.142311 1.66499 6.01012
-0.16231 1.665 6.01027
-0.182301 1.66603 6.0114
-0.211339 1.66498 6.00664
-0.251338 1.66501 6.00694
-3.41003 1.71387 5.25791
-3.45802 1.7209 5.25817
-3.47116 1.71865 5.24029
-3.51931 1.72037 5.21963
-3.57353 1.72198 5.19101
-3.58667 1.71972 5.17314
-3.58878 1.7165 5.1582
-3.61378 1.71952 5.15835
-3.62791 1.71828 5.14147
-3.67296 1.72321 5.13473
-3.67916 1.71781 5.10786
-3.68721 1.71773 5.10192
-3.71616 1.72383 5.10705
-3.73522 1.72472 5.09918
-3.75231 1.72456 5.0873
-3.7694 1.72439 5.07543
-3.78154 1.72213 5.05756
-3.83267 1.7259 5.03988
-3.83887 1.72052 5.01401
-3.85695 1.72137 5.00313
-3.87503 1.72122 4.99227
-3.89112 1.72106 4.98039
-3.90821 1.72089 4.96852
-3.94424 1.72686 4.9647
-3.96331 1.72774 4.95583
-3.97346 1.72445 4.93595
-3.99352 1.72635 4.92807
-4.0116 1.7262 4.91721
-4.02967 1.72706 4.90733
-4.04268 1.72906 4.9064
-4.06076 1.72991 4.89552
-4.07289 1.72766 4.87865
-4.09593 1.73059 4.87277
-4.11896 1.73355 4.8689
-4.12317 1.72814 4.84101
-4.15611 1.73528 4.84915
-4.16218 1.73415 4.84022
-4.17431 1.73289 4.82232
-4.1914 1.73273 4.81045
-4.21245 1.73464 4.80358
-4.22856 1.73444 4.78971
-4.24663 1.73531 4.77983
-4.26076 1.73407 4.76295
-4.2698 1.735 4.758
-4.29382 1.73897 4.75513
-4.30595 1.73672 4.73725
-4.32602 1.7386 4.72837
-4.33816 1.73632 4.70949
-4.35821 1.73824 4.70261
-4.3773 1.73909 4.69174
-4.39736 1.74197 4.68285
-4.40442 1.74085 4.67492
-4.42151 1.74169 4.66303
-4.43364 1.73945 4.64616
-4.45371 1.74131 4.63628
-4.4599 1.73696 4.61239
-4.48789 1.74298 4.61251
-4.49496 1.74185 4.60358
-4.50511 1.73956 4.58368
-4.52517 1.74146 4.57581
-4.54227 1.74228 4.56292
-4.5544 1.74104 4.54603
-4.58141 1.74503 4.54417
-4.59454 1.74377 4.52629
-4.6006 1.74366 4.51833
-4.61969 1.74451 4.50746
-4.63975 1.74739 4.49857
-4.65387 1.74616 4.48269
-4.666 1.74492 4.4658
-4.68905 1.74783 4.45893
-4.70119 1.74657 4.44104
-4.70924 1.74648 4.4341
-4.73626 1.75145 4.43123
-4.74839 1.75021 4.41434
-4.76151 1.74897 4.39745
-4.78555 1.75291 4.39257
-4.79768 1.75165 4.37468
-4.81478 1.75247 4.3618
-4.82383 1.75339 4.35585
-4.83397 1.75112 4.33696
-5.46493 1.75877 3.67951
-5.47208 1.75748 3.65958
-5.47516 1.75632 3.64862
-5.48034 1.75298 3.6257
-5.49147 1.75172 3.6078
-5.51255 1.75558 3.5969
-5.51872 1.75225 3.57499
-5.53184 1.75303 3.55908
-5.54398 1.75277 3.54117
-5.54218 1.74737 3.51423
-5.55919 1.75137 3.5133
-5.56038 1.747 3.48837
-5.57649 1.74879 3.47347
-5.58266 1.74647 3.45154
-5.59378 1.74622 3.43463
-5.60393 1.74495 3.41572
-5.61308 1.74366 3.39581
0.719478 1.66599 5.97861
0.68947 1.665 5.97785
0.670532 1.66713 5.98596
0.651571 1.66822 5.99109
0.611633 1.66937 5.99937
0.591603 1.66732 5.99555
0.571618 1.66736 5.9977
0.561619 1.66737 5.99778
0.54265 1.66844 6.0019
0.521604 1.66637 5.99609
0.502658 1.66749 6.00322
0.482651 1.66749 6.00237
0.462712 1.66862 6.01051
0.453744 1.67069 6.01454
0.432698 1.66761 6.00875
0.413721 1.66867 6.01187
0.393683 1.66661 6.00705
0.373691 1.66664 6.0082
0.353699 1.66667 6.00936
0.333692 1.66667 6.00851
0.3237 1.66669 6.00958
0.303692 1.66569 6.00875
0.283724 1.66677 6.01288
0.263701 1.66574 6.01005
0.244748 1.66784 6.01616
0.223625 1.66262 6.00039
0.204718 1.66581 6.01249
0.194734 1.66685 6.01455
0.174665 1.66373 6.00575
0.15465 1.66371 6.0039
0.134682 1.66479 6.00803
0.115728 1.66589 6.01416
0.0957593 1.66696 6.0183
0.0757216 1.6659 6.01346
0.0656911 1.66485 6.00955
0.0457067 1.6649 6.0117
0.0331413 1.66382 5.80378
0.0131261 1.66281 5.80195
-0.00584194 1.66488 5.80606
-0.0248571 1.66387 5.80422
-0.0339183 1.66176 5.79632
-0.0538638 1.66387 5.80344
-0.0728789 1.66286 5.8016
-0.0918702 1.66389 5.80272
-0.11087 1.6639 5.80287
-0.129869 1.66391 5.80301
-0.149876 1.66391 5.80216
-0.158892 1.66289 5.80024
-0.216905 1.6629 5.79868
-0.235896 1.66393 5.79981
-3.1991 1.70961 5.11436
-3.27233 1.71221 5.08387
-3.28842 1.71104 5.07201
-3.30945 1.714 5.06812
-3.31849 1.71393 5.06319
-3.3415 1.71693 5.06232
-3.35758 1.71678 5.05144
-3.37761 1.71872 5.04656
-3.3947 1.71857 5.03569
-3.41276 1.71845 5.02683
-3.4328 1.72039 5.02195
-3.44579 1.72342 5.023
-3.46485 1.72431 5.01513
-3.47895 1.72311 5.00125
-3.49801 1.72401 4.99338
-3.51905 1.72595 4.98851
-3.52228 1.71851 4.95864
-3.55024 1.7246 4.96376
-3.55532 1.72244 4.95283
-3.58426 1.72958 4.96095
-3.59046 1.72319 4.93408
-3.61644 1.72825 4.93721
-3.63253 1.72808 4.92533
-3.63872 1.7227 4.89945
-3.65778 1.7236 4.89158
-3.6767 1.72976 4.90163
-3.68191 1.72337 4.87476
-3.69702 1.72317 4.86088
-3.72003 1.72616 4.85901
-3.73118 1.72287 4.83914
-3.74628 1.72269 4.82625
-3.76335 1.72255 4.81638
-3.76546 1.72035 4.80243
-3.78353 1.72123 4.79355
-3.80852 1.72524 4.79368
-3.82066 1.72299 4.7758
-3.83873 1.72387 4.76692
-3.86274 1.72785 4.76504
-3.86695 1.72146 4.73817
-3.88699 1.72438 4.73227
-3.89999 1.72638 4.73134
-3.91212 1.72415 4.71546
-3.92622 1.72395 4.70157
-3.95519 1.73003 4.7057
-3.96435 1.72571 4.68383
-3.97251 1.72241 4.66294
-3.98552 1.7244 4.66201
-4.0016 1.72525 4.65111
-4.01671 1.72406 4.63724
-4.0427 1.72907 4.63736
-4.04393 1.72263 4.60746
-4.06596 1.72559 4.60359
-4.08998 1.72956 4.60071
-4.0891 1.72532 4.58476
-4.10916 1.72722 4.57688
-4.13021 1.72913 4.57001
-4.14036 1.72686 4.55112
-4.15545 1.72667 4.53823
-4.18047 1.73166 4.53635
-4.19259 1.72942 4.51947
-4.20361 1.7314 4.51752
-4.22664 1.73434 4.51265
-4.23283 1.72999 4.48876
-4.25882 1.73501 4.48888
-4.2769 1.73586 4.47801
-4.28506 1.73255 4.45711
-4.29521 1.73028 4.43822
-4.32209 1.73952 4.45329
-4.31933 1.73105 4.42139
-4.33742 1.7319 4.41051
-4.36938 1.73998 4.41463
-4.37754 1.73667 4.39374
-4.3976 1.73857 4.38586
-4.41071 1.73836 4.37096
-4.4138 1.73618 4.35902
-4.43386 1.73808 4.35114
-4.445 1.73582 4.33325
-4.46307 1.73768 4.32336
-4.47718 1.73749 4.30947
-4.49427 1.73832 4.29758
-4.5054 1.73706 4.27968
-4.51345 1.73698 4.27374
-4.53351 1.73886 4.26486
-4.54762 1.73866 4.25097
-4.55776 1.73739 4.23206
-4.58577 1.7424 4.2312
-4.59094 1.73806 4.2083
-4.61994 1.74408 4.20843
-4.63306 1.74385 4.19253
-4.64209 1.74478 4.18758
-4.65819 1.7456 4.17469
-4.67627 1.74645 4.16381
-4.68344 1.74313 4.14191
-4.7025 1.74601 4.13301
-4.71364 1.74476 4.11511
-4.73172 1.74561 4.10424
-4.7497 1.75066 4.1073
-4.76679 1.7515 4.09541
-5.26081 1.7559 3.562
-5.27094 1.75566 3.54507
-5.28008 1.75339 3.52617
-5.28814 1.75427 3.51822
-5.30722 1.75712 3.50732
-5.31139 1.7538 3.4854
-5.31755 1.75149 3.46447
-5.33564 1.75331 3.45158
-5.3408 1.75101 3.43065
-5.34796 1.74872 3.41074
-5.357 1.74963 3.40479
-5.37012 1.75041 3.38888
-5.36932 1.74502 3.36295
-5.37348 1.74271 3.34201
-5.3866 1.74349 3.32609
-5.39176 1.74018 3.30518
-5.40786 1.74198 3.29127
0.817804 1.66463 5.75585
0.779858 1.66576 5.76312
0.712935 1.66596 5.77363
0.637037 1.66821 5.78717
0.590076 1.66832 5.79252
0.570061 1.6673 5.79069
0.551069 1.66733 5.79183
0.532084 1.66737 5.79397
0.513123 1.66846 5.7991
0.493092 1.66642 5.79528
0.474085 1.66641 5.79442
0.464062 1.66538 5.79151
0.445086 1.66544 5.79466
0.426086 1.66545 5.7948
0.407156 1.6676 5.80391
0.387087 1.66448 5.79511
0.368025 1.66137 5.78729
0.349072 1.66348 5.79341
0.33008 1.66351 5.79455
0.320072 1.6625 5.79364
0.301166 1.66669 5.80572
0.282012 1.66041 5.78596
0.263105 1.6636 5.79805
0.244113 1.66363 5.7992
0.224044 1.66051 5.79039
0.215075 1.66157 5.79445
0.196199 1.66682 5.81051
0.177138 1.66472 5.80269
0.157084 1.66163 5.79588
0.138046 1.66057 5.79104
0.119092 1.66167 5.79717
0.100124 1.66275 5.8013
0.0902865 1.67006 5.82226
0.071063 1.66065 5.79354
0.0521407 1.66381 5.80364
0.0379414 1.65847 5.64481
-0.0279796 1.66166 5.65526
-2.98656 1.70659 5.0538
-3.00559 1.70753 5.04893
-3.03054 1.71263 5.05504
-3.04268 1.71037 5.03716
-3.0716 1.71654 5.04729
-3.06484 1.70708 5.01637
-3.08684 1.7111 5.01648
-3.10293 1.70993 5.00462
-3.12591 1.71398 5.00673
-3.14397 1.71487 4.99885
-3.15807 1.71367 4.98497
-3.18403 1.71877 4.9901
-3.18615 1.71455 4.97517
-3.1973 1.71126 4.9553
-3.21436 1.71115 4.94743
-3.24921 1.72246 4.96653
-3.26628 1.72234 4.95766
-3.27445 1.718 4.93478
-3.2945 1.71893 4.92892
-3.30253 1.71886 4.92398
-3.3275 1.72394 4.92809
-3.33469 1.71857 4.90322
-3.36363 1.72571 4.91134
-3.37378 1.72242 4.89146
-3.3958 1.72539 4.88858
-3.41879 1.72943 4.88969
-3.4209 1.72521 4.87477
-3.43106 1.7219 4.85389
-3.45406 1.72592 4.85401
-3.4652 1.72265 4.83514
-3.47832 1.72043 4.82026
-3.50429 1.7255 4.82339
-3.51444 1.72222 4.80451
-3.52953 1.72204 4.79162
-3.54549 1.72613 4.79668
-3.55267 1.72079 4.77381
-3.5727 1.72373 4.76892
-3.59176 1.72464 4.76205
-3.60981 1.72554 4.75417
-3.62097 1.72325 4.73429
-3.63493 1.72632 4.73835
-3.64212 1.72097 4.71448
-3.65325 1.71871 4.69659
-3.67824 1.72374 4.69771
-3.68047 1.7163 4.66783
-3.70545 1.72135 4.66994
-3.73144 1.7264 4.67206
-3.72562 1.71904 4.64812
-3.7427 1.71989 4.63724
-3.76472 1.72287 4.63536
-3.77783 1.72166 4.62048
-3.78896 1.7194 4.60259
-3.80703 1.72028 4.59371
-3.82213 1.7201 4.58083
-3.8272 1.71897 4.57188
-3.85318 1.72402 4.574
-3.85738 1.71864 4.54811
-3.87644 1.72053 4.54022
-3.89549 1.72143 4.53235
-3.91157 1.72229 4.52246
-3.92469 1.72106 4.50657
-3.93768 1.72409 4.50763
-3.94782 1.72083 4.48975
-3.96688 1.72272 4.48186
-3.99089 1.72671 4.47999
-3.99706 1.72238 4.45709
-4.01513 1.72425 4.4482
-4.04311 1.7293 4.45034
-4.03827 1.72399 4.42938
-4.05435 1.72384 4.4185
-4.07143 1.7247 4.40861
-4.08355 1.72348 4.39272
-4.09963 1.72432 4.38183
-4.11671 1.72517 4.37094
-4.13776 1.7281 4.36506
-4.13787 1.72388 4.35012
-4.16584 1.73094 4.35322
-4.17003 1.72558 4.32833
-4.19009 1.72749 4.32145
-4.20221 1.72626 4.30556
-4.22821 1.73126 4.30468
-4.23636 1.72897 4.28478
-4.25939 1.73293 4.28089
-4.26843 1.73286 4.27596
-4.27459 1.72954 4.25405
-4.2887 1.72934 4.24016
-4.31867 1.73641 4.24328
-4.32286 1.73104 4.21839
-4.3439 1.73397 4.2125
-4.35404 1.73171 4.19461
-4.36307 1.73266 4.19066
-4.38511 1.73658 4.18477
-4.39724 1.73534 4.16788
-4.42126 1.73931 4.165
-4.43735 1.74015 4.15311
-4.44947 1.73892 4.13721
-4.44958 1.73571 4.12326
-4.46467 1.73655 4.11136
-4.48969 1.7405 4.10749
-4.50181 1.74029 4.09258
-4.51592 1.74008 4.07769
-4.53003 1.73988 4.0638
-4.5471 1.74175 4.0539
-4.54721 1.73854 4.03994
-4.56826 1.74144 4.03206
-4.58534 1.7423 4.02217
-4.59945 1.74209 4.00728
-4.61852 1.74497 3.99838
-4.63857 1.74686 3.9905
-4.65368 1.74767 3.9766
-4.66172 1.74858 3.97065
-4.72113 1.74983 3.91707
-5.21627 1.755 3.36765
-5.23852 1.75453 3.33482
-5.24865 1.75428 3.31789
-5.25679 1.75301 3.29897
-5.26693 1.75175 3.28106
-5.27209 1.74944 3.26013
-5.27217 1.74728 3.24917
-5.27932 1.74499 3.22925
-5.29343 1.74677 3.21433
-5.30058 1.7445 3.19541
-5.31071 1.74425 3.17849
-5.31686 1.74196 3.15857
-5.31894 1.7408 3.1476
-5.32608 1.73953 3.12867
0.97948 1.66092 5.57967
0.92038 1.65477 5.5672
0.905565 1.66114 5.59122
0.886557 1.66014 5.59038
0.877596 1.66122 5.59543
0.858573 1.66019 5.59259
0.84065 1.66235 5.60269
0.82165 1.66136 5.60285
0.801597 1.65927 5.59603
0.783651 1.66039 5.60315
0.767782 1.66465 5.62021
0.757789 1.66468 5.62129
0.738751 1.66262 5.61646
0.718705 1.66054 5.61064
0.700767 1.66167 5.61876
0.681713 1.65958 5.61193
0.662744 1.65966 5.61608
0.643729 1.65864 5.61423
0.625753 1.6597 5.61735
0.615745 1.65869 5.61645
0.598822 1.66085 5.62654
0.580892 1.664 5.63563
0.560815 1.65986 5.62584
0.541784 1.65782 5.62202
0.523869 1.66099 5.63311
0.513815 1.6589 5.62621
0.495862 1.66 5.63233
0.476839 1.65897 5.62949
0.458909 1.66112 5.63859
0.440979 1.66426 5.64768
0.419755 1.65385 5.61899
0.401848 1.65804 5.63107
0.392871 1.65809 5.63414
0.373925 1.66021 5.64125
0.355918 1.66021 5.64038
0.336927 1.66023 5.64153
0.317919 1.65923 5.64068
0.29995 1.66031 5.6448
0.280943 1.66031 5.64395
0.271966 1.66036 5.64701
0.252982 1.6614 5.64914
0.235075 1.66459 5.66123
0.214936 1.65834 5.64347
0.197014 1.6615 5.65356
0.177945 1.65838 5.64475
0.15893 1.65836 5.6429
0.1501 1.6647 5.66487
0.112939 1.65841 5.64424
0.0939548 1.65846 5.64638
0.0749554 1.65847 5.64653
0.0364872 1.66759 5.45065
0.0185574 1.67074 5.45974
0.00944156 1.66553 5.44489
-0.00844183 1.67076 5.45995
-0.0265034 1.66765 5.45213
-0.0444565 1.66976 5.45823
-0.0625639 1.66556 5.44443
-0.0813318 1.67502 5.47444
-0.0985547 1.6666 5.44569
-0.108477 1.66976 5.45572
-0.126484 1.66976 5.45485
-0.144499 1.66874 5.453
-0.16256 1.66664 5.44517
-0.181359 1.67503 5.47119
-0.198559 1.66666 5.44544
-0.21652 1.66875 5.45054
-0.22555 1.6677 5.44663
-0.243558 1.66769 5.44576
-0.261534 1.66875 5.44888
-0.279602 1.66663 5.44005
-0.298478 1.67188 5.45612
-0.315648 1.66457 5.43435
-0.334492 1.67188 5.45439
-0.342616 1.66665 5.43852
-0.360623 1.66665 5.43766
-0.37863 1.66664 5.43679
-0.395698 1.66452 5.42795
-0.415566 1.67079 5.44501
-0.433619 1.6687 5.43818
-0.441635 1.66768 5.43625
-0.460618 1.66972 5.43837
-0.479571 1.67182 5.44448
-0.514654 1.66968 5.43377
-0.5317 1.66761 5.42793
-0.560582 1.67385 5.44306
-0.579566 1.67489 5.44519
-0.595704 1.66964 5.42738
-0.613734 1.66959 5.42352
-0.630764 1.66855 5.41966
-0.650687 1.67171 5.42977
-0.677731 1.67164 5.42397
-0.730805 1.67053 5.41439
-2.89411 1.70747 4.84706
-2.93936 1.70501 4.81443
-2.95839 1.70697 4.81055
-2.98842 1.71091 4.80571
-2.99659 1.7056 4.78385
-3.02352 1.71173 4.79196
-3.04157 1.71366 4.78607
-3.0517 1.7104 4.76819
-3.06876 1.71029 4.76032
-3.0926 1.72062 4.78135
-3.0988 1.71424 4.75549
-3.11783 1.71618 4.7506
-3.13589 1.71709 4.74372
-3.14898 1.71591 4.73084
-3.16901 1.71786 4.72696
-3.18706 1.71877 4.72008
-3.19806 1.72078 4.72013
-3.20622 1.71647 4.69926
-3.22724 1.71944 4.69637
-3.24036 1.71723 4.6815
-3.2673 1.72335 4.68861
-3.27744 1.72009 4.67074
-3.29154 1.71891 4.65786
-3.29067 1.71465 4.63991
-3.32553 1.72494 4.65802
-3.32282 1.71437 4.62016
-3.3468 1.71942 4.62226
-3.37079 1.72447 4.62437
-3.36213 1.7108 4.5795
-3.38921 1.71267 4.56967
-3.41913 1.72084 4.57978
-3.4535 1.71414 4.53113
-3.49356 1.71803 4.52237
-3.49368 1.71481 4.50742
-3.51667 1.71883 4.50753
-3.52979 1.71761 4.49265
-3.54684 1.71851 4.48476
-3.55995 1.71731 4.47088
-3.57107 1.71508 4.45499
-3.58605 1.71914 4.45805
-3.59914 1.71797 4.44616
-3.62017 1.72092 4.44227
-3.62337 1.71453 4.41539
-3.64538 1.71851 4.4135
-3.67236 1.72458 4.41661
-3.67456 1.71818 4.38972
-3.6925 1.72331 4.39778
-3.7066 1.72213 4.3849
-3.71376 1.71882 4.364
-3.73181 1.72073 4.35711
-3.75185 1.72266 4.35123
-3.75802 1.71834 4.32934
-3.78005 1.72129 4.32546
-3.78709 1.72121 4.31951
-3.80514 1.72312 4.31262
-3.81726 1.7219 4.29772
-3.83234 1.72275 4.28682
-3.85238 1.72468 4.28095
-3.86054 1.72139 4.26105
-3.88256 1.72436 4.25817
-3.88872 1.72105 4.23727
-3.89576 1.72097 4.23132
-3.91481 1.72288 4.22443
-3.93486 1.72579 4.21754
-3.94598 1.72358 4.20266
-3.96305 1.72544 4.19276
-3.97318 1.7232 4.17586
-3.99321 1.72614 4.17097
-4.00324 1.72708 4.16703
-4.02229 1.72899 4.16015
-4.03143 1.72673 4.14224
-4.05544 1.73172 4.14035
-4.07052 1.73157 4.12947
-4.07371 1.72722 4.10555
-4.08274 1.72715 4.10062
-4.10576 1.73112 4.09773
-4.11093 1.7278 4.07582
-4.14189 1.7349 4.08095
-4.15599 1.73471 4.06806
-4.16611 1.73347 4.05115
-4.18318 1.73435 4.04226
-4.19519 1.73733 4.04031
-4.21028 1.73716 4.02842
-4.21744 1.73387 4.00852
-4.23351 1.73573 3.99861
-4.25058 1.7366 3.98873
-4.26468 1.73642 3.97584
-4.28175 1.73828 3.96594
-4.29674 1.74232 3.96799
-4.30984 1.74212 3.95409
-4.31501 1.7378 3.93219
-4.3301 1.73863 3.92029
-4.35114 1.74156 3.9144
-4.36326 1.74135 3.8995
-4.37239 1.73909 3.88159
-4.39036 1.74416 3.88566
-4.40346 1.74396 3.87176
-4.41359 1.74272 3.85485
-4.44079 1.74235 3.82905
-5.01255 1.74835 3.19719
-5.02666 1.74915 3.18328
-5.04076 1.74995 3.16937
-5.05287 1.75076 3.15545
-5.05197 1.74756 3.14249
-5.06309 1.74733 3.12657
-5.06625 1.74503 3.10563
-5.08134 1.74584 3.09273
-5.09047 1.7456 3.0758
-5.09164 1.74127 3.05387
-5.10972 1.74412 3.04296
-5.11179 1.74298 3.03299
-5.12291 1.74275 3.01708
-5.12309 1.73841 2.99414
-5.1352 1.7392 2.97922
-5.13935 1.7369 2.95928
0.506346 1.667 5.43012
0.487346 1.66701 5.43026
0.461385 1.66811 5.43544
0.443424 1.66919 5.44056
0.42544 1.66924 5.4427
0.388425 1.66823 5.44099
0.370449 1.66929 5.44411
0.362495 1.67039 5.45016
0.343465 1.66934 5.44632
0.325426 1.66728 5.44148
0.308535 1.6715 5.45555
0.289496 1.66944 5.45072
0.271566 1.67159 5.45983
0.253482 1.66844 5.44901
0.244466 1.66741 5.44709
0.226506 1.6695 5.45219
0.208475 1.66745 5.44836
0.190615 1.67373 5.4664
0.17253 1.66958 5.4556
0.154476 1.66749 5.44877
0.136554 1.67065 5.45886
0.126477 1.66751 5.44898
0.108454 1.66648 5.44613
0.0904392 1.66547 5.44428
0.0724554 1.66651 5.4464
0.0545331 1.66967 5.45649
-0.0346259 1.67744 5.30202
-0.0437179 1.67427 5.29014
-0.0786937 1.67534 5.29339
-0.0966317 1.67747 5.30149
-0.114623 1.6785 5.30261
-0.140684 1.6764 5.29484
-0.158645 1.67748 5.29996
-0.175683 1.67642 5.2951
-0.193659 1.67748 5.29822
-0.21072 1.67537 5.29038
-0.24575 1.67434 5.28666
-0.254687 1.67747 5.29468
-0.272625 1.6806 5.30277
-0.289764 1.67434 5.28499
-0.307685 1.6785 5.29506
-0.324723 1.67744 5.29021
-0.342746 1.67641 5.28736
-0.360691 1.67953 5.29445
-0.369714 1.67849 5.29153
-0.387674 1.68058 5.29664
-0.404673 1.68159 5.29675
-0.422696 1.68056 5.2939
-0.439749 1.67847 5.28706
-0.457679 1.68261 5.29613
-0.474778 1.67843 5.28332
-0.484678 1.68263 5.29634
-0.501723 1.68156 5.29048
-0.518745 1.68152 5.28761
-0.537698 1.68363 5.29372
-0.553813 1.67942 5.2789
-0.572712 1.68462 5.29197
-0.587951 1.67418 5.26124
-0.605888 1.67731 5.26932
-0.61488 1.67833 5.27038
-0.632879 1.67934 5.2705
-0.649909 1.67829 5.26664
-0.666947 1.67723 5.26179
-0.68493 1.67927 5.26389
-0.702906 1.68133 5.267
-0.711929 1.68029 5.26408
-0.728959 1.67925 5.26022
-0.745989 1.6792 5.25635
-0.764933 1.68232 5.26345
-0.782002 1.6802 5.25461
-0.799017 1.68018 5.25274
-0.817008 1.68121 5.25386
-0.824092 1.67805 5.24295
-0.842084 1.67908 5.24407
-0.861029 1.6822 5.25117
-0.878097 1.68107 5.24232
-0.895142 1.679 5.23647
-0.911195 1.67791 5.22961
-0.928233 1.67685 5.22475
-0.93724 1.67684 5.22382
-0.955224 1.67888 5.22593
-0.972261 1.67882 5.22106
-0.989314 1.67673 5.21421
-1.0073 1.67877 5.21632
-1.02532 1.67874 5.21346
-1.04233 1.67974 5.21257
-1.0494 1.67659 5.20267
-1.06647 1.67547 5.19381
-1.08445 1.67651 5.19593
-1.10149 1.67645 5.19106
-1.11948 1.6785 5.19317
-1.1365 1.67845 5.18929
-1.15451 1.67845 5.18843
-1.17154 1.6784 5.18456
-1.17959 1.67732 5.17863
-1.19953 1.68143 5.18572
-1.24966 1.67922 5.16913
-1.2667 1.67814 5.16328
-1.27472 1.67812 5.16134
-1.29273 1.6791 5.15946
-1.30977 1.67904 5.15459
-1.32874 1.68111 5.1587
-1.34576 1.68208 5.15581
-1.37888 1.67987 5.14009
-1.38788 1.67988 5.14016
-1.40492 1.67981 5.13529
-1.44091 1.68284 5.13552
-1.45601 1.68067 5.12366
-1.49202 1.68267 5.1219
-1.53608 1.68357 5.11322
-1.55213 1.68349 5.10734
-1.57016 1.68345 5.10348
-1.5872 1.68338 5.0986
-1.61421 1.68537 5.09678
-1.71446 1.68494 5.06354
-1.72544 1.686 5.0666
-1.77948 1.68995 5.06095
-1.79456 1.68881 5.05108
-1.82862 1.6887 5.04234
-1.8347 1.68656 5.03241
-1.85274 1.6875 5.02753
-1.87171 1.69055 5.03063
-1.88681 1.68737 5.01779
-1.90677 1.69146 5.02288
-1.9238 1.69241 5.019
-1.93987 1.69028 5.00915
-1.94691 1.69021 5.0042
-1.96689 1.69327 5.00731
-2.01604 1.69199 4.98669
-2.0331 1.6919 4.97982
-2.0611 1.69491 4.97899
-2.07423 1.69166 4.96213
-2.09421 1.69471 4.96424
-2.10929 1.69257 4.95438
-2.12436 1.69245 4.9455
-2.14042 1.69134 4.93763
-2.16335 1.69749 4.94671
-2.1704 1.69539 4.9398
-2.18547 1.69527 4.93091
-2.20939 1.70042 4.94002
-2.2225 1.69822 4.92615
-2.23758 1.69707 4.91528
-2.25266 1.69494 4.90542
-2.26773 1.69481 4.89653
-2.27773 1.69581 4.89559
-2.29968 1.70092 4.90269
-2.31278 1.69773 4.88883
-2.32983 1.69865 4.88294
-2.35475 1.70482 4.89304
-2.36096 1.69741 4.86519
-2.3849 1.70254 4.8733
-2.39096 1.70143 4.86536
-2.40505 1.69926 4.8535
-2.42111 1.69915 4.84562
-2.44405 1.70529 4.8537
-2.47324 1.70194 4.82897
-2.49224 1.70394 4.82808
-2.49239 1.69866 4.80916
-2.51339 1.70167 4.80927
-2.53042 1.70263 4.80538
-2.54648 1.70252 4.79751
-2.55663 1.69823 4.77764
-2.57761 1.70128 4.77976
-2.59172 1.70008 4.76588
-2.59875 1.69901 4.76095
-2.61777 1.70099 4.75906
-2.6358 1.70293 4.75417
-2.64988 1.70179 4.74429
-2.67285 1.70586 4.7474
-2.68201 1.70157 4.72753
-2.702 1.70458 4.72764
-2.70806 1.70347 4.7197
-2.72314 1.70233 4.70983
-2.74215 1.70531 4.70793
-2.7602 1.70624 4.70205
-2.77725 1.70615 4.69518
-2.7864 1.70186 4.67531
-2.81429 1.71108 4.68938
-2.81543 1.70582 4.67147
-2.8305 1.7057 4.66258
-2.84755 1.70561 4.65571
-2.86163 1.70545 4.64482
-2.8846 1.71053 4.64891
-2.89968 1.70938 4.63804
-2.92165 1.71344 4.64115
-2.92673 1.71229 4.6312
-2.93489 1.70699 4.61034
-2.95096 1.70687 4.60146
-2.96504 1.70671 4.59057
-2.98406 1.70868 4.58768
-3.00408 1.71165 4.58479
-3.02212 1.71259 4.57991
-3.03509 1.71566 4.58396
-3.05608 1.71967 4.58406
-3.06326 1.71434 4.56119
-3.08623 1.7194 4.56429
-3.09637 1.71614 4.54641
-3.11343 1.71704 4.53853
-3.1285 1.7169 4.52864
-3.14642 1.72307 4.53969
-3.15655 1.71982 4.52181
-3.16965 1.71763 4.50894
-3.18473 1.7175 4.49905
-3.20376 1.72045 4.49515
-3.21883 1.72031 4.48527
-3.23477 1.72543 4.49231
-3.24787 1.72424 4.47942
-3.26789 1.72721 4.47653
-3.28494 1.72812 4.46965
-3.29904 1.72696 4.45777
-3.3062 1.72265 4.43688
