-2.86561 1.68858 5.0525
-2.89367 1.69046 5.04368
-2.9127 1.69142 5.03981
-2.93075 1.69233 5.03293
-2.94979 1.69427 5.02805
-2.96489 1.69209 5.01519
-2.98294 1.693 5.00831
-3.0079 1.69809 5.01343
-3.022 1.69691 5.00055
-3.03103 1.69684 4.99562
-3.04612 1.69569 4.98475
-3.06516 1.69761 4.97886
-3.08321 1.69852 4.97198
-3.10621 1.70154 4.97211
-3.11735 1.69828 4.95424
-3.13738 1.70022 4.94936
-3.15036 1.70327 4.95242
-3.16643 1.70314 4.94254
-3.18151 1.70198 4.93167
-3.20353 1.70497 4.92979
-5.4859 1.65844 2.36832
-5.49918 1.65691 2.33144
-5.51428 1.65871 2.31752
-5.52539 1.65949 2.30259
-5.50962 1.65105 2.27359
-5.52771 1.65487 2.26067
-5.54074 1.65682 2.25674
-5.53094 1.65143 2.23074
-5.53209 1.64814 2.2108
-5.5492 1.65094 2.19688
-5.53042 1.6425 2.16786
-5.54652 1.64531 2.15394
-5.57159 1.65019 2.14506
-5.55872 1.64493 2.12803
-5.56585 1.64468 2.11109
-5.56601 1.64137 2.09014
-5.56317 1.63804 2.06816
-5.57844 1.63754 2.03328
4.05437 1.64416 4.09689
4.04954 1.64848 4.11887
4.0436 1.64861 4.12691
4.02364 1.64571 4.13311
4.02083 1.65108 4.15805
3.99987 1.64917 4.16324
3.98597 1.64937 4.17634
3.98013 1.65269 4.19734
3.95513 1.64772 4.1986
3.95322 1.65089 4.20957
3.94032 1.6511 4.22367
3.9355 1.65545 4.24664
3.91251 1.65149 4.24888
3.90567 1.65581 4.26987
3.8837 1.65187 4.27309
3.87888 1.65723 4.29705
3.87293 1.65734 4.30409
3.85398 1.65544 4.31027
3.83907 1.65563 4.32238
3.8292 1.6579 4.34042
3.81227 1.65705 4.34956
3.79636 1.65722 4.36068
3.78548 1.65847 4.37675
3.77651 1.65853 4.38081
3.7626 1.65872 4.39292
3.76081 1.66514 4.42084
3.73581 1.66115 4.42109
3.72493 1.6624 4.43715
3.71709 1.66672 4.45815
3.70015 1.66585 4.46629
3.69725 1.66803 4.47828
3.68537 1.67027 4.49434
3.66944 1.66943 4.50448
3.65858 1.67171 4.52253
3.64164 1.67084 4.53067
2.3116 1.69343 5.32546
2.29161 1.69147 5.32764
2.25672 1.6917 5.34191
2.23267 1.68762 5.33515
2.22879 1.69186 5.35111
2.20676 1.68782 5.34734
2.19289 1.69208 5.36438
2.17799 1.69429 5.37847
2.15391 1.68815 5.36774
2.13597 1.68928 5.37586
2.12106 1.69047 5.38795
2.10903 1.68842 5.38407
2.08801 1.68541 5.38228
2.07107 1.68654 5.39039
2.05007 1.68454 5.38957
2.03007 1.68257 5.39075
2.0162 1.68583 5.40781
1.99314 1.68173 5.40005
1.97416 1.68077 5.4022
1.96723 1.68191 5.41124
1.94622 1.67991 5.41043
-2.47415 1.68626 4.97958
-2.50727 1.68604 4.96383
-2.57744 1.68874 4.94031
-2.58253 1.68658 4.92938
-2.5976 1.68544 4.91951
-2.6186 1.68846 4.91962
-2.62875 1.68417 4.89976
-2.65368 1.69032 4.90886
-2.67173 1.69023 4.902
-2.68878 1.69114 4.89511
-2.69385 1.68901 4.88618
-2.71977 1.69617 4.89627
-2.73191 1.69292 4.87841
-2.75192 1.6949 4.87653
-2.76502 1.69272 4.86366
-2.78504 1.69569 4.86076
-2.79125 1.68829 4.83392
-2.82 1.70179 4.86594
-2.82325 1.69332 4.83408
-2.84917 1.69947 4.84319
-2.88328 1.70129 4.82942
-2.90132 1.70221 4.82354
-2.92346 1.70096 4.80572
-5.33561 1.65697 2.14018
-5.33278 1.65264 2.11822
-5.33292 1.65036 2.09925
-5.33707 1.64909 2.0803
-5.33622 1.64579 2.06034
-5.3373 1.64464 2.05036
-5.34841 1.64543 2.03543
-5.34856 1.64313 2.01546
-5.34871 1.63985 1.99651
-5.35982 1.64162 1.98056
-5.36894 1.64139 1.96463
-5.36311 1.63706 1.94265
-5.37416 1.63898 1.9367
-5.37231 1.63568 1.91674
-5.37859 1.63314 1.87982
3.90011 1.64378 3.93004
3.88317 1.64191 3.9382
3.84637 1.64134 3.96549
3.83749 1.64358 3.98152
3.82258 1.64275 3.99265
3.80968 1.64396 4.00573
3.80181 1.64623 4.02376
3.79194 1.64847 4.0398
3.78396 1.64754 4.04387
3.77006 1.64773 4.05598
3.74807 1.64377 4.0582
3.74122 1.64807 4.07819
3.73236 1.65034 4.09623
3.71743 1.6495 4.10635
3.71149 1.65061 4.11338
3.68849 1.64563 4.11363
3.68871 1.65306 4.14252
3.68288 1.65839 4.16449
3.65482 1.6503 4.15782
3.6298 1.64529 4.15608
3.62599 1.65065 4.18004
3.62105 1.65177 4.18806
3.60713 1.65195 4.19916
3.59525 1.65318 4.21424
3.57628 1.65127 4.21941
3.56743 1.65455 4.23843
3.5626 1.6599 4.26139
3.5406 1.65491 4.26163
3.53972 1.65913 4.27657
3.52478 1.65828 4.2857
3.51088 1.65948 4.29879
3.49595 1.65863 4.30792
3.4871 1.66191 4.32694
3.47823 1.66519 4.34496
3.45927 1.66327 4.35013
3.45636 1.66544 4.36112
3.4465 1.66873 4.38015
3.42956 1.66786 4.38829
3.40578 1.6713 4.41742
2.07231 1.68805 5.15532
2.0564 1.69024 5.16741
2.03739 1.68824 5.16658
2.02147 1.6894 5.17669
2.01249 1.68945 5.17976
1.99351 1.68851 5.18291
1.97451 1.68653 5.18309
1.95857 1.68766 5.19119
1.94267 1.68885 5.20329
1.92161 1.68476 5.19651
1.90467 1.68589 5.20462
1.89773 1.68801 5.21265
1.87875 1.68606 5.21482
1.85975 1.68507 5.21498
1.84382 1.68623 5.22508
1.82277 1.68214 5.2183
1.80481 1.68223 5.22343
1.78682 1.68027 5.2256
1.77888 1.68238 5.23263
1.7609 1.68144 5.23578
1.746 1.68364 5.24886
1.72495 1.68057 5.24306
1.70904 1.68274 5.25415
1.69311 1.68389 5.26326
1.67513 1.68294 5.26641
1.66512 1.68194 5.2655
1.64613 1.68097 5.26665
1.63124 1.6842 5.28172
1.61224 1.6822 5.28089
1.5963 1.68334 5.29
1.57833 1.6834 5.29313
1.55726 1.6793 5.28535
1.55035 1.68146 5.29637
1.52927 1.67733 5.28659
1.51439 1.68058 5.30266
1.49746 1.68171 5.31077
1.47639 1.67761 5.30299
1.45942 1.67768 5.30711
1.45046 1.67875 5.31117
1.36365 1.68019 5.3378
1.34671 1.68131 5.34492
1.3177 1.67932 5.34416
1.30178 1.68148 5.35425
1.15105 1.6831 5.39037
-1.85079 1.68554 5.0249
-1.88389 1.68536 5.01115
-1.89995 1.68425 5.00328
-1.90993 1.6863 5.00633
-1.92599 1.6852 4.99847
-1.97516 1.68389 4.97585
-1.99121 1.68382 4.96997
-2.00824 1.68475 4.96509
-2.01823 1.68578 4.96615
-2.03626 1.68674 4.96327
-2.05133 1.68561 4.9534
-2.06935 1.68658 4.95052
-2.08835 1.68959 4.95062
-2.10147 1.68636 4.93476
-2.11949 1.68733 4.93188
-2.12849 1.68834 4.93194
-2.14161 1.68513 4.91708
-2.16159 1.68817 4.91919
-2.18157 1.69121 4.92129
-2.19862 1.69214 4.91541
-2.2078 1.68579 4.89157
-2.22581 1.68677 4.88969
-2.23581 1.68878 4.88973
-2.25286 1.6887 4.88386
-2.2748 1.69382 4.89095
-2.28399 1.68746 4.86611
-2.30103 1.6884 4.86122
-2.32397 1.69353 4.86932
-2.33511 1.68926 4.85047
-2.34805 1.69339 4.85851
-2.36904 1.69642 4.85962
-2.38509 1.69632 4.85274
-2.39426 1.69101 4.83088
-2.41819 1.69714 4.83898
-2.42736 1.69182 4.81712
-2.44735 1.69485 4.81823
-2.45933 1.6969 4.82129
-2.47047 1.69365 4.80342
-2.4934 1.69878 4.81151
-2.50849 1.69761 4.79964
-2.52159 1.69543 4.78677
-2.53469 1.69325 4.7739
-2.55962 1.7004 4.78298
-2.56174 1.69516 4.76708
-2.61483 1.70001 4.7544
-2.70119 1.69836 4.70707
-5.23664 1.65092 1.87048
-5.24177 1.64967 1.85354
-5.24092 1.64737 1.83356
-5.25096 1.64931 1.82861
-5.2541 1.64804 1.81065
-5.25026 1.64373 1.78968
-5.24642 1.63942 1.76871
-5.24556 1.63713 1.74974
-5.26166 1.63995 1.73682
-5.25881 1.63665 1.71684
-5.25988 1.63552 1.70786
-5.266 1.63529 1.69191
-5.27412 1.63606 1.67596
-5.27327 1.63376 1.65598
-5.26543 1.62845 1.635
-5.27654 1.63023 1.62006
-5.27569 1.62695 1.60109
3.78397 1.64163 3.77993
3.77408 1.64284 3.79398
3.76016 1.643 3.80409
3.74019 1.63909 3.8093
3.73938 1.64545 3.83321
3.72142 1.64355 3.83938
3.72254 1.64677 3.85432
3.7066 1.6459 3.86246
3.69772 1.64814 3.87849
3.67775 1.64523 3.88369
3.66181 1.64436 3.89182
3.64789 1.64352 3.90194
3.63094 1.64164 3.9091
3.62802 1.64379 3.91909
3.62319 1.64811 3.94106
3.60119 1.64415 3.94229
3.58928 1.64533 3.95436
3.58344 1.64863 3.97436
3.55842 1.64362 3.97262
3.55359 1.64795 3.9946
3.54763 1.64803 3.99964
3.53169 1.64716 4.00778
3.51475 1.64629 4.01592
3.51092 1.65063 4.03888
3.49094 1.64768 4.04108
3.48005 1.64991 4.05613
3.47623 1.65425 4.0791
3.45311 1.64604 4.06439
3.44727 1.65036 4.08537
3.43436 1.65155 4.09746
3.42347 1.65276 4.11152
3.40652 1.65188 4.11866
3.39765 1.65414 4.1357
3.38272 1.65428 4.14481
3.3697 1.65126 4.14295
3.36689 1.65763 4.16788
3.34893 1.65472 4.17306
3.34309 1.65903 4.19405
3.32514 1.65814 4.2002
3.31627 1.66141 4.21822
3.30133 1.66054 4.22634
3.30045 1.66476 4.24129
3.28248 1.66183 4.24547
3.27564 1.66715 4.26644
3.24477 1.66542 4.2837
3.22782 1.66454 4.29085
3.21503 1.66996 4.31887
1.68089 1.6915 5.10121
1.62795 1.68965 5.10964
1.57012 1.69202 5.13204
1.52903 1.68387 5.12047
1.51616 1.68813 5.13751
1.5023 1.69341 5.15554
1.48017 1.68619 5.13981
1.47119 1.68623 5.14188
1.45938 1.6936 5.16686
1.4383 1.68847 5.15709
1.42236 1.6896 5.1652
1.40643 1.69073 5.1733
1.38534 1.68559 5.16254
1.36633 1.68458 5.16169
1.35142 1.68676 5.17278
1.34141 1.68575 5.17187
1.32547 1.68688 5.17997
1.31263 1.69319 5.19998
1.28949 1.68494 5.18227
1.27356 1.68708 5.19136
1.25762 1.68821 5.19946
1.23653 1.68306 5.1887
1.22755 1.6831 5.19077
1.21162 1.68524 5.19986
1.19569 1.68739 5.20894
1.17665 1.68433 5.20413
1.16073 1.6865 5.21522
1.13858 1.67924 5.19649
1.1327 1.68347 5.21148
1.11471 1.68349 5.21261
1.09876 1.68461 5.21972
1.08182 1.68572 5.22683
1.06484 1.68578 5.22996
1.04789 1.68688 5.23607
1.02886 1.68485 5.23324
1.0188 1.68174 5.22536
1.00082 1.6818 5.2285
0.983846 1.68186 5.23163
0.966869 1.68191 5.23475
0.929846 1.67889 5.23208
0.912877 1.67997 5.23619
0.9049 1.68002 5.23925
0.886892 1.67902 5.2384
0.871001 1.68323 5.25246
0.851939 1.67913 5.24466
0.835001 1.68126 5.25276
0.819078 1.68342 5.26285
0.798993 1.67927 5.25206
0.792062 1.68141 5.26108
0.773032 1.68036 5.25724
0.74014 1.6836 5.27144
0.669148 1.68066 5.27302
0.660186 1.68174 5.27807
0.64214 1.67967 5.27224
0.625187 1.68077 5.27835
0.590226 1.68187 5.2836
0.563234 1.6809 5.28482
0.511258 1.68098 5.28821
0.476305 1.6821 5.29445
-2.37507 1.67845 4.59189
-2.42124 1.67815 4.56924
-2.4584 1.67686 4.54854
-2.47247 1.67672 4.53864
-2.50752 1.67965 4.53186
-2.52568 1.67635 4.51105
-2.54764 1.68144 4.51614
-2.55876 1.67821 4.50027
-2.57481 1.67812 4.49339
-2.60592 1.67893 4.47961
-2.62788 1.68402 4.4847
-2.62999 1.6798 4.46978
-2.64307 1.67865 4.45889
-2.66503 1.68374 4.46398
-2.66926 1.67531 4.43513
-2.69023 1.68037 4.43822
-2.70529 1.68026 4.43033
-2.71542 1.67702 4.41345
-2.72936 1.68113 4.4205
-2.74443 1.68101 4.41161
-2.75554 1.6788 4.39673
-2.77553 1.68183 4.39783
-2.79751 1.68689 4.40092
-2.80567 1.68158 4.38006
-2.82368 1.68457 4.37815
-2.83369 1.68556 4.37721
-2.84381 1.68333 4.36132
-2.87171 1.69153 4.37341
-2.88184 1.6883 4.35753
-2.89394 1.6861 4.34365
-2.91493 1.69013 4.34475
-2.93295 1.6931 4.34184
-2.93209 1.68783 4.32391
-2.95111 1.6898 4.32103
-2.98518 1.69268 4.31124
-4.97888 1.65224 1.97054
-4.98615 1.64873 1.93564
-4.99824 1.65054 1.9227
-4.99839 1.64826 1.90373
-5.00152 1.64601 1.88679
-5.00358 1.64588 1.8778
-5.00472 1.64362 1.85984
-5.00785 1.64237 1.84288
-5.02494 1.6452 1.83097
-5.02109 1.6419 1.81098
-5.02422 1.63965 1.79404
-5.02735 1.6384 1.77708
-5.0344 1.63931 1.77012
-5.02457 1.63397 1.74812
-5.02969 1.63274 1.73217
-5.02684 1.62944 1.7122
-5.04094 1.63126 1.69928
-5.04307 1.63001 1.68231
-5.04021 1.62673 1.66333
3.02166 1.64743 4.13963
3.00279 1.64869 4.15676
2.99291 1.65093 4.1728
2.97696 1.65004 4.17894
2.96809 1.65329 4.19596
2.95821 1.65654 4.21199
2.94328 1.65668 4.2211
2.93036 1.65685 4.23219
2.92745 1.66002 4.24317
2.90947 1.65708 4.24635
2.89352 1.65719 4.25347
2.88263 1.65941 4.26752
2.8677 1.65955 4.27663
2.85377 1.65969 4.28574
2.8439 1.66295 4.30276
2.8349 1.66197 4.30385
2.82604 1.66525 4.32187
2.81413 1.66743 4.33393
2.79414 1.66346 4.33514
2.78528 1.66773 4.35314
2.77135 1.66788 4.36225
2.75641 1.66802 4.37136
2.74946 1.66912 4.37739
2.73857 1.67135 4.39245
2.72362 1.67145 4.39856
2.04722 1.681 4.74556
2.0333 1.68317 4.75663
2.01634 1.68226 4.76178
1.99937 1.68233 4.7659
1.98342 1.68243 4.77202
1.91365 1.68394 4.80353
1.8926 1.67986 4.79675
1.87768 1.68101 4.80685
1.86764 1.67795 4.80197
1.85475 1.68218 4.817
1.83881 1.68231 4.82512
1.82184 1.68237 4.82825
1.80587 1.68144 4.83238
1.79093 1.68258 4.84148
1.77089 1.67852 4.83669
1.76394 1.68062 4.84271
1.75004 1.68282 4.85579
1.72999 1.67873 4.849
1.70994 1.67466 4.84321
1.69911 1.68099 4.8652
1.67803 1.67586 4.85543
1.66308 1.67597 4.86254
1.64818 1.67917 4.87561
1.63813 1.67608 4.86873
1.62014 1.67412 4.8709
1.60624 1.67731 4.88296
1.58924 1.67634 4.8841
1.57125 1.67436 4.88526
1.55632 1.67651 4.89434
1.53933 1.67453 4.8955
1.52931 1.67351 4.89359
1.51642 1.67673 4.90764
1.49327 1.66847 4.88894
1.47837 1.67165 4.901
1.46447 1.67487 4.91506
1.44543 1.67181 4.91025
1.43642 1.66979 4.90835
1.42251 1.67298 4.92041
1.40347 1.66992 4.9156
1.38752 1.67002 4.92172
1.37156 1.6701 4.92684
1.33167 1.67235 4.94211
-2.42128 1.68409 4.43013
-2.46672 1.67326 4.37263
-2.49979 1.67615 4.36383
-2.551 1.67578 4.33622
-2.57716 1.67347 4.31445
-2.607 1.68479 4.33451
-2.6143 1.67321 4.29573
-2.63231 1.67621 4.29482
-2.67229 1.68427 4.29701
-2.67649 1.67589 4.27116
-2.6945 1.67887 4.26925
-2.69859 1.67571 4.25832
-2.72252 1.68285 4.2664
-2.73461 1.68168 4.25451
-2.73782 1.67428 4.22764
-2.76571 1.68351 4.24171
-2.76497 1.67201 4.20787
-2.79977 1.6864 4.23292
-2.792 1.67597 4.20402
-2.81396 1.68104 4.20811
-2.82705 1.68089 4.19721
-2.83618 1.67664 4.18034
-2.84728 1.67446 4.16745
-2.88406 1.68988 4.1945
-2.88529 1.68144 4.16463
-2.90517 1.68969 4.18066
-2.9254 1.68425 4.14989
-2.94638 1.68929 4.15198
-2.96045 1.68917 4.14308
-2.97859 1.6869 4.12425
-4.8872 1.6476 1.79589
-4.89737 1.64726 1.77297
-4.90249 1.64603 1.75702
-4.89466 1.6407 1.73504
-4.90276 1.6415 1.72109
-4.9039 1.63923 1.70313
-4.90802 1.638 1.68717
-4.91115 1.63675 1.67021
-4.90132 1.63042 1.64823
-4.91634 1.63538 1.64527
-4.91946 1.63315 1.62932
-4.91262 1.62883 1.60833
-4.91176 1.62557 1.59037
-4.92485 1.62838 1.57743
-4.92698 1.62713 1.56046
-4.92811 1.62488 1.5435
-4.93217 1.62478 1.53653
2.86015 1.64652 4.07185
2.81149 1.65022 4.11717
2.80059 1.65242 4.13022
2.77463 1.64952 4.13546
2.76474 1.65275 4.15049
2.75283 1.65393 4.16256
2.73181 1.6499 4.15978
2.72496 1.6542 4.17977
2.71205 1.65539 4.19185
2.7061 1.65648 4.19788
2.69824 1.66076 4.21588
2.68126 1.65881 4.21904
2.67747 1.66621 4.24596
2.65947 1.66324 4.24714
2.63541 1.65714 4.23941
2.63263 1.66556 4.26731
2.62566 1.66562 4.27136
2.60768 1.66368 4.27453
2.59982 1.66795 4.29253
2.58387 1.66707 4.29966
2.57197 1.66927 4.31272
2.50725 1.67086 4.35019
2.49533 1.67203 4.36126
2.44556 1.67351 4.39162
2.43062 1.67364 4.39973
2.39972 1.67386 4.41296
2.07295 1.67948 4.57637
2.05801 1.67961 4.58448
2.02609 1.6798 4.59572
1.97616 1.67698 4.60614
1.97123 1.6781 4.61416
1.93828 1.67723 4.62142
1.90736 1.67742 4.63265
1.89344 1.67857 4.64274
1.87645 1.67762 4.64488
1.86152 1.67876 4.65398
1.85354 1.6778 4.65605
1.83554 1.67581 4.65622
1.82161 1.67795 4.66529
1.80462 1.67599 4.66745
1.79071 1.67817 4.67852
1.77168 1.67514 4.67571
1.75469 1.67416 4.67686
1.74773 1.67424 4.68191
1.73482 1.67743 4.69396
1.71885 1.6765 4.69809
1.6988 1.67243 4.6923
1.6859 1.67563 4.70536
1.66891 1.67466 4.7065
1.66093 1.67471 4.70956
1.64701 1.67686 4.71963
1.62901 1.67488 4.7198
1.61405 1.67496 4.72491
1.59707 1.67402 4.72805
1.58212 1.67513 4.73515
1.56411 1.67313 4.73431
1.56226 1.67941 4.75324
1.5422 1.67431 4.74546
1.52315 1.67024 4.73967
1.5113 1.67553 4.75868
1.49225 1.67145 4.75288
1.47628 1.67152 4.757
1.46237 1.67471 4.76906
1.45028 1.66954 4.75723
1.4343 1.66858 4.75936
1.41936 1.67071 4.76745
1.40238 1.66977 4.77059
1.38436 1.66674 4.76777
1.37147 1.67097 4.7828
1.34443 1.66692 4.77807
1.33256 1.67218 4.79508
1.29963 1.67232 4.80333
1.2486 1.66731 4.80079
1.23266 1.66844 4.80889
-1.52401 1.676 4.59652
-1.72955 1.67407 4.52509
-1.80478 1.67368 4.49565
-1.81981 1.67361 4.49077
-1.85694 1.67239 4.47406
-1.88998 1.67434 4.46928
-1.92513 1.67307 4.44956
-1.93919 1.67196 4.44168
-1.96012 1.67811 4.45075
-1.96928 1.67179 4.42891
-1.98628 1.67382 4.43001
-2.00722 1.67993 4.43708
-2.02634 1.67671 4.42127
-2.03943 1.67454 4.4094
-2.05644 1.67654 4.40849
-2.07345 1.67852 4.40659
-2.08457 1.67531 4.39172
-2.0996 1.67525 4.38684
-2.11858 1.67929 4.38892
-2.12562 1.67822 4.38399
-2.13967 1.67813 4.37709
-2.15275 1.67699 4.36721
-2.16878 1.67794 4.36331
-2.18776 1.68098 4.36541
-2.20675 1.68501 4.3665
-2.21194 1.67665 4.34166
-2.22488 1.68177 4.34968
-2.23895 1.68065 4.3408
-2.25104 1.67848 4.32892
-2.26805 1.68047 4.32702
-2.28803 1.68452 4.33011
-2.29717 1.68026 4.31224
-2.31714 1.68432 4.31533
-2.31529 1.67803 4.29541
-2.33822 1.68418 4.30449
-2.34834 1.68095 4.28861
-2.36439 1.68187 4.28272
-2.38534 1.68697 4.2888
-2.39052 1.67962 4.26495
-2.41248 1.68571 4.27002
-2.41064 1.67841 4.25011
-2.42568 1.67934 4.24421
-2.44566 1.68338 4.2463
-2.45873 1.68226 4.23742
-2.46885 1.67903 4.22154
-2.48391 1.67893 4.21465
-2.50191 1.68193 4.21374
-2.50006 1.67565 4.19482
-2.5299 1.68697 4.21488
-2.53312 1.67856 4.18703
-2.55211 1.68258 4.18811
-2.56913 1.68454 4.18421
-2.57628 1.67926 4.16534
-2.58134 1.67815 4.15739
-2.60132 1.68219 4.15948
-2.61045 1.67796 4.14361
-2.6255 1.67887 4.13671
-2.64055 1.67977 4.12981
-2.65361 1.67967 4.12191
-2.6657 1.6775 4.11003
-2.68767 1.68357 4.11411
-2.69371 1.68249 4.10817
-2.70283 1.67926 4.09228
-2.72381 1.6833 4.09438
-2.7349 1.68215 4.08348
-2.74403 1.6789 4.06659
-2.76501 1.68295 4.06869
-2.77313 1.67972 4.0528
-2.78115 1.68068 4.04984
-2.80411 1.68677 4.05493
-2.81027 1.68148 4.03505
-2.83125 1.68652 4.03713
-2.85641 1.68423 4.01635
-2.87343 1.68618 4.01245
-4.77927 1.64542 1.65309
-4.7705 1.63797 1.62313
-4.77163 1.63571 1.60617
-4.79169 1.6416 1.59723
-4.78485 1.6363 1.57726
-4.77302 1.62996 1.55526
-4.80006 1.63688 1.54836
-4.78823 1.63054 1.52636
-4.77933 1.62536 1.51437
-4.80238 1.63226 1.50644
-4.7938 1.62244 1.45151
2.81899 1.64427 3.91817
2.80404 1.64439 3.92529
2.79212 1.64454 3.93538
2.78729 1.65087 3.95732
2.76728 1.64687 3.95653
2.7594 1.65011 3.97255
2.74445 1.64923 3.97967
2.73344 1.64721 3.97778
2.72961 1.65355 4.00072
2.71163 1.65059 4.0029
2.70173 1.65279 4.01595
2.6888 1.65395 4.02603
2.6769 1.65514 4.0381
2.66193 1.65422 4.04323
2.65902 1.65639 4.05422
2.64204 1.65444 4.05738
2.63519 1.65974 4.07735
2.62834 1.66503 4.09633
2.60529 1.65896 4.09059
2.5954 1.66117 4.10464
2.57944 1.66026 4.10977
2.58259 1.66655 4.12966
2.56561 1.66561 4.1328
2.55573 1.66784 4.14784
2.54179 1.66796 4.15595
2.52785 1.66809 4.16405
1.4723 1.67958 4.6259
1.43543 1.68186 4.64314
1.41741 1.67883 4.64032
1.38955 1.68313 4.65947
1.37049 1.67903 4.65167
1.35658 1.6812 4.66275
1.34959 1.68124 4.6648
1.33467 1.6834 4.67488
1.31765 1.68136 4.67204
1.30064 1.67938 4.6722
1.28673 1.68255 4.68326
1.26867 1.67846 4.67645
1.25269 1.6775 4.67859
1.24264 1.6744 4.67171
1.22874 1.67761 4.68477
1.21068 1.67452 4.67795
1.19469 1.67354 4.67908
1.1787 1.67258 4.68122
1.16477 1.67473 4.69029
1.14882 1.67583 4.6964
1.13979 1.67378 4.6925
1.1238 1.67282 4.69463
1.10781 1.67284 4.69575
1.09492 1.67606 4.7098
1.07792 1.67507 4.70995
1.05986 1.67097 4.70214
1.04594 1.67414 4.7132
1.03795 1.67416 4.71426
1.02196 1.6732 4.7164
1.00597 1.67323 4.71752
0.991042 1.67537 4.7266
0.975073 1.67544 4.73072
0.958057 1.67343 4.72888
0.942065 1.67345 4.73
0.931972 1.66828 4.71815
0.917025 1.6694 4.72524
0.902087 1.67153 4.73333
0.88611 1.67158 4.73645
0.870103 1.67058 4.73558
0.853079 1.66855 4.73274
0.837095 1.66859 4.73486
0.830133 1.66967 4.7399
0.815211 1.67283 4.74996
0.0308039 1.67255 4.69887
0.0157887 1.67153 4.697
-0.0160937 1.67778 4.71215
-0.0322407 1.67051 4.69337
-0.0401395 1.67571 4.70636
-0.0551704 1.67366 4.7025
-0.0710382 1.67992 4.71953
-0.087231 1.67157 4.69477
-0.103076 1.67887 4.71479
-0.118253 1.67054 4.69202
-0.134137 1.67578 4.70707
-0.141229 1.6716 4.69518
-0.158058 1.67994 4.71719
-0.17322 1.67264 4.6964
-0.189126 1.67783 4.70845
-0.204273 1.67056 4.68967
-0.221063 1.68097 4.71664
-0.236226 1.67367 4.69586
-0.252101 1.67992 4.71189
-0.25924 1.67366 4.69404
-0.276054 1.68203 4.71804
-0.29127 1.67262 4.69029
-0.307161 1.67784 4.70434
-0.322253 1.67368 4.69251
-0.339175 1.67784 4.70258
-0.354267 1.67367 4.69075
-0.363057 1.68408 4.71767
-0.377258 1.6757 4.6919
-0.394149 1.68092 4.70595
-0.40835 1.67155 4.68019
-0.426108 1.68402 4.71114
-0.439364 1.67154 4.67842
-0.457215 1.67983 4.69744
-0.463355 1.67357 4.67957
-0.481176 1.68192 4.70259
-0.495346 1.67461 4.6808
-0.513174 1.68395 4.7028
-0.527289 1.67874 4.68798
-0.543273 1.67978 4.69009
-0.549397 1.67455 4.67421
-0.569132 1.68806 4.70816
-0.600216 1.68492 4.69744
-0.611463 1.67346 4.66569
-0.629346 1.67969 4.68074
-0.645368 1.67966 4.67786
-0.65336 1.68068 4.6789
-0.666491 1.67544 4.66208
-0.684373 1.68167 4.67712
-0.698481 1.67748 4.66329
-0.716395 1.68165 4.67436
-0.730503 1.67746 4.66053
-0.745517 1.67744 4.65864
-0.75354 1.6774 4.6557
-0.769547 1.67739 4.65482
-0.78646 1.68257 4.66587
-0.799638 1.67524 4.64308
-0.819427 1.68565 4.67008
-0.831635 1.67726 4.64329
-0.85144 1.68765 4.66829
-0.854665 1.67722 4.63946
-0.874501 1.68554 4.66049
-0.885678 1.67821 4.63768
-0.907459 1.69064 4.66567
-0.915769 1.67606 4.62594
-0.93369 1.68122 4.636
-0.950666 1.68327 4.6391
-0.95772 1.68118 4.63218
-0.972758 1.68011 4.62731
-0.99164 1.68735 4.64235
-1.00188 1.6769 4.61157
-1.01883 1.68 4.61766
-1.03387 1.67894 4.61278
-1.05082 1.68304 4.61885
-1.05499 1.67471 4.597
-1.07485 1.68299 4.61503
-1.08697 1.67877 4.59918
-1.10396 1.68081 4.60128
-1.11901 1.67872 4.59443
-1.13113 1.6745 4.57958
-1.14519 1.67238 4.57071
-1.16094 1.68588 4.60364
-1.17212 1.67853 4.57983
-1.18717 1.67745 4.57396
-1.20413 1.68054 4.57904
-1.22013 1.68255 4.57913
-1.2313 1.67524 4.55732
-1.25118 1.68246 4.57136
-1.25627 1.6783 4.56046
-1.27423 1.68238 4.56554
-1.28538 1.67611 4.54671
-1.30429 1.68229 4.55776
-1.3174 1.67808 4.54292
-1.33631 1.68427 4.55498
-1.36131 1.68728 4.55512
-1.37149 1.67894 4.53132
-1.38554 1.67786 4.52544
-1.40544 1.68405 4.5375
-1.41757 1.67982 4.52165
-1.43066 1.67765 4.50978
-1.44666 1.67865 4.50888
-1.45761 1.68176 4.51592
-1.4707 1.67959 4.50405
-1.4906 1.6868 4.5171
-1.50173 1.68156 4.50025
-1.51872 1.68359 4.50135
-1.5279 1.67625 4.47853
-1.55075 1.68553 4.49656
-1.54996 1.67513 4.46971
-1.5777 1.69066 4.50369
-1.58394 1.68019 4.47189
-1.60583 1.68843 4.48694
-1.61109 1.67693 4.45314
-1.63492 1.68725 4.47417
-1.64116 1.67682 4.44437
-1.65406 1.683 4.45637
-1.66813 1.68088 4.44751
-1.68902 1.6891 4.46155
-1.6933 1.67656 4.42476
-1.71519 1.68378 4.43882
-1.72729 1.6806 4.42596
-1.74232 1.68155 4.42206
-1.75131 1.68257 4.42311
-1.76929 1.68663 4.42619
-1.78138 1.68346 4.41432
-1.79546 1.68232 4.40444
-1.81343 1.68538 4.40753
-1.83239 1.68947 4.41262
-1.8386 1.68107 4.38578
-1.85544 1.69038 4.40578
-1.85773 1.67783 4.36897
-1.88355 1.68918 4.391
-1.89467 1.68496 4.37615
-1.90284 1.67864 4.3543
-1.92376 1.68481 4.36437
-1.94076 1.68782 4.36445
-1.94779 1.68676 4.36052
-1.97886 1.68864 4.35072
-2.00893 1.68953 4.34194
-2.03803 1.68834 4.32817
-2.08427 1.6849 4.29657
-4.70652 1.63892 1.48761
-4.71774 1.63848 1.4577
-4.71986 1.63725 1.44173
-4.72298 1.63603 1.42677
-4.736 1.63998 1.42281
-4.71121 1.62858 1.39679
-4.7223 1.63039 1.38384
-4.72243 1.62816 1.36788
-4.72555 1.62692 1.35192
-4.73963 1.63075 1.33996
-4.74674 1.63055 1.32602
-4.73284 1.62435 1.313
-4.73995 1.62515 1.29904
-4.75004 1.62696 1.28609
-4.73721 1.61964 1.2651
-4.75528 1.62449 1.25416
-4.75841 1.62326 1.2382
-4.75554 1.621 1.22121
-4.76158 1.62192 1.21524
-4.77592 1.62126 1.17035
-4.78115 1.61981 1.13941
-4.7753 1.61552 1.12043
-4.78146 1.6152 1.09848
-4.78558 1.61498 1.08351
-4.82454 1.61411 0.955797
3.2642 1.63253 3.41393
3.06652 1.63825 3.58935
3.0556 1.63842 3.60044
3.04166 1.63855 3.60854
3.03084 1.6429 3.63156
3.02295 1.64612 3.64657
3.00901 1.64525 3.65469
2.99305 1.64334 3.65984
2.97506 1.63938 3.66204
2.97123 1.64569 3.68297
2.95617 1.6396 3.67618
2.95738 1.649 3.70303
2.92747 1.6462 3.7153
2.90362 1.64751 3.73546
2.89675 1.65077 3.75247
2.87967 1.64463 3.74269
2.86875 1.64581 3.75375
2.85987 1.64803 3.76879
2.84795 1.64919 3.77886
2.84108 1.65245 3.79587
2.82814 1.65259 3.80497
2.81622 1.65375 3.81504
2.81027 1.65484 3.82107
2.77933 1.651 3.83036
2.77146 1.65525 3.84736
2.76258 1.65748 3.8624
2.74661 1.65555 3.86655
2.74075 1.66084 3.88551
2.72873 1.6578 3.88265
2.71984 1.66002 3.89669
2.7069 1.66016 3.90578
2.69296 1.66027 3.91289
2.68408 1.66351 3.92891
2.65618 1.66273 3.94213
2.6482 1.66178 3.94521
1.17505 1.68228 4.59309
1.15005 1.6803 4.59331
1.08812 1.67949 4.60379
1.06725 1.68375 4.61988
1.03524 1.68075 4.61917
0.972315 1.67995 4.62966
0.950393 1.68211 4.63979
0.919439 1.68222 4.64602
0.903454 1.68227 4.64814
0.886408 1.67919 4.64232
0.873539 1.68445 4.65934
0.862408 1.67821 4.64251
0.849539 1.68347 4.65953
0.834578 1.68455 4.66463
0.801539 1.6805 4.65994
0.769547 1.67954 4.6612
0.76467 1.68478 4.67716
0.730562 1.6786 4.6635
0.714593 1.67867 4.66762
0.699608 1.67871 4.66974
0.684655 1.68081 4.67582
0.668655 1.67982 4.67595
0.662764 1.68503 4.68992
0.644694 1.68091 4.68112
0.611608 1.67477 4.67046
0.598756 1.68106 4.68946
0.580648 1.67587 4.67567
0.566795 1.68216 4.69469
0.559802 1.68218 4.69574
0.54171 1.67702 4.68395
0.528872 1.68434 4.70494
0.510764 1.67914 4.69115
0.494749 1.67713 4.68931
0.479788 1.67921 4.69439
0.471811 1.67926 4.69745
0.456873 1.68239 4.70552
0.439757 1.67618 4.69073
0.425927 1.68352 4.71273
0.408773 1.67623 4.69297
0.394928 1.68354 4.71297
0.37782 1.67734 4.69918
0.353774 1.67527 4.6934
0.338875 1.67948 4.70645
0.32289 1.67952 4.70857
0.305713 1.67119 4.68582
0.291984 1.68372 4.72074
0.274767 1.67332 4.69302
0.259938 1.68065 4.71503
0.250705 1.66922 4.68526
0.235946 1.68068 4.71621
0.21976 1.67134 4.69246
0.204924 1.67966 4.71345
0.187793 1.67342 4.69667
0.172932 1.6797 4.7147
0.156746 1.67036 4.69095
0.148894 1.67764 4.70991
0.132763 1.6714 4.69312
0.117825 1.67353 4.7012
0.10181 1.67352 4.69932
0.0858569 1.67562 4.70541
0.069772 1.67147 4.69459
0.0548032 1.67254 4.69869
0.0469196 1.67776 4.71367
-0.823754 1.66907 4.49533
-0.989975 1.66974 4.46657
-1.15326 1.6693 4.4298
-1.34565 1.66865 4.37825
-1.40771 1.67157 4.36968
-1.45687 1.66929 4.34908
-1.51599 1.6711 4.33349
-1.53706 1.66998 4.32467
-1.61824 1.67068 4.30127
-1.67639 1.67041 4.2807
-1.7035 1.66923 4.26692
-1.72653 1.67017 4.26208
-1.75561 1.67104 4.25229
-1.78273 1.66882 4.23652
-1.81475 1.6718 4.23372
-1.83089 1.66753 4.2149
-1.84592 1.66849 4.211
-1.85998 1.66738 4.20312
-1.87794 1.67146 4.2082
-1.89887 1.67861 4.21725
-1.91012 1.66813 4.18449
-1.92417 1.66805 4.17859
-1.93821 1.66798 4.1727
-1.95914 1.67412 4.18177
-1.97122 1.67298 4.17187
-1.98822 1.67498 4.17097
-1.99426 1.67391 4.16603
-2.00831 1.67383 4.16014
-2.02629 1.67788 4.16221
-2.03443 1.6726 4.14335
-2.05832 1.68082 4.15741
-2.06449 1.6745 4.13555
-2.08248 1.67755 4.13764
-2.08557 1.67437 4.12571
-2.10651 1.67949 4.13279
-2.11957 1.67938 4.12489
-2.13853 1.68347 4.12997
-2.14864 1.68025 4.11509
-2.1797 1.68316 4.10728
-2.18672 1.68312 4.10434
-2.20989 1.67881 4.08257
-2.22887 1.68287 4.08566
-2.24391 1.68379 4.07975
-2.30515 1.68336 4.04822
-2.32932 1.68005 4.02645
-2.34435 1.682 4.02253
-2.35643 1.67985 4.01165
-2.37256 1.67761 3.9948
-2.39154 1.68165 3.99689
-2.39869 1.67638 3.97802
-2.42877 1.67824 3.96721
-2.44676 1.68126 3.96831
-2.44391 1.67497 3.94837
-2.45993 1.67693 3.94547
-2.47595 1.6789 3.94256
-2.48508 1.67467 3.92669
-2.50527 1.6703 3.9009
-2.52623 1.67639 3.90597
-2.53228 1.6753 3.90003
-2.5483 1.67727 3.89712
-2.55346 1.67097 3.87625
-2.57047 1.67395 3.87433
-2.58156 1.67279 3.86343
-2.59264 1.67064 3.85255
-2.62052 1.68188 3.86759
-2.61371 1.67251 3.84268
-2.63073 1.67549 3.84076
-2.63983 1.67229 3.82687
-2.66674 1.68148 3.83894
-2.66695 1.67307 3.81106
-2.69088 1.68022 3.82014
-2.68713 1.66873 3.78728
-2.70999 1.67903 3.8063
-2.70228 1.66546 3.76844
-2.72028 1.66946 3.76751
-2.73631 1.67141 3.7636
-2.76026 1.67852 3.76968
-2.75354 1.66498 3.73382
-2.77451 1.67105 3.73789
-2.7855 1.67408 3.73893
-2.80153 1.67603 3.73502
-2.79975 1.6666 3.70615
-2.81282 1.66647 3.69724
-2.8328 1.67152 3.69932
-2.85278 1.67556 3.70141
-2.85497 1.66819 3.67653
-2.86496 1.67123 3.67856
-2.88 1.67315 3.67265
-2.91503 1.6791 3.66782
-2.9271 1.67898 3.65892
-2.92928 1.67264 3.63602
-2.94036 1.67149 3.62512
-2.95134 1.67452 3.62716
-2.96045 1.67232 3.61326
-2.99152 1.6762 3.60343
-3.02972 1.67582 3.57672
-4.5402 1.63744 1.52939
-4.53247 1.6289 1.49345
-4.53958 1.6297 1.47949
-4.54462 1.63061 1.47352
-4.54974 1.63039 1.45856
-4.56083 1.63222 1.44661
-4.54201 1.62187 1.42362
-4.55721 1.62348 1.39671
-4.57072 1.61848 1.32887
2.56105 1.64359 3.79411
2.54608 1.64266 3.79824
2.52617 1.64285 3.81039
2.52741 1.65231 3.84124
2.50535 1.64623 3.8345
2.49038 1.6453 3.83862
2.47643 1.64441 3.84574
2.46855 1.64764 3.86076
2.4626 1.64873 3.86679
2.43671 1.64897 3.88198
2.42783 1.65321 3.89799
2.41286 1.65128 3.90213
2.40905 1.65864 3.92605
2.39612 1.65978 3.93513
2.38305 1.65468 3.92731
2.36707 1.65273 3.93046
2.36021 1.658 3.94843
2.3412 1.65399 3.94663
2.33231 1.65722 3.96166
2.32546 1.6625 3.98063
2.31455 1.66469 3.99268
2.29159 1.66279 3.99889
2.27662 1.66086 4.00303
2.26776 1.66612 4.02002
2.24771 1.66005 4.01426
2.24086 1.66635 4.03422
2.22793 1.66649 4.04332
2.18112 1.66789 4.06865
2.16819 1.66904 4.07773
2.15423 1.66914 4.08384
1.50923 1.67449 4.35066
1.4274 1.67389 4.37428
1.41345 1.67498 4.38037
1.40052 1.67713 4.38944
1.36052 1.67316 4.3898
1.34554 1.67221 4.39293
1.33264 1.67641 4.40596
1.31559 1.67232 4.39915
1.30372 1.67658 4.41618
1.29467 1.6745 4.41028
1.27559 1.66837 4.40051
1.26473 1.67464 4.4185
1.24769 1.67058 4.41369
1.23479 1.67478 4.42673
1.22188 1.67695 4.4378
1.20689 1.67699 4.43991
1.19475 1.66874 4.42212
1.18496 1.67814 4.44906
1.16584 1.67094 4.43431
1.155 1.67724 4.4543
1.13897 1.67519 4.45045
1.11395 1.67218 4.44868
1.0969 1.66809 4.44187
1.08711 1.6775 4.46881
1.06901 1.67132 4.45603
1.05505 1.67242 4.46212
1.04114 1.67559 4.47318
1.02306 1.67045 4.46339
1.01919 1.67571 4.48035
1.00108 1.66951 4.46657
0.987175 1.6737 4.47862
0.971143 1.67066 4.47478
0.956151 1.66968 4.47591
0.941174 1.66974 4.47902
0.925181 1.66876 4.48016
0.918205 1.66981 4.48319
0.899065 1.66256 4.46544
0.888243 1.66991 4.48842
0.871181 1.6658 4.48061
0.856204 1.66586 4.48372
0.845421 1.67628 4.51165
0.826266 1.667 4.49193
0.811258 1.66599 4.49106
0.805358 1.67019 4.50404
0.788273 1.66504 4.49325
0.775389 1.67027 4.50827
0.728358 1.66625 4.50468
0.712358 1.66526 4.50482
0.706428 1.6684 4.51382
0.675459 1.66848 4.51805
0.62142 1.66444 4.51351
0.478661 1.67001 4.54551
0.462553 1.66481 4.53171
0.378654 1.66706 4.54531
0.0196941 1.66742 4.41899
0.00563992 1.66432 4.41214
-0.00935965 1.66433 4.41225
-0.0243511 1.66536 4.41335
-0.0313509 1.66536 4.4134
-0.0463354 1.6654 4.41552
-0.0613193 1.66644 4.41761
-0.076342 1.66541 4.41474
-0.0913724 1.66436 4.41087
-0.106287 1.66854 4.42192
-0.120363 1.6654 4.41207
-0.128332 1.66646 4.41612
-0.14237 1.6654 4.41124
-0.15737 1.66541 4.41135
-0.172346 1.66647 4.41445
-0.187338 1.66749 4.41555
-0.224337 1.66752 4.41583
-0.269342 1.66854 4.41515
-0.283419 1.6654 4.4053
-0.298426 1.6654 4.40442
-0.313402 1.66645 4.40751
-0.32041 1.66644 4.40657
-0.335355 1.66955 4.41363
-0.350369 1.66954 4.41175
-0.379469 1.66537 4.39903
-0.394437 1.66744 4.40311
-0.40946 1.6664 4.40024
-0.416483 1.66536 4.3973
-0.431466 1.6674 4.39939
-0.446489 1.66637 4.39651
-0.461457 1.66844 4.4006
-0.476425 1.67051 4.40468
-0.490525 1.66633 4.39185
-0.505509 1.66737 4.39394
-0.513485 1.66942 4.39697
-0.542553 1.66731 4.38822
-0.557491 1.67044 4.39629
-0.572552 1.66833 4.38843
-0.586582 1.66728 4.38456
-0.601581 1.66829 4.38465
-0.608612 1.66724 4.38072
-0.623619 1.66723 4.37983
-0.638587 1.6693 4.38392
-0.652648 1.66719 4.37605
-0.668616 1.66926 4.38014
-0.682639 1.66923 4.37725
-0.696692 1.66714 4.37039
-0.703715 1.6671 4.36744
-0.719675 1.66918 4.37253
-0.733721 1.6681 4.36665
-0.747759 1.66704 4.36177
-0.764656 1.67325 4.37481
-0.778709 1.67215 4.36793
-0.785756 1.66907 4.36203
-0.801708 1.67317 4.36809
-0.815754 1.67209 4.36221
-0.827893 1.66583 4.34439
-0.85886 1.66891 4.34858
-0.87385 1.67094 4.34966
-0.889826 1.673 4.35275
-0.896857 1.67194 4.34882
-0.910879 1.67191 4.34592
-0.925885 1.6729 4.34502
-0.939938 1.67181 4.33814
-0.954 1.6687 4.3303
-0.968983 1.67174 4.33236
-0.982075 1.66757 4.32052
-0.991028 1.67067 4.32654
-1.00408 1.66858 4.31967
-1.01812 1.66851 4.31478
-1.03506 1.67263 4.32185
-1.05105 1.67467 4.32394
-1.0651 1.67358 4.31706
-1.07815 1.67148 4.31019
-1.08711 1.67458 4.31621
-1.10116 1.67348 4.30933
-1.11423 1.67136 4.30046
-1.13022 1.67339 4.30155
-1.14424 1.67335 4.29866
-1.1583 1.67124 4.29079
-1.17428 1.67328 4.29288
-1.17934 1.67118 4.28595
-1.19437 1.67114 4.28206
-1.20938 1.67212 4.28016
-1.22243 1.67104 4.27427
-1.2355 1.66892 4.2654
-1.25344 1.67303 4.27248
-1.25753 1.66986 4.26055
-1.27548 1.67397 4.26763
-1.29048 1.67598 4.26771
-1.30159 1.67077 4.25287
-1.31465 1.66966 4.24499
-1.33356 1.67585 4.25704
-1.34467 1.67164 4.24218
-1.35269 1.67161 4.24024
-1.36672 1.67155 4.23535
-1.3788 1.66941 4.22547
-1.38992 1.6652 4.21061
-1.40786 1.66931 4.21769
-1.4219 1.66925 4.2128
-1.43593 1.66919 4.2079
-1.44802 1.66603 4.19704
-1.45601 1.66705 4.19808
-1.47199 1.67009 4.20016
-1.48702 1.67005 4.19627
-1.52522 1.66569 4.17062
-1.54023 1.66669 4.16972
-1.54726 1.66663 4.16577
-1.56324 1.66967 4.16785
-1.57533 1.6665 4.15598
-1.59131 1.66954 4.15806
-1.6083 1.67159 4.16016
-1.62233 1.67152 4.15526
-1.63343 1.66934 4.14238
-1.6375 1.66621 4.13345
-1.65155 1.66613 4.12756
-1.66851 1.6692 4.13164
-1.6806 1.66705 4.12076
-1.70249 1.67527 4.13481
-1.71456 1.67415 4.12592
-1.72256 1.67414 4.12498
-1.73365 1.67097 4.11311
-1.74868 1.67293 4.11019
-1.76467 1.67494 4.11028
-1.77674 1.67382 4.10139
-1.79079 1.67374 4.09549
-1.80286 1.67162 4.08661
-1.81185 1.67364 4.08765
-1.82687 1.67461 4.08475
-1.8409 1.67556 4.08084
-1.85395 1.67446 4.07395
-1.86899 1.6754 4.06905
-1.87909 1.67221 4.05617
-1.89508 1.67423 4.05627
-1.90015 1.6721 4.04733
-1.9191 1.6772 4.0534
-1.93313 1.67815 4.04949
-1.94619 1.67704 4.04161
-1.96122 1.67801 4.0387
-1.97525 1.67896 4.0348
-1.99127 1.67992 4.0319
-1.99927 1.68193 4.03193
-2.01134 1.67979 4.02205
-2.02735 1.68279 4.02113
-2.05544 1.68263 4.00934
-2.06652 1.68048 3.99846
-2.42396 1.67889 3.80915
-2.43097 1.67987 3.80718
-2.45412 1.67659 3.78741
-2.47014 1.67956 3.78448
-2.48419 1.67948 3.77859
-2.4923 1.67626 3.76369
-2.50832 1.67923 3.76077
-2.52643 1.67803 3.74692
-2.53454 1.67382 3.73204
-2.55253 1.67885 3.73311
-2.56461 1.67771 3.72321
-2.57964 1.67864 3.71831
-2.58677 1.67541 3.70241
-2.58687 1.67022 3.68949
-2.60487 1.67422 3.68856
-2.61891 1.67515 3.68365
-2.62801 1.67295 3.66975
-2.63811 1.67078 3.65786
-2.66006 1.67789 3.66392
-2.65926 1.66849 3.63705
-2.67124 1.67254 3.64008
-2.68232 1.6714 3.63018
-2.69241 1.66923 3.61829
-2.7104 1.67324 3.61836
-2.72049 1.67207 3.60645
-2.73454 1.67299 3.60054
-2.7466 1.67289 3.59264
-2.76075 1.6696 3.57279
-2.8019 1.67233 3.55306
-2.83899 1.67617 3.54028
-2.84215 1.67086 3.51938
-2.86313 1.67592 3.52246
-4.42092 1.63594 1.4335
-4.42702 1.63574 1.41955
-4.43512 1.63655 1.40659
-4.42826 1.63128 1.38862
-4.43736 1.6321 1.37567
-4.44041 1.63199 1.3687
-4.42956 1.62569 1.3487
-4.43765 1.62652 1.33675
-4.43777 1.62428 1.32078
-4.44986 1.62711 1.30883
-4.45297 1.62591 1.29487
-4.45509 1.62467 1.2789
-4.44118 1.61849 1.26689
-4.45327 1.62132 1.25493
-4.45339 1.61808 1.23898
-4.46148 1.61991 1.22701
-4.46061 1.61767 1.21104
-4.4687 1.61848 1.19808
-4.4778 1.6203 1.18512
-4.47088 1.61614 1.17513
-4.47498 1.61594 1.16116
-4.48308 1.61675 1.14821
-4.48619 1.61653 1.13324
-4.49628 1.61836 1.12128
-4.4954 1.61613 1.10531
-4.49752 1.61491 1.09034
-4.50854 1.61885 1.08636
-4.50767 1.61562 1.0704
-4.51788 1.61621 1.04247
-4.51301 1.61295 1.02548
-4.52022 1.61155 0.997548
-4.52327 1.61244 0.990557
-4.55308 1.61088 0.88379
-4.57073 1.60761 0.796959
2.54188 1.64231 3.63925
2.50506 1.64269 3.66353
2.49303 1.63964 3.65966
2.47118 1.64196 3.6798
2.45924 1.64207 3.68689
2.4463 1.6422 3.69498
2.43943 1.64645 3.71197
2.42141 1.64244 3.71017
2.42355 1.6487 3.72806
2.41061 1.64883 3.73616
2.39158 1.64378 3.73238
2.38471 1.64904 3.74935
2.37582 1.65125 3.76339
2.36085 1.65032 3.76752
2.34993 1.65149 3.77858
2.34699 1.65461 3.78656
2.33 1.65164 3.78773
2.32009 1.65383 3.79978
2.31222 1.65808 3.81677
2.29521 1.65508 3.81595
2.28227 1.65519 3.82304
2.27642 1.66049 3.84301
2.26437 1.65641 3.83716
2.25345 1.65757 3.84723
2.24558 1.66283 3.86421
2.22959 1.65987 3.86638
2.2207 1.66308 3.8804
1.03511 1.67756 4.33618
0.997114 1.67461 4.33751
0.984223 1.67882 4.35155
0.96923 1.67785 4.35267
0.955253 1.6779 4.35578
0.940284 1.67897 4.35988
0.926307 1.67903 4.36298
0.916245 1.67592 4.3551
0.901229 1.6729 4.35326
0.888314 1.67707 4.3643
0.872283 1.67402 4.36046
0.855229 1.67093 4.35363
0.845422 1.67931 4.37859
0.835313 1.67311 4.36475
0.821368 1.67522 4.37183
0.805352 1.67321 4.36998
0.790344 1.6722 4.36911
0.774305 1.66914 4.36427
0.761406 1.67334 4.37731
0.745344 1.66923 4.36949
0.737351 1.66926 4.37055
0.725499 1.67654 4.38953
0.708382 1.66934 4.37477
0.694444 1.67146 4.38284
0.680499 1.67358 4.38992
0.664445 1.67049 4.38308
0.650515 1.67363 4.39214
0.643499 1.6716 4.39023
0.627452 1.66853 4.38439
0.611398 1.66544 4.37756
0.598499 1.66964 4.39059
0.582468 1.66759 4.38674
0.568506 1.66867 4.39183
0.554576 1.67182 4.40089
0.544414 1.66352 4.38009
0.530499 1.66669 4.39115
0.517584 1.67086 4.40219
0.500491 1.66569 4.39039
0.485491 1.66471 4.39052
0.472569 1.66886 4.40055
0.455468 1.66268 4.38777
0.442608 1.66896 4.40578
0.435601 1.66895 4.40483
0.419523 1.66481 4.39501
0.404516 1.66381 4.39414
0.390586 1.66695 4.4032
0.375547 1.66489 4.39834
0.36057 1.66495 4.40146
0.353602 1.66701 4.40548
0.338601 1.66602 4.40561
0.323579 1.66499 4.40273
0.309641 1.66712 4.41081
0.294634 1.66711 4.40992
0.279626 1.66611 4.40905
0.264603 1.66507 4.40618
0.256588 1.66405 4.40425
0.24158 1.66305 4.40338
0.227619 1.66513 4.40846
0.183689 1.6673 4.41776
0.168636 1.6652 4.4109
0.160667 1.66627 4.41495
0.145652 1.66525 4.41307
0.130629 1.66422 4.4102
0.116645 1.66526 4.41229
0.101645 1.66527 4.4124
0.0647393 1.66947 4.42462
0.0307295 1.66551 4.29092
0.0167688 1.6676 4.29599
0.00878466 1.66863 4.29804
-0.00533164 1.66242 4.28323
-0.0201756 1.67073 4.30323
-0.0342605 1.66657 4.29239
-0.0482451 1.66661 4.2945
-0.0632365 1.66764 4.2956
-0.0772204 1.66868 4.29769
-0.0842666 1.6666 4.29177
-0.0992587 1.66662 4.29288
-0.113243 1.66766 4.29497
-0.128258 1.66664 4.2931
-0.14228 1.66661 4.29021
-0.171302 1.66558 4.28744
-0.178287 1.66662 4.28948
-0.192325 1.66456 4.28461
-0.20727 1.66767 4.29168
-0.221316 1.66559 4.28582
-0.2363 1.66663 4.28791
-0.250346 1.66455 4.28205
-0.266206 1.67183 4.30006
-0.272283 1.66869 4.29015
-0.28729 1.66868 4.28927
-0.301266 1.66974 4.29236
-0.31539 1.66351 4.27655
-0.33121 1.67386 4.29952
-0.344334 1.66764 4.28371
-0.359317 1.66968 4.28579
-0.366294 1.67073 4.28883
-0.381285 1.67175 4.28993
-0.395308 1.67072 4.28705
-0.409362 1.66862 4.28019
-0.424314 1.67172 4.28625
-0.439298 1.67276 4.28835
-0.446329 1.67171 4.28442
-0.460328 1.67172 4.28452
-0.474428 1.66754 4.27169
-0.489396 1.66961 4.27577
-0.503419 1.66957 4.27288
-0.518364 1.67269 4.27995
-0.533332 1.67476 4.28403
-0.547401 1.67164 4.27518
-0.553462 1.66952 4.26726
-0.568407 1.67264 4.27432
-0.583438 1.67159 4.27045
-0.595568 1.66635 4.25362
-0.612436 1.67361 4.27064
-0.625497 1.6715 4.26277
-0.639527 1.67045 4.25889
-0.648457 1.67459 4.2679
-0.661549 1.67042 4.25606
-0.675594 1.66934 4.25018
-0.690555 1.67143 4.25526
-0.70364 1.66828 4.2444
-0.719569 1.67242 4.25346
-0.731692 1.66719 4.23763
-0.742528 1.67651 4.25858
-0.755605 1.67337 4.24872
-0.771565 1.67646 4.2538
-0.78365 1.6723 4.24295
-0.795757 1.66811 4.2291
-0.810749 1.66913 4.2302
-0.827654 1.67532 4.24223
-0.831809 1.66803 4.22237
-0.848714 1.67422 4.23441
-0.861791 1.67108 4.22455
-0.873884 1.66691 4.2127
-0.892704 1.67726 4.23569
-0.905781 1.67413 4.22584
-0.912796 1.6741 4.22389
-0.926833 1.67404 4.219
-0.94377 1.67817 4.22706
-0.954901 1.67193 4.21024
-0.967954 1.67083 4.20335
-0.982953 1.67184 4.20345
-0.995998 1.67076 4.19756
-1.00593 1.6749 4.20658
-1.01994 1.67588 4.20467
-1.03495 1.67688 4.20377
-1.04898 1.67683 4.19987
-1.06203 1.67474 4.193
-1.07411 1.6716 4.18314
-1.09008 1.67465 4.18621
-1.10218 1.67048 4.17436
-1.11018 1.67149 4.17441
-1.12516 1.67353 4.17649
-1.14016 1.67554 4.17657
-1.1542 1.67446 4.1707
-1.16823 1.67441 4.1668
-1.18127 1.67335 4.16192
-1.19434 1.67123 4.15304
-1.20233 1.67325 4.15407
-1.21733 1.67426 4.15417
-1.22744 1.67004 4.13931
-1.24635 1.67623 4.15136
-1.26038 1.67618 4.14747
-1.27245 1.67406 4.13859
-1.28551 1.67295 4.1307
-1.29447 1.67603 4.13572
-1.30752 1.67394 4.12885
-1.32449 1.67801 4.13292
-1.33656 1.67588 4.12404
-1.35353 1.67896 4.12813
-1.36559 1.67785 4.12023
-1.37262 1.67679 4.1163
-1.3837 1.67364 4.10543
-1.39872 1.6746 4.10253
-1.41469 1.67767 4.1066
-1.42676 1.67555 4.09772
-1.43983 1.67443 4.08884
-1.45386 1.67438 4.08494
-1.46478 1.67953 4.09495
-1.47392 1.67326 4.07611
-1.49382 1.68047 4.08915
-1.51797 1.6772 4.07038
-1.53297 1.6782 4.06948
-1.54798 1.68019 4.06856
-1.55597 1.68121 4.06961
-1.56511 1.67596 4.05175
-1.57915 1.67589 4.04686
-1.59415 1.67689 4.04596
-1.61111 1.68197 4.05101
-1.6183 1.67362 4.02718
-1.63526 1.67771 4.03225
-1.64032 1.6756 4.02432
-1.65434 1.67656 4.02141
-1.66348 1.6713 4.00356
-1.67848 1.67331 4.00364
-1.68858 1.66911 3.98978
-1.7036 1.67109 3.98786
-1.71763 1.67105 3.98397
-1.72366 1.67099 3.98001
-1.74162 1.67508 3.98509
-1.75761 1.6781 3.98616
-1.76085 1.66665 3.95535
-1.78372 1.6759 3.97139
-1.79577 1.67581 3.96448
-1.80685 1.67365 3.9536
-1.80995 1.66948 3.94168
-1.82791 1.67356 3.94675
-1.83801 1.67038 3.93388
-1.85794 1.67651 3.94194
-1.86903 1.67436 3.93105
-1.88207 1.67428 3.92515
-1.90102 1.67938 3.93122
-1.90311 1.6752 3.91929
-1.91518 1.67408 3.9104
-1.95925 1.67798 3.90167
-1.96739 1.67272 3.88381
-1.98731 1.67986 3.89285
-1.98548 1.67154 3.87096
-2.00443 1.67765 3.87801
-2.01846 1.6776 3.87412
-2.02856 1.67442 3.86124
-2.53769 1.67356 3.57905
-2.607 1.675 3.53855
-2.64823 1.67358 3.50887
-2.70656 1.67198 3.46533
-4.27473 1.63721 1.45738
-4.28276 1.63915 1.45341
-4.26693 1.62982 1.43143
-4.28798 1.63673 1.42448
-4.28511 1.63247 1.40752
-4.29719 1.63532 1.39657
-4.28734 1.62903 1.37759
-4.3074 1.63493 1.36965
-4.2945 1.62873 1.35664
-4.30857 1.63159 1.34671
-4.30669 1.62835 1.33074
-4.32077 1.6322 1.31978
-4.30693 1.62389 1.2998
-4.32599 1.62977 1.29086
-4.32711 1.62755 1.27589
-4.32118 1.62441 1.2669
-4.33924 1.62929 1.25796
-4.34435 1.62909 1.244
-4.33749 1.62382 1.22602
-4.33461 1.62058 1.21005
-4.34669 1.62342 1.19909
-4.35977 1.62727 1.18813
-4.34786 1.6211 1.17713
-4.36493 1.62596 1.16719
-4.35407 1.61967 1.1482
-4.36216 1.6205 1.13624
-4.37524 1.62435 1.12528
-4.37836 1.62313 1.11032
-4.37049 1.61787 1.09334
-4.37659 1.61868 1.08037
-4.37864 1.61858 1.07339
-4.37576 1.61534 1.05741
-4.37987 1.61514 1.04344
-4.38397 1.61493 1.02948
-4.38808 1.61473 1.01551
-4.39218 1.61454 1.00254
-4.39628 1.61434 0.988572
-4.40931 1.61829 0.984611
-4.40045 1.61301 0.96662
-4.40654 1.61383 0.953652
-4.42872 1.61949 0.929732
-4.41386 1.61121 0.91174
-4.41997 1.61201 0.897772
-4.431 1.61594 0.892796
-4.42923 1.61149 0.862845
-4.42534 1.60827 0.847861
-4.43256 1.60786 0.819918
-4.44664 1.61269 0.807951
-4.4417 1.60957 0.799959
-4.45391 1.61118 0.773023
-4.44914 1.60572 0.742064
-4.4594 1.60622 0.708129
-4.45851 1.605 0.693138
-4.47709 1.60387 0.616284
-4.48963 1.60283 0.545384
2.5645 1.63559 3.45616
2.52573 1.63707 3.48743
2.46401 1.63665 3.52391
2.46208 1.6398 3.53388
2.44914 1.63991 3.54097
2.43821 1.64107 3.55104
2.43133 1.6443 3.56605
2.40744 1.64453 3.58123
2.39045 1.64156 3.5824
2.38752 1.6437 3.59139
2.38165 1.64895 3.60836
2.36262 1.64391 3.60458
2.35575 1.64816 3.62157
2.33772 1.64413 3.61876
2.32274 1.64219 3.6219
2.31081 1.64233 3.63099
2.30889 1.64548 3.64096
2.29695 1.64661 3.64904
2.28602 1.64775 3.6581
2.28017 1.65303 3.67707
2.26316 1.65005 3.67724
2.25021 1.64914 3.68336
2.23929 1.6513 3.69341
2.23129 1.64931 3.6935
2.21834 1.64942 3.70059
2.21451 1.65675 3.72252
2.19648 1.65172 3.71973
2.18861 1.65696 3.73571
2.17058 1.65193 3.73292
2.16575 1.65926 3.75485
2.15876 1.65828 3.75592
2.12397 1.6617 3.78313
1.16484 1.674 4.16823
1.11287 1.67008 4.17168
1.07404 1.67545 4.1949
1.05906 1.67549 4.19701
1.04093 1.66725 4.18027
1.02311 1.6746 4.2033
1.00704 1.6695 4.19549
0.993065 1.66955 4.1986
0.950134 1.66972 4.20792
0.945212 1.67387 4.2179
0.92915 1.66976 4.21008
0.916258 1.67398 4.22411
0.900165 1.66781 4.21232
0.886227 1.66994 4.2204
0.871219 1.66894 4.21953
0.859343 1.67418 4.23554
0.85025 1.66901 4.22368
0.835242 1.66801 4.22281
0.823334 1.67119 4.23485
0.805194 1.66294 4.21711
0.790202 1.66197 4.21824
0.780388 1.67133 4.24218
0.764349 1.66827 4.23734
0.74828 1.66415 4.22852
0.743404 1.67038 4.24447
0.729404 1.6694 4.24459
0.715435 1.67046 4.24868
0.702543 1.67468 4.26272
0.686488 1.67059 4.2559
0.672489 1.6706 4.256
0.666582 1.67478 4.26799
0.651567 1.67376 4.26612
0.636512 1.66967 4.25929
0.62255 1.67075 4.26438
0.607566 1.67079 4.26649
0.592535 1.66875 4.26263
0.578535 1.66876 4.26274
0.572628 1.67294 4.27472
0.557613 1.67092 4.27287
0.543628 1.67096 4.27497
0.529667 1.67304 4.28005
0.514652 1.67103 4.27819
0.498535 1.66482 4.2634
0.483528 1.66381 4.26253
0.477636 1.66902 4.2765
0.463605 1.66697 4.27263
0.447497 1.66078 4.25884
0.435714 1.6712 4.28678
0.419559 1.66292 4.26702
0.405598 1.665 4.2721
0.391684 1.66917 4.28314
0.384699 1.66921 4.2852
0.368552 1.66094 4.26644
0.355715 1.66926 4.28741
0.340622 1.66409 4.2756
0.326731 1.66931 4.28963
0.3117 1.66726 4.28577
0.29663 1.66314 4.27695
0.290708 1.66729 4.28693
0.2757 1.66629 4.28606
0.261646 1.6632 4.27921
0.246686 1.66528 4.28429
0.232756 1.66942 4.29334
0.217694 1.66532 4.28551
0.203756 1.66844 4.29357
0.19671 1.66636 4.28765
0.181671 1.6633 4.28281
0.153757 1.66748 4.29396
0.138812 1.6706 4.30103
0.12482 1.67062 4.30213
0.109766 1.66753 4.29529
0.102635 1.66128 4.27844
0.0887046 1.66443 4.2875
0.0737514 1.66652 4.29358
0.0597129 1.66446 4.28871
0.0446826 1.66341 4.28484
-0.780703 1.67223 4.10291
-0.794679 1.67528 4.10597
-0.80774 1.67217 4.09811
-0.823692 1.67627 4.10417
-0.837683 1.6783 4.10525
-0.85169 1.67829 4.10435
-0.854853 1.66999 4.08349
-0.86986 1.67098 4.08259
-0.885781 1.67614 4.09264
-0.898819 1.67508 4.08775
-0.913809 1.6771 4.08883
-0.928777 1.68017 4.0929
-0.937971 1.67081 4.06811
-0.946923 1.67391 4.07413
-0.960915 1.67493 4.07522
-0.973968 1.67384 4.06833
-0.988967 1.67485 4.06843
-1.00297 1.67584 4.06752
-1.016 1.67581 4.06462
-1.03099 1.67782 4.0647
-1.03995 1.68091 4.07073
-1.05299 1.67983 4.06484
-1.06505 1.67772 4.05696
-1.08005 1.67874 4.05706
-1.09212 1.67661 4.04818
-1.10615 1.67656 4.04429
-1.11315 1.67757 4.04432
-1.12715 1.67858 4.04441
-1.13827 1.67335 4.02857
-1.16825 1.67741 4.03174
-1.18321 1.68048 4.03581
-1.19627 1.67938 4.02792
-1.19841 1.67211 4.01004
-1.2134 1.67415 4.01212
-1.22741 1.67513 4.01022
-1.23853 1.67092 3.99536
-1.2535 1.67397 3.99843
-1.26946 1.67706 4.0035
-1.28154 1.67492 3.99362
-1.28758 1.67385 3.98868
-1.30158 1.67485 3.98778
-1.31367 1.67169 3.97691
-1.32767 1.67369 3.97599
-1.34363 1.67677 3.98106
-1.35767 1.67671 3.97617
-1.36679 1.67148 3.96031
-1.37381 1.67145 3.95837
-1.38783 1.67242 3.95546
-1.40478 1.67652 3.96152
-1.41488 1.67334 3.94865
-1.42989 1.67433 3.94774
-1.44487 1.67737 3.94981
-1.45889 1.67834 3.9469
-1.46102 1.6721 3.93101
-1.47502 1.6731 3.9301
-1.49101 1.67614 3.93218
-1.50014 1.67089 3.91532
-1.51415 1.67287 3.9134
-1.53014 1.6749 3.91449
-1.54025 1.6707 3.90062
-1.5492 1.6748 3.90663
-1.56518 1.67784 3.90871
-1.57137 1.66949 3.88487
-1.58834 1.67256 3.88896
-1.60136 1.67352 3.88604
-1.61244 1.67137 3.87515
-1.64651 1.67226 3.8664
-1.65759 1.67011 3.85551
-1.67553 1.67522 3.86257
-1.68662 1.67307 3.85168
-1.69868 1.67196 3.84379
-1.71467 1.67498 3.84487
-1.72168 1.67497 3.84392
-1.73177 1.6718 3.83204
-1.74972 1.67791 3.83809
-1.75981 1.67474 3.82621
-1.77383 1.6757 3.8233
-1.78687 1.67564 3.8184
-1.79599 1.67142 3.80353
-1.80399 1.67241 3.80257
-1.83105 1.67431 3.79475
-1.84113 1.67116 3.78387
-1.86106 1.67831 3.79291
-1.86918 1.67407 3.77703
-1.88517 1.6771 3.77811
-1.90523 1.67701 3.77126
-1.91826 1.67795 3.76634
-4.14729 1.63503 1.38344
-4.16347 1.63669 1.35954
-4.17782 1.635 1.31266
-4.18913 1.6324 1.27178
-4.1913 1.63008 1.24983
-4.20537 1.63394 1.23988
-4.21157 1.63155 1.21296
-4.2077 1.62829 1.19597
-4.21291 1.6259 1.16904
-4.22294 1.62883 1.16408
-4.22903 1.62966 1.15211
