-1.82101 1.8239 8.0189
-1.84709 1.82277 8.00911
-1.87602 1.82591 8.01729
-1.89918 1.82263 7.99751
-1.92617 1.82365 7.99769
-1.94308 1.82784 8.00976
-1.96816 1.82671 7.99997
-1.99712 1.82881 8.00515
-2.02412 1.83081 8.00433
-2.05503 1.83501 8.0165
-2.08109 1.83391 8.00871
-2.10713 1.83486 8.00389
-2.12211 1.8359 8.00599
-2.15397 1.84219 8.02414
1.89737 1.74336 7.66503
1.32984 1.7636 7.86004
1.27784 1.76264 7.86044
1.24872 1.75744 7.84574
1.20408 1.76715 7.89194
1.17812 1.76724 7.89713
1.16409 1.7662 7.89325
1.11209 1.76525 7.89466
1.08927 1.76961 7.91777
1.06332 1.77073 7.92495
1.03626 1.76761 7.9162
1.01136 1.77083 7.92934
0.999387 1.77089 7.93343
0.972348 1.76884 7.92866
0.948502 1.77315 7.94878
0.920418 1.77001 7.93804
0.893365 1.76793 7.93127
0.868442 1.77009 7.94143
0.843481 1.77018 7.94661
0.830489 1.77021 7.94771
0.804512 1.77027 7.95091
0.777466 1.7682 7.94514
0.751467 1.76822 7.94534
0.725498 1.7683 7.94953
0.699514 1.76835 7.95173
0.673491 1.76732 7.94894
0.660523 1.76839 7.95302
0.634508 1.76738 7.95123
0.6096 1.76958 7.96339
0.58257 1.76854 7.95961
0.556547 1.76751 7.95682
0.530563 1.76756 7.95901
0.503487 1.76443 7.94926
0.492687 1.77082 7.97525
0.465573 1.76762 7.9605
0.439604 1.7677 7.9647
0.413612 1.76773 7.96589
0.388751 1.77202 7.98402
0.361644 1.76883 7.97027
0.335682 1.76892 7.97546
0.322699 1.76996 7.97754
0.296676 1.76894 7.97476
0.166817 1.7723 7.99369
-0.0314882 1.7709 7.68816
-0.220398 1.7742 7.70054
-1.14831 1.79597 7.71421
-1.1873 1.798 7.71447
-1.21519 1.80224 7.72962
-1.24025 1.80114 7.72182
-1.26526 1.80213 7.72
-1.29221 1.80526 7.72715
-1.31727 1.80416 7.71936
-1.34229 1.80413 7.71655
-1.35434 1.80303 7.70965
-1.37938 1.80298 7.70484
-1.40538 1.80398 7.70402
-1.43233 1.80611 7.71119
-1.45544 1.80392 7.6974
-1.48241 1.80598 7.70057
-1.51033 1.80915 7.71074
-1.52236 1.8091 7.70683
-1.54646 1.80692 7.69404
-1.57631 1.81324 7.71418
-1.6004 1.81106 7.70139
-1.62544 1.81101 7.69658
-1.65338 1.81415 7.70474
-1.67358 1.80876 7.67797
-1.6895 1.81294 7.68903
-1.71645 1.81504 7.6952
-1.74246 1.81603 7.69338
-1.77043 1.81911 7.69755
-1.79643 1.82013 7.69773
-1.82243 1.82115 7.69791
-1.84652 1.81999 7.68611
-1.86148 1.82208 7.69119
-1.8836 1.81886 7.6754
-1.90671 1.81766 7.66159
-1.93759 1.82291 7.67675
-1.9568 1.81752 7.64997
-1.98672 1.82169 7.66013
-2.01273 1.82268 7.65832
-2.02575 1.82266 7.65641
-2.05468 1.82682 7.66557
-2.08263 1.82992 7.67174
-2.10573 1.82773 7.65794
-2.13079 1.82765 7.65113
-2.18283 1.8296 7.64549
-2.19778 1.8317 7.65158
1.87167 1.72808 7.3074
1.41914 1.75324 7.50147
1.37124 1.75448 7.51581
1.34524 1.75348 7.51502
1.32232 1.75566 7.52616
1.2963 1.75364 7.52339
1.28431 1.75367 7.52548
1.2375 1.75808 7.55077
1.2125 1.75708 7.54997
1.18648 1.75607 7.54818
1.13752 1.75518 7.55357
1.12449 1.75413 7.54968
1.10058 1.75631 7.56083
1.07561 1.7564 7.56602
1.05168 1.75855 7.57517
1.02775 1.75971 7.58433
1.00168 1.75658 7.57457
0.977738 1.75771 7.58274
0.966838 1.76091 7.59577
0.939746 1.75675 7.58404
0.915792 1.75786 7.5902
0.890831 1.75895 7.59538
0.866878 1.76006 7.60154
0.840824 1.75697 7.59478
0.816917 1.76017 7.60692
0.803925 1.76019 7.60801
0.778917 1.7592 7.60722
0.753918 1.75822 7.60742
0.728895 1.75719 7.60462
0.705056 1.76152 7.62574
0.679996 1.75942 7.61796
0.654996 1.75944 7.61815
0.641958 1.75737 7.61328
0.61915 1.76376 7.63836
0.593051 1.75958 7.62561
0.568166 1.76282 7.64075
0.54306 1.75964 7.62699
0.517014 1.75757 7.62122
0.493053 1.75866 7.62638
0.469245 1.76404 7.65148
0.456131 1.76083 7.63663
0.431254 1.76409 7.65277
0.406177 1.76096 7.643
0.381201 1.76202 7.64618
0.356255 1.76314 7.65335
0.331302 1.76525 7.65951
0.293257 1.76319 7.65382
0.26825 1.76219 7.65303
0.131361 1.7655 7.66801
-1.09549 1.78766 7.42489
-1.11952 1.78761 7.42107
-1.14453 1.7886 7.41925
-1.17237 1.79493 7.44036
-1.19356 1.78958 7.4156
-1.2094 1.7949 7.43664
-1.23344 1.79483 7.43083
-1.26033 1.79906 7.44497
-1.28247 1.79581 7.42718
-1.3094 1.79896 7.43634
-1.33437 1.80104 7.4405
-1.35555 1.7957 7.41673
-1.37142 1.80096 7.43377
-1.39642 1.80196 7.43295
-1.41662 1.79661 7.40818
-1.44738 1.80609 7.43927
-1.46661 1.79864 7.40852
-1.4916 1.80068 7.40968
-1.52142 1.80804 7.4328
-1.5296 1.8017 7.40995
-1.55655 1.80481 7.41611
-1.58154 1.80685 7.41727
-1.60655 1.80785 7.41644
-1.62868 1.80461 7.39965
-1.65368 1.80563 7.39983
-1.67582 1.80238 7.38204
-1.69072 1.80657 7.39409
-1.71863 1.81077 7.40624
-1.74173 1.80858 7.39245
-1.7677 1.81065 7.39661
-1.79562 1.81584 7.40775
-1.81774 1.8126 7.39096
-1.84177 1.81256 7.38714
-1.8567 1.81572 7.39721
-1.87978 1.81457 7.3864
-1.90869 1.81876 7.39755
-1.93661 1.82292 7.4077
-1.95872 1.82173 7.39389
-2.04874 1.82575 7.3915
-2.09781 1.82664 7.38186
1.85471 1.72724 7.04751
1.21642 1.75299 7.27397
1.19243 1.75304 7.27615
1.18043 1.75205 7.27625
1.15543 1.75105 7.27545
1.13353 1.75426 7.28857
1.10851 1.75225 7.28679
1.08347 1.75018 7.28101
1.06263 1.75552 7.30309
1.03759 1.75245 7.29732
1.0256 1.75247 7.29841
1.00375 1.75678 7.31852
0.977628 1.75257 7.30278
0.953697 1.75372 7.31194
0.931836 1.758 7.33004
0.905736 1.75383 7.3173
0.88389 1.75814 7.3374
0.857752 1.75289 7.31968
0.84576 1.75291 7.32077
0.822822 1.75505 7.32891
0.797829 1.75408 7.33011
0.774907 1.75625 7.34025
0.749799 1.75206 7.3265
0.724746 1.74997 7.31972
0.714931 1.75633 7.3437
0.688785 1.75007 7.32499
0.665855 1.75222 7.33413
0.642963 1.75545 7.34826
0.617902 1.75335 7.34048
0.592871 1.75131 7.3367
0.569987 1.75554 7.35181
0.556887 1.75136 7.33897
0.532919 1.75244 7.34313
0.511111 1.75782 7.36822
0.485973 1.75358 7.35047
0.460935 1.75152 7.34569
0.438113 1.75788 7.36877
0.390068 1.75582 7.36316
0.37816 1.75801 7.37522
0.353068 1.75485 7.36346
0.329076 1.75488 7.36464
0.306154 1.75805 7.37476
0.281101 1.75596 7.36798
0.233141 1.75707 7.37333
0.173226 1.75928 7.38475
-1.57443 1.78918 7.03542
-1.58642 1.79021 7.0365
-1.61429 1.79648 7.05362
-1.63249 1.79111 7.02783
-1.65844 1.79422 7.03398
-1.68052 1.79207 7.02318
-1.70644 1.79624 7.03331
-1.7266 1.79194 7.01253
-1.7386 1.79296 7.0136
-1.76165 1.79288 7.00677
-1.78759 1.796 7.01393
-1.80772 1.79276 6.99712
-1.8327 1.79482 7.00028
-1.85574 1.79475 6.99445
-1.87879 1.79468 6.98863
-1.9096 1.80306 7.01274
-1.91772 1.79983 6.99685
-1.94464 1.80401 7.00799
-1.97451 1.81027 7.02412
-1.99075 1.80382 6.99334
-2.02059 1.81114 7.01346
-2.03976 1.80683 6.99166
-2.06474 1.80889 6.99482
-2.0787 1.81096 6.99889
-2.10661 1.81615 7.01103
-2.12578 1.81184 6.98923
-2.1498 1.81282 6.9864
-2.17285 1.81273 6.97958
-2.19783 1.81478 6.98173
-2.217 1.81047 6.95994
-2.23388 1.8157 6.97499
-2.25205 1.81139 6.95319
-2.27899 1.81552 6.96133
-2.3001 1.81332 6.94652
-2.32902 1.8185 6.95766
-2.34717 1.81522 6.93785
-2.37706 1.82145 6.95198
-2.38516 1.81826 6.93909
-2.40919 1.81922 6.93525
-2.43713 1.82334 6.9424
-2.46017 1.82427 6.93656
-2.48422 1.8242 6.93074
-3.67512 1.81932 6.41672
1.83183 1.7066 6.66593
1.42343 1.73899 6.87756
1.37952 1.7402 6.88987
1.35445 1.73709 6.88111
1.30847 1.73515 6.88348
1.28658 1.73837 6.8976
1.27455 1.73632 6.89372
1.25259 1.73743 6.89987
1.22644 1.73115 6.88016
1.20872 1.73971 6.91717
1.1805 1.7313 6.8885
1.15959 1.73348 6.89963
1.13659 1.73251 6.90082
1.12456 1.73146 6.89692
1.10369 1.73473 6.91404
1.08175 1.73585 6.92119
1.05561 1.7306 6.90346
1.03366 1.73172 6.91061
1.01281 1.73602 6.9297
0.977794 1.73401 6.928
0.955848 1.73513 6.93515
0.93181 1.73308 6.93036
0.909864 1.7342 6.93751
0.887941 1.73636 6.94764
0.809058 1.73864 6.9632
-1.74202 1.78421 6.69271
-1.75304 1.78418 6.6898
-1.77506 1.78515 6.68695
-1.79809 1.78511 6.68312
-1.82206 1.78817 6.68626
-1.84215 1.78602 6.67544
-1.86614 1.78805 6.67659
-1.8911 1.79114 6.68173
-1.90212 1.79111 6.67881
-1.92515 1.79206 6.67497
-1.94913 1.79413 6.67812
-1.97313 1.79613 6.67727
-1.99321 1.79499 6.66744
-2.01721 1.796 6.66661
-2.0412 1.79803 6.66776
-2.05221 1.79902 6.66683
-2.07719 1.80107 6.66898
-2.10217 1.80413 6.67213
-2.12127 1.80194 6.6583
-2.14723 1.80505 6.66445
-2.17025 1.80602 6.66161
-2.19133 1.80487 6.65079
-2.20333 1.80588 6.65086
-2.22441 1.80473 6.64004
-2.24743 1.8057 6.63719
-2.27142 1.80875 6.63933
-2.29248 1.80763 6.6305
-2.3165 1.80962 6.62865
-2.33854 1.80955 6.62282
-2.34761 1.80842 6.6139
-2.36672 1.80621 6.59908
-2.39074 1.8072 6.59725
-2.41278 1.80813 6.5914
-2.43777 1.81016 6.59256
-2.46178 1.81215 6.59071
-2.48286 1.81102 6.58088
-2.49387 1.81199 6.57895
-2.51985 1.81506 6.5821
-2.53798 1.81282 6.56527
-2.56296 1.81587 6.56741
-2.58698 1.81684 6.56458
-2.60806 1.81671 6.55474
-2.63108 1.81768 6.55189
-3.67776 1.81414 6.06677
1.81369 1.70441 6.38206
1.55576 1.72567 6.52371
1.53482 1.72679 6.53085
1.51386 1.72689 6.53701
1.48776 1.72171 6.52328
1.46783 1.72387 6.5334
1.44896 1.72712 6.5495
1.439 1.72821 6.55556
1.41493 1.7241 6.5468
1.39814 1.73051 6.57383
1.37304 1.72634 6.56108
1.35003 1.72434 6.56029
1.33115 1.72757 6.57538
1.30608 1.72446 6.56662
1.29609 1.7245 6.56869
1.27306 1.72245 6.56489
1.25005 1.72044 6.5631
1.22912 1.72259 6.57222
1.20818 1.72372 6.58037
1.18616 1.72171 6.57856
1.16316 1.72073 6.57875
1.13017 1.71977 6.58001
1.02337 1.72323 6.60677
0.0404879 1.74712 6.4908
-0.00251085 1.74715 6.49113
-0.0236176 1.74396 6.47733
-0.045455 1.75029 6.49841
-0.0664852 1.74924 6.49458
-0.0874614 1.7503 6.49772
-0.0984152 1.7514 6.50379
-0.120391 1.75246 6.50694
-0.141391 1.75247 6.5071
-0.163367 1.75353 6.51025
-0.184389 1.75351 6.50741
-0.205435 1.75143 6.50159
-0.226457 1.7514 6.49875
-0.237449 1.75143 6.49984
-0.258479 1.75038 6.49601
-0.280501 1.75035 6.49318
-0.301539 1.74929 6.48835
-0.323461 1.75246 6.49847
-0.344453 1.75249 6.49963
-0.365506 1.7514 6.4928
-0.377375 1.75566 6.50983
-0.398474 1.75248 6.49703
-0.419458 1.75353 6.49918
-0.440526 1.75141 6.49036
-0.462448 1.75457 6.50048
-0.483493 1.7535 6.49466
-0.5055 1.7535 6.49382
-0.527468 1.75558 6.49796
-0.537522 1.75348 6.49106
-0.580504 1.75554 6.49336
-0.601519 1.75553 6.49152
-0.763558 1.75856 6.48669
-0.816578 1.75955 6.48408
-0.839523 1.76267 6.4912
-0.860568 1.7616 6.48538
-0.883505 1.76473 6.49351
-0.92558 1.76361 6.48384
-0.947541 1.7657 6.48897
-0.979577 1.76565 6.48421
-1.00155 1.76671 6.48736
-1.02357 1.7677 6.48552
-1.04268 1.76449 6.4707
-1.06469 1.76449 6.46987
-1.0886 1.76867 6.48099
-1.09862 1.76864 6.47807
-1.12064 1.76862 6.47623
-1.14264 1.76964 6.47638
-1.16271 1.76852 6.46755
-1.20768 1.7716 6.47084
-1.22968 1.77261 6.47099
-1.23776 1.76946 6.4601
-1.26172 1.77255 6.46523
-1.28274 1.77353 6.46338
-1.3038 1.77243 6.45555
-1.32771 1.77661 6.46667
-1.35262 1.7808 6.4788
-1.37173 1.7776 6.46399
-1.38466 1.78074 6.47304
-1.40278 1.77752 6.45722
-1.42287 1.77535 6.4454
-1.45068 1.78474 6.47048
-1.4698 1.78052 6.45468
-1.48792 1.7773 6.43886
-1.51573 1.78669 6.46394
-1.52095 1.77826 6.4351
-1.54586 1.78346 6.44721
-1.56788 1.78443 6.44436
-1.59086 1.78649 6.44751
-1.608 1.78222 6.4287
-1.63294 1.78636 6.43682
-1.65301 1.78524 6.42799
-1.6679 1.78946 6.44204
-1.68798 1.78831 6.43121
-1.70998 1.78932 6.43136
-1.73492 1.79346 6.43949
-1.75304 1.79022 6.42267
-1.77506 1.79121 6.42082
-1.79806 1.79322 6.42096
-1.80906 1.79322 6.42005
-1.83108 1.7942 6.4182
-1.8531 1.79518 6.41535
-1.8722 1.793 6.40252
-1.89713 1.79715 6.41165
-1.9172 1.79601 6.40182
-1.93826 1.79591 6.39398
-1.95025 1.79695 6.39605
-1.97324 1.79898 6.39719
-1.99721 1.80204 6.40033
-2.01727 1.80094 6.3925
-2.05938 1.80075 6.37781
-2.08237 1.80278 6.37896
-2.13646 1.80464 6.36734
-3.72351 1.81175 5.7011
1.79356 1.70124 6.09922
1.32206 1.72746 6.29741
1.27015 1.72768 6.3098
1.25021 1.72881 6.31794
1.20823 1.72789 6.32127
1.1862 1.72584 6.31746
1.16523 1.72592 6.32162
1.14529 1.72704 6.32876
1.12432 1.72711 6.33291
1.11229 1.72606 6.32902
1.09129 1.72509 6.33019
1.06926 1.72305 6.32639
1.05039 1.7273 6.34247
1.02937 1.72528 6.34066
1.00843 1.72742 6.34878
0.996332 1.72223 6.33595
0.97641 1.7254 6.34605
0.956509 1.7276 6.35917
0.935487 1.72657 6.35635
0.913449 1.72452 6.35154
0.894633 1.72989 6.37561
0.875726 1.73308 6.38771
0.862588 1.72782 6.36988
0.84058 1.72682 6.36906
0.821695 1.73006 6.38416
0.799688 1.72906 6.38334
0.778665 1.72803 6.38051
0.758742 1.73019 6.39063
0.736727 1.72918 6.38881
0.726735 1.7292 6.38989
0.705751 1.72925 6.39204
0.683766 1.72929 6.39421
0.641813 1.72941 6.40052
0.620814 1.72943 6.40068
0.599837 1.72949 6.40384
0.589891 1.7316 6.41088
0.569976 1.73377 6.422
0.546861 1.72957 6.40724
0.526915 1.73069 6.41437
0.506 1.73386 6.42548
0.483908 1.7297 6.41371
0.464039 1.73397 6.4308
0.453001 1.7329 6.4259
0.432078 1.73507 6.43602
0.412148 1.73821 6.44513
0.390071 1.73408 6.43536
0.369157 1.73726 6.44647
0.348219 1.73939 6.4546
0.327181 1.73833 6.44977
0.31622 1.73942 6.45484
0.295228 1.73945 6.45599
0.274274 1.74055 6.46214
0.253251 1.73952 6.45931
0.231198 1.73743 6.45251
0.210337 1.74272 6.47059
0.189353 1.74276 6.47274
0.178323 1.74171 6.46884
0.157331 1.74174 6.47
0.136454 1.74599 6.4861
0.114363 1.74283 6.47431
0.0934713 1.74705 6.48841
0.0724562 1.74604 6.48658
0.051411 1.74496 6.48075
-1.00836 1.75818 6.24851
-1.2485 1.76404 6.22923
-1.25853 1.76399 6.2253
-1.30056 1.76498 6.22261
-1.3206 1.7649 6.21676
-1.34162 1.76487 6.21392
-1.36358 1.76796 6.21904
-1.38267 1.7658 6.20721
-1.39269 1.76578 6.20529
-1.4968 1.76762 6.19004
-1.5298 1.76964 6.19026
-1.66302 1.77031 6.16225
-1.70407 1.77123 6.15554
-1.72703 1.77432 6.16067
-1.76809 1.77522 6.15197
-1.78914 1.77515 6.14613
-1.79818 1.77408 6.14121
-1.81919 1.77607 6.13934
-1.83925 1.77496 6.1315
-1.85929 1.77489 6.12566
-1.88228 1.77693 6.1278
-1.90231 1.77789 6.12393
-1.92431 1.77889 6.12309
-1.9353 1.77991 6.12415
-1.95438 1.77878 6.11431
-1.97833 1.78288 6.12043
-1.99937 1.78281 6.11459
-2.02137 1.78484 6.11573
-2.0424 1.78578 6.11087
-2.06244 1.78572 6.10602
-2.07443 1.78675 6.1071
-2.09936 1.7919 6.11621
-2.11747 1.7897 6.10238
-2.14239 1.79487 6.11249
-2.15951 1.79165 6.09666
-2.18152 1.79363 6.0948
-2.20353 1.79563 6.09394
-2.21454 1.79561 6.09202
-2.23362 1.79446 6.08118
-2.25073 1.79227 6.06734
-2.27373 1.79428 6.06748
-2.29671 1.79733 6.06961
-2.31579 1.7962 6.05977
-2.33585 1.79608 6.05092
-2.34978 1.79922 6.05998
-2.3669 1.79701 6.04514
-2.3899 1.79903 6.04528
-2.40996 1.79892 6.03744
-2.43001 1.79882 6.02959
-2.45006 1.79975 6.02372
-2.47012 1.79964 6.01588
-2.48406 1.80275 6.02294
-2.50412 1.80265 6.01509
-2.52124 1.80044 6.00025
-2.5413 1.80034 5.9924
-2.5633 1.80234 5.99153
-2.58532 1.80431 5.98867
-2.60343 1.80212 5.97484
-2.61541 1.80415 5.9769
-2.65652 1.80498 5.96319
-2.67559 1.80384 5.95335
-2.7157 1.80466 5.93964
-2.7387 1.80767 5.93877
-2.74872 1.80763 5.93585
-2.7678 1.80749 5.92599
-2.80498 1.80517 5.9023
-3.71642 1.809 5.44805
-3.71969 1.80149 5.41318
-3.73481 1.79926 5.39732
1.77599 1.69917 5.89136
1.496 1.71831 6.0242
1.45297 1.71428 6.02058
1.43403 1.71541 6.02871
1.41407 1.71552 6.03486
1.40409 1.71555 6.03694
1.38099 1.71138 6.02417
1.36103 1.71147 6.02932
1.3421 1.71262 6.03845
1.32422 1.71586 6.05454
1.30216 1.71276 6.04675
1.29114 1.71173 6.04384
1.27117 1.71182 6.04899
1.24912 1.70873 6.0422
1.22913 1.70777 6.04437
1.21022 1.70995 6.05548
1.19025 1.71002 6.05963
1.17029 1.71111 6.06477
1.15924 1.70903 6.05888
1.13927 1.7091 6.06303
1.12137 1.71231 6.07612
1.10038 1.71134 6.07729
1.0804 1.7114 6.08044
1.06042 1.71044 6.08261
1.04047 1.71256 6.08973
1.03153 1.71367 6.09678
1.01155 1.71373 6.09993
0.991604 1.71485 6.10706
0.971597 1.71385 6.10623
0.95062 1.71391 6.10939
0.932713 1.7171 6.12148
0.911736 1.71716 6.12463
0.901728 1.71615 6.12372
0.881782 1.71727 6.13086
0.860759 1.71624 6.12803
0.84079 1.71631 6.13218
0.821852 1.71844 6.14029
0.781937 1.72064 6.15156
0.751961 1.7207 6.15479
0.60014 1.72315 6.1789
0.182541 1.73221 6.23292
-1.98832 1.77298 5.85662
-2.02545 1.77176 5.83991
-2.0494 1.77586 5.84603
-2.06748 1.77473 5.83619
-2.08653 1.77464 5.82933
-2.10143 1.77984 5.84237
-2.13564 1.77445 5.8147
-2.15663 1.77648 5.81583
-2.17374 1.77429 5.80199
-2.19572 1.77733 5.80411
-2.22165 1.78249 5.81323
-2.22186 1.77509 5.78634
-2.24289 1.77604 5.78248
-2.26292 1.77598 5.77763
-2.28099 1.77586 5.76877
-2.30103 1.77579 5.76292
-2.32891 1.78405 5.77901
-2.33913 1.77662 5.75019
-2.35211 1.77868 5.75326
-2.3741 1.78069 5.7534
-2.39216 1.78059 5.74553
-2.41319 1.78254 5.74166
-2.43519 1.78456 5.7418
-2.45424 1.78448 5.73594
-2.46742 1.77914 5.71212
-2.48746 1.78008 5.70725
-2.49649 1.78001 5.70232
-2.51751 1.78198 5.69945
-2.54148 1.78606 5.70357
-2.55463 1.78177 5.68373
-2.57763 1.78379 5.68387
-2.59766 1.78574 5.68
-2.59983 1.77942 5.6581
-2.62477 1.78454 5.66522
-2.64285 1.78341 5.65537
-2.6629 1.78432 5.6485
-2.68589 1.78735 5.64963
-2.70789 1.79037 5.64975
-2.72401 1.78714 5.63392
-2.735 1.78916 5.63497
-2.75603 1.79112 5.6311
-2.77213 1.78892 5.61725
-2.79809 1.79302 5.62239
-2.81025 1.78971 5.60153
-2.82932 1.78959 5.59267
-2.85526 1.79472 5.59979
-2.86529 1.79468 5.59687
-2.88435 1.79456 5.58801
-2.9103 1.79967 5.59413
-2.92641 1.79747 5.58029
-2.94941 1.80149 5.5804
-2.96255 1.79722 5.56156
-2.99344 1.80545 5.57567
-2.99854 1.80226 5.56276
-3.01662 1.80212 5.55289
-3.03667 1.80302 5.54503
-3.0577 1.80497 5.54116
-3.72049 1.80693 5.17307
-3.71469 1.79954 5.14713
-3.72881 1.79732 5.13127
1.74521 1.69168 5.65467
1.53617 1.7127 5.78195
1.50618 1.71173 5.78319
1.4862 1.71079 5.78635
1.46619 1.70879 5.78553
1.44726 1.70993 5.79366
1.42726 1.70895 5.79483
1.40518 1.70481 5.78405
1.39624 1.70693 5.79209
1.37624 1.70495 5.79227
1.3552 1.70289 5.78746
1.33829 1.70506 5.79855
1.31725 1.70201 5.79376
1.29829 1.70311 5.79988
1.28039 1.70531 5.81299
1.27038 1.70429 5.81108
1.25141 1.70436 5.81522
1.23037 1.70131 5.81042
1.21244 1.70345 5.81953
1.19349 1.70457 5.82666
1.17664 1.70986 5.84571
1.15452 1.70366 5.83096
1.14455 1.70471 5.83402
1.12556 1.70375 5.83618
1.10768 1.70799 5.85126
1.09079 1.71121 5.86534
1.06871 1.70708 5.85556
1.05079 1.70925 5.86667
1.03183 1.71034 5.87179
1.0208 1.70829 5.86791
1.00392 1.71254 5.88397
0.982894 1.71049 5.88016
0.962871 1.70846 5.87734
0.943894 1.70852 5.88049
0.924971 1.71068 5.8906
0.904979 1.71071 5.89175
0.899149 1.71704 5.9137
0.87601 1.71079 5.89597
0.857071 1.71192 5.90409
0.839133 1.71406 5.9122
0.819126 1.71306 5.91136
0.799157 1.71413 5.9155
0.781234 1.71629 5.9256
0.770203 1.71424 5.92171
0.750188 1.71322 5.91988
0.731219 1.7143 5.92401
0.693374 1.71862 5.94423
-1.88747 1.76567 5.70495
-1.90651 1.7656 5.69909
-1.96461 1.76645 5.68651
-1.97364 1.76638 5.68158
-1.99463 1.76841 5.68271
-2.03761 1.77349 5.68596
-2.0547 1.77232 5.6741
-2.07179 1.77016 5.66226
-2.08986 1.76902 5.65241
-2.11085 1.77207 5.65453
-2.12283 1.7731 5.6566
-2.13894 1.77091 5.64275
-2.1609 1.77398 5.64687
-2.17701 1.77179 5.63303
-2.19901 1.7738 5.63316
-2.22295 1.77892 5.64027
-2.22904 1.77575 5.62836
-2.24417 1.77253 5.61252
-2.26321 1.77345 5.60665
-2.28421 1.77547 5.60678
-2.30228 1.77435 5.59793
-2.32231 1.7763 5.59405
-2.34135 1.77623 5.58819
-2.3494 1.77513 5.58127
-2.36943 1.77608 5.5774
-2.38455 1.77387 5.56255
-2.40949 1.77799 5.56968
-2.42755 1.77789 5.56181
-2.45052 1.78195 5.56493
-2.46662 1.77977 5.55208
-2.47762 1.78078 5.55215
-2.49568 1.78067 5.54428
-2.51768 1.78369 5.5444
-2.53869 1.78567 5.54253
-2.5548 1.78348 5.52869
-2.57187 1.78334 5.51881
-2.59485 1.7864 5.52194
-2.60585 1.7874 5.52101
-2.62491 1.78831 5.51414
-2.64494 1.78925 5.50928
-2.66004 1.78707 5.49642
-2.67615 1.78487 5.48257
-2.69913 1.78892 5.48469
-2.71818 1.78883 5.47783
-2.7451 1.79599 5.48793
-2.75512 1.79597 5.486
-2.77418 1.79687 5.47813
-2.78929 1.79465 5.46328
-2.81326 1.79872 5.4664
-2.84743 1.79642 5.44469
-2.87552 1.79726 5.43288
-2.89556 1.7982 5.42802
-3.75316 1.80267 4.95135
-3.74749 1.79103 4.90847
1.7519 1.68412 5.4817
1.74832 1.70093 5.53649
1.4781 1.71064 5.6404
1.45913 1.71071 5.64454
1.43807 1.70661 5.63676
1.4291 1.70767 5.64081
1.40806 1.70461 5.63601
1.39013 1.70575 5.64413
1.37011 1.70473 5.6423
1.35217 1.70586 5.65042
1.33215 1.70283 5.64761
1.31423 1.70499 5.65772
1.30316 1.70188 5.64985
1.28626 1.70509 5.66293
1.26314 1.69887 5.64719
1.24521 1.70102 5.6563
1.22727 1.70215 5.66442
1.20933 1.70326 5.67153
1.18931 1.70125 5.66971
1.16031 1.69927 5.66996
1.14341 1.70247 5.68304
1.12338 1.70043 5.67923
1.10647 1.70362 5.69131
1.0875 1.70369 5.69545
1.06958 1.70585 5.70555
1.06059 1.70589 5.70762
1.0416 1.70592 5.70876
1.02264 1.70601 5.71391
1.00264 1.70502 5.71407
0.98678 1.7103 5.73212
0.967803 1.71036 5.73526
0.94778 1.70833 5.73244
0.938818 1.70941 5.73749
0.917749 1.70629 5.72869
0.901888 1.71057 5.74675
0.881849 1.70851 5.74193
0.863934 1.71068 5.75304
0.843919 1.70967 5.7512
0.824958 1.71076 5.75633
0.815981 1.71081 5.7594
0.778043 1.71195 5.76767
0.759051 1.71198 5.76881
0.721066 1.71104 5.77111
0.0278811 1.72216 5.61515
-0.00908706 1.72324 5.61941
-0.047032 1.72538 5.62667
-0.0749616 1.72853 5.63583
-0.112014 1.72745 5.62913
-0.149974 1.72855 5.6344
-0.168035 1.72645 5.62656
-0.177012 1.7275 5.62961
-0.195973 1.72959 5.63473
-0.215003 1.72854 5.63089
-0.252901 1.73276 5.64411
-0.270993 1.7296 5.63229
-0.299876 1.73484 5.64743
-0.354974 1.73169 5.63489
-0.374904 1.73484 5.644
-0.421902 1.73587 5.64434
-1.04927 1.74556 5.59691
-1.14337 1.74642 5.58361
-1.19135 1.75048 5.58591
-1.22937 1.75148 5.58418
-1.26546 1.75033 5.57247
-1.31154 1.7502 5.56182
-1.3486 1.75011 5.5541
-1.41145 1.76042 5.57242
-1.43466 1.75404 5.54568
-1.45365 1.75506 5.54681
-1.49461 1.76017 5.55205
-1.52682 1.75378 5.52438
-1.5607 1.76204 5.54052
-1.57387 1.75571 5.5177
-1.61387 1.75974 5.51795
-1.64799 1.75752 5.50223
-1.65898 1.75855 5.5033
-1.68189 1.76374 5.5154
-1.69605 1.75944 5.49457
-1.71702 1.76251 5.49868
-1.73211 1.75933 5.48584
-1.75506 1.76345 5.49295
-1.77017 1.76026 5.47911
-1.78408 1.76543 5.49014
-1.79723 1.76014 5.47032
-1.81722 1.76317 5.47142
-1.83528 1.76208 5.46457
-1.85429 1.76307 5.4627
-1.87526 1.76613 5.46581
-1.88941 1.76186 5.44698
-1.90039 1.76389 5.44903
-1.92235 1.76698 5.45415
-1.94038 1.76794 5.45028
-1.95746 1.7668 5.44042
-1.97649 1.76674 5.43556
-1.99454 1.76666 5.4297
-2.01552 1.76971 5.43181
-2.02551 1.77173 5.43286
-2.04357 1.77164 5.42599
-2.06064 1.76951 5.41615
-2.07869 1.76941 5.40929
-2.10163 1.77455 5.41739
-2.11772 1.77238 5.40554
-2.13674 1.77435 5.40265
-2.15067 1.7785 5.4117
-2.16971 1.77844 5.40684
-2.18678 1.77831 5.39797
-2.20481 1.77825 5.39311
-2.22581 1.78127 5.39322
-2.24681 1.78328 5.39335
-2.26682 1.78527 5.39147
-2.27094 1.78105 5.37656
-2.30507 1.77981 5.35883
-2.32607 1.78182 5.35896
-2.34804 1.78588 5.36207
-2.36218 1.78163 5.34424
-2.38317 1.78466 5.34535
-2.39416 1.78669 5.3474
-2.40828 1.78345 5.33055
-2.46638 1.7873 5.31793
-3.79876 1.79859 4.60671
-3.79703 1.78908 4.57183
1.73535 1.69206 5.27468
1.12498 1.71466 5.49198
1.10702 1.71574 5.4971
1.05106 1.71387 5.50355
1.02309 1.71394 5.50676
1.0072 1.71716 5.52083
0.969157 1.71411 5.51616
0.952281 1.71836 5.53223
0.932211 1.71424 5.52344
0.914219 1.71427 5.52457
0.904204 1.71325 5.52267
0.886265 1.71438 5.53078
0.869312 1.71648 5.53688
0.847158 1.7092 5.51715
0.832382 1.71764 5.54614
0.812304 1.71351 5.53636
0.796435 1.71777 5.55341
0.785328 1.71357 5.53956
0.766358 1.71364 5.5437
0.747336 1.71261 5.54086
0.731498 1.71794 5.5619
0.709251 1.70748 5.53022
0.694529 1.71802 5.56618
0.674444 1.71387 5.55539
0.666498 1.71598 5.56242
0.645336 1.70869 5.54169
0.629568 1.71814 5.57167
0.608337 1.70772 5.54198
0.592537 1.71511 5.56799
0.572407 1.70987 5.55122
0.544453 1.71098 5.55741
0.527554 1.71419 5.5705
0.490547 1.7132 5.56979
0.471501 1.71113 5.56396
0.45364 1.7164 5.58202
0.406579 1.71332 5.57442
0.333673 1.71555 5.58694
0.305681 1.71559 5.58815
0.269844 1.72192 5.60933
0.194846 1.72098 5.60991
0.148854 1.72103 5.61125
0.0649108 1.72319 5.61885
0.00939685 1.71826 5.41832
-0.0435784 1.71934 5.4217
-0.0615779 1.71935 5.42184
-0.0795617 1.72039 5.42396
-0.0984526 1.72561 5.43802
-0.107553 1.72043 5.42517
-0.197542 1.72251 5.42682
-0.341513 1.72566 5.43085
-0.396496 1.72773 5.43324
-1.12086 1.74247 5.38547
-1.13889 1.74242 5.38161
-1.15789 1.74344 5.38173
-1.17592 1.74339 5.37787
-1.18493 1.74338 5.37694
-1.20197 1.74331 5.37107
-1.304 1.74932 5.36775
-1.3381 1.74714 5.35403
-1.35613 1.74709 5.35017
-1.39413 1.75012 5.35041
-1.41602 1.75634 5.36449
-1.41921 1.74897 5.33961
-1.43822 1.74997 5.33874
-1.45723 1.75097 5.33787
-1.49132 1.7498 5.32514
-1.51226 1.75394 5.33324
-1.52738 1.75071 5.3174
-1.54028 1.75591 5.33042
-1.55928 1.75693 5.33055
-1.57437 1.75476 5.3187
-1.59241 1.7547 5.31383
-1.61045 1.75464 5.30897
-1.62846 1.75562 5.30709
-1.64357 1.75243 5.29325
-1.65649 1.75658 5.30329
-1.67159 1.7544 5.29043
-1.69255 1.75748 5.29454
-1.70861 1.75637 5.28668
-1.72764 1.75734 5.28381
-1.74663 1.75935 5.28392
-1.76564 1.76135 5.28303
-1.76979 1.75507 5.26416
-1.78877 1.75812 5.26625
-1.80974 1.76118 5.26937
-1.82484 1.75799 5.25653
-1.84384 1.76001 5.25664
-1.86089 1.75993 5.25077
-1.88088 1.76296 5.25187
-1.88891 1.76189 5.24695
-1.90989 1.76495 5.25006
-1.92498 1.76279 5.23821
-1.94498 1.7648 5.23833
-1.963 1.76577 5.23545
-1.97712 1.76256 5.2206
-1.99712 1.76456 5.21972
-2.01005 1.7687 5.22876
-2.02514 1.76653 5.2169
-2.04513 1.76956 5.21801
-2.06611 1.77261 5.22012
-2.08317 1.77251 5.21325
-2.10023 1.77141 5.20539
-2.12315 1.77756 5.21448
-2.12825 1.77438 5.20256
-2.14826 1.77637 5.20068
-2.1853 1.77831 5.19493
-2.20237 1.77719 5.18608
-2.2204 1.77914 5.18218
-2.3006 1.7798 5.15577
-2.31667 1.77968 5.14689
-2.33372 1.77959 5.14002
-2.35275 1.78054 5.13615
-2.36176 1.78152 5.13421
-2.37981 1.78144 5.12834
-2.39784 1.7824 5.12446
-2.43294 1.78321 5.11071
1.73166 1.68176 5.05183
1.13145 1.71065 5.28896
1.11448 1.71072 5.29309
1.07746 1.7077 5.29041
1.06156 1.71091 5.30348
1.03562 1.71204 5.31166
1.01556 1.70894 5.30386
0.99965 1.71213 5.31593
0.98165 1.71014 5.3161
0.962596 1.70705 5.30929
0.947735 1.71233 5.32732
0.935634 1.70715 5.31449
0.919712 1.7103 5.32456
0.900673 1.70724 5.31975
0.885812 1.71252 5.33779
0.867858 1.71362 5.34391
0.849851 1.71262 5.34306
0.829743 1.70743 5.32929
0.82075 1.70745 5.33035
0.803827 1.70961 5.34045
0.785789 1.70755 5.33562
0.76782 1.70762 5.33975
0.751905 1.7108 5.35082
0.732851 1.70771 5.34401
0.715913 1.70984 5.35211
0.699005 1.71303 5.36419
0.687905 1.70884 5.35134
0.672029 1.71309 5.36739
0.654029 1.7131 5.36753
0.633913 1.7069 5.35277
0.617998 1.71007 5.36385
0.601099 1.71428 5.37691
0.592107 1.7143 5.37798
0.573046 1.71119 5.37017
0.555045 1.71021 5.37032
0.537053 1.71023 5.37145
0.521154 1.71444 5.38451
0.50317 1.71448 5.38665
0.483016 1.7072 5.36691
0.47507 1.70931 5.37394
0.458171 1.71351 5.387
0.422217 1.71463 5.39326
0.40421 1.71363 5.39241
0.368211 1.71365 5.39268
0.359249 1.71473 5.39773
0.341165 1.71058 5.38693
0.324281 1.71482 5.40199
0.306343 1.71795 5.41008
0.288258 1.7138 5.39928
0.269236 1.71277 5.39644
0.252329 1.71696 5.40851
0.24326 1.71383 5.39962
0.225313 1.71495 5.40674
0.207376 1.71808 5.41483
0.189276 1.7139 5.40202
0.171292 1.71395 5.40416
0.15337 1.71711 5.41425
0.108409 1.71821 5.41957
0.0903789 1.71717 5.41572
0.0543799 1.71719 5.41599
-1.18645 1.74239 5.17494
-1.20158 1.73815 5.15811
-1.28063 1.7411 5.15166
-1.3147 1.74098 5.14192
-1.33174 1.74092 5.13705
-1.34074 1.74093 5.13712
-1.37871 1.74601 5.14133
-1.39477 1.74491 5.13346
-1.41083 1.7428 5.12561
-1.42882 1.74483 5.12672
-1.44489 1.74269 5.11687
-1.45583 1.74682 5.12489
-1.47385 1.74779 5.12201
-1.50695 1.74562 5.10929
-1.523 1.74553 5.10242
-1.54296 1.74963 5.10851
-1.55903 1.74749 5.09866
-1.56899 1.74957 5.1037
-1.58506 1.74845 5.09484
-1.60014 1.7463 5.08398
-1.62011 1.74937 5.08809
-1.63422 1.74618 5.07424
-1.65225 1.74713 5.07036
-1.67415 1.75334 5.08344
-1.67632 1.74601 5.06156
-1.69824 1.75218 5.07163
-1.71527 1.75212 5.06676
-1.73232 1.75204 5.06089
-1.74935 1.75198 5.05602
-1.76835 1.75401 5.05713
-1.7805 1.74872 5.0373
-1.78951 1.74971 5.03635
-1.81045 1.75383 5.04345
-1.82358 1.74959 5.02661
-1.84258 1.7516 5.02672
-1.86451 1.75674 5.03481
-1.87371 1.74937 5.00999
-1.8976 1.75658 5.02306
-1.90564 1.75651 5.01812
-1.92364 1.75853 5.01823
-1.94069 1.75844 5.01136
-1.96067 1.76149 5.01446
-1.9738 1.75725 4.99762
-1.98984 1.75718 4.99174
-2.00982 1.76022 4.99385
-2.01295 1.75497 4.97695
-2.03784 1.76321 4.99202
-2.05489 1.76312 4.98515
-2.07584 1.76722 4.99124
-2.09093 1.76506 4.97939
-2.11189 1.77014 4.98447
-2.12304 1.76486 4.96463
-2.13696 1.77001 4.97466
-2.15596 1.77203 4.97477
-2.17007 1.76983 4.96091
-2.18809 1.7708 4.95803
-2.22414 1.77272 4.95127
-2.31739 1.7753 4.91893
-2.3605 1.77611 4.90424
-2.3746 1.77393 4.89138
-2.40671 1.77373 4.87662
-2.42769 1.77777 4.87872
-2.45784 1.7755 4.85898
-2.46982 1.77855 4.86203
-2.50293 1.77836 4.84728
-2.53702 1.7792 4.83552
-2.54913 1.77699 4.82064
-2.59027 1.77774 4.80194
-2.61028 1.77974 4.80106
-2.64044 1.77845 4.7803
-2.65452 1.7773 4.76942
-2.71666 1.78106 4.75083
-3.43121 1.77056 4.28231
1.70802 1.67257 4.83512
1.70127 1.68304 4.86702
1.34935 1.69839 5.01046
1.28248 1.69869 5.02796
1.25754 1.69881 5.03515
1.24261 1.70097 5.04523
1.20557 1.69691 5.03957
1.18961 1.69701 5.04569
1.17472 1.70123 5.05974
1.15669 1.69918 5.05591
1.1477 1.69922 5.05797
1.13173 1.69929 5.06209
1.1158 1.70143 5.07118
1.09674 1.69733 5.06339
1.07977 1.69738 5.06651
1.06382 1.6985 5.07362
1.0458 1.69648 5.07178
1.0278 1.69548 5.07093
1.0188 1.69449 5.07102
1.007 1.70389 5.09797
0.986896 1.6977 5.08421
0.96888 1.69569 5.08238
0.952973 1.69888 5.09445
0.935965 1.69787 5.09359
0.92695 1.69685 5.09168
0.909965 1.69689 5.0938
0.89405 1.69907 5.10489
0.876042 1.69806 5.10404
0.861143 1.70227 5.1171
0.844151 1.7013 5.11824
0.826112 1.69823 5.11342
0.818181 1.70137 5.12243
0.801213 1.70244 5.12655
0.784228 1.70249 5.12867
0.767251 1.70254 5.1318
0.750298 1.70364 5.13791
0.733267 1.7016 5.13407
0.715243 1.69957 5.13124
0.706236 1.69856 5.13032
0.68922 1.69754 5.12846
0.673313 1.70073 5.14054
0.656367 1.70285 5.14763
0.638298 1.69873 5.13883
0.621329 1.6998 5.14294
0.603329 1.69881 5.14309
0.596391 1.70193 5.1511
0.57836 1.69989 5.14727
0.562461 1.70409 5.16033
0.54443 1.70205 5.15649
0.510485 1.70317 5.16373
0.48447 1.70216 5.16194
0.373595 1.70548 5.17873
0.131794 1.71103 5.20547
-1.15371 1.73391 5.00879
-1.2648 1.7388 4.99655
-1.3939 1.74468 4.98344
-1.44205 1.74241 4.96283
-1.51719 1.74218 4.9444
-1.56534 1.74094 4.92578
-1.97922 1.74746 4.80878
-2.00328 1.74736 4.80096
-2.04029 1.75237 4.80017
-2.06944 1.74909 4.78043
-2.08844 1.75211 4.78053
-2.10055 1.7489 4.76567
-2.11644 1.75511 4.7797
-2.1315 1.75401 4.77183
-2.1505 1.75702 4.77193
-2.16753 1.75797 4.76804
-2.18358 1.75788 4.76116
-2.2006 1.75985 4.75826
-2.21962 1.76083 4.75639
-2.23156 1.76494 4.76342
-2.24074 1.75961 4.74056
-2.26268 1.76473 4.74765
-2.27186 1.7584 4.72481
-2.28889 1.75935 4.72093
-2.30002 1.75509 4.70307
-2.32098 1.76018 4.70816
-2.33803 1.7601 4.70228
-2.34212 1.75693 4.69036
-2.35915 1.75888 4.68646
-2.37225 1.7567 4.67359
-2.39813 1.76494 4.68866
-2.40533 1.75756 4.66282
-2.42433 1.75956 4.66194
-2.43235 1.76054 4.65998
-2.44446 1.75832 4.6451
-2.46052 1.75822 4.63723
-2.47459 1.75709 4.62835
-2.4867 1.75388 4.61348
-2.51359 1.76311 4.62755
-2.52177 1.75677 4.6047
-2.55077 1.76078 4.60386
-2.56879 1.76275 4.60097
-2.57696 1.75744 4.58011
-2.59597 1.76043 4.57821
-2.6071 1.75718 4.56134
-2.62413 1.75812 4.55645
-2.63609 1.7612 4.56149
-2.65412 1.76316 4.5576
-2.66426 1.7589 4.53974
-2.6803 1.75984 4.53484
-2.69931 1.76282 4.53294
-2.71438 1.7627 4.52406
-2.74819 1.77608 4.54812
-2.74043 1.7646 4.51622
-2.7555 1.76448 4.50734
-2.77452 1.76646 4.50545
-2.8024 1.77569 4.51953
-2.80563 1.76725 4.48967
-2.82268 1.76817 4.48379
-2.85281 1.76792 4.46601
-2.87071 1.77513 4.47904
-2.88479 1.77499 4.46915
-2.89393 1.77072 4.45028
-2.9169 1.77578 4.45338
-2.94802 1.77658 4.4386
-2.9842 1.77623 4.41387
-3.02126 1.78014 4.40609
1.70199 1.67553 4.6971
1.69625 1.68603 4.73099
1.43594 1.69156 4.82288
1.41895 1.6906 4.82503
1.38498 1.68967 4.8283
1.37597 1.68766 4.82739
1.34404 1.68883 4.83762
1.32808 1.6889 4.84174
1.30028 1.69532 4.86886
1.27604 1.68288 4.83822
1.26113 1.68605 4.84929
1.25314 1.68609 4.85135
1.2351 1.68201 4.84554
1.21916 1.68414 4.85363
1.17538 1.6906 4.88287
1.16743 1.6917 4.88891
1.12823 1.68136 4.86436
1.11747 1.69082 4.8953
1.1015 1.6909 4.89942
1.06957 1.69204 4.90765
1.02554 1.68802 4.90504
1.00852 1.68599 4.9022
0.976596 1.68716 4.91242
0.955789 1.69455 4.93747
0.937727 1.69144 4.92965
0.905843 1.69469 4.94485
0.872882 1.69479 4.9501
0.856912 1.69486 4.95422
0.847897 1.69383 4.9523
0.691067 1.69427 4.97548
0.633137 1.69545 4.9849
0.0235686 1.70972 4.91027
0.00650756 1.70762 4.90243
-0.00150789 1.70659 4.9005
-0.0174453 1.70972 4.90858
-0.0343444 1.71393 4.92164
-0.050359 1.71391 4.91976
-0.0673353 1.71497 4.92288
-0.0834359 1.70979 4.91007
-0.0993965 1.71187 4.91516
-0.108342 1.71498 4.92218
-0.124434 1.71082 4.91037
-0.140434 1.71083 4.91049
-0.1903 1.71811 4.92776
-0.206361 1.71501 4.91992
-0.214408 1.71292 4.91401
-0.23226 1.72022 4.93304
-0.248321 1.71811 4.92519
-0.264374 1.71602 4.91834
-0.281234 1.7223 4.93638
-0.297296 1.72019 4.92853
-0.314233 1.72332 4.93661
-0.323209 1.72437 4.93967
-0.340186 1.72543 4.94278
-0.356239 1.72434 4.93592
-0.372308 1.72122 4.92708
-0.389199 1.72644 4.94113
-0.406206 1.72643 4.94026
-0.423143 1.72956 4.94834
-0.431197 1.72747 4.94143
-0.447235 1.7264 4.93657
-0.464234 1.72742 4.93668
-0.481187 1.72952 4.94278
-0.496302 1.72531 4.92796
-0.513255 1.72741 4.93405
-0.528354 1.72423 4.92121
-0.536385 1.72217 4.9173
-0.553369 1.72422 4.9194
-0.586383 1.72421 4.91765
-0.602428 1.72313 4.91178
-0.61752 1.71997 4.89994
-0.634473 1.72207 4.90604
-0.642495 1.72203 4.9031
-0.676486 1.72407 4.90433
-0.709507 1.72405 4.90158
-0.750536 1.72502 4.89787
-0.782572 1.72497 4.89311
-0.798618 1.72389 4.88725
-0.81464 1.72386 4.88437
-0.848623 1.72591 4.8866
-0.873652 1.72587 4.88278
-0.890643 1.7269 4.8839
-0.906666 1.72686 4.88102
-0.923656 1.72889 4.88212
-0.939678 1.72886 4.87924
-0.955732 1.72677 4.87239
-0.96663 1.73297 4.88538
-0.981707 1.72983 4.87554
-0.998706 1.73084 4.87565
-1.01281 1.72766 4.8628
-1.03171 1.73285 4.87487
-1.04773 1.73282 4.87199
-1.06668 1.73694 4.87907
-1.07565 1.739 4.88311
-1.09168 1.73894 4.87823
-1.10967 1.74098 4.88034
-1.12667 1.74199 4.88045
-1.14366 1.74402 4.88155
-1.16357 1.7492 4.89262
-1.18058 1.75018 4.89074
-1.23574 1.74691 4.8702
-1.27072 1.75098 4.8734
-1.30888 1.7467 4.85275
-1.32492 1.74662 4.84687
-1.34386 1.75075 4.85495
-1.3599 1.75067 4.84908
-1.37498 1.74854 4.83922
-1.3949 1.7537 4.84929
-1.40095 1.7516 4.84237
-1.41408 1.74737 4.82653
-1.43207 1.7494 4.82763
-1.44909 1.75037 4.82475
-1.45927 1.74202 4.80095
-1.48212 1.75233 4.82097
-1.49036 1.74187 4.78918
-1.5052 1.75019 4.81017
-1.52513 1.75532 4.81825
-1.5363 1.74902 4.79742
-1.55037 1.74688 4.78756
-1.57229 1.75306 4.79863
-1.58734 1.75197 4.79176
-1.60142 1.74981 4.7809
-1.61335 1.75395 4.78993
-1.62744 1.7518 4.77906
-1.64053 1.74963 4.76719
-1.65657 1.74956 4.76131
-1.67555 1.7516 4.76343
-1.69158 1.75257 4.76053
-1.71153 1.75666 4.76562
-1.7127 1.74935 4.74474
-1.7307 1.75136 4.74484
-1.75162 1.75751 4.75391
-1.76278 1.75122 4.73409
-1.7749 1.74699 4.71824
-1.8017 1.7594 4.74426
-1.81481 1.75618 4.7294
-1.82185 1.75511 4.72447
-1.83788 1.75607 4.72058
-1.85491 1.75702 4.71669
-1.90695 1.76097 4.71102
-1.922 1.76088 4.70414
-1.94606 1.76077 4.69632
-1.96407 1.76277 4.69543
1.68853 1.6617 4.50538
1.68688 1.67736 4.55017
1.2232 1.69324 4.72545
1.17837 1.6976 4.74772
1.16832 1.69451 4.74084
1.13534 1.69257 4.74412
1.12039 1.69469 4.7512
1.08946 1.69484 4.76044
1.07245 1.69384 4.75958
1.06551 1.69597 4.7676
1.04744 1.69083 4.75781
1.03562 1.69918 4.78078
1.01757 1.6951 4.77498
1.00264 1.69725 4.78406
0.98563 1.69625 4.7832
0.969623 1.69524 4.78234
0.963723 1.69944 4.79532
0.944645 1.69431 4.78554
0.932823 1.70165 4.80852
0.913715 1.69546 4.79476
0.898808 1.69965 4.80681
0.8828 1.69765 4.80596
0.868924 1.70289 4.82199
0.859901 1.70186 4.81907
0.843908 1.70088 4.82021
0.827939 1.70195 4.82431
0.809861 1.69682 4.81452
0.795978 1.70205 4.82955
0.780024 1.70315 4.83566
0.764063 1.70424 4.84076
0.755024 1.70217 4.83586
0.739031 1.7012 4.83699
0.724102 1.70434 4.84606
0.706063 1.70128 4.84124
0.691133 1.70442 4.85031
0.676195 1.70655 4.85839
0.65814 1.70246 4.85159
0.649086 1.70036 4.84468
0.634187 1.70457 4.85774
0.617148 1.70151 4.85291
0.601133 1.70049 4.85104
0.586234 1.70469 4.8641
0.569203 1.70264 4.86025
0.553288 1.70582 4.87133
0.545249 1.70375 4.86642
0.529265 1.70379 4.86854
0.513335 1.70694 4.87761
0.497374 1.70802 4.88272
0.480312 1.70492 4.87489
0.464351 1.706 4.88
0.448389 1.70709 4.8851
0.43825 1.70083 4.86727
0.423359 1.70505 4.88132
0.407359 1.70506 4.88144
0.390305 1.70197 4.87461
0.374414 1.70719 4.88866
0.358383 1.70514 4.88481
0.341391 1.70517 4.88594
0.325438 1.70727 4.89203
0.317446 1.70729 4.89309
0.301407 1.70522 4.88824
0.284446 1.70631 4.89335
0.268423 1.70528 4.89049
0.25247 1.70738 4.89658
0.236517 1.70948 4.90267
0.227479 1.70741 4.89776
0.211526 1.70951 4.90385
0.195518 1.70851 4.90299
0.178534 1.70955 4.9051
0.162557 1.70961 4.90822
0.145441 1.7044 4.89343
0.129543 1.7096 4.90647
0.121519 1.70756 4.90356
0.0884895 1.70653 4.89982
0.0725207 1.7076 4.90393
0.0565676 1.7097 4.91002
0.0394985 1.70658 4.90119
0.0326875 1.70898 4.79319
0.0169671 1.72253 4.82912
0.000672694 1.70798 4.79145
-0.0153268 1.70799 4.79157
-0.0312875 1.71007 4.79666
-0.0473021 1.71006 4.79478
-0.0562008 1.71525 4.80777
-0.088161 1.71735 4.81298
-0.104269 1.71216 4.79918
-0.120254 1.7122 4.8013
-0.136082 1.72153 4.82328
-0.152307 1.71012 4.79457
-0.160205 1.71532 4.80755
-0.176282 1.71218 4.79772
-0.193111 1.72052 4.81973
-0.208266 1.71323 4.79995
-0.225079 1.7226 4.82394
-0.240334 1.71012 4.79123
-0.257109 1.72156 4.82019
-0.26424 1.71532 4.80334
-0.280317 1.71218 4.7935
-0.298076 1.72365 4.82447
-0.312308 1.71322 4.79473
-0.330137 1.72156 4.81674
-0.34612 1.7236 4.81883
-0.362181 1.72049 4.811
-0.371002 1.72984 4.83393
-0.384343 1.7132 4.79027
-0.401249 1.71839 4.80232
-0.433287 1.71734 4.79758
-0.448371 1.71418 4.78674
-0.465323 1.71729 4.79282
-0.474245 1.72144 4.80283
-0.489315 1.71832 4.79399
-0.505368 1.71623 4.78714
-0.522251 1.72246 4.80218
-0.553389 1.71722 4.78449
-0.577387 1.71823 4.78465
-0.59341 1.7172 4.78179
-0.60944 1.71715 4.77791
-0.626354 1.72133 4.78898
-0.699373 1.72434 4.78648
-0.731418 1.72327 4.78074
-0.762485 1.72216 4.77199
-0.778516 1.72111 4.76812
-0.786523 1.7211 4.76718
-0.805374 1.7294 4.7862
-0.834558 1.72307 4.76251
-0.867556 1.72509 4.76273
-0.892531 1.72715 4.76589
-0.909491 1.73024 4.77097
-0.927444 1.73334 4.77706
-0.939637 1.72498 4.75228
-0.959488 1.73327 4.77131
-0.973571 1.73112 4.76044
-0.989594 1.73109 4.75756
-0.999547 1.73318 4.76361
-1.01365 1.73 4.75076
-1.03062 1.73206 4.75386
-1.04757 1.73516 4.75994
-1.06266 1.73301 4.74908
-1.07963 1.73508 4.75318
-1.09855 1.74023 4.76225
-1.09981 1.72874 4.72942
-1.12064 1.73808 4.75145
-1.13378 1.73282 4.73362
-1.15271 1.73697 4.7427
-1.16775 1.73689 4.73682
-1.18956 1.74726 4.76083
-1.20465 1.74411 4.74999
-1.20779 1.73783 4.7311
-1.24662 1.74918 4.75323
-1.25782 1.74081 4.72744
-1.27383 1.74181 4.72654
-1.29374 1.74798 4.7376
-1.30104 1.73441 4.69885
-1.31875 1.74999 4.73676
-1.32799 1.73952 4.70498
-1.34108 1.73637 4.69412
-1.36682 1.75087 4.72711
-1.37314 1.73626 4.68537
-1.39305 1.74245 4.69743
-1.40517 1.73822 4.68158
-1.41513 1.7413 4.68661
-1.43604 1.74749 4.69868
-1.44232 1.73395 4.66192
-1.46419 1.74322 4.67895
-1.47631 1.73899 4.6631
-1.4972 1.74521 4.67717
-1.51129 1.74305 4.6653
-1.51248 1.73369 4.64145
-1.53435 1.74294 4.65748
-1.54941 1.74185 4.65061
-1.56543 1.74282 4.64771
-1.59022 1.75422 4.67373
-1.59359 1.73853 4.62699
-1.6135 1.7447 4.63805
-1.63051 1.7457 4.63716
-1.63558 1.74256 4.62724
-1.65455 1.74663 4.63132
-1.66569 1.74137 4.61348
-1.68073 1.74129 4.6076
-1.69774 1.74229 4.60671
-1.71768 1.74741 4.61379
-1.73058 1.75361 4.62679
-1.73585 1.74211 4.593
-1.75971 1.75138 4.61004
-1.7728 1.74821 4.59819
-1.78492 1.745 4.58332
-1.80389 1.74806 4.58642
-1.82089 1.75007 4.58652
-1.83184 1.75418 4.59354
-1.84983 1.75619 4.59365
-1.86195 1.75298 4.57879
-1.87602 1.75184 4.56891
-1.894 1.7549 4.572
-1.91396 1.75899 4.57709
-1.9241 1.75372 4.55824
-1.93702 1.75989 4.56925
-1.94815 1.75564 4.55239
-1.96615 1.75764 4.5515
-1.98021 1.75653 4.54362
-2.01326 1.75845 4.53684
-2.03225 1.7615 4.53894
-2.05432 1.76137 4.5291
-2.06642 1.75918 4.51623
-2.12958 1.7609 4.49467
1.69394 1.6765 4.42511
1.2283 1.69246 4.6054
1.12748 1.69289 4.63016
1.09859 1.69612 4.64433
1.04369 1.69735 4.65773
0.989788 1.69758 4.67113
0.97585 1.69971 4.67921
0.940757 1.69356 4.66756
0.912966 1.70198 4.69465
0.896958 1.69998 4.6938
0.87402 1.70211 4.70194
0.824996 1.6981 4.69937
0.793003 1.69614 4.70064
0.770042 1.69723 4.7058
0.740197 1.70255 4.72595
0.691143 1.69848 4.71938
0.685283 1.70475 4.73733
0.669267 1.70274 4.73548
0.635182 1.6976 4.72481
0.604236 1.69872 4.73203
0.59143 1.7071 4.75701
0.574384 1.70503 4.75116
0.549299 1.69988 4.74043
0.536562 1.71139 4.77436
0.518353 1.70101 4.74765
0.503493 1.70729 4.76567
0.487477 1.70627 4.7638
0.479501 1.70732 4.76685
0.464594 1.71151 4.7789
0.447493 1.70533 4.76612
0.414439 1.70225 4.75941
0.400563 1.70749 4.77544
0.383517 1.70542 4.7696
0.375564 1.70751 4.77563
0.360587 1.70757 4.77874
0.345751 1.71589 4.79973
0.326378 1.69719 4.75215
0.312712 1.71284 4.79503
0.29548 1.70141 4.76532
0.281767 1.71496 4.80223
0.263496 1.70146 4.76756
0.256643 1.70875 4.78651
0.240605 1.70668 4.78166
0.224629 1.70774 4.78476
0.209846 1.71816 4.81273
0.19149 1.7005 4.76712
0.176684 1.70988 4.7921
0.160646 1.70782 4.78725
0.152676 1.70888 4.79129
0.136894 1.71931 4.81926
0.119546 1.70265 4.77463
0.104593 1.70475 4.78071
0.0886394 1.70685 4.7868
0.0727717 1.71312 4.80383
0.056555 1.70271 4.7761
0.0487178 1.71003 4.79706
-0.0334288 1.70184 4.64578
-0.0492344 1.71122 4.67076
-0.174323 1.70813 4.65975
-0.220376 1.70606 4.65312
-1.2681 1.72931 4.55866
-1.52156 1.73257 4.49751
-1.60477 1.73221 4.47014
-1.68191 1.73499 4.45168
-1.84832 1.73729 4.39789
-1.90145 1.73808 4.38128
-1.93447 1.74104 4.37748
-1.96552 1.74296 4.37069
-1.99054 1.74594 4.36783
-1.9997 1.74065 4.34797
-2.02555 1.75095 4.36702
-2.03174 1.74258 4.34219
-2.04974 1.74559 4.34228
-2.06281 1.74446 4.33239
-2.0808 1.7475 4.33448
-2.08487 1.74535 4.32454
-2.10975 1.75461 4.3406
-2.11791 1.7483 4.31975
-2.13492 1.75029 4.31785
-2.15193 1.75228 4.31695
-2.16499 1.75116 4.30806
-2.18202 1.75313 4.30516
-2.1979 1.76036 4.32017
-2.209 1.75816 4.30629
-2.24009 1.75902 4.29551
-2.26721 1.7578 4.27973
-2.28323 1.75976 4.27582
-2.31741 1.75744 4.25311
-2.3354 1.76047 4.2542
-2.34454 1.75621 4.23633
-2.36649 1.76231 4.2424
-2.37955 1.76119 4.23352
-2.39768 1.75897 4.21768
-2.4147 1.76093 4.21478
-2.47587 1.76364 4.1922
-2.48191 1.76355 4.18625
-2.49598 1.76243 4.17737
-2.5051 1.7582 4.1615
-2.5241 1.76221 4.16158
-2.55122 1.762 4.14579
-2.56331 1.76083 4.13389
-2.58736 1.76274 4.12704
-2.62659 1.76033 4.09737
-2.64162 1.76126 4.09247
-2.65371 1.76009 4.08058
-2.66667 1.76419 4.08662
-2.69577 1.765 4.07282
-2.72489 1.76579 4.05703
-2.79925 1.76513 4.00959
-2.81232 1.76399 3.9997
-2.82243 1.76179 3.98581
-2.84243 1.76581 3.9859
-2.8645 1.76668 3.97605
-2.8857 1.76331 3.95026
-2.89977 1.76318 3.94137
-3.03235 1.76711 3.8633
1.67592 1.6735 4.28927
1.3988 1.68442 4.40721
1.36681 1.68146 4.4085
1.3539 1.68463 4.41955
1.3299 1.68267 4.42076
1.29893 1.68073 4.42402
1.28908 1.68704 4.444
1.26899 1.68087 4.43225
1.25607 1.68404 4.4433
1.24314 1.68619 4.45236
1.23309 1.68209 4.4455
1.21707 1.68007 4.44365
1.19798 1.67493 4.43287
1.1892 1.68435 4.4608
1.17421 1.68337 4.46193
1.15617 1.68031 4.45711
1.15126 1.68449 4.46908
1.14145 1.69185 4.49305
1.11922 1.67944 4.4644
1.1053 1.6826 4.47446
1.09033 1.68267 4.47857
1.08056 1.6921 4.50751
1.06246 1.68694 4.49572
1.05032 1.67868 4.47793
1.04259 1.69119 4.51181
1.02347 1.68398 4.49706
1.00849 1.68404 4.50017
0.978554 1.68518 4.50838
0.965647 1.68837 4.52043
0.95174 1.69255 4.53248
0.922514 1.67915 4.50389
0.912739 1.68958 4.53281
0.895685 1.68549 4.526
0.879693 1.68552 4.52712
0.86577 1.68768 4.5372
0.848707 1.68357 4.52939
0.845917 1.69397 4.55626
0.828878 1.69091 4.55143
0.81387 1.68991 4.55056
0.796839 1.68786 4.54671
0.787103 1.70037 4.58061
0.766893 1.68799 4.55394
0.752986 1.69217 4.56598
0.747049 1.6953 4.57398
0.729994 1.6912 4.56717
0.716071 1.69436 4.57723
0.697924 1.68609 4.55849
0.684033 1.69131 4.57252
0.666955 1.68618 4.56272
0.652017 1.68831 4.5708
0.629009 1.68731 4.56999
0.614025 1.68735 4.5721
0.599064 1.68843 4.5772
0.56811 1.68954 4.58342
0.546211 1.69375 4.59652
0.530126 1.6886 4.58572
0.469227 1.69184 4.59913
0.446274 1.69394 4.60527
0.400306 1.69404 4.60962
0.369392 1.69722 4.62081
0.316524 1.70251 4.63813
0.214518 1.70057 4.63793
0.129598 1.70378 4.64852
0.0515613 1.70176 4.64414
0.0215011 1.7017 4.50335
0.00653226 1.70277 4.50744
-0.0094516 1.70381 4.50955
-0.0163968 1.70692 4.51656
-0.0313575 1.709 4.52164
-0.0463727 1.70798 4.51977
-0.0624187 1.70591 4.51392
-0.0773869 1.70798 4.518
-0.0923633 1.70903 4.5211
-0.107331 1.7111 4.52518
-0.114464 1.70386 4.50834
-0.130385 1.70801 4.5184
-0.145416 1.70697 4.51453
-0.160493 1.70283 4.5047
-0.175399 1.70802 4.51674
-0.190383 1.70906 4.51884
-0.205491 1.70386 4.50502
-0.213406 1.70803 4.51602
-0.311494 1.70592 4.50479
-0.683591 1.71597 4.49244
-0.712697 1.71279 4.47871
-0.721619 1.71694 4.48872
-0.751664 1.71587 4.48296
-0.766671 1.71687 4.48206
-0.796738 1.71576 4.4733
-0.80566 1.71991 4.4833
-0.834743 1.71777 4.47255
-0.850719 1.71983 4.47564
-0.864788 1.7177 4.46678
-0.879802 1.71769 4.46489
-0.897723 1.72285 4.47495
-0.931884 1.71756 4.45429
-0.946906 1.71753 4.4514
-0.97888 1.72059 4.4546
-1.06004 1.71933 4.43322
-1.0901 1.71925 4.42645
-1.1131 1.72025 4.42561
-1.14315 1.72118 4.41982
-1.15913 1.72322 4.42191
-1.1882 1.7221 4.41214
-1.20616 1.7262 4.41822
-1.2122 1.72411 4.4123
-1.23209 1.73233 4.42633
-1.24421 1.72712 4.41149
-1.25921 1.72913 4.41157
-1.27714 1.73426 4.41964
-1.29121 1.73214 4.41077
-1.30527 1.73003 4.40291
-1.31423 1.73311 4.40793
-1.3273 1.73099 4.39906
-1.34527 1.73406 4.40315
-1.36126 1.73709 4.40422
-1.37043 1.72877 4.38241
-1.38645 1.72973 4.37952
-1.40632 1.73799 4.39555
-1.40947 1.73171 4.37666
-1.42352 1.73063 4.37079
-1.4434 1.73886 4.38582
-1.45454 1.73259 4.36699
-1.46957 1.73356 4.36409
-1.49045 1.74079 4.37914
-1.50059 1.73552 4.36029
-1.51055 1.73862 4.36632
-1.52459 1.73854 4.36043
-1.54061 1.73952 4.35853
-1.55172 1.73531 4.34368
-1.56968 1.73939 4.34875
-1.58179 1.7362 4.33489
-1.59681 1.73616 4.332
-1.60971 1.74336 4.345
-1.62471 1.74436 4.34409
-1.63387 1.73806 4.32325
-1.65185 1.74111 4.32634
-1.66785 1.74312 4.32643
-1.67603 1.73578 4.3026
-1.69693 1.74298 4.31565
-1.70298 1.7419 4.30972
-1.71703 1.7408 4.30284
-1.73403 1.74282 4.30293
-1.74709 1.74271 4.29503
-1.76114 1.74161 4.28815
-1.7791 1.7457 4.29323
-1.79218 1.74355 4.28236
-1.80019 1.74454 4.2814
-1.81716 1.7476 4.28449
-1.83024 1.74646 4.2746
-1.84823 1.74948 4.27569
-1.87338 1.74521 4.25594
-1.89136 1.74926 4.25902
-1.91636 1.75227 4.25816
-1.94544 1.75313 4.24737
1.67339 1.65453 4.08854
1.66861 1.66395 4.11644
1.14428 1.68856 4.33806
1.10037 1.68977 4.35037
1.08643 1.69088 4.35746
1.05748 1.691 4.36468
1.05049 1.69102 4.36573
1.00553 1.69015 4.37208
0.976595 1.69129 4.38029
0.962641 1.69238 4.38638
0.925711 1.69354 4.39564
0.895725 1.6916 4.39789
0.866795 1.69375 4.40708
0.860864 1.69589 4.4161
0.84588 1.69593 4.41821
0.815895 1.69498 4.42045
0.801973 1.69814 4.43051
0.785957 1.69612 4.42866
0.772019 1.69925 4.43672
0.763988 1.69619 4.43282
0.750035 1.69829 4.4389
0.733995 1.69523 4.43406
0.718995 1.69424 4.43419
0.704026 1.69531 4.43829
0.689058 1.69638 4.44239
0.674042 1.69436 4.44053
0.667096 1.69647 4.44755
0.652096 1.69648 4.44766
0.637112 1.69652 4.44978
0.622142 1.69659 4.45389
0.606065 1.69246 4.44407
0.591081 1.6925 4.44618
0.578197 1.69773 4.4612
0.568057 1.69047 4.44339
0.556275 1.70089 4.47132
0.539143 1.69365 4.45456
0.525252 1.69887 4.46859
0.509151 1.69269 4.4558
0.495291 1.69997 4.4738
0.47919 1.69379 4.46101
0.464198 1.69381 4.46212
0.459392 1.70319 4.48702
