-1.42076 1.67464 4.50596
-1.43777 1.67564 4.50507
-1.45768 1.68181 4.51614
-1.46101 1.66719 4.47437
-1.48383 1.67754 4.49639
-1.49498 1.67226 4.47755
-1.52075 1.68571 4.50655
-1.51705 1.67115 4.46873
-1.5428 1.68562 4.49972
-1.54614 1.67099 4.45695
-1.56605 1.67717 4.46801
-1.57621 1.67086 4.44718
-1.60199 1.68331 4.47619
-1.61116 1.67698 4.45335
-1.62406 1.68318 4.46636
-1.63322 1.67687 4.44552
-1.65119 1.67995 4.44961
-1.65744 1.66948 4.41781
-1.68713 1.68708 4.45678
-1.7004 1.67657 4.42203
-1.71643 1.67652 4.41815
-1.74125 1.68788 4.44117
-1.74258 1.67324 4.39839
-1.76154 1.67733 4.40347
-1.77069 1.67206 4.38462
-1.79551 1.6824 4.40666
-1.79568 1.67507 4.38476
-1.82053 1.68537 4.4038
-1.82967 1.68011 4.38594
-1.85061 1.68525 4.39403
-1.85682 1.67685 4.36719
-1.87774 1.68301 4.37726
-1.88395 1.67462 4.35043
-1.89882 1.68187 4.36644
-1.90699 1.67555 4.34459
-1.93381 1.68791 4.36761
-1.93902 1.6785 4.33979
-1.96094 1.68568 4.35085
-1.97304 1.68249 4.33798
-1.99199 1.68758 4.34305
-1.99608 1.68442 4.33213
-2.03108 1.68944 4.33232
-2.05722 1.68618 4.31356
-2.08337 1.68391 4.29379
-2.1195 1.68368 4.27706
-2.13551 1.68566 4.27515
-2.15449 1.68972 4.27823
-2.24192 1.68394 4.22197
-2.27593 1.68892 4.21915
-2.32219 1.68445 4.18556
-2.37532 1.68824 4.16891
-2.45769 1.68556 4.11956
-2.53697 1.68807 4.08311
-2.61526 1.68953 4.04368
-2.6414 1.68828 4.02589
-2.71477 1.68761 3.97745
-2.79208 1.68905 3.936
-4.75205 1.66502 1.55679
-4.7563 1.66154 1.52387
-4.76441 1.66233 1.50992
-4.76853 1.6611 1.49397
-4.77457 1.66202 1.488
-4.76074 1.65468 1.466
-4.77483 1.65751 1.45406
-4.761 1.65018 1.43206
-4.77907 1.65504 1.42213
-4.77322 1.65076 1.40314
-4.78139 1.65042 1.38021
-4.78689 1.64345 1.31434
3.50128 1.62279 3.16846
3.47348 1.62321 3.19567
3.43568 1.62064 3.223
3.39496 1.6212 3.2593
3.39311 1.6255 3.27925
3.37815 1.6236 3.28539
3.36926 1.62581 3.29943
3.34734 1.62298 3.30964
3.3344 1.62212 3.31875
0.812218 1.67007 4.62822
0.742287 1.66926 4.63776
0.727333 1.67035 4.64386
0.702256 1.66623 4.63411
0.688372 1.67046 4.64915
0.671318 1.66737 4.64233
0.640372 1.66849 4.64954
0.609388 1.66854 4.65178
0.602473 1.67171 4.66278
0.586442 1.66966 4.65893
0.554419 1.66764 4.65621
0.523435 1.6667 4.65845
0.508505 1.66984 4.66752
0.499451 1.66674 4.66063
0.469505 1.66887 4.66783
0.454599 1.67306 4.67988
0.437482 1.66685 4.6651
0.406483 1.66587 4.66535
0.399638 1.67317 4.68529
0.366491 1.66491 4.66666
0.352646 1.67222 4.68666
0.336577 1.6691 4.67783
0.320631 1.67121 4.68492
0.304554 1.66708 4.6751
0.297717 1.67439 4.69604
0.281663 1.6713 4.68921
0.266656 1.6713 4.68832
0.249571 1.66715 4.67751
0.23471 1.67342 4.69553
0.21861 1.66824 4.68273
0.203765 1.67555 4.70274
0.195602 1.66725 4.68192
0.179696 1.67143 4.69398
0.163642 1.66934 4.68713
0.147495 1.66207 4.66835
0.133782 1.67563 4.70526
0.116651 1.66939 4.68848
0.101737 1.67357 4.69953
0.0936128 1.66733 4.68369
0.0778147 1.67673 4.70967
0.0615823 1.6653 4.67996
0.0467848 1.67569 4.70592
-0.0855629 1.65616 4.52918
-0.116492 1.65931 4.53837
-0.419627 1.65925 4.52165
-0.450594 1.66233 4.52584
-0.534644 1.66329 4.51946
-0.616747 1.66214 4.50609
-0.647777 1.66211 4.50232
-0.745856 1.66301 4.49205
-1.53714 1.66901 4.3239
-1.60134 1.66766 4.2974
-1.68447 1.67145 4.27996
-1.74262 1.6722 4.26039
-1.79179 1.67091 4.23877
-1.81595 1.6666 4.21702
-1.87592 1.6757 4.22134
-1.92128 1.66603 4.17381
-1.96035 1.66892 4.16506
-1.9793 1.67302 4.17115
-2.00445 1.67075 4.15137
-2.02636 1.67792 4.16243
-2.03648 1.67371 4.14756
-2.05051 1.67465 4.14266
-2.05361 1.67047 4.13074
-2.07159 1.67451 4.13282
-2.08269 1.67133 4.11994
-2.09672 1.67227 4.11504
-2.10487 1.66699 4.09617
-2.12384 1.67106 4.10026
-2.14183 1.67409 4.10135
-2.14885 1.67405 4.0984
-2.16192 1.67393 4.0895
-2.1799 1.67697 4.09159
-2.18508 1.66962 4.06773
-2.2011 1.6716 4.06582
-2.22106 1.67669 4.0709
-2.2361 1.67761 4.065
-2.23819 1.67344 4.05307
-2.26013 1.68057 4.06114
-2.27024 1.67737 4.04726
-2.28625 1.67935 4.04535
-2.29734 1.67718 4.03346
-2.30547 1.67294 4.01658
-2.32347 1.67595 4.01668
-2.34331 1.68626 4.03667
-2.33665 1.6706 3.99285
-2.35958 1.67775 4.00192
-2.36869 1.67455 3.98803
-2.38472 1.67551 3.98414
-2.38792 1.66812 3.95827
-2.40986 1.67424 3.96534
-2.43092 1.67514 3.95749
-2.43806 1.66986 3.93862
-2.47307 1.67687 3.93778
-2.49634 1.66936 3.90206
-2.51238 1.6703 3.89717
-2.52248 1.66811 3.88427
-2.54739 1.67629 3.89534
-2.55968 1.66674 3.85757
-2.57976 1.66659 3.84672
-2.59974 1.67165 3.8498
-2.62191 1.66832 3.82701
-2.65001 1.67015 3.81419
-2.66396 1.67525 3.82022
-2.66515 1.66688 3.79535
-2.68612 1.67296 3.79942
-2.70017 1.67286 3.79253
-2.71324 1.67274 3.78363
-2.72629 1.67263 3.77573
-2.73441 1.66941 3.76083
-2.74945 1.67134 3.75492
-2.75153 1.66819 3.74498
-2.77646 1.67633 3.75305
-2.77667 1.66794 3.72717
-2.80654 1.6792 3.74323
-2.80971 1.67286 3.72034
-2.82574 1.67481 3.71643
-2.83287 1.67157 3.69953
-2.84781 1.6767 3.70757
-2.86899 1.67336 3.68378
-2.88304 1.67526 3.67685
-2.90006 1.67723 3.67395
-2.9062 1.67297 3.65606
-2.91531 1.67077 3.64216
-2.92431 1.67277 3.6422
-2.94133 1.67574 3.63928
-2.96627 1.68386 3.64635
-2.96349 1.67443 3.61746
-2.98843 1.68155 3.62455
-2.99556 1.67831 3.60765
-3.0016 1.67824 3.60269
-3.00772 1.67401 3.5868
-3.03664 1.68417 3.59687
-3.04673 1.683 3.58496
-3.08889 1.68571 3.56323
-3.088 1.6815 3.54929
-3.11511 1.6833 3.53446
-3.12817 1.68419 3.52655
-3.13926 1.68302 3.51465
-3.15134 1.68288 3.50474
-3.19062 1.68135 3.46705
-4.57134 1.6663 1.65043
-4.56855 1.66189 1.62347
-4.56681 1.65539 1.58955
-4.59186 1.6633 1.58262
-4.57803 1.65497 1.56063
-4.57915 1.65273 1.54467
-4.59018 1.65568 1.54071
-4.58532 1.6514 1.52173
-4.57747 1.64611 1.50275
-4.61647 1.65911 1.50085
-4.59268 1.64671 1.47485
-4.62003 1.65003 1.428
3.24627 1.60596 3.16963
3.17494 1.61332 3.25807
3.12813 1.60974 3.28448
3.12326 1.61299 3.30147
3.11334 1.61416 3.31253
3.10545 1.61638 3.32656
3.08342 1.61033 3.32282
3.07049 1.60948 3.33193
3.07058 1.61265 3.34388
3.06066 1.61382 3.35494
3.0457 1.61191 3.36008
3.03679 1.61309 3.37213
3.0289 1.61631 3.38615
3.01899 1.61749 3.39821
3.01503 1.61858 3.40422
3.00311 1.61874 3.41431
3.00228 1.62506 3.43623
2.9944 1.62831 3.45224
2.96327 1.61609 3.43665
2.94932 1.61419 3.44279
2.94648 1.62051 3.46372
2.93647 1.6175 3.46284
2.93566 1.62485 3.48674
2.91463 1.61983 3.48397
2.90168 1.61894 3.49108
2.89986 1.62528 3.514
2.88793 1.62542 3.52309
2.87095 1.62248 3.52627
2.87004 1.62564 3.53723
2.86114 1.62784 3.55026
2.84416 1.6249 3.55344
2.83121 1.62501 3.56053
2.82434 1.62827 3.57754
2.81544 1.63047 3.59057
2.78157 1.62874 3.60786
2.78075 1.6361 3.63176
2.71899 1.6336 3.66326
2.71211 1.63684 3.67927
1.24142 1.66125 4.38809
1.21949 1.66241 4.39824
1.18643 1.65632 4.39057
1.15958 1.66162 4.4097
1.13763 1.66174 4.41687
1.09269 1.66189 4.4252
1.07976 1.66403 4.43427
1.06273 1.66099 4.43044
1.04877 1.66207 4.43553
1.04078 1.66209 4.43659
1.02579 1.66113 4.43872
0.995822 1.66021 4.44296
0.965884 1.66135 4.45117
0.951923 1.66244 4.45626
0.927899 1.65941 4.45349
0.91603 1.66467 4.4705
0.897953 1.66054 4.4607
0.882945 1.65853 4.45984
0.871108 1.66585 4.48082
0.851953 1.65757 4.46109
0.846007 1.65968 4.4681
0.830014 1.6587 4.46924
0.819208 1.66708 4.4942
0.79689 1.65149 4.45359
0.782952 1.65362 4.46166
0.770075 1.65787 4.4777
0.756161 1.66204 4.48875
0.74706 1.65585 4.4759
0.734215 1.66316 4.49589
0.716076 1.65591 4.47814
0.704239 1.66323 4.49912
0.685052 1.65288 4.47541
0.672184 1.65815 4.49244
0.656114 1.65402 4.48362
0.648091 1.65299 4.48069
0.634222 1.65825 4.49772
0.61813 1.65408 4.4859
0.604262 1.65934 4.50293
0.587115 1.65207 4.48417
0.573192 1.65423 4.49424
0.5582 1.65426 4.49535
0.552355 1.66156 4.51529
0.534146 1.65117 4.48858
0.520262 1.6564 4.50361
0.489215 1.65234 4.4979
0.477441 1.66378 4.52682
0.459231 1.65239 4.50013
0.452324 1.65657 4.51212
0.436232 1.65241 4.5003
0.423387 1.65871 4.52031
0.40627 1.6525 4.50552
0.392426 1.65981 4.52552
0.376271 1.65252 4.50575
0.36238 1.65674 4.51979
0.339427 1.65885 4.52594
0.309411 1.65684 4.52419
0.278397 1.65583 4.52244
0.255389 1.65483 4.52163
0.225429 1.65693 4.52682
0.195452 1.657 4.53005
0.164446 1.657 4.52928
0.142477 1.65808 4.53343
0.111408 1.65497 4.52471
0.0585026 1.65918 4.53705
0.0194809 1.6602 4.40131
0.0124033 1.65606 4.39142
-0.0025498 1.65816 4.39751
-0.0175412 1.65918 4.3986
-0.0315565 1.65816 4.39672
-0.0465096 1.66026 4.40281
-0.0615556 1.65818 4.39695
-0.083454 1.66339 4.41004
-0.0985929 1.65714 4.39224
-0.112562 1.65821 4.39633
-0.127638 1.65507 4.38649
-0.142615 1.65612 4.38959
-0.171606 1.65716 4.39079
-0.20955 1.66029 4.39803
-0.223612 1.65718 4.39018
-0.23765 1.65612 4.38531
-0.253564 1.66029 4.39637
-0.267586 1.66026 4.39347
-0.275602 1.65924 4.39155
-0.289655 1.65714 4.38468
-0.319615 1.66024 4.38986
-0.334638 1.6592 4.38699
-0.348629 1.66023 4.38808
-0.363621 1.66026 4.38919
-0.371582 1.66234 4.39422
-0.385682 1.65815 4.38139
-0.399705 1.65712 4.37851
-0.415611 1.66231 4.39056
-0.42968 1.66019 4.38169
-0.444663 1.66123 4.38379
-0.460632 1.6633 4.38788
-0.466709 1.66015 4.37797
-0.481731 1.65912 4.3751
-0.496676 1.66223 4.38217
-0.51073 1.66014 4.3753
-0.525729 1.66115 4.3754
-0.541697 1.66322 4.37949
-0.554781 1.66007 4.36863
-0.56275 1.66213 4.37266
-0.577734 1.66317 4.37476
-0.591787 1.66108 4.3679
-0.606818 1.66003 4.36403
-0.622746 1.66518 4.37307
-0.636808 1.66207 4.36522
-0.651791 1.66411 4.3673
-0.657884 1.65994 4.35541
-0.672845 1.66202 4.36049
-0.687835 1.66405 4.36158
-0.70378 1.66716 4.36865
-0.717865 1.66401 4.3578
-0.730957 1.65984 4.34596
-0.746917 1.66293 4.35104
-0.754854 1.66705 4.35904
-0.767001 1.65978 4.34023
-0.797984 1.66283 4.34242
-0.812029 1.66175 4.33654
-0.825075 1.65967 4.33067
-0.847105 1.65963 4.32684
-0.861142 1.65957 4.32194
-0.879048 1.66476 4.334
-0.892116 1.66263 4.32513
-0.908092 1.66469 4.32822
-1.12252 1.66099 4.27188
-1.14554 1.66197 4.27004
-1.15957 1.66192 4.26615
-1.2276 1.6669 4.26159
-1.28179 1.66357 4.23704
-1.29875 1.66665 4.24212
-1.31376 1.66765 4.24122
-1.31883 1.66552 4.23229
-1.33189 1.66341 4.22442
-1.34885 1.6675 4.22949
-1.36191 1.66539 4.22162
-1.37694 1.66534 4.21773
-1.39487 1.67047 4.22579
-1.405 1.66523 4.20894
-1.42507 1.66511 4.20009
-1.44106 1.66714 4.20118
-1.45511 1.66604 4.1943
-1.48124 1.66283 4.17855
-1.49918 1.66794 4.18561
-1.50229 1.66274 4.17171
-1.51729 1.66475 4.17179
-1.53525 1.66882 4.17586
-1.54929 1.66876 4.17097
-1.57735 1.66966 4.16317
-1.59042 1.66753 4.1543
-1.59646 1.66645 4.14836
-1.61146 1.66846 4.14844
-1.62354 1.66632 4.13856
-1.63661 1.6642 4.12969
-1.65162 1.66618 4.12777
-1.66664 1.66615 4.12489
-1.68069 1.66607 4.11899
-1.68966 1.66912 4.12202
-1.70761 1.67423 4.12908
-1.71577 1.66693 4.10824
-1.72981 1.66685 4.10235
-1.74679 1.67091 4.10542
-1.75984 1.66981 4.09853
-1.77192 1.66766 4.08765
-1.77992 1.66868 4.0887
-1.79298 1.66857 4.0808
-1.80701 1.66852 4.0769
-1.82498 1.67258 4.07998
-1.8341 1.66835 4.06411
-1.85011 1.67035 4.0632
-1.87003 1.67651 4.07326
-1.87215 1.67129 4.05835
-1.88815 1.67328 4.05744
-1.9071 1.67839 4.06351
-1.91328 1.67105 4.04066
-1.92437 1.66888 4.02877
-1.94725 1.67812 4.04381
-1.95342 1.6708 4.02196
-1.96831 1.67802 4.03597
-1.98333 1.67998 4.03306
-1.98853 1.67162 4.00821
-2.00748 1.67672 4.01428
-2.02349 1.6787 4.01237
-2.03261 1.67449 3.9975
-2.0496 1.67751 3.99859
-2.05759 1.67952 3.99862
-2.06376 1.6722 3.97677
-2.08274 1.67726 3.97984
-2.10268 1.68237 3.98691
-2.1118 1.67916 3.97203
-2.12485 1.67906 3.96513
-2.14382 1.68314 3.96921
-2.20405 1.68271 3.93766
-2.23422 1.6804 3.91592
-2.26428 1.68331 3.90811
-2.27537 1.68114 3.89622
-2.28941 1.68106 3.89033
-2.29951 1.67889 3.87843
-2.3016 1.67571 3.86649
-2.32155 1.68081 3.87257
-2.32968 1.67657 3.85569
-2.34372 1.67749 3.84978
-2.36071 1.68052 3.85087
-2.37082 1.67732 3.83699
-2.37993 1.67512 3.82309
-2.39287 1.68023 3.83011
-2.40198 1.67703 3.81622
-2.41998 1.68004 3.81631
-2.42809 1.67683 3.80142
-2.4293 1.66743 3.77457
-2.45123 1.67456 3.78263
-2.47318 1.68168 3.78969
-2.47538 1.6733 3.76382
-2.48141 1.67324 3.75987
-2.49841 1.67624 3.75895
-2.50851 1.67406 3.74606
-2.52057 1.67395 3.73815
-2.54054 1.679 3.74123
-2.54767 1.67477 3.72534
-2.56171 1.67569 3.71943
-2.57762 1.68287 3.73045
-2.57488 1.67038 3.69761
-2.59287 1.67541 3.69867
-2.60297 1.67322 3.68578
-2.617 1.67416 3.68087
-2.63006 1.67405 3.67297
-2.64411 1.67497 3.66706
-2.65608 1.67904 3.67109
-2.66419 1.67582 3.65619
-2.6723 1.67262 3.6423
-2.69524 1.67974 3.64937
-2.70039 1.67445 3.62948
-2.70752 1.67122 3.61358
-2.71849 1.67427 3.61662
-2.7355 1.67725 3.6147
-2.74559 1.67608 3.6028
-2.75469 1.6739 3.5899
-2.77071 1.67686 3.58697
-2.78377 1.67677 3.58007
-2.7909 1.67352 3.56317
-2.80088 1.67656 3.5652
-2.81888 1.67956 3.56429
-2.82601 1.67631 3.54739
-2.8351 1.67414 3.53549
-2.85015 1.67606 3.52957
-2.86715 1.67906 3.52866
-2.8812 1.68097 3.52173
-2.88723 1.68091 3.51778
-2.90426 1.68288 3.51488
-2.91137 1.68066 3.49996
-2.93947 1.68249 3.48715
-2.96262 1.68221 3.46732
-4.49706 1.66088 1.42292
-4.4902 1.6556 1.40394
-4.48933 1.65234 1.38698
-4.50839 1.65824 1.37903
-4.50154 1.65295 1.36006
-4.50266 1.65172 1.34408
-4.5077 1.65163 1.33812
-4.49985 1.64634 1.31914
-4.50894 1.64816 1.30618
-4.50707 1.64492 1.29021
-4.50819 1.64368 1.27423
-4.51846 1.64216 1.23833
3.12175 1.60703 3.10155
3.09788 1.6063 3.11874
3.09603 1.61159 3.13768
3.083 1.60755 3.13484
3.07712 1.60978 3.14985
3.06921 1.61196 3.16188
3.05324 1.60903 3.16604
3.0413 1.60816 3.17415
3.03643 1.61241 3.19112
3.02046 1.60948 3.19529
3.01852 1.61162 3.20427
3.00658 1.61075 3.21237
2.99666 1.6119 3.22243
2.98776 1.6141 3.23547
2.98793 1.62043 3.25738
2.96792 1.61543 3.2566
2.95699 1.61557 3.26568
2.95405 1.61669 3.27369
2.94615 1.61988 3.2867
2.92916 1.61593 3.28889
2.92329 1.62017 3.30488
2.91135 1.6193 3.31298
2.90043 1.62047 3.32405
2.89555 1.62371 3.34004
2.88958 1.62377 3.34408
2.87867 1.62494 3.35515
2.86874 1.6261 3.36521
2.85681 1.62624 3.3743
2.85194 1.62949 3.39129
2.84102 1.63065 3.40135
2.82504 1.62771 3.40452
2.81907 1.62777 3.40856
2.80814 1.62892 3.41863
2.79924 1.63011 3.43068
2.7873 1.63025 3.43977
2.77739 1.63142 3.45083
2.7604 1.62846 3.453
2.75351 1.63167 3.46701
2.75058 1.63381 3.476
2.73662 1.63191 3.48213
2.72671 1.63408 3.49318
2.71072 1.63112 3.49534
2.70182 1.63332 3.50838
2.68989 1.63346 3.51747
2.66207 1.63584 3.54164
0.880977 1.66362 4.33076
0.867023 1.66472 4.33685
0.7641 1.66195 4.34767
0.750162 1.66407 4.35574
0.719123 1.66102 4.35102
0.705139 1.66106 4.35313
0.6912 1.66319 4.3612
0.6762 1.6622 4.36133
0.668162 1.66013 4.35642
0.655247 1.66431 4.36746
0.638177 1.65919 4.35866
0.626355 1.66753 4.38163
0.610278 1.6634 4.37181
0.596309 1.66447 4.3759
0.580247 1.66036 4.36808
0.573301 1.66247 4.3751
0.559309 1.66249 4.37621
0.544325 1.66253 4.37832
0.529356 1.6636 4.38242
0.514317 1.66154 4.37756
0.499286 1.65949 4.3737
0.485356 1.66164 4.38278
0.477317 1.65957 4.37787
0.462357 1.66165 4.38295
0.448356 1.66066 4.38307
0.433349 1.65966 4.3822
0.419419 1.6628 4.39126
0.404403 1.66178 4.38939
0.388295 1.65559 4.3756
0.381326 1.65665 4.37963
0.366365 1.65874 4.38472
0.351389 1.65979 4.38781
0.337381 1.65879 4.38693
0.322373 1.65779 4.38606
0.307381 1.65781 4.38717
0.293413 1.65988 4.39125
0.285389 1.65784 4.38834
0.270382 1.65684 4.38747
0.255374 1.65683 4.38658
0.241452 1.65999 4.39664
0.226414 1.65793 4.39178
0.211414 1.65794 4.3919
0.204476 1.66106 4.3999
0.189438 1.659 4.39505
0.174446 1.65903 4.39616
0.160493 1.66113 4.40223
0.145408 1.65697 4.39141
0.130377 1.65493 4.38755
0.115455 1.65908 4.3976
0.108486 1.66015 4.40164
0.0795489 1.66329 4.40981
0.0644797 1.66017 4.40097
0.0494876 1.66019 4.40208
0.0344648 1.65916 4.39921
0.0236953 1.66764 4.29615
0.0086104 1.66349 4.28533
-0.00545947 1.65937 4.27649
-0.0194352 1.66142 4.27957
-0.0344041 1.66249 4.28367
-0.0413957 1.66351 4.2847
-0.0553802 1.66355 4.28681
-0.0695116 1.65731 4.27001
-0.0843399 1.66664 4.29198
-0.0985026 1.65834 4.27121
-0.113448 1.66146 4.27828
-0.127424 1.66251 4.28137
-0.134509 1.65836 4.27048
-0.149415 1.66354 4.28252
-0.16343 1.66252 4.28064
-0.178453 1.66149 4.27777
-0.192468 1.66147 4.27587
-0.206475 1.66147 4.27498
-0.221436 1.66355 4.28006
-0.228436 1.66356 4.28011
-0.243419 1.6646 4.28221
-0.257481 1.66149 4.27436
-0.271527 1.65941 4.2685
-0.28648 1.66251 4.27456
-0.300471 1.66354 4.27565
-0.314478 1.66353 4.27476
-0.321509 1.66148 4.27084
-0.336493 1.66352 4.27293
-0.3505 1.66351 4.27203
-0.364569 1.66039 4.26318
-0.378576 1.66039 4.26229
-0.394482 1.66557 4.27433
-0.408505 1.66454 4.27145
-0.415559 1.66244 4.26454
-0.42955 1.66347 4.26563
-0.44455 1.66348 4.26574
-0.457604 1.66138 4.25887
-0.472572 1.66345 4.26295
-0.487555 1.66549 4.26503
-0.501609 1.6634 4.25817
-0.509531 1.66755 4.26817
-0.5236 1.66443 4.25932
-0.538583 1.66647 4.2614
-0.552613 1.66542 4.25752
-0.566636 1.66439 4.25464
-0.58255 1.66956 4.26569
-0.593735 1.66122 4.24189
-0.602657 1.66537 4.2519
-0.617602 1.66948 4.25895
-0.629749 1.66221 4.24015
-0.645662 1.66739 4.25119
-0.657794 1.66114 4.23438
-0.672793 1.66216 4.23447
-0.687753 1.66524 4.23954
-0.695737 1.66628 4.24159
-0.709782 1.6652 4.23571
-0.723781 1.66621 4.2358
-0.737827 1.66413 4.22993
-0.752818 1.66615 4.23102
-0.766825 1.66615 4.23012
-0.779886 1.66404 4.22225
-0.788839 1.66714 4.22827
-0.801908 1.66401 4.21942
-0.816876 1.66708 4.22348
-0.832852 1.66914 4.22657
-0.843967 1.66392 4.21173
-0.860904 1.66905 4.21979
-0.87298 1.66592 4.20992
-0.880949 1.66798 4.21395
-0.894033 1.66483 4.2031
-0.91097 1.66896 4.21116
-0.923031 1.66685 4.20329
-0.938037 1.66784 4.20238
-0.95013 1.66368 4.19053
-0.963199 1.66155 4.18166
-0.975027 1.67089 4.20362
-0.988103 1.66875 4.19375
-1.00116 1.66665 4.18687
-1.01617 1.66763 4.18497
-1.03309 1.67279 4.19502
-1.04613 1.67173 4.19014
-1.05824 1.66752 4.17529
-1.06717 1.67166 4.1843
-1.08025 1.66852 4.17444
-1.08844 1.66015 4.14962
-1.10637 1.66532 4.15968
-1.12136 1.66733 4.15977
-1.13149 1.6621 4.14392
-1.14843 1.66621 4.15099
-1.15933 1.67241 4.16398
-1.16947 1.66615 4.14614
-1.18155 1.663 4.13528
-1.19947 1.66916 4.14533
-1.2135 1.66911 4.14143
-1.22364 1.66285 4.1236
-1.2396 1.66694 4.12866
-1.24467 1.66381 4.11974
-1.26261 1.66894 4.1278
-1.27175 1.66268 4.10996
-1.28676 1.66366 4.10806
-1.30371 1.66776 4.11413
-1.31577 1.66667 4.10723
-1.33079 1.66763 4.10433
-1.33975 1.66971 4.10937
-1.35378 1.66967 4.10547
-1.36487 1.6675 4.09359
-1.38183 1.67058 4.09867
-1.39196 1.66534 4.08182
-1.40697 1.66733 4.08091
-1.42099 1.6673 4.07801
-1.43191 1.67246 4.08802
-1.44202 1.66824 4.07316
-1.45606 1.66818 4.06826
-1.47105 1.6702 4.06935
-1.48411 1.66909 4.06146
-1.50008 1.67216 4.06554
-1.51509 1.67415 4.06362
-1.5182 1.66894 4.04972
-1.53615 1.67406 4.05678
-1.55115 1.67505 4.05588
-1.56322 1.67393 4.04698
-1.57041 1.66558 4.02316
-1.59128 1.67483 4.03918
-1.60139 1.67063 4.02532
-1.61331 1.67579 4.03533
-1.62734 1.67674 4.03142
-1.6345 1.66943 4.01058
-1.65246 1.67452 4.01564
-1.66648 1.67449 4.01275
-1.67366 1.66715 3.98991
-1.69259 1.6733 3.99896
-1.70155 1.67636 4.00298
-1.71364 1.67421 3.9921
-1.72767 1.67416 3.98821
-1.74659 1.68031 3.99726
-1.75277 1.67297 3.97441
-1.76288 1.66877 3.96055
-1.78575 1.67902 3.97657
-1.78785 1.67383 3.96366
-1.79992 1.67271 3.95477
-1.82182 1.68092 3.96782
-1.82896 1.67464 3.94896
-1.84497 1.67664 3.94805
-1.86896 1.68167 3.94916
-1.88202 1.68056 3.94127
-1.89407 1.67947 3.93438
-1.90615 1.67833 3.92448
-1.92115 1.68032 3.92357
-1.95526 1.68114 3.90981
-1.98233 1.68101 3.90001
-2.13488 1.68204 3.82814
-2.3598 1.68038 3.70684
-2.37186 1.68027 3.69893
-2.42614 1.67877 3.66236
-2.43722 1.67761 3.65146
-2.47429 1.68149 3.64168
-2.48437 1.67933 3.63078
-2.57682 1.67953 3.57247
-2.59086 1.68045 3.56656
-2.61597 1.68125 3.55174
-2.61606 1.67707 3.5398
-2.62714 1.67593 3.5299
-2.63525 1.67273 3.516
-2.65324 1.67774 3.51606
-2.66333 1.67558 3.50517
-2.67045 1.67235 3.48927
-2.68647 1.67532 3.48635
-2.72453 1.68021 3.47756
-2.73363 1.67803 3.46466
-2.7447 1.6779 3.45574
-2.75874 1.67982 3.44982
-2.78395 1.67644 3.42306
-2.79997 1.67941 3.42013
-2.84921 1.67996 3.38749
-2.85128 1.67783 3.37854
-4.36635 1.65822 1.38396
-4.38054 1.65985 1.35804
-4.37169 1.65356 1.33907
-4.38178 1.65539 1.32712
-4.37386 1.65122 1.31612
-4.367 1.64595 1.29814
-4.38607 1.65183 1.2892
-4.37821 1.64556 1.27123
-4.37434 1.64231 1.25424
-4.37246 1.63907 1.23827
-4.39152 1.64495 1.22933
-4.39081 1.63938 1.1914
3.05003 1.60866 3.00605
3.04212 1.61085 3.01808
3.02522 1.61005 3.03122
3.02034 1.61328 3.04621
2.99629 1.60521 3.04051
2.9904 1.60843 3.05551
2.9835 1.61063 3.06853
2.97762 1.61386 3.08353
2.97165 1.61292 3.08759
2.96274 1.6151 3.09962
2.94877 1.61219 3.10477
2.94289 1.61541 3.11977
2.93599 1.61861 3.13278
2.92203 1.61671 3.13891
2.9121 1.61685 3.14799
2.90512 1.6159 3.15105
2.89318 1.61603 3.15914
2.88428 1.61721 3.17119
2.87031 1.6153 3.17633
2.86241 1.61749 3.18936
2.85249 1.61865 3.19942
2.84863 1.62292 3.21738
2.83659 1.61885 3.21253
2.82869 1.62107 3.22656
2.81372 1.61914 3.23071
2.81389 1.62546 3.25261
2.79388 1.62045 3.25084
2.79607 1.62882 3.2757
2.77404 1.62277 3.27196
2.77008 1.62286 3.27799
2.76521 1.62812 3.29495
2.74923 1.62518 3.29811
2.73729 1.62429 3.30522
2.73343 1.62957 3.32417
2.70937 1.62147 3.31647
2.71157 1.63085 3.34232
2.69264 1.63002 3.35247
2.68374 1.63222 3.36551
2.6718 1.63133 3.37261
2.65581 1.62837 3.37478
2.64792 1.63158 3.38879
2.62898 1.63073 3.39795
2.61908 1.63191 3.41001
2.59822 1.63321 3.42915
2.56342 1.63462 3.45539
0.895967 1.66163 4.19666
0.819106 1.66295 4.21522
0.713252 1.66431 4.235
0.698237 1.66229 4.23314
0.69126 1.66334 4.23618
0.648291 1.66243 4.24052
0.619307 1.66248 4.24274
0.604252 1.65839 4.23591
0.597283 1.66045 4.23993
0.583314 1.66052 4.24404
0.5704 1.66469 4.25507
0.556423 1.66575 4.25816
0.540369 1.66166 4.25134
0.526407 1.66274 4.25643
0.518314 1.65757 4.24457
0.505423 1.66279 4.25859
0.490392 1.66074 4.25473
0.475392 1.66075 4.25485
0.462447 1.66286 4.26191
0.44747 1.66292 4.26503
0.426485 1.66296 4.26718
0.411424 1.65985 4.25934
0.398548 1.6661 4.27535
0.383494 1.66301 4.26851
0.368448 1.65993 4.26267
0.354502 1.66204 4.26974
0.339448 1.65895 4.2629
0.333572 1.66519 4.27885
0.318479 1.66003 4.26704
0.303441 1.65796 4.26219
0.288402 1.6549 4.25734
0.274449 1.658 4.2634
0.260457 1.65802 4.26451
0.246511 1.66014 4.27158
0.238465 1.65805 4.26567
0.224426 1.65499 4.26082
0.210566 1.66227 4.27882
0.195365 1.65189 4.25309
0.181513 1.65919 4.27209
0.167521 1.65921 4.27319
0.153638 1.66544 4.28821
0.145505 1.6582 4.27137
0.131467 1.65613 4.26651
0.11653 1.65926 4.27458
0.102546 1.6603 4.27667
0.088546 1.66031 4.27677
0.0736236 1.66347 4.28684
0.0595776 1.66139 4.28097
0.0526399 1.66452 4.28898
0.0375939 1.66244 4.28312
-0.843818 1.67523 4.09755
-0.857825 1.67523 4.09665
-0.871848 1.6752 4.09376
-0.917976 1.67198 4.07715
-0.931029 1.67088 4.07027
-0.946997 1.67395 4.07434
-0.959058 1.67184 4.06646
-0.972127 1.66872 4.05761
-0.987079 1.67282 4.06366
-0.994102 1.67178 4.06073
-1.00907 1.67485 4.0648
-1.03615 1.67371 4.05402
-1.04821 1.6716 4.04614
-1.06319 1.67465 4.0492
-1.07334 1.66738 4.03039
-1.08325 1.67255 4.04139
-1.09725 1.67456 4.04146
-1.10838 1.66832 4.02464
-1.12238 1.67033 4.02471
-1.13835 1.6734 4.02879
-1.1504 1.6713 4.02191
-1.16636 1.67539 4.02697
-1.1724 1.6743 4.02103
-1.1835 1.67013 4.00917
-1.19947 1.67319 4.01225
-1.21252 1.67211 4.00636
-1.22653 1.67309 4.00445
-1.23958 1.67201 3.99857
-1.25359 1.67299 3.99666
-1.25962 1.67194 3.99272
-1.27362 1.67395 3.99279
-1.28765 1.6739 3.9889
-1.29875 1.66972 3.97604
-1.31374 1.67174 3.97713
-1.34275 1.67473 3.9753
-1.34684 1.67057 3.96439
-1.36377 1.67672 3.97343
-1.37291 1.67044 3.95459
-1.38692 1.67144 3.95368
-1.40486 1.67657 3.96174
-1.41301 1.67028 3.94189
-1.42801 1.67229 3.94197
-1.43893 1.67745 3.95198
-1.44608 1.67016 3.93214
-1.46402 1.67629 3.94018
-1.47609 1.67416 3.93131
-1.48423 1.6679 3.91346
-1.50315 1.67405 3.92251
-1.52221 1.67394 3.91465
-1.53526 1.67287 3.90877
-1.55026 1.67588 3.90884
-1.56133 1.67274 3.89897
-1.5734 1.67161 3.89007
-1.59344 1.67255 3.88521
-1.61041 1.67561 3.88829
-1.62247 1.67551 3.88138
-1.6355 1.67545 3.87648
-1.6515 1.67746 3.87657
-1.66453 1.67841 3.87265
-1.67561 1.67527 3.86278
-1.68065 1.67419 3.85684
-1.70871 1.67509 3.84903
-1.71978 1.67396 3.84013
-1.73576 1.677 3.84221
-1.74685 1.67485 3.83132
-1.76185 1.67686 3.83141
-1.77994 1.6747 3.81957
-1.82102 1.67755 3.80784
-1.86014 1.67734 3.79213
-2.46054 1.67802 3.4756
-2.53792 1.67834 3.42617
-2.547 1.67618 3.41527
-2.57211 1.67698 3.40045
-2.60423 1.67876 3.38466
-2.61431 1.67762 3.37475
-2.63644 1.67737 3.35692
-4.20933 1.65815 1.38578
-4.20557 1.65168 1.35385
-4.21067 1.65149 1.34089
-4.21976 1.65332 1.32893
-4.20891 1.64603 1.30995
-4.20797 1.64491 1.30196
-4.21606 1.64574 1.29
-4.21119 1.64148 1.27303
-4.21729 1.64129 1.26008
-4.22937 1.64414 1.24912
-4.22051 1.63787 1.23115
-4.22661 1.63868 1.21818
-4.23863 1.64264 1.21521
-4.24085 1.63922 1.18627
-4.24395 1.63801 1.17231
-4.24806 1.63781 1.15834
-4.25615 1.63964 1.14638
-4.26024 1.63945 1.13341
-4.25631 1.63631 1.12442
-4.26241 1.63612 1.11147
-4.27848 1.64198 1.1015
-4.28181 1.63635 1.05861
-4.29007 1.63484 1.02369
3.07635 1.60434 2.78288
3.06037 1.6004 2.78606
3.05549 1.60362 2.80105
3.04555 1.60377 2.81013
3.03764 1.60493 2.82117
3.03469 1.60704 2.82816
3.03181 1.61028 2.84414
3.01685 1.60736 2.8493
3.00188 1.60443 2.85345
2.99699 1.60764 2.86744
2.98101 1.6047 2.87061
2.97915 1.60998 2.88955
2.97721 1.61109 2.89655
2.96224 1.60816 2.9007
2.95433 1.61034 2.91273
2.95448 1.61664 2.93264
2.9375 1.61268 2.93483
2.93563 1.61795 2.95277
2.91865 1.61399 2.95495
2.91267 1.61304 2.95801
2.90879 1.61728 2.97398
2.90088 1.61846 2.98603
2.88692 1.61654 2.99116
2.88002 1.61874 3.00418
2.87211 1.62093 3.01621
2.85411 1.61594 3.01642
2.84915 1.61602 3.02146
2.84729 1.62228 3.03938
2.82828 1.61628 3.03861
2.81836 1.61745 3.04967
2.8165 1.62272 3.06761
2.7985 1.61875 3.0688
2.7916 1.62095 3.08183
2.79572 1.62717 3.0967
2.78176 1.62525 3.10184
2.77183 1.6264 3.1119
2.74995 1.62566 3.12808
2.74306 1.62887 3.14208
2.72211 1.62599 3.14928
-1.10015 1.6708 3.92252
-1.11513 1.67384 3.92459
-1.12816 1.67379 3.92069
-1.16626 1.67161 3.90701
-1.2614 1.6754 3.88866
-1.27346 1.67429 3.88077
-1.31354 1.67417 3.87107
-1.32461 1.67203 3.86119
-1.33863 1.67301 3.85928
-1.34271 1.66885 3.84837
-1.35965 1.67398 3.85642
-1.36975 1.6698 3.84356
-1.3818 1.6697 3.83665
-1.39483 1.66965 3.83275
-1.40787 1.66959 3.82785
-1.41993 1.66748 3.81997
-1.4279 1.66953 3.823
-1.44289 1.67255 3.82406
-1.45397 1.66941 3.81419
-1.46895 1.67345 3.81625
-1.482 1.67238 3.81036
-1.49306 1.67026 3.80247
-1.50708 1.67123 3.79956
-1.51815 1.66911 3.79068
-1.52515 1.67011 3.79072
-1.53526 1.66591 3.77685
-1.55026 1.66892 3.77692
-1.56229 1.66886 3.77201
-1.57337 1.66572 3.76214
-1.58346 1.66255 3.75026
-1.60139 1.66869 3.75931
-1.60742 1.66864 3.75535
-1.61849 1.66651 3.74647
-1.6325 1.66849 3.74454
-1.64455 1.6674 3.73765
-1.65858 1.66836 3.73474
-1.66767 1.66519 3.72285
-1.67972 1.6641 3.71596
-1.69163 1.67027 3.72696
-1.70664 1.67227 3.72604
-1.71379 1.66599 3.70719
-1.73173 1.67211 3.71423
-1.74476 1.67206 3.71033
-1.75091 1.66578 3.69147
-1.76383 1.67194 3.70148
-1.7739 1.6698 3.69158
-1.78595 1.66972 3.68567
-1.80095 1.67171 3.68476
-1.81595 1.67472 3.68482
-1.82407 1.66949 3.66896
-1.8381 1.67146 3.66604
-1.8451 1.67145 3.66509
-1.85321 1.66725 3.65121
-1.88421 1.67325 3.65036
-1.89331 1.67008 3.63847
-1.91027 1.67415 3.64254
-1.92529 1.67714 3.64061
-1.92737 1.67297 3.62968
-1.94238 1.67497 3.62877
-1.96451 1.67274 3.61196
-1.99352 1.67671 3.60912
-2.0367 1.6764 3.58645
-2.5199 1.67339 3.29509
-2.545 1.67521 3.28225
-2.60239 1.6715 3.23173
-2.7069 1.67355 3.16348
-4.08634 1.65805 1.38386
-4.08745 1.65584 1.3699
-4.09354 1.65565 1.35694
-4.09167 1.65242 1.34098
-4.10884 1.65509 1.31806
-4.10291 1.65095 1.30908
-4.10901 1.65176 1.29611
-4.09915 1.64449 1.27814
-4.10324 1.6443 1.26517
-4.12928 1.65323 1.25924
-4.11643 1.64594 1.24024
-4.11854 1.64373 1.22629
-4.1176 1.64261 1.2183
-4.11671 1.63939 1.20334
-4.13676 1.6463 1.19639
-4.13987 1.6451 1.18243
-4.12702 1.63781 1.16343
-4.12812 1.6356 1.14947
-4.13123 1.6354 1.1355
-4.15122 1.64241 1.13554
-4.14635 1.63817 1.11957
-4.14745 1.63696 1.10559
-4.15355 1.63778 1.09262
-4.15066 1.63455 1.07765
-4.15476 1.63436 1.06468
-4.16784 1.63721 1.05373
3.03542 1.59955 2.66025
3.03759 1.60686 2.68112
3.02967 1.60803 2.69217
3.0147 1.6051 2.69633
3.01081 1.60832 2.71131
3.00491 1.61052 2.72432
2.98886 1.60343 2.71755
2.98093 1.60458 2.72759
2.98008 1.60986 2.74652
2.96308 1.60589 2.74771
2.96929 1.61629 2.77451
2.95129 1.6103 2.77474
2.93228 1.6053 2.77395
2.9374 1.61153 2.78983
2.9315 1.61373 2.80284
2.90845 1.60566 2.79713
2.91163 1.61399 2.81999
2.89364 1.60902 2.8212
2.88672 1.61119 2.83222
2.88184 1.61442 2.84721
2.87385 1.61245 2.8493
2.86896 1.61566 2.86329
2.86407 1.61889 2.87828
2.84405 1.61286 2.87552
2.83815 1.61507 2.88953
2.82821 1.6152 2.89761
2.82031 1.61738 2.90964
2.82342 1.62258 2.92354
2.80844 1.61964 2.9267
2.79245 1.61568 2.92888
2.7926 1.62198 2.94878
2.78066 1.62209 2.95587
2.77073 1.62223 2.96495
2.75878 1.62134 2.97205
2.75785 1.62348 2.98103
2.74085 1.6195 2.98221
2.7299 1.61961 2.9893
2.71813 1.62605 3.01829
2.70314 1.62309 3.02045
2.70121 1.62523 3.02944
2.69127 1.62535 3.03751
2.67142 1.62665 3.05664
2.65744 1.6237 3.05979
2.65256 1.62794 3.07577
2.59491 1.62967 3.12218
-1.14005 1.66305 3.80292
-1.15018 1.65682 3.78709
-1.16611 1.66295 3.79512
-1.1772 1.6598 3.78425
-1.19022 1.65976 3.78134
-1.19623 1.65974 3.77939
-1.20925 1.65972 3.77749
-1.22033 1.65656 3.76662
-1.23531 1.65962 3.76968
-1.24735 1.65954 3.76378
-1.26037 1.65952 3.76187
-1.2773 1.66565 3.76991
-1.29246 1.65936 3.75012
-1.30548 1.65933 3.74722
-1.32663 1.65405 3.72745
-1.34162 1.65608 3.72853
-1.36572 1.6549 3.71573
-1.37272 1.65591 3.71577
-1.38476 1.65584 3.71086
-1.39975 1.65787 3.71194
-1.41081 1.65576 3.70406
-1.42383 1.65672 3.70114
-1.43684 1.6577 3.69922
-1.45086 1.65868 3.69731
-1.45491 1.65658 3.69037
-1.48196 1.65851 3.68455
-1.49106 1.65433 3.67168
-1.50505 1.65634 3.67175
-1.51809 1.65627 3.66685
-1.52508 1.65829 3.66787
-1.53616 1.65515 3.658
-1.56024 1.65501 3.64718
-1.60029 1.65793 3.64044
-1.60827 1.66097 3.64246
-1.62228 1.66196 3.64155
-1.62844 1.65466 3.6207
-1.64343 1.6577 3.62277
-1.65351 1.65554 3.61187
-1.66949 1.65858 3.61395
-1.68252 1.65953 3.61003
-1.70647 1.66564 3.61612
-1.71163 1.65833 3.59527
-1.73055 1.66549 3.60531
-1.73966 1.66129 3.59144
-1.74777 1.65709 3.57756
-1.7688 1.66005 3.57367
-1.78181 1.66103 3.57175
-1.79092 1.65683 3.55788
-1.80885 1.66396 3.56591
-1.81991 1.66285 3.55801
-1.83294 1.6638 3.5541
-1.84793 1.66682 3.55516
-1.852 1.66371 3.54724
-1.86206 1.66258 3.53833
-1.87806 1.66559 3.53841
-1.89009 1.66654 3.53448
-1.89427 1.6582 3.51163
-1.91418 1.66638 3.52267
-1.93312 1.6725 3.52972
-1.9293 1.66316 3.50682
-1.94726 1.66824 3.51189
-1.95931 1.66816 3.50598
-1.96839 1.66601 3.49508
-1.98339 1.66902 3.49514
-1.99346 1.66689 3.48625
-2.00354 1.66474 3.47536
-2.01647 1.67088 3.48436
-2.03147 1.67389 3.48443
-2.0376 1.66864 3.46755
-2.05161 1.67062 3.46563
-2.06661 1.67363 3.4657
-2.0917 1.67447 3.45387
-2.10778 1.67332 3.44301
-2.15597 1.67397 3.41736
-2.17404 1.67485 3.40848
-2.30665 1.67375 3.32849
-2.35493 1.67022 3.2909
-2.38299 1.67412 3.28305
-2.39306 1.674 3.27413
-2.39611 1.6719 3.26718
-2.41922 1.67169 3.25235
-2.43424 1.67467 3.25042
-2.44529 1.67458 3.24351
-2.4524 1.67137 3.22961
-2.46543 1.67331 3.22467
-2.46453 1.66812 3.21174
-2.47658 1.66904 3.20582
-2.48962 1.66997 3.2009
-2.51273 1.67077 3.18606
-2.52082 1.66859 3.17415
-2.53286 1.66851 3.16825
-2.53691 1.66843 3.16228
-2.55192 1.67141 3.16035
-2.562 1.67027 3.15044
-2.56118 1.66091 3.12657
-2.57322 1.66285 3.12163
-2.5922 1.66789 3.1237
-2.5993 1.6657 3.11078
-2.60533 1.66565 3.10683
-2.61441 1.66451 3.09691
-2.62447 1.66438 3.08799
-2.63949 1.66735 3.08505
-2.65451 1.67033 3.08312
-2.65764 1.66507 3.06522
-2.67068 1.667 3.06029
-2.67869 1.66798 3.05834
-2.68678 1.66682 3.04741
-2.69883 1.66673 3.04051
-2.71682 1.67275 3.04155
-2.7249 1.6706 3.03064
-2.73695 1.6715 3.02372
-2.74702 1.67137 3.0148
-2.75404 1.67234 3.01183
-2.76609 1.67326 3.00591
-2.77632 1.66582 2.97609
-2.78936 1.66774 2.97016
-2.80438 1.67071 2.96723
-2.83253 1.67243 2.94741
-2.86372 1.67208 2.92265
-2.92008 1.6724 2.87407
-3.95189 1.65485 1.4439
-3.95908 1.65248 1.41799
-3.96917 1.65432 1.40703
-3.97326 1.65413 1.39407
-3.97133 1.65101 1.3861
-3.97642 1.65082 1.37314
-3.98151 1.65065 1.36117
-3.97166 1.64336 1.34221
-3.97277 1.64215 1.32823
-3.97088 1.63893 1.31326
-3.98794 1.64382 1.30532
-3.99298 1.64474 1.29934
-3.99608 1.64355 1.28638
-3.99918 1.64236 1.27342
-4.02122 1.65028 1.26747
-4.0035 1.63774 1.23151
-4.00461 1.63553 1.21755
-4.01269 1.63738 1.20658
-4.01574 1.63727 1.19961
-4.03379 1.64318 1.19266
-4.02094 1.63489 1.17368
-4.03301 1.63775 1.16373
2.99281 1.59837 2.57857
2.97596 1.59968 2.59868
2.96804 1.60085 2.60973
2.9581 1.59997 2.61782
2.95925 1.60625 2.63672
2.94925 1.60326 2.63684
2.94939 1.60952 2.65475
2.92938 1.60252 2.654
2.90547 1.59973 2.66722
2.90259 1.60396 2.68218
2.87472 1.60123 2.69944
2.86881 1.60343 2.71245
2.85398 1.60676 2.73452
2.83109 1.60399 2.74873
2.82814 1.60609 2.75572
2.82425 1.6093 2.76971
2.80525 1.60432 2.76993
2.80338 1.60857 2.78688
2.79949 1.6128 2.80185
2.78551 1.60985 2.805
2.78661 1.61403 2.81693
2.7676 1.60803 2.81616
2.75766 1.60815 2.82423
2.74872 1.60829 2.8333
2.74283 1.6125 2.84728
2.73592 1.61367 2.85832
2.72094 1.61073 2.86148
2.72504 1.61593 2.87537
2.71411 1.61607 2.88445
2.70317 1.61618 2.89154
2.69019 1.61325 2.89568
2.67941 1.62067 2.92365
2.66443 1.61673 2.92682
2.66956 1.62396 2.94268
2.63067 1.61921 2.95805
2.6167 1.61728 2.96218
2.61383 1.62154 2.97914
2.60793 1.62475 2.99314
2.58782 1.61454 2.97844
2.58798 1.62185 2.99933
2.57804 1.62198 3.00741
2.57518 1.62824 3.02534
2.56222 1.62634 3.03147
-1.28697 1.67034 3.6809
-1.29805 1.6672 3.67103
-1.30911 1.66507 3.66215
-1.32212 1.66707 3.66121
-1.33221 1.66291 3.65035
-1.34522 1.66389 3.64843
-1.35531 1.66072 3.63655
-1.36231 1.66173 3.63659
-1.37337 1.65962 3.62871
-1.38345 1.65748 3.61881
-1.40135 1.66467 3.63084
-1.41046 1.66047 3.61697
-1.42349 1.66042 3.61307
-1.4365 1.66241 3.61214
-1.44253 1.66136 3.6082
-1.45163 1.65717 3.59533
-1.46366 1.65711 3.59042
-1.4757 1.65704 3.58551
-1.49265 1.66216 3.59256
-1.50173 1.659 3.58168
-1.5177 1.66306 3.58474
-1.52176 1.66095 3.5778
-1.53478 1.66192 3.57488
-1.5478 1.66188 3.57198
-1.55787 1.66076 3.56307
-1.565 1.65451 3.54621
-1.58294 1.66063 3.55326
-1.59301 1.65852 3.54537
-1.60492 1.66569 3.55635
-1.61795 1.66564 3.55245
-1.62801 1.66453 3.54454
-1.643 1.66755 3.54561
-1.64619 1.65719 3.52078
-1.66217 1.66124 3.52384
-1.67029 1.65701 3.50796
-1.68513 1.66732 3.52793
-1.68932 1.65797 3.50409
-1.70431 1.66099 3.50516
-1.72127 1.66608 3.51021
-1.73134 1.66495 3.50131
-1.74435 1.66593 3.49939
-1.75738 1.66688 3.49547
-1.75652 1.65962 3.47757
-1.76953 1.6606 3.47565
-1.7865 1.66567 3.47971
-1.79559 1.6625 3.46782
-1.81354 1.66861 3.47487
-1.82952 1.67265 3.47693
-1.83565 1.66741 3.46005
-1.84266 1.6684 3.45909
-1.85469 1.66835 3.45518
-1.8687 1.67133 3.45324
-1.87975 1.67023 3.44634
-1.89596 1.66284 3.41957
-1.908 1.66276 3.41366
-1.91894 1.66789 3.42166
-1.92309 1.6606 3.4018
-1.94401 1.66977 3.41282
-1.96 1.6728 3.4139
-1.9752 1.66541 3.38712
-1.99513 1.67356 3.39615
-1.99721 1.6694 3.38523
-2.00925 1.67033 3.3803
-2.30951 1.67205 3.21352
-2.31463 1.66883 3.1986
-2.33161 1.67287 3.20067
-2.35175 1.67162 3.18284
-2.3628 1.67152 3.17592
-2.3769 1.66933 3.16206
-2.38896 1.67023 3.15513
-2.40612 1.66693 3.13431
-2.42014 1.6689 3.13139
-2.43218 1.66982 3.12546
-2.42831 1.66257 3.10854
-2.4463 1.66761 3.1106
-2.45834 1.66853 3.10468
-2.46148 1.66326 3.08677
-2.47748 1.66726 3.08584
-2.4826 1.66304 3.07093
-2.50362 1.667 3.06703
-2.51963 1.66999 3.06611
-2.53168 1.6709 3.05919
-2.54075 1.66977 3.05027
-2.72382 1.66979 2.90863
-2.73487 1.67069 2.9017
-2.74097 1.6675 2.88879
-2.75698 1.67149 2.88685
-2.75912 1.66622 2.86894
-2.83652 1.67049 2.81646
-3.88248 1.65365 1.36538
-3.88258 1.65144 1.35142
-3.88474 1.64915 1.33146
-3.88684 1.64694 1.31751
-3.89393 1.64777 1.30555
-3.90001 1.64861 1.29458
-3.89315 1.64235 1.27762
-3.89824 1.64218 1.26566
-3.8973 1.64106 1.25767
-3.91036 1.64394 1.24872
-3.91047 1.64173 1.23475
-3.91656 1.64256 1.22279
-3.92364 1.6434 1.21183
-3.92176 1.64018 1.19686
-3.93483 1.64304 1.18691
-3.9279 1.6399 1.1779
-3.92601 1.63568 1.16295
-3.94606 1.64259 1.156
-3.94716 1.6414 1.14302
-3.95325 1.64222 1.13105
-3.96832 1.6461 1.12211
-3.95047 1.63579 1.10213
-3.96354 1.63965 1.09216
-3.95462 1.63451 1.08317
-3.9647 1.63736 1.0722
-3.9638 1.63415 1.05824
-3.97987 1.64003 1.04928
-3.97399 1.63479 1.03331
-3.98008 1.63561 1.02134
-3.98512 1.63754 1.01635
-3.98123 1.63332 1.00138
-3.98333 1.63213 0.988411
-3.98842 1.63295 0.976436
-3.99651 1.63378 0.964483
-4.0006 1.63361 0.952514
-4.00968 1.63645 0.941539
-3.99876 1.63029 0.931547
-4.00685 1.63212 0.919579
-4.01414 1.62955 0.880666
-4.03435 1.63415 0.852747
-4.03257 1.62973 0.824795
-4.03566 1.62954 0.811819
-4.07146 1.631 0.706053
-4.07791 1.62712 0.646151
-4.0902 1.62756 0.608231
-4.09329 1.62739 0.596255
-4.10132 1.63132 0.591257
-4.1134 1.63416 0.580305
-4.10598 1.62403 0.504388
-4.1381 1.62387 0.356612
2.96603 1.59786 2.47577
2.93722 1.59725 2.501
2.89263 1.60009 2.5553
2.84401 1.60186 2.60565
2.81218 1.60023 2.62891
2.7954 1.60365 2.65699
2.78142 1.60072 2.66114
2.76759 1.60406 2.6832
2.75167 1.60322 2.69333
2.74173 1.60336 2.70241
2.72689 1.60568 2.72349
2.72099 1.60888 2.73649
2.70904 1.60697 2.74261
2.6991 1.6071 2.75068
2.68714 1.6052 2.7568
2.68116 1.60523 2.75884
2.67526 1.60743 2.77186
2.67945 1.61779 2.79668
2.66245 1.61281 2.79688
2.65857 1.61703 2.81185
2.65367 1.62024 2.82584
2.64365 1.6162 2.82297
2.63877 1.62044 2.83895
2.62292 1.62275 2.85904
2.61097 1.62185 2.86514
2.60406 1.62403 2.87716
2.57999 1.61492 2.86848
2.58713 1.62318 2.88631
2.55833 1.62358 2.91252
2.54148 1.62689 2.9326
2.52253 1.62401 2.93979
2.50569 1.62733 2.96087
-1.66402 1.67055 3.4097
-3.88417 1.65036 1.0084
-3.88726 1.64917 0.995436
-3.90871 1.6493 0.935587
-3.91596 1.64783 0.903659
-3.92214 1.64647 0.878723
-3.92923 1.64831 0.867747
-3.92634 1.64508 0.852771
-3.93148 1.64482 0.834811
-3.93866 1.64446 0.809867
-3.94375 1.64428 0.797907
-3.94695 1.6429 0.771948
-3.949 1.64281 0.765963
-3.96017 1.64448 0.74302
-3.95828 1.64227 0.729036
-3.95947 1.63889 0.703092
-3.97354 1.64375 0.693125
-3.97569 1.64247 0.674157
-3.98278 1.6443 0.662182
-3.98198 1.6409 0.635222
-3.98607 1.64172 0.623239
-3.99221 1.64146 0.605287
-3.9973 1.64227 0.592312
-4.00339 1.64411 0.581329
-3.99351 1.63787 0.565344
-3.99461 1.63668 0.552369
-4.00179 1.63733 0.52841
-4.00982 1.64026 0.523426
-4.01791 1.64309 0.511444
-4.01202 1.63888 0.49746
-4.01811 1.6397 0.485492
-4.01821 1.63951 0.472493
-4.01132 1.6343 0.458517
-4.01542 1.63511 0.445534
-4.02644 1.63906 0.441558
-4.01257 1.63181 0.425558
-4.02365 1.63566 0.414583
-4.02175 1.63346 0.4016
-4.01386 1.62923 0.386601
-4.00996 1.62604 0.373617
-4.03003 1.6339 0.36365
-4.02409 1.6308 0.356651
-4.01919 1.62759 0.342659
-4.03527 1.63343 0.331692
-4.02638 1.62822 0.317701
-4.01749 1.62401 0.303694
-4.04255 1.63389 0.294735
-4.02468 1.62464 0.278735
-4.03177 1.62747 0.266745
-4.0408 1.6304 0.261769
-4.03091 1.62519 0.24777
-4.03301 1.625 0.234787
-4.04409 1.62884 0.223812
-4.04129 1.62644 0.196823
-4.04138 1.62526 0.184839
-4.03245 1.62114 0.176832
-4.03255 1.61995 0.163848
-4.04263 1.62379 0.152866
-4.03573 1.61958 0.138874
-4.03283 1.61738 0.125883
-4.03792 1.61921 0.113893
-4.03902 1.61902 0.100902
-4.04206 1.61993 0.0949108
-4.03717 1.61672 0.0809195
-4.04735 1.62037 0.0569388
-4.04864 1.6188 0.0179665
-4.04569 1.61671 0.0119744
-4.04479 1.61551 -0.00101651
-4.04489 1.61532 -0.0140147
-4.04798 1.61614 -0.0260053
-4.05117 1.61676 -0.051994
-4.05026 1.61558 -0.063985
-4.0545 1.61611 -0.0959653
-4.05289 1.61336 -0.146944
-4.06603 1.61908 -0.165932
-4.05413 1.61288 -0.178932
-4.05423 1.61269 -0.19193
-4.05442 1.61232 -0.216927
-4.05456 1.61204 -0.235924
-4.05576 1.61166 -0.261913
3.02524 1.59929 2.23727
3.02631 1.60243 2.24622
3.02845 1.60869 2.26411
3.01146 1.60373 2.26631
3.00756 1.60593 2.27931
3.00064 1.6071 2.29035
2.9917 1.60622 2.29843
2.98472 1.60526 2.30049
2.97377 1.60337 2.30761
2.95477 1.59738 2.30784
2.95288 1.60161 2.32279
2.94797 1.60279 2.33481
2.93904 1.60293 2.34388
2.93111 1.60307 2.35294
2.93219 1.60621 2.36288
2.91217 1.5992 2.36114
2.90625 1.60137 2.37215
2.90438 1.6056 2.38811
2.89041 1.60267 2.39226
2.89053 1.60691 2.40819
2.8826 1.60806 2.41824
2.87159 1.60406 2.41738
2.86971 1.60828 2.43233
2.86581 1.61147 2.44532
2.85285 1.60856 2.45046
2.8429 1.60767 2.45755
2.83699 1.60985 2.46956
2.82604 1.60795 2.47567
2.82611 1.6121 2.48561
2.81817 1.61222 2.49367
2.80623 1.61033 2.50079
2.79225 1.60739 2.50394
2.79138 1.61264 2.52087
2.77639 1.60868 2.52304
2.77956 1.617 2.5449
2.76861 1.6151 2.55101
2.7586 1.61209 2.55013
2.75067 1.61325 2.56018
2.74677 1.61644 2.57316
2.73683 1.61557 2.58125
2.72488 1.61467 2.58735
2.724 1.6189 2.6033
2.71399 1.6159 2.60242
2.70908 1.61908 2.61441
2.70116 1.61923 2.62447
2.67623 1.6154 2.63471
2.66542 1.62077 2.65972
2.61478 1.62251 2.70708
2.60383 1.6216 2.71318
2.58199 1.62295 2.73533
2.56211 1.6232 2.75147
1.28251 1.63467 3.47304
-3.95265 1.63863 0.280986
-3.97277 1.63644 0.132149
-3.97724 1.63553 0.0701881
-3.97934 1.63534 0.057205
-3.98248 1.63506 0.0382301
-3.97577 1.63049 0.00024196
-3.97486 1.62931 -0.0117491
-3.98695 1.63414 -0.0237312
-3.97838 1.62829 -0.080717
-3.98247 1.62912 -0.0927001
-3.98057 1.62792 -0.105699
-3.98166 1.62775 -0.117689
-3.98371 1.62864 -0.124688
-3.9768 1.62546 -0.136695
-3.9849 1.62828 -0.149677
-3.98899 1.6301 -0.161675
-3.98708 1.62891 -0.174673
-3.98832 1.62845 -0.205662
-3.97942 1.62425 -0.218668
-3.98551 1.62608 -0.230651
-3.97861 1.62288 -0.243658
-3.9817 1.6247 -0.255663
-3.98579 1.62551 -0.268646
2.98662 1.60509 2.15446
2.98171 1.60727 2.16647
2.8579 1.61172 2.19134
3.18289 -0.276698 1.04269
3.16954 -0.271476 1.39476
3.16974 -0.271091 1.42075
3.16912 -0.270335 1.47175
3.16827 -0.270053 1.49076
3.16444 -0.26971 1.51379
3.16253 -0.269531 1.5258
3.16178 -0.269041 1.5588
3.16801 -0.268602 1.58875
3.15917 -0.26827 1.61082
3.16028 -0.268063 1.62481
3.16756 -0.268506 1.66277
3.15963 -0.268366 1.67182
3.16375 -0.268133 1.68779
3.15983 -0.267967 1.69882
3.15909 -0.267463 1.73282
3.15819 -0.26727 1.74583
3.16041 -0.266827 1.77581
3.1575 -0.266647 1.78783
3.16074 -0.266191 1.8188
3.15074 -0.266183 1.81888
3.15397 -0.265727 1.84985
3.1543 -0.26509 1.89285
3.14742 -0.264833 1.9099
3.15055 -0.264584 1.92687
3.16094 -0.263821 1.97879
3.14508 -0.263543 1.99691
3.14827 -0.263175 2.02188
3.14437 -0.26298 2.03491
3.15352 -0.262676 2.05584
3.1408 -0.262119 2.09293
3.14187 -0.261986 2.10192
3.13897 -0.261792 2.11494
3.14334 -0.261054 2.16491
3.14246 -0.260832 2.17991
3.14258 -0.260595 2.19591
3.13874 -0.260281 2.21694
3.13596 -0.259849 2.24596
3.1391 -0.26057 2.26495
3.14344 -0.259907 2.30991
3.13161 -0.259558 2.333
3.12972 -0.259334 2.34801
3.13086 -0.259069 2.366
3.12897 -0.258845 2.38101
3.13708 -0.258629 2.39595
3.13017 -0.258461 2.407
3.12942 -0.257957 2.441
3.1376 -0.257608 2.46494
3.12982 -0.257187 2.493
3.12712 -0.256578 2.53401
3.11968 -0.255477 2.60806
3.12083 -0.255197 2.62705
3.11794 -0.254972 2.64207
3.11707 -0.254705 2.66008
3.17061 -0.231407 1.39916
3.16747 -0.228702 1.51416
3.16576 -0.228138 1.55217
3.16763 -0.226436 1.66714
3.15964 -0.226401 1.6692
3.15884 -0.226 1.69621
3.15715 -0.224407 1.7362
3.15927 -0.224171 1.75218
3.1563 -0.224095 1.75721
3.15641 -0.223888 1.7712
3.15573 -0.223266 1.81321
3.16404 -0.222665 1.85414
3.15431 -0.222124 1.89021
3.15157 -0.221604 1.92523
3.14889 -0.220965 1.96824
3.15023 -0.2193 2.01322
3.14526 -0.219237 2.01725
3.14282 -0.21814 2.09127
3.15117 -0.217465 2.1372
3.14235 -0.217103 2.16126
3.13774 -0.21533 2.21328
3.13887 -0.215079 2.23027
3.13899 -0.214842 2.24627
3.13534 -0.214158 2.29229
3.13345 -0.213934 2.3073
3.13577 -0.213299 2.35028
3.1359 -0.213048 2.36728
3.13113 -0.2126 2.39731
3.13836 -0.211146 2.42824
3.14064 -0.2106 2.46522
3.12881 -0.210251 2.48831
3.12714 -0.209613 2.53132
3.14136 -0.209179 2.56121
3.12439 -0.209122 2.56434
3.1356 -0.207716 2.59223
3.13171 -0.207491 2.60726
3.12594 -0.207043 2.6373
3.12803 -0.206866 2.64929
3.12616 -0.206613 2.6663
3.18912 -0.218293 0.934759
3.18921 -0.218116 0.946757
3.19632 -0.217914 0.960703
3.19357 -0.216408 0.994706
3.18425 -0.215069 1.08477
3.18635 -0.214878 1.09775
3.19246 -0.21466 1.1127
3.18671 -0.214167 1.14575
3.18576 -0.214078 1.15175
3.19789 -0.212835 1.16864
3.18995 -0.212696 1.1777
3.18904 -0.212532 1.18871
3.1791 -0.212407 1.19678
3.1812 -0.212216 1.20977
3.18731 -0.211998 1.22472
3.19438 -0.211855 1.23467
3.17842 -0.211769 1.23979
3.18855 -0.211525 1.25671
3.18362 -0.211373 1.26674
3.19075 -0.211142 1.28269
3.18783 -0.210977 1.29371
3.1829 -0.210825 1.30375
3.18295 -0.210736 1.30975
3.19208 -0.209491 1.32666
3.18123 -0.209187 1.34674
3.18935 -0.208956 1.36268
3.18859 -0.208482 1.39468
3.17573 -0.208191 1.41378
3.17583 -0.207998 1.42677
3.17593 -0.207806 1.43977
3.17713 -0.207407 1.46676
3.17618 -0.207318 1.47277
3.1833 -0.207086 1.48871
3.1845 -0.205687 1.51569
3.18159 -0.205507 1.52771
3.17667 -0.205355 1.53774
3.1708 -0.205099 1.55479
3.16688 -0.204934 1.56582
3.16708 -0.204534 1.59281
3.18025 -0.204218 1.61471
3.17232 -0.204079 1.62377
3.16337 -0.203969 1.63084
3.17447 -0.203769 1.64475
3.17357 -0.202576 1.65774
3.16163 -0.203464 1.66485
3.17579 -0.202149 1.68672
3.16987 -0.201996 1.69677
3.16696 -0.201816 1.70879
3.17405 -0.201644 1.72073
3.17114 -0.201464 1.73276
3.16521 -0.201312 1.7428
3.17336 -0.201021 1.76274
3.15739 -0.200965 1.76586
3.15749 -0.200758 1.77985
3.17067 -0.199412 1.80374
3.17073 -0.199309 1.81074
3.15475 -0.200253 1.81387
3.1629 -0.198962 1.83379
3.15999 -0.198783 1.84582
3.16111 -0.198547 1.86181
3.1572 -0.198366 1.87383
3.15932 -0.198131 1.88982
3.16239 -0.198 1.89879
3.16853 -0.197723 1.91775
3.1596 -0.197583 1.92681
3.15468 -0.197416 1.93785
3.16586 -0.196084 1.96075
3.16698 -0.195848 1.97674
3.16106 -0.195681 1.98778
3.16212 -0.195563 1.99577
3.1552 -0.19541 2.00582
3.1533 -0.195201 2.01984
3.15744 -0.194938 2.0378
3.15756 -0.194701 2.0538
3.15969 -0.193451 2.07077
3.16081 -0.193215 2.08676
3.15288 -0.193061 2.09682
3.15093 -0.192971 2.10283
3.1572 -0.192442 2.13878
3.15229 -0.192261 2.15082
3.15555 -0.190745 2.18578
3.14555 -0.191738 2.18587
3.14567 -0.190501 2.20185
3.1478 -0.190251 2.21883
3.14995 -0.189971 2.23781
3.1551 -0.189679 2.25777
3.15321 -0.189455 2.27279
3.14528 -0.189301 2.28285
3.14346 -0.188959 2.30586
3.15365 -0.187582 2.33176
3.14874 -0.187401 2.3438
3.14384 -0.187204 2.35684
3.14799 -0.186911 2.3768
3.14813 -0.186645 2.3948
3.14114 -0.18661 2.39685
3.13725 -0.1864 2.41088
3.13549 -0.184925 2.44288
3.13865 -0.184616 2.46385
3.14382 -0.184294 2.48581
3.14603 -0.183881 2.51379
3.14328 -0.182391 2.5468
3.13939 -0.182166 2.56182
3.13952 -0.181899 2.57982
3.14067 -0.181604 2.59981
3.13678 -0.181394 2.61384
3.13886 -0.181233 2.62482
3.13195 -0.18105 2.63687
3.14015 -0.179671 2.66279
3.20916 -0.175283 0.935972
3.20533 -0.174954 0.957999
3.20664 -0.174348 0.998986
3.2038 -0.17402 1.02101
3.20207 -0.172501 1.056
3.20517 -0.172311 1.06898
3.20439 -0.171866 1.09898
3.19254 -0.167607 1.25103
3.19435 -0.165009 1.35899
3.18815 -0.162435 1.46501
3.20724 -0.154151 0.944674
3.1983 -0.155026 0.952756
3.19547 -0.153698 0.974761
3.20153 -0.153584 0.982714
3.19761 -0.153433 0.992743
3.1987 -0.153256 1.00473
3.20079 -0.153065 1.01772
3.19587 -0.152913 1.02775
3.19195 -0.152762 1.03778
3.19905 -0.15156 1.05171
3.19709 -0.151485 1.05673
3.19517 -0.151321 1.06774
3.20329 -0.15109 1.08368
3.19736 -0.150952 1.09272
3.18741 -0.150841 1.0998
3.19553 -0.15061 1.11573
3.1896 -0.150472 1.12478
3.18965 -0.150384 1.13078
3.19685 -0.148989 1.15771
