1.16968 1.66552 4.41866
1.15365 1.66247 4.41482
1.13869 1.66355 4.41992
1.12059 1.65638 4.40716
1.11181 1.66681 4.43608
1.09271 1.66063 4.42331
1.08676 1.66274 4.43032
1.06869 1.65762 4.42154
1.05579 1.66181 4.43357
1.03872 1.6567 4.42578
1.02893 1.66611 4.45271
1.00878 1.65683 4.433
0.997941 1.66415 4.45398
0.986794 1.65687 4.43516
0.976003 1.66628 4.46211
0.955816 1.65494 4.43843
0.942925 1.66016 4.45245
0.932103 1.6675 4.47543
0.912948 1.65922 4.45569
0.897987 1.66031 4.46079
0.888924 1.6562 4.45292
0.879173 1.66768 4.48482
0.857924 1.65422 4.45318
0.846056 1.66048 4.47018
0.828978 1.65534 4.46038
0.817141 1.66266 4.48136
0.749249 1.66392 4.49586
0.731078 1.65461 4.47413
0.716125 1.65571 4.48023
0.701125 1.65572 4.48034
0.696249 1.66096 4.4963
0.667365 1.6652 4.51146
0.634241 1.65799 4.49581
0.604257 1.65704 4.49805
0.584459 1.66644 4.52407
0.551273 1.65611 4.50047
0.52135 1.65828 4.51066
0.499459 1.6635 4.52475
0.437382 1.6574 4.51531
0.408476 1.6616 4.52746
0.385429 1.65852 4.52168
0.355507 1.66169 4.53186
0.325554 1.6628 4.53807
0.241571 1.6619 4.54072
0.0274989 1.65893 4.39936
0.0125225 1.65999 4.40245
-0.00251595 1.65793 4.3976
-0.0174302 1.6621 4.40865
-0.0834666 1.66107 4.40416
-0.113458 1.66211 4.40537
-0.127535 1.65797 4.39554
-0.142526 1.659 4.39664
-0.15048 1.66109 4.40267
-0.20854 1.65902 4.39513
-0.231453 1.6642 4.40623
-0.245561 1.659 4.39241
-0.260506 1.66211 4.39948
-0.275529 1.66108 4.39661
-0.290559 1.66003 4.39274
-0.304582 1.659 4.38986
-0.326596 1.65898 4.38802
-0.371579 1.66105 4.39033
-0.400585 1.66205 4.38953
-0.437607 1.66204 4.38681
-0.45166 1.65994 4.37995
-0.481659 1.66096 4.38016
-0.496666 1.66096 4.37927
-0.518657 1.66199 4.38042
-0.533702 1.66091 4.37455
-0.54774 1.65985 4.36967
-0.562724 1.66089 4.37177
-0.606745 1.66188 4.36909
-0.687825 1.66177 4.3587
-0.752937 1.6606 4.3442
-0.767952 1.66058 4.34232
-0.892091 1.66139 4.32424
-0.929119 1.66336 4.32049
-0.971217 1.6612 4.30783
-1.00826 1.66213 4.3021
-1.02229 1.66208 4.2982
-1.05133 1.66202 4.29242
-1.17552 1.66374 4.26833
-1.28877 1.66332 4.23519
-1.36696 1.662 4.21079
-1.40906 1.66183 4.19711
-1.42407 1.66282 4.19621
-1.4732 1.66259 4.17858
-1.48625 1.66151 4.17269
-1.50225 1.66251 4.1718
-1.51531 1.66241 4.1649
-1.53031 1.66341 4.16399
-1.56541 1.66324 4.15126
-1.58042 1.66424 4.15036
-1.60948 1.66513 4.14156
-1.62352 1.66506 4.13667
-1.65142 1.67326 4.14876
-1.6586 1.66593 4.12592
-1.67265 1.66585 4.12002
-1.68668 1.66578 4.11513
-1.70268 1.66779 4.11522
-1.71279 1.6636 4.10136
-1.73174 1.6687 4.10743
-1.7368 1.66658 4.09949
-1.75573 1.67273 4.10855
-1.7678 1.6706 4.09967
-1.77498 1.66327 4.07683
-1.79391 1.6694 4.08488
-1.80796 1.66932 4.07899
-1.81806 1.66512 4.06512
-1.82606 1.66713 4.06515
-1.84208 1.66811 4.06326
-1.85708 1.67011 4.06234
-1.87211 1.67106 4.05844
-1.88713 1.67302 4.05552
-1.90215 1.67401 4.05362
-1.91325 1.67082 4.04075
-1.9291 1.68011 4.05974
-1.93527 1.67278 4.03689
-1.94442 1.6675 4.01803
-1.96435 1.67465 4.02708
-1.9774 1.67356 4.02019
-1.99144 1.67449 4.01528
-2.00843 1.67751 4.01537
-2.01054 1.67232 4.00246
-2.03244 1.68051 4.0145
-2.04452 1.67937 4.00461
-2.05363 1.67515 3.98974
-2.06865 1.67712 3.98682
-2.08171 1.67601 3.97894
-2.09478 1.67489 3.97005
-2.09983 1.6738 3.9641
-2.11976 1.67993 3.97216
-2.13085 1.67777 3.96028
-2.13997 1.67355 3.94541
-2.1609 1.68068 3.95346
-2.16904 1.67542 3.9356
-2.18407 1.67637 3.9317
-2.20218 1.67518 3.91785
-2.21719 1.67716 3.91593
-2.23221 1.67813 3.91303
-2.24133 1.6749 3.89714
-2.25439 1.6748 3.89024
-2.27841 1.67776 3.88638
-2.29246 1.67768 3.88049
-2.3097 1.67024 3.84972
-2.33162 1.67739 3.85878
-2.34665 1.67934 3.85487
-2.35477 1.67511 3.83899
-2.35883 1.67299 3.83105
-2.37879 1.67908 3.83611
-2.38198 1.67173 3.81224
-2.39997 1.67475 3.81333
-2.41303 1.67465 3.80543
-2.41818 1.66935 3.78554
-2.43716 1.6734 3.78763
-2.44715 1.67643 3.78966
-2.45428 1.67119 3.77279
-2.47227 1.67622 3.77385
-2.48433 1.67509 3.76495
-2.49344 1.67189 3.75107
-2.50749 1.6728 3.74416
-2.52647 1.67785 3.74723
-2.52461 1.67059 3.72932
-2.53864 1.67252 3.7244
-2.54873 1.67035 3.7125
-2.56475 1.67333 3.71058
-2.57682 1.6722 3.70068
-2.59284 1.67518 3.69876
-2.60096 1.67095 3.68288
-2.60995 1.67297 3.68392
-2.623 1.67387 3.677
-2.63607 1.67375 3.6681
-2.64714 1.67262 3.6592
-2.65823 1.67146 3.6473
-2.67029 1.67135 3.63939
-2.69027 1.67639 3.64147
-2.68838 1.67117 3.62653
-2.72241 1.67713 3.6227
-2.72656 1.67184 3.6028
-4.55863 1.63559 1.07879
-4.55376 1.63134 1.06182
-4.56286 1.63315 1.04886
-4.557 1.62888 1.03088
-4.55512 1.62664 1.01489
-4.56122 1.62645 1.00194
-4.56234 1.62522 0.985963
-4.56239 1.62411 0.978979
-4.57349 1.62693 0.966019
-4.56662 1.62267 0.949028
-4.56274 1.61943 0.933045
-4.59279 1.62933 0.925124
-4.57994 1.62304 0.906117
-4.57107 1.61779 0.889126
-4.58211 1.62072 0.884165
-4.57624 1.61747 0.867167
-4.58234 1.61726 0.853214
-4.59842 1.62211 0.842261
-4.57858 1.6128 0.822247
-4.59777 1.61743 0.796319
-4.58996 1.61205 0.771337
-4.60106 1.61487 0.758377
-4.61238 1.61524 0.715451
-4.61666 1.6127 0.678516
-4.62 1.61003 0.633574
-4.63432 1.61142 0.591655
-4.63994 1.60721 0.509749
-4.65482 1.60349 0.3929
3.34127 1.60768 2.89994
3.31748 1.6091 2.92711
3.26091 1.60998 2.98453
3.25099 1.61014 2.9946
3.24006 1.6103 3.00468
3.23115 1.61048 3.01675
3.22324 1.61266 3.02878
3.2103 1.61079 3.0369
3.2024 1.61297 3.04893
3.20146 1.61511 3.05791
3.18852 1.61324 3.06603
3.17861 1.61441 3.07709
3.16465 1.61251 3.08323
3.15674 1.61369 3.09527
3.15187 1.61794 3.11225
3.14498 1.62016 3.12627
3.12993 1.61408 3.12047
3.12909 1.62039 3.14139
3.11515 1.6195 3.14851
3.10422 1.61965 3.15759
3.09732 1.62186 3.17161
3.08437 1.61997 3.17874
3.07849 1.6232 3.19373
3.07757 1.62636 3.2047
3.05656 1.62035 3.20294
3.04462 1.62047 3.21103
3.03672 1.62269 3.22506
3.02983 1.6249 3.23908
3.01689 1.62403 3.24719
3.00999 1.62622 3.26021
3.00705 1.62834 3.26821
2.99411 1.62747 3.27632
2.98823 1.6307 3.29132
2.97125 1.62776 3.29449
2.96133 1.62893 3.30555
2.95747 1.63319 3.32352
2.94251 1.63128 3.32866
2.93956 1.63238 3.33566
2.93571 1.63768 3.35562
2.91872 1.63471 3.35679
2.90981 1.63589 3.36884
2.89889 1.63707 3.37991
2.88494 1.63516 3.38604
2.87502 1.63632 3.3961
2.84922 1.63874 3.42326
1.2385 1.66614 4.26111
1.17363 1.66644 4.27859
1.14364 1.66448 4.27985
1.1297 1.66661 4.28792
1.10176 1.66674 4.29613
1.09479 1.66781 4.30017
1.0498 1.66487 4.30255
1.0188 1.66288 4.30182
1.0069 1.66709 4.31585
0.997858 1.66401 4.30996
0.98181 1.65994 4.30414
0.970981 1.66727 4.32612
0.93788 1.6601 4.31347
0.924934 1.66221 4.32054
0.912019 1.66539 4.33159
0.901918 1.6602 4.31874
0.886926 1.65923 4.31987
0.876104 1.66757 4.34283
0.860065 1.66451 4.33799
0.844042 1.66248 4.33514
0.831119 1.66564 4.3452
0.814026 1.65947 4.33341
0.807049 1.66052 4.33645
0.795165 1.66575 4.35147
0.778103 1.66065 4.34367
0.761017 1.6555 4.33287
0.750196 1.66384 4.35583
0.73518 1.66283 4.35396
0.719111 1.6587 4.34514
0.713234 1.66395 4.36111
0.697165 1.65982 4.35229
0.681095 1.6557 4.34347
0.668195 1.6599 4.35651
0.652172 1.65787 4.35366
0.638196 1.65893 4.35675
0.624273 1.66108 4.36682
0.617265 1.66107 4.36588
0.601234 1.65903 4.36203
0.588335 1.66323 4.37506
0.57225 1.65808 4.36426
0.557273 1.65913 4.36736
0.54439 1.66436 4.38238
0.529343 1.66129 4.37654
0.522374 1.66235 4.38058
0.507359 1.66133 4.3787
0.490258 1.65515 4.36592
0.477367 1.66037 4.37994
0.46239 1.66142 4.38304
0.44732 1.6563 4.37423
0.432375 1.65942 4.3813
0.42539 1.65945 4.38335
0.395367 1.65743 4.3806
0.381422 1.65954 4.38768
0.366337 1.65539 4.37685
0.351375 1.65648 4.38195
0.33743 1.65959 4.38901
0.32936 1.65546 4.38013
0.314384 1.65652 4.38323
0.299392 1.65654 4.38434
0.285439 1.65864 4.39042
0.270385 1.65555 4.38357
0.256509 1.6618 4.39959
0.241439 1.65767 4.39076
0.233416 1.65664 4.38784
0.174433 1.65671 4.39028
0.160464 1.65778 4.39437
0.152449 1.65675 4.39245
0.138511 1.65988 4.40051
0.123504 1.65988 4.39962
0.0935051 1.6599 4.39985
0.0785056 1.65991 4.39996
0.0644665 1.65685 4.39511
0.0565213 1.65996 4.40212
0.0424671 1.65686 4.39527
0.0235271 1.65703 4.2704
0.008675 1.66432 4.2894
0.00154342 1.65807 4.27255
-0.0125183 1.65496 4.2647
-0.0265028 1.655 4.2668
-0.0414321 1.65915 4.27586
-0.0554474 1.65813 4.27398
-0.0694935 1.65605 4.26811
-0.0844227 1.66019 4.27716
-0.0913918 1.66126 4.2812
-0.106383 1.66228 4.2823
-0.120383 1.66229 4.2824
-0.13446 1.65816 4.27257
-0.149467 1.65815 4.27168
-0.163513 1.65607 4.26582
-0.177458 1.65919 4.27288
-0.185404 1.6623 4.27989
-0.199395 1.66332 4.28098
-0.213472 1.65918 4.27115
-0.229301 1.66852 4.29313
-0.24251 1.65813 4.26638
-0.257447 1.66126 4.27445
-0.271454 1.66126 4.27356
-0.293422 1.66333 4.27769
-0.307445 1.6633 4.2748
-0.335576 1.65707 4.2581
-0.350482 1.66225 4.27014
-0.372512 1.66121 4.26632
-0.386503 1.66224 4.26741
-0.400541 1.66117 4.26253
-0.414564 1.66014 4.25965
-0.429563 1.66115 4.25975
-0.444531 1.66322 4.26383
-0.457624 1.65805 4.252
-0.465515 1.66426 4.26597
-0.47956 1.66319 4.26009
-0.49363 1.66006 4.25125
-0.508582 1.66316 4.25731
-0.522597 1.66314 4.25542
-0.53665 1.66105 4.24855
-0.54972 1.65793 4.2397
-0.559571 1.66621 4.25865
-0.571742 1.6579 4.23686
-0.585741 1.65791 4.23697
-0.615684 1.66303 4.24412
-0.630668 1.66407 4.24622
-0.64373 1.66196 4.23835
-0.650737 1.66195 4.2374
-0.665736 1.66297 4.2375
-0.679782 1.66089 4.23163
-0.692827 1.65981 4.22575
-0.708787 1.66289 4.23082
-0.722794 1.66289 4.22993
-0.735894 1.65871 4.21709
-0.742878 1.66074 4.21911
-0.760737 1.66902 4.23712
-0.771884 1.66175 4.21831
-0.78686 1.6638 4.2214
-0.800921 1.66169 4.21353
-0.814912 1.66272 4.21462
-0.830857 1.66683 4.22168
-0.835957 1.66264 4.20878
-0.850948 1.66367 4.20988
-0.864025 1.66053 4.20002
-0.879977 1.66463 4.20608
-0.891093 1.65942 4.19124
-0.909006 1.66559 4.20229
-0.921083 1.66246 4.19242
-0.930035 1.66555 4.19844
-0.941144 1.66035 4.1846
-0.955196 1.65926 4.17772
-0.972118 1.66442 4.18778
-0.985171 1.66232 4.18091
-0.997247 1.66019 4.17103
-1.01614 1.66741 4.18506
-1.02216 1.66637 4.18212
-1.0333 1.66011 4.1643
-1.04731 1.6611 4.16339
-1.06521 1.66829 4.17542
-1.07536 1.66102 4.1566
-1.09327 1.6672 4.16765
-1.10632 1.66612 4.16176
-1.1114 1.66196 4.15086
-1.12833 1.6681 4.1599
-1.14237 1.66704 4.15502
-1.15347 1.66285 4.14216
-1.16943 1.66592 4.14624
-1.18346 1.66588 4.14234
-1.19749 1.66583 4.13845
-1.21054 1.66475 4.13256
-1.21659 1.66265 4.12564
-1.23352 1.66779 4.13469
-1.24854 1.66877 4.13279
-1.26256 1.66974 4.12988
-1.27659 1.66969 4.12598
-1.28965 1.66758 4.11811
-1.29666 1.66756 4.11617
-1.31165 1.6696 4.11825
-1.32082 1.66228 4.09642
-1.33777 1.66738 4.10248
-1.34788 1.66217 4.08763
-1.3658 1.66833 4.09767
-1.37985 1.66725 4.09179
-1.38783 1.6693 4.09482
-1.40088 1.6692 4.08792
-1.41589 1.66919 4.08604
-1.42795 1.66808 4.07814
-1.44395 1.67009 4.07823
-1.45798 1.67004 4.07434
-1.47494 1.67512 4.07939
-1.47609 1.66684 4.06052
-1.49403 1.67196 4.06758
-1.50707 1.6719 4.06268
-1.51914 1.66976 4.0528
-1.53122 1.66762 4.04292
-1.54623 1.66861 4.04202
-1.56026 1.66957 4.03811
-1.57118 1.67472 4.04812
-1.58618 1.67672 4.0472
-1.59435 1.66941 4.02637
-1.6113 1.6745 4.03142
-1.62044 1.66825 4.01458
-1.6384 1.67334 4.01964
-1.65143 1.67328 4.01474
-1.6614 1.67634 4.01877
-1.67248 1.67419 4.00788
-1.68554 1.67309 4.001
-1.70154 1.6751 4.00109
-1.71653 1.67712 4.00117
-1.74069 1.67384 3.9814
-1.74279 1.66865 3.96849
-1.77968 1.67886 3.98162
-1.78979 1.67567 3.96774
-1.80087 1.67351 3.95685
-1.81196 1.67036 3.94598
-1.82992 1.67543 3.95004
-1.84409 1.66911 3.92824
-1.864 1.67629 3.93929
-1.9252 1.67695 3.91373
-1.93824 1.67687 3.90783
-1.95941 1.67256 3.88605
-1.97837 1.67765 3.89112
-2.0888 1.67588 3.83497
-2.30362 1.67641 3.72657
-2.38399 1.67473 3.67719
-2.41612 1.6755 3.66042
-2.42622 1.67332 3.64753
-2.46141 1.67197 3.62281
-2.49552 1.67377 3.60804
-2.52064 1.67356 3.59223
-2.5327 1.67345 3.58432
-2.54673 1.67538 3.57939
-4.42696 1.63186 1.03485
-4.43506 1.63267 1.0219
-4.44825 1.6343 0.995971
-4.4344 1.627 0.976972
-4.45142 1.63297 0.974011
-4.44056 1.6267 0.95602
-4.44966 1.62851 0.94306
-4.44278 1.62427 0.927069
-4.45986 1.62912 0.916124
-4.45099 1.62386 0.899133
-4.47605 1.63175 0.890203
-4.45615 1.62355 0.878173
-4.45227 1.62032 0.86219
-4.46736 1.62415 0.850245
-4.46846 1.62294 0.836269
-4.46858 1.62172 0.821286
-4.47368 1.62252 0.807311
-4.46082 1.61524 0.789319
-4.46687 1.61716 0.783335
-4.47396 1.61797 0.770375
-4.48106 1.61978 0.7574
-4.4672 1.61251 0.739401
-4.49127 1.62037 0.729464
-4.48638 1.61715 0.714473
-4.47752 1.61189 0.697482
-4.49354 1.61784 0.693514
-4.48567 1.61259 0.67653
-4.49188 1.61218 0.648579
-4.489 1.60995 0.633588
-4.50808 1.6168 0.622629
-4.49322 1.60953 0.604622
-4.50525 1.61346 0.599654
-4.50037 1.61023 0.584663
-4.49649 1.60699 0.568679
-4.4976 1.60579 0.554704
-4.5017 1.60658 0.540721
-4.5118 1.6094 0.527754
-4.50902 1.60597 0.498779
-4.52505 1.6119 0.493812
-4.51329 1.60444 0.462829
-4.52738 1.60925 0.449862
-4.5246 1.60582 0.420888
-4.53176 1.60652 0.399929
-4.52809 1.60286 0.355949
-4.54041 1.60425 0.314016
-4.53958 1.60192 0.292041
-4.5429 1.60129 0.249069
-4.5646 1.59301 -0.108694
3.26049 1.6052 2.79657
3.21893 1.61009 2.85482
3.20498 1.60819 2.86096
3.19901 1.60725 2.86502
3.19009 1.60842 2.87607
3.16435 1.61094 2.91023
3.15543 1.61211 2.92128
3.15055 1.61534 2.93627
3.13853 1.61132 2.93442
3.13768 1.61661 2.95435
3.11767 1.61062 2.95359
3.11582 1.6159 2.97253
3.09783 1.61193 2.97372
3.099 1.61825 2.99563
3.08101 1.61429 2.99782
3.07503 1.61334 3.00088
3.06814 1.61655 3.01489
3.06426 1.61979 3.03087
3.04829 1.61686 3.03503
3.05048 1.62522 3.0589
3.02845 1.61819 3.05617
3.02457 1.62243 3.07213
3.00851 1.61532 3.06436
3.00465 1.61959 3.08233
2.99573 1.62076 3.09338
2.98883 1.62296 3.1064
2.96781 1.61794 3.10463
2.97404 1.62838 3.13444
2.96109 1.62648 3.14056
2.95814 1.62859 3.14755
2.94318 1.62667 3.1527
2.93426 1.62684 3.16376
2.92535 1.62903 3.1758
2.91947 1.63225 3.1908
2.90551 1.63035 3.19693
2.88549 1.62432 3.19417
2.88558 1.6285 3.20611
2.8807 1.63274 3.22209
2.86574 1.62982 3.22724
2.85196 1.63625 3.25526
2.838 1.63435 3.26139
2.82504 1.63345 3.2675
2.82412 1.63659 3.27746
2.80511 1.63059 3.2767
2.80024 1.63585 3.29366
2.77839 1.63715 3.3128
2.74064 1.63866 3.34607
2.70582 1.63804 3.37035
1.0748 1.66487 4.16835
1.03183 1.66296 4.1727
1.01786 1.66404 4.17779
0.997925 1.66518 4.18592
0.981878 1.6611 4.1801
0.954994 1.66534 4.19525
0.941017 1.6654 4.19835
0.926025 1.66442 4.19948
0.919009 1.6634 4.19755
0.904001 1.66139 4.19669
0.891094 1.66558 4.20873
0.873985 1.65939 4.19494
0.862094 1.6636 4.20897
0.848125 1.66467 4.21306
0.835171 1.66577 4.21915
0.825085 1.66061 4.2083
0.812132 1.66171 4.21438
0.799209 1.66487 4.22443
0.784225 1.66491 4.22654
0.76917 1.66182 4.2197
0.755193 1.66187 4.22281
0.739163 1.65982 4.21896
0.733232 1.66196 4.22797
0.718162 1.65784 4.21914
0.704193 1.65891 4.22323
0.689209 1.65895 4.22535
0.675193 1.65693 4.22348
0.661255 1.66006 4.23154
0.648325 1.6622 4.24061
0.639216 1.657 4.22675
0.626294 1.66016 4.2368
0.612379 1.66333 4.24786
0.597332 1.66025 4.24202
0.583363 1.66132 4.24611
0.567278 1.65617 4.23531
0.555387 1.66139 4.24932
0.547364 1.66035 4.2464
0.532364 1.65936 4.24653
0.519402 1.66044 4.25161
0.503341 1.65734 4.24377
0.490442 1.66154 4.25681
0.475364 1.6574 4.24698
0.469504 1.66367 4.26494
0.454457 1.66059 4.2591
0.440511 1.66271 4.26617
0.425418 1.65754 4.25436
0.411481 1.66067 4.26242
0.382473 1.65968 4.26165
0.376551 1.66283 4.27165
0.361559 1.66285 4.27276
0.346481 1.65872 4.26294
0.331443 1.65665 4.25808
0.303513 1.65981 4.26725
0.288451 1.6557 4.25942
0.274397 1.65261 4.25257
0.267491 1.65779 4.26455
0.253537 1.65989 4.27062
0.239545 1.65991 4.27173
0.224577 1.66098 4.27582
0.210569 1.66098 4.27493
0.195515 1.65789 4.26809
0.181578 1.66101 4.27615
0.174547 1.65896 4.27223
0.159539 1.65796 4.27136
0.145485 1.65486 4.26451
0.131602 1.6611 4.27952
0.117711 1.66631 4.29355
0.102548 1.65801 4.27279
0.095564 1.65905 4.27483
0.0805255 1.65699 4.26997
0.0664945 1.65494 4.2661
0.0525727 1.65909 4.27615
0.037612 1.66118 4.28123
-0.770829 1.66688 4.09221
-0.786781 1.67098 4.09827
-0.797897 1.66577 4.08343
-0.811904 1.66576 4.08254
-0.82691 1.66676 4.08163
-0.840886 1.66881 4.08471
-0.854923 1.66875 4.07982
-0.861916 1.66877 4.08087
-0.873039 1.66354 4.06503
-0.890905 1.6718 4.08204
-0.903967 1.66969 4.07417
-0.917973 1.67069 4.07326
-0.929081 1.66549 4.05942
-0.944064 1.66853 4.06149
-0.956141 1.66539 4.05162
-0.965078 1.66852 4.05965
-0.978108 1.66847 4.05574
-0.991169 1.66636 4.04787
-1.00517 1.66837 4.04795
-1.01919 1.66833 4.04505
-1.0332 1.66831 4.04316
-1.0402 1.66933 4.0442
-1.05326 1.66721 4.03533
-1.0663 1.66615 4.03044
-1.08129 1.66819 4.03252
-1.0953 1.66917 4.03061
-1.10638 1.66601 4.01974
-1.12333 1.67113 4.02679
-1.12838 1.66803 4.01988
-1.14045 1.6659 4.011
-1.15545 1.66792 4.01108
-1.16848 1.66787 4.00718
-1.18251 1.66782 4.00329
-1.19749 1.66986 4.00537
-1.21052 1.66981 4.00147
-1.2185 1.67186 4.0045
-1.23155 1.67076 3.99761
-1.24167 1.66555 3.98276
-1.2586 1.67069 3.99182
-1.27164 1.67061 3.98591
-1.28469 1.66954 3.98003
-1.29773 1.66846 3.97414
-1.30669 1.67154 3.97916
-1.31875 1.67043 3.97127
-1.33278 1.67038 3.96738
-1.34581 1.67033 3.96347
-1.35982 1.67132 3.96256
-1.37286 1.67024 3.95668
-1.3869 1.67018 3.95178
-1.3939 1.67119 3.95182
-1.40498 1.66905 3.94194
-1.42389 1.67622 3.95297
-1.43301 1.66999 3.93713
-1.44509 1.66785 3.92725
-1.46205 1.67294 3.93231
-1.47508 1.67289 3.92841
-1.48014 1.66977 3.92049
-1.50621 1.66966 3.91169
-1.52218 1.67372 3.91475
-1.53426 1.67158 3.90487
-1.54436 1.66739 3.892
-1.56132 1.67248 3.89706
-1.56832 1.67247 3.89611
-1.58037 1.67239 3.8902
-1.59146 1.66922 3.87833
-1.6195 1.67116 3.87351
-1.63745 1.67627 3.87957
-1.65062 1.66894 3.85678
-1.6676 1.67299 3.85984
-1.68258 1.67603 3.86191
-1.69366 1.67388 3.85103
-1.70868 1.67486 3.84913
-1.73377 1.6747 3.83731
-1.73981 1.67363 3.83238
-1.7649 1.67246 3.81958
-1.80698 1.67534 3.80985
-4.28505 1.63259 1.02277
-4.29736 1.63199 0.981866
-4.3004 1.63291 0.975875
-4.3086 1.63251 0.948939
-4.30573 1.62927 0.932963
-4.31692 1.6299 0.907034
-4.31703 1.62869 0.893051
-4.32418 1.6294 0.873092
-4.32628 1.62819 0.859123
-4.33538 1.63001 0.846163
-4.33349 1.62778 0.83118
-4.34058 1.62861 0.81922
-4.3427 1.62839 0.804237
-4.34075 1.62629 0.797252
-4.33687 1.62305 0.781269
-4.34696 1.62588 0.769301
-4.3341 1.61862 0.752309
-4.34518 1.62145 0.740349
-4.3443 1.62022 0.725359
-4.34739 1.62003 0.712383
-4.35449 1.62084 0.699423
-4.35454 1.62074 0.692424
-4.35166 1.61752 0.677448
-4.34977 1.61529 0.662464
-4.35587 1.61711 0.649482
-4.35698 1.6159 0.635506
-4.35808 1.61469 0.62153
-4.37017 1.61852 0.609563
-4.36423 1.6154 0.601563
-4.36734 1.6152 0.587588
-4.37343 1.61601 0.57462
-4.37454 1.6158 0.560629
-4.37365 1.61358 0.545653
-4.37975 1.61539 0.532671
-4.38086 1.61418 0.518695
-4.38191 1.61408 0.511703
-4.392 1.61691 0.499736
-4.39111 1.61469 0.48476
-4.39322 1.61448 0.470777
-4.39731 1.61529 0.457794
-4.39742 1.61409 0.443811
-4.38954 1.60984 0.427812
-4.39359 1.61076 0.421828
-4.39469 1.61055 0.407838
-4.40179 1.61236 0.394863
-4.4009 1.61014 0.379887
-4.403 1.60995 0.366904
-4.4101 1.61276 0.353914
-4.40821 1.61054 0.33893
-4.40927 1.61044 0.331939
-4.40937 1.60923 0.317955
-4.40649 1.60701 0.302965
-4.40958 1.60781 0.289974
-4.40969 1.60661 0.275991
-4.42678 1.61244 0.264032
-4.4139 1.6062 0.248025
-4.41595 1.60709 0.241026
-4.42505 1.60991 0.228051
-4.41217 1.60368 0.213044
-4.41927 1.60547 0.199069
-4.41538 1.60326 0.185071
-4.41448 1.60206 0.17108
-4.41459 1.60085 0.157097
-4.42263 1.60377 0.151113
-4.41875 1.60154 0.136115
-4.41785 1.60033 0.122124
-4.42295 1.60214 0.109134
-4.41906 1.59992 0.0941354
-4.41617 1.59771 0.0801444
-4.41328 1.5965 0.0661386
-4.41438 1.59629 0.052148
-4.41943 1.59719 0.0451718
-4.42553 1.59901 0.0321891
-4.42664 1.5988 0.0181986
-4.42974 1.59959 0.00420826
-4.43084 1.59939 -0.00978229
-4.42795 1.59818 -0.0237881
-4.42506 1.59597 -0.0377791
-4.4361 1.60089 -0.0437696
-4.42921 1.59766 -0.0587758
-4.43431 1.59847 -0.0717512
-4.43642 1.59927 -0.085749
-4.42952 1.59605 -0.0997553
-4.43263 1.59685 -0.113746
-4.43873 1.59865 -0.127728
-4.43279 1.59654 -0.134743
-4.43189 1.59533 -0.148733
-4.442 1.59913 -0.162716
-4.43111 1.59392 -0.176722
-4.43321 1.59471 -0.19072
-4.43731 1.59551 -0.204703
-4.42842 1.59229 -0.218724
-4.43347 1.59419 -0.225715
-4.43358 1.59398 -0.239713
-4.42469 1.58977 -0.25372
-4.43378 1.59358 -0.26671
3.24705 1.60237 2.60469
3.23711 1.60151 2.61378
3.23021 1.60371 2.6268
3.2233 1.60489 2.63884
3.21337 1.60403 2.64793
3.20345 1.60418 2.658
3.19553 1.60535 2.66904
3.19359 1.60747 2.67703
3.18467 1.60763 2.68709
3.18179 1.61087 2.70307
3.1648 1.60691 2.70526
3.15992 1.61013 2.72025
3.15503 1.61234 2.73425
3.14308 1.61146 2.74136
3.13208 1.60847 2.74149
3.13122 1.61273 2.75943
3.12531 1.61493 2.77245
3.11136 1.61303 2.77858
3.10848 1.61727 2.79454
3.08546 1.60924 2.79183
3.08258 1.61348 2.80779
3.08669 1.61868 2.82169
3.06366 1.61166 2.81896
3.06582 1.61896 2.83984
3.05691 1.61913 2.85091
3.04496 1.61825 2.85801
3.03604 1.61941 2.86906
3.0362 1.62571 2.88897
3.0272 1.62273 2.89009
3.02029 1.62491 2.90211
3.01137 1.62607 2.91216
2.99136 1.62007 2.9114
2.98647 1.62329 2.92639
2.97554 1.62344 2.93547
2.96561 1.62358 2.94454
2.96065 1.62365 2.94958
2.94483 1.62702 2.97365
2.93087 1.62411 2.9788
2.91 1.62439 2.99696
2.9041 1.62758 3.00996
2.89023 1.62885 3.02705
2.88333 1.63104 3.04007
2.86045 1.63028 3.05525
2.84059 1.63158 3.07439
2.83159 1.62858 3.0745
2.80585 1.63311 3.10863
-1.1112 1.6674 3.91074
-1.14019 1.67044 3.91192
-1.14525 1.66834 3.90498
-1.15826 1.66932 3.90307
-1.17032 1.66722 3.89619
-1.18433 1.6682 3.89428
-1.20029 1.67229 3.89934
-1.2104 1.66707 3.88449
-1.22442 1.66805 3.88258
-1.23142 1.66906 3.88262
-1.24542 1.67006 3.88171
-1.25746 1.66999 3.8768
-1.27245 1.67202 3.87788
-1.28548 1.67197 3.87398
-1.29558 1.66778 3.86112
-1.31059 1.66978 3.8602
-1.31563 1.66771 3.85527
-1.3267 1.66557 3.84538
-1.3456 1.67377 3.85841
-1.35278 1.66444 3.8356
-1.36677 1.66646 3.83667
-1.37786 1.66329 3.8248
-1.39578 1.66945 3.83485
-1.40083 1.66837 3.8289
-1.41582 1.67039 3.82998
-1.42591 1.66722 3.8181
-1.44188 1.67129 3.82216
-1.45296 1.66814 3.81129
-1.46892 1.67323 3.81634
-1.48195 1.67318 3.81244
-1.48897 1.67314 3.80949
-1.49807 1.66895 3.79662
-1.51405 1.67199 3.79869
-1.52512 1.66988 3.79081
-1.53914 1.67085 3.7879
-1.54628 1.66457 3.76904
-1.5652 1.67173 3.77908
-1.56633 1.6655 3.76318
-1.58426 1.67164 3.77222
-1.59632 1.66952 3.76335
-1.60347 1.66324 3.74449
-1.61944 1.66731 3.74855
-1.63444 1.66932 3.74863
-1.64353 1.66615 3.73675
-1.65348 1.67025 3.74276
-1.66456 1.66809 3.73188
-1.69456 1.67212 3.73204
-1.70366 1.66893 3.71916
-1.71964 1.67197 3.72123
-1.73169 1.67189 3.71532
-1.72987 1.66255 3.69245
-1.77486 1.67058 3.69267
-1.78888 1.67156 3.69076
-1.80203 1.66628 3.67093
-1.83204 1.67127 3.66908
-1.84507 1.67122 3.66518
-1.85909 1.67318 3.66226
-4.16608 1.63145 1.01789
-4.18253 1.62957 0.958034
-4.18663 1.62938 0.945066
-4.19472 1.63121 0.933098
-4.20408 1.62852 0.886202
-4.2002 1.62528 0.870218
-4.21638 1.62894 0.846283
-4.20451 1.62168 0.829298
-4.22357 1.62856 0.820339
-4.2127 1.6223 0.803347
-4.22374 1.62623 0.798372
-4.22584 1.62504 0.785403
-4.22894 1.62483 0.771428
-4.23204 1.62464 0.758452
-4.23514 1.62445 0.745477
-4.23525 1.62225 0.731508
-4.23835 1.62204 0.717533
-4.2364 1.62094 0.710533
-4.23751 1.61973 0.696558
-4.25358 1.62459 0.686605
-4.2507 1.62237 0.671614
-4.24282 1.61813 0.655616
-4.25191 1.61996 0.643655
-4.25601 1.62077 0.630672
-4.24907 1.61664 0.62268
-4.24618 1.61442 0.607689
-4.26525 1.62028 0.597745
-4.25538 1.61504 0.581746
-4.27146 1.61989 0.570794
-4.25159 1.61062 0.553779
-4.27666 1.61949 0.543835
-4.26273 1.61335 0.53482
-4.26384 1.61314 0.520829
-4.26694 1.61295 0.507854
-4.28202 1.6178 0.496894
-4.27014 1.61156 0.480895
-4.29421 1.62042 0.470943
-4.28932 1.6172 0.455952
-4.29537 1.61911 0.449968
-4.2745 1.60885 0.432961
-4.28759 1.61368 0.420986
-4.29169 1.61449 0.408003
-4.29378 1.6143 0.39502
-4.29289 1.61209 0.381044
-4.30698 1.61692 0.369077
-4.30009 1.6137 0.354071
-4.29416 1.61057 0.346071
-4.30324 1.6134 0.334096
-4.29636 1.60918 0.319105
-4.29946 1.60999 0.306115
-4.30955 1.6128 0.293147
-4.29467 1.60557 0.27814
-4.30876 1.6104 0.266173
-4.30482 1.60828 0.258174
-4.31491 1.61211 0.246191
-4.31901 1.6119 0.232223
-4.3331 1.61774 0.220241
-4.31822 1.6105 0.205234
-4.30733 1.60527 0.190228
-4.29545 1.59904 0.175228
-4.31648 1.60798 0.170254
-4.31259 1.60477 0.15627
-4.32168 1.60759 0.143295
-4.31878 1.60639 0.130289
-4.32089 1.60619 0.116306
-4.31999 1.60498 0.102315
-4.3171 1.60377 0.0883095
-4.31416 1.60167 0.0813175
-4.31026 1.59946 0.0673189
-4.31536 1.60027 0.0543435
-4.31447 1.59906 0.0403527
-4.30557 1.59585 0.0263314
-4.32766 1.60368 0.0143801
-4.32776 1.60348 0.000382026
-4.31982 1.59937 -0.00661797
-4.31493 1.59716 -0.0206241
-4.32502 1.60097 -0.0336063
-4.31313 1.59475 -0.0476058
-4.31523 1.59555 -0.0616036
-4.32933 1.60137 -0.0745853
-4.32044 1.59715 -0.0885919
-4.32248 1.59707 -0.094576
-4.32859 1.59986 -0.108573
-4.32369 1.59667 -0.121565
-4.33579 1.60147 -0.135547
-4.3249 1.59625 -0.149553
-4.32899 1.59806 -0.162551
-4.3331 1.59986 -0.176549
-4.3302 1.59766 -0.18954
-4.31725 1.59255 -0.196563
-4.33635 1.59936 -0.210521
-4.32645 1.59516 -0.223536
-4.34155 1.60196 -0.237524
-4.34065 1.60077 -0.250515
-4.34276 1.60156 -0.264513
3.14371 1.60278 2.56046
3.1458 1.60694 2.57138
3.13687 1.60709 2.58145
3.12896 1.60726 2.59251
3.11802 1.60639 2.6006
3.11514 1.61063 2.61656
3.11226 1.61386 2.63254
3.10333 1.614 2.64161
3.09333 1.61101 2.64173
3.08642 1.61319 2.65375
3.07749 1.61335 2.66381
3.06655 1.61248 2.67191
3.06569 1.61774 2.68984
3.05576 1.61788 2.69892
3.04281 1.61498 2.70506
3.04993 1.62221 2.7209
3.03597 1.62031 2.72703
3.02806 1.62148 2.73808
3.01611 1.61959 2.7452
3.00517 1.61872 2.75329
2.99121 1.6168 2.75843
2.99438 1.62514 2.78128
2.98638 1.62215 2.78139
2.98049 1.62536 2.79539
2.96754 1.62346 2.80151
2.9566 1.62258 2.80961
2.94666 1.62272 2.81868
2.93472 1.62184 2.82579
2.93285 1.62709 2.84273
2.86527 1.62597 2.89926
2.83843 1.6253 2.92047
2.76697 1.6294 2.99196
2.75401 1.6285 2.99807
2.73717 1.63082 3.01917
2.73121 1.6309 3.02421
2.72229 1.63206 3.03426
2.67658 1.63367 3.07359
-1.13714 1.6566 3.78808
-1.15501 1.66485 3.8041
-1.16802 1.66583 3.80218
-1.17308 1.66373 3.79525
-1.18512 1.66266 3.79035
-1.20011 1.66469 3.79144
-1.21216 1.6636 3.78454
-1.2242 1.66252 3.77865
-1.23332 1.6573 3.76379
-1.2483 1.66036 3.76686
-1.26019 1.66757 3.78084
-1.26345 1.65407 3.74706
-1.28135 1.66126 3.75909
-1.29242 1.65915 3.75121
-1.30643 1.66013 3.7493
-1.31651 1.65698 3.73842
-1.33149 1.66003 3.74149
-1.33752 1.65898 3.73755
-1.35347 1.66408 3.74359
-1.36063 1.65679 3.72375
-1.37659 1.66086 3.72781
-1.38472 1.65561 3.71095
-1.40362 1.66282 3.72399
-1.41174 1.65759 3.70812
-1.42071 1.66065 3.71215
-1.42884 1.65542 3.69628
-1.44578 1.66054 3.70334
-1.45685 1.6584 3.69345
-1.46986 1.65939 3.69253
-1.47995 1.65624 3.68165
-1.49787 1.66238 3.6907
-1.49901 1.65613 3.6738
-1.51594 1.66226 3.68184
-1.52898 1.6622 3.67693
-1.54005 1.66007 3.66805
-1.56089 1.67138 3.68804
-1.56411 1.65996 3.65923
-1.56721 1.65578 3.64731
-1.58219 1.65882 3.64938
-1.59915 1.66391 3.65444
-1.60628 1.65766 3.63758
-1.62519 1.66484 3.64862
-1.63528 1.66268 3.63772
-1.64831 1.66262 3.63282
-1.6563 1.66465 3.63485
-1.66244 1.65839 3.61699
-1.6794 1.66346 3.62104
-1.69439 1.6665 3.62311
-1.70741 1.66745 3.61919
-1.70964 1.65603 3.59038
-1.73151 1.66628 3.60639
-1.74453 1.66724 3.60347
-1.74663 1.66205 3.59056
-1.76359 1.66715 3.59662
-1.7867 1.66595 3.58181
-1.83083 1.66673 3.56513
-1.84581 1.67075 3.56618
-1.85786 1.67067 3.56027
-1.90702 1.67038 3.53864
-1.92018 1.66508 3.51782
-1.96024 1.66999 3.51005
-2.52384 1.66626 3.1673
-2.54497 1.66503 3.15047
-2.55306 1.66386 3.13855
-2.61635 1.66632 3.09999
-4.05163 1.63125 1.07704
-4.05578 1.63097 1.05807
-4.0519 1.62673 1.0421
-4.06796 1.63161 1.03315
-4.06907 1.6304 1.01918
-4.07615 1.63125 1.00821
-4.07437 1.62682 0.979263
-4.08839 1.63178 0.976294
-4.09459 1.6304 0.950358
-4.08782 1.62395 0.920398
-4.10388 1.62883 0.911446
-4.10599 1.62863 0.897463
-4.10305 1.6255 0.889486
-4.10814 1.62633 0.87751
-4.11523 1.62816 0.865535
-4.10636 1.6219 0.848558
-4.11744 1.62475 0.837598
-4.11056 1.62052 0.822607
-4.12264 1.62436 0.811639
-4.1177 1.62124 0.803647
-4.13477 1.62711 0.793688
-4.11891 1.61783 0.775703
-4.13498 1.62371 0.766736
-4.1291 1.61947 0.750752
-4.13419 1.62029 0.738777
-4.13729 1.6201 0.725801
-4.12836 1.61496 0.716809
-4.13845 1.61779 0.704841
-4.14154 1.6176 0.691865
-4.14464 1.61741 0.67889
-4.13876 1.61319 0.663906
-4.15782 1.62006 0.654947
-4.14994 1.61482 0.638963
-4.16396 1.62079 0.635979
-4.1511 1.61353 0.618988
-4.14521 1.6093 0.604004
-4.16228 1.61517 0.594044
-4.15939 1.61296 0.580053
-4.16449 1.61377 0.567078
-4.17458 1.6166 0.55511
-4.16968 1.61339 0.541119
-4.16774 1.61128 0.534135
-4.17483 1.61309 0.521159
-4.17094 1.60988 0.507176
-4.16905 1.60868 0.493177
-4.18313 1.61252 0.482225
-4.17823 1.60931 0.468234
-4.17834 1.6091 0.454236
-4.18538 1.61104 0.449259
-4.19347 1.61285 0.436292
-4.18259 1.60762 0.421285
-4.19068 1.60945 0.409317
-4.19078 1.60824 0.395334
-4.19787 1.61107 0.383344
-4.21495 1.61692 0.372384
-4.20002 1.60977 0.363377
-4.20312 1.61058 0.350386
-4.20922 1.61139 0.337418
-4.21631 1.61422 0.325428
-4.20043 1.60597 0.309428
-4.21851 1.61282 0.298462
-4.21362 1.60961 0.28447
-4.20668 1.60649 0.276463
-4.21377 1.60832 0.264488
-4.23085 1.61415 0.252529
-4.21897 1.60892 0.237515
-4.22806 1.61175 0.225539
-4.23016 1.61156 0.212556
-4.21927 1.60533 0.197564
-4.22532 1.60824 0.191566
-4.2394 1.61308 0.179599
-4.23551 1.61087 0.1656
-4.23361 1.60867 0.152617
-4.23272 1.60746 0.138626
-4.23082 1.60626 0.124628
-4.24491 1.61109 0.112661
-4.23197 1.60596 0.104638
-4.23906 1.60779 0.0926627
-4.23317 1.60458 0.0786639
-4.23627 1.60539 0.0656734
-4.22838 1.60116 0.0506746
-4.23647 1.60399 0.038692
-4.23758 1.60378 0.0247014
-4.22969 1.59957 0.0107024
-4.23873 1.60348 0.00471171
-4.22484 1.59727 -0.00930284
-4.23193 1.59908 -0.022278
-4.22503 1.59588 -0.0352845
-4.23513 1.5997 -0.0482667
-4.22824 1.59649 -0.062273
-4.23133 1.5973 -0.0752634
-4.23539 1.59819 -0.0822472
-4.23348 1.597 -0.0952456
-4.23858 1.59881 -0.108236
-4.23169 1.5956 -0.122242
-4.24478 1.60042 -0.135217
-4.24188 1.59922 -0.148223
-4.23299 1.59501 -0.162229
-4.24403 1.59993 -0.16822
-4.24413 1.59973 -0.181218
-4.24723 1.59953 -0.195193
-4.23434 1.59433 -0.208215
-4.25243 1.60215 -0.221196
-4.23654 1.59493 -0.235211
-4.24064 1.59574 -0.248194
-4.25168 1.60066 -0.254185
-4.23679 1.59444 -0.268207
3.07729 1.602 2.50496
3.07642 1.60725 2.52189
3.06447 1.60536 2.52901
3.05152 1.60346 2.53514
3.04561 1.60464 2.54717
3.04165 1.60472 2.5522
3.01789 1.60821 2.58433
3.00291 1.60426 2.5875
2.996 1.60545 2.59954
2.99716 1.61174 2.61944
2.98211 1.60566 2.61364
2.98426 1.61196 2.63353
2.96324 1.60493 2.6308
2.96238 1.61121 2.64971
2.94841 1.60828 2.65386
2.93746 1.60739 2.66096
2.93056 1.60958 2.67298
2.92963 1.61171 2.68195
2.91767 1.60981 2.68807
2.91277 1.613 2.70107
2.90082 1.61111 2.70818
2.8929 1.61227 2.71823
2.87793 1.60934 2.72238
2.87101 1.61051 2.73342
2.8721 1.61468 2.74535
2.85409 1.60968 2.74456
2.8492 1.61289 2.75855
2.84835 1.61817 2.77748
2.83236 1.61422 2.77966
2.82948 1.61844 2.79463
2.81349 1.61448 2.7968
2.81055 1.6166 2.8048
2.7996 1.61571 2.81189
2.79874 1.62198 2.82981
2.7878 1.62111 2.83791
2.78795 1.62739 2.85681
2.76591 1.61933 2.8521
2.76902 1.62553 2.86599
2.76009 1.62669 2.87604
2.74814 1.62479 2.88216
2.73921 1.62594 2.89221
2.70639 1.62431 2.91548
2.70848 1.62948 2.92739
2.69451 1.62755 2.93153
2.64887 1.63129 2.97982
2.62102 1.6306 2.99904
2.60905 1.62868 3.00416
2.59913 1.62983 3.01422
2.58919 1.62996 3.0223
2.57833 1.63323 3.04033
2.56537 1.63232 3.04544
-1.29898 1.66903 3.6751
-1.30907 1.66587 3.66422
-1.32209 1.66684 3.66131
-1.32812 1.66578 3.65737
-1.34926 1.66053 3.6396
-1.36521 1.66563 3.64565
-1.37726 1.66454 3.63875
-1.38831 1.66244 3.63187
-1.40231 1.66545 3.63193
-1.41127 1.66853 3.63695
-1.41841 1.66227 3.61909
-1.43535 1.66739 3.62615
-1.44347 1.66217 3.61128
-1.45746 1.6652 3.61234
-1.47343 1.66927 3.6164
-1.48252 1.6661 3.60452
-1.50255 1.66705 3.60065
-1.51459 1.66597 3.59476
-1.53671 1.66377 3.57996
-1.54973 1.66473 3.57704
-1.55784 1.66053 3.56316
-1.56876 1.66569 3.57317
-1.5759 1.65941 3.55431
-1.59384 1.66554 3.56236
-1.59998 1.65928 3.54449
-1.61594 1.66436 3.54954
-1.62405 1.65915 3.53468
-1.64395 1.66835 3.54769
-1.64311 1.66006 3.52781
-1.65809 1.6631 3.52987
-1.67922 1.65985 3.51208
-1.69322 1.66186 3.51215
-1.71017 1.66796 3.51819
-1.72221 1.66789 3.51328
-1.72331 1.6627 3.50037
-1.74445 1.65945 3.48257
-1.76238 1.66558 3.49062
-1.78843 1.66851 3.48477
-1.79555 1.66328 3.4689
-1.81656 1.66627 3.46701
-1.85465 1.66812 3.45527
-1.8667 1.66804 3.44936
-1.8818 1.66584 3.43551
-1.89581 1.66783 3.43458
-1.98414 1.66823 3.39024
-2.39808 1.6637 3.13439
-2.45335 1.66521 3.09877
-2.46244 1.66305 3.08787
-2.50161 1.66472 3.06414
-3.98131 1.63088 0.987502
-4.00492 1.62868 0.905702
-4.01836 1.62684 0.847822
-4.01657 1.62243 0.82087
-4.03374 1.62611 0.797942
-4.0308 1.62399 0.78995
-4.03389 1.62381 0.777974
-4.03899 1.62462 0.764999
-4.04208 1.62445 0.753023
-4.04218 1.62224 0.739055
-4.05426 1.6261 0.729087
-4.05735 1.62591 0.716112
-4.05142 1.62279 0.708112
-4.05861 1.62241 0.682168
-4.0647 1.62423 0.670185
-4.06391 1.61983 0.643241
-4.07425 1.61917 0.598322
-4.07943 1.61881 0.573363
-4.08253 1.61862 0.560388
-4.08068 1.61632 0.540405
-4.07779 1.61411 0.526414
-4.09985 1.62199 0.517462
-4.08798 1.61575 0.501463
-4.10006 1.61959 0.490496
-4.09627 1.61518 0.462529
-4.10335 1.61702 0.451553
-4.1035 1.61572 0.431571
-4.11159 1.61755 0.419603
-4.10281 1.61213 0.391613
-4.1089 1.61294 0.378645
-4.111 1.61275 0.365662
-4.11904 1.61568 0.360679
-4.11714 1.61449 0.34768
-4.12333 1.61511 0.321714
-4.10845 1.60788 0.306707
-4.13452 1.61775 0.296756
-4.12363 1.61152 0.281764
-4.12069 1.61041 0.274757
-4.13677 1.61626 0.26379
-4.12588 1.61004 0.249798
-4.12398 1.60884 0.2358
-4.13906 1.61368 0.22484
-4.13617 1.61247 0.210834
-4.12029 1.60424 0.195835
-4.13532 1.61018 0.190859
-4.13642 1.60999 0.177869
-4.13252 1.60779 0.16487
-4.1486 1.61362 0.152903
-4.14171 1.60941 0.138912
-4.1448 1.61024 0.126921
-4.12796 1.60191 0.105914
-4.14205 1.60775 0.0939326
-4.14225 1.60635 0.0669511
-4.14534 1.60717 0.0549605
-4.15544 1.61099 0.0419783
-4.14954 1.60679 0.0289942
-4.14365 1.60358 0.0149954
-4.14479 1.6033 -0.00399444
-4.1399 1.60109 -0.0180005
-4.15798 1.60792 -0.0299671
-4.1311 1.5957 -0.0439906
-4.14119 1.59951 -0.0569728
-4.15228 1.60434 -0.0689624
-4.13434 1.59621 -0.0769783
-4.12944 1.59401 -0.0899845
-4.15953 1.60586 -0.101935
-4.13264 1.59363 -0.115958
-4.13174 1.59344 -0.128964
-4.13783 1.59525 -0.141947
-4.13793 1.59506 -0.154945
-4.13298 1.59297 -0.160952
-4.15007 1.59978 -0.173926
-4.15017 1.59959 -0.186924
-4.14127 1.59539 -0.199931
-4.15037 1.59921 -0.212921
-4.15846 1.60202 -0.225903
-4.13657 1.59181 -0.238919
-4.13862 1.59271 -0.245918
-4.15171 1.59853 -0.258907
3.07022 1.5969 2.36307
3.02764 1.59976 2.41936
3.00481 1.6001 2.44153
2.99112 1.6077 2.48152
2.93342 1.60235 2.52304
2.90361 1.60174 2.54828
2.90382 1.61014 2.57516
2.90094 1.61437 2.59012
2.88899 1.61248 2.59724
2.87502 1.60955 2.60139
2.87213 1.61377 2.61635
2.85413 1.60779 2.61657
2.84527 1.61106 2.63459
2.83029 1.60712 2.63777
2.81833 1.60621 2.64387
2.81344 1.60942 2.65786
2.80349 1.60853 2.66495
2.79154 1.60763 2.67105
2.79767 1.61488 2.6879
2.78571 1.61298 2.69402
2.77073 1.60902 2.69619
2.77794 1.62043 2.72397
2.75892 1.6144 2.72121
2.74293 1.61044 2.72339
2.74106 1.61569 2.74032
2.74114 1.61884 2.75028
2.72312 1.61282 2.7485
2.71722 1.61602 2.7615
2.7093 1.61717 2.77155
2.69835 1.61628 2.77864
2.69548 1.62154 2.79559
2.69059 1.62475 2.80958
2.68461 1.6238 2.81264
2.67467 1.62392 2.82071
2.66575 1.62508 2.83077
2.63593 1.62545 2.85499
2.63306 1.62971 2.87195
2.62708 1.62976 2.87499
2.60014 1.62489 2.88327
2.59726 1.63013 2.89922
2.5853 1.62822 2.90434
-1.71235 1.65967 3.36331
3.07397 1.60344 2.19692
3.06504 1.60358 2.20599
3.05813 1.60374 2.21704
3.0602 1.60788 2.22597
3.0422 1.6019 2.22719
3.02924 1.59899 2.23233
3.0344 1.60729 2.25317
3.01842 1.60235 2.25637
3.02056 1.60862 2.27426
3.01163 1.60876 2.28333
2.99859 1.60271 2.27951
2.99672 1.60694 2.29547
2.99482 1.61015 2.30944
2.98085 1.60722 2.31358
2.9679 1.60532 2.31971
2.97205 1.61261 2.33957
2.95701 1.60555 2.33479
2.95613 1.61077 2.34972
2.95123 1.61297 2.36273
2.93625 1.60902 2.3659
2.93034 1.61121 2.37792
2.91737 1.60728 2.38207
2.91146 1.60946 2.39409
2.90649 1.60952 2.39812
2.90158 1.6117 2.41013
2.88962 1.6098 2.41625
2.88775 1.61404 2.4322
2.87982 1.61418 2.44126
2.86282 1.6092 2.44246
2.85389 1.60934 2.45153
2.85697 1.6135 2.46245
2.84099 1.60955 2.46462
2.83911 1.61378 2.48058
2.8342 1.61696 2.49257
2.82829 1.61815 2.5046
2.81533 1.61623 2.50973
2.81042 1.61841 2.52173
2.80848 1.62052 2.52872
2.78845 1.61349 2.52597
2.79363 1.62182 2.54881
2.78167 1.62092 2.55492
2.73607 1.62372 2.60722
3.02838 1.6083 2.11818
3.02241 1.60735 2.12124
2.98578 1.6091 2.1705
2.94716 1.6109 2.08775
2.93531 1.61222 2.10883
3.18794 -0.388043 2.25155
3.18417 -0.387596 2.28158
3.18272 -0.388499 2.35561
3.18499 -0.388968 2.39161
3.18211 -0.388743 2.40663
3.17626 -0.388443 2.42667
3.18444 -0.389079 2.45162
3.18156 -0.388854 2.46664
3.17766 -0.388644 2.48067
3.18254 -0.363508 0.734019
3.17974 -0.364106 0.761052
3.17598 -0.363644 0.792078
3.19186 -0.362939 1.04298
3.17557 -0.36158 1.26912
3.17522 -0.361291 1.35613
3.17881 -0.361139 1.43411
3.19161 -0.360609 1.67304
3.18774 -0.361339 1.69108
3.18986 -0.361104 1.70706
3.19107 -0.36069 1.73505
3.19149 -0.360861 1.79106
3.18495 -0.360953 1.85212
3.18366 -0.36056 1.94613
3.19092 -0.361062 1.98009
3.17926 -0.360387 2.02518
3.18652 -0.360874 2.06013
3.18557 -0.360769 2.06714
3.18681 -0.361296 2.09914
3.18793 -0.36106 2.11513
3.18717 -0.361601 2.14615
3.18929 -0.36135 2.16313
3.18545 -0.361037 2.18416
3.17753 -0.360883 2.19422
3.18066 -0.361618 2.21221
3.1828 -0.361353 2.23019
3.18593 -0.361089 2.24817
3.17499 -0.360963 2.25625
3.18814 -0.361691 2.27516
3.18323 -0.36151 2.2872
3.18335 -0.361273 2.3032
3.18248 -0.36102 2.3202
3.17757 -0.361839 2.33225
3.17669 -0.361601 2.34826
3.17782 -0.361336 2.36625
3.1819 -0.361176 2.37722
3.17298 -0.361021 2.38728
3.18317 -0.361643 2.41322
3.17626 -0.361476 2.42427
3.17538 -0.361238 2.44027
3.17651 -0.361972 2.45828
3.1706 -0.36179 2.47032
3.17369 -0.361615 2.4823
3.18871 -0.341597 2.34887
3.18452 -0.341995 2.45692
3.19439 -0.322862 0.710325
3.19436 -0.320966 0.838314
3.19499 -0.320708 0.923317
3.1953 -0.320116 0.963312
3.19262 -0.317553 1.27134
3.19295 -0.316902 1.31533
3.19396 -0.315918 1.44933
3.18502 -0.315793 1.45739
3.19314 -0.315547 1.47433
3.19219 -0.315458 1.48034
3.19429 -0.315252 1.49432
3.19158 -0.315687 1.53235
3.18867 -0.315507 1.54437
3.19178 -0.315287 1.55935
3.19043 -0.314013 1.64535
3.1935 -0.313882 1.65433
3.19159 -0.314703 1.66636
3.19069 -0.31451 1.67936
3.1908 -0.314287 1.69436
3.19191 -0.314081 1.70835
3.19201 -0.313874 1.72235
3.18915 -0.31359 1.74137
3.19128 -0.313355 1.75735
3.18233 -0.313245 1.76442
3.18244 -0.313023 1.77942
3.17953 -0.312843 1.79144
3.18466 -0.313595 1.80841
3.19175 -0.313422 1.82036
3.18482 -0.313269 1.83041
3.18694 -0.313049 1.84539
3.18605 -0.312826 1.8604
3.18013 -0.312673 1.87044
3.18828 -0.312383 1.89038
3.18637 -0.312189 1.90339
3.18643 -0.312086 1.91039
3.18554 -0.312863 1.92541
3.18766 -0.312627 1.94139
3.18375 -0.312447 1.95342
3.18789 -0.312183 1.97139
3.18398 -0.312003 1.98342
3.18007 -0.311822 1.99545
3.18616 -0.311649 2.0074
3.18426 -0.31144 2.02141
3.18035 -0.31126 2.03344
3.17846 -0.312051 2.04747
3.18159 -0.311787 2.06544
3.17969 -0.311593 2.07846
3.17881 -0.31137 2.09346
3.18088 -0.311224 2.10345
3.17697 -0.311043 2.11547
3.1791 -0.310793 2.13246
3.18425 -0.3115 2.15243
3.17532 -0.31136 2.1615
3.17455 -0.310901 2.1925
3.17863 -0.310741 2.20347
3.17473 -0.310546 2.2165
3.17787 -0.310267 2.23547
3.17498 -0.310057 2.24949
3.17208 -0.310862 2.26253
3.1722 -0.310626 2.27853
3.17333 -0.31036 2.29652
3.17541 -0.310213 2.3065
3.17264 -0.309752 2.33752
3.17276 -0.309515 2.35352
3.17189 -0.310263 2.37054
3.17503 -0.309984 2.38951
3.17623 -0.3096 2.4155
3.18424 -0.305167 0.689136
3.18069 -0.304291 0.748158
3.19428 -0.303146 0.82605
3.18237 -0.30296 0.838138
3.19348 -0.303745 0.853068
3.19566 -0.303392 0.87705
3.19182 -0.303078 0.898077
3.19191 -0.3029 0.910075
3.19413 -0.302472 0.939056
3.18838 -0.30198 0.972097
3.18645 -0.30183 0.982111
3.19553 -0.301689 0.992041
3.18759 -0.301564 1.0001
3.19269 -0.301361 1.01406
3.18074 -0.301248 1.02115
3.18393 -0.300881 1.04612
3.18202 -0.300716 1.05714
3.17914 -0.300477 1.07316
3.18023 -0.300286 1.08615
3.18953 -0.300715 1.12509
3.18264 -0.300488 1.14014
3.17781 -0.300158 1.16218
3.18392 -0.299941 1.17713
3.181 -0.299776 1.18815
3.17918 -0.299434 1.21116
3.18424 -0.299304 1.22012
3.18543 -0.298935 1.24511
3.18251 -0.29877 1.25613
3.19073 -0.298346 1.28507
3.18882 -0.298167 1.29708
3.17782 -0.298159 1.29716
3.19297 -0.297874 1.31705
3.17902 -0.297775 1.32315
3.17921 -0.297405 1.34815
3.18634 -0.298158 1.36511
3.18748 -0.297878 1.3841
3.19159 -0.297659 1.39907
3.17864 -0.29756 1.40516
3.18376 -0.297327 1.42112
3.19088 -0.297081 1.43807
3.18395 -0.296942 1.44712
3.18204 -0.296763 1.45913
3.19012 -0.296621 1.46907
3.18429 -0.296276 1.49212
3.18037 -0.296111 1.50314
3.19162 -0.29563 1.53606
3.18068 -0.295518 1.54314
3.17972 -0.295429 1.54914
3.18083 -0.295222 1.56314
3.17801 -0.29585 1.58817
3.18717 -0.295561 1.6081
3.18124 -0.295408 1.61814
3.17532 -0.295256 1.62819
3.17758 -0.294739 1.66317
3.1788 -0.294311 1.69215
3.17705 -0.293821 1.72517
3.18017 -0.293571 1.74214
3.17927 -0.293378 1.75515
3.17436 -0.293212 1.76618
3.17897 -0.293015 1.84716
3.17718 -0.292599 1.87517
3.17619 -0.291614 2.00918
3.19018 -0.281322 0.678737
3.18722 -0.281246 0.683759
3.18229 -0.281109 0.692795
3.18839 -0.280921 0.705748
3.19548 -0.280734 0.718694
3.18254 -0.280621 0.725791
3.18664 -0.280431 0.738759
3.18972 -0.280271 0.749735
3.18576 -0.280194 0.754764
3.18082 -0.280057 0.763801
3.19494 -0.27983 0.779693
3.19102 -0.279679 0.789722
3.19127 -0.279191 0.822717
3.18538 -0.278964 0.83776
3.18956 -0.278612 0.861727
3.19165 -0.279436 0.873725
3.18873 -0.279286 0.883746
3.18485 -0.279046 0.899774
3.17892 -0.278908 0.908818
3.17909 -0.278568 0.931815
3.18118 -0.278392 0.943798
3.18126 -0.278229 0.954797
3.18637 -0.278025 0.968757
3.17839 -0.277975 0.971817
3.18083 -0.277103 1.03079
3.17813 -0.276524 1.06981
3.17949 -0.275814 1.1178
3.18054 -0.275726 1.12379
3.17789 -0.275028 1.1708
3.18309 -0.274647 1.19676
3.17721 -0.274405 1.21281
3.17767 -0.273502 1.2738
3.18373 -0.273374 1.28275
3.17781 -0.273221 1.2928
3.1821 -0.272647 1.33176
3.18129 -0.272276 1.35676
3.17842 -0.272022 1.37378
3.17852 -0.27183 1.38678
3.17862 -0.271637 1.39978
3.18072 -0.271432 1.41376
3.18005 -0.270779 1.45776
3.19019 -0.270506 1.47669
3.17934 -0.270216 1.49577
3.17844 -0.270023 1.50877
3.17653 -0.269844 1.52079
3.17668 -0.269548 1.54078
3.1829 -0.269108 1.57073
3.182 -0.268915 1.58374
3.18009 -0.268736 1.59575
3.17784 -0.268253 1.69578
3.17711 -0.267735 1.73078
3.18145 -0.267071 1.77574
3.1807 -0.266567 1.80975
3.17561 -0.264787 1.92977
3.18226 -0.263503 2.01672
3.17787 -0.262316 2.09674
3.18828 -0.244177 0.688203
3.18335 -0.24404 0.697239
3.18038 -0.243979 0.701261
3.18648 -0.243791 0.714214
3.19158 -0.243602 0.727175
3.18664 -0.243465 0.736211
3.18581 -0.243139 0.758216
3.18301 -0.242737 0.785235
3.1851 -0.241561 0.797203
3.18143 -0.240921 0.840227
3.18373 -0.240331 0.880207
3.18089 -0.240018 0.901226
3.18002 -0.23975 0.919231
3.1822 -0.239411 0.942213
3.18228 -0.239249 0.953212
3.18045 -0.238907 0.976224
3.17993 -0.237973 1.03922
3.1791 -0.237632 1.06223
3.18133 -0.237175 1.09321
3.18251 -0.23682 1.1172
3.18173 -0.23639 1.1462
3.17982 -0.235226 1.1572
3.1801 -0.234678 1.19419
3.18028 -0.234323 1.21819
3.18041 -0.234057 1.23619
3.18361 -0.233674 1.26216
3.18973 -0.233442 1.27811
3.18188 -0.23314 1.29817
3.18595 -0.233009 1.30714
3.18102 -0.232858 1.31718
3.18441 -0.23209 1.36915
3.18053 -0.23185 1.38517
3.18063 -0.231658 1.39817
3.18073 -0.231466 1.41117
3.18384 -0.23126 1.42515
3.18393 -0.230068 1.43813
3.18218 -0.229593 1.47014
3.17926 -0.229428 1.48116
3.18147 -0.229015 1.50914
3.18372 -0.228528 1.54212
3.1789 -0.228169 1.56616
3.18503 -0.227922 1.58311
3.18131 -0.227356 1.62113
3.17712 -0.224769 1.72814
3.20036 -0.223055 0.6968
3.19143 -0.222915 0.705867
3.19552 -0.22274 0.717835
3.19773 -0.221327 0.745801
3.19782 -0.22115 0.7578
3.19214 -0.220524 0.799839
3.19061 -0.219605 0.861846
3.19069 -0.219442 0.872844
3.19784 -0.219151 0.892789
3.19509 -0.21866 0.925807
3.19618 -0.218483 0.937797
3.19635 -0.218143 0.960794
3.19038 -0.218079 0.964839
3.1995 -0.216864 0.979754
3.19156 -0.21674 0.987813
3.18964 -0.216575 0.998827
3.19283 -0.216207 1.0238
3.19091 -0.216043 1.03481
3.19004 -0.215791 1.05182
3.18921 -0.215449 1.07482
3.19592 -0.213063 1.16875
3.192 -0.212912 1.17878
3.18205 -0.212801 1.18585
3.19715 -0.212604 1.19974
3.1883 -0.212302 1.2198
3.19442 -0.212084 1.23476
3.19058 -0.211756 1.25678
3.1947 -0.211536 1.27175
3.18389 -0.211144 1.29783
3.19312 -0.209706 1.32774
3.19527 -0.209412 1.34773
3.19536 -0.209234 1.35972
3.19144 -0.209068 1.37075
3.19164 -0.208683 1.39675
3.19676 -0.20845 1.41271
3.19791 -0.208155 1.4327
3.19399 -0.207989 1.44373
3.19408 -0.207811 1.45573
3.18515 -0.207672 1.46479
3.19227 -0.20644 1.48072
3.1984 -0.206193 1.49768
3.18142 -0.206136 1.5008
3.18052 -0.205943 1.51381
3.19072 -0.205565 1.53973
3.19282 -0.205359 1.55371
3.1869 -0.205207 1.56376
3.18902 -0.204972 1.57974
3.19213 -0.204752 1.59472
3.18821 -0.204586 1.60574
3.18827 -0.204482 1.61274
3.18133 -0.204344 1.62179
3.19249 -0.203056 1.64169
3.19158 -0.202863 1.6547
3.18164 -0.202737 1.66277
3.19582 -0.202407 1.68567
3.18693 -0.202178 1.70073
3.19608 -0.201889 1.72066
3.18815 -0.20175 1.72972
3.1782 -0.201639 1.73679
3.17831 -0.201417 1.75179
3.18344 -0.201169 1.76875
3.18853 -0.20001 1.7797
3.18361 -0.199843 1.79073
3.18282 -0.199428 1.81874
3.18092 -0.199234 1.83175
3.17913 -0.198818 1.85976
3.1822 -0.198687 1.86874
3.1794 -0.198286 1.89576
3.18656 -0.19698 1.91669
3.18997 -0.196183 1.97066
3.18025 -0.195613 2.00873
3.18552 -0.194099 2.04367
3.1796 -0.193931 2.05471
3.18267 -0.193786 2.06469
3.17977 -0.193591 2.07771
3.17889 -0.193368 2.09272
3.18604 -0.193062 2.11366
3.18817 -0.192812 2.13064
3.17841 -0.191331 2.1627
3.1769 -0.190383 2.2267
3.18205 -0.19009 2.24666
3.17815 -0.185911 2.39365
3.19122 -0.174651 1.7363
3.19169 -0.172719 1.79927
3.1971 -0.171923 1.85323
3.18817 -0.171784 1.86229
3.19642 -0.170286 1.89621
3.19766 -0.169828 1.9272
3.19375 -0.169647 1.93923
3.19503 -0.168101 1.9762
3.18912 -0.167919 1.98825
3.19526 -0.167642 2.0072
3.19739 -0.166392 2.02417
3.18946 -0.167253 2.03324
3.19768 -0.165829 2.06216
3.19477 -0.165635 2.07518
3.19589 -0.165398 2.09117
3.19211 -0.163966 2.12018
3.19223 -0.16373 2.13618
3.18424 -0.163709 2.13724
3.19542 -0.163362 2.16116
3.1846 -0.162998 2.18524
3.19478 -0.161665 2.20814
3.18887 -0.161483 2.22019
3.18497 -0.161288 2.23321
3.19609 -0.161059 2.24913
3.18918 -0.160876 2.26118
3.19031 -0.159626 2.27816
3.18439 -0.159458 2.2892
3.19357 -0.15911 2.31313
3.19571 -0.15883 2.33211
3.19081 -0.157634 2.34513
3.1959 -0.15746 2.35709
3.19704 -0.157194 2.37508
3.19314 -0.156984 2.38911
3.19038 -0.155523 2.42011
3.18547 -0.155327 2.43315
3.19573 -0.154831 2.46707
3.17876 -0.15476 2.4712
3.18593 -0.154424 2.49414
3.19554 -0.164943 1.37907
3.19637 -0.154376 1.75496
3.19519 -0.146807 1.99589
3.19784 -0.144535 2.08185
3.19495 -0.144326 2.09587
3.1943 -0.14263 2.14285
3.19549 -0.14226 2.16784
3.18353 -0.142163 2.17393
3.19573 -0.140787 2.19982
3.18881 -0.140634 2.20988
3.18994 -0.140368 2.22787
3.19509 -0.140076 2.24783
