2.56894 -0.435287 17.9304
2.47383 -0.43753 18.3152
2.43396 -0.43928 18.4655
2.39202 -0.440176 18.6059
2.34913 -0.440952 18.7542
2.30518 -0.441847 18.8946
2.2623 -0.442624 19.0429
2.21743 -0.44337 19.1933
1.04614 -0.474121 23.4162
0.9798 -0.475814 23.6367
0.913457 -0.477507 23.8573
3.47177 -0.298646 14.7011
3.43604 -0.298132 14.8694
3.40878 -0.297646 14.9686
3.3764 -0.297408 15.0508
3.34815 -0.297921 15.1501
3.31152 -0.297184 15.3334
3.28026 -0.29771 15.4316
3.25208 -0.29709 15.5398
3.22083 -0.297587 15.6401
2.41137 -0.295657 18.5056
2.36947 -0.295464 18.6519
2.32757 -0.295271 18.7982
2.2002 -0.295026 19.2823
1.55914 -0.294267 21.5354
1.12098 -0.294667 23.1109
1.02675 -0.294149 23.4797
0.961439 -0.294784 23.7042
0.895352 -0.294974 23.9587
3.40311 -0.217103 15.0044
3.27361 -0.215122 15.4705
3.24443 -0.214501 15.5787
3.20697 -0.213408 15.651
2.77646 -0.205511 17.1793
2.76419 -0.205065 17.2764
2.72612 -0.204216 17.3997
2.687 -0.203455 17.517
2.6479 -0.202664 17.6363
2.51471 -0.200089 18.1423
2.47372 -0.199075 18.2766
2.43275 -0.199016 18.414
2.39082 -0.197882 18.5563
2.34895 -0.19763 18.7066
2.15537 -0.193827 19.4281
1.74342 -0.185817 20.8973
1.50209 -0.181535 21.7842
1.0501 -0.172615 23.3807
0.984754 -0.17231 23.6012
0.918563 -0.170708 23.8417
3.47138 -0.110689 14.7643
3.441 -0.110452 14.8466
3.4148 -0.108863 14.9527
3.3521 -0.106271 15.1252
3.34263 -0.106212 15.1963
3.28207 -0.10334 15.3877
3.22163 -0.101245 15.5942
2.70847 -0.0786839 17.434
2.45712 -0.0684399 18.3178
2.41825 -0.0661904 18.4681
2.37631 -0.0650866 18.6084
2.33336 -0.0629822 18.7487
2.24767 -0.0593885 19.0554
2.20919 -0.057384 19.2567
0.908141 -0.00178539 23.9023
3.34962 -0.0313442 15.1871
2.78566 0.00159317 17.1852
2.7465 0.00326537 17.2964
2.65502 0.00929255 17.6321
2.616 0.011246 17.7624
2.537 0.0152128 18.0269
2.43988 0.0219549 18.4106
2.40008 0.0243235 18.5689
2.35499 0.0261481 18.6902
2.31314 0.0284294 18.8426
2.22645 0.0340385 19.1502
1.69665 0.0652925 21.036
1.05799 0.102801 23.3395
0.992655 0.106121 23.561
0.92639 0.110575 23.7915
0.858004 0.113793 24.006
3.4723 0.0599218 14.7368
3.44091 0.0611441 14.818
3.41364 0.0635854 14.9142
3.2861 0.0734748 15.3741
3.2569 0.0760656 15.4803
1.78858 0.193991 20.7483
1.73361 0.197059 20.8857
1.5193 0.214365 21.6402
1.49542 0.217589 21.7893
1.10982 0.249274 23.1699
1.0453 0.254223 23.3664
0.980013 0.258632 23.5938
0.913643 0.263878 23.8103
3.44296 0.156117 14.8156
3.41054 0.158281 14.8928
3.25594 0.175011 15.4758
3.22263 0.177398 15.568
1.77486 0.325371 20.7725
1.71995 0.329558 20.9178
1.02275 0.400934 23.4124
0.957564 0.407535 23.6528
3.46933 0.261709 14.7208
3.44204 0.265136 14.816
3.37605 0.274122 15.0824
3.34575 0.276506 15.1746
3.31548 0.279965 15.2718
3.28727 0.283525 15.376
3.25393 0.286852 15.4642
2.78571 0.345245 17.1591
2.74752 0.348857 17.2663
2.57902 0.369804 17.8634
2.54216 0.375051 18.0136
2.50112 0.379961 18.1408
2.4601 0.383916 18.2711
2.42022 0.389136 18.4193
2.32129 0.403234 18.8269
2.27842 0.409486 18.9772
2.23244 0.413519 19.1125
2.1897 0.420007 19.2787
2.14488 0.425365 19.436
1.83722 0.463919 20.5409
1.78654 0.470547 20.7162
1.73379 0.476043 20.8826
1.55006 0.500497 21.5807
1.49331 0.506996 21.747
1.04433 0.563864 23.3398
0.978942 0.57108 23.5542
2.74889 0.441453 17.3059
2.70767 0.446008 17.4092
2.67275 0.452165 17.5534
2.57941 0.46543 17.9049
2.49839 0.476382 18.1684
2.45747 0.481515 18.3107
2.41444 0.487441 18.4389
2.37358 0.492721 18.5912
2.22789 0.516266 19.162
2.17977 0.521018 19.2783
1.7749 0.580121 20.7537
1.02494 0.687931 23.4101
3.45688 0.434573 14.7774
3.42651 0.438839 14.8615
3.35952 0.449811 15.1269
3.30101 0.458785 15.3253
3.26974 0.463229 15.4214
3.24159 0.467908 15.5336
3.19575 0.475221 15.6879
2.76733 0.544199 17.2213
2.72919 0.548929 17.3365
2.69216 0.554836 17.4637
2.65202 0.560553 17.5779
2.56181 0.577097 17.9484
2.52184 0.583124 18.0837
2.48292 0.589285 18.2279
2.4388 0.595034 18.3441
2.4 0.602401 18.5024
2.35699 0.608387 18.6346
2.31411 0.614609 18.7829
2.29801 0.620383 18.9019
2.25619 0.627723 19.0581
2.20915 0.633637 19.1854
1.75936 0.707859 20.8019
1.68144 0.721002 21.0784
1.46207 0.755176 21.8236
1.01146 0.831769 23.4651
3.2085 0.579578 15.6442
3.1908 0.582183 15.6843
2.77381 0.656042 17.1426
2.72557 0.668511 17.3748
2.68755 0.675448 17.504
2.64634 0.680033 17.6092
2.60941 0.688162 17.7514
2.56833 0.693983 17.8726
2.47533 0.714928 18.2701
2.43335 0.721942 18.4043
2.39141 0.729045 18.5445
2.34845 0.73612 18.6828
2.30448 0.743165 18.819
2.26164 0.751476 18.9733
2.24347 0.757103 19.0823
2.19969 0.765518 19.2435
2.15379 0.772713 19.3898
2.10695 0.781012 19.5431
2.05907 0.788238 19.6913
2.01339 0.797862 19.8666
1.79559 0.840145 20.6867
1.74399 0.850936 20.8729
1.68914 0.858211 21.0243
1.38545 0.916702 22.1248
1.32696 0.92669 22.3242
1.0495 0.979652 23.3226
0.985269 0.992163 23.5569
0.917933 1.00347 23.7773
3.17261 0.684651 15.7819
2.99626 0.718869 16.3968
2.96208 0.725508 16.506
2.80933 0.756938 17.0688
2.77324 0.763726 17.188
2.73618 0.771604 17.3132
2.56877 0.805711 17.921
2.52876 0.813665 18.0512
2.30487 0.859774 18.8593
2.26199 0.867996 19.0075
2.01473 0.920366 19.8997
1.96701 0.929902 20.069
3.33194 0.740288 15.1558
3.16833 0.775978 15.7356
3.12574 0.786777 15.9228
3.08943 0.793136 16.013
3.06246 0.801184 16.1501
3.02514 0.806543 16.2403
2.99201 0.814269 16.3555
2.91141 0.834006 16.6718
2.87735 0.841881 16.797
2.84121 0.84858 16.9102
2.80516 0.856457 17.0353
2.73203 0.871181 17.2837
2.71772 0.877538 17.3747
2.68282 0.88671 17.5199
2.64058 0.893236 17.6211
2.60155 0.901159 17.7493
2.52468 0.918375 18.0307
2.42655 0.942056 18.4101
2.38566 0.951247 18.5563
2.34164 0.960204 18.6865
2.29984 0.969573 18.8447
2.20999 0.987857 19.1302
2.10127 1.01535 19.5636
2.05454 1.02585 19.7309
2.00562 1.035 19.8741
1.95899 1.04672 20.0553
1.90812 1.05596 20.2046
1.73516 1.09894 20.8713
1.68368 1.11094 21.0716
1.37889 1.18121 22.157
1.31939 1.1942 22.3563
1.25787 1.20613 22.5516
1.19641 1.21918 22.7549
0.909485 1.28818 23.8232
0.84122 1.30362 24.0525
0.771916 1.31799 24.2768
2.94247 0.934017 16.5381
2.90942 0.942892 16.6632
2.82588 0.964763 16.9886
2.78978 0.972551 17.1077
2.75581 0.982574 17.2429
2.71562 0.989187 17.3501
2.67751 0.997961 17.4683
2.58725 1.02239 17.8306
2.54827 1.0314 17.9648
2.50728 1.0404 18.098
2.46625 1.04932 18.2262
2.42426 1.05833 18.3604
2.32741 1.08756 18.7768
2.28452 1.09775 18.9229
2.24169 1.10908 19.0781
2.19575 1.11819 19.2184
2.14882 1.12831 19.3596
1.9437 1.18194 20.1364
1.89503 1.19457 20.3116
1.84425 1.20599 20.4729
1.55906 1.27847 21.5061
1.50244 1.29121 21.6884
2.89605 1.04 16.7369
2.85993 1.04876 16.8541
2.82383 1.05655 16.9732
2.78671 1.06528 17.0884
2.69931 1.09043 17.4327
2.66129 1.10037 17.5619
2.62224 1.10926 17.6881
2.58218 1.11811 17.8113
2.48703 1.14676 18.1886
2.44817 1.15801 18.3387
2.40516 1.16697 18.469
2.36431 1.17825 18.6211
2.31825 1.18811 18.7453
2.27645 1.1995 18.9045
2.16962 1.23076 19.3229
2.12483 1.24315 19.4821
2.07588 1.25324 19.6213
2.03024 1.26692 19.8005
1.98026 1.27696 19.9357
1.81228 1.32688 20.5983
1.76167 1.34064 20.7825
1.70572 1.35072 20.9208
1.65317 1.3656 21.113
1.46465 1.41944 21.8368
1.40608 1.43428 22.026
1.34755 1.44918 22.2193
1.287 1.46307 22.4115
1.07314 1.52521 23.2223
1.0066 1.53912 23.4157
2.94577 1.14632 16.5569
2.90957 1.1539 16.6621
2.87336 1.16248 16.7673
2.8404 1.17353 16.9044
2.71681 1.20927 17.3538
2.67665 1.21794 17.465
2.64174 1.23009 17.6091
2.46746 1.28043 18.2318
2.42755 1.2916 18.3769
2.38453 1.30253 18.5051
2.34262 1.31369 18.6493
2.29976 1.32594 18.7994
2.19699 1.36034 19.2268
2.15005 1.37243 19.366
2.10419 1.3847 19.5171
2.05841 1.39711 19.6783
2.00956 1.40938 19.8295
1.8444 1.46195 20.4681
1.79367 1.47547 20.6363
2.92913 1.23393 16.5968
2.69937 1.30326 17.4196
2.56802 1.34449 17.902
2.52696 1.35434 18.0252
2.48705 1.3665 18.1693
2.44607 1.37851 18.3035
2.25932 1.43791 18.9971
2.21548 1.4512 19.1503
2.14615 1.46951 19.3705
2.94353 1.3376 16.5071
2.86508 1.36863 16.8433
2.82897 1.37939 16.9604
2.79182 1.38906 17.0716
2.75472 1.39985 17.1907
2.71658 1.41056 17.3048
3.20388 -0.388131 2.23171
3.2246 -0.367317 0.464006
3.21467 -0.366177 0.473065
3.21679 -0.366941 0.489063
3.21286 -0.366791 0.499091
3.21703 -0.366468 0.521058
3.21109 -0.36633 0.530102
3.22424 -0.366044 0.550002
3.21431 -0.365918 0.558076
3.22449 -0.36557 0.581997
3.21555 -0.36543 0.591064
3.21768 -0.36518 0.608046
3.21476 -0.36503 0.618067
3.22294 -0.36568 0.642019
3.20999 -0.364567 0.649101
3.21016 -0.365241 0.671113
3.21738 -0.364802 0.701056
3.21245 -0.364666 0.710092
3.21964 -0.364301 0.735036
3.20969 -0.36419 0.74211
3.21383 -0.363926 0.760078
3.21007 -0.36445 0.792118
3.20815 -0.364285 0.803132
3.20732 -0.363959 0.825136
3.21338 -0.363845 0.83309
3.21747 -0.36367 0.845058
3.21162 -0.363355 0.8661
3.21171 -0.363177 0.878099
3.21385 -0.363912 0.896096
3.21293 -0.363763 0.906102
3.20917 -0.363272 0.939128
3.21838 -0.362879 0.966056
3.2124 -0.36283 0.969101
3.2155 -0.36364 0.982091
3.20373 -0.363172 1.01318
3.20997 -0.362703 1.04513
3.21005 -0.36254 1.05613
3.21224 -0.363171 1.08112
3.2043 -0.362047 1.08917
3.21251 -0.362638 1.11712
3.21456 -0.362551 1.1231
3.20571 -0.362248 1.14317
3.21584 -0.362004 1.16009
3.21693 -0.362827 1.17209
3.21903 -0.362621 1.18608
3.21511 -0.36247 1.19611
3.21215 -0.362394 1.20113
3.20822 -0.362243 1.21116
3.21032 -0.362052 1.22414
3.21443 -0.361833 1.23911
3.20649 -0.361709 1.24717
3.2126 -0.362491 1.26213
3.20768 -0.362339 1.27217
3.21275 -0.36221 1.28113
3.21284 -0.362032 1.29313
3.21294 -0.36184 1.30613
3.21604 -0.361635 1.3201
3.21614 -0.361442 1.3331
3.2072 -0.361317 1.34117
3.21633 -0.362072 1.35811
3.21537 -0.361983 1.36412
3.20543 -0.361872 1.37119
3.20854 -0.361652 1.38617
3.21666 -0.361421 1.40211
3.21475 -0.361242 1.41412
3.21485 -0.362049 1.42713
3.20591 -0.361924 1.4352
3.21399 -0.361767 1.44614
3.21118 -0.361395 1.47116
3.20826 -0.36123 1.48218
3.21248 -0.361803 1.51116
3.21072 -0.361328 1.54317
3.20982 -0.361135 1.55618
3.21494 -0.361902 1.57215
3.20399 -0.36079 1.57922
3.20821 -0.361364 1.6082
3.21027 -0.361247 1.61618
3.21137 -0.36104 1.63017
3.20556 -0.360681 1.65422
3.2129 -0.361005 1.70017
3.20692 -0.360956 1.70322
3.21104 -0.361722 1.7192
3.20613 -0.361556 1.73023
3.20323 -0.361361 1.74326
3.20735 -0.361127 1.75922
3.20946 -0.360906 1.77421
3.20656 -0.360712 1.78723
3.2037 -0.361428 1.80626
3.20984 -0.361151 1.82521
3.20995 -0.360944 1.83921
3.20704 -0.360764 1.85123
3.20314 -0.360569 1.86426
3.20827 -0.361306 1.88224
3.20453 -0.3608 1.91626
3.20463 -0.361593 1.93027
3.20475 -0.361371 1.94527
3.20687 -0.36112 1.96225
3.20497 -0.360926 1.97527
3.20603 -0.360809 1.98326
3.20526 -0.361364 2.01328
3.19934 -0.361197 2.02432
3.2066 -0.361684 2.05928
3.20465 -0.361593 2.06529
3.20376 -0.36137 2.0803
3.20299 -0.360911 2.1113
3.20122 -0.361465 2.14133
3.20033 -0.361257 2.15533
3.19951 -0.360901 2.17934
3.19661 -0.361692 2.19337
3.19472 -0.361483 2.20739
3.19987 -0.361191 2.22734
3.20778 -0.342361 2.08099
3.21449 -0.325566 0.446462
3.21758 -0.325406 0.457437
3.21566 -0.325241 0.468451
3.21674 -0.325079 0.479442
3.21895 -0.324681 0.506423
3.21602 -0.324531 0.516444
3.2161 -0.324383 0.526443
3.22119 -0.324209 0.538404
3.21426 -0.324071 0.547455
3.22035 -0.323882 0.560408
3.22147 -0.323646 0.576398
3.21462 -0.323345 0.596448
3.22281 -0.323996 0.6204
3.2289 -0.323808 0.633353
3.21591 -0.323783 0.63445
3.21299 -0.323618 0.645471
3.21007 -0.323468 0.655493
3.22046 -0.322706 0.70741
3.20952 -0.322579 0.715492
3.22363 -0.322367 0.730385
3.22272 -0.322204 0.74139
3.22079 -0.322054 0.751404
3.21987 -0.321891 0.76241
3.219 -0.321653 0.778416
3.21508 -0.321487 0.789444
3.21015 -0.321351 0.79848
3.21232 -0.321012 0.821462
3.2114 -0.320848 0.832468
3.2155 -0.321658 0.845451
3.21162 -0.321419 0.861479
3.2097 -0.321269 0.871493
3.21379 -0.32108 0.884461
3.21397 -0.320739 0.907458
3.21209 -0.320501 0.92347
3.20917 -0.320336 0.934492
3.21628 -0.320134 0.948437
3.21837 -0.319958 0.96042
3.21243 -0.31982 0.969464
3.20659 -0.319505 0.990506
3.22469 -0.320325 1.00338
3.20974 -0.319226 1.00948
3.20682 -0.319061 1.0205
3.21392 -0.319858 1.03446
3.20808 -0.319543 1.0555
3.20918 -0.319352 1.0685
3.21122 -0.319264 1.07448
3.21432 -0.319074 1.08746
3.21743 -0.318869 1.10143
3.2105 -0.318731 1.11048
3.21059 -0.318553 1.12248
3.20566 -0.318401 1.13252
3.21077 -0.318198 1.14648
3.20981 -0.318108 1.15248
3.21892 -0.317893 1.16741
3.212 -0.31774 1.17747
3.22212 -0.31851 1.1934
3.20716 -0.317425 1.1985
3.20926 -0.318219 1.2125
3.20835 -0.318056 1.2235
3.21341 -0.317926 1.23247
3.21351 -0.317734 1.24546
3.21862 -0.31753 1.25942
3.2157 -0.317365 1.27044
3.21981 -0.317161 1.28441
3.20585 -0.317062 1.29052
3.20996 -0.316857 1.30449
3.20399 -0.316794 1.30853
3.2091 -0.316575 1.32349
3.21722 -0.316344 1.33943
3.20327 -0.316245 1.34553
3.20437 -0.316039 1.35952
3.20647 -0.316848 1.37252
3.2046 -0.31658 1.39053
3.21374 -0.31632 1.40846
3.2048 -0.316195 1.41653
3.20088 -0.316029 1.42756
3.20499 -0.315825 1.44153
3.20107 -0.315659 1.45255
3.19916 -0.31548 1.46457
3.21227 -0.315282 1.47847
3.20835 -0.315117 1.4895
3.21146 -0.315897 1.50449
3.21357 -0.315691 1.51847
3.20564 -0.315552 1.52753
3.19971 -0.315399 1.53757
3.20985 -0.315125 1.5565
3.20588 -0.315063 1.56052
3.19795 -0.314924 1.56958
3.2091 -0.314636 1.5895
3.20719 -0.314457 1.60151
3.20629 -0.314264 1.61452
3.20539 -0.314071 1.62752
3.20649 -0.314864 1.64153
3.20353 -0.314788 1.64655
3.21379 -0.314292 1.68047
3.20786 -0.31414 1.69051
3.20696 -0.313946 1.70352
3.19903 -0.313807 1.71258
3.20611 -0.31365 1.72352
3.20622 -0.313428 1.73852
3.19829 -0.313289 1.74758
3.20543 -0.314027 1.76554
3.20453 -0.313834 1.77855
3.19962 -0.313653 1.79058
3.20173 -0.313432 1.80557
3.20178 -0.313328 1.81256
3.19787 -0.313148 1.82459
3.20502 -0.312872 1.84354
3.20312 -0.312663 1.85755
3.1982 -0.312497 1.86859
3.19831 -0.312289 1.88259
3.19842 -0.313067 1.8976
3.19647 -0.312977 1.90361
3.19758 -0.312756 1.9186
3.20272 -0.312493 1.93656
3.20082 -0.312284 1.95058
3.19189 -0.312144 1.95964
3.19803 -0.311868 1.97859
3.19714 -0.31166 1.9926
3.19324 -0.311464 2.00563
3.19832 -0.312305 2.0166
3.1924 -0.312138 2.02765
3.19854 -0.311861 2.0466
3.19766 -0.311638 2.06161
3.19073 -0.311485 2.07166
3.19587 -0.311207 2.09062
3.19499 -0.310985 2.10562
3.2041 -0.311769 2.12057
3.19227 -0.311435 2.14265
3.19251 -0.310961 2.17465
3.19162 -0.310738 2.18965
3.18967 -0.310648 2.19567
3.19382 -0.310355 2.21564
3.22467 -0.30825 0.468132
3.21373 -0.308123 0.476213
3.21309 -0.307412 0.524214
3.21734 -0.306927 0.557179
3.22226 -0.305124 0.679133
3.21036 -0.304922 0.692221
3.22447 -0.304711 0.707114
3.21061 -0.304434 0.725217
3.21771 -0.304247 0.738162
3.21743 -0.303825 0.834171
3.21101 -0.30268 0.911213
3.20717 -0.302351 0.93324
3.21254 -0.301644 0.981196
3.21175 -0.301214 1.0102
3.20614 -0.300455 1.06124
3.2055 -0.300744 1.10925
3.20367 -0.300402 1.13227
3.20299 -0.299779 1.17427
3.20528 -0.299218 1.21225
3.20742 -0.298939 1.23123
3.20569 -0.298404 1.26724
3.20277 -0.298239 1.27826
3.20714 -0.296562 1.45923
3.20146 -0.295921 1.50227
3.19465 -0.293607 1.79332
3.19476 -0.293385 1.80832
3.19995 -0.293018 1.83328
3.19314 -0.292643 1.85833
3.19878 -0.266391 1.80789
3.19404 -0.219978 1.97026
3.21974 -0.226211 0.469955
3.21714 -0.225424 0.52297
3.22653 -0.224676 0.573895
3.21458 -0.224563 0.580984
3.21567 -0.224386 0.592975
3.21675 -0.224224 0.603966
3.2132 -0.223348 0.662988
3.21441 -0.221934 0.690962
3.21858 -0.221597 0.713929
3.21111 -0.220555 0.783979
3.21534 -0.220114 0.813945
3.2104 -0.219977 0.822981
3.2125 -0.219786 0.835965
3.21459 -0.21961 0.847948
3.21468 -0.219447 0.858946
3.21477 -0.219269 0.870945
3.21197 -0.218867 0.897964
3.21306 -0.21869 0.909954
3.21315 -0.217513 0.921938
3.21733 -0.217161 0.945904
3.21541 -0.216996 0.956918
3.20944 -0.216933 0.960963
3.21856 -0.216717 0.975893
3.22175 -0.216349 1.00087
3.21891 -0.216022 1.02289
3.21102 -0.215808 1.03694
3.21813 -0.215592 1.05189
3.20819 -0.215466 1.05996
3.21931 -0.215237 1.07588
3.21138 -0.215098 1.08494
3.21558 -0.213716 1.11089
3.21361 -0.213641 1.1159
3.2127 -0.213477 1.12691
3.2179 -0.213081 1.15387
3.21498 -0.212916 1.16489
3.21608 -0.212724 1.17788
3.21932 -0.212253 1.20985
3.2164 -0.212088 1.22087
3.22051 -0.211884 1.23484
3.21759 -0.211719 1.24586
3.21468 -0.211554 1.25688
3.21577 -0.211362 1.26988
3.21984 -0.210232 1.27883
3.20789 -0.211134 1.28493
3.2141 -0.209724 1.31287
3.2162 -0.209518 1.32685
3.21243 -0.209071 1.35688
3.20951 -0.208906 1.3679
3.20268 -0.208575 1.38995
3.21181 -0.20833 1.40688
3.20598 -0.207986 1.42992
3.21718 -0.206609 1.45582
3.2013 -0.206345 1.47294
3.21345 -0.206058 1.49284
3.20954 -0.205892 1.50387
3.20864 -0.205699 1.51688
3.20969 -0.205596 1.52387
3.20075 -0.205471 1.53194
3.20185 -0.205265 1.54593
3.20598 -0.205016 1.5629
3.20016 -0.204671 1.58594
3.21834 -0.203329 1.60978
3.20041 -0.203168 1.61992
3.21056 -0.202879 1.63984
3.20083 -0.202354 1.67491
3.2021 -0.201822 1.7109
3.2012 -0.201629 1.7239
3.19929 -0.201435 1.73692
3.20142 -0.2002 1.75288
3.19851 -0.20002 1.76491
3.21072 -0.199599 1.79381
3.20391 -0.199224 1.81886
3.199 -0.199058 1.8299
3.20127 -0.198511 1.86688
3.19737 -0.198316 1.8799
3.20865 -0.196776 1.9168
3.20787 -0.196346 1.94581
3.20095 -0.196193 1.95586
3.20101 -0.196075 1.96386
3.19408 -0.195922 1.97391
3.20235 -0.194395 2.00983
3.19644 -0.194228 2.02087
3.19276 -0.193588 2.06389
3.19383 -0.193456 2.07289
3.19507 -0.192983 2.10487
3.19454 -0.19105 2.16786
3.19561 -0.190917 2.17685
3.22276 -0.203215 0.469591
3.23394 -0.201868 0.493491
3.23511 -0.201543 0.51548
3.22738 -0.201005 0.551535
3.23054 -0.200681 0.57351
3.22666 -0.200456 0.588538
3.23384 -0.200106 0.612482
3.22899 -0.199806 0.632517
3.22815 -0.19948 0.654521
3.22444 -0.197915 0.692531
3.23083 -0.197149 0.744479
3.22389 -0.197026 0.75253
3.22907 -0.196674 0.776489
3.22423 -0.19636 0.797524
3.22566 -0.191547 0.987468
3.22432 -0.187289 1.20745
3.21732 -0.184314 1.34047
3.21805 -0.181893 1.43644
3.22045 -0.180111 1.48941
3.21959 -0.179829 1.50841
3.21869 -0.179635 1.52142
3.21317 -0.177684 1.58544
3.21253 -0.176987 1.63244
3.2168 -0.175457 1.66839
3.21711 -0.174836 1.71038
3.20627 -0.174517 1.73146
3.2104 -0.173268 1.74842
3.21268 -0.172722 1.7854
3.21479 -0.172501 1.80038
3.21188 -0.172322 1.8124
3.21501 -0.171072 1.82936
3.21518 -0.170747 1.85136
3.21528 -0.170539 1.86536
3.21048 -0.170151 1.89139
3.21082 -0.168485 1.93637
3.21092 -0.168278 1.95037
3.20093 -0.168256 1.95144
3.21032 -0.167492 2.00337
3.21345 -0.166243 2.02033
3.20954 -0.166063 2.03236
3.21066 -0.165826 2.04835
3.21274 -0.16568 2.05833
3.20782 -0.165513 2.06937
3.21007 -0.164026 2.10233
3.19812 -0.163929 2.10842
3.21131 -0.163553 2.13432
3.20646 -0.163254 2.15436
3.19966 -0.162864 2.1804
3.20279 -0.1616 2.19836
3.22762 -0.185517 0.44929
3.23071 -0.185342 0.461266
3.23375 -0.185255 0.467242
3.23207 -0.184632 0.509252
3.23528 -0.18422 0.537225
3.22351 -0.183767 0.567311
3.21974 -0.183305 0.598337
3.23397 -0.181856 0.629213
3.23122 -0.181366 0.662231
3.22968 -0.180476 0.722238
3.22889 -0.179061 0.750226
3.23031 -0.178233 0.806211
3.22443 -0.177992 0.822254
3.23062 -0.176626 0.847191
3.22368 -0.177502 0.855257
3.22586 -0.176149 0.879224
3.21692 -0.176024 0.88729
3.22416 -0.175555 0.919233
3.22634 -0.175201 0.943215
3.22242 -0.17505 0.953244
3.22282 -0.173266 1.00622
3.22592 -0.173076 1.0192
3.22805 -0.172811 1.03718
3.22431 -0.17229 1.07221
3.22541 -0.171113 1.08418
3.22659 -0.170758 1.10817
3.22418 -0.168587 1.18717
3.22039 -0.16817 1.21519
3.22302 -0.165943 1.29815
3.21862 -0.163755 1.37816
3.22274 -0.163536 1.39313
3.22092 -0.163164 1.41814
3.21901 -0.162985 1.43016
3.22107 -0.162868 1.43814
3.21926 -0.161497 1.46314
3.2168 -0.159444 1.53414
3.21901 -0.159031 1.56212
3.21811 -0.158838 1.57512
3.21921 -0.158631 1.58911
3.21731 -0.158437 1.60213
3.21286 -0.156353 1.67514
3.21698 -0.155119 1.69109
3.21524 -0.154614 1.7251
3.21646 -0.154186 1.75409
3.21467 -0.15277 1.78209
3.21371 -0.152681 1.78809
3.21404 -0.151044 1.83107
3.21342 -0.150288 1.88207
3.20896 -0.148234 1.95309
3.2131 -0.146971 1.97104
3.20232 -0.146518 2.00112
3.21072 -0.14474 2.05404
3.20788 -0.144427 2.07505
3.20912 -0.142954 2.10703
3.21024 -0.142718 2.12302
3.20155 -0.142104 2.16408
3.21066 -0.140889 2.179
3.20286 -0.140498 2.20505
3.206 -0.140219 2.22403
3.1982 -0.138829 2.25007
3.22162 -0.16653 0.448054
3.22968 -0.165432 0.454978
3.22775 -0.165282 0.464992
3.23084 -0.165107 0.476967
3.22399 -0.164806 0.497017
3.22114 -0.164508 0.517037
3.2262 -0.164408 0.523999
3.22135 -0.164108 0.544033
3.21842 -0.163958 0.554055
3.2246 -0.163622 0.577006
3.23266 -0.162509 0.58493
3.23073 -0.16236 0.594944
3.2329 -0.162036 0.616926
3.22597 -0.161882 0.626977
3.22706 -0.16172 0.637968
3.22417 -0.161496 0.652988
3.22125 -0.161331 0.66401
3.22433 -0.16117 0.674985
3.22743 -0.159995 0.686946
3.22551 -0.159831 0.69796
3.22167 -0.159517 0.718987
3.21878 -0.159293 0.734008
3.22488 -0.15909 0.747961
3.21494 -0.158979 0.755035
3.21503 -0.158801 0.767033
3.22513 -0.158601 0.780956
3.21619 -0.158477 0.789023
3.21628 -0.158299 0.801021
3.22351 -0.15686 0.830949
3.21959 -0.156709 0.840978
3.21265 -0.156571 0.85003
3.21474 -0.156395 0.862013
3.22782 -0.156256 0.871914
3.21296 -0.155979 0.890024
3.22407 -0.154765 0.904924
3.21112 -0.155652 0.912036
3.21723 -0.154449 0.925974
3.22634 -0.154233 0.940904
3.21845 -0.15402 0.954963
3.21452 -0.153869 0.964991
3.2126 -0.153705 0.976005
3.2167 -0.153515 0.988973
3.21779 -0.152339 1.00095
3.21693 -0.152072 1.01895
3.22103 -0.151882 1.03192
3.21108 -0.151771 1.039
3.21618 -0.151568 1.05296
3.21427 -0.151403 1.06397
3.21336 -0.151225 1.07598
3.22147 -0.150009 1.0909
3.21555 -0.149856 1.10094
3.20856 -0.150822 1.10301
3.22069 -0.149579 1.1199
3.21377 -0.149426 1.12995
3.20984 -0.149275 1.13998
3.21294 -0.149084 1.15296
3.21404 -0.148893 1.16595
3.21709 -0.147791 1.17291
3.20715 -0.148666 1.181
3.21527 -0.147435 1.19692
3.21737 -0.147244 1.20991
3.21646 -0.147065 1.22191
3.20953 -0.146927 1.23096
3.21463 -0.145724 1.24491
3.21167 -0.145647 1.24993
3.21779 -0.145415 1.26588
3.20784 -0.145304 1.27296
3.21406 -0.144894 1.30091
3.20621 -0.144577 1.32197
3.21931 -0.143394 1.33485
3.21439 -0.143243 1.34489
3.21348 -0.143064 1.35689
3.21358 -0.142872 1.36989
3.20464 -0.142747 1.37796
3.21377 -0.141487 1.39587
3.20985 -0.141336 1.4059
3.20589 -0.141259 1.41093
3.20598 -0.141082 1.42293
3.2131 -0.140835 1.43987
3.20718 -0.140683 1.44992
3.2123 -0.13945 1.46586
3.21441 -0.139244 1.47985
3.20848 -0.139091 1.48989
3.20753 -0.139002 1.4959
3.21566 -0.138741 1.51383
3.20873 -0.138603 1.52289
3.21184 -0.137383 1.53785
3.20793 -0.137218 1.54888
3.21104 -0.136998 1.56385
3.21214 -0.136791 1.57784
3.21923 -0.135634 1.58877
3.21029 -0.135509 1.59684
3.2124 -0.135288 1.61182
3.20648 -0.135136 1.62187
3.20256 -0.13497 1.63289
3.2117 -0.133695 1.65181
3.20979 -0.133516 1.66382
3.20683 -0.13344 1.66884
3.20694 -0.133218 1.68384
3.20404 -0.133038 1.69586
3.20213 -0.132859 1.70788
3.21429 -0.131542 1.72977
3.21841 -0.131308 1.74574
3.20144 -0.131237 1.74986
3.2035 -0.13112 1.75785
3.21064 -0.129859 1.77578
3.2007 -0.129733 1.78385
3.21286 -0.129416 1.80576
3.20795 -0.129249 1.81679
3.20304 -0.129068 1.82883
3.20314 -0.127861 1.84281
3.20643 -0.127301 1.88079
3.20755 -0.126065 1.89676
3.19873 -0.125718 1.91983
3.20587 -0.125442 1.93877
3.19889 -0.125392 1.94182
3.20303 -0.124129 1.95977
3.21118 -0.123824 1.98071
3.20728 -0.123643 1.99274
3.20136 -0.123476 2.00378
3.20449 -0.122227 2.02074
3.19556 -0.122087 2.02981
3.19461 -0.121982 2.03682
3.20377 -0.120663 2.05873
3.19786 -0.120496 2.06978
3.19396 -0.120301 2.0828
3.20111 -0.12001 2.10275
3.19821 -0.118801 2.11675
3.19732 -0.118578 2.13176
3.20643 -0.118377 2.14569
3.20253 -0.118182 2.15872
3.1946 -0.118028 2.16878
3.19709 -0.115067 2.23372
3.20823 -0.114809 2.25164
3.23222 -0.13843 0.657587
3.225 -0.1359 0.760618
3.23214 -0.135624 0.779563
3.2314 -0.13412 0.813551
3.23061 -0.133705 0.841555
3.22511 -0.131709 0.908576
3.22669 -0.129585 0.984543
3.21906 -0.128839 1.0346
3.22599 -0.125023 1.1575
3.22009 -0.120857 1.30351
3.22158 -0.11791 1.36746
3.21965 -0.113791 1.51043
3.2173 -0.110516 1.59642
3.21248 -0.110157 1.62045
3.20984 -0.10846 1.66745
3.21433 -0.106501 1.7324
3.21626 -0.101681 1.85533
3.21331 -0.0966208 1.9943
3.21115 -0.0880066 2.23822
3.2377 -0.123442 0.454296
3.23378 -0.123291 0.464325
3.22985 -0.123155 0.473353
3.2359 -0.123056 0.480307
3.22705 -0.122753 0.500372
3.23221 -0.121432 0.522317
3.22628 -0.122294 0.531376
3.22737 -0.121117 0.543352
3.22741 -0.121043 0.548351
3.22349 -0.120892 0.55838
3.23367 -0.120544 0.582301
3.21872 -0.12043 0.589413
3.23588 -0.119131 0.610267
3.2281 -0.118681 0.640323
3.22519 -0.118516 0.651344
3.22435 -0.118205 0.672349
3.23241 -0.117092 0.680273
3.22748 -0.11794 0.690324
3.22681 -0.116289 0.734311
3.22188 -0.116152 0.743347
3.217 -0.115911 0.759382
3.2231 -0.115723 0.772335
3.2292 -0.114535 0.785274
3.22436 -0.114221 0.806308
3.23246 -0.114019 0.820246
3.22753 -0.113882 0.829283
3.22365 -0.113643 0.845311
3.22775 -0.112453 0.858264
3.22482 -0.112303 0.868285
3.22993 -0.112099 0.882246
3.22299 -0.111976 0.890297
3.22905 -0.111862 0.898251
3.22513 -0.111711 0.90828
3.22822 -0.110521 0.92124
3.22731 -0.110357 0.932246
3.22639 -0.110194 0.943252
3.22648 -0.110016 0.955251
3.22256 -0.109865 0.96528
3.22862 -0.108751 0.973218
3.22971 -0.108574 0.985209
3.22578 -0.108423 0.995238
3.22788 -0.108232 1.00822
3.22496 -0.108067 1.01924
3.22814 -0.106714 1.0432
3.21515 -0.10769 1.04431
3.22226 -0.106488 1.05824
3.22778 -0.10447 1.12718
3.21117 -0.103688 1.1793
3.22331 -0.102431 1.1972
3.22555 -0.100959 1.22916
3.22665 -0.100767 1.24215
3.22373 -0.100602 1.25317
3.21388 -0.100299 1.27325
3.22597 -0.0991297 1.28514
3.22105 -0.0989781 1.29518
3.22023 -0.0986221 1.31918
3.22052 -0.0970449 1.35816
3.22085 -0.0953937 1.40214
3.21694 -0.095228 1.41317
3.22206 -0.0939949 1.42911
3.22331 -0.0935071 1.4621
3.21738 -0.0933547 1.47214
3.2226 -0.0919292 1.50109
3.22069 -0.0917501 1.5131
3.21979 -0.0905571 1.52609
3.22215 -0.0888481 1.57406
3.22024 -0.088669 1.58607
3.2215 -0.0871666 1.62004
3.2206 -0.0869734 1.63305
3.2198 -0.0855731 1.66004
3.22001 -0.0851587 1.68803
3.21737 -0.0834609 1.73503
3.20965 -0.0819075 1.77207
3.21679 -0.0806314 1.791
3.21483 -0.0805412 1.79702
3.21092 -0.0803754 1.80805
3.21706 -0.0800985 1.827
3.21226 -0.0787101 1.85302
3.20734 -0.0785437 1.86405
3.21448 -0.0772676 1.88298
3.21554 -0.0771499 1.89098
3.21063 -0.0769835 1.90201
3.21677 -0.0757067 1.92095
3.21186 -0.0755254 1.93299
3.21527 -0.0737284 1.98694
3.21461 -0.0710618 2.03191
3.21183 -0.0706303 2.06093
3.21212 -0.0690531 2.09991
3.21236 -0.0675944 2.13089
3.20656 -0.0661904 2.15792
3.20498 -0.0643749 2.21291
3.21113 -0.0630686 2.23385
3.19529 -0.0627609 2.25397
3.22108 -0.103707 0.503136
3.22057 -0.101759 0.56712
3.21687 -0.0932401 0.872063
3.21342 -0.0901568 0.945054
3.21386 -0.0882836 1.00403
3.21385 -0.084344 1.13499
3.21053 -0.0810091 1.22498
3.20995 -0.0791795 1.28096
3.20913 -0.0778236 1.30495
3.21239 -0.0773225 1.33893
3.21593 -0.0742591 1.41086
3.20709 -0.0739417 1.43193
3.20518 -0.0727628 1.44393
3.20528 -0.0725703 1.45693
3.20553 -0.071082 1.48991
3.21176 -0.0696424 1.51984
3.21909 -0.0679963 1.56377
3.21316 -0.0678439 1.57381
3.20887 -0.064449 1.66781
3.20046 -0.0612881 1.74583
3.20587 -0.0584926 1.79976
3.20307 -0.0580908 1.82678
3.20469 -0.0538928 1.90772
3.1975 -0.0502885 2.01573
3.19714 -0.0460299 2.10068
3.20229 -0.0447524 2.11963
3.20543 -0.0444734 2.1386
3.19744 -0.0444527 2.13966
3.20058 -0.0431738 2.15862
3.20082 -0.0417002 2.1906
3.19793 -0.0414908 2.20462
3.20006 -0.0402407 2.22159
3.19516 -0.0400447 2.23463
3.21965 -0.0835817 0.44384
3.22875 -0.0823959 0.456756
3.22482 -0.0832449 0.4668
3.22911 -0.0816854 0.504749
3.22226 -0.0813843 0.524799
3.2276 -0.0797219 0.569741
3.22171 -0.0795103 0.583784
3.21878 -0.0793601 0.593805
3.22296 -0.0790226 0.616772
3.21707 -0.0787961 0.631815
3.22015 -0.0776356 0.642776
3.2197 -0.0755692 0.714759
3.22003 -0.073918 0.758738
3.2151 -0.0747662 0.768789
3.22116 -0.0736671 0.775728
3.21832 -0.0733393 0.797748
3.2184 -0.0731764 0.808746
3.22189 -0.0702315 0.872685
3.22096 -0.0700827 0.882691
3.21512 -0.0697675 0.903733
3.22624 -0.0685388 0.919634
3.22036 -0.0683124 0.934677
3.2166 -0.067821 0.967702
3.2167 -0.0666435 0.979686
3.22581 -0.066428 0.994616
3.21382 -0.0664044 0.995706
3.21791 -0.0662149 1.00867
3.22101 -0.0650248 1.02164
3.22211 -0.0648331 1.03463
3.22621 -0.0646436 1.04759
3.21535 -0.0643543 1.06667
3.21139 -0.0642774 1.0717
3.2205 -0.063062 1.08662
3.21165 -0.0627594 1.10668
3.21676 -0.0615559 1.12063
3.22109 -0.0599076 1.16458
3.21517 -0.0597552 1.17462
3.22128 -0.0595376 1.18958
3.21133 -0.0594267 1.19665
3.22648 -0.0581416 1.21652
3.21253 -0.0580426 1.22262
3.21759 -0.0579279 1.23058
3.21969 -0.056737 1.24355
3.22398 -0.0551627 1.2825
3.21013 -0.0548713 1.30161
3.21118 -0.0547684 1.3086
3.21528 -0.0545641 1.32256
3.2194 -0.0533451 1.33752
3.21959 -0.0519751 1.3625
3.21265 -0.0528367 1.37157
3.2238 -0.0515635 1.39047
3.20979 -0.0515682 1.38957
3.20888 -0.0513898 1.40158
3.214 -0.0501567 1.41752
3.21911 -0.0499383 1.43248
3.20627 -0.0496328 1.45258
3.21138 -0.0484145 1.46752
3.21645 -0.0482849 1.47648
3.21253 -0.0471193 1.4875
3.20661 -0.0469669 1.49754
3.21785 -0.0454865 1.53044
3.20891 -0.0453616 1.53851
3.20901 -0.0451691 1.5515
3.20605 -0.0450929 1.55653
3.21419 -0.0438324 1.57445
3.21741 -0.0424054 1.60341
3.20847 -0.0422805 1.61147
3.20957 -0.042074 1.62546
3.20572 -0.0407899 1.64448
3.20893 -0.0393629 1.67344
3.20402 -0.0391965 1.68447
3.21215 -0.037936 1.70239
3.21427 -0.0377006 1.71838
3.20227 -0.0377066 1.71747
3.20941 -0.0364306 1.7364
3.21353 -0.0361967 1.75237
3.2056 -0.0360576 1.76142
3.21274 -0.0347816 1.78035
3.2008 -0.0346692 1.78744
3.20291 -0.0344486 1.80243
3.20508 -0.0331098 1.82539
3.20217 -0.0329299 1.83741
3.2034 -0.0314867 1.86739
3.20351 -0.0302648 1.88237
3.21172 -0.028871 1.90929
3.20078 -0.0287446 1.91737
3.20088 -0.0285374 1.93137
3.19809 -0.0271208 1.95938
3.20234 -0.0256354 1.99233
3.20151 -0.0243091 2.01432
3.19961 -0.0241152 2.02733
3.19872 -0.0228926 2.04232
3.20529 -0.019787 2.11724
3.19937 -0.0186199 2.12826
3.20049 -0.0183838 2.14425
3.19861 -0.0171604 2.15925
3.23726 -0.0624269 0.522405
3.23362 -0.0567591 0.702374
3.23316 -0.0497384 0.906301
3.22352 -0.0490206 0.95437
3.22862 -0.0478171 0.968316
3.22711 -0.0458684 1.03231
3.22943 -0.0442335 1.07527
3.22651 -0.0440685 1.08629
3.22085 -0.0423981 1.13132
3.22638 -0.0393658 1.20124
3.22475 -0.0316849 1.38216
3.22424 -0.0287222 1.44713
3.22348 -0.0272479 1.47912
3.22157 -0.0270688 1.49113
3.21364 -0.0269298 1.50019
3.22278 -0.02567 1.51811
3.22299 -0.0242556 1.54609
3.22033 -0.0225875 1.59109
3.21652 -0.0212146 1.6161
3.2209 -0.0194627 1.66705
3.21948 -0.0153366 1.74301
3.21478 -0.0137409 1.78303
3.21901 -0.0122851 1.81398
3.21404 -0.0122222 1.81802
3.21437 -0.010571 1.86199
3.2156 -0.00812791 1.89195
3.2117 -0.00793257 1.90498
3.21778 -0.00677421 1.91592
3.21321 -0.00492694 1.97294
3.21534 -0.00367687 1.9899
3.21646 -0.00244087 2.00588
3.20646 -0.00343347 2.00597
3.20959 -0.00218413 2.02293
3.20883 -0.000724627 2.05392
3.21297 0.000553593 2.07287
3.20314 0.000901331 2.09594
3.21025 0.00210336 2.10987
3.20144 0.00347987 2.13492
3.20256 0.00371598 2.15091
3.20569 0.00498013 2.16887
3.20381 0.00620351 2.18387
3.21399 0.00755138 2.20778
3.21418 0.00892134 2.23276
3.21329 0.0091441 2.24776
3.22549 -0.0429606 0.418192
3.22757 -0.0427993 0.429175
3.22673 -0.0414878 0.450165
3.2208 -0.0423501 0.459224
3.22188 -0.0411881 0.4702
3.22493 -0.0411015 0.476176
3.22008 -0.040787 0.497211
3.22626 -0.039451 0.520148
3.22233 -0.0393149 0.529177
3.22237 -0.0392261 0.535176
3.23147 -0.0380403 0.548092
3.22061 -0.0387509 0.567187
3.2257 -0.037577 0.579132
3.21885 -0.0372759 0.599182
3.22891 -0.0371648 0.607106
3.2183 -0.0354019 0.658167
3.2284 -0.0342021 0.672075
3.21846 -0.0350763 0.680164
3.23053 -0.0339519 0.689058
3.22661 -0.033801 0.699086
3.21667 -0.0336753 0.70716
3.21876 -0.0334991 0.719144
3.22386 -0.0323104 0.732089
3.22507 -0.0318967 0.760078
3.21621 -0.0316089 0.779143
3.22031 -0.0304195 0.792096
3.22153 -0.0299909 0.821085
3.2207 -0.0286646 0.843075
3.22479 -0.0284899 0.855043
3.22095 -0.0271615 0.877055
3.21903 -0.0269972 0.888069
3.21516 -0.0267574 0.904097
3.21942 -0.0252424 0.939047
3.22152 -0.0250514 0.95203
3.21362 -0.0248383 0.966088
3.22073 -0.0236363 0.980019
3.21681 -0.0234706 0.991047
3.2169 -0.0233077 1.00205
3.21599 -0.0221295 1.01404
3.21516 -0.0217883 1.03704
3.21725 -0.0206122 1.04901
3.21948 -0.0201548 1.07999
3.22258 -0.0189647 1.09295
3.21574 -0.0186487 1.114
3.21479 -0.0185592 1.12001
3.21086 -0.0184082 1.13004
3.21898 -0.0171773 1.14596
3.21414 -0.015863 1.16698
3.22025 -0.0156453 1.18193
3.21935 -0.014467 1.19392
3.21738 -0.0143916 1.19894
3.21748 -0.0141991 1.21194
3.22058 -0.013009 1.2249
3.21165 -0.0138691 1.23398
3.21274 -0.0126923 1.24595
3.21393 -0.0113231 1.27093
3.21096 -0.0112469 1.27595
3.21508 -0.0110278 1.29092
3.21417 -0.00984953 1.30291
3.21627 -0.00965855 1.31589
3.21134 -0.00950688 1.32593
3.21345 -0.00830122 1.3399
3.21555 -0.00809544 1.35388
3.20958 -0.00804666 1.35692
3.21469 -0.00682838 1.37187
3.21177 -0.00666337 1.38289
3.2189 -0.00541693 1.39982
3.20996 -0.00529196 1.40789
3.2191 -0.00403218 1.4258
3.20815 -0.00492044 1.4329
3.22125 -0.00373758 1.44578
3.22446 -0.00132551 1.47373
3.21753 -0.00218708 1.48279
3.21663 -0.000994036 1.49579
3.20769 -0.000869063 1.50385
3.20778 -0.00067663 1.51685
3.21688 0.000494338 1.52877
3.20794 0.000619311 1.53683
3.21406 0.00186647 1.55377
3.21416 0.00205891 1.56677
3.21527 0.00326531 1.58074
3.21637 0.00347181 1.59474
3.21146 0.00363828 1.60577
3.21051 0.00374262 1.61278
3.21463 0.00497644 1.62873
3.20871 0.00512883 1.63877
3.21283 0.00636265 1.65473
3.21594 0.0075824 1.66969
3.21504 0.00777556 1.68269
3.21213 0.00795537 1.69471
3.2142 0.00908702 1.70368
3.2133 0.00928019 1.71669
3.21039 0.0104599 1.7287
3.21551 0.0107079 1.74566
3.21764 0.0119432 1.76162
3.2077 0.0120689 1.7697
3.21182 0.0133027 1.78565
3.21712 0.014891 1.82559
3.2122 0.0160574 1.83661
3.20729 0.0162239 1.84765
3.21041 0.0174584 1.86361
3.21052 0.0176804 1.87861
3.20857 0.0177707 1.88462
3.20466 0.0189511 1.89664
3.2118 0.0202272 1.91557
3.20589 0.0204092 1.92761
3.21203 0.021686 1.94655
3.20712 0.0218524 1.95758
3.2022 0.0220189 1.96862
3.21131 0.0232195 1.98253
3.2035 0.0245952 2.00758
3.21065 0.0258861 2.02751
3.21076 0.027108 2.04249
3.20787 0.0273174 2.05651
3.21418 0.0299345 2.09843
3.21129 0.030144 2.11245
3.21342 0.031394 2.12942
3.20248 0.0315205 2.1375
3.2026 0.0327572 2.15348
3.20473 0.0340073 2.17045
3.21183 0.0342094 2.1844
3.21095 0.0354321 2.19939
3.20804 0.0356267 2.21241
3.20717 0.036879 2.2294
3.21031 0.0381431 2.24736
3.20439 0.0383103 2.2584
3.21779 0.0471303 2.04414
3.21695 0.0484566 2.06613
3.2078 0.0541213 2.17813
3.20503 0.0555675 2.20813
3.23163 -0.00373245 0.433567
3.22671 -0.00358078 0.443603
3.23588 -0.00224699 0.466517
3.23596 -0.00208417 0.477516
3.23705 -0.000922176 0.488492
3.22912 -0.00178302 0.497566
3.22615 -0.00172163 0.501588
3.23925 -0.000523965 0.515473
3.23433 -0.0003723 0.525509
3.22939 -0.000235437 0.534546
3.23849 0.000950335 0.547461
3.23257 0.00110273 0.557505
3.23461 0.00119009 0.563489
3.2377 0.00235062 0.57445
3.23377 0.00150167 0.584494
3.23085 0.00165188 0.594515
3.23594 0.00282576 0.606461
3.23101 0.00297742 0.616497
3.22809 0.00312763 0.626518
3.23214 0.00322834 0.633487
3.22821 0.00336447 0.642516
3.23632 0.00456577 0.656439
3.23247 0.00487953 0.677467
3.22353 0.00500451 0.685533
3.23063 0.00619173 0.698464
3.22667 0.00526876 0.703508
3.23277 0.00645672 0.716446
3.23385 0.00761871 0.727423
3.22491 0.00674379 0.735504
3.227 0.00791986 0.747472
3.23419 0.00928471 0.772401
3.22926 0.00942157 0.781438
3.22939 0.00967322 0.798436
3.22647 0.00983823 0.809457
3.22664 0.0111638 0.831439
3.23274 0.0113666 0.845392
3.23078 0.0114421 0.850406
3.22794 0.012755 0.871411
3.23012 0.0141087 0.895378
3.22833 0.0145247 0.923389
3.23344 0.0157281 0.937335
3.2316 0.0160552 0.959347
3.22266 0.0161802 0.967413
3.23209 0.0190172 1.02431
3.22616 0.0191548 1.03335
3.23035 0.0205218 1.0583
3.22843 0.021686 1.0693
3.22884 0.0234852 1.12328
3.22492 0.023651 1.13431
3.23003 0.0248544 1.14825
3.22707 0.0249306 1.15328
3.22662 0.0280117 1.22624
3.22384 0.0294431 1.25525
3.22494 0.0306347 1.26822
3.22738 0.0334915 1.32617
3.22374 0.0352049 1.37418
3.22502 0.0447205 1.54405
3.22469 0.0500234 1.63199
3.20938 0.0862274 2.25265
3.23183 0.0166354 0.458267
3.22899 0.0169484 0.479287
3.23208 0.0181238 0.491248
3.22414 0.0172481 0.499322
3.23433 0.0196107 0.524213
3.22335 0.0186484 0.526311
3.22552 0.0189874 0.549292
3.23061 0.0201613 0.561238
3.22468 0.0202989 0.570282
3.22175 0.0204491 0.580303
3.22684 0.0206231 0.592264
3.22593 0.0217865 0.603255
3.23399 0.022899 0.611179
3.22906 0.022036 0.62023
3.22513 0.0221869 0.630259
3.23324 0.0233882 0.644182
3.23432 0.0245502 0.655158
3.22843 0.0237619 0.669216
3.22852 0.0249395 0.6812
3.22158 0.0240779 0.690266
3.22668 0.0252518 0.702212
3.22877 0.0264278 0.714181
3.23386 0.0266166 0.727141
3.22893 0.0267535 0.736178
3.23098 0.0268557 0.743162
3.23508 0.0280303 0.755115
3.22814 0.0281686 0.764166
3.23425 0.0293713 0.778105
3.22129 0.0284697 0.784216
3.22138 0.0286474 0.796215
3.22051 0.0288849 0.81222
3.22861 0.0300862 0.826143
3.22678 0.031428 0.84914
3.23288 0.032616 0.862078
3.22896 0.0327669 0.872107
3.23506 0.0339697 0.886045
3.23511 0.0340585 0.892044
3.22918 0.0341961 0.901088
3.22726 0.0343604 0.912102
3.22434 0.0345106 0.922123
3.23345 0.0357259 0.937038
3.22552 0.035865 0.946097
3.2236 0.0360293 0.957111
3.23067 0.0371573 0.966042
3.22993 0.038676 1.00103
3.23311 0.040029 1.02499
3.22719 0.0401814 1.03503
3.22121 0.0392302 1.03809
3.22432 0.0404352 1.05205
3.22742 0.0416253 1.06501
3.23051 0.0418156 1.07799
3.2286 0.0429797 1.08899
3.2297 0.0431715 1.10198
3.22682 0.0434105 1.118
3.2239 0.0445754 1.12901
3.21998 0.0447263 1.13903
3.2261 0.0459587 1.15497
3.21323 0.0452347 1.17308
3.21935 0.0464523 1.18802
3.22751 0.0487719 1.20993
3.2266 0.0489502 1.22193
3.22369 0.0491152 1.23295
3.22497 0.0516768 1.27091
3.22932 0.0543546 1.31685
3.22449 0.0546987 1.33988
3.22459 0.055891 1.35286
3.22374 0.056173 1.37187
3.22082 0.0573379 1.38288
3.21901 0.0587093 1.40787
3.22629 0.0612516 1.44478
3.22639 0.0614441 1.45778
3.22648 0.0626364 1.47077
3.22458 0.0628155 1.48278
3.22167 0.0629953 1.4948
3.21976 0.0641743 1.5068
3.22488 0.0654074 1.52274
3.2183 0.0682412 1.57876
3.2154 0.0684358 1.59178
3.22153 0.069683 1.60872
3.22158 0.0697866 1.61572
3.22068 0.0709796 1.62871
3.20973 0.0700914 1.6358
3.22491 0.0724207 1.65866
3.21909 0.0737802 1.68269
3.21919 0.0749873 1.69667
3.21121 0.0740229 1.69874
3.21333 0.0752581 1.71471
3.22259 0.0777547 1.74861
3.21666 0.077907 1.75865
3.21677 0.0791142 1.77264
3.21683 0.0792326 1.78064
3.21191 0.080399 1.79166
3.21905 0.081675 1.81059
3.21414 0.0818414 1.82162
3.21727 0.0830908 1.83858
3.22039 0.0843253 1.85454
3.21346 0.0844785 1.8646
3.21754 0.0856235 1.87455
3.21174 0.0870126 1.90058
3.21296 0.0884558 1.93055
3.22012 0.0907614 1.95146
3.21828 0.0920736 1.97246
3.21538 0.0922682 1.98548
3.21549 0.0934901 2.00047
3.20757 0.093644 2.01052
3.21573 0.0949489 2.03145
3.21082 0.09613 2.04347
3.21194 0.097366 2.05944
3.20602 0.0975332 2.07049
3.21212 0.0987212 2.08342
3.21123 0.099929 2.09742
3.21638 0.101221 2.11736
3.21851 0.102471 2.13433
3.19952 0.101515 2.13649
3.21272 0.10389 2.16235
3.21101 0.106469 2.20133
3.21239 0.110208 2.25128
3.20245 0.109334 2.25936
3.23285 0.0366325 0.457963
3.22632 0.03857 0.520993
3.22831 0.0494771 0.784853
3.21937 0.0486022 0.792934
3.2185 0.0498545 0.809924
3.21993 0.0526973 0.866879
3.21823 0.0542759 0.905874
3.22333 0.0554794 0.91982
3.21963 0.0560596 0.958845
3.2208 0.0573992 0.981819
3.21697 0.0587277 1.00383
3.22007 0.0589179 1.01681
3.21536 0.0604988 1.05582
3.22156 0.062879 1.08175
3.21563 0.0630314 1.09179
3.22397 0.0656915 1.13669
3.22416 0.0670614 1.16168
3.21421 0.0661725 1.16876
3.22128 0.0673005 1.1777
3.21837 0.0684654 1.1887
3.21344 0.068617 1.19874
3.21664 0.0699996 1.2247
3.21587 0.0714591 1.25569
3.21095 0.0716108 1.26572
3.21706 0.0728283 1.28066
3.21515 0.0730074 1.29267
3.21342 0.0755415 1.32865
3.21458 0.0768367 1.34863
3.21066 0.0770025 1.35966
3.21898 0.0796181 1.40156
3.2121 0.0798601 1.41761
3.20928 0.0812174 1.44162
3.20847 0.0826029 1.46761
3.21072 0.0850897 1.50056
3.20982 0.0852829 1.51356
3.21103 0.0876816 1.54052
3.20747 0.0905428 1.59851
3.21159 0.0917766 1.61447
3.20968 0.0919557 1.62648
3.20889 0.0943707 1.65445
3.20915 0.0958739 1.68843
3.20824 0.0970669 1.70143
3.20655 0.0996751 1.74241
3.20661 0.0997787 1.7494
3.20571 0.100972 1.7624
3.2043 0.106127 1.84034
3.20452 0.107557 1.86932
3.20312 0.112742 1.94927
3.20625 0.113991 1.96623
3.20335 0.115186 1.97923
3.20447 0.116422 1.99521
3.20185 0.119178 2.04619
3.19942 0.12429 2.12115
3.20009 0.130592 2.20906
3.23674 0.0783733 0.440314
3.23883 0.0795346 0.451282
3.23702 0.0799209 0.477294
3.23719 0.0812465 0.499276
3.23835 0.0815566 0.520266
3.2307 0.083258 0.567304
3.22281 0.0824712 0.581378
3.23792 0.0846821 0.596233
3.235 0.0848323 0.606254
3.23007 0.084984 0.61629
3.23625 0.0863199 0.639227
3.23445 0.0877209 0.666224
3.22752 0.0868594 0.67529
3.23762 0.0890591 0.689183
3.22168 0.0871746 0.696332
3.23587 0.0905489 0.722179
3.22999 0.0907753 0.737222
3.22021 0.0912267 0.767293
3.23734 0.0934657 0.784133
3.22147 0.0927291 0.801266
3.22369 0.0941568 0.830232
3.23581 0.0963847 0.84611
3.22695 0.0956726 0.86519
3.22801 0.0967754 0.872167
3.22543 0.0996063 0.928152
3.22857 0.10087 0.946112
3.23175 0.102238 0.971071
3.2199 0.101528 0.990174
3.23302 0.103755 1.00604
3.22509 0.103895 1.0151
3.23416 0.105036 1.02502
3.23443 0.107554 1.05998
3.23452 0.107731 1.07198
3.23269 0.109073 1.09498
3.22375 0.108198 1.10306
3.22681 0.109314 1.11102
3.23092 0.110519 1.12498
3.23201 0.110696 1.13697
3.2321 0.111873 1.14895
3.22918 0.112038 1.15997
3.22426 0.11219 1.17001
3.22029 0.112252 1.17404
3.22167 0.114991 1.22399
3.22276 0.116168 1.23597
3.23189 0.117413 1.25288
3.22089 0.116436 1.25398
3.22801 0.118667 1.2699
3.2271 0.118846 1.2819
3.2304 0.12142 1.32085
3.22548 0.121572 1.33088
3.22653 0.122675 1.33786
3.2196 0.122813 1.34691
3.21998 0.125568 1.39787
3.22214 0.126877 1.41884
3.22224 0.12807 1.43182
3.22635 0.129289 1.44678
3.22163 0.13084 1.48379
3.21269 0.130965 1.49186
3.22178 0.132136 1.50378
3.22489 0.134341 1.51772
3.227 0.134546 1.53171
3.22609 0.135739 1.5447
3.21917 0.135893 1.55475
3.21425 0.136059 1.56578
3.22138 0.137305 1.58271
3.22545 0.138436 1.59167
3.21461 0.138754 1.61275
3.22274 0.141015 1.63066
3.22184 0.142208 1.64365
3.22596 0.143442 1.6596
3.22205 0.143622 1.67163
3.22512 0.144753 1.68059
3.21629 0.145085 1.70265
3.22374 0.149968 1.76253
3.21476 0.150004 1.7646
3.22201 0.152487 1.79751
3.21608 0.15264 1.80756
3.22424 0.15493 1.82747
3.21932 0.155096 1.8385
3.22144 0.156332 1.85447
3.22061 0.158658 1.87645
3.2177 0.158837 1.88847
3.22183 0.160101 1.90642
3.20988 0.160198 1.91251
3.22233 0.165077 1.97235
3.21039 0.16519 1.97944
3.21251 0.16644 1.99641
3.21676 0.168925 2.02934
3.21889 0.171175 2.0463
3.22031 0.174988 2.10124
3.21954 0.177448 2.13221
3.2167 0.178761 2.15322
3.21482 0.179984 2.16821
3.20601 0.18136 2.19326
3.2192 0.183736 2.21913
3.21241 0.18614 2.24615
3.24295 0.102751 0.46591
3.23302 0.101892 0.474998
3.23005 0.101953 0.479021
3.24316 0.103151 0.492906
3.23923 0.103302 0.502935
3.23832 0.103465 0.513941
3.2394 0.104627 0.524917
3.23747 0.104777 0.53493
3.23764 0.105102 0.556927
3.23066 0.105152 0.55998
3.23083 0.105478 0.581977
3.2279 0.105628 0.591998
3.22398 0.105779 0.602027
3.22715 0.107117 0.624986
3.22928 0.108367 0.641954
3.23037 0.108529 0.652945
3.23446 0.109719 0.665898
3.22661 0.110006 0.684956
3.22574 0.111258 0.701946
3.23985 0.11247 0.716824
3.23292 0.112608 0.725875
3.232 0.112771 0.736881
3.22106 0.111898 0.744978
3.2292 0.114173 0.763885
3.23731 0.115375 0.777808
3.22436 0.114488 0.78492
3.23448 0.116702 0.799813
3.22353 0.115814 0.80691
3.23465 0.118043 0.822795
3.2237 0.117154 0.829892
3.22976 0.118268 0.837831
3.22985 0.118446 0.849829
3.23212 0.120962 0.88478
3.22117 0.120074 0.891876
3.23229 0.121303 0.907776
3.22536 0.121441 0.916828
3.22348 0.121679 0.932841
3.22184 0.124376 0.97982
3.2279 0.12549 0.987758
3.21996 0.125615 0.995818
3.22205 0.125805 1.0088
3.23026 0.128199 1.03571
3.22433 0.128337 1.04475
3.22543 0.129528 1.05773
3.21744 0.128564 1.0598
3.21854 0.129755 1.07278
3.2157 0.130083 1.0948
3.21881 0.131288 1.10876
3.22392 0.132492 1.1227
3.21698 0.13263 1.13175
3.21904 0.133732 1.13872
3.22314 0.134936 1.15268
3.22333 0.136291 1.17666
3.2174 0.136444 1.1867
3.2206 0.137826 1.21266
3.22073 0.139093 1.23064
3.21581 0.139244 1.24068
3.2139 0.139423 1.25269
3.22403 0.141668 1.26959
3.2151 0.141807 1.27865
3.22628 0.144154 1.30254
3.21935 0.144293 1.31159
3.21241 0.144431 1.32064
3.21754 0.145664 1.33659
3.21763 0.146856 1.34957
3.21787 0.148315 1.38055
3.21897 0.149522 1.39453
3.21405 0.149673 1.40456
3.21415 0.150866 1.41755
3.21043 0.152416 1.45456
3.21761 0.154766 1.47847
3.21369 0.154932 1.4895
3.22584 0.158219 1.50936
3.2149 0.157331 1.51646
3.216 0.158537 1.53043
3.21209 0.158703 1.54146
3.21415 0.15982 1.54943
3.21525 0.161026 1.56341
3.21837 0.162246 1.57837
3.21245 0.162413 1.58941
3.20954 0.162593 1.60143
3.21968 0.164866 1.62032
3.21793 0.167356 1.65331
3.21212 0.16873 1.67833
3.22127 0.171005 1.69723
3.21244 0.171352 1.7203
3.20958 0.172635 1.7393
3.21683 0.176118 1.7722
3.21192 0.176285 1.78324
3.20599 0.176437 1.79328
3.21521 0.17986 1.82216
3.20929 0.180012 1.83221
3.20739 0.180206 1.84522
3.21565 0.183718 1.88011
3.21477 0.18494 1.8951
3.21286 0.186134 1.9081
3.20789 0.185197 1.91215
3.21404 0.187474 1.93108
3.21214 0.188682 1.94507
3.21125 0.18989 1.95906
3.22042 0.192209 1.98096
3.20858 0.192529 2.00205
3.2187 0.194758 2.01794
3.21378 0.194925 2.02898
3.22195 0.198244 2.05087
3.20698 0.196314 2.05502
3.20733 0.20101 2.10195
3.20337 0.201087 2.10698
3.20852 0.202379 2.12692
3.20261 0.202546 2.13797
3.20876 0.204852 2.15889
3.21203 0.208368 2.19382
3.20505 0.208403 2.19587
3.2102 0.209695 2.21581
3.21737 0.21303 2.23871
3.20945 0.213184 2.24877
3.21875 0.216769 2.28866
3.23401 0.134753 0.735541
3.2401 0.135941 0.748479
3.2343 0.13633 0.77452
3.23556 0.137832 0.808493
3.22862 0.137971 0.817545
3.23472 0.139159 0.830483
3.23285 0.140412 0.847481
3.23494 0.140588 0.859464
3.22701 0.140727 0.868523
3.22609 0.14089 0.879529
3.23521 0.143106 0.89443
3.23324 0.143181 0.899444
3.22731 0.142319 0.908503
3.2264 0.143482 0.919494
3.22749 0.143659 0.931485
3.22356 0.14381 0.941514
3.23076 0.14619 0.967428
3.2288 0.146265 0.972442
3.2349 0.147468 0.98638
3.23599 0.148645 0.998356
3.23007 0.148797 1.0084
3.23517 0.149986 1.02135
3.23325 0.15015 1.03236
3.23439 0.151431 1.05133
3.23548 0.152607 1.06331
3.22755 0.151746 1.07238
3.23466 0.153948 1.0863
3.22873 0.154101 1.09634
3.21979 0.153226 1.10443
3.23192 0.155469 1.1213
3.21701 0.154657 1.13343
3.22632 0.158242 1.17331
3.23343 0.159459 1.18824
3.22755 0.1607 1.20427
3.23066 0.161905 1.21823
3.23075 0.162083 1.23023
3.22893 0.16344 1.25423
3.21908 0.163743 1.2743
3.22132 0.166215 1.30625
3.23055 0.169652 1.33613
3.22572 0.169996 1.35917
3.22185 0.171251 1.37618
3.22526 0.175047 1.43011
3.2264 0.176328 1.44908
3.22952 0.177548 1.46404
3.22369 0.178892 1.48707
3.22902 0.182525 1.52998
3.22816 0.183807 1.54897
3.22424 0.183972 1.56
3.22535 0.185179 1.57397
3.22555 0.187578 1.60094
3.22065 0.18776 1.61298
3.22381 0.190083 1.63492
3.22693 0.191303 1.64988
3.22233 0.19509 1.70287
3.2265 0.196428 1.72582
3.2256 0.197621 1.73881
3.22069 0.197802 1.75085
3.22503 0.202465 1.79575
3.22508 0.202569 1.80275
3.22519 0.203776 1.81673
3.2233 0.204984 1.83073
3.21838 0.205151 1.84177
3.22061 0.207593 1.87172
3.22374 0.208842 1.88868
3.21787 0.210113 1.90671
3.22402 0.21239 1.92563
3.22413 0.213612 1.94061
3.21721 0.213765 1.95067
