-2.154 1.71686 3.27527
-2.16802 1.71882 3.27234
-2.17612 1.71564 3.25945
-2.18411 1.71867 3.26147
-2.19418 1.71754 3.25256
-2.20128 1.71336 3.23967
-2.2153 1.71632 3.23673
-2.22636 1.71521 3.22883
-2.23741 1.71512 3.22191
-2.24649 1.71298 3.21201
-2.25547 1.71701 3.21402
-2.26454 1.71487 3.20412
-2.27066 1.71065 3.18923
-2.5408 1.72257 3.03706
-2.52604 1.70711 3.00718
-2.55095 1.71829 3.0182
-2.54815 1.70791 2.99233
-2.55722 1.70678 2.98341
-2.56629 1.70564 2.9735
-2.57635 1.70553 2.96557
-2.59433 1.71157 2.96762
-2.58947 1.70432 2.95069
-2.6035 1.70627 2.94676
-2.61652 1.70922 2.94282
-2.6256 1.70808 2.9329
-2.63864 1.70901 2.92799
-2.64374 1.70581 2.91407
-2.65274 1.70881 2.91409
-2.66379 1.70872 2.90718
-2.67287 1.70858 2.89725
-2.67798 1.70437 2.88335
-2.69794 1.71245 2.88738
-2.70405 1.70824 2.87348
-2.7151 1.70915 2.86655
-2.71715 1.70805 2.85958
-2.73317 1.71203 2.85764
-2.7472 1.71396 2.85272
-2.75429 1.71281 2.84179
-2.76633 1.71373 2.83587
-2.77541 1.71259 2.82595
-2.79142 1.71657 2.82401
-2.78852 1.71237 2.81105
-2.79759 1.71123 2.80113
-2.80964 1.71215 2.79521
-2.82367 1.7161 2.79126
-2.83472 1.71601 2.78434
-2.84478 1.71588 2.77542
-2.84791 1.71165 2.7595
-2.8749 1.71966 2.75959
-2.88298 1.71951 2.74865
-2.89404 1.7194 2.74073
-2.90311 1.71927 2.7318
-2.90425 1.71401 2.71388
-2.91828 1.71696 2.70995
-2.94245 1.71663 2.68713
-2.97066 1.71624 2.65934
-3.99952 1.69067 0.957239
-3.9918 1.68211 0.920302
-4.00088 1.68496 0.909327
-3.994 1.67973 0.89435
-3.99011 1.67551 0.879382
-3.99221 1.67532 0.866398
-3.98528 1.67118 0.857406
-3.99935 1.67505 0.848454
-4.01362 1.67652 0.811534
2.66485 1.68446 2.84138
1.61109 1.71545 3.53996
1.59812 1.71451 3.54307
1.5443 1.7159 3.56746
1.53235 1.716 3.57355
1.50434 1.71201 3.57282
1.49443 1.71519 3.58485
1.4845 1.71733 3.59389
1.47852 1.71738 3.59694
1.45153 1.71443 3.59918
1.43856 1.7145 3.60328
1.42763 1.71662 3.61133
1.41667 1.71672 3.61742
1.40472 1.71782 3.62349
1.39773 1.71684 3.62456
1.38372 1.71483 3.62369
1.37075 1.7149 3.62779
1.34478 1.713 3.63301
1.33179 1.71202 3.63413
-1.39129 1.70872 3.50067
-1.41017 1.71896 3.51567
-1.4103 1.71171 3.49877
-1.42234 1.71164 3.49386
-1.43829 1.71674 3.49991
-1.44445 1.70845 3.48007
-1.45549 1.70837 3.47416
-1.47145 1.71345 3.4792
-1.47955 1.70827 3.46634
-1.48557 1.70824 3.46439
-1.50154 1.7133 3.46743
-1.50867 1.70707 3.45157
-1.52069 1.70803 3.44865
-1.53861 1.71519 3.45868
-1.5558 1.70784 3.43392
-1.56771 1.71401 3.44492
-1.57386 1.70773 3.42605
-1.58786 1.70974 3.42613
-1.60479 1.71688 3.43515
-1.60897 1.70753 3.41132
-1.62197 1.70954 3.41139
-1.6399 1.71667 3.41942
-1.64101 1.71047 3.40552
-1.65108 1.70834 3.39662
-1.669 1.7165 3.40664
-1.67907 1.71438 3.39774
-1.69012 1.71328 3.39084
-1.70707 1.71938 3.39688
-1.71321 1.71313 3.38002
-1.71922 1.71311 3.37806
-1.73815 1.72126 3.38708
-1.74033 1.7119 3.36324
-1.75335 1.71288 3.36132
-1.77227 1.72103 3.37034
-1.77643 1.71274 3.35049
-1.78945 1.7147 3.34756
-1.79843 1.71674 3.3496
-1.80653 1.71357 3.33771
-1.81954 1.71555 3.33578
-1.83354 1.71856 3.33584
-1.84165 1.71435 3.32196
-1.85466 1.71633 3.32003
-1.8726 1.72245 3.32707
-1.86679 1.71109 3.30319
-1.87883 1.71101 3.29728
-1.89481 1.71607 3.30033
-2.23713 1.72368 3.12477
-2.25222 1.72251 3.1129
-2.27434 1.72231 3.09807
-2.28142 1.72015 3.08715
-2.29149 1.71902 3.07824
-2.29759 1.71584 3.06534
-2.30558 1.71786 3.06637
-2.64656 1.7142 2.80495
-2.64968 1.70896 2.78905
-2.67179 1.71077 2.77519
-2.68977 1.7168 2.77624
-2.69891 1.71354 2.75835
-2.71394 1.71649 2.75442
-2.73009 1.7142 2.73457
-2.74312 1.71715 2.73063
-2.75722 1.71697 2.71773
-2.76332 1.71378 2.70482
-2.7884 1.71764 2.69395
-2.79746 1.71751 2.68502
-2.81361 1.71623 2.66516
-2.83579 1.71489 2.64135
-2.89014 1.71625 2.59573
-3.89807 1.68353 0.88457
-3.91328 1.68611 0.855642
-3.91338 1.68392 0.842674
-3.9066 1.67648 0.813729
-3.91668 1.68034 0.803746
-3.92376 1.68118 0.792786
-3.91483 1.67604 0.783793
-3.91793 1.67585 0.770818
-3.93399 1.68173 0.76185
-3.92611 1.6765 0.746866
-3.92321 1.6733 0.73289
-3.95025 1.68423 0.726931
-3.92736 1.67302 0.713923
-3.93943 1.67688 0.703955
-3.94951 1.67972 0.692988
-3.92965 1.66846 0.676002
-3.93673 1.67028 0.664027
-3.96278 1.6812 0.657061
-3.94791 1.67294 0.640069
-3.94701 1.67074 0.627093
-3.96103 1.67671 0.624109
-3.95515 1.67248 0.609126
-3.95225 1.66929 0.596149
-3.96033 1.67213 0.585167
-3.96343 1.67194 0.572191
-3.96952 1.67277 0.560223
-3.9756 1.67461 0.54924
-3.96268 1.66745 0.539247
-3.96596 1.66489 0.501305
-3.97005 1.66572 0.489322
-3.96915 1.66352 0.476345
-3.98367 1.66351 0.407445
-3.9909 1.66406 0.376488
-3.99119 1.6605 0.338537
-4.00371 1.66048 0.269622
-4.04102 1.66492 0.0948136
-4.02613 1.6577 0.0808063
-4.02833 1.65732 0.0548249
-4.04555 1.66389 0.0248533
-4.03428 1.65346 -0.0710905
2.80775 1.67724 2.56237
2.79679 1.67533 2.56849
2.78686 1.67547 2.57756
2.78195 1.67765 2.58957
2.77907 1.68289 2.60551
2.76509 1.67895 2.60868
2.77122 1.68718 2.62451
2.75522 1.68221 2.62571
2.74932 1.6844 2.63872
2.73938 1.68351 2.64581
2.7264 1.68158 2.64994
2.7195 1.68377 2.66196
2.71762 1.689 2.6779
2.71367 1.6891 2.68392
2.69867 1.68512 2.6851
2.69781 1.69139 2.70301
2.68182 1.68743 2.70519
2.67288 1.68755 2.71326
2.652 1.68679 2.72843
2.64602 1.68584 2.73149
2.65021 1.69519 2.75532
2.63623 1.69326 2.75946
2.62932 1.69543 2.77048
2.61146 1.69571 2.78861
2.60649 1.69577 2.79265
2.59064 1.69908 2.81272
2.5807 1.6992 2.8208
2.55677 1.69637 2.83102
2.49317 1.6972 2.88449
2.47119 1.69226 2.88773
2.47136 1.70057 2.90861
-1.36164 1.726 3.45319
-1.36778 1.71773 3.43435
-1.37981 1.71869 3.43143
-1.39281 1.72069 3.4305
-1.40289 1.71755 3.42062
-1.4149 1.71852 3.41869
-1.42889 1.72156 3.42075
-1.42903 1.7143 3.40286
-1.43811 1.71014 3.39199
-1.45602 1.71832 3.403
-1.4651 1.71618 3.3931
-1.47714 1.71611 3.38819
-1.49308 1.72123 3.39524
-1.5002 1.71599 3.37937
-1.50917 1.71906 3.38339
-1.52315 1.7221 3.38545
-1.52929 1.71584 3.36759
-1.54035 1.71474 3.36069
-1.55237 1.71571 3.35776
-1.5644 1.71566 3.35385
-1.57543 1.71559 3.34894
-1.58832 1.72481 3.3629
-1.59348 1.71651 3.34306
-1.61141 1.72366 3.35209
-1.62047 1.72153 3.34319
-1.63447 1.72454 3.34325
-1.64651 1.72448 3.33834
-2.55174 1.71877 2.78017
-3.86034 1.685 0.715241
-3.8739 1.68191 0.641378
-3.88302 1.68367 0.624419
-3.88312 1.68147 0.61145
-3.88521 1.6813 0.599467
-3.88831 1.68111 0.586491
-3.88042 1.67589 0.572507
-3.89349 1.68076 0.562532
-3.89354 1.68065 0.555533
-3.89663 1.68048 0.543557
-3.89573 1.67828 0.530581
-3.90181 1.68012 0.519598
-3.90391 1.67993 0.506615
-3.89901 1.67574 0.493639
-3.9041 1.67656 0.481663
-3.89916 1.67446 0.474656
-3.90924 1.6773 0.463688
-3.90634 1.67409 0.449712
-3.90843 1.67392 0.437729
-3.92151 1.67878 0.427754
-3.91661 1.67557 0.413763
-3.91371 1.67337 0.400772
-3.91381 1.67218 0.387788
-3.91985 1.67411 0.382804
-3.91895 1.67292 0.369813
-3.91904 1.67174 0.35783
-3.91914 1.67055 0.344846
-3.92522 1.67237 0.332864
-3.92532 1.6712 0.32088
-3.93041 1.67202 0.308905
-3.92047 1.6669 0.300905
-3.92256 1.66672 0.288921
-3.92865 1.66855 0.276938
-3.93174 1.66937 0.264948
-3.93184 1.66818 0.251964
-3.93893 1.67101 0.239974
-3.94601 1.67285 0.228999
-3.94106 1.67074 0.221992
-3.94116 1.66955 0.209008
-3.94325 1.66937 0.197025
-3.94035 1.66718 0.184034
-3.93645 1.66398 0.17105
-3.93655 1.66379 0.158052
-3.93964 1.66362 0.146076
-3.95267 1.66955 0.141086
-3.95076 1.66837 0.129087
-3.95386 1.66918 0.116097
-3.96094 1.67102 0.105121
-3.95305 1.66681 0.0911223
-3.95614 1.66763 0.0791317
-3.95723 1.66746 0.0671409
-3.95628 1.66635 0.0601491
-3.96636 1.6702 0.0491666
-3.96746 1.67001 0.036176
-3.96056 1.66681 0.0231695
-3.96165 1.66663 0.0111787
-3.96675 1.66744 -0.00179671
-3.95985 1.66425 -0.0148031
-3.95689 1.66215 -0.0207953
-3.96498 1.66598 -0.0327927
-3.97107 1.66781 -0.0447755
-3.96317 1.66361 -0.0577747
-3.97126 1.66644 -0.0697572
-3.96436 1.66324 -0.0827637
-3.96545 1.66307 -0.0947545
-3.9635 1.66196 -0.101754
-3.9556 1.65776 -0.114753
-3.96869 1.66359 -0.126742
-3.96378 1.66041 -0.138734
-3.96588 1.66122 -0.151732
-3.97197 1.66405 -0.163729
-3.97206 1.66387 -0.175728
-3.96316 1.65867 -0.18872
-3.95122 1.65356 -0.195735
-3.9583 1.65639 -0.207725
-3.9574 1.65521 -0.219716
-3.96449 1.65802 -0.232706
-3.95758 1.65484 -0.244713
-3.95968 1.65565 -0.257711
-3.96477 1.65747 -0.269701
2.6807 1.67624 2.55735
2.66781 1.67746 2.57143
2.66493 1.68168 2.58639
2.641 1.67785 2.59663
2.63307 1.679 2.60667
2.62312 1.6781 2.61276
2.61319 1.67824 2.62183
2.61628 1.68341 2.63374
2.60432 1.68149 2.63885
2.59336 1.68059 2.64495
2.58947 1.6848 2.65892
2.57045 1.67779 2.65717
2.56858 1.68302 2.67311
2.56778 1.69242 2.69998
3.33825 -0.598139 15.4748
2.9266 -0.623504 16.9865
2.84213 -0.629451 17.3243
2.80193 -0.630852 17.4306
2.76389 -0.632943 17.558
2.63777 -0.642193 18.0761
2.5967 -0.644342 18.1995
2.55781 -0.646121 18.3478
2.51478 -0.649194 18.4762
2.47496 -0.65184 18.6336
2.37612 -0.658532 19.0555
1.39928 -0.723336 22.6753
1.33991 -0.727094 22.8918
1.27625 -0.730396 23.0714
3.5086 -0.489561 14.8449
3.48134 -0.49009 14.9431
3.44995 -0.490867 15.0244
3.42168 -0.492395 15.1226
3.4143 -0.493175 15.2047
3.32865 -0.496492 15.5174
2.9479 -0.511042 16.8827
2.91279 -0.512269 17.001
2.82726 -0.515334 17.3307
2.79232 -0.51722 17.472
2.71721 -0.520463 17.7227
2.58707 -0.52577 18.2368
2.5471 -0.527697 18.3752
2.50825 -0.529418 18.5275
2.46625 -0.530417 18.6608
2.42645 -0.532018 18.8212
1.27364 -0.582833 23.1082
1.21123 -0.585662 23.3198
1.1479 -0.588313 23.5433
1.01969 -0.59377 24.0474
2.91609 -0.429792 17.0327
2.87893 -0.430106 17.145
2.8408 -0.431375 17.2604
2.79463 -0.432728 17.5048
2.75551 -0.433966 17.6221
2.7175 -0.433999 17.7534
2.67744 -0.435118 17.8787
2.63948 -0.436047 18.0171
2.4657 -0.440656 18.7115
2.42487 -0.442316 18.8679
2.38095 -0.443152 19.0122
1.34755 -0.470135 22.82
1.28613 -0.471994 23.0295
1.25838 -0.472516 23.1957
1.19497 -0.474345 23.4072
1.13187 -0.476552 23.6608
1.06541 -0.477482 23.8653
3.58452 -0.298961 14.5494
3.55514 -0.298711 14.6327
3.52041 -0.298197 14.8009
3.49211 -0.2978 14.8942
3.46488 -0.298269 14.9964
3.43455 -0.297929 15.0856
3.40423 -0.297559 15.1769
3.37808 -0.297882 15.2891
2.96581 -0.296508 16.8504
2.92756 -0.296014 16.9497
2.52597 -0.295285 18.4679
2.48401 -0.295211 18.6062
2.44416 -0.295916 18.7596
2.40123 -0.295782 18.9019
2.36047 -0.295324 19.0662
2.31555 -0.295158 19.2106
1.32922 -0.295044 22.8915
1.17556 -0.294402 23.4687
1.11349 -0.294551 23.7262
3.33276 -0.214644 15.5052
2.95426 -0.20674 16.9011
2.91601 -0.206231 17.0014
2.82952 -0.204236 17.3351
2.79349 -0.2043 17.4644
2.75335 -0.203582 17.5787
2.62728 -0.200775 18.1007
2.58837 -0.199614 18.245
2.54844 -0.199467 18.3883
2.50648 -0.198393 18.5266
2.4645 -0.197363 18.6619
2.42371 -0.196964 18.8223
1.77408 -0.184372 21.2663
1.26127 -0.174113 23.1533
1.19889 -0.172899 23.3678
1.13569 -0.172313 23.6073
3.52436 -0.111547 14.7761
3.49915 -0.109973 14.8813
3.46878 -0.108707 14.9655
3.43847 -0.107338 15.0568
3.36841 -0.104481 15.3143
3.34435 -0.102613 15.4395
3.31515 -0.102022 15.5457
2.93246 -0.0855 16.9155
2.77587 -0.0787083 17.5027
2.53183 -0.0668626 18.4275
2.49089 -0.0657596 18.5678
2.45108 -0.0633909 18.7261
2.40811 -0.0623456 18.8624
2.37157 -0.0594463 19.0566
2.32449 -0.0586053 19.179
1.91224 -0.0392191 20.741
1.7573 -0.0331394 21.2802
1.34115 -0.0145577 22.8553
1.1253 -0.004317 23.6729
2.92315 -0.00122878 17.0003
2.88704 0.000530057 17.1176
2.80066 0.00574612 17.4662
2.76256 0.00853589 17.5855
2.72349 0.0103857 17.7088
2.68445 0.0122948 17.8361
2.64649 0.0143807 17.9753
2.55342 0.0211939 18.364
2.5136 0.0235329 18.5203
2.47162 0.0255773 18.6566
2.42975 0.0278142 18.8059
2.38789 0.0310954 18.9582
2.30013 0.0355425 19.2548
1.2981 0.0971942 22.971
1.27028 0.0995245 23.1271
1.20693 0.102814 23.3466
1.14357 0.107073 23.5641
3.52531 0.0601377 14.7536
3.49597 0.0614474 14.8408
3.46974 0.0639768 14.943
3.31503 0.0765147 15.513
2.37232 0.154789 19.0035
1.91602 0.193042 20.6896
1.2565 0.24877 23.142
1.19417 0.254102 23.3645
3.52632 0.155023 14.7452
3.49594 0.157274 14.8284
3.34224 0.172811 15.3984
3.55374 0.259733 14.6584
3.52541 0.263071 14.7476
3.49814 0.265512 14.8438
3.43522 0.27563 15.1191
3.40493 0.279043 15.2133
3.37568 0.281545 15.3135
3.34747 0.285106 15.4177
3.31828 0.289726 15.5259
3.30574 0.291624 15.5859
2.89023 0.344446 17.1095
2.85098 0.346955 17.2098
2.68961 0.369134 17.8227
2.65167 0.373249 17.964
2.61269 0.378276 18.0992
2.43792 0.402649 18.7923
2.39607 0.40793 18.9445
1.96693 0.463487 20.5172
1.91619 0.468997 20.6845
1.86654 0.475683 20.8638
1.74038 0.493296 21.3725
1.68566 0.499853 21.5429
1.31813 0.548642 22.9311
1.25561 0.555589 23.1275
1.10136 0.578014 23.7574
3.34644 0.367935 15.4055
2.88941 0.434688 17.1252
2.85546 0.440771 17.2643
2.81316 0.444164 17.3566
2.77818 0.449203 17.4928
2.6879 0.463584 17.8524
2.60994 0.474638 18.1228
2.57213 0.481004 18.281
2.53006 0.485856 18.4043
2.49021 0.492136 18.5565
2.47406 0.49682 18.6696
2.38715 0.50797 18.9461
2.34427 0.513192 19.0944
1.95634 0.572164 20.5616
1.90665 0.579762 20.7349
1.72676 0.606901 21.412
1.671 0.61337 21.5763
1.36112 0.662465 22.7851
1.29967 0.670545 22.9905
1.07991 0.703934 23.8177
3.51297 0.43595 14.8051
3.44796 0.447891 15.0685
3.41972 0.452392 15.1686
3.36224 0.461424 15.371
2.90689 0.536524 17.0465
2.87079 0.542312 17.1657
2.83367 0.547056 17.2819
2.79765 0.552992 17.4111
2.63339 0.581409 18.04
2.59341 0.587422 18.1743
2.5545 0.594597 18.3195
2.51353 0.60064 18.4557
1.94073 0.698784 20.6019
1.89 0.706308 20.7702
1.28493 0.809881 23.0115
1.22363 0.821257 23.2368
1.16149 0.831959 23.4842
3.32494 0.570669 15.4526
2.91444 0.648484 16.9758
2.83004 0.665638 17.3202
2.79299 0.672516 17.4454
2.75389 0.678306 17.5646
2.62786 0.70617 18.0902
2.58784 0.712124 18.2205
2.54585 0.719123 18.3537
2.50594 0.727284 18.4979
2.46508 0.734534 18.6481
2.35997 0.754281 19.0317
2.13808 0.796389 19.8398
2.02469 0.821548 20.3184
1.97714 0.83141 20.5096
1.92525 0.839624 20.6569
1.87465 0.849399 20.8422
1.69493 0.885863 21.5411
1.64047 0.896923 21.7454
1.58277 0.905511 21.9177
1.52626 0.916454 22.114
1.38465 0.947158 22.6957
1.32323 0.958297 22.905
1.26075 0.968318 23.1064
1.19953 0.980841 23.3417
0.905027 1.04068 24.4662
0.833782 1.05317 24.6985
3.45293 0.64357 15.0455
3.42261 0.648909 15.1347
3.35157 0.66381 15.3951
3.22969 0.685998 15.8077
3.22239 0.69138 15.9007
3.16007 0.704711 16.123
3.12688 0.710319 16.2302
3.09369 0.715913 16.3363
3.05849 0.722507 16.4425
2.98305 0.741566 16.7809
2.94795 0.748353 16.9
2.91179 0.755023 17.0112
2.87672 0.761869 17.1344
2.79237 0.782126 17.4858
2.75432 0.789005 17.611
2.71627 0.795883 17.7362
2.67832 0.803968 17.8754
2.6393 0.810921 18.0056
2.60032 0.818948 18.1408
2.46542 0.850055 18.6824
2.42142 0.858041 18.8147
2.37852 0.866233 18.9609
2.27684 0.891791 19.3993
2.23202 0.901133 19.5555
2.18618 0.909446 19.7098
2.14048 0.919011 19.881
2.09263 0.92831 20.0343
2.047 0.939023 20.2155
1.77466 0.998202 21.2288
1.7221 1.00905 21.419
1.47516 1.06403 22.3522
1.41665 1.07499 22.5495
1.01305 1.16359 24.0585
3.53554 0.714718 14.7208
3.50828 0.720174 14.818
3.47893 0.725468 14.9041
3.45068 0.731954 15.0032
3.41299 0.742543 15.1764
3.38375 0.748059 15.2775
3.29302 0.766566 15.578
3.22125 0.78497 15.8723
3.18906 0.791578 15.9795
3.15479 0.797024 16.0757
3.12472 0.804881 16.1998
3.01503 0.832415 16.6363
2.97677 0.837908 16.7355
2.94374 0.845812 16.8626
2.78619 0.882631 17.4514
2.54221 0.941546 18.3804
2.45939 0.958854 18.6679
2.26875 1.00447 19.3767
2.22289 1.01374 19.5279
2.01905 1.06494 20.3428
1.97042 1.07665 20.5241
1.91861 1.08702 20.6813
1.86796 1.09869 20.8595
1.68836 1.14437 21.5733
1.63274 1.15611 21.7556
1.57618 1.16796 21.9459
1.51859 1.17976 22.1322
1.46119 1.19294 22.3444
1.25438 1.24618 23.1623
1.191 1.25939 23.3766
1.12673 1.27483 23.6059
1.06137 1.28909 23.8232
3.55381 0.80514 14.6143
3.10725 0.915785 16.2593
3.07615 0.923569 16.3784
3.04302 0.931281 16.4926
2.9666 0.955384 16.8338
2.92938 0.961936 16.937
2.89539 0.970929 17.0702
2.85718 0.978496 17.1744
2.73382 1.01071 17.6559
2.69681 1.01967 17.787
2.65884 1.02971 17.9232
2.5279 1.06674 18.4597
2.48698 1.07587 18.6019
2.44404 1.08598 18.7421
2.40211 1.09611 18.8843
2.25556 1.13691 19.4719
2.20864 1.14604 19.6141
2.16499 1.15872 19.7933
2.11713 1.16898 19.9435
2.07041 1.18151 20.1127
2.02266 1.19299 20.2779
1.97397 1.20459 20.4511
1.74838 1.26427 21.2981
1.69586 1.27821 21.4943
1.50551 1.33038 22.24
1.44703 1.3444 22.4413
1.38858 1.35947 22.6465
1.32813 1.37354 22.8508
1.26673 1.3887 23.0621
1.04827 1.44965 23.9269
0.981 1.46608 24.1552
0.912712 1.48147 24.3816
3.06378 1.01968 16.4521
3.03169 1.02849 16.5732
2.99654 1.03718 16.6854
2.9614 1.04487 16.7985
2.87898 1.06998 17.1398
2.84396 1.07992 17.269
2.80482 1.08762 17.3822
2.76884 1.09764 17.5173
2.6417 1.13527 18.0268
2.59961 1.14408 18.147
2.55964 1.15413 18.2842
2.47884 1.17548 18.5745
2.33512 1.21794 19.139
2.29128 1.22925 19.2932
2.24543 1.24052 19.4444
2.04142 1.30037 20.2362
1.99272 1.31294 20.4074
1.94192 1.32433 20.5666
1.8923 1.33804 20.7478
1.76724 1.37783 21.2682
1.71362 1.39157 21.4505
1.65793 1.40417 21.6237
1.60242 1.41912 21.8209
1.4053 1.47775 22.5977
1.34487 1.49386 22.8049
1.28345 1.509 23.0142
1.22114 1.52634 23.2374
0.996602 1.59112 24.0903
0.928315 1.60851 24.3166
3.55701 0.99528 14.6225
3.04422 1.1424 16.4994
2.97697 1.16086 16.7297
2.3166 1.3587 19.1891
2.27169 1.36988 19.3343
2.0239 1.44812 20.2851
1.97412 1.46054 20.4463
1.69501 1.54615 21.4883
1.64039 1.56189 21.6705
3.09591 1.21169 16.318
3.0638 1.22146 16.4361
3.03174 1.23131 16.5592
2.99656 1.24095 16.6684
2.9151 1.26896 17.0036
2.879 1.27874 17.1217
2.84191 1.28954 17.2419
2.80483 1.29936 17.363
2.75565 1.31995 17.6031
2.7155 1.32965 17.7163
2.67755 1.34072 17.8544
2.63752 1.35164 17.9826
2.59859 1.36376 18.1237
2.50569 1.39886 18.532
2.46482 1.41211 18.6821
2.42293 1.4243 18.8283
2.37792 1.43526 18.9585
2.27319 1.47273 19.3908
2.2284 1.48612 19.5499
2.18258 1.49944 19.7051
2.13583 1.51392 19.8702
2.08802 1.52728 20.0274
2.96659 1.36482 16.7928
3.25938 -0.246057 1.90035
3.24585 -0.206754 0.23164
3.25198 -0.206506 0.248593
3.25406 -0.206345 0.259576
3.25014 -0.206194 0.269605
3.26023 -0.206024 0.281528
3.24729 -0.205896 0.289625
3.25137 -0.205736 0.300593
3.2545 -0.205487 0.317568
3.25265 -0.205189 0.337581
3.24472 -0.205035 0.347639
3.2448 -0.204887 0.357638
3.24893 -0.204638 0.374606
3.247 -0.204489 0.384619
3.2571 -0.203304 0.397527
3.25117 -0.203166 0.406571
3.25426 -0.202991 0.418547
3.25146 -0.202604 0.444566
3.25254 -0.202442 0.455557
3.25061 -0.202292 0.465571
3.24569 -0.202141 0.475607
3.25779 -0.201957 0.488515
3.24284 -0.201842 0.495627
3.25094 -0.201656 0.508565
3.25298 -0.201568 0.514549
3.25507 -0.201407 0.525532
3.25014 -0.201255 0.535569
3.25523 -0.201081 0.547529
3.24546 -0.20063 0.5776
3.2425 -0.200554 0.582622
3.24358 -0.200392 0.593613
3.25268 -0.199206 0.606529
3.24483 -0.198904 0.626586
3.2419 -0.198754 0.636608
3.249 -0.198567 0.649553
3.25214 -0.198302 0.667528
3.2523 -0.197977 0.689525
3.24737 -0.19784 0.698561
3.25748 -0.197625 0.713484
3.24854 -0.1975 0.721551
3.2546 -0.197386 0.729504
3.24967 -0.197249 0.738541
3.25377 -0.19606 0.751494
3.24684 -0.196921 0.76056
3.25294 -0.195733 0.773499
3.25812 -0.195382 0.797458
3.24814 -0.19533 0.800533
3.25123 -0.195155 0.812508
3.25733 -0.194966 0.825461
3.25541 -0.194802 0.836475
3.25149 -0.194651 0.846504
3.25057 -0.194488 0.85751
3.24664 -0.194337 0.867538
3.2507 -0.194236 0.874507
3.24678 -0.19407 0.885536
3.25889 -0.192857 0.900429
3.24495 -0.193743 0.907548
3.26007 -0.192503 0.924418
3.24713 -0.19239 0.931515
3.25319 -0.192275 0.939469
3.24926 -0.192125 0.949497
3.26038 -0.191896 0.965412
3.24543 -0.191796 0.971524
3.25755 -0.191568 0.987432
3.24661 -0.191441 0.995513
3.25371 -0.191239 1.00946
3.26078 -0.190111 1.01839
3.25886 -0.189947 1.0294
3.2481 -0.18948 1.06048
3.2492 -0.189288 1.07347
3.25229 -0.189098 1.08645
3.25439 -0.188907 1.09943
3.25544 -0.188819 1.10542
3.25462 -0.188463 1.12943
3.24769 -0.188325 1.13848
3.24285 -0.187995 1.16051
3.24911 -0.186497 1.19445
3.25622 -0.18628 1.20939
3.26033 -0.186075 1.22336
3.2534 -0.185922 1.23341
3.24159 -0.185544 1.2585
3.2457 -0.185339 1.27247
3.24279 -0.185159 1.28449
3.2489 -0.183942 1.29943
3.24398 -0.18379 1.30946
3.25511 -0.183532 1.32738
3.24713 -0.183481 1.33044
3.24923 -0.18329 1.34342
3.24231 -0.183137 1.35347
3.25344 -0.182879 1.37139
3.24651 -0.182741 1.38044
3.25565 -0.181481 1.39835
3.24379 -0.181191 1.41744
3.24796 -0.180868 1.43941
3.24614 -0.180497 1.46442
3.24333 -0.180124 1.48944
3.24343 -0.179932 1.50244
3.2487 -0.178403 1.53838
3.24398 -0.177851 1.57541
3.24604 -0.177734 1.5834
3.25529 -0.176253 1.61631
3.24355 -0.175741 1.65039
3.24291 -0.174029 1.69838
3.24312 -0.173615 1.72638
3.24409 -0.170706 1.85534
3.24331 -0.169276 1.88433
3.24197 -0.189531 0.246417
3.25103 -0.189434 0.253348
3.24217 -0.189146 0.272413
3.24425 -0.188984 0.283397
3.24249 -0.188524 0.314407
3.24553 -0.188437 0.320384
3.24561 -0.188275 0.331382
3.2477 -0.187113 0.342351
3.25195 -0.186628 0.375316
3.24413 -0.186252 0.400373
3.2483 -0.185929 0.42234
3.24938 -0.185767 0.433331
3.24959 -0.185367 0.460327
3.24566 -0.185216 0.470356
3.25275 -0.185044 0.482302
3.24281 -0.184918 0.490376
3.2439 -0.184741 0.502367
3.24118 -0.184191 0.539384
3.24736 -0.182855 0.562321
3.24343 -0.182705 0.57235
3.25354 -0.182505 0.586272
3.24765 -0.182278 0.601316
3.25274 -0.182104 0.613276
3.24689 -0.181804 0.633319
3.24798 -0.181627 0.64531
3.24706 -0.181463 0.656316
3.25111 -0.180378 0.66227
3.24819 -0.180213 0.673291
3.24126 -0.181074 0.682357
3.25045 -0.179711 0.707271
3.24661 -0.179397 0.728298
3.25467 -0.179284 0.736237
3.24973 -0.179147 0.745273
3.24481 -0.178996 0.75531
3.25392 -0.17878 0.77024
3.24206 -0.178505 0.788328
3.25919 -0.177251 0.806182
3.24119 -0.178253 0.805333
3.24947 -0.176711 0.842253
3.25365 -0.176359 0.866219
3.25989 -0.174889 0.898155
3.24702 -0.174614 0.91625
3.24319 -0.174285 0.938277
3.24829 -0.174096 0.951238
3.25235 -0.173981 0.959207
3.24951 -0.173653 0.981226
3.25462 -0.173449 0.995187
3.24568 -0.173324 1.00325
3.24988 -0.171942 1.0292
3.25311 -0.171486 1.06018
3.24937 -0.17098 1.0942
3.24148 -0.170752 1.10926
3.24386 -0.169013 1.15922
3.24294 -0.16885 1.17023
3.24203 -0.168671 1.18224
3.2524 -0.166953 1.23114
3.25058 -0.166597 1.25515
3.24164 -0.166472 1.26322
3.2447 -0.166355 1.27119
3.25483 -0.166111 1.28812
3.25823 -0.164329 1.34107
3.24226 -0.164258 1.34519
3.25044 -0.163908 1.36913
3.2415 -0.163783 1.3772
3.24571 -0.162372 1.40515
3.24691 -0.161973 1.43214
3.25299 -0.161829 1.44209
3.24616 -0.161499 1.46414
3.24927 -0.160279 1.4791
3.24234 -0.160141 1.48815
3.24144 -0.159947 1.50116
3.2436 -0.159623 1.52314
3.24169 -0.159444 1.53515
3.24199 -0.157852 1.57513
3.25039 -0.156074 1.62805
3.24769 -0.155479 1.66807
3.24278 -0.155313 1.6791
3.25097 -0.153934 1.70502
3.25309 -0.153699 1.72101
3.24527 -0.153352 1.74406
3.24437 -0.153144 1.75807
3.25152 -0.151868 1.777
3.24453 -0.152833 1.77907
3.24174 -0.151432 1.80607
3.25592 -0.151087 1.82996
3.24598 -0.150961 1.83804
3.24419 -0.149545 1.86603
3.24536 -0.149205 1.88902
3.24849 -0.148956 1.906
3.24079 -0.147358 1.94604
3.24504 -0.146873 1.979
3.25314 -0.145686 1.99192
3.24521 -0.145532 2.00198
3.24444 -0.145087 2.03199
3.24198 -0.166578 0.378095
3.24523 -0.166092 0.411068
3.24643 -0.165708 0.437057
3.24391 -0.164758 0.501071
3.24345 -0.156768 0.838002
3.2413 -0.130322 1.74575
3.2499 -0.147734 0.232736
3.24505 -0.147434 0.252771
3.25715 -0.14725 0.265679
3.25418 -0.147189 0.269701
3.26027 -0.146016 0.28164
3.2505 -0.145564 0.311711
3.25666 -0.145243 0.333663
3.24773 -0.145103 0.342729
3.25779 -0.144992 0.350653
3.25995 -0.144683 0.371635
3.25602 -0.144532 0.381663
3.25623 -0.144132 0.40866
3.2503 -0.143994 0.417704
3.2447 -0.142206 0.470727
3.25175 -0.142107 0.477673
3.25291 -0.141782 0.499662
3.26 -0.14161 0.511608
3.25007 -0.141469 0.520682
3.24928 -0.141069 0.547686
3.24434 -0.140932 0.556722
3.24852 -0.139594 0.579674
3.24676 -0.139119 0.611685
3.25883 -0.138995 0.620593
3.24898 -0.138692 0.640666
3.25608 -0.137504 0.653597
3.25115 -0.137353 0.663633
3.24221 -0.138228 0.671714
3.25632 -0.137016 0.686592
3.25135 -0.136953 0.690629
3.25946 -0.136752 0.704567
3.25253 -0.136613 0.713618
3.2537 -0.135274 0.736593
3.25692 -0.134847 0.765566
3.24497 -0.134734 0.772656
3.25609 -0.134505 0.788571
3.24715 -0.13438 0.796637
3.25727 -0.133166 0.811545
3.25033 -0.134027 0.820611
3.24641 -0.133876 0.83064
3.25247 -0.132762 0.838579
3.25064 -0.132435 0.860591
3.25874 -0.132234 0.874529
3.25883 -0.131056 0.886512
3.24397 -0.131779 0.904638
3.25103 -0.130666 0.912569
3.25313 -0.130475 0.925552
3.25522 -0.130299 0.937535
3.25931 -0.130109 0.950504
3.26041 -0.128917 0.963479
3.24746 -0.129819 0.969591
3.25657 -0.128604 0.984507
3.25662 -0.128515 0.990506
3.2537 -0.12835 1.00153
3.25379 -0.128172 1.01353
3.25305 -0.126654 1.04851
3.25415 -0.126462 1.0615
3.25721 -0.12636 1.06848
3.25128 -0.126208 1.07852
3.24133 -0.126097 1.0856
3.25045 -0.125867 1.10153
3.25356 -0.124662 1.11549
3.25465 -0.124485 1.12748
3.25374 -0.124307 1.13949
3.25078 -0.12423 1.14451
3.24394 -0.123914 1.16556
3.25607 -0.122657 1.18345
3.24814 -0.122518 1.19251
3.24933 -0.122148 1.2175
3.24947 -0.121867 1.2365
3.25158 -0.120662 1.25046
3.25267 -0.120485 1.26245
3.25176 -0.120306 1.27446
3.25688 -0.120073 1.29042
3.24192 -0.119988 1.29553
3.24096 -0.119899 1.30154
3.25511 -0.118613 1.32142
3.25722 -0.118407 1.3354
3.25239 -0.118063 1.35843
3.24445 -0.117939 1.36649
3.25354 -0.116768 1.37841
3.24872 -0.116424 1.40144
3.25785 -0.115164 1.41936
3.25394 -0.114998 1.43039
3.25403 -0.114806 1.44338
3.25418 -0.11451 1.46338
3.25639 -0.113112 1.49035
3.25549 -0.112918 1.50335
3.25558 -0.112726 1.51635
3.25168 -0.112545 1.52838
3.2578 -0.111298 1.54532
3.25589 -0.111119 1.55733
3.25394 -0.111029 1.56335
3.24299 -0.110917 1.57043
3.24039 -0.109131 1.62343
3.25858 -0.107774 1.64827
3.24769 -0.107559 1.66236
3.24678 -0.107365 1.67536
3.25292 -0.106103 1.6933
3.26017 -0.10462 1.72623
3.25018 -0.105598 1.72732
3.24437 -0.104224 1.75234
3.24558 -0.103795 1.78133
3.25876 -0.102464 1.80422
3.25585 -0.102284 1.81624
3.24786 -0.102249 1.8183
3.25222 -0.100556 1.86525
3.25132 -0.100348 1.87925
3.24753 -0.0989459 1.90626
3.2406 -0.0987928 1.91631
3.24681 -0.0973976 1.94325
3.25597 -0.0970933 1.96418
3.25206 -0.095898 1.97719
3.25821 -0.0956212 1.99615
3.24165 -0.0937503 2.05425
3.24789 -0.127779 0.229456
3.24997 -0.127617 0.240439
3.24304 -0.127479 0.249491
3.25025 -0.127084 0.276434
3.24432 -0.126932 0.286478
3.24949 -0.12661 0.308437
3.24155 -0.126471 0.317496
3.25061 -0.125374 0.324413
3.24268 -0.126235 0.333487
3.24275 -0.126087 0.343485
3.25586 -0.124889 0.357371
3.25713 -0.124342 0.394358
3.26046 -0.122708 0.437315
3.24605 -0.121542 0.515417
3.25218 -0.120281 0.533354
3.24934 -0.119967 0.554374
3.24441 -0.119831 0.56341
3.24349 -0.119667 0.574416
3.24178 -0.119103 0.612426
3.24887 -0.117931 0.624357
3.24996 -0.117754 0.636348
3.2472 -0.117278 0.668366
3.24231 -0.117052 0.683402
3.2515 -0.115689 0.708316
3.24165 -0.1164 0.727403
3.2538 -0.115098 0.748295
3.24395 -0.11481 0.767368
3.25214 -0.113446 0.792289
3.24734 -0.113042 0.819323
3.24943 -0.112866 0.831306
3.2405 -0.112726 0.840373
3.24669 -0.111361 0.86531
3.25479 -0.111159 0.879247
3.2449 -0.110945 0.893321
3.24398 -0.110781 0.904327
3.25109 -0.109579 0.918257
3.24123 -0.109291 0.93733
3.24333 -0.1091 0.950313
3.24743 -0.10891 0.963281
3.24473 -0.107316 1.00328
3.2408 -0.107165 1.01331
3.24704 -0.106696 1.04526
3.24312 -0.106545 1.05529
3.25124 -0.105314 1.07121
3.24531 -0.105176 1.08026
3.24138 -0.105025 1.09029
3.24047 -0.104847 1.10229
3.2407 -0.103403 1.13227
3.25684 -0.102134 1.15114
3.2449 -0.103021 1.15824
3.25211 -0.101612 1.18617
3.24518 -0.101474 1.19522
3.24924 -0.101358 1.20319
3.25334 -0.100154 1.21714
3.24049 -0.0998631 1.23624
3.24258 -0.0996721 1.24922
3.24273 -0.0993908 1.26822
3.24884 -0.0981733 1.28316
3.24392 -0.0980216 1.29319
3.24201 -0.0978425 1.30521
3.2411 -0.0976642 1.31721
3.24531 -0.0962527 1.34516
3.24435 -0.0961632 1.35117
3.24344 -0.0959848 1.36317
3.24554 -0.094794 1.37614
3.24383 -0.09423 1.41415
3.24403 -0.0928453 1.44013
3.24809 -0.092715 1.4491
3.24819 -0.0925225 1.4621
3.24026 -0.0923835 1.47116
3.24237 -0.0911778 1.48513
3.24548 -0.090958 1.5001
3.24558 -0.0907655 1.5131
3.24874 -0.0894422 1.53506
3.24483 -0.0892764 1.54609
3.24091 -0.0891107 1.55712
3.24402 -0.0878909 1.57208
3.24122 -0.0875039 1.5981
3.24328 -0.0873869 1.60608
3.24078 -0.0843932 1.67307
3.2429 -0.0841726 1.68805
3.24496 -0.0840556 1.69603
3.24206 -0.0828611 1.70904
3.24147 -0.0810464 1.76402
3.24074 -0.0795277 1.79901
3.24084 -0.0793204 1.81301
3.2471 -0.0778216 1.84695
3.24117 -0.0776692 1.85699
3.24056 -0.0759137 1.90797
3.24569 -0.074651 1.92592
3.24905 -0.0729576 1.97288
3.24018 -0.0726994 1.98994
3.24431 -0.071436 2.00789
3.24417 -0.10826 0.2642
3.24146 -0.0857123 0.300891
3.24162 -0.0854015 0.321888
3.24201 -0.0727388 0.77176
3.24056 -0.0706569 0.84475
3.24735 -0.0571986 1.21355
3.24348 -0.0559441 1.23056
3.24026 -0.052402 1.33455
3.24601 -0.0429713 1.5664
3.25735 -0.0600391 0.549426
3.24682 -0.0590985 0.6125
3.25793 -0.0578994 0.6264
3.25701 -0.0577359 0.637406
3.25317 -0.0574221 0.658434
3.25526 -0.0572459 0.670417
3.25835 -0.0560706 0.682378
3.24645 -0.0568693 0.695481
3.25071 -0.0553542 0.730431
3.25681 -0.0541663 0.74337
3.25402 -0.0537496 0.771388
3.25327 -0.0522605 0.804377
3.24643 -0.0519446 0.825426
3.25859 -0.0506426 0.846318
3.25266 -0.0504902 0.856362
3.25375 -0.0503281 0.867353
3.24189 -0.0500381 0.886441
3.24599 -0.0498486 0.899409
3.25323 -0.0483801 0.931337
3.24438 -0.0480775 0.951402
3.25349 -0.0468621 0.966317
3.24957 -0.0467112 0.976346
3.25062 -0.0466083 0.983338
3.25071 -0.0454308 0.995321
3.2488 -0.0452665 1.00633
3.24989 -0.0450896 1.01833
3.25198 -0.0448986 1.03131
3.24204 -0.0447877 1.03838
3.24113 -0.0446094 1.05039
3.25421 -0.0434561 1.06127
3.25531 -0.0422645 1.07425
3.25339 -0.0421002 1.08526
3.25248 -0.0419219 1.09727
3.25357 -0.041745 1.10926
3.25066 -0.0405801 1.12027
3.24473 -0.0414276 1.13033
3.24979 -0.0403129 1.13827
3.25791 -0.039082 1.15419
3.24597 -0.0399695 1.1613
3.24706 -0.0387779 1.17427
3.25016 -0.0385877 1.18725
3.25126 -0.0373961 1.20023
3.25337 -0.0371903 1.21421
3.24739 -0.0371415 1.21725
3.2535 -0.035924 1.23219
3.25059 -0.035759 1.24321
3.2547 -0.0355398 1.25818
3.25379 -0.0343616 1.27017
3.25087 -0.0341966 1.28119
3.247 -0.033942 1.29822
3.24408 -0.033777 1.30924
3.24217 -0.0335979 1.32126
3.25532 -0.0323263 1.34014
3.25341 -0.0311473 1.35214
3.24448 -0.0320074 1.36122
3.25466 -0.0296596 1.38511
3.24773 -0.0295065 1.39516
3.24984 -0.0293007 1.40915
3.24994 -0.0291083 1.42214
3.24401 -0.0289559 1.43219
3.25731 -0.0263735 1.47206
3.24938 -0.0262344 1.48111
3.25651 -0.024988 1.49804
3.24255 -0.0259037 1.50316
3.24165 -0.0247106 1.51615
3.24677 -0.0234776 1.5321
3.24989 -0.0232429 1.54808
3.2419 -0.0232075 1.55014
3.25607 -0.0218921 1.57201
3.24713 -0.0217671 1.58008
3.24121 -0.0216148 1.59012
3.24935 -0.0203394 1.60904
3.24749 -0.0190568 1.62804
3.25161 -0.0188229 1.64401
3.25173 -0.017601 1.65899
3.24982 -0.0174219 1.67101
3.25696 -0.0161459 1.68994
3.24199 -0.0170756 1.69406
3.2431 -0.0158544 1.70904
3.24617 -0.0157234 1.71802
3.24226 -0.0155576 1.72904
3.24147 -0.0141426 1.75703
3.24158 -0.0129206 1.77202
3.24672 -0.0116579 1.78996
3.25487 -0.0103678 1.80988
3.249 -0.0101118 1.82693
3.24018 -0.00975 1.85099
3.24331 -0.00850065 1.86795
3.25045 -0.00722461 1.88688
3.24162 -0.00587771 1.90993
3.2447 -0.00573187 1.91991
3.2409 -0.0043294 1.94692
3.24202 -0.00409328 1.96291
3.24226 -0.00263452 1.99389
3.24533 -0.00148879 2.00385
3.24152 -0.0446428 0.305284
3.24072 -0.0442572 0.331287
3.2434 -0.0419117 0.422245
3.24029 -0.0381772 0.539229
3.24054 -0.0366888 0.57221
3.23999 -0.0348 0.632194
3.24371 -0.0313962 0.727129
3.2399 -0.0310084 0.753156
3.24439 -0.0280642 0.817087
3.24063 -0.0275728 0.850113
3.24189 -0.0260703 0.884086
3.24211 -0.0246412 0.913067
3.24137 -0.0231225 0.948055
3.24026 -0.0193893 1.06502
3.24035 -0.0182118 1.07701
3.23996 -0.00905809 1.2899
3.24206 -0.00885232 1.30389
3.24115 -0.00767407 1.31588
3.2447 -0.00461069 1.38782
3.24379 -0.00443233 1.39982
3.23987 -0.0042666 1.41085
3.24222 -0.00157255 1.4578
3.24378 0.00250697 1.53074
3.24132 0.00557472 1.60272
3.24444 0.00680926 1.61868
3.24264 0.00719558 1.64469
3.24296 0.00981707 1.68666
3.2401 0.0101005 1.70568
3.24052 0.0139291 1.76163
3.24482 0.0155034 1.80057
3.24514 0.0181397 1.84354
3.24022 0.0183061 1.85458
3.24151 0.0198678 1.89255
3.24665 0.0211305 1.91049
3.24084 0.0225196 1.93652
3.25012 0.0250457 1.97242
3.24425 0.0253165 1.99046
3.24236 0.0265251 2.00446
3.2581 0.0241014 1.57132
3.2572 0.0243093 1.58532
3.25466 0.0271995 1.64531
3.25576 0.0284059 1.65928
3.25794 0.0297447 1.68225
3.25484 0.0355087 1.8012
3.25796 0.0367433 1.81716
3.25818 0.0381872 1.84714
3.25835 0.0395128 1.86913
3.25846 0.0407199 1.88311
3.25656 0.0409286 1.89712
3.24975 0.0423036 1.92216
3.24886 0.0425264 1.93716
3.24199 0.0427831 1.95421
3.25452 0.0478101 2.02405
3.24479 -0.00913002 0.204719
3.24087 -0.00897908 0.214748
3.247 -0.00773191 0.231686
3.24907 -0.00758535 0.241669
3.25115 -0.00742398 0.252653
3.24823 -0.00727377 0.262674
3.2423 -0.00712137 0.272718
3.24742 -0.00688817 0.288678
3.2415 -0.00673578 0.298722
3.2556 -0.00555365 0.3116
3.25768 -0.00439239 0.322568
3.23973 -0.00627545 0.329732
3.25584 -0.00408008 0.343581
3.25087 -0.00501712 0.347632
3.25303 -0.00370784 0.3686
3.2471 -0.00355544 0.378643
3.24318 -0.00440439 0.388687
3.25227 -0.00323343 0.400603
3.24635 -0.00308104 0.410647
3.23945 -0.0028687 0.424697
3.25856 -0.000660716 0.439523
3.24771 -0.00137135 0.458618
3.25781 -0.000186308 0.471526
3.25087 -4.79895e-05 0.480577
3.255 0.00020074 0.497545
3.25016 0.000515233 0.518579
3.25325 0.00169057 0.53054
3.24439 0.00197837 0.549605
3.25145 0.00207689 0.556552
3.2567 0.00357642 0.590495
3.25378 0.00372663 0.600516
3.24485 0.00386641 0.609582
3.25595 0.00506552 0.623483
3.24297 0.0041047 0.625595
3.24205 0.00426826 0.636601
3.23929 0.00574401 0.668605
3.25541 0.0069691 0.684467
3.24046 0.00606894 0.690594
3.2395 0.00614368 0.695601
3.25562 0.00836865 0.711449
3.24468 0.00749519 0.719545
3.24677 0.00867125 0.731514
3.25187 0.00886004 0.744474
3.24794 0.00901098 0.754503
3.24214 0.00940021 0.780544
3.25033 0.0117642 0.805451
3.24339 0.0109027 0.814517
3.2495 0.0121054 0.828456
3.25861 0.013306 0.842371
3.24762 0.0133436 0.844454
3.24771 0.0135212 0.856452
3.25381 0.0147092 0.86939
3.24487 0.0138343 0.877472
3.25407 0.0162272 0.904371
3.24313 0.0153389 0.911467
3.25019 0.0164669 0.920398
3.25429 0.0166564 0.933367
3.24535 0.0167814 0.941433
3.25046 0.0179849 0.955379
3.24662 0.0182987 0.976406
3.2447 0.0184629 0.98742
3.25879 0.0206302 0.999283
3.24384 0.01973 1.00541
3.24493 0.0199069 1.0174
3.2431 0.0212487 1.0404
3.24821 0.0214523 1.05436
3.25431 0.0226551 1.0683
3.24934 0.0227179 1.07233
3.24442 0.0228696 1.08237
3.25554 0.0240983 1.09827
3.25262 0.0252632 1.10928
3.24971 0.0254282 1.1203
3.25089 0.0267974 1.14527
3.25395 0.0268989 1.15225
3.25213 0.0282555 1.17624
3.25423 0.0284465 1.18923
3.25733 0.0296514 1.20319
3.25241 0.0298031 1.21322
3.24844 0.0298652 1.21725
3.24963 0.0312492 1.24323
3.25273 0.0314395 1.2562
3.25393 0.0328235 1.28218
3.25001 0.0329892 1.29321
3.24513 0.0342296 1.30923
3.25225 0.0354612 1.32516
3.24552 0.0369843 1.36019
3.24672 0.0383683 1.38616
3.25078 0.0384986 1.39513
3.25299 0.0398967 1.4221
3.24907 0.0400625 1.43313
3.25228 0.0424745 1.46107
3.24535 0.0426129 1.47012
3.25152 0.0439488 1.49306
3.25062 0.044142 1.50607
3.25775 0.0453884 1.523
3.24791 0.0467065 1.54405
3.25308 0.0480432 1.567
3.25117 0.0482223 1.57901
3.25831 0.0494835 1.59694
3.24737 0.0496099 1.60502
3.24044 0.0497482 1.61408
3.25862 0.0520902 1.63791
3.24963 0.0521263 1.63997
3.25275 0.0523462 1.65495
3.25196 0.0547612 1.68292
3.25005 0.0549403 1.69494
3.24223 0.0553013 1.71899
3.23932 0.056481 1.731
3.25053 0.0588873 1.75888
3.25566 0.0601352 1.77583
3.25578 0.0603572 1.79083
3.25287 0.0615369 1.80283
3.24795 0.0617034 1.81387
3.25309 0.0629661 1.83181
3.2451 0.0620016 1.83389
3.24119 0.063182 1.8459
3.25638 0.065541 1.87076
3.25347 0.0657208 1.88278
3.25359 0.0669427 1.89776
3.25074 0.0682408 1.91777
3.2428 0.06738 1.92684
3.25398 0.0697122 1.94972
3.24705 0.0698653 1.95978
3.24918 0.0711154 1.97674
3.24338 0.0725045 2.00277
3.24042 0.0725807 2.00779
3.24054 0.0738175 2.02377
3.2401 0.0104636 0.24447
3.24134 0.0119217 0.275443
3.23957 0.012382 0.306454
3.25279 0.0148016 0.335323
3.24086 0.0139437 0.344427
3.24093 0.0140917 0.354425
3.24302 0.0142531 0.365409
3.24711 0.0154277 0.377362
3.24414 0.0154891 0.381384
3.24522 0.0156512 0.392375
3.2413 0.0158021 0.402404
3.24539 0.0159768 0.414372
3.25649 0.018161 0.427258
3.24254 0.0172749 0.434377
3.24262 0.0174378 0.445376
3.24567 0.0175244 0.451352
3.24074 0.0176761 0.461388
3.24282 0.0178374 0.472372
3.25192 0.0190232 0.485288
3.24107 0.0193125 0.504368
3.24215 0.0194746 0.515359
3.2492 0.020573 0.52229
3.24436 0.0208875 0.543325
3.23959 0.02135 0.574358
3.2507 0.0225491 0.588259
3.24774 0.0226253 0.593281
3.2439 0.0229391 0.614308
3.24523 0.0255894 0.658265
3.24026 0.0246524 0.662317
3.23934 0.0248159 0.673323
3.24052 0.0261556 0.696297
3.2396 0.0263191 0.707303
3.23989 0.0278963 0.746283
3.24098 0.0290583 0.757259
3.24307 0.0292345 0.769242
3.24917 0.0304372 0.78318
3.24424 0.0305741 0.792217
3.24232 0.0307384 0.80323
3.24036 0.0308138 0.808245
3.25248 0.0320418 0.824137
3.24153 0.0321534 0.831219
3.23962 0.0323177 0.842233
3.24171 0.0324939 0.854216
3.2438 0.03367 0.866185
3.2459 0.033861 0.879168
3.24092 0.033909 0.882205
3.24812 0.0352887 0.908134
3.2442 0.0354544 0.919162
3.24428 0.0366171 0.930146
3.24437 0.0367947 0.942144
3.24948 0.0379982 0.95609
3.2425 0.0370478 0.959157
3.24359 0.0382246 0.971133
3.24769 0.039414 0.984086
3.24085 0.03973 1.00514
3.24295 0.039921 1.01812
3.25302 0.0420615 1.02801
3.24408 0.0411866 1.03609
3.2522 0.0424175 1.05202
3.24627 0.0425551 1.06106
3.25739 0.0437838 1.07696
3.25047 0.0439369 1.08701
3.25357 0.0451271 1.09997
3.24969 0.0453668 1.116
3.24276 0.0455199 1.12605
3.24185 0.0456983 1.13806
3.24294 0.0468751 1.15003
3.24605 0.0470801 1.16401
3.25216 0.0492976 1.17893
3.25125 0.0494759 1.19094
3.25231 0.0495788 1.19793
3.24638 0.0497164 1.20697
3.24647 0.0509087 1.21996
3.24255 0.0510597 1.22999
3.24265 0.0512521 1.24299
3.25077 0.052483 1.25891
3.24986 0.0536613 1.2709
3.24489 0.0527242 1.27495
3.2501 0.0551348 1.30288
3.24116 0.0542599 1.31096
3.24727 0.0554775 1.3259
3.24035 0.0556306 1.33595
3.24441 0.056746 1.3439
3.25355 0.0580058 1.36182
3.24862 0.0581574 1.37186
3.25083 0.0605554 1.39881
3.24892 0.0607345 1.41082
3.24901 0.060927 1.42382
3.24806 0.0620164 1.42981
3.24424 0.0623746 1.45384
3.25037 0.0636217 1.47078
3.24645 0.0647874 1.48179
3.24154 0.0649538 1.49283
3.24967 0.0662143 1.51075
3.24073 0.0663393 1.51881
3.2448 0.0664696 1.52778
3.24791 0.0676894 1.54274
3.24119 0.069242 1.57978
3.24331 0.0704625 1.59474
3.2414 0.0706416 1.60676
3.25049 0.0728125 1.61866
3.24055 0.0719383 1.62675
3.24378 0.0743799 1.65669
3.24203 0.0758846 1.69069
3.24615 0.0771184 1.70664
3.24737 0.0795467 1.7356
3.24446 0.0797265 1.74762
3.23956 0.0799078 1.75966
3.25172 0.0822245 1.78153
3.24675 0.0822873 1.78557
3.24686 0.0834945 1.79955
3.24195 0.0836757 1.81159
3.24518 0.0851323 1.84255
3.2454 0.0875614 1.87151
3.24658 0.088901 1.89449
3.2477 0.090137 1.91046
3.24278 0.0903035 1.9215
3.24592 0.0915676 1.93946
3.23951 0.0957418 2.01846
3.23882 0.0666093 1.13177
3.239 0.0711764 0.224577
3.25414 0.0734317 0.242432
3.24929 0.0737314 0.262467
3.25338 0.074906 0.27442
3.24944 0.0740423 0.283464
3.24753 0.0742065 0.294478
3.25657 0.0752887 0.300394
3.25265 0.0754396 0.310423
3.2428 0.075743 0.330495
3.24488 0.0759043 0.341479
3.25097 0.0770627 0.352417
3.24809 0.0773017 0.368438
3.24215 0.0764394 0.377496
3.25125 0.0786251 0.390397
3.23931 0.0777523 0.398501
3.25542 0.0799477 0.412349
3.23947 0.0780632 0.419498
3.25057 0.0802474 0.432384
3.24159 0.0792985 0.435466
3.25169 0.0804835 0.448374
3.24601 0.0811096 0.490414
3.25619 0.0834574 0.514306
3.25323 0.0835335 0.519328
3.24329 0.0826594 0.527417
3.25339 0.0838592 0.541324
3.25147 0.0840087 0.551338
3.24654 0.0841455 0.560375
3.25375 0.0865695 0.589288
3.25684 0.0867449 0.601264
3.2399 0.085861 0.608406
3.25501 0.0880719 0.623261
3.25117 0.0883857 0.644288
3.24419 0.0874353 0.647356
3.25631 0.0896484 0.662234
3.25046 0.0899488 0.682276
3.24152 0.0890887 0.691357
3.2447 0.0904269 0.714317
3.25476 0.0925378 0.722211
3.25685 0.092714 0.734194
3.24691 0.0918398 0.742283
3.24499 0.0930039 0.753282
3.2531 0.0942052 0.767205
3.24817 0.0943421 0.776241
3.25627 0.0955434 0.790164
3.23927 0.093556 0.790322
3.24054 0.0950733 0.825295
3.24664 0.0972611 0.838218
3.24882 0.0986148 0.862185
3.25797 0.0999042 0.8821
3.24904 0.100044 0.891166
3.2421 0.0991676 0.899232
3.24528 0.100535 0.924192
3.25641 0.102764 0.940077
3.2475 0.102963 0.953143
3.2486 0.103155 0.966134
3.25772 0.10537 0.981034
3.25187 0.105685 1.00208
3.25297 0.106877 1.01505
3.25612 0.108156 1.03401
3.25328 0.108484 1.05603
3.24434 0.108608 1.0641
3.24845 0.109813 1.07805
3.25055 0.110004 1.09103
3.24457 0.110052 1.09408
3.25068 0.11127 1.10902
3.25378 0.11246 1.12198
3.23992 0.111737 1.1401
3.25305 0.113994 1.15797
3.24211 0.114105 1.16505
3.24225 0.114387 1.18405
3.25037 0.116617 1.19995
3.23842 0.11573 1.20706
3.24253 0.116934 1.22101
3.24564 0.118139 1.23497
3.2538 0.120459 1.25688
3.24788 0.120611 1.26692
3.25198 0.121815 1.28088
3.24305 0.120955 1.28996
3.23813 0.121107 1.29999
3.25127 0.123378 1.31886
3.24132 0.123489 1.32594
3.24037 0.123579 1.33194
3.24348 0.124798 1.3469
3.25663 0.12707 1.36577
3.24568 0.126182 1.37287
3.24979 0.127401 1.38782
3.23785 0.127513 1.39491
3.25607 0.130929 1.42373
3.2421 0.130013 1.42885
3.24029 0.131385 1.45385
3.25546 0.133699 1.4757
3.2426 0.13399 1.4948
3.24275 0.135286 1.51478
3.24587 0.136506 1.52974
3.24898 0.137725 1.5447
3.24004 0.13785 1.55277
3.24633 0.140408 1.59069
3.24241 0.140574 1.60171
3.24151 0.141767 1.61471
3.24262 0.142973 1.62868
3.24473 0.144194 1.64365
3.24383 0.144387 1.65665
3.24288 0.145491 1.66365
3.25403 0.147779 1.68353
3.24409 0.146905 1.69162
3.2442 0.148112 1.7056
3.24833 0.149361 1.72256
3.24743 0.150554 1.73555
3.2415 0.150706 1.74559
3.24362 0.151941 1.76156
3.2487 0.153086 1.7715
3.24077 0.153225 1.78056
3.24691 0.155501 1.79949
3.24601 0.155695 1.81249
3.24914 0.156944 1.82945
3.24422 0.15811 1.84047
3.24936 0.159373 1.85842
3.25142 0.16049 1.86639
3.25254 0.161726 1.88236
3.24762 0.161892 1.8934
3.24673 0.163115 1.90839
3.25388 0.164391 1.92732
3.24695 0.164544 1.93737
3.24299 0.164621 1.9424
3.25417 0.167953 1.96527
3.2392 0.167023 1.9694
3.24333 0.168287 1.98735
3.24646 0.169536 2.00431
3.2477 0.172009 2.03627
3.25606 0.0952502 0.230093
3.25121 0.0955499 0.250128
3.24728 0.0957008 0.260156
3.25233 0.095786 0.266118
3.25241 0.0969487 0.277102
3.24748 0.0960857 0.286153
3.25057 0.097261 0.298114
3.25666 0.0984194 0.309052
3.24171 0.096549 0.317194
3.25181 0.0977192 0.329102
3.2569 0.0988931 0.341048
3.25409 0.10028 0.367052
3.25025 0.100594 0.388079
3.25734 0.101766 0.40001
3.25237 0.100829 0.404062
3.25646 0.102004 0.416016
3.25454 0.102153 0.426029
3.24961 0.102305 0.436065
3.24368 0.101443 0.445124
3.24885 0.102779 0.468069
3.25098 0.104029 0.485036
3.25307 0.104191 0.49602
3.24613 0.104329 0.505071
3.24822 0.10449 0.516055
3.24128 0.104629 0.525106
3.24238 0.104806 0.537097
3.25143 0.106903 0.543999
3.24959 0.10723 0.566011
3.25469 0.108404 0.577956
3.24274 0.107516 0.585061
3.25485 0.109729 0.599939
3.25193 0.109879 0.60996
3.24295 0.10893 0.613042
3.23802 0.108082 0.623093
3.25021 0.110443 0.64797
3.2493 0.111607 0.658961
3.24738 0.111771 0.669974
3.2455 0.112009 0.685987
3.2516 0.113197 0.698926
3.25268 0.114359 0.709902
3.25277 0.114537 0.7219
3.24283 0.113648 0.728989
3.24492 0.114824 0.740958
3.24701 0.115 0.752941
3.25307 0.116114 0.76088
3.24823 0.117428 0.7819
3.24731 0.117592 0.792906
3.24038 0.11673 0.801972
3.24247 0.117906 0.813941
3.24055 0.118071 0.824954
3.2406 0.11816 0.830953
3.2507 0.120359 0.844846
3.24077 0.1195 0.853935
3.24487 0.120689 0.866889
3.24294 0.120839 0.876902
3.25315 0.123231 0.903794
3.25319 0.12432 0.909778
3.24025 0.123433 0.91689
3.25036 0.124647 0.931797
3.23942 0.123774 0.939894
3.25455 0.127014 0.956734
3.23959 0.125114 0.962876
3.25774 0.128382 0.981694
3.25487 0.128636 0.998714
3.23991 0.127736 1.00484
3.24902 0.129951 1.01974
3.2462 0.130294 1.04276
3.24227 0.130445 1.05279
3.24031 0.13052 1.0578
3.24579 0.135449 1.1207
3.2389 0.135676 1.13575
3.24401 0.136879 1.14969
3.24511 0.137071 1.16269
3.24629 0.13944 1.18764
3.24251 0.140872 1.21666
3.24663 0.142091 1.23161
3.2417 0.142243 1.24164
3.23788 0.142586 1.26467
3.24032 0.146443 1.3226
3.23841 0.147622 1.3346
3.2385 0.148814 1.34759
3.23966 0.150109 1.36756
3.23885 0.15148 1.39255
3.23803 0.152851 1.41754
3.24441 0.156571 1.46644
3.23959 0.157945 1.49146
3.24056 0.166839 1.61934
3.23871 0.168122 1.63834
3.23882 0.169344 1.65332
3.2374 0.17447 1.72927
3.2375 0.175677 1.74325
3.24967 0.177993 1.76513
3.24212 0.181887 1.82514
3.24737 0.185372 1.85805
3.24268 0.187982 1.89905
3.25592 0.191431 1.9299
3.24053 0.196641 2.01095
3.2426 0.196773 2.01994
3.24998 0.115075 0.217844
3.25331 0.116709 0.2608
3.24741 0.115921 0.274858
3.2515 0.117095 0.286812
3.25358 0.118257 0.29778
3.25366 0.118405 0.307779
3.24773 0.117557 0.317838
3.24886 0.118793 0.333813
3.25494 0.119951 0.344752
3.25418 0.120426 0.376755
3.24425 0.120566 0.385829
3.25129 0.12065 0.391775
3.25138 0.121813 0.402759
3.24344 0.120952 0.411833
3.24854 0.122126 0.423778
3.24461 0.122277 0.433807
3.24269 0.122426 0.443821
3.24978 0.123599 0.455752
3.24681 0.123675 0.460774
3.25191 0.124849 0.472719
3.25106 0.12516 0.493724
3.24313 0.124299 0.502798
3.2433 0.125625 0.52478
3.24434 0.125698 0.529772
3.24258 0.127173 0.561768
3.25168 0.128374 0.575683
3.25277 0.129536 0.586659
3.24788 0.129762 0.601695
3.24696 0.129925 0.612701
3.24103 0.130063 0.621745
3.24412 0.130238 0.633721
3.2432 0.131387 0.643712
3.24128 0.131551 0.654725
3.24838 0.132738 0.667656
3.25042 0.132826 0.67364
3.25752 0.135013 0.686556
3.25059 0.134151 0.695623
3.24967 0.134315 0.706628
3.25132 0.139572 0.79155
3.24647 0.139886 0.812585
3.24852 0.139974 0.818569
3.24168 0.14029 0.839619
3.24978 0.142491 0.853527
3.24586 0.142642 0.863556
3.24394 0.142806 0.874569
3.24202 0.14297 0.885583
3.25409 0.145095 0.894462
3.24616 0.144234 0.903535
3.25728 0.146462 0.919421
3.24834 0.145587 0.927502
3.24451 0.146916 0.949514
3.2456 0.148093 0.96149
3.24965 0.148193 0.968459
3.25677 0.15041 0.983375
3.25293 0.150739 1.0054
3.25002 0.150904 1.01642
3.25411 0.152093 1.02938
3.2512 0.153258 1.04038
3.25233 0.153524 1.05837
3.24951 0.154866 1.08138
3.2506 0.156043 1.09335
3.24267 0.155182 1.10243
3.25078 0.157398 1.11734
3.25393 0.158692 1.1373
3.248 0.15883 1.14634
3.24508 0.158995 1.15736
3.24417 0.160173 1.16935
3.24627 0.161364 1.18232
3.24435 0.161528 1.19333
3.25243 0.16267 1.20326
3.25152 0.163848 1.21525
3.24478 0.165357 1.24928
3.25591 0.167615 1.26717
3.25295 0.167691 1.27219
3.25405 0.167883 1.28518
3.24913 0.168034 1.29521
3.25123 0.16924 1.30918
3.25132 0.170418 1.32117
3.25343 0.171623 1.33513
3.25051 0.171788 1.34616
3.25659 0.172932 1.35609
3.24975 0.174262 1.37813
3.25697 0.176686 1.40704
3.25005 0.176839 1.41709
3.24613 0.177005 1.42812
3.25325 0.179237 1.44404
3.2503 0.179328 1.45006
3.24547 0.179672 1.47309
3.2536 0.181917 1.49
3.24969 0.183098 1.50202
3.25681 0.184329 1.51795
3.23985 0.183416 1.52309
3.25296 0.185614 1.53696
3.25406 0.18682 1.55093
3.24512 0.185945 1.55902
3.24623 0.187151 1.57299
3.25035 0.189385 1.58893
3.24844 0.189564 1.60094
3.2505 0.190681 1.60891
3.25574 0.193136 1.63984
3.24479 0.192248 1.64694
3.25393 0.195522 1.66582
3.246 0.194661 1.6749
3.24812 0.195897 1.69086
3.24918 0.196999 1.69784
