-5.15074 1.73854 1.85222
-5.16085 1.73932 1.83728
-5.17494 1.74214 1.82434
4.4393 1.65508 2.62631
4.41432 1.64914 2.62959
4.42546 1.6554 2.64742
4.41757 1.65663 2.66246
4.40365 1.65479 2.67259
4.40481 1.6591 2.69352
4.39893 1.66134 2.70954
4.37697 1.65643 2.71478
4.38007 1.65962 2.72771
4.38726 1.66698 2.75255
4.36228 1.66004 2.75584
4.35137 1.66025 2.76892
4.35053 1.66454 2.78886
4.33057 1.65965 2.79509
4.33173 1.66495 2.816
4.33382 1.66813 2.82794
4.31991 1.6663 2.83908
4.30699 1.66548 2.85019
4.3001 1.6667 2.86522
4.28518 1.66486 2.87536
4.2783 1.6661 2.8914
4.27745 1.6704 2.91134
4.2725 1.67051 2.91838
4.26663 1.67276 2.93539
4.24381 1.67214 2.95958
4.23493 1.67236 2.97464
4.22704 1.67459 2.98967
4.21412 1.67276 3.0008
4.20917 1.67286 3.00684
4.2033 1.67511 3.02385
4.19341 1.67633 3.03791
4.18653 1.67757 3.05394
4.17462 1.67776 3.06603
4.15181 1.67714 3.09122
2.36896 1.72124 4.5762
2.31311 1.71957 4.59665
2.26932 1.722 4.62395
2.23842 1.72223 4.63818
2.2245 1.72339 4.64827
2.21551 1.72243 4.65035
2.19955 1.72251 4.65547
2.18259 1.7216 4.66061
2.16867 1.72276 4.6707
2.15169 1.72182 4.67384
2.1388 1.72503 4.68789
2.11773 1.71893 4.68014
2.11079 1.72104 4.68716
2.09686 1.7222 4.69725
2.08092 1.72231 4.70437
2.06598 1.72344 4.71247
2.04695 1.71941 4.70967
2.03507 1.72364 4.7247
2.01505 1.71963 4.72291
2.01013 1.72278 4.7329
1.99621 1.72394 4.74299
1.97924 1.72401 4.74712
1.96226 1.72206 4.75028
1.94731 1.72318 4.75737
1.9283 1.72018 4.75656
1.91133 1.71923 4.7597
1.90846 1.72449 4.77665
1.89149 1.72456 4.78078
1.8745 1.7226 4.78293
1.85753 1.72267 4.78706
1.84566 1.72693 4.80409
1.82561 1.72184 4.79732
1.81477 1.72816 4.81831
1.80577 1.72717 4.81839
1.78367 1.71999 4.80566
1.76977 1.7232 4.81872
1.75381 1.72328 4.82384
1.73786 1.7234 4.83096
1.72191 1.7235 4.83708
1.70798 1.72566 4.84715
1.69798 1.72465 4.84624
1.67691 1.71953 4.83748
1.66094 1.71962 4.8426
1.6419 1.71556 4.8378
1.63005 1.72085 4.85681
1.61307 1.71989 4.85895
1.592 1.71479 4.85119
1.58913 1.72004 4.86813
1.56907 1.71594 4.86034
1.55312 1.71704 4.86645
1.53717 1.71715 4.87357
1.48725 1.71634 4.88396
-2.99824 1.75849 4.16703
-3.00539 1.75421 4.14814
-3.02243 1.75615 4.14324
-3.0365 1.75601 4.13335
-3.04859 1.75485 4.12145
-3.05761 1.75582 4.11951
-3.07959 1.76087 4.1216
-3.08674 1.75658 4.10171
-3.10378 1.75852 4.09681
-3.13565 1.76977 4.11289
-3.1329 1.75928 4.08002
-3.16479 1.76951 4.09411
-3.17183 1.76945 4.08916
-3.18391 1.76929 4.07825
-3.19304 1.76605 4.06137
-3.21503 1.77108 4.06246
-3.22119 1.76577 4.04158
-3.23526 1.76665 4.03267
-3.25527 1.76963 4.03078
-3.26429 1.77059 4.02783
-3.26846 1.76527 4.00594
-3.29046 1.77029 4.00603
-3.29759 1.76603 3.98815
-3.30869 1.76484 3.97525
-3.33464 1.77195 3.98134
-3.33585 1.76455 3.95445
-3.34685 1.76756 3.95449
-3.36488 1.76951 3.9506
-3.37103 1.76522 3.9307
-3.38906 1.76816 3.9258
-3.40016 1.76698 3.91289
-3.41226 1.76579 3.9
-3.42832 1.76669 3.89211
-3.43733 1.76866 3.89015
-3.44744 1.76646 3.87625
-3.46151 1.76734 3.86735
-3.48351 1.77234 3.86644
-3.48569 1.76599 3.84254
-3.47698 1.75343 3.80566
-3.50393 1.76154 3.81174
-3.50304 1.75733 3.7978
-3.52702 1.76338 3.79989
-3.53119 1.75806 3.778
-3.56012 1.7672 3.78608
-3.5623 1.76084 3.76219
-3.58134 1.76378 3.75729
-3.59541 1.76465 3.74738
-3.60145 1.76458 3.74242
-3.61751 1.76647 3.73451
-3.63159 1.76633 3.72462
-3.65359 1.77133 3.72371
-3.66469 1.77015 3.71081
-3.67877 1.77099 3.6999
-3.68688 1.76878 3.685
-3.69194 1.76766 3.67705
-3.709 1.76957 3.67015
-3.72108 1.7694 3.65824
-3.73615 1.77128 3.64933
-3.74627 1.76907 3.63443
-3.76945 1.76871 3.60961
-3.77747 1.76967 3.60666
-3.7846 1.76643 3.58975
-3.81078 1.76711 3.56694
-3.81592 1.76383 3.54802
-3.84191 1.76986 3.54913
-3.86708 1.77054 3.52631
-3.91653 1.7677 3.46771
-4.00009 1.76965 3.3933
-5.03411 1.75071 1.80115
-5.03439 1.74516 1.76423
-5.04543 1.7481 1.75927
-5.05852 1.74992 1.74634
-5.04172 1.74153 1.72134
-5.05182 1.74233 1.7074
-5.06392 1.74413 1.69346
-5.04811 1.73577 1.66946
-5.05822 1.73655 1.65452
-5.07026 1.74049 1.64956
4.28876 1.65112 2.5555
4.27986 1.65132 2.56856
4.26694 1.65049 2.57967
4.26408 1.65276 2.59766
4.26415 1.65491 2.60763
4.24721 1.65204 2.6158
4.24435 1.65531 2.63378
4.23847 1.65654 2.64881
4.23359 1.65879 2.66581
4.23273 1.66206 2.68377
4.20876 1.65613 2.68804
4.21386 1.66032 2.70094
4.20597 1.66154 2.71499
4.19807 1.66275 2.72903
4.18515 1.66092 2.74016
4.18028 1.66318 2.75716
4.17038 1.66338 2.77024
4.16651 1.66663 2.78722
4.15553 1.66367 2.78935
4.15568 1.66796 2.80928
4.14377 1.66815 2.82137
4.14493 1.67246 2.8423
4.12397 1.66855 2.84752
4.12513 1.67286 2.86845
4.1122 1.67202 2.87856
4.11128 1.67417 2.88854
4.09836 1.67334 2.89965
4.08947 1.67355 2.91371
4.07066 1.67495 2.93984
4.06378 1.67619 2.95587
4.04491 1.67544 2.97203
4.02796 1.67256 2.9792
4.02309 1.67481 2.99621
4.01721 1.67706 3.01222
4.00428 1.67621 3.02233
3.9855 1.67764 3.05046
1.83943 1.72551 4.64014
1.75263 1.72397 4.66782
1.72174 1.7262 4.68202
1.70577 1.72527 4.68615
1.68284 1.72642 4.69531
1.66382 1.72239 4.69251
1.65399 1.72974 4.71548
1.6339 1.72358 4.70372
1.61898 1.72575 4.7148
1.60402 1.72584 4.71991
1.58705 1.72489 4.72306
1.57701 1.72283 4.71816
1.55899 1.71981 4.71634
1.54405 1.72094 4.72444
1.52807 1.721 4.72756
1.51211 1.72108 4.73268
1.49305 1.71598 4.7249
1.4812 1.72127 4.74391
1.47525 1.72337 4.75093
1.45724 1.72137 4.75009
1.44334 1.72456 4.76215
1.42427 1.72046 4.75435
1.4083 1.72053 4.75847
1.39028 1.7175 4.75565
1.37431 1.71757 4.75977
1.37043 1.72179 4.77474
1.35139 1.71873 4.76993
1.33438 1.71673 4.76909
1.32046 1.7199 4.78015
1.30554 1.72206 4.79023
1.28959 1.72216 4.79635
1.27256 1.72011 4.79251
1.2625 1.71702 4.78563
1.21666 1.72035 4.80593
1.2007 1.72145 4.81203
1.1837 1.71946 4.81219
1.17674 1.72154 4.81721
1.1608 1.72267 4.82532
1.14275 1.71959 4.8195
1.12779 1.71968 4.82461
1.09485 1.71981 4.83186
1.07887 1.71986 4.83498
1.05595 1.72204 4.84612
0.974039 1.72126 4.85775
0.918131 1.72248 4.87015
0.885178 1.7226 4.8764
0.869208 1.72267 4.88052
0.797402 1.72809 4.90598
0.764378 1.72507 4.90328
0.75537 1.72406 4.90236
0.739401 1.72513 4.90646
-2.58561 1.75146 4.25003
-2.64285 1.75105 4.21947
-2.65791 1.75092 4.21058
-2.66396 1.75084 4.20463
-2.67802 1.75073 4.19673
-2.71182 1.76513 4.22178
-2.73305 1.7597 4.19202
-2.7481 1.7596 4.18513
-2.76809 1.76363 4.18622
-2.76228 1.75426 4.16131
-2.79314 1.76655 4.17936
-2.79139 1.75606 4.1465
-2.80645 1.75597 4.13962
-2.82249 1.75789 4.13371
-2.83162 1.75364 4.11684
-2.84766 1.75557 4.11093
-2.86556 1.76277 4.12396
-2.86778 1.75436 4.0961
-2.89567 1.76457 4.10916
-2.90776 1.76342 4.09826
-2.9238 1.76434 4.09237
-2.93293 1.76109 4.07548
-2.956 1.76298 4.06663
-2.97303 1.76492 4.06173
-2.99919 1.76362 4.04094
-3.01128 1.76246 4.02905
-3.03523 1.76956 4.03512
-3.03941 1.76321 4.01125
-3.05435 1.76834 4.01928
-3.08051 1.76705 3.9985
-3.09161 1.76586 3.9856
-3.11062 1.76885 3.9837
-3.13183 1.76545 3.9559
-3.17493 1.77029 3.94315
-3.24734 1.76951 3.8877
-3.26954 1.76714 3.8619
-3.32076 1.76973 3.83224
-3.64582 1.7689 3.55967
-4.95308 1.74874 1.67155
-4.9572 1.74851 1.65559
-4.96824 1.75044 1.65064
-4.95641 1.74311 1.62866
-4.96552 1.74489 1.6137
-4.97163 1.74468 1.59874
-4.9638 1.73836 1.57778
-4.97988 1.74219 1.56584
-4.97404 1.73789 1.54586
-4.96812 1.73373 1.53487
-4.98222 1.73754 1.52192
-4.98235 1.73529 1.50495
-4.9775 1.73099 1.48498
4.22127 1.65919 2.48988
4.20735 1.65735 2.50001
4.20742 1.6595 2.50998
4.20555 1.66275 2.52695
4.20671 1.66806 2.54786
4.18302 1.66969 2.58902
4.15137 1.67039 2.63526
4.12954 1.66975 2.65843
4.11082 1.67229 2.69454
4.10092 1.67249 2.70762
4.09201 1.67269 2.72068
4.05038 1.67143 2.76902
3.93065 1.67802 2.93885
1.84648 1.72564 4.51406
1.74879 1.7273 4.55478
1.71684 1.72643 4.56203
1.69185 1.72448 4.56425
1.66603 1.72884 4.58739
1.648 1.72579 4.58357
1.63203 1.72486 4.5877
1.61709 1.72699 4.59578
1.57714 1.72512 4.60311
1.56423 1.72731 4.61518
1.54519 1.72324 4.60938
1.5282 1.72226 4.61052
1.51733 1.72752 4.62753
1.50136 1.72761 4.63265
1.48722 1.71935 4.61488
1.47842 1.72773 4.63982
1.46038 1.72367 4.63502
1.44749 1.72788 4.64905
1.43048 1.72588 4.64821
1.41451 1.72595 4.65233
1.40859 1.7281 4.66235
1.38848 1.72191 4.64859
1.37765 1.72825 4.67058
1.35654 1.72205 4.65683
1.34363 1.72424 4.66889
1.32972 1.72741 4.67995
1.31272 1.72643 4.6801
1.30679 1.72858 4.69011
1.28667 1.72136 4.67437
1.27275 1.72453 4.68542
1.25575 1.72254 4.68558
1.24388 1.7278 4.7026
1.22587 1.72579 4.70076
1.20987 1.7248 4.7009
1.20084 1.72274 4.69699
1.18485 1.72179 4.69913
1.16992 1.72393 4.70821
1.15395 1.724 4.71233
1.13899 1.72509 4.71743
1.12508 1.72726 4.7285
1.106 1.72312 4.71871
1.10007 1.72526 4.72772
1.08408 1.7253 4.72984
1.06709 1.72433 4.73098
1.05109 1.72334 4.73112
1.03616 1.72549 4.7402
1.02328 1.72973 4.75624
1.00524 1.72767 4.7514
0.996189 1.72357 4.74453
0.979197 1.7236 4.74566
0.963205 1.72263 4.74679
0.949297 1.72582 4.75885
0.933336 1.7269 4.76396
0.915251 1.72175 4.75317
0.903444 1.73013 4.77814
0.892313 1.72389 4.76131
0.878436 1.72813 4.77736
0.859328 1.72194 4.76359
0.84332 1.72094 4.76272
0.830483 1.72826 4.78372
0.813474 1.72626 4.78287
0.79749 1.7263 4.78499
0.790513 1.72735 4.78803
0.773513 1.72636 4.78817
0.75856 1.72846 4.79426
0.741552 1.72646 4.79341
0.724513 1.72439 4.78857
0.709544 1.72446 4.79268
0.685599 1.72659 4.79983
0.655769 1.73293 4.82197
0.621668 1.72677 4.80931
0.589731 1.72891 4.81752
0.565715 1.72689 4.81573
0.146016 1.73176 4.85683
-2.85608 1.7478 3.92408
-2.97459 1.75087 3.85592
-2.99449 1.75907 3.86895
-3.00953 1.761 3.86303
-3.01073 1.75261 3.83716
-3.02281 1.75146 3.82627
-3.03885 1.7534 3.82136
-3.06578 1.76255 3.83043
-3.06994 1.75724 3.80954
-3.06906 1.752 3.79361
-3.0841 1.75293 3.7877
-3.09519 1.75276 3.77579
-3.10629 1.75059 3.7639
-3.12431 1.75455 3.76098
-3.13738 1.75442 3.75108
-3.14353 1.75014 3.73219
-3.16243 1.75733 3.74422
-3.17055 1.7551 3.72832
-3.17669 1.75084 3.71042
-3.1858 1.74864 3.69652
-3.19887 1.7485 3.68662
-3.22492 1.75241 3.67976
-3.23303 1.75021 3.66585
-3.25502 1.75624 3.66693
-3.25819 1.74992 3.64504
-3.27838 1.74655 3.61924
-3.29244 1.74844 3.61132
-3.30651 1.74832 3.60242
-3.32147 1.7534 3.60746
-3.32463 1.74809 3.58656
-3.34562 1.75311 3.58664
-3.3688 1.75279 3.56382
-3.37494 1.74852 3.54593
-3.39395 1.75251 3.54401
-3.41108 1.75225 3.52614
-3.4283 1.74785 3.49833
-3.46237 1.75371 3.4875
-3.46652 1.74844 3.46861
-3.47355 1.74938 3.46465
-3.51178 1.75095 3.43391
-3.53297 1.7486 3.4091
-3.55307 1.7504 3.39522
-3.57326 1.74805 3.3704
-3.58336 1.74686 3.3575
-3.61844 1.75372 3.34666
-3.63457 1.75247 3.32879
-3.63773 1.74818 3.30888
-3.64484 1.74596 3.29396
-3.67478 1.75508 3.30106
-3.68091 1.75284 3.28413
-3.69994 1.75679 3.28022
-3.69903 1.75261 3.26827
-3.70317 1.74935 3.25035
-3.71426 1.74918 3.23843
-3.72832 1.75006 3.22952
-3.73445 1.74781 3.2126
-3.7505 1.74972 3.20569
-3.77252 1.7557 3.20377
-3.77558 1.75359 3.19582
-3.7827 1.75136 3.17991
-3.79577 1.75322 3.16998
-3.8009 1.74997 3.15306
-3.82192 1.75494 3.15015
-3.83102 1.75375 3.13723
-3.84509 1.75462 3.12732
-3.84219 1.75042 3.11436
-3.85527 1.75228 3.10443
-3.88423 1.76136 3.10851
-3.88539 1.75605 3.0876
-3.89548 1.75588 3.07568
-3.90956 1.75674 3.06577
-3.91369 1.75348 3.04784
-3.93265 1.76057 3.05288
-3.94871 1.76246 3.04497
-3.93496 1.75098 3.01304
-3.96095 1.758 3.01313
-3.97304 1.75884 3.00221
-3.99009 1.76175 2.99529
-3.99919 1.76155 2.98136
-3.9943 1.75634 2.9674
-4.01334 1.76027 2.96148
-4.02343 1.76009 2.94956
-4.03651 1.76094 2.93864
-4.03071 1.75357 2.91371
-4.06978 1.76243 2.90287
-4.05694 1.75413 2.88289
-4.07996 1.7601 2.87998
-4.10313 1.76078 2.85714
-4.10428 1.75648 2.83721
-4.13143 1.7592 2.81737
-4.13449 1.75909 2.80939
-4.21618 1.76178 2.71795
-4.71558 1.75153 1.86975
-4.73479 1.75313 1.84187
-4.73592 1.75088 1.82491
-4.73107 1.74558 1.80495
-4.73214 1.74446 1.79697
-4.73326 1.74221 1.78001
-4.75234 1.74708 1.77008
-4.74649 1.74178 1.75011
-4.74663 1.73951 1.73214
-4.75572 1.74033 1.7192
-4.75188 1.73603 1.69923
-4.75493 1.73593 1.69225
-4.75606 1.73367 1.67529
3.73629 1.66146 2.89255
3.72939 1.66267 2.90659
3.67691 1.66571 2.97495
3.6444 1.67368 3.03908
3.62743 1.67077 3.04425
3.60443 1.66379 3.04453
3.59754 1.66701 3.05954
3.58864 1.6672 3.0716
3.58578 1.67148 3.09056
3.59393 1.67876 3.1094
3.57998 1.67687 3.11653
3.56605 1.67601 3.12565
3.56621 1.68132 3.14657
3.54622 1.67737 3.14878
3.53229 1.67551 3.15792
3.53245 1.68182 3.17883
3.53154 1.68399 3.1898
3.50952 1.67799 3.18906
3.51373 1.68738 3.21589
3.49778 1.68448 3.22205
3.49089 1.68671 3.23707
3.4621 1.68713 3.26429
2.33359 1.71464 4.1295
2.27084 1.71516 4.16197
2.25587 1.71323 4.16611
2.21606 1.71565 4.19238
2.20112 1.71576 4.19949
2.18616 1.71585 4.20461
2.17408 1.71072 4.19577
2.1462 1.71096 4.21098
2.13326 1.71209 4.21906
2.12542 1.71841 4.24003
2.1003 1.70919 4.22435
2.09041 1.71242 4.23938
2.08853 1.71764 4.25432
2.06238 1.70738 4.23567
2.05657 1.71475 4.26061
2.03652 1.70967 4.25383
2.02462 1.71187 4.26689
2.00557 1.70779 4.26109
1.99468 1.71102 4.27613
1.99076 1.71417 4.28611
1.97682 1.7153 4.2942
1.95779 1.71026 4.29042
1.94179 1.70827 4.29057
1.92888 1.71045 4.30264
1.91594 1.71157 4.30972
1.89996 1.71062 4.31285
1.88993 1.70859 4.30996
1.87905 1.71182 4.325
1.86001 1.70776 4.3202
1.85218 1.71409 4.34217
1.82702 1.7038 4.32151
1.80626 1.71228 4.35354
1.78128 1.70933 4.35577
1.76222 1.70524 4.34898
1.75031 1.70743 4.36104
1.74455 1.71788 4.39093
1.71834 1.70551 4.36531
1.71052 1.71186 4.38827
1.68451 1.70886 4.38751
1.6607 1.71423 4.41162
1.62872 1.7123 4.41489
1.60269 1.70828 4.41214
1.51392 1.70877 4.44181
1.32039 1.71183 4.50523
-2.79612 1.74672 3.78563
-2.80918 1.74659 3.77673
-2.8373 1.74739 3.76192
-2.86123 1.75553 3.76998
-2.86134 1.75132 3.75605
-2.88033 1.75533 3.75613
-2.89242 1.75418 3.74524
-2.90152 1.75199 3.73234
-2.91558 1.75288 3.72443
-2.92271 1.74964 3.70753
-2.92677 1.74752 3.69959
-2.94477 1.75152 3.69866
-2.96278 1.7545 3.69675
-2.96496 1.74817 3.67386
-2.98297 1.75115 3.67195
-2.99605 1.75101 3.66205
-3.00614 1.74984 3.65014
-3.02218 1.75178 3.64524
-3.02921 1.75272 3.64127
-3.04127 1.7526 3.63236
-3.05137 1.75041 3.61947
-3.0684 1.75337 3.61556
-3.08047 1.75324 3.60665
-3.08957 1.75104 3.59275
-3.10562 1.75296 3.58684
-3.10868 1.75185 3.57888
-3.12373 1.75276 3.57198
-3.14273 1.75675 3.57106
-3.14193 1.74937 3.54516
-3.15995 1.75234 3.54225
-3.17301 1.75323 3.53433
-3.17914 1.74898 3.51744
-3.17924 1.74579 3.50449
-3.19825 1.74979 3.50357
-3.20438 1.74654 3.48666
-3.22438 1.75054 3.48575
-3.23349 1.74834 3.47185
-3.24556 1.74922 3.46293
-3.2616 1.75114 3.45702
-3.26863 1.75208 3.45306
-3.27872 1.75091 3.44115
-3.29179 1.75179 3.43224
-3.30188 1.74961 3.41934
-3.31594 1.75151 3.41242
-3.32702 1.75136 3.4015
-3.33207 1.75026 3.39456
-3.34216 1.74909 3.38265
-3.35027 1.74689 3.36874
-3.3663 1.74982 3.36382
-3.37839 1.74967 3.35291
-3.38947 1.74951 3.34199
-3.4055 1.75245 3.33707
-3.40659 1.74929 3.32612
-3.41966 1.75017 3.31721
-3.43173 1.75103 3.30729
-3.45472 1.75706 3.30837
-3.45985 1.75281 3.29147
-3.47589 1.75573 3.28555
-3.49094 1.75764 3.27863
-3.49203 1.75548 3.26767
-3.49914 1.75226 3.25277
-3.51419 1.75517 3.24584
-3.5223 1.75297 3.23193
-3.54429 1.75898 3.232
-3.5524 1.75678 3.2181
-3.56745 1.75969 3.21117
-3.56655 1.75549 3.19822
-3.58358 1.75945 3.19429
-3.59864 1.76134 3.18637
-3.59881 1.75501 3.16446
-3.61188 1.75588 3.15455
-3.63488 1.76189 3.15463
-3.63702 1.75761 3.13571
-3.63612 1.75343 3.12376
-3.65911 1.76045 3.12383
-3.66722 1.75825 3.10993
-3.67631 1.75806 3.09699
-3.69534 1.76202 3.09308
-3.69749 1.75774 3.07416
-3.71255 1.75963 3.06624
-3.72967 1.75939 3.04937
-3.7348 1.75716 3.03344
-3.75482 1.76211 3.02952
-3.75796 1.75785 3.0116
-3.77302 1.75974 3.00369
-3.78914 1.76052 2.98779
-3.79725 1.7583 2.97289
-3.82752 1.75779 2.93712
-3.84671 1.75743 2.91226
-3.87493 1.75802 2.88346
-3.90718 1.75954 2.84968
-3.98394 1.7571 2.74928
-4.39081 1.74381 2.10445
-4.61568 1.7503 1.723
-4.62691 1.74986 1.69308
-4.62697 1.74774 1.68511
-4.63109 1.74651 1.66916
-4.63222 1.74427 1.6532
-4.63534 1.74302 1.63624
-4.63746 1.74179 1.62027
-4.64556 1.7416 1.60733
-4.64271 1.73832 1.58836
-4.64576 1.73822 1.58138
-4.66682 1.74411 1.57345
-4.65599 1.73678 1.55148
-4.66309 1.73758 1.53752
-4.65824 1.73229 1.51856
-4.66036 1.73106 1.50259
-4.65949 1.72781 1.48563
-4.67887 1.72707 1.43478
3.50666 1.66533 2.94223
3.49767 1.66337 2.94433
3.48489 1.66781 2.97336
3.46894 1.66491 2.97953
3.47111 1.67123 3.00142
3.46623 1.67447 3.01741
3.44927 1.67156 3.02258
3.44633 1.67268 3.03059
3.44043 1.67489 3.0446
3.42851 1.67405 3.05471
3.4196 1.67523 3.06676
3.41372 1.67847 3.08276
3.40179 1.67761 3.09186
3.38986 1.67776 3.10095
3.38994 1.67992 3.11192
3.38406 1.68316 3.12792
3.37112 1.68229 3.13603
3.36826 1.68656 3.15399
3.3523 1.68364 3.15915
3.34541 1.68587 3.17417
3.31173 1.6895 3.21538
3.28988 1.68983 3.23654
2.11122 1.71505 4.08016
2.09828 1.71618 4.08825
2.08128 1.71319 4.08842
2.06631 1.71226 4.09255
2.0355 1.71665 4.11772
2.02052 1.71571 4.12084
2.00657 1.71581 4.12695
1.99363 1.71593 4.13505
1.97662 1.71293 4.13422
1.9666 1.71091 4.13232
1.95569 1.71308 4.14337
1.94173 1.71318 4.14948
1.92676 1.71325 4.15359
1.91586 1.71645 4.16663
1.89987 1.71348 4.16779
1.88288 1.7115 4.16895
1.87488 1.71152 4.17001
1.86601 1.71577 4.18602
1.85205 1.71587 4.19212
1.83914 1.71804 4.20319
1.82211 1.71401 4.20038
1.8051 1.71199 4.19853
1.79114 1.71209 4.20464
1.78417 1.71215 4.20869
1.76818 1.71018 4.20984
1.75627 1.71337 4.22188
1.74129 1.71241 4.22401
1.72631 1.71146 4.22714
1.71032 1.7105 4.22927
1.69637 1.7106 4.23538
1.68938 1.71064 4.23743
1.67544 1.71075 4.24453
1.66045 1.70979 4.24666
1.64751 1.71092 4.25474
1.63153 1.70996 4.25688
1.61655 1.70902 4.26001
1.60157 1.70807 4.26313
1.59461 1.70915 4.26817
1.57962 1.70818 4.2693
1.5667 1.71033 4.27936
1.55275 1.71145 4.28645
1.5347 1.70637 4.28066
1.52176 1.7085 4.28873
1.50781 1.7086 4.29484
1.48586 1.70872 4.302
1.47089 1.70877 4.30511
1.44194 1.7079 4.31235
1.37711 1.70929 4.33582
1.36315 1.70936 4.33992
1.34817 1.70941 4.34303
1.3332 1.70948 4.34715
1.3133 1.71269 4.36025
1.29628 1.70966 4.35742
1.28334 1.71078 4.3655
1.23454 1.7162 4.3918
1.18857 1.7133 4.39619
1.14362 1.71243 4.40354
1.10875 1.71571 4.42075
1.02585 1.71396 4.43441
-2.69689 1.74313 3.68292
-2.72103 1.74187 3.66412
-2.73913 1.74169 3.65125
-2.75813 1.7467 3.65132
-2.76821 1.74455 3.64043
-2.77534 1.7413 3.62353
-2.81234 1.74831 3.6227
-2.82046 1.7461 3.60779
-2.82945 1.7481 3.60783
-2.83559 1.74284 3.58995
-2.85557 1.74789 3.59203
-2.86467 1.74672 3.58011
-2.88465 1.75174 3.58119
-2.89079 1.74748 3.5633
-2.90979 1.7515 3.56338
-2.9079 1.74627 3.54844
-2.92987 1.75335 3.5525
-2.93205 1.74601 3.52963
-2.95104 1.75002 3.52971
-2.96707 1.75298 3.52579
-2.97419 1.74976 3.51089
-2.98617 1.7538 3.51292
-2.98536 1.74543 3.48803
-3.00535 1.75046 3.48911
-3.01743 1.75032 3.4792
-3.02752 1.74915 3.46729
-3.04751 1.75416 3.46737
-3.06652 1.75816 3.46645
-3.06264 1.75192 3.45051
-3.07193 1.74338 3.4137
-3.08102 1.74121 3.4018
-3.09606 1.74313 3.39589
-3.12597 1.75431 3.40695
-3.12722 1.74483 3.37409
-3.13831 1.74367 3.36319
-3.1674 1.7475 3.35035
-3.17451 1.7443 3.33645
-3.19947 1.75239 3.34152
-3.21848 1.75737 3.33959
-3.21162 1.75009 3.32064
-3.22964 1.75306 3.31773
-3.23974 1.75189 3.30583
-3.25676 1.75585 3.30289
-3.27181 1.75776 3.29598
-3.27694 1.75451 3.27906
-3.28603 1.75233 3.26616
-3.28414 1.74813 3.25321
-3.30612 1.75418 3.25529
-3.3172 1.75402 3.24437
-3.31836 1.74871 3.22345
-3.34135 1.75475 3.22454
-3.3544 1.75665 3.21761
-3.35557 1.75033 3.19571
-3.36457 1.75232 3.19474
-3.37764 1.75319 3.18583
-3.38178 1.74893 3.16792
-3.40774 1.75802 3.17298
-3.40294 1.74864 3.14708
-3.42096 1.75259 3.14316
-3.43105 1.75243 3.13224
-3.4351 1.75133 3.12528
-3.44122 1.7481 3.10937
-3.45924 1.75207 3.10645
-3.4614 1.74678 3.08654
-3.4824 1.75277 3.08561
-3.49844 1.7557 3.07969
-3.50654 1.75451 3.06676
-3.50662 1.75135 3.05581
-3.52167 1.75427 3.04988
-3.52878 1.75105 3.03498
-3.53787 1.75088 3.02305
-3.55392 1.75379 3.01612
-3.56797 1.7557 3.0092
-3.56913 1.7504 2.98929
-3.58113 1.75341 2.98933
-3.58822 1.75222 2.9764
-3.60129 1.7531 2.96748
-3.60642 1.74985 2.95057
-3.62346 1.75379 2.94564
-3.62659 1.74954 2.92872
-3.63369 1.74834 2.91479
-3.6427 1.75032 2.91283
-3.6528 1.75014 2.90091
-3.67778 1.75718 2.90199
-3.67496 1.75083 2.87906
-3.69001 1.75374 2.87213
-3.70209 1.7536 2.86222
-3.71614 1.75649 2.85428
-3.71224 1.7513 2.84133
-3.73227 1.75625 2.83741
-3.73738 1.75404 2.82248
-3.74847 1.75488 2.81155
-3.75458 1.75266 2.79662
-3.76566 1.75251 2.78571
-3.77774 1.75437 2.77577
-3.79982 1.75821 2.76388
-3.80097 1.75293 2.74496
-3.81801 1.75685 2.73903
-3.80921 1.74746 2.7131
-3.83321 1.75448 2.71318
-3.84728 1.75735 2.70424
-3.85545 1.75402 2.68135
-3.87861 1.75572 2.66049
-3.88969 1.75657 2.64956
-4.48318 1.74524 1.65706
-4.49122 1.74717 1.6521
-4.48736 1.7429 1.63413
-4.49346 1.7427 1.62017
-4.50057 1.7435 1.60621
-4.50368 1.74128 1.59127
-4.50878 1.74107 1.57731
-4.51583 1.74299 1.57133
-4.52093 1.74278 1.55737
-4.51708 1.7375 1.53842
-4.52219 1.7373 1.52446
-4.53029 1.7381 1.5105
-4.5354 1.73789 1.49654
-4.53652 1.73566 1.48058
-4.53664 1.73342 1.46462
-4.53969 1.73332 1.45764
-4.5468 1.73312 1.44369
-4.53994 1.72783 1.42472
-4.54505 1.72763 1.41076
-4.55016 1.72741 1.3958
-4.55926 1.72922 1.38284
-4.55539 1.72497 1.36587
-4.5724 1.73095 1.36391
-4.57376 1.72424 1.31601
3.8697 1.65834 2.28251
3.34749 1.66511 2.92043
3.3068 1.66574 2.96173
3.31393 1.67199 2.97859
3.30099 1.67112 2.9867
3.28906 1.67026 2.99581
3.28418 1.6735 3.0118
3.27123 1.67261 3.01891
3.26939 1.67791 3.03885
3.25543 1.67501 3.04499
3.25148 1.6761 3.05101
3.24257 1.67729 3.06306
3.23971 1.68155 3.08102
3.22979 1.68272 3.09208
3.21584 1.68082 3.09821
3.20895 1.68305 3.11324
3.20106 1.68526 3.12726
3.1971 1.68635 3.13328
3.18618 1.68651 3.14336
3.17525 1.68667 3.15344
3.16634 1.68784 3.16449
3.15642 1.68801 3.17557
3.11769 1.68855 3.21086
2.15582 1.70728 3.89492
2.14592 1.71048 3.90795
2.13196 1.71056 3.91305
2.127 1.71165 3.91907
2.10111 1.71188 3.93327
2.0841 1.70888 3.93244
2.07625 1.71416 3.95142
2.06024 1.71116 3.95059
2.04629 1.71127 3.95769
2.03828 1.71027 3.95677
2.02636 1.71142 3.96684
2.01138 1.71048 3.96997
1.99843 1.71058 3.97607
1.9865 1.71173 3.98614
1.97153 1.7118 3.99025
1.95452 1.70779 3.98844
1.95262 1.71198 4.00139
1.93662 1.71001 4.00254
1.92265 1.70908 4.00666
1.90768 1.70813 4.00979
1.89474 1.70927 4.01887
1.87772 1.70624 4.01605
1.86986 1.71151 4.03403
1.8629 1.71259 4.03907
1.84791 1.71063 4.04121
1.83496 1.71073 4.04731
1.81794 1.70772 4.04548
1.80703 1.70989 4.05653
1.79104 1.70893 4.05867
1.77606 1.70697 4.06081
1.77417 1.71319 4.07573
1.75612 1.7071 4.06896
1.74115 1.70717 4.07307
1.72718 1.70726 4.07817
1.71831 1.7115 4.09418
1.69823 1.70537 4.08442
1.6943 1.7075 4.09342
1.67933 1.70757 4.09753
1.66333 1.70558 4.09768
1.64937 1.70567 4.10279
1.63743 1.70679 4.11086
1.62348 1.70791 4.11795
1.60355 1.70806 4.1271
1.59573 1.7164 4.15004
1.57153 1.70305 4.12541
1.5637 1.71138 4.14735
1.54873 1.71044 4.15048
1.53271 1.70742 4.14865
1.51279 1.7086 4.15978
1.49986 1.71072 4.16785
1.48383 1.70769 4.16501
1.47294 1.71191 4.17903
1.46 1.71303 4.18712
1.44296 1.70897 4.1823
1.42798 1.70903 4.18542
1.40705 1.70916 4.19357
1.37706 1.70721 4.19583
1.35119 1.71048 4.21298
1.31524 1.70961 4.22026
1.27132 1.70879 4.23061
1.2444 1.70998 4.24179
1.23742 1.71001 4.24384
1.15159 1.7104 4.26649
1.11565 1.71054 4.27476
-2.75557 1.74087 3.46036
-2.7606 1.74082 3.4564
-2.79382 1.73841 3.42768
-2.80588 1.73829 3.41877
-2.82388 1.7433 3.41884
-2.83299 1.7401 3.40495
-2.84099 1.74209 3.40398
-2.85701 1.74506 3.40106
-2.86413 1.74184 3.38616
-2.87718 1.74275 3.37924
-2.88628 1.74056 3.36634
-2.90724 1.74764 3.37039
-2.91931 1.74751 3.36148
-2.9204 1.74435 3.35054
-2.93047 1.74321 3.34063
-2.95442 1.75132 3.34669
-2.95064 1.7419 3.3188
-2.96468 1.74282 3.31289
-2.98269 1.74782 3.31195
-2.98882 1.74357 3.29506
-2.99584 1.74453 3.2921
-3.01582 1.75058 3.29416
-3.01006 1.73811 3.26329
-3.03004 1.74416 3.26535
-3.05004 1.75017 3.26542
-3.0512 1.74386 3.24452
-3.05731 1.74064 3.22961
-3.07326 1.74674 3.23564
-3.08631 1.74765 3.22872
-3.09144 1.7434 3.21182
-3.11342 1.75046 3.21488
-3.11953 1.74724 3.19997
-3.12962 1.74607 3.18807
-3.14267 1.74798 3.18114
-3.14177 1.7438 3.16919
-3.15284 1.74366 3.15927
-3.16986 1.74763 3.15634
-3.173 1.74237 3.13844
-3.193 1.74836 3.1375
-3.20506 1.74825 3.12959
-3.21415 1.74808 3.11766
-3.21126 1.74187 3.10373
-3.23027 1.74787 3.10279
-3.2354 1.74363 3.08588
-3.25043 1.74656 3.08095
-3.2625 1.74744 3.07203
-3.27457 1.74731 3.06312
-3.28067 1.74511 3.0492
-3.29663 1.7512 3.05423
-3.30076 1.74695 3.03732
-3.31283 1.74782 3.0284
-3.32389 1.7487 3.01947
-3.32406 1.74239 2.99856
-3.34505 1.7484 2.99863
-3.3591 1.75031 2.9917
-3.35919 1.74715 2.98075
-3.36332 1.7429 2.96384
-3.38927 1.75199 2.9689
-3.38844 1.74568 2.94799
-3.39852 1.74552 2.93707
-3.41754 1.75049 2.93413
-3.4167 1.74418 2.91322
-3.43365 1.75128 2.91924
-3.44274 1.75011 2.90733
-3.45282 1.74995 2.8964
-3.46389 1.75083 2.88747
-3.47299 1.74964 2.87456
-3.47711 1.74641 2.85863
-3.49116 1.74832 2.85171
-3.50018 1.75029 2.84975
-3.5043 1.74706 2.83383
-3.51537 1.74792 2.82389
-3.53142 1.75084 2.81797
-3.54249 1.7517 2.80804
-3.54661 1.74847 2.79212
-3.56372 1.74927 2.77823
-3.57381 1.7491 2.76631
-3.58885 1.75202 2.76038
-3.59396 1.74981 2.74545
-3.60305 1.74965 2.73452
-3.61611 1.75153 2.72559
-3.6252 1.75136 2.71366
-3.64025 1.75426 2.70673
-3.63933 1.75111 2.69676
-3.6504 1.75097 2.68685
-3.66446 1.75387 2.67891
-3.67057 1.75166 2.66499
-3.68463 1.75355 2.65706
-3.69073 1.75235 2.64313
-3.69783 1.75116 2.63019
-3.71892 1.755 2.61829
-3.72702 1.75381 2.60537
-3.7381 1.75466 2.59444
-3.74421 1.75246 2.58052
-4.4078 1.74201 1.44251
-4.4261 1.74242 1.40164
-4.42635 1.73795 1.3697
-4.43338 1.73988 1.36473
-4.44459 1.73947 1.33681
-4.45468 1.7413 1.32486
-4.44695 1.73378 1.28991
-4.45006 1.73257 1.27595
-4.46009 1.73551 1.27098
-4.45124 1.72922 1.252
-4.45235 1.727 1.23704
-4.46543 1.73084 1.22608
-4.46156 1.72659 1.20912
-4.46268 1.72537 1.19414
-4.47077 1.72618 1.18119
-4.46086 1.72101 1.17019
-4.47207 1.72161 1.14226
3.2983 1.6628 2.76281
3.27751 1.66523 2.79094
3.26558 1.66438 2.80004
3.25666 1.66455 2.81111
3.25581 1.66983 2.83004
3.24185 1.66793 2.83617
3.23286 1.66595 2.83727
3.23301 1.67123 2.85619
3.22108 1.67037 2.8653
3.21014 1.66951 2.87439
3.20929 1.67579 2.89331
3.19836 1.67493 2.90241
3.18743 1.67509 2.91249
3.18851 1.67824 2.92243
3.17355 1.67634 2.92858
3.16766 1.67855 2.94259
3.16177 1.68076 2.9566
3.14882 1.67987 2.96371
3.14091 1.68106 2.97576
3.13704 1.68531 2.99273
3.12906 1.68335 2.99482
3.12014 1.68452 3.00587
3.11224 1.68671 3.0189
3.10231 1.68685 3.02797
3.09541 1.68907 3.04199
1.92358 1.71396 3.86356
1.88472 1.71425 3.88186
1.78299 1.71286 3.91865
1.77704 1.71395 3.92468
1.75214 1.71516 3.93785
1.73716 1.71422 3.94098
1.72523 1.71536 3.95005
1.71124 1.7144 3.95217
1.69728 1.71448 3.95727
1.69334 1.71661 3.96527
1.67734 1.71462 3.96542
1.66438 1.7147 3.97052
1.65245 1.71584 3.9796
1.63543 1.71383 3.97775
1.62247 1.71391 3.98285
1.60952 1.71402 3.98995
1.59846 1.70991 3.98209
1.58651 1.71101 3.98817
1.57663 1.71525 4.00418
1.55958 1.71118 3.99837
1.54562 1.71126 4.00347
1.53778 1.71756 4.02344
1.51869 1.71141 4.01267
1.5107 1.71043 4.01375
1.49978 1.71361 4.02479
1.48376 1.71059 4.02295
1.46877 1.70861 4.02409
1.45785 1.71177 4.03413
1.44184 1.70877 4.03329
1.42889 1.70986 4.03938
1.42497 1.71403 4.05035
1.40589 1.70688 4.03959
1.396 1.71211 4.05459
1.38306 1.71322 4.06168
1.36599 1.70812 4.05388
1.351 1.70614 4.05502
1.33908 1.70932 4.06606
1.3321 1.70935 4.06812
1.32018 1.71251 4.07816
1.31234 1.71982 4.09912
1.29017 1.70851 4.07745
1.27618 1.70755 4.07957
1.26528 1.71175 4.09259
1.24927 1.70974 4.09074
1.24228 1.70977 4.09279
1.23037 1.71294 4.10384
1.21431 1.70785 4.09703
1.18843 1.71109 4.11218
1.17241 1.70907 4.11033
1.1574 1.70706 4.10847
1.1545 1.71226 4.12242
1.13747 1.7082 4.11761
1.11157 1.71143 4.13176
1.08361 1.71052 4.13698
1.0686 1.70952 4.13611
1.06162 1.70955 4.13816
1.0378 1.71691 4.16124
1.0228 1.71594 4.16236
1.00674 1.71083 4.15456
0.998982 1.72229 4.18545
0.979834 1.71403 4.16672
0.973889 1.71614 4.17373
0.95888 1.71413 4.17287
0.923183 1.72773 4.21195
0.905066 1.71953 4.1972
0.892128 1.72265 4.20525
0.881995 1.71441 4.18845
0.869073 1.71757 4.1985
-2.76474 1.73759 3.30546
-2.77481 1.73645 3.29555
-3.02029 1.73569 3.09938
-3.1693 1.73582 2.96649
-3.17937 1.73568 2.95656
-3.22167 1.73513 2.91788
-3.23465 1.74017 2.91991
-3.23876 1.73695 2.90498
-3.25793 1.73564 2.88315
-3.268 1.7355 2.87322
-3.28999 1.74253 2.87428
-3.29213 1.73726 2.85637
-3.29724 1.73506 2.84244
-3.31832 1.73791 2.83156
-3.32938 1.73878 2.82263
-3.33648 1.7366 2.80971
-3.36045 1.74566 2.81276
-3.36358 1.74141 2.79584
-3.37267 1.74024 2.78393
-3.36976 1.73607 2.77297
-3.3858 1.739 2.76704
-3.3919 1.73781 2.7541
-3.4139 1.74482 2.75417
-3.40808 1.73547 2.73026
-3.42909 1.74247 2.72931
-3.43909 1.74546 2.72834
-3.44222 1.74121 2.71143
-3.4513 1.74105 2.7005
-3.46535 1.74296 2.69357
-3.46649 1.73769 2.67566
-3.48054 1.74161 2.6697
-3.48565 1.7384 2.65479
-3.5046 1.7465 2.66081
-3.50375 1.74122 2.64188
-3.51879 1.74414 2.63595
-3.52788 1.74397 2.62402
-3.54491 1.7469 2.6191
-3.55003 1.74469 2.60417
-3.5601 1.74555 2.59423
-3.5662 1.74336 2.58131
-3.57323 1.7453 2.57734
-3.58827 1.74823 2.5714
-3.59438 1.74602 2.55748
-3.60943 1.74893 2.55055
-3.61951 1.74979 2.54061
-3.62164 1.74554 2.52369
-3.62277 1.74229 2.50674
-3.63277 1.74528 2.50577
-3.64485 1.74614 2.49585
-3.64895 1.74394 2.48191
-3.67096 1.75092 2.47997
-3.6711 1.74566 2.46205
-3.68616 1.74855 2.45412
-3.69829 1.74831 2.43721
-3.70738 1.74814 2.42528
-3.71844 1.75001 2.41634
-3.72157 1.74678 2.40041
-3.73463 1.74865 2.39148
-3.76991 1.75113 2.3547
-3.77402 1.74891 2.33976
-4.29513 1.74028 1.39769
-4.30539 1.73877 1.36278
-4.30651 1.73655 1.34782
-4.31173 1.73412 1.31889
-4.32193 1.73373 1.29197
-4.338 1.73759 1.28203
-4.33806 1.73749 1.27503
-4.3312 1.73122 1.25707
-4.35126 1.7381 1.24812
-4.35436 1.7369 1.23416
-4.3505 1.73264 1.21719
-4.35061 1.73042 1.20222
-4.35272 1.72921 1.18825
-4.37577 1.73711 1.18031
-4.35489 1.72688 1.1653
-4.356 1.72567 1.15133
-4.36609 1.7275 1.13937
-4.36521 1.72526 1.1234
-4.36731 1.72405 1.10943
-4.3774 1.72588 1.09748
-4.36455 1.71859 1.07849
-4.3676 1.71849 1.07151
-4.37968 1.72134 1.06056
3.33375 1.66073 2.55655
3.32483 1.6609 2.56761
3.30102 1.66028 2.59281
3.28418 1.66161 2.61392
3.23462 1.6625 2.67229
3.23375 1.66775 2.68922
3.22081 1.66688 2.69733
3.21088 1.66602 2.70642
3.19692 1.66312 2.71257
3.188 1.66328 2.72263
3.18404 1.66437 2.72865
3.17527 1.67082 2.75862
3.16031 1.6679 2.76378
3.16247 1.67521 2.78466
3.15154 1.67435 2.79375
3.1496 1.67647 2.80174
3.12858 1.66946 2.8
3.12268 1.67166 2.81301
3.10973 1.67077 2.82012
3.11393 1.67914 2.84497
3.09492 1.67415 2.84519
3.08701 1.67532 2.85623
3.08708 1.67847 2.86619
3.07918 1.67965 2.87823
3.07126 1.68082 2.88927
3.06437 1.68303 2.9033
3.04839 1.67909 2.90648
3.04451 1.68333 2.92244
3.03055 1.68141 2.92758
3.01861 1.68055 2.93668
3.01364 1.68062 2.94072
2.99193 1.68719 2.97879
2.98302 1.68736 2.98986
2.97511 1.68955 3.00189
1.69942 1.71679 3.84321
1.68834 1.71065 3.83338
1.68049 1.71694 3.85235
1.66549 1.71495 3.85249
1.6355 1.711 3.85478
1.62662 1.71623 3.86977
1.60754 1.7091 3.86002
1.60667 1.71534 3.87593
1.58758 1.70819 3.86518
1.57871 1.71444 3.88216
1.56167 1.70938 3.87736
1.55177 1.71358 3.89038
1.53984 1.71473 3.89945
1.52381 1.71068 3.89563
1.51886 1.71378 3.90262
1.50285 1.71077 3.90079
1.49192 1.71292 3.91084
1.47486 1.70782 3.90304
1.46395 1.711 3.91508
1.44793 1.70797 3.91224
1.43395 1.70703 3.91536
1.4331 1.71531 3.93425
1.41911 1.71333 3.93538
1.40411 1.71136 3.93653
1.39217 1.71348 3.94459
1.37513 1.70841 3.93879
1.36523 1.71261 3.9518
1.35126 1.71268 3.95591
1.34529 1.71374 3.95994
1.33026 1.71071 3.9571
1.31731 1.71181 3.96318
1.3064 1.71599 3.9752
1.29038 1.71196 3.97238
1.27639 1.71098 3.9735
1.26447 1.71415 3.98454
1.2554 1.70903 3.97569
1.24349 1.7122 3.98673
1.23156 1.71534 3.99578
1.21345 1.70715 3.98203
1.20256 1.71236 3.99604
1.18856 1.71039 3.99717
1.17664 1.71354 4.00722
1.16657 1.70942 3.99835
1.15362 1.70952 4.00445
1.13858 1.70647 4.00061
1.12564 1.70858 4.00768
1.11371 1.71072 4.01674
1.09971 1.70973 4.01686
1.08883 1.71498 4.03286
-3.34565 1.73331 2.65481
-3.36381 1.73301 2.63395
-3.39006 1.73154 2.60116
-3.39808 1.7335 2.59819
-3.41425 1.73217 2.57533
-3.43937 1.73596 2.55946
-3.45242 1.73786 2.55253
-3.4576 1.73352 2.52963
-3.47974 1.73526 2.51077
-3.48882 1.7351 2.49984
-3.49889 1.73596 2.4899
-3.50399 1.73377 2.47697
-3.51307 1.73362 2.46604
-3.5201 1.73558 2.46306
-3.52918 1.73542 2.45213
-3.53429 1.73322 2.4382
-3.54734 1.73511 2.43027
-3.55344 1.73392 2.41733
-3.55855 1.73172 2.4034
-3.56862 1.73258 2.39346
-3.58062 1.73659 2.39349
-3.58572 1.7344 2.38056
-3.60077 1.7383 2.37362
-3.60388 1.73508 2.35869
-3.61297 1.73493 2.34776
-3.62702 1.73783 2.34082
-3.63809 1.73969 2.33087
-3.6481 1.74269 2.3299
-3.65818 1.74353 2.31897
-3.66029 1.74031 2.30403
-3.66341 1.73709 2.2891
-3.68741 1.74509 2.28816
-3.68456 1.73981 2.26921
-3.70359 1.74475 2.26428
-3.69768 1.73957 2.25231
-3.71173 1.74247 2.24537
-3.72182 1.74332 2.23444
-3.73289 1.74518 2.22449
-3.74196 1.74604 2.21455
-3.7411 1.74077 2.19661
-3.76511 1.74877 2.19568
-3.76822 1.74655 2.18073
-3.76928 1.74543 2.17275
-3.79554 1.74595 2.13894
-4.1412 1.742 1.52052
-4.16061 1.73922 1.4667
-4.1687 1.74105 1.45473
-4.16676 1.73793 1.44676
-4.17585 1.73976 1.4348
-4.17796 1.73755 1.42085
-4.1691 1.73126 1.40187
-4.18528 1.73392 1.37795
-4.18839 1.73272 1.36399
-4.19249 1.73151 1.35004
-4.20152 1.73446 1.34606
-4.19964 1.73122 1.33009
-4.21172 1.73407 1.31914
-4.20486 1.72881 1.30216
-4.20697 1.72659 1.28721
-4.22403 1.73247 1.27825
-4.23012 1.73229 1.2663
-4.2242 1.72814 1.25631
-4.22232 1.7249 1.24034
-4.2324 1.72775 1.22938
-4.22454 1.72148 1.21141
-4.22765 1.72127 1.19743
-4.24072 1.72413 1.18749
-4.23884 1.72089 1.17152
-4.2399 1.72079 1.16453
-4.25619 1.72123 1.12564
3.09779 1.66593 2.69527
3.08987 1.6671 2.70631
3.07296 1.66529 2.71847
3.05311 1.66558 2.73762
3.04217 1.66572 2.7467
3.03527 1.66691 2.75873
3.02828 1.66594 2.7608
3.02742 1.67121 2.77873
3.01547 1.67032 2.78584
3.00856 1.6715 2.79787
3.00267 1.67371 2.81189
2.98971 1.67281 2.818
2.97979 1.67297 2.82807
2.97784 1.67407 2.83507
2.96791 1.67421 2.84415
2.95798 1.67435 2.85322
2.95209 1.67757 2.86722
2.94619 1.67976 2.88023
2.93625 1.6799 2.88931
2.92935 1.6821 2.90233
2.92036 1.68012 2.90342
2.91345 1.6823 2.91545
2.90756 1.68552 2.92944
2.89662 1.68464 2.93754
2.88568 1.68377 2.94564
2.87776 1.68594 2.95667
2.86885 1.68711 2.96772
2.85395 1.68732 2.98183
2.84402 1.68746 2.9909
2.82719 1.6908 3.01298
1.87008 1.71203 3.66397
1.83614 1.71019 3.67325
1.82623 1.71236 3.6843
1.81427 1.71246 3.69039
1.80131 1.71254 3.69548
1.78632 1.71057 3.69663
1.77335 1.70964 3.70074
1.7694 1.71274 3.70772
1.75746 1.71287 3.71581
1.72848 1.70892 3.71809
1.71755 1.71106 3.72714
1.7056 1.71218 3.73422
1.69161 1.71022 3.73635
1.68055 1.70611 3.72849
1.67166 1.70932 3.74252
1.65767 1.70834 3.74363
1.64267 1.70636 3.74378
1.63276 1.70954 3.75581
1.61879 1.70861 3.75993
1.60683 1.70971 3.766
1.60086 1.70976 3.76905
1.58381 1.70468 3.76325
1.57289 1.70684 3.7733
1.56196 1.70999 3.78334
1.54594 1.70596 3.78052
1.53296 1.70501 3.78363
1.52306 1.70921 3.79664
1.51301 1.70513 3.79078
1.50208 1.70726 3.79883
1.48912 1.70736 3.80493
1.4782 1.71051 3.81496
1.46318 1.70748 3.81212
1.45124 1.70861 3.8202
1.43419 1.70353 3.8144
1.42821 1.70358 3.81744
1.41831 1.70778 3.83046
1.40127 1.7037 3.82465
1.39135 1.70687 3.83568
1.37737 1.70591 3.8378
1.36339 1.70497 3.84092
1.34938 1.70296 3.84005
1.34341 1.70403 3.84408
1.33352 1.70824 3.85809
1.31851 1.70624 3.85724
1.3045 1.70423 3.85637
1.29257 1.70637 3.86543
1.2796 1.70644 3.86953
1.26458 1.70341 3.86669
1.24976 1.71176 3.88968
1.23166 1.7046 3.87792
1.21766 1.70261 3.87805
-3.22078 1.73098 2.6379
-3.27816 1.73427 2.58728
-3.30736 1.73587 2.55947
-3.32056 1.7315 2.53363
-3.33765 1.73433 2.52172
-3.36972 1.74221 2.51184
-3.36999 1.73169 2.47699
-3.37907 1.73153 2.46606
-3.39219 1.73131 2.45016
-3.41034 1.73202 2.43028
-3.43944 1.73785 2.41742
-3.44672 1.73031 2.38058
-3.45978 1.7332 2.37263
-3.49681 1.74414 2.36675
-3.50106 1.73667 2.33489
-3.5051 1.73658 2.32892
-3.50933 1.72914 2.29905
-3.54029 1.74124 2.30411
-3.52452 1.7278 2.27519
-3.53657 1.73069 2.26723
-3.5715 1.74483 2.27529
-3.55367 1.73251 2.25433
-3.56175 1.73235 2.24339
-3.57083 1.73319 2.23245
-3.57593 1.73101 2.21952
-3.58202 1.73083 2.20756
-3.60105 1.73579 2.20363
-3.60814 1.73561 2.19169
-3.60523 1.73145 2.18073
-3.62325 1.7374 2.17677
-3.63133 1.73725 2.16584
-3.63544 1.73504 2.1519
-3.64949 1.73795 2.14496
-3.65261 1.73573 2.13001
-3.66367 1.7366 2.12108
-3.68064 1.74466 2.12409
-3.68674 1.74347 2.11115
-3.68786 1.74025 2.09621
-3.70391 1.74416 2.08927
-3.70304 1.73991 2.07232
-3.71211 1.73976 2.06239
-3.7212 1.74061 2.05145
-3.73121 1.74358 2.04948
-3.75049 1.74205 2.01264
-3.76155 1.74393 2.0037
-3.97555 1.73719 1.60735
-3.98662 1.74005 1.59739
-3.99272 1.73986 1.58444
-3.98885 1.73461 1.56749
-4.00695 1.73941 1.55355
-4.00607 1.73617 1.53759
-4.01515 1.73702 1.52664
-4.02424 1.73886 1.51568
-4.02535 1.73564 1.50074
-4.03443 1.73748 1.48978
-4.03848 1.7384 1.48379
-4.04756 1.73924 1.47285
-4.05366 1.73905 1.45989
-4.04879 1.7348 1.44292
-4.04691 1.73056 1.42696
-4.053 1.73039 1.41501
-4.06109 1.73221 1.40304
-4.06713 1.73414 1.39806
-4.07122 1.73296 1.38511
-4.07632 1.73277 1.37214
-4.08043 1.73156 1.35819
-4.08851 1.73341 1.34722
-4.09361 1.73322 1.33426
-4.10768 1.73708 1.32431
-4.09777 1.73091 1.31333
-4.09788 1.72869 1.29836
-4.10297 1.72851 1.2864
-4.11604 1.73237 1.27644
-4.11616 1.72915 1.26148
-4.12824 1.732 1.25053
-4.12635 1.72877 1.23556
-4.12641 1.72767 1.22858
-4.14845 1.73558 1.22163
-4.12763 1.72324 1.19965
-4.13771 1.72609 1.18868
-4.14381 1.7269 1.17571
-4.1469 1.72571 1.16275
-4.15101 1.7255 1.14878
-4.14508 1.72137 1.1398
-4.14419 1.71914 1.12482
-4.15228 1.71997 1.11287
-4.15638 1.71978 1.0999
-4.15549 1.71758 1.08593
-4.16558 1.71941 1.07397
-4.16968 1.71922 1.06101
-4.17078 1.71801 1.04703
-4.17283 1.71791 1.04005
-4.17294 1.7157 1.02608
-4.18103 1.71753 1.01411
-4.17914 1.7143 0.999141
2.92409 1.66763 2.73556
2.92021 1.67187 2.75153
2.90826 1.66997 2.75765
2.90033 1.67112 2.76769
2.89545 1.67435 2.78268
2.88141 1.66928 2.77786
2.88357 1.67659 2.79874
2.86457 1.67061 2.79897
2.85463 1.67073 2.80704
2.83576 1.67101 2.82519
2.82886 1.67421 2.83819
2.82188 1.67225 2.84027
2.81295 1.6734 2.85033
2.81916 1.68379 2.87713
2.79813 1.67675 2.87339
2.79628 1.68303 2.89231
2.78735 1.68319 2.90238
2.76933 1.67817 2.90059
2.76639 1.68029 2.90858
2.76251 1.68352 2.92357
2.75561 1.68671 2.93657
2.73861 1.68173 2.93677
2.73776 1.68802 2.95669
2.72681 1.68814 2.96377
2.71588 1.68828 2.97285
2.70097 1.68846 2.98496
2.08414 1.6951 3.40757
1.76352 1.70602 3.59085
1.75054 1.70507 3.59396
1.73859 1.70517 3.60005
1.72866 1.70732 3.6101
1.71062 1.70225 3.60431
1.69968 1.70337 3.61237
1.69675 1.70652 3.62235
1.68071 1.70246 3.61753
1.66979 1.70462 3.62758
1.6609 1.70883 3.64159
1.64384 1.70274 3.63481
1.6319 1.70385 3.64188
1.62094 1.70495 3.64795
1.60989 1.69985 3.64111
1.602 1.70508 3.65609
1.5931 1.70928 3.6691
1.57197 1.69905 3.65241
1.56716 1.70842 3.67731
1.54705 1.69923 3.66359
1.53612 1.70137 3.67264
1.52708 1.6983 3.66776
1.51615 1.69943 3.67582
1.50215 1.69744 3.67596
1.49326 1.70266 3.69095
1.47037 1.70489 3.70509
1.45434 1.70084 3.70127
1.44633 1.69983 3.70035
1.4224 1.7 3.71053
1.41045 1.7011 3.7166
1.38348 1.69917 3.72083
1.36557 1.70135 3.73194
1.33962 1.70047 3.73915
1.31365 1.69955 3.74336
1.28874 1.70075 3.75553
1.26979 1.70085 3.76167
1.2329 1.7031 3.77692
1.22303 1.70934 3.7929
-1.75818 1.72998 3.50902
-2.06226 1.73305 3.36624
-2.26619 1.73136 3.24379
-2.55164 1.7307 3.05192
-2.87265 1.72896 2.78633
-2.93907 1.73018 2.7308
-2.95706 1.7362 2.73085
-2.95714 1.73205 2.72091
-2.96126 1.72883 2.70599
-2.98223 1.73689 2.70903
-2.99031 1.73573 2.6981
-3.01144 1.7365 2.68125
-3.0096 1.72918 2.66034
-3.03859 1.73922 2.66141
-3.04469 1.73603 2.6485
-3.05376 1.73589 2.63857
-3.06184 1.73573 2.62763
-3.06794 1.73356 2.61571
-3.09098 1.73949 2.60979
-3.08715 1.73016 2.5879
-3.10714 1.73717 2.58795
-3.1172 1.73806 2.58001
-3.11834 1.7328 2.56209
-3.13336 1.73676 2.55914
-3.14144 1.73561 2.54822
-3.14151 1.73347 2.53925
-3.15258 1.73435 2.53032
-3.17853 1.74445 2.53637
-3.16874 1.73305 2.50946
-3.18675 1.73803 2.50752
-3.19681 1.73892 2.49958
-3.20192 1.73672 2.48565
-3.20993 1.73869 2.48368
-3.22297 1.74161 2.47774
-3.22311 1.73635 2.45981
-3.23318 1.73722 2.45088
-3.24921 1.74117 2.44694
-3.24338 1.73284 2.42501
-3.25842 1.73577 2.41908
-3.27239 1.74083 2.42311
-3.26656 1.7325 2.40119
-3.27365 1.73233 2.38924
-3.3006 1.74242 2.3943
-3.28881 1.73102 2.36737
-3.30286 1.73394 2.36144
-3.32584 1.74197 2.36249
-3.31994 1.73577 2.34954
-3.33001 1.73665 2.3406
-3.34604 1.7416 2.33665
-3.34617 1.73635 2.31972
-3.35724 1.73822 2.31078
-3.37227 1.74216 2.30583
-3.36743 1.73486 2.2859
-3.38041 1.73888 2.28694
-3.39247 1.74179 2.27998
-3.39657 1.73858 2.26606
-3.39571 1.73432 2.24811
-3.41175 1.73826 2.24318
-3.42181 1.73913 2.23424
-3.42393 1.73591 2.2193
-3.43592 1.73992 2.21933
-3.44202 1.73874 2.20739
-3.45407 1.74165 2.20044
-3.46513 1.74252 2.19151
-3.4762 1.7444 2.18256
-3.48229 1.74323 2.17062
-3.49037 1.74307 2.15969
-3.49243 1.74197 2.15272
-3.50249 1.74384 2.14376
-3.51667 1.74251 2.12089
-3.52773 1.74438 2.11194
-3.54091 1.74305 2.08906
-4.04532 1.7338 1.10586
-4.05153 1.73141 1.07894
-4.06575 1.73298 1.04902
-4.06387 1.72975 1.03405
-4.06907 1.72836 1.0071
-4.08424 1.73103 0.984176
-4.07937 1.72679 0.9682
-4.07443 1.72366 0.960208
-4.07553 1.72146 0.946247
-4.07763 1.72027 0.933279
-4.08073 1.72008 0.920303
-4.08483 1.71989 0.907335
-4.07097 1.71161 0.889351
-4.08404 1.71547 0.879391
-4.0873 1.71297 0.845448
3.06056 1.66057 2.39959
3.05666 1.66377 2.41257
3.03383 1.66312 2.43576
3.01007 1.6646 2.46692
3.00314 1.66575 2.47695
2.99314 1.66276 2.47707
2.98723 1.66494 2.48909
2.97427 1.66203 2.49423
2.97541 1.66829 2.51213
2.96447 1.66742 2.52023
2.95151 1.66552 2.52635
2.94862 1.66873 2.54033
2.95171 1.6739 2.55223
2.93774 1.66997 2.5564
2.92983 1.67114 2.56744
2.92089 1.67128 2.57651
2.90692 1.66835 2.58065
2.90505 1.6736 2.59759
2.89914 1.67477 2.60862
2.89317 1.67483 2.61267
2.88625 1.676 2.6237
2.87732 1.67614 2.63277
2.87041 1.67832 2.64479
2.86046 1.67743 2.65188
2.85456 1.68063 2.66488
2.84563 1.68077 2.67395
2.83765 1.67881 2.67604
2.83073 1.68097 2.68706
2.82281 1.68114 2.69812
2.81489 1.6823 2.70816
2.81 1.68551 2.72215
2.80005 1.68562 2.72922
2.79214 1.6868 2.74127
2.77622 1.68596 2.7514
1.37881 1.71684 3.63059
1.35882 1.71487 3.63177
-1.40594 1.72923 3.54038
-1.60156 1.72612 3.45789
-1.83526 1.7309 3.36556
-1.86544 1.72757 3.34184
-2.22766 1.7434 3.18031
-2.22982 1.73609 3.15943
-2.24104 1.72767 3.13064
-2.32945 1.72792 3.07629
-2.67601 1.74606 2.8686
-2.66321 1.73369 2.84369
-2.67937 1.73039 2.82286
-2.70757 1.72901 2.79608
-2.73173 1.72871 2.77527
-2.76291 1.73038 2.75148
-2.78806 1.7311 2.73165
-2.82023 1.73279 2.70887
-2.83837 1.73152 2.69002
-2.85141 1.73445 2.68507
-2.85758 1.72913 2.66319
-2.87855 1.73619 2.66625
-2.87373 1.72685 2.64335
-2.88578 1.72875 2.63641
-2.90178 1.73375 2.63546
-2.90795 1.72843 2.61358
-2.92496 1.73341 2.61163
-2.92609 1.72818 2.59572
-2.93715 1.72906 2.58779
-2.95416 1.73405 2.58584
-2.95231 1.72675 2.56593
-2.96535 1.72969 2.56098
-2.98031 1.73577 2.56601
-2.97746 1.72847 2.54609
-2.9905 1.73039 2.54016
-3.00752 1.73537 2.53821
-3.00666 1.72911 2.5203
-3.01176 1.7269 2.50637
-3.03274 1.73395 2.50842
-3.02983 1.72978 2.49746
-3.0389 1.72964 2.48753
-3.05988 1.73769 2.48957
-3.06101 1.73244 2.47265
-3.06909 1.73229 2.46271
-3.07816 1.73215 2.45278
-3.08226 1.72896 2.43986
-3.09325 1.73299 2.44088
-3.09934 1.73181 2.42894
-3.10543 1.72964 2.41702
-3.11351 1.7295 2.40708
-3.12358 1.73037 2.39814
-3.13463 1.73228 2.3912
-3.1437 1.73213 2.38127
-3.15867 1.7382 2.38529
-3.15979 1.73397 2.36936
-3.17284 1.73689 2.36341
-3.17793 1.73471 2.35148
-3.18502 1.73354 2.33955
-3.19806 1.73646 2.33361
-3.20912 1.73735 2.32567
-3.20919 1.73522 2.31671
-3.21428 1.73305 2.30477
-3.23527 1.74106 2.30481
-3.23938 1.73786 2.29089
-3.24447 1.73568 2.27896
-3.25951 1.74062 2.274
-3.26162 1.7364 2.25908
-3.27367 1.7393 2.25212
-3.28367 1.74231 2.25215
-3.28778 1.74011 2.23821
-3.29983 1.74201 2.23128
-3.30493 1.73982 2.21835
-3.313 1.73968 2.20841
-3.31909 1.73951 2.19645
-3.32816 1.73938 2.18752
-3.33121 1.73929 2.18155
-3.34028 1.73915 2.17162
-3.35432 1.74307 2.16566
-3.36141 1.74292 2.15472
-3.3675 1.74174 2.14278
-3.37856 1.74263 2.13485
-3.37166 1.73743 2.12187
-3.38968 1.7424 2.11893
-3.40683 1.7431 2.09805
-3.9837 1.72607 0.923484
-3.9878 1.72588 0.910516
-3.99688 1.72872 0.899541
-3.98795 1.72358 0.890548
-3.98606 1.72037 0.87658
-3.99714 1.72422 0.865605
-3.98327 1.71496 0.848635
-3.98338 1.71375 0.834652
-3.99345 1.71661 0.824684
3.26842 1.65726 1.98201
3.2218 1.65505 2.0334
3.19902 1.6545 2.06259
3.18613 1.65371 2.0767
3.18625 1.65795 2.09264
3.17128 1.65402 2.09681
3.16336 1.65417 2.10687
3.16146 1.65738 2.12084
3.15247 1.6544 2.12195
3.14857 1.6566 2.13495
3.15071 1.66286 2.15284
3.13674 1.65893 2.157
3.12277 1.65602 2.16215
3.12692 1.6623 2.18103
3.10994 1.65735 2.18423
3.10798 1.65844 2.19023
3.1071 1.66266 2.20518
3.09616 1.66179 2.21328
3.08722 1.66092 2.22136
3.09137 1.66821 2.24122
3.08043 1.66734 2.24932
3.06747 1.66342 2.25447
3.06149 1.66347 2.25752
3.04853 1.65955 2.26267
3.04262 1.66173 2.27469
3.03771 1.66391 2.28669
3.02777 1.66304 2.29478
3.02891 1.66831 2.3127
3.02803 1.67354 2.32863
3.01601 1.66851 2.3258
3.00305 1.66561 2.33194
3.00318 1.67084 2.34786
2.9882 1.66691 2.35203
2.99337 1.67522 2.37287
2.97752 1.67653 2.39298
2.97456 1.67762 2.39898
2.95858 1.67266 2.40118
2.95468 1.67587 2.41516
2.94675 1.67601 2.42422
2.925 1.6795 2.45634
2.91499 1.67549 2.45547
2.89812 1.67577 2.4736
2.89725 1.68102 2.49053
2.8853 1.68012 2.49663
2.87939 1.6813 2.50866
-1.37654 1.731 3.45912
-1.39053 1.73303 3.46019
-1.40774 1.72466 3.43444
-1.42172 1.7277 3.43651
-1.44382 1.72551 3.4227
-1.4508 1.72756 3.42573
-1.4729 1.72638 3.41291
-1.4869 1.72839 3.41298
-1.49598 1.72523 3.4021
-1.50899 1.72721 3.40017
-1.52299 1.72924 3.40124
-1.53808 1.72706 3.38838
-1.55011 1.72702 3.38548
-1.57417 1.72792 3.37764
-1.5852 1.72785 3.37273
-1.59429 1.72468 3.36084
-1.60718 1.7329 3.37482
-1.6202 1.73488 3.37289
-1.62731 1.72966 3.35801
-1.64425 1.73679 3.36604
-1.65136 1.73158 3.35117
-1.66438 1.73256 3.34925
-1.97741 1.74072 3.21247
-1.98639 1.74377 3.21549
-2.00039 1.74577 3.21457
-2.00848 1.74361 3.20366
-2.0215 1.74556 3.19973
-2.04558 1.74643 3.18989
-2.05564 1.74532 3.18199
-2.43077 1.73039 2.90099
-2.45774 1.73947 2.90506
-2.46284 1.73626 2.89115
-2.47884 1.74028 2.89121
-2.48792 1.73913 2.88129
-2.49499 1.73699 2.87138
-2.51001 1.74096 2.86843
-2.51116 1.73368 2.84954
-2.52114 1.73773 2.85256
-2.53812 1.74276 2.85361
-2.53234 1.73034 2.82575
-2.54636 1.73432 2.8238
-2.5693 1.74344 2.83083
-2.5635 1.73205 2.80496
-2.57852 1.73502 2.80202
-2.58553 1.73701 2.80105
-2.58666 1.73074 2.78315
-2.59969 1.73369 2.7792
-2.62066 1.74077 2.78325
-2.62774 1.73961 2.77232
-2.63681 1.73948 2.76339
-2.64687 1.73937 2.75547
-2.64496 1.73419 2.74353
-2.65898 1.73716 2.74059
-2.67103 1.73908 2.73465
-2.67316 1.73383 2.71774
-2.68222 1.73371 2.70981
-2.70021 1.73874 2.71087
-2.70234 1.73349 2.69396
-2.71331 1.73854 2.69697
-2.72932 1.74253 2.69503
-2.72946 1.73626 2.67713
-2.74349 1.73921 2.67319
-2.75652 1.74216 2.66924
-2.75865 1.73691 2.65233
-2.76772 1.73678 2.6434
-2.78168 1.74287 2.64842
-2.78479 1.73765 2.63352
-2.79783 1.74058 2.62857
-2.81383 1.74558 2.62762
-2.811 1.73725 2.60572
