0.136173 1.81497 8.85742
0.10722 1.81608 8.86362
0.0931437 1.81394 8.85375
2.13662 1.81665 8.24424
2.11067 1.81678 8.25143
2.05575 1.81596 8.26186
2.0438 1.81708 8.26893
1.98887 1.81625 8.27836
1.96089 1.8153 8.28058
1.90905 1.81765 8.30194
1.88108 1.81773 8.30615
1.8681 1.81778 8.30925
1.8401 1.8168 8.30948
1.81315 1.81692 8.31668
1.78725 1.81812 8.32886
1.75612 1.81391 8.31315
1.73021 1.81509 8.32433
1.70534 1.81836 8.34147
1.68928 1.81525 8.33364
1.66336 1.81743 8.3448
1.63745 1.81862 8.35598
1.60841 1.81656 8.35123
1.58146 1.81669 8.35843
1.55453 1.81784 8.36762
1.52753 1.81686 8.36784
1.51355 1.81691 8.37094
1.48555 1.81592 8.37017
1.45862 1.81709 8.38036
1.43062 1.81611 8.38058
1.40367 1.81722 8.38677
1.37669 1.81628 8.38999
1.35079 1.81949 8.40314
1.30984 1.81961 8.40944
1.25493 1.81983 8.42185
1.22796 1.81991 8.42606
1.18699 1.81998 8.42937
1.15899 1.819 8.42959
1.103 1.81807 8.43203
1.07602 1.81812 8.43423
1.04803 1.81716 8.43546
1.0211 1.81931 8.44463
1.00712 1.81936 8.44773
0.979058 1.81726 8.43997
0.95212 1.8184 8.44816
0.924128 1.81744 8.44939
0.895014 1.81424 8.43465
0.869121 1.81646 8.44882
0.840084 1.81541 8.44405
0.828183 1.81761 8.45711
0.80023 1.81872 8.4633
0.772161 1.81561 8.45456
0.745223 1.81775 8.46273
0.718269 1.81785 8.46893
0.690316 1.81896 8.47513
0.64937 1.8201 8.48242
0.622379 1.82013 8.48363
0.566395 1.8202 8.48605
0.484489 1.82144 8.49865
0.470497 1.82146 8.49975
0.414513 1.82153 8.50217
0.387521 1.82157 8.50338
0.290547 1.82168 8.5071
0.0505221 1.79892 8.1082
0.0376141 1.80111 8.12026
0.0106306 1.80216 8.12245
-0.0153687 1.80218 8.12265
-0.0415217 1.7969 8.10292
-0.0682674 1.80541 8.136
-0.0945428 1.7969 8.10032
-0.121396 1.8012 8.11946
-0.134342 1.80331 8.12653
-0.161341 1.80333 8.12673
-0.187394 1.80224 8.11994
-0.21437 1.80331 8.12313
-0.240431 1.80121 8.11535
-0.267368 1.80335 8.12353
-0.29249 1.80013 8.10776
-0.306421 1.80227 8.11684
-0.332443 1.80125 8.11405
-0.359442 1.80227 8.11424
-0.386372 1.80442 8.12341
-0.412386 1.80441 8.1216
-0.439316 1.80656 8.13078
-0.4645 1.80122 8.10704
-0.480231 1.80975 8.14204
-0.505367 1.8065 8.12427
-0.531436 1.80439 8.1155
-0.558404 1.80547 8.11969
-0.584418 1.80546 8.11788
-0.612317 1.80967 8.13103
-0.639316 1.80969 8.13124
-0.6514 1.80754 8.12036
-0.678353 1.80964 8.12653
-0.706252 1.81286 8.1397
-0.731389 1.80961 8.12193
-0.759288 1.81282 8.13509
-0.785356 1.81171 8.12631
-0.811401 1.81064 8.12052
-0.8244 1.81165 8.1206
-0.851415 1.81164 8.1188
-0.877467 1.81055 8.11201
-0.903489 1.81053 8.10921
-0.93048 1.81156 8.1104
-0.957509 1.81152 8.1066
-0.98447 1.81262 8.11179
-0.995585 1.8094 8.09692
-1.02352 1.81254 8.10509
-1.07656 1.8125 8.10048
-1.12961 1.81244 8.09388
-1.15472 1.81025 8.0801
-1.33988 1.81105 8.05848
3.43255 1.79886 7.43462
3.40863 1.79904 7.4458
3.37073 1.79926 7.45909
3.3458 1.79842 7.46829
3.32392 1.79967 7.48444
3.29696 1.79876 7.48965
3.22521 1.8003 7.52318
2.97794 1.8019 7.62103
2.90418 1.80342 7.65257
2.84032 1.80273 7.67106
2.75734 1.79785 7.67576
2.69655 1.79929 7.7032
2.6279 1.80502 7.74964
2.59785 1.80194 7.74291
2.56096 1.80218 7.75719
2.53399 1.80126 7.7614
2.48208 1.80147 7.77379
2.41344 1.80722 7.82123
2.39326 1.80089 7.79847
2.34341 1.80221 7.81783
2.31746 1.80233 7.82503
2.26657 1.80258 7.83941
2.23753 1.79952 7.83467
2.2027 1.80287 7.85689
2.1716 1.79872 7.84518
2.15697 1.80844 7.89316
2.12482 1.80217 7.87349
2.09578 1.79912 7.86875
2.07705 1.80665 7.90379
2.05891 1.80139 7.886
2.035 1.80359 7.89815
2.01009 1.80478 7.91032
1.98104 1.8017 7.90358
1.95402 1.79969 7.90182
1.93222 1.80408 7.92692
1.90212 1.79991 7.9142
1.88811 1.7989 7.91333
1.86627 1.80323 7.93443
1.83721 1.80013 7.92669
1.80505 1.79285 7.90604
1.78737 1.80248 7.94804
1.75829 1.79835 7.93831
1.73232 1.79842 7.94151
1.72245 1.80169 7.95954
1.69233 1.79748 7.94383
1.66327 1.79338 7.9361
1.64252 1.80087 7.96815
1.61133 1.79354 7.94449
1.58435 1.7936 7.9477
1.57553 1.79795 7.9707
1.54748 1.79586 7.96394
1.49659 1.79712 7.97931
1.46851 1.79398 7.96857
1.44045 1.7909 7.96182
1.41558 1.79415 7.97796
1.40255 1.79212 7.97509
1.37764 1.7943 7.98625
1.35273 1.79649 7.99841
1.3226 1.79126 7.98171
1.30081 1.79668 8.0088
1.27273 1.79355 7.99905
1.24469 1.7915 7.99429
1.23169 1.79149 7.99339
1.20676 1.79266 8.00356
1.17975 1.79165 8.00178
1.15377 1.79171 8.00498
1.10184 1.79188 8.01437
1.07485 1.79192 8.01557
0.983996 1.79327 8.03524
0.906043 1.79341 8.04182
0.892005 1.79235 8.03694
0.841167 1.7957 8.05828
0.814098 1.79258 8.04953
0.762191 1.7948 8.06189
0.735138 1.79271 8.05512
0.722184 1.79381 8.0612
0.670292 1.79606 8.07556
0.617324 1.79615 8.07996
0.565425 1.79938 8.09331
0.551295 1.79514 8.07647
0.525357 1.79628 8.08465
0.498273 1.79314 8.0739
0.473496 1.80058 8.10298
0.446397 1.79641 8.09025
0.393344 1.79435 8.08368
0.354567 1.8008 8.11288
0.327377 1.79545 8.08816
0.3014 1.79552 8.09135
0.275555 1.80083 8.11147
0.24844 1.79663 8.09674
0.209602 1.80097 8.11797
0.182511 1.79881 8.1062
0.156603 1.80101 8.11837
0.129551 1.79992 8.11159
0.103521 1.79888 8.1078
0.0775828 1.80102 8.11596
0.055973 1.78991 7.77024
0.0439426 1.78886 7.76635
0.0178818 1.78676 7.75857
-0.00708669 1.78784 7.76275
-0.0320935 1.78784 7.76193
-0.0581084 1.78683 7.76014
-0.0830921 1.78788 7.76232
-0.108022 1.79003 7.77147
-0.121068 1.78895 7.76559
-0.146152 1.78581 7.75482
-0.172081 1.78896 7.76397
-0.197096 1.78795 7.76218
-0.222134 1.78689 7.75738
-0.248079 1.78902 7.76454
-0.273117 1.78796 7.75975
-0.285139 1.78793 7.75684
-0.311038 1.79114 7.76999
-0.336107 1.78902 7.76121
-0.362067 1.79111 7.76637
-0.388051 1.79116 7.76857
-0.412135 1.78902 7.75778
-0.438149 1.78901 7.75598
-0.451095 1.79112 7.76304
-0.476132 1.79006 7.75825
-0.500239 1.78687 7.74447
-0.526161 1.79004 7.75462
-0.552145 1.79109 7.7568
-0.577159 1.79108 7.75499
-0.603112 1.79319 7.76116
-0.61425 1.78893 7.7433
-0.641118 1.7932 7.76044
-0.666209 1.79104 7.74866
-0.691224 1.79103 7.74685
-0.717215 1.79206 7.74803
-0.743144 1.79521 7.75718
-0.768205 1.79311 7.7494
-0.782097 1.79733 7.76344
-0.808088 1.79836 7.76463
-0.831287 1.792 7.73889
-0.857201 1.79518 7.75004
-0.884146 1.7983 7.7572
-0.907291 1.79404 7.73843
-0.933267 1.7951 7.74161
-0.94722 1.7972 7.74769
-0.973211 1.79823 7.74887
-0.99731 1.79606 7.73608
-1.02326 1.79817 7.74225
-1.04927 1.79917 7.74143
-1.07334 1.79704 7.73164
-1.09838 1.79698 7.72683
-1.11138 1.79699 7.72693
-1.13738 1.79801 7.72711
-1.16048 1.79584 7.71431
-1.18649 1.79583 7.71251
-1.21341 1.80001 7.72365
-1.23941 1.80103 7.72383
-1.26443 1.80099 7.72002
-1.27648 1.79991 7.71412
-1.30342 1.80303 7.72128
-1.32848 1.80193 7.71349
-1.35448 1.80296 7.71467
-1.37855 1.80183 7.70486
-1.40456 1.80284 7.70404
-1.41564 1.79968 7.69317
-1.44356 1.80385 7.70332
-1.46667 1.80166 7.68953
3.64695 1.78764 6.95611
3.58023 1.78924 6.99359
3.52243 1.78867 7.02004
3.45369 1.79022 7.05454
3.42874 1.78934 7.06174
3.39486 1.7896 7.078
3.37094 1.78978 7.08917
3.3251 1.79011 7.10952
3.30422 1.79137 7.12566
3.25432 1.7896 7.13906
3.24031 1.78861 7.13918
3.21536 1.78771 7.14539
3.19347 1.78895 7.16053
3.1726 1.7912 7.17666
3.14968 1.79138 7.18783
3.12677 1.79258 7.19999
3.06488 1.78983 7.2145
3.04401 1.7921 7.23162
3.02111 1.79331 7.24478
2.99105 1.78922 7.23807
2.96508 1.7883 7.24228
2.94725 1.79164 7.26436
2.93121 1.78958 7.25951
2.90421 1.7866 7.25976
2.88742 1.79201 7.28681
2.85635 1.7869 7.27812
2.83036 1.78593 7.27933
2.81358 1.79137 7.30838
2.78352 1.78628 7.30068
2.76951 1.78527 7.2998
2.74964 1.78755 7.31792
2.72164 1.78556 7.31716
2.6977 1.7857 7.32534
2.67274 1.78479 7.33054
2.64983 1.78598 7.3427
2.62589 1.78612 7.35088
2.61289 1.78513 7.35099
2.591 1.78737 7.36612
2.56809 1.78856 7.37828
2.54211 1.78761 7.38049
2.51817 1.78775 7.38867
2.49936 1.79213 7.41375
2.47133 1.78909 7.41001
2.45628 1.78701 7.40415
2.4344 1.78825 7.4193
2.41046 1.78839 7.42748
2.38651 1.78851 7.43466
2.35747 1.78544 7.42892
2.34071 1.79193 7.46096
2.31165 1.78883 7.45322
2.3007 1.78894 7.4603
2.27884 1.79221 7.47742
2.25079 1.78914 7.47168
2.22377 1.78612 7.46892
2.20189 1.78937 7.48504
2.17075 1.78312 7.46737
2.15093 1.78749 7.49146
2.1369 1.78544 7.48759
2.11298 1.78661 7.49776
2.08903 1.78672 7.50394
2.06613 1.78894 7.51808
2.03808 1.78586 7.51133
2.01517 1.78705 7.52349
1.99909 1.78392 7.51366
1.97619 1.78511 7.52581
1.9512 1.78416 7.52801
1.93036 1.78848 7.54911
1.89819 1.78118 7.52746
1.87734 1.78448 7.54657
1.85239 1.7856 7.55374
1.84248 1.78677 7.5648
1.81545 1.78473 7.56103
1.79255 1.78694 7.57418
1.76655 1.78597 7.57539
1.73952 1.78393 7.57162
1.71664 1.78617 7.58676
1.69061 1.78413 7.58299
1.67864 1.7842 7.58708
1.65369 1.78532 7.59425
1.62976 1.78647 7.60341
1.60997 1.7919 7.63149
1.5767 1.78239 7.59587
1.51481 1.78265 7.61034
1.49087 1.78378 7.6185
0.460778 1.78526 7.74326
0.410764 1.78527 7.74163
0.385849 1.78745 7.75279
0.372811 1.78539 7.74792
0.321866 1.78753 7.75527
0.296798 1.78541 7.74649
0.271913 1.78865 7.76163
0.245875 1.7866 7.75686
0.207907 1.78769 7.76113
0.182962 1.78981 7.76829
0.157916 1.78774 7.7625
0.131848 1.78562 7.75373
0.10701 1.79095 7.77484
0.0819258 1.78781 7.76408
0.0409782 1.788 7.50535
0.0168257 1.78372 7.48559
-0.008097 1.78589 7.49575
-0.0201274 1.78484 7.49185
-0.0449962 1.78911 7.50898
-0.0690871 1.78695 7.49719
-0.0940406 1.78805 7.50336
-0.118032 1.78809 7.50454
-0.143023 1.78912 7.50572
-0.167977 1.79023 7.51189
-0.179099 1.787 7.49602
-0.204045 1.78812 7.50319
-0.228113 1.787 7.49439
-0.253043 1.78916 7.50354
-0.277157 1.78595 7.48877
-0.302895 1.79447 7.52284
-0.327025 1.79024 7.50608
-0.339009 1.79128 7.50816
-0.363978 1.79235 7.51233
-0.388138 1.78806 7.49158
-0.413053 1.79024 7.50273
-0.437129 1.78811 7.49294
-0.462004 1.79337 7.50906
-0.486134 1.78913 7.4923
-0.499003 1.79339 7.50934
-0.522171 1.78808 7.48758
-0.548093 1.79125 7.49773
-0.572092 1.79227 7.4979
-0.597091 1.79229 7.49809
-0.620236 1.78802 7.47932
-0.647074 1.79435 7.50043
-0.657235 1.78905 7.47959
-0.683119 1.79329 7.49472
-0.707179 1.79219 7.48692
-0.730301 1.78797 7.47115
-0.757138 1.7943 7.49226
-0.781214 1.79217 7.48248
-0.80619 1.79423 7.48563
-0.81632 1.78999 7.46877
-0.843181 1.79527 7.4869
-0.86721 1.79523 7.48308
-0.892217 1.79523 7.48227
-0.915315 1.79306 7.46947
-0.941261 1.79518 7.47664
-0.95329 1.79513 7.47273
-0.977312 1.7951 7.46991
-1.00231 1.79512 7.4701
-1.02635 1.79507 7.46528
-1.05132 1.79714 7.46943
-1.0754 1.795 7.45865
-1.10035 1.7971 7.4648
-1.11238 1.79705 7.4609
-1.13837 1.7981 7.46308
-1.18645 1.79698 7.45245
-1.23357 1.79477 7.43684
3.58479 1.78144 6.66963
3.51802 1.78195 6.70113
3.50909 1.78309 6.71018
3.43624 1.78044 6.73077
3.42143 1.78382 6.75584
3.39849 1.78395 6.76401
3.36643 1.77886 6.75632
3.33354 1.7791 6.77157
3.30757 1.77717 6.7748
3.2948 1.78262 6.80482
3.2678 1.77964 6.80506
3.23673 1.77555 6.79736
3.22802 1.78311 6.83532
3.20792 1.77794 6.82254
3.18805 1.78019 6.83866
3.16611 1.78034 6.84782
3.14929 1.78369 6.8709
3.1233 1.78174 6.87313
3.1014 1.78293 6.88528
3.07541 1.78098 6.8875
3.0624 1.77897 6.88663
3.04762 1.7844 6.91467
3.01348 1.77716 6.89703
3.00073 1.78366 6.93003
2.97373 1.78168 6.93027
2.95181 1.78185 6.94143
2.92583 1.7799 6.94365
2.91894 1.78313 6.95866
2.88785 1.77798 6.94697
2.87104 1.78236 6.97203
2.84503 1.77936 6.97128
2.82312 1.78054 6.98242
2.79509 1.7775 6.97868
2.78135 1.78402 7.01269
2.76019 1.77772 6.99194
2.73622 1.77681 6.99714
2.72247 1.7833 7.02915
2.68933 1.77605 7.0115
2.66638 1.77617 7.01867
2.64856 1.77953 7.04176
2.6246 1.77963 7.04794
2.6116 1.77864 7.04805
2.58663 1.77771 7.05126
2.56369 1.77784 7.05943
2.53462 1.77273 7.05072
2.52089 1.78026 7.08572
2.48566 1.77085 7.05712
2.46376 1.77306 7.07025
2.45791 1.77635 7.08925
2.43397 1.77648 7.09743
2.40692 1.77341 7.09168
2.38502 1.77462 7.10483
2.36105 1.7737 7.10902
2.33606 1.77273 7.11023
2.32511 1.77384 7.11729
2.27718 1.77301 7.12667
2.25629 1.77424 7.14081
2.20634 1.77338 7.1482
2.18339 1.77348 7.15437
2.17449 1.77568 7.16741
2.10261 1.77497 7.18396
2.08275 1.77825 7.20207
2.05569 1.77517 7.19531
2.0338 1.77639 7.20946
2.02181 1.77641 7.21055
1.9989 1.77761 7.22271
1.97388 1.7756 7.22093
1.95301 1.77886 7.23804
1.92905 1.77894 7.24222
1.90614 1.78013 7.25438
1.86813 1.77815 7.25369
1.84208 1.77508 7.24793
1.81916 1.77624 7.25809
1.79418 1.77529 7.26029
1.7733 1.77854 7.2764
1.75138 1.77972 7.28755
1.72743 1.77983 7.29373
1.71339 1.77776 7.28887
1.68735 1.77571 7.28409
1.6665 1.779 7.30321
1.64355 1.78012 7.31036
1.59149 1.77604 7.30281
1.53263 1.77735 7.32124
1.19607 1.77846 7.38177
1.01637 1.78215 7.42107
0.966307 1.77907 7.41349
0.942345 1.77916 7.41867
0.9314 1.78127 7.42573
0.906423 1.78133 7.42891
0.882416 1.78034 7.42811
0.858477 1.78147 7.43627
0.833485 1.78151 7.43746
0.786578 1.78372 7.44978
0.773525 1.78162 7.44291
0.747471 1.77954 7.43614
0.724564 1.78173 7.44828
0.699503 1.77963 7.4405
0.674519 1.77968 7.44269
0.651626 1.7819 7.45683
0.614642 1.78196 7.45911
0.590612 1.78092 7.4553
0.565582 1.77988 7.45151
0.540567 1.77887 7.44971
0.516575 1.7789 7.45089
0.493737 1.78323 7.472
0.468707 1.78219 7.4682
0.431761 1.78332 7.47547
0.406639 1.7791 7.45972
0.383839 1.7855 7.4858
0.358732 1.78131 7.47205
0.33481 1.78448 7.48218
0.309756 1.78239 7.4754
0.297826 1.78453 7.48446
0.272696 1.7803 7.46771
0.249942 1.78779 7.49977
0.224797 1.78253 7.48104
0.199874 1.78569 7.49118
0.176044 1.79104 7.51328
0.150868 1.78471 7.49056
0.138984 1.78894 7.50559
0.11493 1.78686 7.49881
0.0899466 1.78791 7.50098
0.0659624 1.78795 7.50316
-0.308904 1.77158 7.12517
-0.460875 1.77474 7.12927
-0.47379 1.77791 7.14032
-0.495905 1.77371 7.12555
-0.54201 1.77153 7.11193
-0.612039 1.77152 7.10845
-0.624046 1.77152 7.10754
-0.647075 1.77148 7.10372
-0.695874 1.7789 7.12998
-0.740095 1.7725 7.1014
-0.764055 1.77459 7.10655
-0.775139 1.77244 7.09567
-0.800023 1.77668 7.1108
-0.846082 1.77659 7.10314
-0.86725 1.77128 7.08138
-0.893095 1.7776 7.10148
-0.913309 1.7702 7.07374
-0.926262 1.77229 7.07981
-0.950238 1.77436 7.08296
-0.973245 1.77436 7.08213
-0.996289 1.77429 7.0763
-1.01936 1.77217 7.06751
-1.04333 1.77423 7.07066
-1.06635 1.77422 7.06883
-1.0774 1.77312 7.06193
-1.10234 1.77626 7.07007
-1.12534 1.77728 7.07023
-1.14741 1.77514 7.06043
-1.17045 1.77509 7.0556
-1.19543 1.77715 7.05876
-1.22033 1.78034 7.0709
-1.22852 1.77498 7.04604
-1.25441 1.77922 7.06117
-1.27651 1.77703 7.04737
-1.30146 1.78015 7.05451
-1.32449 1.78011 7.05069
-1.34656 1.77798 7.04088
-1.36959 1.77793 7.03706
-1.38352 1.78108 7.04612
-1.40559 1.77996 7.0373
-1.42768 1.7778 7.0255
-1.47373 1.77873 7.01883
-1.49965 1.7829 7.02896
-1.52271 1.78181 7.02215
-1.53757 1.78707 7.03919
-1.55677 1.7817 7.01341
-1.58077 1.78272 7.01357
-1.59994 1.77841 6.99178
-1.65086 1.78359 7.00209
-1.68395 1.78244 6.99035
-1.72904 1.78229 6.97869
-1.79914 1.78314 6.96521
-1.87928 1.78291 6.94681
-1.92633 1.78486 6.94114
3.72031 1.77151 6.20769
3.63663 1.77121 6.25133
3.61369 1.77033 6.25852
3.60475 1.77146 6.26657
3.57978 1.76954 6.27079
3.56697 1.77391 6.29582
3.53591 1.76782 6.28815
3.52412 1.77324 6.31616
3.49507 1.76818 6.31045
3.47212 1.7673 6.31764
3.46319 1.76844 6.32669
3.45343 1.7749 6.35767
3.41729 1.76666 6.34006
3.40145 1.76998 6.36114
3.3795 1.7691 6.36832
3.35656 1.76822 6.3755
3.33259 1.76632 6.38071
3.32771 1.76954 6.3957
3.30375 1.76863 6.4009
3.27978 1.76671 6.40511
3.26293 1.77002 6.42519
3.23488 1.76495 6.41948
3.21499 1.76617 6.43361
3.20016 1.77051 6.45566
3.18106 1.76534 6.44388
3.15606 1.76336 6.4441
3.14125 1.76673 6.46816
3.12034 1.76792 6.4803
3.09228 1.76384 6.47357
3.08054 1.77033 6.50657
3.04435 1.76101 6.48298
3.04966 1.77059 6.5228
3.0216 1.76651 6.51607
2.99865 1.76562 6.52226
2.96654 1.75943 6.50859
2.95479 1.76593 6.54159
2.90989 1.76514 6.55394
2.8928 1.75999 6.54314
2.87596 1.76431 6.56421
2.85708 1.76656 6.58032
2.83105 1.76252 6.57658
2.81626 1.76793 6.60361
2.78921 1.76387 6.59787
2.77136 1.76717 6.61796
2.73438 1.76423 6.62028
2.68946 1.76343 6.63164
2.66651 1.76253 6.63782
2.61165 1.76285 6.65723
2.59177 1.76509 6.67235
-1.09681 1.7634 6.74218
-1.20791 1.76429 6.73
-1.24095 1.76422 6.72425
-1.26204 1.76206 6.71244
-1.28503 1.76411 6.71458
-1.30609 1.763 6.70675
-1.33103 1.76612 6.7139
-1.35304 1.76713 6.71305
-1.3722 1.76183 6.69227
-1.38707 1.76709 6.7093
-1.4091 1.76703 6.70447
-1.42921 1.76484 6.69065
-1.45315 1.76796 6.69779
-1.47519 1.7679 6.69295
-1.4982 1.76891 6.69211
-1.52024 1.76885 6.68728
-1.53027 1.7678 6.68337
-1.55715 1.77404 6.69848
-1.57821 1.77293 6.69066
-1.59637 1.76864 6.66985
-1.62033 1.77073 6.675
-1.64239 1.77063 6.66717
-1.66634 1.77373 6.6733
-1.67447 1.76949 6.65643
-1.69649 1.77047 6.65458
-1.71853 1.7704 6.64874
-1.74348 1.77351 6.65489
-1.76163 1.76924 6.63608
-1.78366 1.7702 6.63224
-1.80667 1.77118 6.63039
-1.81965 1.77224 6.63348
-1.83681 1.76794 6.61267
-1.86275 1.77206 6.6198
-1.88672 1.77414 6.62395
-1.90778 1.77403 6.61611
-1.9269 1.77081 6.6003
-1.95087 1.77387 6.60344
-1.95898 1.77067 6.58954
-1.98393 1.77379 6.59669
-2.00403 1.7716 6.58287
-2.02508 1.77151 6.57603
-2.04811 1.77248 6.57319
-2.076 1.77871 6.58731
-2.63953 1.77407 6.38559
-2.67674 1.77068 6.35792
-2.76296 1.77232 6.32954
-2.7911 1.77006 6.31078
-2.81511 1.77206 6.30993
-2.85331 1.76969 6.28325
-2.87634 1.77064 6.27941
-2.89641 1.77053 6.27056
-2.91452 1.76932 6.25572
-2.92556 1.76925 6.2508
-2.94956 1.77127 6.25095
-2.96276 1.76588 6.22413
-2.98382 1.76678 6.21627
-3.02398 1.76549 6.19559
-3.04799 1.7685 6.19473
-3.05606 1.76635 6.18482
-3.07515 1.76619 6.17296
-3.09622 1.76607 6.16412
-3.12122 1.76909 6.16426
-3.13834 1.76685 6.14742
-3.15842 1.76672 6.13758
-3.19051 1.76756 6.1258
-3.25073 1.76716 6.09626
3.7067 1.7644 5.86185
3.66687 1.76376 5.88416
3.65892 1.76487 5.89121
3.61503 1.76211 5.90558
3.59207 1.76121 5.91177
3.57621 1.76349 5.92986
3.54919 1.75948 5.92812
3.53434 1.76177 5.9472
3.5264 1.76291 5.95624
3.50141 1.75994 5.95748
3.47846 1.75905 5.96366
3.46968 1.76448 5.99265
3.44267 1.76149 5.9919
3.4197 1.75957 5.9961
3.40485 1.76287 6.01617
3.39083 1.75984 6.01332
3.36787 1.75894 6.01951
3.35301 1.76122 6.03759
3.32904 1.7593 6.0418
3.31013 1.76049 6.05392
3.28209 1.75544 6.04921
3.25709 1.75246 6.04944
3.24815 1.75358 6.05749
3.23025 1.75479 6.07061
3.21134 1.75598 6.08274
3.18229 1.75089 6.07603
3.17149 1.7563 6.10304
3.15565 1.75961 6.12311
3.12861 1.75557 6.11937
3.11967 1.75568 6.12644
3.09771 1.75479 6.13262
3.07576 1.75389 6.1388
3.04973 1.75087 6.13604
3.01192 1.75225 6.16031
-1.18723 1.75571 6.42193
-1.22928 1.75565 6.41624
-1.27232 1.7566 6.41055
-1.30338 1.7555 6.4028
-1.38753 1.75526 6.38344
-1.42958 1.75519 6.37675
-1.43959 1.75517 6.37483
-1.48457 1.75923 6.37711
-1.50366 1.75708 6.36628
-1.52663 1.75914 6.36943
-1.54769 1.75906 6.36259
-1.56484 1.75377 6.34279
-1.57583 1.75479 6.34386
-1.59782 1.75683 6.34499
-1.62275 1.76098 6.35412
-1.63893 1.75563 6.33032
-1.65997 1.75557 6.32548
-1.68489 1.75974 6.33561
-1.70397 1.75861 6.32576
-1.71693 1.76069 6.33083
-1.73698 1.7606 6.32398
-1.75511 1.75636 6.30718
-1.78199 1.76362 6.32328
-1.80105 1.7625 6.31444
-1.81918 1.75926 6.29762
-1.84216 1.76132 6.30076
-1.85413 1.76337 6.30382
-1.87421 1.76224 6.29399
-1.89817 1.76533 6.29912
-1.91724 1.7642 6.28928
-1.94023 1.76624 6.29143
-1.95835 1.76302 6.27561
-1.98427 1.76819 6.28573
-1.99233 1.76608 6.27782
-2.01532 1.76911 6.27895
-2.03539 1.76799 6.27011
-2.05351 1.76476 6.2543
-2.08042 1.77096 6.26641
-2.09852 1.76877 6.25258
3.03091 1.76426 5.89195
2.97313 1.76474 5.92138
2.9481 1.76171 5.91861
2.93122 1.76294 5.93373
2.91129 1.76309 5.94287
2.89826 1.76106 5.94
2.88137 1.76328 5.9541
2.85737 1.76029 5.95432
2.83743 1.75943 5.96249
2.81954 1.76165 5.97659
2.79653 1.75865 5.97581
2.77253 1.75667 5.97602
2.7646 1.75782 5.98606
2.74263 1.75688 5.98924
2.72676 1.75914 6.00633
2.69969 1.75403 5.99761
2.67873 1.75414 6.00377
2.66184 1.75536 6.01788
2.64883 1.75435 6.01699
2.62684 1.75238 6.01819
2.61302 1.75675 6.04223
2.58493 1.75159 6.03052
2.566 1.75175 6.04066
2.54505 1.75186 6.04681
2.52713 1.75303 6.05793
2.51718 1.75313 6.06401
2.49316 1.7501 6.06123
2.45327 1.75035 6.07653
2.41136 1.74956 6.08886
2.39548 1.75281 6.10494
2.26078 1.75048 6.14499
2.25079 1.75052 6.14707
2.18996 1.75089 6.16952
-2.10567 1.74957 5.96888
-2.14184 1.74727 5.94718
-2.16287 1.74823 5.94332
-2.18192 1.74814 5.93647
-2.20587 1.75124 5.9426
-2.22689 1.75321 5.93973
-2.23594 1.75213 5.93381
-2.25794 1.75415 5.93395
-2.27896 1.75512 5.93109
-2.30096 1.75712 5.93023
-2.32003 1.757 5.92137
-2.34007 1.75694 5.91652
-2.35207 1.75893 5.91559
-2.37014 1.75781 5.90674
-2.39018 1.75874 5.90087
-2.41121 1.75969 5.89702
-2.42931 1.75751 5.88418
-2.45033 1.7595 5.88231
-2.46449 1.7552 5.86148
-2.47059 1.752 5.84757
-2.49357 1.75504 5.8497
-2.51166 1.75389 5.83885
-2.53269 1.75484 5.834
-2.54979 1.75266 5.82116
-2.56983 1.7536 5.81629
-2.58989 1.75349 5.80844
-2.59597 1.75133 5.79752
-2.61996 1.75438 5.79965
-2.63607 1.75217 5.78481
-2.65808 1.75416 5.78294
-2.6791 1.75613 5.78007
-2.69425 1.75286 5.76123
-2.71332 1.75274 5.75238
-2.72038 1.75162 5.74444
-2.74141 1.75257 5.73959
-2.76048 1.75245 5.73073
-2.78348 1.75446 5.73088
-2.80155 1.75433 5.72101
-2.82061 1.75422 5.71316
-2.84165 1.75616 5.70829
-2.85069 1.75508 5.70237
-2.86681 1.75287 5.68752
-2.8839 1.75171 5.67567
-2.90296 1.7526 5.6678
-2.92695 1.75563 5.66893
-2.94011 1.75133 5.64809
-2.96213 1.7533 5.64523
-2.97608 1.7574 5.65127
-2.99416 1.75625 5.64042
-3.01126 1.75507 5.62757
-3.0323 1.75701 5.6227
-3.04643 1.75376 5.60485
-3.06845 1.75573 5.60199
-3.08654 1.75557 5.59012
-3.18795 1.75484 5.53689
3.33672 1.75379 5.46774
3.31982 1.755 5.48085
3.28398 1.75533 5.50212
3.25896 1.75132 5.50037
3.2451 1.75461 5.51943
3.22903 1.75049 5.51061
3.21518 1.75278 5.52968
3.19219 1.75082 5.53088
3.1763 1.75205 5.54599
3.15635 1.75117 5.55315
3.14249 1.75444 5.57121
3.11646 1.7504 5.56747
3.11154 1.75257 5.57847
3.08349 1.74649 5.57177
3.07166 1.75082 5.5938
3.05475 1.75201 5.60591
3.02872 1.74797 5.60217
3.0118 1.74815 5.61329
2.99287 1.74831 5.62344
2.98594 1.75045 5.63246
2.96092 1.74642 5.6297
2.943 1.74658 5.63984
2.92101 1.74463 5.64203
2.90005 1.74372 5.64721
2.88619 1.74699 5.66526
2.87418 1.74499 5.66438
2.86134 1.74931 5.68542
2.83428 1.74423 5.6787
2.81738 1.74543 5.69181
2.79335 1.74139 5.68805
2.77747 1.74364 5.70414
2.71069 1.7441 5.73264
-2.07954 1.74088 5.72077
-2.10859 1.74181 5.71498
-2.12764 1.74172 5.70812
-2.14571 1.7406 5.69927
-2.16378 1.73947 5.68942
-2.18773 1.74459 5.69653
-2.20187 1.74032 5.6777
-2.2268 1.74547 5.68681
-2.24465 1.75276 5.70584
-2.25979 1.7495 5.688
-2.28079 1.7515 5.68713
-2.29984 1.75143 5.68127
-2.31595 1.74923 5.66742
-2.3409 1.75334 5.67355
-2.35993 1.75428 5.66868
-2.36702 1.75212 5.65776
-2.38508 1.75202 5.6499
-2.41002 1.75614 5.65703
-2.42417 1.75287 5.63818
-2.44616 1.7559 5.6393
-2.45932 1.75058 5.61748
-2.4823 1.75364 5.6206
-2.48642 1.75041 5.60468
-2.51037 1.75452 5.6108
-2.52354 1.7502 5.58896
-2.54455 1.7522 5.58809
-2.56065 1.75001 5.57424
-2.58266 1.75201 5.57338
-2.59483 1.74769 5.55153
-2.60779 1.75076 5.55558
-2.62291 1.74755 5.54074
-2.64 1.74638 5.52889
-2.662 1.7494 5.52901
-2.67909 1.74823 5.51715
-2.6942 1.74602 5.5023
-2.71422 1.74699 5.49943
-2.7213 1.74585 5.4895
-2.7433 1.74887 5.48962
-2.76136 1.74874 5.48076
-2.77943 1.74862 5.4719
-2.7975 1.7485 5.46303
-2.82344 1.75363 5.47015
-2.8356 1.74932 5.44931
-2.84266 1.74821 5.44137
-2.86468 1.7502 5.43951
-2.87585 1.74487 5.41667
-2.89983 1.74893 5.41979
-2.92183 1.75193 5.41891
-2.93891 1.75078 5.40806
-2.956 1.75063 5.39719
-2.96602 1.75059 5.39426
-2.97719 1.74727 5.37239
-2.99723 1.7482 5.36653
-3.02022 1.75123 5.36766
-3.03139 1.74691 5.3458
-3.05242 1.74887 5.34193
-3.08247 1.75077 5.33413
-3.09857 1.74959 5.32127
-3.13274 1.74829 5.29954
5.49082 1.69922 2.95297
3.07582 1.75121 5.34973
3.0589 1.75138 5.36086
3.04689 1.74936 5.35898
3.01305 1.75071 5.38121
2.99412 1.75084 5.38936
2.97618 1.75099 5.39849
2.95623 1.75009 5.40465
2.9383 1.75024 5.41379
2.92121 1.74509 5.40299
2.90936 1.74839 5.42304
2.88636 1.74541 5.42325
2.86538 1.74346 5.42544
2.85152 1.74673 5.4435
2.83054 1.74479 5.44669
2.81564 1.74701 5.46077
2.80771 1.74813 5.46881
2.78265 1.74305 5.46207
2.76778 1.74631 5.47914
2.74679 1.74336 5.48134
2.72276 1.74032 5.47757
2.71398 1.74674 5.50554
2.69198 1.74377 5.50675
2.67794 1.74069 5.5009
2.65694 1.73872 5.50209
2.63902 1.73888 5.51223
2.62108 1.73901 5.52036
2.60314 1.73914 5.52849
2.55426 1.7384 5.54387
2.29811 1.74225 5.65776
-2.04673 1.73653 5.56357
-2.06773 1.73853 5.5627
-2.08872 1.74056 5.56382
-2.11167 1.74568 5.57092
-2.11386 1.73831 5.54604
-2.13778 1.74348 5.55615
-2.15486 1.74233 5.54529
-2.17292 1.74224 5.53843
-2.19685 1.74737 5.54654
-2.21785 1.74939 5.54666
-2.23493 1.74824 5.53581
-2.2469 1.7503 5.53987
-2.26692 1.75229 5.53799
-2.28497 1.7522 5.53113
-2.305 1.75315 5.52726
-2.34309 1.754 5.51554
-2.36429 1.74862 5.48877
-2.37841 1.74539 5.47292
-2.3955 1.74424 5.46207
-2.41945 1.74935 5.46817
-2.43063 1.743 5.44435
-2.45262 1.74603 5.44547
-2.46478 1.74173 5.42462
-2.47775 1.7448 5.42867
-2.49876 1.7468 5.4278
-2.50698 1.73938 5.39897
-2.52504 1.73927 5.39111
-2.54703 1.7423 5.39223
-2.55623 1.73591 5.36539
-2.58118 1.74103 5.3725
-2.58725 1.7389 5.36358
-2.60531 1.7388 5.35571
-2.61845 1.73552 5.33686
-2.63847 1.73649 5.33399
-2.6585 1.73845 5.33012
-2.68049 1.74148 5.33124
-2.69756 1.74136 5.32237
-2.70463 1.73922 5.31245
-2.72367 1.74016 5.30758
-2.74172 1.74107 5.3007
-2.7588 1.73993 5.29084
-2.77587 1.73981 5.28197
-2.79196 1.73864 5.27011
-2.81691 1.74375 5.27622
-2.81905 1.73949 5.2583
-2.84498 1.74462 5.26642
-2.86009 1.74343 5.25255
-2.88406 1.74749 5.25567
-2.90014 1.74634 5.24481
-2.91328 1.74308 5.22695
-2.92232 1.74301 5.22202
-2.94431 1.74704 5.22313
-2.96434 1.748 5.21926
-2.9755 1.7437 5.19841
-2.99948 1.74774 5.20053
-3.01655 1.74761 5.19066
-5.97736 1.63219 0.853075
5.37454 1.68779 2.784
5.36366 1.68703 2.80009
5.3588 1.68932 2.8191
5.35998 1.69367 2.84303
5.34509 1.69189 2.85717
5.33019 1.69111 2.87129
5.33036 1.69443 2.89325
5.33347 1.69764 2.90718
5.31856 1.69584 2.92032
5.30669 1.69609 2.93641
5.29982 1.69736 2.95444
5.28712 1.70095 2.99349
3.29848 1.74547 5.03909
3.14009 1.74377 5.12032
3.12417 1.74494 5.13143
3.11231 1.74722 5.14949
3.09133 1.74528 5.15267
3.07442 1.74645 5.16378
3.05952 1.74766 5.17688
3.03261 1.74687 5.1901
3.01264 1.74594 5.19426
2.99978 1.74822 5.21233
2.93006 1.74882 5.24985
2.91195 1.74261 5.23508
2.90315 1.749 5.26105
2.88723 1.74917 5.27217
2.8632 1.74515 5.26941
2.84933 1.74839 5.28547
2.82631 1.74438 5.2837
2.80634 1.74345 5.28787
2.79636 1.74249 5.28996
2.78452 1.74681 5.31098
2.75845 1.74071 5.30327
2.74659 1.74499 5.3213
2.7185 1.73783 5.30961
2.7087 1.74422 5.3356
2.6877 1.74125 5.3368
2.6706 1.73607 5.324
2.65266 1.73519 5.33115
2.64386 1.7416 5.35813
2.59884 1.73558 5.35556
2.58191 1.73674 5.36567
2.56092 1.73378 5.36687
2.53806 1.73706 5.38499
2.51606 1.73407 5.3852
2.49913 1.73422 5.39433
-1.40318 1.7362 5.50072
-1.42024 1.73511 5.49386
-1.45827 1.73606 5.48913
-1.50336 1.73592 5.47747
-1.52141 1.73583 5.47061
-1.5565 1.73468 5.45889
-1.57454 1.73462 5.45402
-1.58453 1.73564 5.45508
-1.60355 1.73661 5.45221
-1.62061 1.73552 5.44536
-1.63866 1.73543 5.43849
-1.65864 1.73747 5.44061
-1.67571 1.73635 5.43176
-1.69276 1.73526 5.4249
-1.70472 1.73835 5.43095
-1.72374 1.73931 5.42707
-1.74177 1.73928 5.42421
-1.75395 1.73293 5.40039
-1.772 1.73286 5.39453
-1.79588 1.74008 5.4086
-1.81394 1.73899 5.40176
-1.82199 1.73789 5.39483
-1.84002 1.73885 5.39095
-1.86099 1.74191 5.39407
-1.87611 1.73869 5.37923
-1.89317 1.73759 5.37137
-1.9161 1.74274 5.38047
-1.92729 1.73638 5.35564
-1.93827 1.73843 5.35869
-1.96022 1.74253 5.3648
-1.97631 1.74037 5.35295
-1.99531 1.74237 5.35207
-2.00944 1.73813 5.33523
-2.03336 1.74429 5.34532
-2.04553 1.73899 5.32449
-2.05945 1.74313 5.33353
-2.07455 1.74097 5.32168
-2.09847 1.74713 5.33177
-2.11357 1.74393 5.31793
-2.12966 1.74278 5.30707
-2.14575 1.74062 5.29522
-2.17163 1.74786 5.31031
-2.1987 1.74874 5.3015
-2.25085 1.74847 5.28089
-2.28498 1.74724 5.26416
-2.29106 1.7451 5.25424
-2.31205 1.74813 5.25535
-2.32518 1.74387 5.23751
-2.34421 1.74583 5.23363
-2.37834 1.7446 5.2169
-2.39227 1.74874 5.22594
-2.4054 1.7455 5.20909
-2.43853 1.74426 5.19135
-2.45856 1.74623 5.18848
-2.47267 1.74302 5.17363
-2.4907 1.74497 5.16973
-2.50169 1.74599 5.1708
-2.51876 1.74586 5.16093
-2.53582 1.74575 5.15306
-2.56601 1.74241 5.12833
-2.61817 1.74313 5.10771
-2.63114 1.7462 5.11177
-2.66329 1.74493 5.09202
-2.73056 1.74344 5.05655
-2.75369 1.74221 5.03974
-5.78485 1.65204 0.91834
-5.79147 1.64782 0.835441
-5.79861 1.64856 0.817481
5.04214 1.6892 2.86549
5.0212 1.68534 2.87371
5.00488 1.69768 2.96366
2.60714 1.74523 5.12932
2.59224 1.74743 5.1424
2.55819 1.74136 5.13575
2.54938 1.74673 5.16074
2.51922 1.73746 5.1411
2.51145 1.74489 5.17005
2.49248 1.74397 5.17421
2.47045 1.73994 5.17143
2.46369 1.7484 5.20236
2.44758 1.74221 5.18857
2.42861 1.74128 5.19273
2.40863 1.73932 5.19491
2.40085 1.74676 5.22386
2.37373 1.73954 5.20817
2.36086 1.74282 5.22622
2.33579 1.73669 5.2165
2.32782 1.73777 5.22155
2.31903 1.74417 5.24852
2.29292 1.73699 5.23482
2.28108 1.7423 5.25584
2.26007 1.73929 5.25404
2.2411 1.73836 5.2582
2.23435 1.74786 5.29111
2.21212 1.73543 5.26146
2.19825 1.73969 5.2785
2.17519 1.7346 5.27175
2.16334 1.73889 5.29078
2.14029 1.73482 5.28501
2.13049 1.74221 5.31098
2.10743 1.73711 5.30323
2.10152 1.73928 5.31424
2.08459 1.74144 5.32434
2.06458 1.73844 5.32353
2.04765 1.73957 5.33165
2.03786 1.74699 5.35961
2.00663 1.73457 5.33003
1.99481 1.73992 5.35304
1.98173 1.73578 5.3432
1.96786 1.74004 5.36024
1.94478 1.73491 5.35049
1.9299 1.73715 5.36557
1.91194 1.73725 5.37171
1.90013 1.74361 5.39571
1.87602 1.73742 5.38198
1.87012 1.74062 5.39498
1.84806 1.73653 5.3882
1.83318 1.73976 5.40327
1.81112 1.73568 5.39649
1.79418 1.73679 5.40361
1.77624 1.73692 5.41174
1.76725 1.73695 5.41281
1.74825 1.73597 5.41397
1.73338 1.73924 5.43103
1.71338 1.73724 5.43021
1.69438 1.73625 5.43037
1.67643 1.73637 5.4375
1.65744 1.73541 5.43966
1.65051 1.73753 5.44768
1.63051 1.73656 5.44885
1.61254 1.73562 5.452
1.59561 1.73778 5.4621
1.57867 1.7379 5.46922
1.56072 1.73901 5.47634
1.49477 1.73617 5.48388
0.98164 1.74021 5.6007
-0.00835114 1.73493 5.47322
-0.0893714 1.73495 5.47083
-0.108255 1.74018 5.4859
-0.307418 1.735 5.46547
-0.3614 1.73707 5.46785
-0.479526 1.73491 5.45177
-0.515548 1.73489 5.44904
-0.614581 1.73689 5.44476
-0.632627 1.73481 5.43892
-0.650657 1.73477 5.43506
-0.659664 1.73476 5.43413
-0.696608 1.73789 5.44136
-0.75069 1.73676 5.43078
-0.768682 1.73779 5.4319
-0.795734 1.73671 5.42512
-0.812803 1.73459 5.41628
-0.849785 1.73764 5.41851
-0.86683 1.73657 5.41266
-0.883899 1.73445 5.40382
-0.894836 1.73757 5.41185
-0.910913 1.73444 5.40202
-0.947903 1.73748 5.40325
-0.966909 1.73748 5.4024
-0.983977 1.73636 5.39354
-1.001 1.73632 5.39067
-1.01194 1.73945 5.39871
-1.02902 1.7363 5.38788
-1.04511 1.73415 5.37703
-1.06694 1.74248 5.39808
-1.08307 1.73724 5.38127
-1.10107 1.73925 5.38138
-1.12198 1.74344 5.39348
-1.12811 1.73919 5.37658
-1.14612 1.73918 5.37472
-1.16802 1.74539 5.38779
-1.1812 1.73804 5.364
-1.19922 1.73902 5.36212
-1.22013 1.7432 5.37322
-1.23525 1.73999 5.35838
-1.24622 1.74204 5.36143
-1.2652 1.7441 5.36454
-1.28225 1.74301 5.35768
-1.30126 1.74401 5.35681
-1.31926 1.74502 5.35693
-1.33536 1.74183 5.3431
-1.35337 1.74282 5.34222
-1.3653 1.74697 5.35125
-1.38236 1.74586 5.34339
-1.39747 1.74165 5.32857
-1.41646 1.74469 5.33067
-1.43545 1.74572 5.3318
-1.45154 1.74356 5.31995
-1.4715 1.74664 5.32505
-1.47953 1.74559 5.32113
-1.49757 1.74553 5.31626
-1.51365 1.74438 5.3054
-1.53653 1.75063 5.32148
-1.55165 1.74741 5.30564
-1.57161 1.75048 5.30975
-1.58379 1.74415 5.28693
-1.5928 1.74414 5.286
-1.6157 1.75035 5.29908
-1.62886 1.74503 5.27725
-1.64689 1.745 5.27439
-1.68197 1.74486 5.26366
-1.70291 1.74998 5.27074
-1.77818 1.7455 5.23537
-1.79817 1.74855 5.23747
-1.87538 1.74719 5.21007
4.97318 1.6864 2.60602
4.97025 1.68654 2.61504
4.95836 1.68575 2.62914
4.95349 1.68802 2.64715
4.95265 1.69133 2.66811
4.93874 1.68952 2.68024
4.92886 1.68977 2.69631
4.91504 1.69012 2.71941
4.91721 1.69444 2.74134
2.36533 1.74379 5.02215
2.2228 1.74481 5.08521
2.21482 1.74486 5.08827
2.19992 1.74705 5.10036
2.12907 1.7454 5.12092
2.10213 1.74454 5.12913
2.0713 1.74789 5.15132
2.05229 1.74589 5.15049
2.03433 1.74599 5.15663
2.01841 1.74715 5.16673
2.00534 1.74302 5.15789
1.97145 1.74326 5.17214
1.94059 1.74656 5.19133
1.90364 1.74468 5.19764
1.89772 1.74684 5.20865
1.87872 1.74586 5.20881
1.86281 1.74703 5.21991
1.84382 1.74607 5.22207
1.82789 1.74722 5.23117
1.79092 1.74531 5.23548
1.78501 1.74849 5.24748
1.76601 1.7465 5.24765
1.75113 1.74973 5.26272
1.72905 1.7446 5.25296
1.71108 1.74467 5.25709
1.69412 1.74476 5.26222
1.67513 1.7428 5.26439
1.67025 1.74803 5.27936
1.6492 1.74396 5.27357
1.63634 1.74823 5.29161
1.61529 1.74516 5.28581
1.60143 1.74944 5.30386
1.57934 1.74327 5.29211
1.56036 1.74333 5.29526
1.55649 1.74859 5.31221
1.53339 1.74241 5.29947
1.5144 1.74044 5.30065
1.50463 1.74989 5.33058
1.48048 1.74163 5.31188
1.46253 1.74273 5.318
1.45174 1.75115 5.34596
1.43349 1.73868 5.31328
1.41861 1.74292 5.32933
1.40063 1.74197 5.33148
1.38162 1.73997 5.33066
1.36777 1.74526 5.34969
1.34878 1.7443 5.35184
1.3277 1.74017 5.34206
1.31663 1.73603 5.3322
1.30589 1.74654 5.36614
1.28377 1.74033 5.35139
1.26476 1.73833 5.35056
1.25197 1.74573 5.37655
1.22673 1.7343 5.34691
1.21397 1.74375 5.37687
1.20496 1.74276 5.37695
1.1849 1.73866 5.36916
1.16899 1.74183 5.38024
1.15 1.74088 5.3824
1.13096 1.7378 5.37658
1.11197 1.73784 5.37873
1.09604 1.73899 5.38783
1.08601 1.73794 5.38392
1.06909 1.7401 5.39402
1.05317 1.74227 5.40511
1.0141 1.73817 5.39646
0.997187 1.74034 5.40756
0.979211 1.7404 5.41069
0.968133 1.73626 5.40084
0.952241 1.74048 5.4149
0.933179 1.73637 5.4071
0.916272 1.73956 5.41918
0.898295 1.73962 5.42232
0.880303 1.73965 5.42345
0.861288 1.73863 5.42161
0.855434 1.74392 5.44058
0.833264 1.73561 5.41886
0.81528 1.73565 5.421
0.799388 1.73987 5.43506
0.779304 1.73572 5.42427
0.762411 1.73894 5.43835
0.744427 1.73899 5.44049
0.735388 1.73692 5.43559
0.71745 1.73905 5.44369
0.699482 1.74012 5.44781
0.680381 1.73494 5.43503
0.662443 1.73708 5.44313
0.645498 1.73919 5.45023
0.599459 1.73615 5.44562
0.58256 1.73936 5.4587
0.54556 1.73838 5.459
0.526499 1.73528 5.45119
0.499561 1.73742 5.45936
0.445577 1.73649 5.46178
0.409585 1.73653 5.46305
0.327602 1.73562 5.46568
0.0466787 1.73695 5.47678
-0.85143 1.72942 5.20062
-0.997653 1.72808 5.17174
-1.01564 1.72911 5.17286
-1.03363 1.73115 5.17496
-1.05067 1.73009 5.1701
-1.09373 1.72999 5.16143
-1.10978 1.72889 5.15457
-1.12778 1.72991 5.15469
-1.1458 1.73089 5.15281
-1.16087 1.72877 5.14395
-1.16987 1.72878 5.14402
-1.18886 1.7308 5.14513
-1.20589 1.73076 5.14126
-1.2229 1.73174 5.13937
-1.23897 1.72962 5.13053
-1.25697 1.73062 5.12965
-1.27594 1.73369 5.13374
-1.28493 1.73471 5.1348
-1.30003 1.73153 5.12196
-1.31802 1.73356 5.12306
-1.33701 1.73558 5.12417
-1.3521 1.73243 5.11333
-1.36814 1.73236 5.10745
-1.39004 1.73856 5.12053
-1.39516 1.73335 5.10564
-1.41024 1.73119 5.09479
-1.43019 1.7353 5.10088
-1.44627 1.73316 5.09103
-1.46328 1.73416 5.09014
-1.47934 1.73304 5.08128
-1.49542 1.7309 5.07143
-1.50245 1.72985 5.0675
-1.52533 1.73709 5.08257
-1.53847 1.73283 5.06472
-1.55355 1.73069 5.05487
-1.57351 1.73377 5.05897
-1.59055 1.7337 5.0541
-1.5976 1.73262 5.04817
-1.61366 1.7315 5.03931
-1.63166 1.73251 5.03943
-1.65163 1.73658 5.04352
-1.66574 1.73239 5.02969
-1.67982 1.73124 5.01881
-1.69687 1.73014 5.01195
-1.70979 1.73532 5.02297
-1.72192 1.73106 5.00513
-1.74188 1.73415 5.01023
-1.75892 1.73409 5.00536
-1.77304 1.73087 4.99051
-1.79201 1.73393 4.99361
-1.81198 1.73701 4.99771
-1.82314 1.7317 4.97687
-1.83509 1.7358 4.9829
-1.85114 1.73471 4.97604
-1.87014 1.73674 4.97715
-1.8862 1.73663 4.96927
-1.90617 1.73969 4.97238
-1.92419 1.74066 4.9695
-1.93926 1.73954 4.96063
-1.94827 1.74051 4.95868
-1.96432 1.74043 4.95281
-1.98136 1.74036 4.94693
-2.0115 1.73811 4.92919
-2.02854 1.73805 4.92432
-2.05361 1.73792 4.91451
-2.0726 1.74095 4.91561
-2.09063 1.7419 4.91173
-2.10472 1.73974 4.89987
-2.14486 1.7395 4.88217
-2.156 1.73423 4.86333
-2.17599 1.73726 4.86443
-2.1891 1.73506 4.85056
-2.20417 1.73392 4.84069
-2.2212 1.73487 4.83681
-2.23529 1.73271 4.82494
-2.24233 1.73164 4.82001
-2.25643 1.72946 4.80715
-2.27347 1.7304 4.80226
-2.28559 1.72717 4.7864
-2.30754 1.73227 4.79249
-2.31769 1.728 4.77363
-2.33668 1.73001 4.77374
-2.34471 1.72996 4.7698
-2.35487 1.72466 4.74895
-2.37191 1.72559 4.74407
-2.38992 1.72758 4.74217
-2.40303 1.72538 4.7283
-2.42303 1.72839 4.72841
-2.4381 1.72727 4.71954
-2.44415 1.72617 4.7126
-2.45626 1.72296 4.69773
-2.47625 1.72699 4.69883
-2.48738 1.72274 4.68197
-2.50441 1.7247 4.67807
-2.52443 1.72668 4.67619
-2.53259 1.72138 4.65533
-2.5485 1.72755 4.66636
-2.5616 1.72537 4.65349
-2.57863 1.72631 4.6486
-2.59075 1.72409 4.63372
-2.60975 1.72609 4.63284
-2.62877 1.72908 4.63093
-2.6458 1.73002 4.62605
-2.64989 1.72686 4.61512
-2.66692 1.72879 4.61022
-2.68496 1.72973 4.60534
-2.69904 1.72858 4.59447
-2.71312 1.72844 4.58457
-2.73411 1.73147 4.58569
-2.75116 1.73238 4.5788
-2.79031 1.73311 4.55908
-2.8365 1.73278 4.53443
-5.34571 1.65399 1.06802
-5.36421 1.65301 1.00117
-5.36834 1.65276 0.9842
-5.35956 1.64732 0.955211
-5.37466 1.65113 0.941266
-5.37081 1.64884 0.922268
-5.36694 1.64557 0.904285
-5.37307 1.64633 0.887318
-5.3732 1.64507 0.870335
-5.36229 1.6399 0.859328
-5.37141 1.64167 0.843368
-5.36854 1.63941 0.825378
-5.34971 1.63208 0.804341
-5.36282 1.63485 0.788397
-5.36295 1.6326 0.771429
-5.35616 1.6292 0.744424
-5.36329 1.62995 0.727464
4.6723 1.69578 2.75416
4.66039 1.69498 2.76727
4.62537 1.68496 2.76468
4.61355 1.68633 2.78875
4.60366 1.68656 2.80382
4.59377 1.68677 2.8179
4.58086 1.68596 2.83001
4.56995 1.68516 2.8431
4.5661 1.68844 2.86209
4.55118 1.68662 2.87323
4.54523 1.68571 2.87929
4.5454 1.69104 2.90121
4.52544 1.68614 2.90743
4.52863 1.69251 2.93232
4.52175 1.69375 2.94836
4.50483 1.69191 2.95851
4.5049 1.69306 2.9685
4.50507 1.69838 2.99042
4.48713 1.69551 2.9986
4.48026 1.69677 3.01563
4.47439 1.69903 3.03265
4.46349 1.69924 3.04673
4.45461 1.69947 3.06179
4.44481 1.70286 3.08782
4.42486 1.69898 3.09503
4.41111 1.70248 3.12808
4.38336 1.703 3.16229
2.73122 1.73544 4.60846
2.71527 1.73556 4.61558
2.69933 1.73569 4.6237
2.68541 1.73584 4.6338
2.67643 1.73589 4.63687
2.65946 1.73497 4.64101
2.64454 1.73513 4.65112
2.62759 1.73524 4.65825
2.61367 1.7354 4.66835
2.59975 1.73657 4.67944
2.57975 1.73359 4.67964
2.57279 1.73467 4.68467
2.5538 1.73171 4.68686
2.53786 1.73183 4.69398
2.52192 1.73196 4.7021
2.50902 1.73416 4.71516
2.49308 1.73429 4.72328
2.47511 1.73336 4.72743
2.46815 1.73445 4.73347
2.45017 1.7325 4.73563
2.43423 1.73263 4.74375
2.41726 1.7307 4.74791
2.4003 1.7308 4.75404
2.38537 1.73094 4.76315
2.37044 1.73209 4.77225
2.36044 1.73109 4.77234
2.34551 1.73124 4.78145
2.33059 1.73341 4.79253
2.31667 1.73457 4.80262
2.30175 1.73574 4.81372
2.28479 1.73583 4.81884
2.27478 1.73382 4.81795
2.26189 1.73604 4.83201
2.24187 1.73303 4.83021
2.22695 1.73418 4.84031
2.20896 1.73223 4.84247
2.19404 1.73439 4.85255
2.18013 1.73657 4.86463
2.17012 1.73455 4.86273
2.15521 1.73674 4.87481
2.13926 1.73685 4.88193
2.12332 1.73698 4.89005
2.10839 1.73813 4.89915
2.09041 1.73717 4.9013
2.07448 1.73732 4.91042
2.06446 1.73529 4.90852
2.04851 1.73539 4.91464
2.03869 1.74276 4.93861
2.01356 1.73352 4.92193
2.00067 1.73776 4.93697
1.98577 1.73994 4.94905
1.96676 1.73694 4.94824
1.95471 1.73386 4.94238
1.93876 1.73398 4.9495
1.92894 1.74033 4.97248
1.9079 1.73627 4.9677
1.89502 1.74051 4.98373
1.876 1.73748 4.98092
1.85598 1.73445 4.97812
1.85005 1.73661 4.98813
1.83308 1.73668 4.99226
1.81101 1.73156 4.9835
1.79917 1.73686 5.00351
1.77606 1.72967 4.98979
1.76625 1.73705 5.01476
1.74929 1.73714 5.01989
1.73723 1.73303 5.01204
1.72026 1.7321 5.01618
1.70226 1.73113 5.01733
1.68735 1.7333 5.02841
1.66628 1.72818 5.01964
1.65239 1.7314 5.0337
1.60844 1.72954 5.04106
1.59045 1.72857 5.04221
1.57345 1.72759 5.04335
1.55958 1.73084 5.05941
1.54057 1.72984 5.05857
1.52461 1.72992 5.06369
1.51665 1.73102 5.06974
1.49763 1.72799 5.06692
1.48271 1.73015 5.07701
1.46678 1.73231 5.0871
1.4308 1.73036 5.0894
1.41279 1.72836 5.08856
1.38888 1.73056 5.10071
1.37088 1.72857 5.10087
1.35391 1.72863 5.104
1.33694 1.7287 5.10813
1.294 1.72785 5.11647
1.28117 1.73418 5.13847
1.26007 1.72901 5.12571
1.22821 1.73231 5.1449
1.18218 1.72828 5.14131
1.1143 1.72957 5.1578
1.07136 1.72871 5.16514
1.00247 1.72996 5.17964
-1.19109 1.72538 4.98121
-1.22704 1.73151 4.98839
-1.24504 1.73252 4.98851
-1.27326 1.72511 4.95983
-1.29925 1.72714 4.96099
-1.31626 1.72813 4.95911
-1.33039 1.72289 4.94229
-1.3503 1.72908 4.95435
-1.37949 1.72273 4.92966
-1.39139 1.72892 4.94166
-1.42057 1.7226 4.91897
-1.48571 1.72236 4.90046
-1.50176 1.72227 4.89358
-1.50978 1.72225 4.89164
-1.5268 1.72221 4.88877
-1.54382 1.72318 4.88588
-1.55889 1.72206 4.87701
-1.61601 1.72187 4.86144
-1.6481 1.72171 4.84969
-1.66706 1.7258 4.85477
-1.68115 1.72263 4.84292
-1.69523 1.72048 4.83206
-1.71323 1.72249 4.83216
-1.74121 1.72654 4.83431
-1.75531 1.72336 4.82147
-1.7694 1.72121 4.8106
-1.79229 1.72943 4.82465
-1.80342 1.72417 4.80681
-1.81734 1.72934 4.81784
-1.83239 1.72925 4.81096
-1.84549 1.72607 4.7981
-1.87172 1.71964 4.76839
-1.88873 1.72063 4.7665
-1.90477 1.72056 4.76162
-1.91281 1.7205 4.75669
-1.93277 1.72458 4.76178
-1.94587 1.7214 4.74892
-1.95994 1.72026 4.73904
-1.98088 1.7254 4.74712
-1.99301 1.72116 4.73028
-2.01199 1.7242 4.73237
-2.01904 1.7231 4.72544
-2.03606 1.72407 4.72256
-2.05702 1.72917 4.72864
-2.07501 1.7312 4.72974
-2.08224 1.72276 4.69992
-2.10219 1.72786 4.706
-2.11431 1.72364 4.69015
-2.12626 1.72773 4.69618
-2.13839 1.72351 4.68033
-2.15345 1.7234 4.67244
-2.16457 1.71917 4.65659
-2.18357 1.72218 4.65669
-2.19863 1.72106 4.64782
-2.20975 1.71785 4.63294
-2.21975 1.71885 4.633
-2.23678 1.72081 4.6291
-2.25282 1.72073 4.62322
-2.26787 1.72064 4.61634
-2.27999 1.71741 4.60048
-2.29505 1.71732 4.59359
-2.30911 1.71719 4.5847
-2.32009 1.71925 4.58775
-2.33613 1.72017 4.58185
-2.34923 1.718 4.56998
-2.37807 1.72832 4.59005
-2.38328 1.71991 4.56221
-2.4013 1.72188 4.55932
-2.41243 1.71865 4.54345
-2.42536 1.72377 4.55147
-2.43846 1.72159 4.5386
-2.45647 1.72359 4.5377
-2.47055 1.72244 4.52683
-2.4866 1.72336 4.52093
-2.49869 1.72118 4.50805
-2.51671 1.72315 4.50516
-2.52178 1.72102 4.49623
-2.53488 1.71885 4.48436
-2.56078 1.72704 4.49643
-2.57485 1.72691 4.48654
-2.58399 1.72265 4.46867
-2.60695 1.72774 4.47377
-2.61707 1.72451 4.45789
-2.62509 1.72447 4.45495
-2.64312 1.72644 4.45206
-2.65818 1.72631 4.44317
-2.66634 1.72202 4.42329
-2.69225 1.72921 4.43438
-2.70237 1.72598 4.41851
-2.72138 1.72896 4.4166
-5.22501 1.64834 0.894174
-5.21809 1.64518 0.884167
-5.2292 1.64697 0.869222
-5.23033 1.64672 0.852232
-5.21549 1.63941 0.832225
-5.21961 1.63916 0.815258
-5.22274 1.63893 0.799283
-5.22786 1.6397 0.783308
-5.22592 1.63856 0.774309
-5.22006 1.63429 0.756325
-5.22918 1.63606 0.740366
-5.22831 1.63481 0.723375
-5.23343 1.63558 0.7074
-5.22158 1.63029 0.688386
-5.2307 1.63206 0.672427
-5.22077 1.6279 0.662412
4.46976 1.67589 2.68598
4.44897 1.67631 2.71313
4.43513 1.67663 2.73423
4.43327 1.67991 2.7532
4.42237 1.67911 2.7663
4.42152 1.68341 2.78624
4.40157 1.67853 2.79346
4.39469 1.68076 2.80849
4.4008 1.68497 2.82338
4.38588 1.68313 2.83352
4.37598 1.68335 2.84759
4.36005 1.68149 2.85674
4.35518 1.68375 2.87375
4.35434 1.68806 2.89469
4.34042 1.68623 2.90583
4.33547 1.68634 2.91286
4.32758 1.68755 2.92691
4.32473 1.69085 2.94688
4.31182 1.69002 2.95799
4.30695 1.69229 2.976
4.29504 1.69248 2.98809
4.27911 1.68962 2.99725
4.28623 1.69485 3.01312
4.27936 1.69711 3.03014
4.26645 1.69628 3.04125
4.25857 1.69753 3.0573
4.25269 1.69977 3.07331
4.23274 1.69588 3.08052
4.23189 1.70018 3.10046
4.21688 1.69618 3.09964
4.21101 1.69843 3.11665
4.20716 1.70272 3.13562
2.78762 1.73126 4.39606
2.70496 1.73199 4.44168
2.62332 1.73274 4.48929
2.60636 1.73183 4.49443
2.58636 1.72884 4.49463
2.57648 1.73209 4.51066
2.55952 1.73117 4.5158
2.55155 1.73124 4.51986
2.53154 1.72724 4.51907
2.51964 1.72944 4.53213
2.50977 1.73371 4.55014
2.48977 1.73071 4.54934
2.47483 1.73084 4.55745
2.47192 1.73402 4.56943
2.44683 1.72688 4.55872
2.43393 1.72908 4.57178
2.42002 1.73025 4.58287
2.4071 1.73242 4.59394
2.38709 1.72842 4.59315
2.37724 1.73371 4.61215
2.3652 1.73065 4.60729
2.34924 1.72975 4.61342
2.33837 1.73299 4.62946
2.31633 1.72894 4.62468
2.3034 1.73009 4.63476
2.29153 1.73334 4.65081
2.27354 1.73138 4.65297
2.26352 1.72936 4.65108
2.24961 1.73153 4.66215
2.23467 1.73166 4.67026
2.21872 1.73178 4.67738
2.19667 1.72669 4.67062
2.18681 1.73198 4.68962
2.17289 1.73314 4.69971
2.15984 1.72904 4.69287
2.14794 1.73226 4.70691
2.133 1.73239 4.71502
2.11502 1.73043 4.71719
2.10315 1.73469 4.73422
2.08719 1.73479 4.74034
2.06613 1.72969 4.73257
2.06531 1.73703 4.75547
2.04324 1.73091 4.74673
2.02728 1.73101 4.75285
2.01337 1.73318 4.76392
1.99538 1.73121 4.76508
1.98349 1.73544 4.78011
1.96652 1.73451 4.78426
1.95752 1.73352 4.78434
1.93851 1.73052 4.78353
1.92664 1.73478 4.80055
1.90762 1.73175 4.79774
1.8886 1.72873 4.79593
1.87572 1.73197 4.81098
1.85466 1.72788 4.8042
1.84463 1.72483 4.80032
1.83481 1.73217 4.82329
1.81476 1.7271 4.81751
1.80495 1.73448 4.84248
1.79309 1.73975 4.8605
1.77509 1.73776 4.86066
1.75812 1.73684 4.8648
1.74093 1.72748 4.84007
1.72293 1.72549 4.84023
1.70901 1.72767 4.85131
1.69614 1.73091 4.86736
1.65705 1.72378 4.85676
1.64007 1.72283 4.8599
1.63108 1.72186 4.86098
1.6141 1.72191 4.86411
1.60121 1.72513 4.87816
1.50937 1.72351 4.89988
1.20701 1.72797 4.9861
1.0642 1.72643 5.0112
0.59373 1.7278 5.08374
0.5688 1.72995 5.0929
0.552909 1.73416 5.10696
0.48384 1.72908 5.09855
0.465809 1.72704 5.09472
0.457817 1.72706 5.09578
-0.0182082 1.72736 4.96134
-0.0351927 1.7274 4.96347
-0.0591682 1.72946 4.96662
-0.0762455 1.72533 4.95681
-0.10926 1.72532 4.95505
-0.125252 1.72535 4.95617
-0.142282 1.7243 4.95232
-0.158304 1.72427 4.94944
-0.183249 1.72639 4.9566
-0.20021 1.72848 4.96169
-0.216233 1.72744 4.95883
-0.233279 1.72537 4.95299
-0.249262 1.72741 4.95508
-0.266223 1.7295 4.96018
-0.274254 1.72744 4.95627
-0.290307 1.72535 4.94942
-0.307252 1.72847 4.9565
-0.323321 1.72535 4.94766
-0.340297 1.7274 4.95076
-0.357281 1.72844 4.95288
-0.374241 1.73053 4.95797
-0.39924 1.73155 4.95815
-0.414371 1.72531 4.94135
-0.432277 1.7305 4.95341
-0.447377 1.72632 4.94058
-0.464361 1.72736 4.9427
-0.480415 1.72527 4.93585
-0.488391 1.72732 4.93888
-0.504421 1.72627 4.93501
-0.520474 1.72418 4.92816
-0.537458 1.72522 4.93028
-0.554411 1.72832 4.93636
-0.572324 1.7335 4.94742
-0.587486 1.7262 4.92664
-0.594517 1.72514 4.92271
-0.610562 1.72407 4.91684
-0.627562 1.72408 4.91697
-0.700635 1.72398 4.90752
-0.718611 1.72604 4.91063
-0.734625 1.72602 4.90875
-0.750647 1.72599 4.90587
-0.766708 1.72388 4.89802
-0.782738 1.72384 4.89414
-0.799706 1.72591 4.89824
-0.806768 1.72379 4.89032
-0.822836 1.72167 4.88147
-0.841711 1.72792 4.89753
-0.873779 1.72681 4.88878
-0.888871 1.72365 4.87694
-0.897808 1.72677 4.88496
-0.912893 1.72362 4.87412
-0.930868 1.72568 4.87723
-0.945921 1.72458 4.87036
-0.962913 1.72561 4.87147
-0.978966 1.72452 4.8646
-0.99498 1.7245 4.86273
-1.00396 1.72654 4.86476
-1.01902 1.72444 4.85791
-1.03602 1.72544 4.85702
-1.05302 1.72645 4.85713
-1.06615 1.72223 4.84129
-1.08509 1.72634 4.84838
-1.10207 1.72839 4.85047
-1.11616 1.72422 4.83864
-1.12323 1.72311 4.83071
-1.14021 1.72415 4.83282
-1.15721 1.72616 4.83292
-1.17228 1.72404 4.82406
-1.19025 1.7261 4.82717
-1.20822 1.72917 4.83126
-1.2233 1.72703 4.8214
-1.22937 1.7239 4.81249
-1.24732 1.72799 4.81757
-1.26239 1.72587 4.80871
-1.27842 1.72583 4.80583
-1.29347 1.72474 4.79896
-1.30853 1.72363 4.79109
-1.32457 1.72357 4.78621
-1.33453 1.72564 4.79026
-1.34958 1.72456 4.78439
-1.36367 1.72239 4.77252
-1.38361 1.72653 4.78061
-1.39671 1.72334 4.76776
-1.41469 1.72539 4.76986
-1.41881 1.72015 4.75397
