5.10995 1.69479 2.43315
5.10107 1.69504 2.44922
5.09814 1.69517 2.45824
5.09628 1.69845 2.47721
5.08941 1.69871 2.49426
5.08455 1.69998 2.51228
5.08069 1.70226 2.53127
5.07081 1.70251 2.54735
5.05088 1.69866 2.55656
5.04996 1.69981 2.56655
5.03204 1.69698 2.57773
5.0332 1.70129 2.59866
5.02432 1.70154 2.61472
5.02649 1.70586 2.63664
5.00756 1.70202 2.64684
5.00974 1.70736 2.66975
5.01082 1.70952 2.68071
4.99089 1.70567 2.68992
4.98603 1.70795 2.70893
4.95939 1.70867 2.75612
2.30149 1.73907 5.03601
1.97741 1.74011 5.16046
1.83774 1.73985 5.20452
1.80589 1.74216 5.22373
1.78789 1.74119 5.22488
1.74503 1.74248 5.24318
1.68804 1.73854 5.24467
1.67621 1.74387 5.26668
1.65618 1.74184 5.26386
1.64824 1.74295 5.27091
1.6323 1.74408 5.27901
1.61432 1.74314 5.28216
1.59429 1.7401 5.27836
1.57838 1.74329 5.29043
1.56145 1.74443 5.29955
1.53729 1.73614 5.27885
1.53447 1.74349 5.30276
1.51753 1.74361 5.30989
1.49442 1.73742 5.29615
1.48054 1.74167 5.3122
1.46362 1.74383 5.32229
1.4405 1.73661 5.30657
1.42663 1.74087 5.32362
1.41559 1.7388 5.31873
1.39759 1.73782 5.31888
1.38065 1.73895 5.32699
1.36371 1.74008 5.3351
1.3416 1.73389 5.32136
1.32776 1.74021 5.34237
1.31185 1.74238 5.35346
1.28972 1.73516 5.33773
1.28486 1.74143 5.35568
1.26588 1.74048 5.35784
1.24686 1.73845 5.35501
1.22786 1.73746 5.35517
1.21399 1.74174 5.37321
1.19186 1.7355 5.35647
1.17389 1.73557 5.3606
1.17009 1.74396 5.38651
1.14591 1.73462 5.36283
1.1279 1.73262 5.36199
1.11409 1.73999 5.38599
1.09299 1.73481 5.37323
1.07295 1.73177 5.36942
1.07018 1.7412 5.39831
1.04699 1.73184 5.37362
1.03005 1.73399 5.38271
1.01416 1.73821 5.39677
0.99307 1.73305 5.38501
0.97924 1.73938 5.40702
0.960232 1.73838 5.40618
0.951263 1.73845 5.41025
0.93324 1.73641 5.40741
0.915287 1.73852 5.41352
0.879301 1.73657 5.41582
0.860309 1.7366 5.41696
0.841224 1.73145 5.40618
0.834364 1.73772 5.42414
0.814255 1.73153 5.41038
0.798387 1.73679 5.42742
0.778317 1.73368 5.41862
0.761364 1.73478 5.42473
0.742341 1.73275 5.42191
0.725433 1.73594 5.43399
0.707434 1.73595 5.43412
0.697379 1.73285 5.42724
0.679426 1.73395 5.43336
0.662457 1.73503 5.43748
0.625488 1.73511 5.44175
0.607473 1.7341 5.4399
0.598465 1.73309 5.43899
0.58155 1.73626 5.45007
0.563582 1.73734 5.45419
0.508528 1.73327 5.44766
0.48159 1.73541 5.45584
0.462568 1.73438 5.45299
0.409669 1.73761 5.46635
-2.07843 1.7462 4.92989
-2.12759 1.74593 4.90926
-3.09113 1.75059 4.44139
-3.11721 1.75146 4.43157
-3.13227 1.75234 4.42267
-3.14537 1.75116 4.40978
-3.16341 1.7531 4.40489
-3.18342 1.75608 4.403
-3.19355 1.75284 4.38612
-3.2085 1.75794 4.39216
-3.22555 1.75885 4.38527
-3.23865 1.75766 4.37238
-3.26065 1.76168 4.37249
-3.27572 1.76154 4.3626
-3.2898 1.7614 4.35271
-3.30686 1.7623 4.34483
-3.31983 1.76635 4.34786
-3.32303 1.75897 4.32199
-3.35393 1.76917 4.33408
-3.37 1.76905 4.3252
-3.37815 1.76576 4.30531
-3.39917 1.76874 4.30342
-3.41732 1.76646 4.28359
-3.46156 1.76702 4.25191
-3.4927 1.76776 4.23313
-3.51283 1.76751 4.21528
-3.52592 1.76634 4.2034
-3.541 1.7672 4.1935
-3.55211 1.765 4.17961
-3.57115 1.76793 4.17371
-3.58821 1.76882 4.16582
-3.59931 1.76762 4.15192
-3.61131 1.76963 4.15198
-3.6254 1.76946 4.14009
-3.63651 1.76826 4.12619
-3.64862 1.76705 4.1113
-3.66567 1.76896 4.1044
-3.67182 1.76467 4.0845
-3.6869 1.76553 4.0746
-3.70902 1.76531 4.05877
-3.72608 1.7672 4.05087
-3.75524 1.7679 4.02908
-3.77131 1.76878 4.02018
-3.79144 1.76853 4.00234
-3.80256 1.76731 3.98744
-3.83171 1.76802 3.96664
-3.84481 1.76784 3.95374
-3.87407 1.76536 3.91999
-3.9072 1.76811 3.9022
-3.92327 1.76998 3.89229
-3.99777 1.77005 3.82684
-4.02098 1.76866 3.79904
-4.10659 1.76852 3.71867
-5.30934 1.76123 2.02861
-5.31746 1.761 2.01267
-5.31562 1.75769 1.9917
-5.32773 1.75949 1.97777
-5.32987 1.75721 1.95881
-5.33002 1.75392 1.93886
-5.33308 1.7538 1.93088
-5.34021 1.75355 1.91394
-5.33836 1.75026 1.89397
-5.34151 1.74898 1.87501
4.68072 1.70752 2.80225
4.67989 1.71184 2.82319
4.65894 1.70696 2.83042
4.64695 1.70399 2.83256
4.62701 1.70013 2.84077
4.62516 1.70342 2.86073
4.62734 1.70876 2.88364
4.61141 1.70692 2.89379
4.5985 1.70611 2.9059
4.59163 1.70737 2.92294
4.5706 1.70132 2.91918
4.57277 1.70666 2.94209
4.57394 1.71099 2.96402
4.54796 1.70505 2.96731
4.54411 1.70733 2.9863
4.5483 1.7147 3.01117
4.53036 1.71085 3.02036
4.53346 1.71504 3.03328
2.66547 1.7329 4.63431
2.65952 1.73501 4.64132
2.64359 1.73515 4.65044
2.61952 1.72804 4.64173
2.60765 1.7313 4.65877
2.58082 1.73464 4.68092
2.56083 1.73169 4.68312
2.55489 1.73379 4.69013
2.543 1.73602 4.70519
2.52502 1.73407 4.70736
2.50806 1.73417 4.71348
2.49008 1.73223 4.71665
2.47515 1.73237 4.72576
2.46023 1.73353 4.73586
2.45124 1.73256 4.73794
2.4353 1.73268 4.74506
2.42037 1.73384 4.75516
2.40443 1.73395 4.76228
2.37559 1.7373 4.78445
2.35659 1.73431 4.78463
2.35066 1.73645 4.79365
2.33166 1.73347 4.79384
2.31572 1.7336 4.80195
2.3008 1.73576 4.81204
2.28587 1.7359 4.82115
2.26687 1.73391 4.82132
2.2489 1.73199 4.82548
2.24296 1.73411 4.8335
2.22904 1.73628 4.84457
2.21005 1.73431 4.84575
2.1941 1.73443 4.85287
2.1751 1.73144 4.85305
2.16119 1.73363 4.86513
2.14525 1.73476 4.87323
2.13829 1.73484 4.87828
2.12031 1.73389 4.88143
2.10539 1.73505 4.89153
2.08843 1.73514 4.89666
2.07249 1.73527 4.90478
2.05757 1.73743 4.91486
2.0506 1.73751 4.91991
2.03364 1.73759 4.92504
2.01362 1.73356 4.92225
2.00075 1.73782 4.93928
1.98174 1.73582 4.93846
1.96376 1.73387 4.94062
1.95189 1.73813 4.95765
1.93882 1.73402 4.94981
1.92186 1.7341 4.95494
1.90693 1.73525 4.96403
1.88588 1.73116 4.95725
1.87505 1.73649 4.97926
1.85705 1.73452 4.98042
1.83702 1.73148 4.97662
1.83009 1.73362 4.98564
1.8172 1.73683 4.99969
1.79512 1.7317 4.98993
1.78021 1.73389 5.00201
1.7653 1.73606 5.01309
1.74219 1.72887 4.99937
1.72624 1.72999 5.00648
1.72237 1.73524 5.02343
1.70233 1.73117 5.01764
1.68229 1.72711 5.01285
1.67146 1.73446 5.03583
1.65143 1.73041 5.03204
1.63343 1.72943 5.03219
1.62056 1.73369 5.04922
1.5995 1.72958 5.04144
1.59459 1.73276 5.05343
1.5766 1.73079 5.0546
1.55758 1.72878 5.05277
1.54062 1.72886 5.0579
1.52468 1.72999 5.066
1.50669 1.72902 5.06715
1.49074 1.73012 5.07326
1.48381 1.73228 5.08328
1.46274 1.72714 5.07351
1.44678 1.72824 5.07962
1.43084 1.72937 5.08772
1.41285 1.7284 5.08887
1.39485 1.72641 5.08904
1.38896 1.73063 5.10302
1.337 1.72874 5.10844
1.31798 1.72672 5.10661
1.2861 1.72897 5.12182
1.24317 1.72915 5.13215
-2.98689 1.75304 4.34055
-3.05529 1.74929 4.28712
-3.07839 1.75011 4.27427
-3.10852 1.75088 4.25749
-3.12359 1.75074 4.2476
-3.14359 1.75476 4.24769
-3.14977 1.74942 4.22482
-3.16174 1.75248 4.22786
-3.17483 1.75231 4.21596
-3.19583 1.75532 4.21607
-3.20991 1.75517 4.20518
-3.22992 1.75915 4.20327
-3.24597 1.76006 4.19638
-3.26203 1.76095 4.18849
-3.26512 1.75879 4.17754
-3.2881 1.76384 4.17964
-3.29327 1.7585 4.15675
-3.31724 1.76358 4.16086
-3.32637 1.76134 4.14396
-3.34639 1.7643 4.14107
-3.36047 1.76415 4.13017
-3.36751 1.76408 4.12523
-3.37664 1.76084 4.10834
-3.39467 1.76379 4.10443
-3.42283 1.76349 4.08265
-3.44582 1.76852 4.08374
-3.45098 1.76421 4.06284
-3.46 1.76517 4.0599
-3.47309 1.76401 4.04801
-3.48717 1.76487 4.0381
-3.50224 1.76574 4.0292
-3.51433 1.76456 4.01631
-3.53535 1.76855 4.01441
-3.5415 1.76426 3.99452
-3.55647 1.76832 3.99857
-3.58385 1.76061 3.94888
-3.60982 1.76767 3.95197
-3.63698 1.76738 3.93118
-3.68527 1.76783 3.89253
-3.70847 1.76645 3.86572
-3.72651 1.76838 3.85983
-3.72463 1.76415 3.84488
-3.74664 1.76814 3.84298
-3.77381 1.76882 3.82017
-3.81317 1.76515 3.77352
-3.89765 1.76825 3.7091
-5.20457 1.75776 1.86585
-5.21169 1.75753 1.8499
-5.21681 1.75628 1.83296
-5.21796 1.754 1.814
-5.21105 1.74982 1.802
-5.21619 1.74955 1.78405
-5.22032 1.74831 1.76709
-5.22744 1.74807 1.75115
-5.22858 1.74579 1.73219
-5.24467 1.74963 1.72025
4.52195 1.69412 2.70063
4.47254 1.69632 2.77998
4.45476 1.69776 2.80909
4.45593 1.70209 2.83102
4.44 1.69923 2.84019
4.44318 1.70559 2.86407
4.4312 1.70262 2.86621
4.41426 1.69977 2.87538
4.40336 1.69997 2.88846
4.39145 1.69916 2.90056
4.38457 1.7004 2.9166
4.38172 1.7047 2.93656
4.37786 1.70697 2.95456
4.3719 1.70704 2.9596
4.36101 1.70726 2.97368
4.34608 1.70542 2.98382
4.33317 1.70361 2.99595
4.33635 1.70994 3.01884
4.32444 1.71015 3.03192
4.31053 1.70832 3.04306
4.3096 1.71047 3.05303
4.30876 1.71478 3.07398
4.30088 1.71601 3.08902
2.78972 1.73337 4.40133
2.73389 1.73074 4.42379
2.722 1.73297 4.43885
2.68908 1.73114 4.44913
2.67718 1.73334 4.46219
2.64224 1.7305 4.47149
2.63528 1.73058 4.47655
2.62541 1.73384 4.49358
2.60642 1.73187 4.49475
2.58743 1.72891 4.49693
2.5606 1.73226 4.51909
2.54668 1.73341 4.52918
2.54174 1.73455 4.5382
2.52377 1.73361 4.54135
2.50781 1.73271 4.54749
2.49186 1.73181 4.55362
2.47691 1.73192 4.56073
2.45893 1.72998 4.5639
2.44806 1.73423 4.57992
2.43907 1.73326 4.582
2.42312 1.73236 4.58813
2.40818 1.73351 4.59723
2.39427 1.73468 4.60832
2.37932 1.7348 4.61543
2.36033 1.73282 4.6166
2.34641 1.734 4.62769
2.3364 1.73197 4.6258
2.3235 1.73418 4.63886
2.30652 1.73323 4.64201
2.29566 1.73651 4.66004
2.27564 1.73349 4.65824
2.26476 1.73674 4.67427
2.24764 1.72951 4.65851
2.23372 1.73169 4.66958
2.21674 1.72974 4.67274
2.15513 1.73854 4.72408
2.13715 1.73659 4.72624
2.05246 1.73925 4.76785
2.02055 1.73946 4.78009
2.00256 1.73748 4.78125
1.98661 1.73758 4.78737
1.9727 1.73977 4.79945
1.95267 1.73674 4.79664
1.94571 1.73782 4.80168
1.93282 1.74104 4.81573
1.90563 1.7297 4.7921
1.88087 1.73718 4.82318
1.86493 1.73831 4.83128
1.84386 1.73219 4.82253
1.82996 1.73539 4.83559
1.81482 1.72714 4.81783
1.80704 1.73656 4.84575
1.78189 1.7273 4.82707
1.76594 1.72741 4.83419
1.74793 1.7254 4.83236
1.733 1.72654 4.84145
1.72422 1.73497 4.8704
1.70806 1.72668 4.84964
1.69517 1.72991 4.86469
1.6782 1.72996 4.86782
1.66736 1.73528 4.88883
1.64526 1.72911 4.87608
1.63136 1.73232 4.89014
1.62644 1.73548 4.90013
1.60743 1.73246 4.89832
1.58738 1.72839 4.89253
1.55751 1.73166 4.90971
1.54053 1.73072 4.91285
1.51945 1.72558 4.90309
1.29201 1.73183 4.97772
1.283 1.72981 4.97581
1.266 1.72882 4.97596
1.25006 1.72995 4.98406
1.23309 1.73002 4.98819
1.14123 1.73035 5.00688
0.830619 1.72934 5.06024
-2.84672 1.74831 4.22955
-2.86684 1.74808 4.2137
-2.88091 1.74796 4.20481
-2.91992 1.75396 4.20301
-2.93498 1.75485 4.19511
-2.94115 1.74953 4.17324
-2.95115 1.75154 4.17328
-2.97312 1.7566 4.17637
-2.98818 1.75749 4.16847
-2.99928 1.75529 4.15459
-3.0183 1.75827 4.15268
-3.02743 1.75503 4.1358
-3.04249 1.75492 4.12791
-3.05051 1.75588 4.12496
-3.05865 1.75262 4.10707
-3.08459 1.75974 4.11416
-3.10162 1.76168 4.10926
-3.10975 1.75844 4.09236
-3.12581 1.75935 4.08547
-3.14583 1.76231 4.08258
-3.13999 1.755 4.06164
-3.16594 1.76211 4.06773
-3.17804 1.76092 4.05483
-3.19309 1.76183 4.04793
-3.21012 1.76377 4.04303
-3.23234 1.76037 4.01525
-3.2453 1.76444 4.01929
-3.27544 1.76519 4.0015
-3.2905 1.76609 3.9936
-3.31469 1.76373 3.96881
-3.32678 1.76357 3.9569
-3.34887 1.76439 3.94406
-3.36294 1.76527 3.93515
-3.39109 1.76499 3.91536
-3.40318 1.76482 3.90345
-3.43737 1.76446 3.87771
-3.46156 1.76311 3.85291
-3.47563 1.76399 3.844
-3.51279 1.76569 3.82225
-3.53995 1.7664 3.80145
-3.55501 1.76729 3.79354
-3.57324 1.76284 3.76274
-3.65778 1.76384 3.69136
-3.67483 1.76575 3.68446
-5.09085 1.75316 1.69504
-5.10602 1.75484 1.67312
-5.10814 1.75359 1.65615
-5.10843 1.74805 1.61923
-5.11754 1.74983 1.60427
-5.13064 1.75163 1.59034
4.42215 1.69862 2.5953
4.3281 1.69755 2.72204
4.31418 1.69571 2.73217
4.30537 1.69909 2.75719
4.29446 1.69827 2.76929
4.2906 1.70154 2.78727
4.27566 1.69869 2.79643
4.26978 1.70093 2.81244
4.26491 1.70318 2.82945
4.25494 1.70124 2.83255
4.25107 1.7045 2.85054
4.24118 1.70472 2.86461
4.23128 1.70492 2.87768
4.22942 1.7082 2.89665
4.21952 1.7084 2.90972
4.21667 1.71268 2.92868
4.21273 1.7128 2.93671
4.20283 1.713 2.94979
4.19695 1.71526 2.9668
4.17313 1.71462 2.98999
2.09306 1.73847 4.58153
1.87366 1.7368 4.66222
1.84479 1.73907 4.6794
1.82576 1.73603 4.67559
1.8178 1.73611 4.68065
1.80488 1.73828 4.69172
1.78892 1.73837 4.69684
1.75393 1.73441 4.69816
1.73796 1.73449 4.70328
1.72507 1.73871 4.71732
1.71299 1.73357 4.70748
1.69397 1.73054 4.70467
1.68005 1.7327 4.71474
1.66508 1.73278 4.71986
1.64505 1.72872 4.71507
1.63009 1.72882 4.72118
1.61719 1.73202 4.73423
1.59507 1.72482 4.7195
1.59121 1.73007 4.73646
1.57318 1.72704 4.73364
1.55722 1.72713 4.73876
1.54021 1.72513 4.73791
1.52427 1.72624 4.74502
1.5083 1.72633 4.75014
1.50339 1.72949 4.76113
1.48434 1.72542 4.75533
1.47043 1.72859 4.76639
1.45343 1.72762 4.76753
1.43848 1.72772 4.77365
1.42356 1.72988 4.78373
1.40759 1.72996 4.78885
1.39858 1.72894 4.78693
1.38364 1.73007 4.79503
1.36767 1.73014 4.79915
1.35169 1.7302 4.80227
1.33575 1.73131 4.80937
1.31977 1.73037 4.81251
1.30381 1.73145 4.81761
1.29375 1.72836 4.81073
1.27883 1.73051 4.82081
1.26286 1.73059 4.82493
1.24688 1.72963 4.82707
1.23196 1.7328 4.83814
1.21805 1.73497 4.84921
1.1959 1.72671 4.8305
1.19102 1.73193 4.84546
1.17298 1.72887 4.84064
1.15805 1.73102 4.84972
1.1431 1.73213 4.85682
1.09418 1.73232 4.86719
1.08309 1.72716 4.85634
1.06922 1.73241 4.87237
1.05218 1.72936 4.86855
1.03622 1.73045 4.87365
1.01921 1.72944 4.87279
1.00532 1.73366 4.88684
0.985222 1.72748 4.87408
0.97933 1.7317 4.88806
0.94633 1.72972 4.88834
0.913391 1.73086 4.89657
0.880414 1.72993 4.89984
0.857492 1.73209 4.90998
0.839453 1.73003 4.90514
0.806476 1.7291 4.90841
0.790523 1.7302 4.91451
0.78253 1.73022 4.91557
0.766569 1.73131 4.92068
0.750585 1.73135 4.9228
0.734631 1.73245 4.9289
0.717646 1.73249 4.93103
0.700647 1.73251 4.93116
0.685724 1.73466 4.94124
0.676654 1.73154 4.93235
0.64267 1.73059 4.93462
0.610717 1.7317 4.94085
0.560725 1.73076 4.94224
0.0332722 1.74121 4.88305
0.0171176 1.73392 4.86328
0.000141353 1.73498 4.86639
-0.0158889 1.73393 4.86252
-0.023858 1.735 4.86657
-0.0557717 1.73918 4.87775
-0.0887783 1.73919 4.877
-0.121754 1.74126 4.88021
-0.12887 1.73504 4.86536
-0.145714 1.74335 4.88537
-0.177884 1.73505 4.86373
-0.226796 1.74025 4.87502
-0.252617 1.74961 4.89808
-0.284732 1.74441 4.8834
-0.316746 1.7444 4.88164
-0.339916 1.73609 4.85993
-0.372891 1.73816 4.86315
-0.388906 1.73814 4.86127
-0.422834 1.7433 4.87045
-0.438873 1.74124 4.8656
-0.453988 1.73603 4.85079
-0.461995 1.73602 4.84985
-0.478902 1.74121 4.8619
-0.543015 1.73803 4.84743
-0.567029 1.73802 4.84561
-0.584028 1.73903 4.84573
-0.632102 1.73792 4.8361
-0.672131 1.73789 4.8324
-0.705106 1.74096 4.83561
-0.720206 1.73678 4.82278
-0.740011 1.74716 4.84778
-0.762165 1.74088 4.82804
-0.793232 1.73977 4.81929
-0.828168 1.74491 4.82748
-0.859267 1.74174 4.81476
-0.963399 1.74255 4.79753
-1.01851 1.74037 4.78297
-1.05153 1.74235 4.78019
-1.10665 1.74015 4.76464
-1.14062 1.74424 4.76883
-1.17073 1.74204 4.75409
-1.22682 1.7419 4.74251
-1.25888 1.74181 4.73475
-1.28095 1.74069 4.72594
-1.313 1.74161 4.71916
-1.34407 1.74048 4.70941
-1.40018 1.74132 4.69582
-2.13406 1.7441 4.44827
-2.16416 1.74392 4.4345
-2.2484 1.74551 4.40311
-2.46022 1.74405 4.29571
-2.53842 1.74869 4.26823
-2.56051 1.74853 4.25639
-2.58567 1.74623 4.23562
-2.6027 1.74819 4.23171
-2.61874 1.74912 4.22682
-2.63182 1.74797 4.21593
-2.64785 1.74891 4.21104
-2.65588 1.74987 4.20809
-2.67783 1.75597 4.21416
-2.68005 1.74655 4.18531
-2.70893 1.75679 4.20038
-2.71707 1.75253 4.1825
-2.72422 1.74824 4.16262
-2.73927 1.74815 4.15573
-2.74927 1.75015 4.15578
-2.75741 1.74589 4.1379
-2.7774 1.74992 4.13899
-2.79343 1.75187 4.13508
-2.81243 1.75587 4.13417
-2.81663 1.74851 4.1093
-2.84353 1.7577 4.12137
-2.85254 1.75868 4.11943
-2.85772 1.75234 4.09655
-2.88068 1.75843 4.10164
-2.89078 1.75623 4.08775
-2.91078 1.76025 4.08784
-2.92781 1.7622 4.08394
-2.94188 1.76206 4.07404
-2.94199 1.75786 4.0601
-2.97704 1.76278 4.05329
-2.99012 1.76264 4.04339
-3.01727 1.76135 4.02261
-3.02243 1.75706 4.00271
-3.05243 1.76306 4.00185
-3.10672 1.76252 3.96326
-3.12573 1.76551 3.96136
-3.12387 1.76026 3.94442
-3.14089 1.76221 3.94052
-3.16903 1.76296 3.92272
-3.1831 1.76384 3.91381
-3.19123 1.75959 3.89693
-3.20628 1.76149 3.88902
-3.54114 1.76606 3.64344
-3.58345 1.76548 3.60276
-5.01798 1.75289 1.54447
-5.02709 1.75368 1.53052
-5.03035 1.75017 1.4956
-5.02849 1.7469 1.47763
-5.03959 1.7487 1.46368
-5.03568 1.74554 1.4527
-5.03681 1.74429 1.43572
-5.04093 1.74305 1.41977
-5.05103 1.74485 1.40582
-5.05317 1.74359 1.38785
4.33239 1.69419 2.49503
4.32349 1.69439 2.50809
4.28295 1.69532 2.56939
4.27707 1.69655 2.58442
4.25425 1.69492 2.60862
4.24735 1.69613 2.62266
4.25145 1.70032 2.63556
4.23652 1.69746 2.64472
4.22964 1.69871 2.66076
4.22376 1.70093 2.67577
4.20983 1.69909 2.6859
4.20093 1.69929 2.69897
4.19606 1.70155 2.71598
4.19513 1.70368 2.72495
4.18724 1.70391 2.74001
4.18538 1.70817 2.75796
4.17548 1.70837 2.77104
4.16054 1.70552 2.78019
4.15768 1.70979 2.79815
4.15884 1.7141 2.81908
4.15691 1.71623 2.82807
4.13192 1.70928 2.83036
4.13108 1.71358 2.8503
4.11126 1.71396 2.87545
1.73714 1.73986 4.59319
1.71011 1.73584 4.59045
1.69822 1.73905 4.6045
1.68124 1.7381 4.60664
1.66528 1.73818 4.61176
1.65338 1.7414 4.6258
1.63331 1.73628 4.61703
1.62737 1.7384 4.62504
1.60834 1.73436 4.62125
1.59338 1.73444 4.62636
1.57946 1.7366 4.63643
1.56758 1.74084 4.65246
1.54445 1.73261 4.63576
1.53358 1.73787 4.65276
1.52047 1.73167 4.63895
1.50346 1.72967 4.63811
1.48954 1.73183 4.64818
1.47665 1.73504 4.66223
1.45861 1.73198 4.65742
1.4488 1.73936 4.68238
1.42974 1.73426 4.6746
1.42177 1.73532 4.67865
1.40066 1.72813 4.66491
1.38879 1.73339 4.68192
1.37075 1.73033 4.6771
1.35374 1.72833 4.67626
1.34086 1.73256 4.6913
1.32589 1.73263 4.69541
1.32308 1.74099 4.71931
1.30194 1.73274 4.70159
1.28905 1.73697 4.71663
1.26895 1.73079 4.70387
1.254 1.73089 4.70998
1.23701 1.73093 4.71211
1.22722 1.74034 4.73905
1.21096 1.72585 4.70538
1.20117 1.73525 4.73232
1.18005 1.72805 4.71758
1.16922 1.73538 4.73956
1.15013 1.72923 4.72879
1.13726 1.73448 4.74481
1.12024 1.73246 4.74297
1.11434 1.73666 4.75595
1.0932 1.72839 4.73723
1.08344 1.73886 4.76816
1.06329 1.73059 4.74943
1.05042 1.73585 4.76645
1.03136 1.73175 4.75865
1.0244 1.73283 4.76369
1.00737 1.73079 4.76085
0.993473 1.734 4.77391
0.975419 1.73091 4.76709
0.965675 1.7424 4.79999
0.943465 1.73102 4.77333
0.931636 1.73835 4.79531
0.920542 1.73318 4.78347
0.90455 1.73221 4.7846
0.889597 1.73431 4.79069
0.874674 1.73647 4.80077
0.856627 1.73339 4.79495
0.84272 1.73658 4.80701
0.825681 1.73452 4.80217
0.809743 1.73665 4.81026
0.802766 1.7367 4.81331
0.785751 1.73568 4.81145
0.768704 1.7326 4.80562
0.753774 1.73475 4.81471
0.737789 1.73479 4.81683
0.721851 1.73692 4.82492
0.704797 1.73383 4.81809
0.698906 1.73904 4.83206
0.680867 1.73598 4.82724
0.66382 1.7329 4.82141
0.648898 1.73606 4.83148
0.630798 1.73088 4.81869
0.618014 1.74031 4.84665
0.606813 1.73093 4.82087
0.593007 1.73931 4.84585
0.57593 1.73517 4.83604
0.562085 1.74248 4.85604
0.543953 1.73524 4.83928
0.528038 1.73842 4.85036
0.510969 1.7343 4.84155
0.505085 1.74052 4.8565
0.487 1.73537 4.84571
0.472069 1.73752 4.85479
0.455016 1.73542 4.84795
0.439085 1.73757 4.85704
0.40821 1.74283 4.8732
0.396954 1.73035 4.84046
0.382102 1.73764 4.85947
0.364993 1.73145 4.84569
0.350094 1.73565 4.85874
0.317049 1.73358 4.85302
0.301103 1.7357 4.86011
0.292018 1.73154 4.84924
0.27715 1.73781 4.86626
0.260073 1.73367 4.85645
0.245252 1.74202 4.87944
0.22705 1.73165 4.85373
0.21226 1.74206 4.88069
0.19619 1.73794 4.87187
0.187167 1.7369 4.86895
0.171184 1.73794 4.87106
0.15523 1.74004 4.87715
0.123285 1.74217 4.88436
0.106154 1.73593 4.86758
0.0902862 1.74219 4.8846
0.0822319 1.7391 4.87771
0.0663177 1.74327 4.88877
0.0491556 1.73597 4.868
-2.94751 1.74588 3.85929
-2.99374 1.74646 3.82863
-3.08315 1.74871 3.77426
-3.0982 1.75062 3.76735
-3.15435 1.75736 3.74767
-3.15257 1.74793 3.71879
-3.18347 1.75914 3.73186
-3.18069 1.74971 3.70297
-3.20565 1.75681 3.70806
-3.20981 1.7515 3.68716
-3.2099 1.74732 3.67522
-3.22595 1.74924 3.66932
-3.23703 1.74909 3.6584
-3.2511 1.74897 3.64951
-3.27308 1.755 3.65058
-3.27328 1.74763 3.62569
-3.29625 1.75369 3.62877
-3.30031 1.75257 3.62082
-3.32329 1.75862 3.6229
-3.32447 1.75228 3.6
-3.3316 1.74903 3.5831
-3.34269 1.74786 3.5712
-3.3736 1.75905 3.58227
-3.36883 1.7486 3.55239
-3.37288 1.7475 3.54543
-3.39705 1.74719 3.52362
-3.41309 1.74911 3.51771
-3.42914 1.75202 3.51078
-3.4323 1.74673 3.49088
-3.44735 1.74864 3.48397
-3.45835 1.75164 3.48401
-3.46944 1.75047 3.4721
-3.4726 1.74517 3.4512
-3.48765 1.74707 3.44429
-3.5037 1.74898 3.43738
-3.51478 1.74883 3.42646
-3.52588 1.74764 3.41356
-3.53291 1.74859 3.4096
-3.54995 1.75151 3.40369
-3.56996 1.75649 3.40176
-3.57411 1.75222 3.38286
-3.59512 1.7562 3.38095
-3.59728 1.75191 3.36103
-3.61233 1.7538 3.35312
-3.62333 1.75581 3.35317
-3.63542 1.75564 3.34126
-3.64949 1.75752 3.33234
-3.67546 1.76458 3.33543
-3.65976 1.75101 3.29751
-3.68474 1.75705 3.29961
-3.69285 1.75584 3.28468
-3.69492 1.75371 3.27573
-3.69807 1.74941 3.25581
-3.72306 1.75644 3.2569
-3.73117 1.75424 3.24299
-3.7353 1.75098 3.22507
-3.76327 1.75904 3.22816
-3.77436 1.75887 3.21624
-3.77941 1.75879 3.21028
-3.79348 1.76067 3.20136
-3.80159 1.75845 3.18645
-3.8087 1.75623 3.17153
-3.83071 1.76222 3.16961
-3.83982 1.76102 3.1557
-3.83403 1.75261 3.12877
-3.85992 1.76283 3.14182
-3.87003 1.76163 3.12791
-3.87019 1.75731 3.10697
-3.8922 1.7623 3.10506
-3.91836 1.76401 3.08423
-3.92746 1.76281 3.07032
-3.93565 1.75946 3.04643
-3.94078 1.7562 3.02851
-3.96578 1.76321 3.02859
-3.97289 1.762 3.01366
-3.98101 1.75978 2.99876
-4.00922 1.76137 2.96994
-4.02826 1.7653 2.96403
-4.03455 1.75775 2.92718
-4.06766 1.76356 2.91234
-4.06972 1.76242 2.90337
-4.08677 1.76533 2.89646
-4.08395 1.75899 2.87353
-4.101 1.7629 2.8666
-4.1212 1.76253 2.84075
-4.12931 1.76131 2.82583
-4.13137 1.7592 2.81787
-4.15141 1.76412 2.81195
-4.15853 1.7629 2.79702
-4.16762 1.76272 2.78409
-4.1918 1.76439 2.76124
-4.20296 1.76308 2.73934
-4.20511 1.7588 2.72042
-4.22729 1.76046 2.69656
-4.25843 1.7652 2.67772
-4.32718 1.76375 2.57725
-4.34433 1.76448 2.55836
-4.78636 1.75691 1.75869
-4.7956 1.75545 1.72678
-4.79666 1.75433 1.7188
-4.80178 1.7531 1.70286
-4.81089 1.7549 1.6889
-4.79707 1.74555 1.66593
-4.81115 1.74938 1.65398
-4.81029 1.74611 1.63602
-4.82239 1.74793 1.62308
-4.82644 1.74883 1.6161
-4.82757 1.74658 1.59914
-4.82472 1.74229 1.58018
3.87937 1.70134 2.89139
3.85056 1.69974 2.91763
3.85995 1.71448 2.96735
3.83292 1.70645 2.96467
3.81195 1.70153 2.9689
3.80909 1.7058 2.98686
3.80514 1.7059 2.99389
3.78617 1.70198 2.9981
3.79438 1.71138 3.0259
3.79254 1.71568 3.04585
3.77156 1.71074 3.04908
3.7697 1.71602 3.06802
3.7608 1.71622 3.08109
3.7488 1.71323 3.08122
3.73788 1.7134 3.0923
3.73 1.71463 3.10735
3.72211 1.71684 3.12138
3.70716 1.71497 3.12952
3.69726 1.71516 3.14159
3.68139 1.71543 3.15971
3.67047 1.71561 3.17079
3.65855 1.71576 3.18088
3.65671 1.72007 3.20183
3.63572 1.71612 3.20405
3.63186 1.71939 3.22203
3.61902 1.72171 3.2431
3.60509 1.72085 3.25222
3.58023 1.71915 3.27143
3.54254 1.72079 3.3127
3.44525 1.72325 3.40741
3.42929 1.72033 3.41257
3.41333 1.71844 3.41872
3.4105 1.72375 3.43966
3.4005 1.72177 3.44077
3.38454 1.71886 3.44593
3.35382 1.72243 3.48312
2.7493 1.73068 3.94761
2.70849 1.73006 3.97193
2.67363 1.73037 3.99119
2.65868 1.72948 3.99832
2.62776 1.72666 4.0086
2.61786 1.72987 4.02263
2.58795 1.72805 4.03388
2.57997 1.72711 4.03695
2.57109 1.73135 4.05296
2.55309 1.72736 4.05315
2.54016 1.7285 4.06224
2.5252 1.72659 4.06738
2.5072 1.72462 4.06854
2.50035 1.7299 4.08752
2.48641 1.73003 4.09562
2.47438 1.72598 4.09177
2.46145 1.72712 4.10086
2.45257 1.73037 4.11688
2.43355 1.72635 4.11508
2.42874 1.73371 4.13901
2.41074 1.73074 4.14019
2.3836 1.72049 4.12254
2.38881 1.73089 4.14935
2.36674 1.72377 4.14062
2.3457 1.71871 4.13586
2.33682 1.72196 4.15188
2.32085 1.72103 4.15601
2.31401 1.72634 4.17699
2.30094 1.72222 4.16815
2.28295 1.71925 4.16933
2.27712 1.72558 4.19128
2.2581 1.72155 4.18848
2.24721 1.72478 4.20352
2.22339 1.72913 4.22664
2.20522 1.71884 4.20592
2.19535 1.7231 4.22294
2.18345 1.72528 4.235
2.15251 1.72342 4.24326
2.13654 1.72249 4.24739
2.11953 1.71949 4.24656
2.11664 1.7237 4.26053
2.10064 1.72173 4.26168
2.09281 1.72806 4.28364
2.07073 1.72093 4.27391
2.05474 1.71895 4.27506
2.04691 1.72628 4.29702
2.00798 1.72446 4.30734
1.98997 1.72045 4.30553
1.975 1.71952 4.30966
1.95902 1.71857 4.3128
1.94407 1.71867 4.31891
1.93011 1.71877 4.32501
1.93028 1.72709 4.34689
1.9024 1.72834 4.36209
1.86942 1.72541 4.36538
1.84935 1.7193 4.35762
1.83744 1.72147 4.36868
1.83149 1.72257 4.37471
1.81348 1.72057 4.37387
1.80464 1.72688 4.39485
1.78456 1.72075 4.38509
1.77675 1.72812 4.41004
1.74172 1.72309 4.40638
1.7208 1.72325 4.41654
1.08416 1.72637 4.60031
0.751641 1.72753 4.66481
-2.82428 1.7433 3.75739
-2.88356 1.74478 3.71981
-2.8986 1.7457 3.71391
-2.91572 1.74449 3.69905
-2.92681 1.74332 3.68715
-2.9468 1.74835 3.68823
-2.96084 1.74927 3.68232
-2.96896 1.74604 3.66643
-2.985 1.74898 3.6615
-2.99807 1.74886 3.6526
-3.00608 1.74983 3.65065
-3.02409 1.75281 3.64874
-3.03715 1.75371 3.64082
-3.0532 1.75563 3.63492
-3.06726 1.75652 3.62701
-3.08031 1.75741 3.61909
-3.08844 1.75418 3.6032
-3.09546 1.75514 3.60024
-3.11249 1.75709 3.59633
-3.12654 1.759 3.58941
-3.13466 1.75577 3.57352
-3.15366 1.75977 3.5726
-3.15979 1.75652 3.55569
-3.17385 1.75743 3.54879
-3.17593 1.75427 3.53785
-3.19593 1.75928 3.53792
-3.20702 1.75911 3.52601
-3.21414 1.75588 3.51011
-3.23513 1.76091 3.51119
-3.23829 1.7556 3.49029
-3.25333 1.75752 3.48437
-3.25839 1.75642 3.47743
-3.27641 1.76039 3.4745
-3.30452 1.76319 3.45967
-3.31758 1.76307 3.45077
-3.32967 1.76291 3.43986
-3.35588 1.7615 3.41108
-3.36895 1.76238 3.40216
-3.37707 1.75916 3.38727
-3.39112 1.76105 3.37935
-3.39229 1.75473 3.35744
-3.41527 1.76177 3.35951
-3.4233 1.76274 3.35656
-3.4324 1.76153 3.34264
-3.44646 1.76243 3.33474
-3.45556 1.76124 3.32182
-3.4716 1.76316 3.31591
-3.48071 1.76196 3.302
-3.4908 1.76079 3.29009
-3.49783 1.76174 3.28613
-3.50793 1.76055 3.27322
-3.52099 1.76244 3.26529
-3.53406 1.76231 3.25539
-3.54117 1.76009 3.24047
-3.56036 1.75873 3.21563
-3.57038 1.76071 3.21368
-3.58543 1.76262 3.20676
-3.59353 1.76142 3.19284
-3.6076 1.76229 3.18393
-3.62579 1.76094 3.15908
-3.63887 1.76078 3.14818
-3.655 1.76054 3.13131
-3.67104 1.76347 3.12538
-3.68924 1.76209 3.09954
-3.7033 1.76297 3.09063
-3.71745 1.7627 3.07174
-3.72655 1.76151 3.05882
-3.7416 1.76341 3.05091
-3.74673 1.76016 3.03399
-3.75583 1.75897 3.02107
-3.779 1.76066 2.99922
-3.79099 1.76369 3.00027
-3.8082 1.76128 2.97243
-3.82127 1.76315 2.9625
-3.83434 1.76402 2.95358
-3.83946 1.76179 2.93765
-3.85453 1.76367 2.92874
-3.85063 1.75947 2.91577
-3.85177 1.75519 2.89684
-3.86982 1.75812 2.89093
-3.90093 1.7639 2.87507
-3.90804 1.7617 2.86116
-3.92318 1.76143 2.84227
-3.95842 1.76398 2.8105
-3.98571 1.76242 2.77172
-3.99077 1.76232 2.76476
-4.01094 1.76298 2.7409
-4.03725 1.76141 2.70111
-4.06744 1.76405 2.6753
-4.116 1.76198 2.60169
-4.72635 1.75296 1.49426
-4.71451 1.74564 1.47328
-4.71564 1.74341 1.45732
-4.72673 1.74622 1.44436
-4.73982 1.74805 1.43243
-4.73397 1.74377 1.41345
-4.73902 1.74467 1.40647
-4.74214 1.74343 1.39051
-4.74226 1.7412 1.37454
3.68743 1.70458 2.89979
3.66056 1.70185 2.91703
3.65165 1.70204 2.9291
3.64368 1.7011 2.93317
3.63779 1.70333 2.94819
3.63291 1.70657 2.96418
3.61796 1.70367 2.97033
3.61309 1.70692 2.98732
3.61023 1.71121 3.00629
3.5962 1.70616 3.00247
3.59133 1.70941 3.01946
3.58343 1.71061 3.0325
3.57453 1.71181 3.04555
3.5626 1.71097 3.05565
3.55672 1.71421 3.07165
3.54378 1.71334 3.07976
3.53682 1.71241 3.08483
3.52892 1.71461 3.09786
3.51397 1.71173 3.10502
3.50608 1.71394 3.11905
3.49717 1.71512 3.1311
3.48625 1.7153 3.14218
3.47836 1.71651 3.15622
3.47542 1.71763 3.16423
3.46148 1.71676 3.17235
3.44955 1.7159 3.18145
3.44469 1.72017 3.19943
3.43779 1.72238 3.21345
3.42587 1.72154 3.22355
3.35138 1.72158 3.29112
3.33642 1.71968 3.29726
3.3365 1.72285 3.30822
3.32256 1.72198 3.31634
3.29771 1.72128 3.33554
3.24908 1.72304 3.38488
2.59071 1.72962 3.86981
2.57574 1.72869 3.87394
2.54986 1.72895 3.89013
2.53896 1.73115 3.90318
2.52996 1.72914 3.90228
2.51499 1.72723 3.90742
2.50308 1.7294 3.91848
2.48912 1.7285 3.9246
2.47314 1.72655 3.92775
2.46123 1.72773 3.93883
2.45932 1.7319 3.95078
2.44233 1.72893 3.95195
2.42229 1.72389 3.94818
2.41544 1.72917 3.96715
2.39641 1.72413 3.96337
2.3855 1.72631 3.97542
2.37662 1.73056 3.99143
2.36762 1.72856 3.99153
2.35063 1.72559 3.9927
2.34074 1.72881 4.00673
2.32273 1.7258 4.00591
2.30878 1.72592 4.01301
2.29889 1.72913 4.02704
2.27986 1.7241 4.02426
2.27796 1.72828 4.03621
2.26806 1.73148 4.04924
2.25107 1.72952 4.0514
2.23408 1.72655 4.05257
2.22723 1.73185 4.07255
2.20414 1.72469 4.06082
2.18815 1.72173 4.06299
2.18422 1.72487 4.07197
2.16824 1.72292 4.07512
2.14922 1.71889 4.07233
2.14136 1.72417 4.09031
2.12435 1.72118 4.09048
2.11445 1.72438 4.10351
2.09949 1.72346 4.10864
2.09151 1.7225 4.11071
2.07551 1.72052 4.11186
2.06359 1.72268 4.12192
2.0466 1.72071 4.12308
2.03671 1.72394 4.13811
2.02173 1.72299 4.14123
2.00371 1.71896 4.13843
1.99878 1.7211 4.14744
1.97975 1.71705 4.14364
1.97189 1.72334 4.16261
1.95793 1.72242 4.16773
1.94094 1.72045 4.16889
1.93208 1.72572 4.18688
1.91505 1.72169 4.18406
1.90504 1.71967 4.18217
1.89209 1.72078 4.18925
1.88119 1.72398 4.20229
1.8652 1.72203 4.20444
1.85024 1.7221 4.20855
1.83628 1.72219 4.21465
1.8203 1.72024 4.2168
1.81229 1.71924 4.21688
1.80037 1.7214 4.22694
1.77045 1.72057 4.23718
1.75649 1.72065 4.24228
1.74253 1.72075 4.24839
1.73062 1.72394 4.26043
1.7216 1.7219 4.25753
1.7056 1.71991 4.25768
1.69268 1.72208 4.26874
1.58293 1.72064 4.3016
1.53904 1.72089 4.31693
-2.59237 1.74197 3.74466
-2.61849 1.74175 3.72886
-2.64252 1.74469 3.724
-2.6536 1.74455 3.71408
-2.6908 1.74318 3.68738
-2.70681 1.74616 3.68545
-2.71593 1.74295 3.67057
-2.72591 1.74598 3.6726
-2.73996 1.74689 3.66569
-2.75598 1.74886 3.66278
-2.76806 1.74872 3.65287
-2.78309 1.75065 3.64796
-2.78726 1.74435 3.62708
-2.81217 1.75351 3.63713
-2.81624 1.7514 3.62919
-2.83523 1.75641 3.62926
-2.84038 1.75113 3.61038
-2.85937 1.75515 3.61046
-2.8754 1.75811 3.60754
-2.87064 1.74664 3.57566
-2.91151 1.7619 3.59175
-2.91864 1.75766 3.57486
-2.93169 1.75856 3.56795
-2.93486 1.75225 3.54706
-2.96079 1.76139 3.55512
-2.9689 1.75819 3.54123
-3.03033 1.75438 3.48374
-3.05528 1.76248 3.48981
-3.06141 1.75923 3.4729
-3.12069 1.76173 3.43631
-3.13275 1.76262 3.42838
-3.14988 1.76138 3.41153
-3.15996 1.76123 3.4006
-3.17303 1.7611 3.3917
-3.18708 1.76301 3.38478
-3.2213 1.76259 3.35504
-3.27679 1.75767 3.29052
-3.303 1.75629 3.26374
-3.32499 1.7623 3.26381
-3.33607 1.76215 3.2529
-3.3412 1.7579 3.236
-3.35526 1.75981 3.22907
-3.36633 1.75967 3.21916
-3.38345 1.75944 3.20329
-3.3866 1.75516 3.18437
-3.39768 1.75501 3.17346
-3.41669 1.75899 3.17154
-3.42579 1.75781 3.15862
-3.43488 1.75763 3.14669
-3.43397 1.75346 3.13475
-3.45299 1.75743 3.13183
-3.45116 1.7511 3.10991
-3.47217 1.75608 3.10799
-3.48524 1.75696 3.09908
-3.49731 1.75784 3.09015
-3.50342 1.75562 3.07523
-3.52137 1.76272 3.08126
-3.51657 1.75433 3.05535
-3.53559 1.7583 3.05243
-3.54469 1.75712 3.03951
-3.54683 1.75285 3.02159
-3.5589 1.75371 3.01167
-3.57296 1.7556 3.00374
-3.57602 1.75349 2.9958
-3.59405 1.75844 2.99186
-3.60711 1.75932 2.98294
-3.6172 1.75916 2.97202
-3.62134 1.7549 2.95411
-3.63638 1.75782 2.94818
-3.63952 1.75456 2.93025
-3.64258 1.75244 2.9223
-3.6697 1.75621 2.90545
-3.67681 1.75401 2.89153
-3.69981 1.76101 2.8906
-3.69102 1.7516 2.86367
-3.70409 1.75248 2.85476
-3.72602 1.76161 2.86279
-3.72717 1.75633 2.84387
-3.73726 1.75616 2.83195
-3.74735 1.75599 2.82003
-3.74948 1.75274 2.80309
-3.7695 1.75769 2.79917
-3.77363 1.75445 2.78224
-3.77966 1.75539 2.77827
-3.79174 1.75625 2.76835
-3.79983 1.75507 2.75543
-3.81092 1.75591 2.7445
-3.82697 1.7588 2.73657
-3.84103 1.7607 2.72865
-3.85112 1.76154 2.71771
-3.84622 1.75633 2.70375
-3.86739 1.75702 2.6819
-3.88941 1.76297 2.67797
-3.88757 1.75768 2.65804
-3.90163 1.75955 2.64911
-3.91669 1.76245 2.64118
-3.91577 1.7593 2.63122
-3.91592 1.75502 2.61228
-3.93993 1.762 2.61036
-3.9601 1.76268 2.5875
-3.96223 1.75943 2.57056
-3.97132 1.75924 2.55763
-3.99754 1.75983 2.52881
-4.00266 1.75861 2.51387
-4.01473 1.75947 2.50395
-4.05104 1.76189 2.46318
-4.07022 1.76255 2.43931
-4.56007 1.7524 1.53103
-4.5663 1.74996 1.5011
-4.57434 1.75188 1.49514
-4.58045 1.75168 1.48118
-4.57671 1.74517 1.44725
-4.58082 1.74395 1.43229
-4.5949 1.7478 1.42134
-4.60001 1.74758 1.40638
-4.59714 1.74333 1.38942
-4.59621 1.74219 1.38043
-4.60132 1.74199 1.36647
-4.60145 1.73974 1.3495
-4.61466 1.74033 1.32159
3.52221 1.70127 2.87208
3.46968 1.70323 2.93445
3.45573 1.70134 2.94159
3.43195 1.70277 2.96975
3.4301 1.70807 2.98969
3.41615 1.70619 2.99682
3.41127 1.70943 3.01281
3.39531 1.70651 3.01798
3.39943 1.71173 3.03287
3.38144 1.70677 3.03508
3.37455 1.71 3.05008
3.36665 1.7112 3.06313
3.36078 1.71444 3.07913
3.35085 1.71459 3.0892
3.3359 1.71271 3.09634
3.34203 1.71896 3.11321
3.32607 1.71604 3.11837
3.32119 1.71928 3.13436
3.30523 1.71637 3.13953
3.2854 1.71872 3.16264
3.27154 1.72 3.18073
3.25961 1.72014 3.18982
3.2497 1.72033 3.20189
3.23675 1.71944 3.20901
3.2129 1.71874 3.2282
3.206 1.72095 3.24222
3.20508 1.7241 3.25218
3.1881 1.72116 3.25535
3.17819 1.72134 3.26743
3.15433 1.72162 3.2856
3.14543 1.72282 3.29866
3.13551 1.72399 3.30971
3.12955 1.72407 3.31476
3.10872 1.72541 3.3369
2.68109 1.72737 3.65414
2.66421 1.72962 3.67023
2.62438 1.72798 3.69256
2.60839 1.725 3.69372
2.58543 1.72311 3.69993
2.57857 1.72738 3.71792
2.56157 1.72441 3.71909
2.53569 1.72365 3.7343
2.53186 1.73098 3.75622
2.50979 1.72388 3.74849
2.51193 1.73014 3.76638
2.48988 1.72405 3.75964
2.48098 1.72627 3.77368
2.46702 1.72535 3.7788
2.45104 1.72341 3.78194
2.43911 1.72455 3.79102
2.42617 1.72466 3.79812
2.41716 1.72166 3.79723
2.40219 1.72074 3.80236
2.39127 1.7219 3.81242
2.38138 1.72511 3.82645
2.36538 1.72214 3.82762
2.35549 1.72535 3.84164
2.33747 1.72132 3.83884
2.33759 1.72656 3.85476
2.31654 1.72048 3.84901
2.30968 1.72575 3.86699
2.28963 1.71968 3.86123
2.27161 1.71565 3.85842
2.26475 1.72094 3.8774
2.24775 1.71795 3.87757
2.23976 1.71697 3.87865
2.2329 1.72224 3.89662
2.22199 1.72443 3.90867
2.20499 1.72144 3.90885
2.18899 1.71845 3.90901
2.17808 1.72064 3.92106
2.16515 1.72178 3.93014
2.1602 1.72387 3.93615
2.14217 1.71884 3.93336
2.13227 1.72204 3.94639
2.11932 1.72215 3.95349
2.10436 1.72124 3.95861
2.09039 1.72131 3.96272
2.07745 1.72142 3.96981
2.06843 1.7194 3.96791
2.05753 1.7216 3.98096
2.04561 1.72375 3.99102
2.02757 1.71971 3.98722
2.01767 1.72191 4.00026
2.00067 1.71992 4.00042
1.9867 1.71899 4.00454
1.98074 1.72007 4.00957
1.96373 1.71707 4.00874
1.95181 1.71822 4.01882
1.93785 1.71832 4.02492
1.9249 1.71842 4.03102
1.90993 1.71749 4.03514
1.89901 1.72066 4.04618
1.89204 1.72071 4.04923
1.87909 1.72082 4.05633
1.85015 1.71996 4.06456
1.83823 1.72213 4.07562
1.82224 1.72016 4.07677
1.80726 1.7182 4.07891
1.77643 1.72255 4.10108
1.76042 1.71955 4.10025
1.73455 1.72283 4.1184
1.7136 1.72194 4.12457
1.69657 1.71889 4.12074
1.64278 1.72234 4.1491
1.63375 1.71929 4.14521
1.59186 1.71953 4.15953
1.56496 1.72076 4.17371
1.51509 1.72103 4.19009
1.30361 1.7242 4.26064
1.26071 1.72443 4.27397
-2.56753 1.74165 3.58946
-2.59166 1.74142 3.57264
-2.60165 1.74344 3.57369
-2.61273 1.7423 3.56378
-2.62281 1.74115 3.55288
-2.6497 1.75237 3.56691
-2.66176 1.75226 3.55901
-2.67483 1.75214 3.5501
-2.68391 1.75098 3.53919
-2.69588 1.75404 3.54223
-2.70597 1.75288 3.53133
-2.7651 1.76064 3.51265
-2.79527 1.76034 3.49088
-2.80832 1.76124 3.48397
-2.81544 1.75803 3.46907
-2.82651 1.75689 3.45916
-2.83858 1.75676 3.45026
-2.85361 1.7587 3.44534
-2.8737 1.76055 3.43446
-2.88476 1.76042 3.42555
-2.89584 1.75928 3.41565
-2.92807 1.75785 3.38491
-2.94005 1.7609 3.38795
-2.95112 1.76076 3.37803
-2.97426 1.76051 3.36021
-2.99344 1.75817 3.33639
-3.03864 1.7608 3.30968
-3.0598 1.75951 3.28886
-3.0689 1.75832 3.27594
-3.08798 1.75917 3.26507
-3.11624 1.75568 3.23033
-3.13326 1.75964 3.2274
-3.15046 1.75627 3.20158
-3.15748 1.75723 3.19862
-3.18062 1.75797 3.17978
-3.18376 1.7527 3.16188
-3.20773 1.76076 3.16494
-3.21583 1.75858 3.15203
-3.22591 1.75742 3.14112
-3.2369 1.76145 3.14214
-3.23707 1.75412 3.12025
-3.25112 1.75704 3.11431
-3.26715 1.75998 3.10939
-3.2703 1.7547 3.09049
-3.28533 1.75764 3.08556
-3.30137 1.76057 3.08064
-3.29252 1.75229 3.06169
-3.30757 1.75419 3.05477
-3.3236 1.75815 3.05083
-3.33467 1.75801 3.04092
-3.34278 1.75581 3.02701
-3.35186 1.75565 3.01608
-3.35798 1.75243 3.00117
-3.35805 1.74928 2.99122
-3.37706 1.75527 2.98927
-3.38418 1.75205 2.97437
-3.39425 1.75191 2.96445
-3.4093 1.75483 2.95852
-3.41839 1.75466 2.94659
-3.43244 1.75657 2.93966
-3.43252 1.7534 2.92871
-3.43863 1.7512 2.91479
-3.4497 1.75106 2.90487
-3.46575 1.75398 2.89895
-3.46888 1.75074 2.88202
-3.47598 1.74855 2.8691
-3.49797 1.75556 2.86916
-3.49904 1.75343 2.8602
-3.50913 1.75326 2.84828
-3.52318 1.75517 2.84135
-3.5273 1.75193 2.82543
-3.54135 1.75384 2.81851
-3.54846 1.75264 2.80458
-3.55854 1.75248 2.79365
-3.56557 1.75343 2.78969
-3.57267 1.75224 2.77676
-3.58772 1.75515 2.76983
-3.59581 1.75398 2.75791
-3.6059 1.75381 2.74598
-3.61102 1.75159 2.73105
-3.62308 1.75246 2.72213
-3.6311 1.75442 2.71916
-3.63622 1.75121 2.70424
-3.64828 1.75308 2.69531
-3.65638 1.7519 2.68238
-3.66448 1.75071 2.66946
-3.67257 1.75054 2.65752
-3.69458 1.75652 2.6556
-3.69465 1.75439 2.64663
-3.70076 1.75319 2.63269
-3.71282 1.75406 2.62377
-3.72689 1.75594 2.61485
-3.74293 1.75986 2.60891
-3.74904 1.75866 2.59497
-3.75415 1.75544 2.58005
-3.75521 1.75432 2.57208
-3.76928 1.7562 2.56315
-3.77539 1.755 2.54922
-3.78547 1.75484 2.53829
-3.8035 1.75978 2.53335
-3.80961 1.75758 2.51943
-3.82068 1.75944 2.50949
-3.82274 1.75732 2.50153
-3.8368 1.76021 2.49359
-3.84788 1.76106 2.48266
-3.85711 1.75662 2.45279
-3.87515 1.76154 2.44686
-3.87429 1.75628 2.42893
-3.8863 1.76027 2.42796
-3.88943 1.75702 2.41103
-3.90349 1.75991 2.40309
-3.92365 1.7606 2.38123
-3.93586 1.7582 2.35335
-3.94893 1.76007 2.34442
-3.95099 1.75996 2.33644
-4.42973 1.75002 1.44307
-4.43683 1.75083 1.43011
-4.44218 1.74616 1.38421
-4.4532 1.7491 1.38025
-4.45033 1.74585 1.36327
-4.45744 1.74565 1.34933
-4.46553 1.74748 1.33736
-4.46267 1.74321 1.3194
-4.46178 1.74099 1.30442
-4.47293 1.7427 1.28448
-4.47405 1.74046 1.26852
-4.49711 1.74736 1.26059
-4.49746 1.74166 1.21367
-4.49764 1.73832 1.19072
-4.50175 1.73811 1.17575
3.36097 1.7039 2.84025
3.34903 1.70203 2.84837
3.33927 1.70849 2.87935
3.32733 1.70762 2.88745
3.32337 1.70771 2.89348
3.31144 1.70785 2.90257
3.30353 1.70804 2.91463
3.2916 1.70818 2.92372
3.29176 1.71449 2.94463
3.27377 1.70953 2.94684
3.2699 1.71379 2.96381
3.26796 1.71489 2.9708
3.25603 1.71503 2.97989
3.24509 1.71418 2.98899
3.24626 1.7215 3.01088
3.23131 1.7186 3.01703
3.22541 1.72181 3.03103
3.20852 1.72103 3.04517
2.40117 1.73071 3.6652
2.39317 1.72872 3.66529
2.37821 1.7278 3.67041
2.36626 1.72791 3.6775
2.35737 1.73113 3.69152
2.33934 1.7261 3.68873
2.32943 1.72928 3.70076
2.31548 1.72838 3.70688
2.31052 1.72946 3.7119
2.2925 1.72444 3.71011
2.2836 1.72764 3.72314
2.26964 1.72674 3.72925
2.25568 1.72682 3.73436
2.24475 1.72697 3.74344
2.22775 1.72398 3.74361
2.22279 1.72506 3.74864
2.2068 1.7231 3.75079
2.19689 1.72528 3.76283
2.18496 1.72641 3.7709
2.17098 1.72448 3.77504
2.15297 1.72146 3.77322
2.14306 1.72365 3.78526
2.13404 1.72162 3.78336
2.12516 1.72485 3.79838
2.10916 1.72186 3.79855
2.0952 1.72195 3.80365
2.0863 1.72515 3.81667
2.07437 1.7263 3.82675
2.05633 1.72124 3.82196
2.05138 1.72234 3.82798
2.03842 1.72243 3.83408
2.02244 1.72048 3.83622
2.01151 1.72262 3.84528
1.99754 1.7217 3.8504
1.98561 1.72283 3.85847
1.97165 1.72293 3.86457
1.96974 1.72609 3.87554
1.9517 1.72205 3.87174
1.94079 1.72422 3.88279
1.92377 1.7202 3.88098
1.91286 1.72337 3.89201
1.89787 1.72141 3.89416
1.88288 1.71944 3.8953
1.87792 1.72053 3.90132
1.86295 1.71958 3.90445
1.851 1.7207 3.91152
1.83602 1.71875 3.91467
1.82409 1.72089 3.92372
1.81216 1.72204 3.9328
1.80313 1.71898 3.92891
1.78816 1.71805 3.93304
1.77418 1.71811 3.93614
1.76225 1.71925 3.94522
1.75336 1.72346 3.95922
1.73635 1.72046 3.9584
1.72236 1.7185 3.96053
1.71843 1.72164 3.96952
1.70141 1.71861 3.96669
1.68745 1.71869 3.97179
1.67857 1.72293 3.9878
1.66051 1.71784 3.98101
1.64758 1.71897 3.98909
1.63767 1.72215 4.00112
1.60173 1.7203 4.00942
1.58675 1.71936 4.01255
1.57379 1.71944 4.01764
1.56084 1.72054 4.02373
1.52591 1.71971 4.034
1.485 1.71992 4.04631
1.45707 1.72007 4.05552
1.44311 1.72016 4.06063
1.37035 1.72367 4.09213
1.35432 1.72064 4.08929
1.34734 1.72067 4.09134
1.3344 1.7218 4.09942
1.21768 1.72442 4.13627
1.02206 1.7253 4.18774
0.99515 1.7285 4.1999
0.959189 1.7276 4.20518
0.948328 1.73387 4.22317
0.930219 1.72668 4.20941
0.909265 1.72778 4.21556
-2.57155 1.74266 3.45445
-2.57856 1.74263 3.45251
-2.58866 1.74146 3.4406
-2.61673 1.74434 3.43077
-2.63275 1.7473 3.42784
-2.64084 1.74513 3.41593
-2.65291 1.74501 3.40703
-2.67593 1.74896 3.40314
-2.68205 1.74475 3.38825
-2.705 1.75285 3.3943
-2.71607 1.75171 3.3844
-2.72417 1.74952 3.37149
-2.73722 1.75144 3.36556
-2.75314 1.75759 3.37459
-2.75631 1.75128 3.3537
-2.76934 1.75322 3.34877
-2.77745 1.75101 3.33486
-2.79248 1.75297 3.33095
-2.80355 1.75284 3.32203
-2.82056 1.75682 3.3201
-2.81371 1.74752 3.30018
-2.83667 1.75561 3.30524
-2.85071 1.75653 3.29933
-2.85386 1.75126 3.28043
-2.86591 1.75216 3.27351
-2.88194 1.75511 3.26958
-2.88805 1.7519 3.25467
-2.8931 1.75081 3.24873
-2.91011 1.75479 3.2468
-2.91326 1.74951 3.2279
-2.92532 1.7494 3.21999
-2.93836 1.75133 3.21406
-2.95241 1.75223 3.20715
-2.96447 1.75312 3.19922
-2.96158 1.74791 3.18528
-2.97859 1.7519 3.18335
-2.98173 1.74663 3.16545
-3.00569 1.75472 3.17051
-3.0009 1.74432 3.14362
-3.02684 1.75444 3.15067
-3.03096 1.75021 3.13476
-3.03106 1.74603 3.12282
-3.04906 1.75103 3.12188
-3.06409 1.75397 3.11695
-3.05633 1.74152 3.08707
-3.07732 1.74755 3.08814
-3.09037 1.74945 3.08121
-3.09548 1.74623 3.06629
-3.10961 1.74399 3.04943
-3.12068 1.74487 3.0405
-3.12679 1.74165 3.02559
-3.14678 1.74768 3.02665
-3.1519 1.74445 3.01074
-3.16695 1.74637 3.00482
-3.16802 1.74424 2.99586
-3.1771 1.74308 2.98494
-3.18817 1.74395 2.97601
-3.19924 1.74381 2.9661
-3.20634 1.74163 2.95318
-3.22038 1.74455 2.94724
-3.23443 1.74647 2.94132
-3.24955 1.74624 2.92544
-3.25863 1.74509 2.91452
-3.26474 1.74288 2.9006
-3.27879 1.74479 2.89367
-3.29382 1.74773 2.88874
-3.29497 1.74245 2.86983
-3.30696 1.74647 2.87086
-3.31108 1.74324 2.85493
-3.32512 1.74516 2.84901
-3.33718 1.74705 2.84107
-3.34231 1.74381 2.82516
-3.35139 1.74366 2.81423
-3.36445 1.74455 2.80631
-3.37048 1.74549 2.80234
-3.38056 1.74534 2.79142
-3.38864 1.74418 2.78049
-3.39575 1.74298 2.76656
-3.40482 1.74284 2.75663
-3.41987 1.74576 2.7507
-3.42598 1.74254 2.73579
-3.43896 1.74758 2.73782
-3.45004 1.74844 2.72789
-3.45813 1.74727 2.71596
-3.46026 1.74302 2.69904
-3.4753 1.74594 2.69311
-3.49134 1.74988 2.68817
-3.49943 1.74871 2.67625
-3.4985 1.74556 2.66629
-3.50561 1.74436 2.65235
-3.5127 1.74318 2.64042
-3.53073 1.74714 2.6365
-3.53882 1.74697 2.62456
-3.54791 1.74679 2.61263
-3.55997 1.74767 2.60371
-3.56401 1.7476 2.59874
-3.57012 1.7464 2.5848
-3.59014 1.75137 2.58188
-3.58828 1.74608 2.56294
-3.59937 1.74593 2.55202
-3.61143 1.7478 2.54309
-3.61653 1.74562 2.53015
-3.63457 1.75055 2.52522
-3.63563 1.74844 2.51726
-3.63875 1.7452 2.50132
-3.6538 1.74811 2.49439
-3.65692 1.74488 2.47846
-3.67595 1.75083 2.47452
-3.67409 1.74455 2.45559
-3.69113 1.74948 2.45065
-3.70313 1.75348 2.44968
-3.69531 1.74413 2.42676
-3.71136 1.74804 2.41982
-3.71845 1.74687 2.40789
-3.73948 1.75382 2.40394
-3.74259 1.7506 2.38901
-3.75168 1.75045 2.37808
-3.7607 1.75341 2.3751
-3.76083 1.74916 2.35817
-3.7729 1.75002 2.34824
-3.78696 1.75291 2.3403
-3.80301 1.75682 2.33337
-3.80812 1.75561 2.31942
-3.81621 1.75544 2.30748
-3.81727 1.75333 2.29952
-3.83132 1.75622 2.29158
-3.83046 1.75195 2.27364
-3.84154 1.75281 2.26371
-3.8546 1.75469 2.25478
-3.86667 1.75756 2.24582
-3.88073 1.76044 2.23689
-3.8808 1.7573 2.22793
-3.88392 1.75509 2.21299
-3.89101 1.75491 2.20104
-3.91005 1.75984 2.19511
-3.9052 1.75354 2.17516
-3.9113 1.75335 2.16221
-3.93532 1.76032 2.15929
-3.93737 1.75922 2.15232
-3.96178 1.75544 2.09855
-3.98698 1.75806 2.0717
-4.32821 1.75001 1.37929
-4.33343 1.74759 1.35036
-4.34052 1.7474 1.33742
-4.34562 1.74721 1.32446
-4.34574 1.74498 1.30849
-4.36082 1.74984 1.29853
-4.34991 1.74365 1.28654
-4.35102 1.74143 1.27158
-4.35413 1.74023 1.25762
-4.36222 1.74205 1.24565
-4.36433 1.73983 1.2307
-4.37044 1.74063 1.21673
-4.37354 1.73943 1.20277
-4.3787 1.73912 1.18181
-4.3868 1.73993 1.16885
3.26448 1.70301 2.77598
3.24363 1.7023 2.79515
3.23285 1.70774 2.82415
3.22091 1.70687 2.83226
3.22401 1.71106 2.84518
3.21509 1.71223 2.85623
3.2092 1.71444 2.87024
3.18819 1.70844 2.86949
3.18633 1.71371 2.88743
3.17339 1.71184 2.89555
3.16547 1.713 2.9066
3.15749 1.71204 2.90867
3.15159 1.71425 2.92268
3.14067 1.71441 2.93277
3.13679 1.71865 2.94873
3.12787 1.71882 2.9598
3.11593 1.71793 2.9669
3.10803 1.71913 2.97995
3.09516 1.72139 2.99701
3.07733 1.72374 3.02012
3.06741 1.7239 3.03019
3.04655 1.72419 3.04935
3.0336 1.72331 3.05646
2.49574 1.72984 3.47547
2.42905 1.7305 3.51697
2.36034 1.72911 3.55551
2.31359 1.73162 3.58783
2.30164 1.73173 3.59492
2.28857 1.72562 3.58711
2.28373 1.73192 3.60706
2.26874 1.72996 3.6092
2.24869 1.72287 3.60245
2.24283 1.72914 3.62041
2.2248 1.72411 3.61762
2.21489 1.72628 3.62866
2.21196 1.72943 3.63864
2.18886 1.71926 3.62596
2.17996 1.72346 3.63897
2.17309 1.72771 3.65596
2.15911 1.72677 3.65908
2.14313 1.72381 3.66124
2.13219 1.72494 3.66931
2.12623 1.72602 3.67434
2.1163 1.72717 3.6844
2.1003 1.72418 3.68456
2.0904 1.72738 3.69759
2.07135 1.72129 3.69082
2.06855 1.73069 3.71771
2.05851 1.72761 3.71183
2.04453 1.72567 3.71496
2.03463 1.72887 3.72799
2.01863 1.72588 3.72816
2.00771 1.72803 3.73821
1.99576 1.72815 3.7453
1.9828 1.72823 3.7504
1.97276 1.72518 3.74652
1.96083 1.72531 3.75461
1.95093 1.72851 3.76764
1.93592 1.7255 3.76679
1.91991 1.7225 3.76596
1.90695 1.7226 3.77205
1.89503 1.72475 3.78211
1.88905 1.7248 3.78516
1.87609 1.72489 3.79026
1.86212 1.72396 3.79438
1.85018 1.72508 3.80245
1.83519 1.72211 3.80361
1.8273 1.72734 3.81859
1.80723 1.72022 3.80985
1.80432 1.72438 3.82081
1.79339 1.72652 3.82986
1.77739 1.72354 3.83002
1.76239 1.72156 3.83117
1.7535 1.72577 3.84517
1.73342 1.71864 3.83543
1.72555 1.7239 3.85241
1.7075 1.71881 3.84562
1.7056 1.723 3.85858
1.69061 1.72204 3.8607
1.67765 1.72213 3.8658
1.66672 1.72327 3.87487
1.6548 1.72642 3.88491
1.63774 1.72033 3.87813
1.61679 1.72044 3.88429
1.60485 1.72156 3.89236
1.54296 1.71883 3.90787
1.53 1.71892 3.91297
1.51704 1.719 3.91807
1.50511 1.72116 3.92812
1.45719 1.71934 3.93851
1.40434 1.72067 3.9589
1.3774 1.72081 3.9671
1.35644 1.7199 3.97227
1.3295 1.72004 3.98047
1.27766 1.72239 4.00183
1.25569 1.72145 4.00501
1.2018 1.72171 4.02041
1.13313 1.73239 4.06378
-3.50982 1.73998 2.49143
-3.52288 1.74187 2.4835
-3.52892 1.7428 2.47853
-3.55218 1.7403 2.44374
-3.57333 1.74203 2.42487
-3.59136 1.74697 2.41993
-3.58744 1.7428 2.40896
-3.59156 1.74058 2.39402
-3.6137 1.74232 2.37516
-3.61881 1.74112 2.36122
-3.63584 1.74505 2.35628
-3.63803 1.73968 2.33138
-3.66315 1.74347 2.31551
-3.67025 1.74328 2.30256
-3.68629 1.7472 2.29662
-3.6914 1.745 2.28269
-3.70048 1.74584 2.27175
-3.70651 1.74679 2.26778
-3.71758 1.74765 2.25785
-3.71174 1.74033 2.23691
-3.73177 1.74629 2.23297
-3.73389 1.74305 2.21703
-3.75703 1.7468 2.19915
-3.75609 1.74467 2.19017
-3.76518 1.74551 2.17923
-3.77824 1.74739 2.1703
-3.78732 1.74823 2.15935
-3.79541 1.74806 2.14741
-3.80847 1.75095 2.13947
-3.80562 1.74467 2.12054
-3.81364 1.74763 2.11755
-3.83068 1.75155 2.11162
-3.82484 1.74424 2.09068
-3.84288 1.75017 2.08573
-3.8649 1.75715 2.08279
-3.86403 1.75289 2.06585
-3.87312 1.75372 2.0539
-3.88114 1.75568 2.05093
-3.88724 1.7545 2.038
-3.88537 1.75023 2.02004
-3.90342 1.75515 2.0141
-3.91747 1.75804 2.00617
-3.91163 1.75174 1.98621
-3.93875 1.75751 1.96933
-4.10626 1.7507 1.63765
-4.11927 1.75468 1.63568
-4.12038 1.75246 1.62072
