3.6176 1.64961 2.01514
3.59762 1.64367 2.01838
3.60774 1.65089 2.0332
3.59882 1.65004 2.04328
3.58487 1.64716 2.05043
3.57795 1.64732 2.06148
3.5831 1.65362 2.08135
3.56815 1.64972 2.08752
3.55822 1.64887 2.09761
3.55929 1.652 2.10656
3.5564 1.65421 2.12055
3.53843 1.64929 2.12476
3.53855 1.65352 2.14069
3.53164 1.65371 2.15275
3.52472 1.65387 2.1638
3.52077 1.65397 2.16983
3.51084 1.65411 2.1789
3.50795 1.65633 2.19389
3.50406 1.65854 2.20789
3.50217 1.66176 2.22286
3.47917 1.65478 2.22313
3.47929 1.65802 2.23909
3.47835 1.66014 2.24706
3.47949 1.6654 2.26498
3.45561 1.66166 2.28122
3.45473 1.66589 2.29716
3.43991 1.66624 2.32027
-2.14564 1.72955 3.45857
-2.27521 1.72852 3.38355
-2.28626 1.72842 3.37664
-2.29931 1.72934 3.37072
-2.31727 1.73542 3.37477
-2.64802 1.73221 3.14428
-2.66205 1.73416 3.14035
-2.67904 1.73917 3.14041
-2.6812 1.73188 3.12053
-2.69613 1.739 3.12854
-2.70918 1.73992 3.12262
-2.70836 1.73158 3.09973
-2.73031 1.73969 3.10578
-2.73543 1.73546 3.08988
-2.75367 1.73 3.05809
-2.77761 1.73913 3.06614
-2.78074 1.73387 3.04824
-2.79279 1.73479 3.04231
-2.79791 1.73055 3.02641
-2.80699 1.73041 3.01648
-2.8462 1.73101 2.98777
-2.8893 1.73885 2.97497
-2.8935 1.73147 2.94911
-2.93676 1.73298 2.91441
-2.9549 1.73171 2.89556
-2.97795 1.73663 2.88866
-2.99412 1.73331 2.86683
-3.02136 1.73186 2.83505
-3.04951 1.73358 2.81523
-3.12999 1.73768 2.75077
-3.19559 1.73354 2.67132
-3.20765 1.73443 2.66339
-3.24574 1.74328 2.65155
-3.28219 1.73642 2.59192
-3.28822 1.73736 2.58795
-3.29333 1.73516 2.57402
-3.30042 1.73399 2.56208
-3.33234 1.74714 2.57113
-3.34176 1.73434 2.51638
-3.36687 1.73813 2.50152
-3.38006 1.73477 2.47666
-3.39709 1.73973 2.47272
-3.39623 1.73446 2.45478
-3.40424 1.73643 2.45282
-3.44354 1.73787 2.41308
-3.47369 1.74258 2.39224
-3.47991 1.73716 2.36336
-3.49397 1.74006 2.35642
-3.52518 1.74266 2.32762
-3.52737 1.7363 2.30372
-3.53644 1.73716 2.29378
-3.55162 1.73582 2.26991
-3.57262 1.74282 2.26896
-3.57282 1.73643 2.24306
-3.58488 1.73832 2.23512
-3.58899 1.73612 2.22118
-3.60714 1.73782 2.20029
-3.62033 1.73546 2.17542
-3.62836 1.73742 2.17245
-3.63146 1.73522 2.1585
-3.65459 1.73897 2.14062
-3.66666 1.74084 2.13168
-3.67189 1.7354 2.1018
-3.68588 1.74043 2.10283
-3.68401 1.73617 2.08588
-3.69508 1.73703 2.07595
-3.71026 1.7367 2.05306
-3.72232 1.73958 2.04411
-3.72643 1.73738 2.03017
-3.73246 1.73932 2.02619
-3.74265 1.73594 2.00031
-3.76766 1.74495 1.99936
-3.76479 1.73968 1.98142
-3.77487 1.74154 1.97147
-3.77898 1.73933 1.95753
-3.78302 1.73925 1.95156
-3.80305 1.7462 1.94761
-3.79819 1.73992 1.92866
-3.80727 1.74076 1.91771
-3.81237 1.73957 1.90477
-3.81747 1.73838 1.89182
-3.83053 1.74127 1.88388
-3.83756 1.74322 1.8799
-3.83967 1.741 1.86495
-3.85274 1.74387 1.856
-3.86082 1.74472 1.84505
-3.87289 1.74658 1.83511
-3.88396 1.74845 1.82616
-3.89305 1.74928 1.81422
-3.8931 1.74818 1.80724
-3.89721 1.74697 1.79328
-3.90927 1.74885 1.78434
-3.92334 1.75273 1.77539
-3.92745 1.75052 1.76145
-3.93652 1.75238 1.75149
-3.94163 1.75118 1.73755
-4.00134 1.75481 1.64293
-4.04816 1.75123 1.53432
-4.05426 1.75104 1.52137
-4.04839 1.74577 1.5034
-4.05349 1.74559 1.49044
-4.05759 1.7444 1.47748
-4.06363 1.74633 1.4725
-4.06474 1.74311 1.45756
-4.07382 1.74495 1.44659
-4.07594 1.74273 1.43164
-4.08303 1.74356 1.41968
-4.07816 1.7383 1.40272
-4.07927 1.73709 1.38874
-4.10324 1.74614 1.39079
-4.11532 1.749 1.38084
-4.11145 1.74475 1.36387
-4.11355 1.74354 1.3499
-4.12363 1.74539 1.33895
-4.12674 1.74418 1.32499
-4.12386 1.74094 1.30901
-4.13289 1.74389 1.30504
-4.13301 1.74067 1.29008
-4.13411 1.73946 1.27611
-4.14818 1.74332 1.26615
-4.15129 1.74212 1.25219
-4.14541 1.73688 1.23622
-4.15251 1.73769 1.22326
-4.15456 1.7376 1.21728
-4.15965 1.73741 1.20432
-4.16886 1.73702 1.17739
-4.17196 1.73583 1.16443
-4.17606 1.73563 1.15046
-4.18913 1.73949 1.1405
3.72384 1.64612 1.64834
3.7099 1.64225 1.6565
3.49557 1.64663 2.0111
3.48564 1.64477 2.02021
3.46306 1.65162 2.07628
3.4471 1.64772 2.08246
3.43717 1.64586 2.09156
3.44433 1.65416 2.11239
3.42635 1.64922 2.1156
3.42748 1.65347 2.13253
3.42353 1.65356 2.13856
3.40756 1.64963 2.14274
3.40567 1.65286 2.15771
3.40379 1.65608 2.17268
3.39788 1.65726 2.1847
3.38694 1.65539 2.19282
3.38807 1.66064 2.20973
3.38109 1.65869 2.21281
3.3611 1.65273 2.21505
3.36627 1.66004 2.23591
3.35432 1.65815 2.24303
3.35042 1.66036 2.25703
3.35256 1.66663 2.27492
3.32955 1.65863 2.27421
3.33062 1.66076 2.28317
3.3168 1.66311 2.30625
3.31189 1.66429 2.31827
3.29203 1.66359 2.33743
3.29115 1.66783 2.35338
1.59086 1.69903 3.6469
1.57789 1.6991 3.651
1.56594 1.6992 3.65709
1.53998 1.69831 3.6633
1.52003 1.69741 3.66946
1.50909 1.69954 3.67751
1.4582 1.6978 3.69293
1.4413 1.701 3.70601
1.42729 1.699 3.70514
1.41433 1.69908 3.71024
1.40034 1.6971 3.71137
1.36344 1.69834 3.72564
1.35849 1.70043 3.73164
1.33458 1.70163 3.74381
1.30763 1.70073 3.75002
1.29567 1.70183 3.7561
1.28167 1.70084 3.75622
1.27773 1.70295 3.76322
1.24973 1.69998 3.76447
1.23779 1.7011 3.77155
-2.05345 1.7239 3.35095
-2.25926 1.72945 3.2444
-2.54272 1.72877 3.05152
-2.55378 1.72866 3.0436
-2.56887 1.72849 3.03172
-2.57993 1.72838 3.0238
-2.60204 1.72817 3.00897
-2.61309 1.72908 3.00204
-2.62117 1.72792 2.99112
-2.6451 1.73707 3.00016
-2.65723 1.73483 2.98328
-2.66433 1.73164 2.97038
-2.67636 1.73358 2.96544
-2.68941 1.7355 2.95951
-2.69551 1.73231 2.9466
-2.70756 1.73321 2.93968
-2.71853 1.73727 2.9427
-2.72365 1.73405 2.92779
-2.73867 1.73701 2.92486
-2.74873 1.7369 2.91693
-2.7588 1.73678 2.90801
-2.76886 1.73665 2.89909
-2.77992 1.73756 2.89216
-2.78793 1.73953 2.89019
-2.79304 1.73533 2.87629
-2.80508 1.73725 2.87035
-2.81416 1.73609 2.85943
-2.82818 1.73906 2.85649
-2.83628 1.73789 2.84457
-2.84435 1.73674 2.83465
-2.8474 1.73464 2.8277
-2.86638 1.74168 2.82974
-2.87547 1.74053 2.81882
-2.87562 1.73323 2.79893
-2.88964 1.7372 2.79597
-2.90169 1.7381 2.78905
-2.91275 1.73899 2.78112
-2.91581 1.73789 2.77416
-2.92487 1.73777 2.76523
-2.93098 1.73456 2.75132
-2.94799 1.73956 2.75037
-2.96301 1.74251 2.74644
-2.97307 1.7434 2.7385
-2.9752 1.73815 2.72159
-2.98024 1.73808 2.71663
-3.00618 1.7492 2.72366
-3.00534 1.74191 2.70376
-3.00548 1.73664 2.68584
-3.02546 1.74267 2.6869
-3.02065 1.73331 2.663
-3.03667 1.73728 2.66006
-3.0546 1.74541 2.66808
-3.05276 1.73911 2.64815
-3.06878 1.74308 2.64522
-3.07785 1.74294 2.63529
-3.07898 1.73769 2.61837
-3.08707 1.73653 2.60745
-3.11202 1.74662 2.61248
-3.11011 1.74246 2.60153
-3.11422 1.73924 2.58661
-3.13521 1.74627 2.58766
-3.13435 1.74 2.56975
-3.15435 1.747 2.56879
-3.15846 1.7428 2.55488
-3.1586 1.73853 2.53695
-3.16463 1.73847 2.53299
-3.17767 1.74139 2.52705
-3.18475 1.74024 2.51611
-3.19582 1.74111 2.50718
-3.21482 1.74711 2.50624
-3.21 1.73878 2.48432
-3.22701 1.74375 2.48138
-3.23304 1.74469 2.47741
-3.23019 1.73741 2.45849
-3.24523 1.74133 2.45254
-3.26424 1.74733 2.4516
-3.26735 1.74411 2.43667
-3.27047 1.74089 2.42174
-3.28352 1.7428 2.41481
-3.27961 1.73762 2.40285
-3.29365 1.74055 2.39791
-3.30471 1.74243 2.38897
-3.31279 1.74229 2.37903
-3.32286 1.74316 2.37009
-3.33392 1.74503 2.36115
-3.33206 1.73877 2.34322
-3.33809 1.73971 2.33925
-3.35312 1.74365 2.33431
-3.35028 1.73635 2.31439
-3.36731 1.7413 2.31045
-3.38234 1.74524 2.3055
-3.37949 1.73896 2.28657
-3.39452 1.74289 2.28162
-3.40254 1.74487 2.27965
-3.39969 1.73857 2.25972
-3.41273 1.74149 2.25378
-3.42678 1.7444 2.24684
-3.43188 1.74321 2.23389
-3.43997 1.74305 2.22295
-3.45202 1.74496 2.21602
-3.45009 1.74181 2.20605
-3.45719 1.74064 2.19412
-3.47321 1.74559 2.19016
-3.47136 1.73931 2.17124
-3.48441 1.74221 2.16429
-3.49547 1.7441 2.15635
-3.4956 1.73985 2.13941
-3.50361 1.74183 2.13744
-3.51169 1.74167 2.1265
-3.52077 1.74253 2.11656
-3.52785 1.74237 2.10561
-3.53594 1.7422 2.09367
-3.548 1.74509 2.08572
-3.55807 1.74596 2.07678
-3.55912 1.74486 2.0698
-3.56919 1.74572 2.05987
-3.56932 1.74148 2.04393
-3.58138 1.74437 2.03597
-3.59046 1.74422 2.02504
-3.60052 1.74609 2.01609
-3.61059 1.74796 2.00714
-3.60369 1.74177 1.99418
-3.61575 1.74366 1.98624
-3.6298 1.74756 1.97928
-3.62992 1.74333 1.96335
-3.64099 1.7462 1.95439
-3.65206 1.74708 1.94545
-3.65417 1.74486 1.9305
-3.6602 1.7468 1.92652
-3.67425 1.74971 1.91958
-3.67636 1.74649 1.90464
-3.68644 1.74835 1.89469
-3.69153 1.74717 1.88274
-3.69961 1.74801 1.87179
-3.7047 1.74684 1.85984
-3.71273 1.74979 1.85586
-3.7228 1.75066 1.84692
-3.73287 1.75252 1.83697
-3.74804 1.75319 1.81407
-3.75314 1.752 1.80112
-3.76725 1.75379 1.7862
-3.78852 1.75429 1.75135
-3.99678 1.75001 1.31892
-4.01112 1.74736 1.27406
-4.01921 1.74918 1.2621
-4.08056 1.74456 1.0826
-4.0898 1.7431 1.05069
-4.09988 1.74594 1.03972
-4.10609 1.74454 1.01278
-4.11428 1.74417 0.986848
-4.11339 1.74196 0.972872
-4.11844 1.74287 0.966895
-4.11555 1.73965 0.951919
-4.12663 1.74249 0.940959
-4.12474 1.74029 0.926976
-4.12185 1.73706 0.912
-4.12894 1.73789 0.900039
-4.14417 1.74044 0.869112
-4.14738 1.73804 0.842168
-4.14549 1.73582 0.827184
-4.15857 1.73968 0.817224
-4.15468 1.73546 0.802256
-4.15584 1.73415 0.781281
-4.16792 1.73799 0.770313
-4.16803 1.73578 0.756345
-4.17112 1.73559 0.743369
-4.18667 1.73353 0.670507
3.56884 1.64322 1.64855
3.55991 1.64137 1.65865
3.55501 1.64255 1.67067
3.55707 1.64467 1.67862
3.54413 1.6418 1.68676
3.54022 1.64298 1.69878
3.54334 1.64821 1.71468
3.5304 1.64434 1.72283
3.52247 1.64449 1.73289
3.51756 1.64467 1.74493
3.51259 1.64474 1.74897
3.5107 1.64695 1.76295
3.51082 1.65017 1.7779
3.49787 1.64728 1.78504
3.49597 1.64949 1.79903
3.49608 1.6537 1.81297
3.48716 1.65285 1.82305
3.48119 1.65091 1.82712
3.47427 1.65108 1.83817
3.46132 1.6482 1.84531
3.46746 1.65546 1.86316
3.45753 1.6536 1.87227
3.45363 1.65579 1.88527
3.44772 1.65598 1.89731
3.45581 1.66215 1.90916
3.43885 1.65723 1.91436
3.43896 1.66045 1.92931
3.43304 1.66162 1.94034
3.42311 1.66076 1.94943
3.4172 1.66094 1.96147
3.41129 1.66213 1.9735
3.40331 1.66016 1.97559
3.3994 1.66134 1.98761
3.39851 1.66557 2.00255
3.38457 1.66168 2.00972
3.37764 1.66183 2.01977
3.37776 1.66607 2.03571
3.3628 1.66215 2.04088
3.35984 1.66225 2.0469
3.34601 1.66358 2.06899
3.3421 1.66576 2.08098
3.30645 1.66547 2.12726
-1.39509 1.72315 3.53002
-1.40516 1.72 3.52014
-1.4393 1.71776 3.50243
-1.50647 1.71847 3.47993
-1.53458 1.71727 3.46515
-1.57067 1.71812 3.45341
-1.60174 1.72001 3.44462
-1.63687 1.71878 3.4279
-1.67296 1.72062 3.41514
-1.70206 1.72044 3.40236
-1.83248 1.72271 3.3473
-1.8526 1.72049 3.33148
-1.86463 1.72142 3.32656
-1.89166 1.72538 3.3227
-2.22171 1.74352 3.1829
-2.22682 1.7383 3.16802
-2.22503 1.72791 3.14215
-2.23905 1.72988 3.13923
-2.24417 1.72465 3.12334
-2.26223 1.72654 3.11545
-2.28433 1.72736 3.1026
-2.2934 1.72522 3.0927
-2.3305 1.72904 3.07892
-2.67204 1.74722 2.8742
-2.68126 1.7388 2.84539
-2.68233 1.73668 2.83743
-2.69933 1.74168 2.83648
-2.69849 1.73339 2.81659
-2.70756 1.73324 2.80666
-2.72555 1.73827 2.80772
-2.72768 1.73302 2.79082
-2.73873 1.73393 2.78388
-2.74971 1.73796 2.78591
-2.74589 1.72862 2.76301
-2.76092 1.73257 2.75907
-2.7799 1.73862 2.76112
-2.78104 1.73235 2.74322
-2.79607 1.7363 2.73927
-2.81306 1.74131 2.73933
-2.80521 1.73204 2.7214
-2.81824 1.73498 2.71646
-2.8402 1.74305 2.7205
-2.8344 1.73268 2.69561
-2.84148 1.73152 2.68468
-2.8694 1.74369 2.69471
-2.87054 1.73742 2.67681
-2.87656 1.73838 2.67384
-2.89456 1.74439 2.67389
-2.89272 1.73608 2.65299
-2.90278 1.73697 2.64506
-2.92277 1.744 2.6461
-2.92291 1.73773 2.62819
-2.93098 1.73659 2.61827
-2.938 1.73855 2.61529
-2.94111 1.73535 2.60136
-2.94423 1.73011 2.58546
-2.96719 1.7402 2.59049
-2.97229 1.73702 2.57757
-2.97541 1.73278 2.56165
-3.00135 1.7439 2.56869
-2.99249 1.73465 2.55175
-3.00553 1.73757 2.54581
-3.01956 1.7405 2.54087
-3.02069 1.73525 2.52395
-3.02976 1.73512 2.51502
-3.04777 1.74112 2.51407
-3.05286 1.73893 2.50114
-3.05293 1.7358 2.49218
-3.0769 1.74488 2.49623
-3.081 1.74267 2.48229
-3.07915 1.73539 2.46338
-3.10411 1.74548 2.46842
-3.09829 1.73614 2.44551
-3.10636 1.736 2.43558
-3.11437 1.73799 2.43461
-3.12742 1.74089 2.42766
-3.13351 1.73872 2.41574
-3.14555 1.74164 2.40978
-3.15066 1.73844 2.39587
-3.16172 1.74032 2.38792
-3.17277 1.74223 2.38098
-3.17383 1.74011 2.37301
-3.17992 1.73794 2.36109
-3.19694 1.74291 2.35814
-3.19508 1.73664 2.34022
-3.20713 1.73954 2.33327
-3.22316 1.7435 2.32933
-3.21733 1.73517 2.30741
-3.2323 1.74124 2.31143
-3.24535 1.74414 2.30448
-3.24547 1.7399 2.28855
-3.25851 1.74183 2.28261
-3.27653 1.74779 2.27966
-3.26871 1.73845 2.25674
-3.28871 1.74445 2.2558
-3.29275 1.74438 2.25083
-3.29586 1.74217 2.23688
-3.30492 1.74304 2.22794
-3.31599 1.74392 2.21901
-3.32009 1.74173 2.20607
-3.32916 1.74259 2.19612
-3.33724 1.74245 2.18618
-3.34227 1.74339 2.18221
-3.35433 1.74528 2.17427
-3.35644 1.74206 2.15933
-3.3675 1.74295 2.1514
-3.3716 1.74176 2.13845
-3.37968 1.7416 2.12751
-3.39173 1.74351 2.12057
-3.39477 1.74344 2.11559
-3.40385 1.74429 2.10565
-3.41292 1.74515 2.0957
-3.421 1.745 2.08476
-3.43703 1.74995 2.08081
-3.43616 1.7447 2.06388
-3.43528 1.74046 2.04793
-3.44828 1.74547 2.04796
-3.45834 1.74636 2.04002
-3.46145 1.74415 2.02607
-3.48146 1.75112 2.02312
-3.4796 1.74587 2.00618
-3.48966 1.74674 1.99724
-3.49177 1.74454 1.98329
-3.49382 1.74343 1.97632
-3.50588 1.74532 1.96838
-3.52092 1.75025 1.96242
-3.52303 1.74704 1.94848
-3.5321 1.7479 1.93854
-3.54218 1.74976 1.92858
-3.54727 1.74858 1.91664
-3.55137 1.7464 1.9037
-3.55739 1.74836 1.90072
-3.56746 1.74921 1.89078
-3.57255 1.74904 1.87882
-3.58262 1.74991 1.86988
-3.58872 1.74873 1.85694
-3.59779 1.7506 1.84798
-3.60791 1.75036 1.83106
-3.613 1.74918 1.81911
-3.63625 1.75071 1.78626
-3.64942 1.75038 1.76336
-3.68888 1.7515 1.70263
-3.69397 1.75133 1.69067
-4.07206 1.74164 0.750534
-4.06818 1.73742 0.735566
-4.0834 1.74098 0.705623
-4.08661 1.73858 0.678679
-4.08571 1.73639 0.665703
-4.09379 1.73922 0.653721
-4.08691 1.73399 0.638744
-4.08995 1.73491 0.632753
-4.09604 1.73573 0.620785
-4.10364 1.73057 0.541907
3.56427 1.64012 1.4396
3.55539 1.64038 1.45667
3.5565 1.64359 1.47061
3.54065 1.6419 1.49076
3.54176 1.6451 1.50471
3.52982 1.64223 1.51284
3.52987 1.64333 1.51982
3.52898 1.64654 1.53379
3.51804 1.64367 1.54191
3.51915 1.64789 1.55684
3.51825 1.65008 1.56982
3.50531 1.64721 1.57796
3.51446 1.65448 1.59679
3.51451 1.65659 1.60376
3.49554 1.64966 1.608
3.49565 1.65388 1.62294
3.50279 1.66014 1.6408
3.49185 1.65827 1.64891
3.48593 1.65844 1.65995
3.48108 1.66072 1.67896
3.45429 1.65716 1.70722
3.4554 1.66138 1.72215
3.44257 1.66171 1.74424
3.4386 1.66077 1.74829
3.42577 1.66111 1.77038
3.41986 1.66229 1.78241
3.39223 1.66404 1.8316
-1.36067 1.72498 3.45273
-1.38179 1.72176 3.43693
-1.39074 1.72585 3.44294
-1.39786 1.71962 3.42708
-1.41285 1.72266 3.42915
-1.42682 1.72672 3.4322
-1.43297 1.71944 3.41335
-1.44598 1.72042 3.41143
-1.45702 1.72035 3.40652
-1.46401 1.72137 3.40755
-1.47506 1.72129 3.40164
-1.48807 1.72227 3.39972
-1.49815 1.72013 3.38983
-1.51115 1.72113 3.38891
-1.52417 1.72311 3.38698
-1.53421 1.72203 3.38107
-1.54122 1.72302 3.38011
-1.55324 1.72398 3.37718
-1.56233 1.72081 3.3653
-1.5773 1.72488 3.36935
-1.58933 1.72583 3.36543
-1.60038 1.72473 3.35852
-1.61143 1.72365 3.35262
-1.61843 1.72566 3.35264
-1.62651 1.7215 3.34177
-1.64346 1.7276 3.3478
-1.65844 1.73166 3.35086
-1.66457 1.72641 3.33398
-1.97856 1.73565 3.20219
-1.98558 1.73663 3.20023
-1.99662 1.73655 3.19431
-2.00668 1.73544 3.1864
-2.02364 1.74152 3.19144
-2.0408 1.73722 3.17063
-2.43571 1.73773 2.91856
-2.43982 1.73352 2.90366
-2.46291 1.73635 2.89179
-2.47388 1.74042 2.89581
-2.48591 1.74136 2.89088
-2.494 1.7402 2.87996
-2.50009 1.73703 2.86805
-2.51609 1.74102 2.86711
-2.51923 1.73577 2.85021
-2.53126 1.73771 2.84527
-2.54619 1.74585 2.85427
-2.54438 1.7355 2.8304
-2.55344 1.73538 2.82247
-2.57637 1.74552 2.8305
-2.58148 1.74131 2.81659
-2.59352 1.74323 2.81066
-2.60365 1.73999 2.79378
-2.6147 1.73989 2.78686
-2.62675 1.74181 2.78092
-2.62887 1.73658 2.76501
-2.64785 1.74362 2.76705
-2.66187 1.74659 2.76412
-2.66995 1.74543 2.75319
-2.67101 1.74231 2.74524
-2.6951 1.74515 2.73338
-2.69425 1.73887 2.71447
-2.71323 1.74491 2.71652
-2.7233 1.74479 2.7076
-2.73533 1.74672 2.70266
-2.74745 1.74551 2.68777
-2.75156 1.74129 2.67286
-2.77367 1.7441 2.65898
-2.78571 1.74502 2.65306
-2.8008 1.74585 2.64116
-2.80987 1.74573 2.63222
-2.82502 1.74344 2.61237
-2.83509 1.74331 2.60345
-2.84925 1.741 2.58158
-2.86221 1.74708 2.58659
-2.87837 1.74478 2.56575
-2.88942 1.74669 2.5588
-2.89948 1.74758 2.55086
-2.90359 1.74337 2.53695
-2.91463 1.74529 2.53101
-2.92364 1.74728 2.53004
-2.92675 1.74406 2.51511
-2.94078 1.74701 2.51117
-2.94985 1.74689 2.50224
-2.95495 1.7447 2.48931
-2.96997 1.74866 2.48637
-2.97613 1.74436 2.46547
-3.00929 1.74806 2.44367
-3.01538 1.74588 2.43174
-3.03451 1.74765 2.41486
-3.08799 1.74574 2.35128
-3.09699 1.74873 2.3503
-3.11314 1.74844 2.33043
-3.1232 1.74933 2.32249
-3.20694 1.74894 2.22511
-3.29881 1.74929 2.10978
-3.4241 1.74984 1.9387
-4.01222 1.73932 0.596097
-4.01647 1.73685 0.564161
-4.02256 1.73867 0.552178
-4.01766 1.73546 0.538187
-4.01677 1.73325 0.524211
3.51464 1.64292 1.35592
3.5028 1.64225 1.37803
3.5149 1.65042 1.38981
3.49492 1.64249 1.39408
3.488 1.64165 1.40415
3.49313 1.64789 1.42102
3.47716 1.64198 1.42623
3.48129 1.64721 1.44212
3.47537 1.64738 1.45317
3.4714 1.64644 1.45721
3.46447 1.6456 1.46728
3.47161 1.65286 1.48512
3.45465 1.64694 1.49033
3.44873 1.64711 1.50138
3.45085 1.65233 1.51629
3.4389 1.64844 1.52343
3.43895 1.65055 1.5304
3.44508 1.65679 1.54727
3.42812 1.65088 1.55248
3.42823 1.65409 1.56644
3.42933 1.65829 1.58037
3.41036 1.65137 1.58462
3.41047 1.65457 1.59857
3.41052 1.65668 1.60554
3.4036 1.65583 1.6156
3.4037 1.65904 1.62956
3.3988 1.66022 1.64158
3.38383 1.6553 1.64677
3.38495 1.65953 1.6617
3.37305 1.65874 1.6758
3.36513 1.6579 1.68587
3.34737 1.65938 1.71799
3.33854 1.66073 1.74104
3.33458 1.66081 1.74607
3.32073 1.66111 1.76617
3.31381 1.66127 1.77622
3.30398 1.66261 1.79928
3.25262 1.66589 1.88363
4.05089 -0.574941 13.8304
4.02345 -0.575826 13.9047
3.95108 -0.581589 14.2553
3.92576 -0.583237 14.3456
3.8994 -0.583959 14.4308
3.87307 -0.585622 14.52
3.86968 -0.587405 14.6021
3.84029 -0.588199 14.6823
3.33506 -0.622771 16.7839
3.12871 -0.637528 17.6698
3.09479 -0.63937 17.8141
2.10042 -0.713364 22.0283
2.0479 -0.717407 22.2258
4.05851 -0.480831 13.77
4.03206 -0.481716 13.8442
4.00973 -0.482381 13.9334
3.98297 -0.483918 14.0986
3.95555 -0.484773 14.1749
3.93534 -0.486203 14.2801
3.88569 -0.487501 14.4605
3.86038 -0.48812 14.5527
3.82966 -0.490594 14.722
3.119 -0.522089 17.6982
3.08507 -0.522961 17.8405
3.05012 -0.524877 17.9798
2.98141 -0.52831 18.2854
2.94446 -0.530224 18.4247
2.17242 -0.567534 21.7486
2.12193 -0.57052 21.95
2.04426 -0.573873 22.2607
1.99069 -0.576034 22.4502
3.99861 -0.413737 14.0435
3.97325 -0.41346 14.1287
3.87162 -0.416766 14.5765
3.8453 -0.417399 14.6678
3.49359 -0.425942 16.1698
3.46344 -0.426246 16.283
3.43228 -0.427565 16.3953
3.2966 -0.430965 16.9704
3.26247 -0.431237 17.0857
3.2315 -0.432186 17.223
3.08643 -0.437379 17.8792
3.05253 -0.438177 18.0265
3.01763 -0.439004 18.1718
2.97966 -0.439933 18.3101
2.05578 -0.466974 22.186
1.97838 -0.468808 22.5317
1.92509 -0.471407 22.7591
1.81335 -0.473898 23.1941
4.06529 -0.300507 13.7232
4.04193 -0.301231 13.8084
4.01754 -0.300999 13.8906
3.94311 -0.29991 14.2312
3.91878 -0.300574 14.3204
3.89551 -0.300121 14.4176
3.87225 -0.299638 14.5168
3.849 -0.300155 14.616
3.02992 -0.296584 18.0646
2.99399 -0.296455 18.2069
2.95808 -0.297281 18.3522
1.90768 -0.295451 22.8217
1.85235 -0.295138 23.0431
4.04324 -0.225708 13.8433
3.91812 -0.222005 14.3583
3.89488 -0.221492 14.4595
3.86853 -0.221184 14.5467
3.83474 -0.22079 14.7069
3.49356 -0.212276 16.1456
3.46238 -0.211639 16.2548
3.32446 -0.208527 16.7969
3.2955 -0.207463 16.9351
3.12234 -0.203845 17.7125
3.08531 -0.202922 17.8408
3.05036 -0.201824 17.981
3.01444 -0.20168 18.1243
2.46291 -0.188951 20.4466
1.9824 -0.178154 22.5063
1.92797 -0.177019 22.7158
1.87259 -0.175795 22.9312
4.06722 -0.124869 13.6976
4.04692 -0.123477 13.7908
4.02254 -0.122245 13.873
4.00022 -0.120896 13.9631
3.94296 -0.118433 14.1945
3.92481 -0.116762 14.3067
3.89845 -0.116469 14.3929
3.8762 -0.114987 14.492
3.47488 -0.0947868 16.177
3.27887 -0.0848716 16.9734
3.21692 -0.0818134 17.2449
3.0697 -0.0743177 17.88
3.04001 -0.0717195 18.0542
2.99882 -0.071105 18.1615
2.49613 -0.0446938 20.3292
2.45143 -0.0430994 20.5025
1.86315 -0.0129021 22.9899
3.84935 -0.040813 14.6372
3.47577 -0.0151072 16.1548
3.46847 -0.0137247 16.2478
3.43523 -0.0122049 16.3491
3.40512 -0.0104357 16.4673
3.37299 -0.00870936 16.5825
3.26853 -0.000688473 17.0523
3.23548 0.00120139 17.1785
3.20141 0.00306239 17.3028
3.09243 0.0120195 17.8355
3.05539 0.0139419 17.9638
2.98462 0.0193616 18.2593
2.55409 0.0481219 20.0483
2.47104 0.054987 20.4409
2.42215 0.0571994 20.5883
1.9883 0.0882947 22.4673
1.93497 0.0916061 22.6887
1.87848 0.0956235 22.8901
4.06717 0.0368175 13.6752
4.04379 0.0380488 13.7574
4.02042 0.0402948 13.8406
3.92267 0.0497479 14.2722
2.96901 0.138982 18.2996
2.93313 0.142214 18.4489
2.49679 0.183333 20.2618
2.40963 0.191964 20.6384
1.92227 0.239014 22.7146
1.86683 0.244119 22.922
4.04472 0.127801 13.7401
2.4883 0.312184 20.318
4.0439 0.230013 13.7536
4.01606 0.235298 13.9067
3.9958 0.238779 14.0058
3.96836 0.240895 14.08
3.94505 0.244259 14.1712
3.9228 0.247741 14.2703
3.89645 0.250033 14.3565
3.87081 0.256717 14.5366
3.84655 0.260201 14.6357
3.17053 0.355809 17.4168
3.13753 0.360802 17.55
2.95175 0.389122 18.3741
2.58231 0.443044 19.9063
2.49696 0.455303 20.2578
2.02812 0.526374 22.2685
1.97358 0.533272 22.4619
1.91913 0.540346 22.6672
1.86591 0.548864 22.9025
3.47912 0.398023 16.1607
3.44793 0.402645 16.2688
3.41471 0.407194 16.372
3.40644 0.410636 16.4691
3.34113 0.418985 16.6925
3.31217 0.425049 16.8306
3.27802 0.428732 16.9428
3.24706 0.434798 17.081
3.17186 0.449345 17.4524
3.1039 0.460377 17.7218
3.07001 0.465579 17.869
3.03088 0.470324 17.9852
3.00019 0.476908 18.1584
2.98386 0.481223 18.2464
2.57679 0.548866 19.9608
2.01257 0.644113 22.3169
1.95812 0.652188 22.5222
1.90372 0.661366 22.7345
1.5288 0.726298 24.3346
4.03337 0.393728 13.8002
4.00556 0.401073 13.9573
3.9812 0.404349 14.0425
3.96095 0.40883 14.1416
3.93355 0.413034 14.2217
3.90821 0.41634 14.3089
3.88802 0.420939 14.416
3.83095 0.432771 14.6723
3.45842 0.499501 16.1913
3.35564 0.518882 16.6179
3.32458 0.524741 16.742
3.29353 0.530629 16.8682
3.15629 0.559056 17.4989
3.12232 0.565094 17.6351
3.0873 0.571029 17.7643
3.05236 0.577127 17.9045
3.01536 0.583123 18.0377
2.47381 0.688686 20.3485
2.17757 0.748015 21.641
2.0001 0.781981 22.374
1.9467 0.791144 22.5853
1.89016 0.800042 22.7786
4.0152 0.495241 13.9009
3.88916 0.521075 14.4245
3.86589 0.526528 14.5216
3.45767 0.611844 16.2137
3.42652 0.617525 16.3258
3.39437 0.623207 16.438
3.325 0.640409 16.7863
3.29081 0.646033 16.8945
3.25881 0.65301 17.0267
3.22575 0.65987 17.1508
3.1948 0.66695 17.29
3.11559 0.685471 17.6594
3.08167 0.692612 17.8025
3.04881 0.700857 17.9527
3.01181 0.707853 18.0859
2.58919 0.799348 19.8569
2.46032 0.82751 20.4026
2.41359 0.836032 20.5708
1.97978 0.935134 22.4499
1.92645 0.94643 22.6701
1.86997 0.957447 22.8714
1.81479 0.970055 23.1127
1.75632 0.980088 23.315
1.55335 1.03 24.2459
1.49014 1.04254 24.4823
3.45504 0.714442 16.2532
3.42386 0.720064 16.3613
3.39169 0.726701 16.4705
3.36058 0.73347 16.5886
3.32847 0.74024 16.7068
3.29125 0.752746 16.9419
3.25923 0.760694 17.0721
3.22822 0.767656 17.2032
3.19419 0.775576 17.3314
3.16119 0.782554 17.4635
3.1272 0.790547 17.5967
3.01012 0.820301 18.1152
2.97314 0.827326 18.2504
2.93519 0.835411 18.3896
2.8983 0.843614 18.5368
2.69115 0.896162 19.4427
2.65253 0.906884 19.6248
2.37126 0.973172 20.7801
2.11169 1.03885 21.8953
2.06024 1.04992 22.1005
4.0306 0.66182 13.8043
4.00829 0.668198 13.8964
3.98085 0.672313 13.9705
3.95756 0.677707 14.0636
3.93289 0.68833 14.2397
3.90448 0.693505 14.3178
3.88123 0.698988 14.4169
3.85693 0.704382 14.5101
3.79687 0.720215 14.7663
3.77371 0.726875 14.8774
3.48304 0.802339 16.1116
3.45081 0.808858 16.2128
3.41967 0.815568 16.327
3.284 0.851134 16.8995
3.25505 0.860212 17.0386
3.21993 0.866955 17.1548
3.18902 0.876109 17.2989
3.07902 0.90902 17.8283
3.03887 0.915707 17.9406
3.00606 0.926055 18.0977
2.84125 0.96933 18.7844
2.80453 0.979843 18.9525
2.76468 0.989137 19.1057
2.72599 1.00073 19.2788
2.68202 1.00876 19.4141
2.64239 1.02048 19.5962
2.45356 1.07168 20.412
2.409 1.08453 20.6022
2.36129 1.09508 20.7724
2.24936 1.12912 21.3108
2.19978 1.14093 21.498
2.14923 1.15281 21.6903
2.09988 1.16705 21.9075
2.04623 1.17874 22.0867
1.86456 1.23225 22.9234
1.80722 1.24653 23.1427
1.75099 1.26104 23.3769
1.69163 1.27528 23.5932
1.63137 1.28973 23.8234
1.4816 1.33406 24.515
4.03846 0.753434 13.7779
4.01614 0.759767 13.8669
3.99281 0.765102 13.9561
3.96949 0.771451 14.0461
3.94412 0.776698 14.1293
3.93967 0.781767 14.2012
3.91742 0.788249 14.3003
3.88899 0.793379 14.3755
3.61567 0.869557 15.5236
3.59159 0.877365 15.6446
3.55928 0.883751 15.7368
3.53528 0.892722 15.8689
3.503 0.899152 15.964
3.43952 0.922127 16.2972
3.40526 0.928588 16.3944
3.37726 0.937562 16.5265
3.313 0.953013 16.7568
3.23965 0.977247 17.107
3.21076 0.98643 17.2531
3.17256 0.994026 17.3593
3.14272 1.00431 17.5124
2.99169 1.04913 18.169
2.95474 1.05922 18.3081
2.91574 1.0682 18.4403
2.881 1.07968 18.6064
2.80427 1.10018 18.9067
2.71162 1.13079 19.349
2.62903 1.15257 19.6684
2.58947 1.16641 19.8585
2.39462 1.22256 20.6702
2.34902 1.23533 20.8554
2.30138 1.24803 21.0356
2.25383 1.26089 21.2268
2.08651 1.31411 21.9774
2.03512 1.3293 22.1906
1.98164 1.34332 22.3918
1.92719 1.35738 22.596
1.6202 1.45015 23.9182
1.55791 1.46654 24.1444
4.02109 0.837563 13.8528
3.94362 0.860563 14.187
3.61973 0.956559 15.5232
3.58947 0.963017 15.6204
3.56441 0.971871 15.7445
3.53314 0.979329 15.8416
3.49773 0.994463 16.0517
3.46861 1.0032 16.1678
3.43641 1.01079 16.2739
3.41149 1.02091 16.416
3.3731 1.02714 16.4972
3.3441 1.0361 16.6283
3.30275 1.05236 16.8464
3.26965 1.06114 16.9655
3.23973 1.07127 17.1076
3.20251 1.07883 17.2118
3.17058 1.08894 17.3529
3.09349 1.11768 17.7371
3.02156 1.13778 18.0104
2.98669 1.14901 18.1595
2.89765 1.17786 18.5508
2.82092 1.19936 18.8511
2.78317 1.21183 19.0163
2.74233 1.22311 19.1684
2.70361 1.23563 19.3375
2.60608 1.2695 19.7968
2.5634 1.28311 19.971
2.38263 1.33445 20.6617
2.27056 1.3732 21.18
2.22202 1.38809 21.3732
2.17139 1.40181 21.5544
2.12194 1.41688 21.7596
1.94506 1.47795 22.5671
1.88962 1.49304 22.7733
1.83431 1.51038 22.9965
1.7759 1.52553 23.2068
1.63488 1.57536 23.8642
1.57258 1.59272 24.0884
1.51041 1.61135 24.3307
4.02178 0.935826 13.8023
3.99945 0.942144 13.8904
3.62525 1.06346 15.4486
3.59807 1.07208 15.5567
3.57092 1.08076 15.6688
3.47708 1.11401 16.0871
3.44695 1.12272 16.2012
3.41783 1.13246 16.3173
3.28107 1.17683 16.8767
3.25108 1.18684 17.0108
3.07702 1.24957 17.7953
3.0379 1.2593 17.9105
3.003 1.27047 18.0556
2.96603 1.28153 18.1927
2.84228 1.3269 18.7531
2.80549 1.3393 18.9132
2.76459 1.35148 19.0583
2.72477 1.36381 19.2145
2.64427 1.39074 19.5437
2.4564 1.45685 20.3533
2.4117 1.47042 20.5244
2.3037 1.51331 21.0527
2.25507 1.52802 21.2339
2.20439 1.54262 21.407
2.15487 1.55854 21.6022
2.1054 1.57458 21.8054
1.92958 1.64176 22.6198
1.87196 1.65649 22.8021
3.554 1.17279 15.8046
3.49571 1.19116 16.0298
3.46659 1.2009 16.1459
3.36595 1.23853 16.5891
3.33383 1.24827 16.7052
3.29965 1.25689 16.8134
3.2676 1.26778 16.9395
3.16042 1.3103 17.4427
3.12539 1.32122 17.5709
3.09143 1.33228 17.708
2.97247 1.37825 18.2413
2.89766 1.40258 18.5305
2.85878 1.41479 18.6776
2.68752 1.48012 19.4351
2.64466 1.49337 19.5852
2.60297 1.50796 19.7583
2.41129 1.57944 20.5928
2.36253 1.59389 20.756
2.317 1.61079 20.9501
2.24844 1.63859 21.2713
3.5906 1.26388 15.6089
3.55933 1.27232 15.7051
3.53425 1.28315 15.8271
3.47491 1.30243 16.0463
3.43852 1.32158 16.2573
3.4063 1.33114 16.3614
3.37624 1.34199 16.4845
3.23961 1.39361 17.0609
3.20972 1.40679 17.2069
3.17462 1.41758 17.326
3.14163 1.42957 17.4591
2.99062 1.49042 18.1174
2.95368 1.5025 18.2566
2.91673 1.51559 18.3957
2.78902 1.56706 18.9619
2.7513 1.58257 19.13
3.59455 1.35566 15.5935
3.56327 1.36509 15.6886
3.53512 1.37577 15.8007
3.50803 1.38656 15.9208
3.47787 1.39721 16.0309
3.40929 1.42798 16.35
3.38026 1.4399 16.478
3.2086 1.50743 17.1814
3.17454 1.51929 17.3055
3.55284 1.46908 15.7542
3.52574 1.48084 15.8722
3.49243 1.49021 15.9634
3.27922 0.0647648 -0.273168
3.27331 0.0639321 -0.262109
3.2755 0.0643155 -0.236128
3.27865 0.0656093 -0.216168
3.27677 0.0648477 -0.20014
3.28717 0.0676099 -0.148252
3.28024 0.0667631 -0.138186
3.28736 0.0679947 -0.122256
3.29051 0.0682886 -0.102281
3.28367 0.0686046 -0.0812315
3.28275 0.0687533 -0.0712254
3.28983 0.068911 -0.0602795
3.28894 0.0691338 -0.0452741
3.2841 0.0694483 -0.0242394
3.27918 0.0696 -0.0142031
3.29638 0.071987 0.0126356
3.29054 0.0713024 0.0336927
3.29177 0.0727604 0.0646661
3.29189 0.0729972 0.0806639
3.28813 0.073459 0.11169
3.29428 0.0747654 0.132627
3.28331 0.0738327 0.136724
3.29141 0.0750044 0.148647
3.28648 0.0741562 0.158698
3.28756 0.0743035 0.168689
3.29565 0.0764751 0.180598
3.29881 0.0767986 0.202572
3.29489 0.0769495 0.212601
3.28692 0.0760147 0.216675
3.291 0.0771745 0.227629
3.28823 0.0776355 0.258647
3.29945 0.0800566 0.287531
3.2956 0.0803555 0.307558
3.28776 0.0796575 0.327631
3.30186 0.0818543 0.341494
3.3009 0.0819291 0.3465
3.29906 0.0822414 0.367513
3.30214 0.0834019 0.378474
3.30022 0.0835662 0.389487
3.29229 0.0827053 0.398561
3.3094 0.0849 0.412402
3.30343 0.0839637 0.416461
3.30852 0.0851376 0.428407
3.30259 0.0852899 0.438451
3.30685 0.0867902 0.472401
3.29711 0.0873156 0.507472
3.29728 0.0886411 0.529454
3.30058 0.0902309 0.569411
3.30476 0.0915684 0.592363
3.31085 0.0927563 0.605301
3.30492 0.091894 0.61436
3.31102 0.0940819 0.627283
3.31407 0.0941685 0.63326
3.29612 0.0922854 0.640424
3.30222 0.0934734 0.653362
3.29728 0.0936103 0.662398
3.30639 0.0948108 0.676314
3.30347 0.094961 0.686335
3.31558 0.0971741 0.701213
3.29859 0.0952015 0.702371
3.3107 0.0974146 0.717249
3.31178 0.0975767 0.72824
3.31187 0.0987542 0.740223
3.31597 0.0999436 0.753176
3.30202 0.0980577 0.76031
3.30612 0.0992323 0.772264
3.31618 0.100358 0.781172
3.30625 0.100499 0.790247
3.30743 0.101838 0.813221
3.31371 0.104381 0.850141
3.3049 0.104773 0.876205
3.31301 0.105974 0.890128
3.30525 0.106454 0.922184
3.31833 0.108607 0.933055
3.31241 0.108759 0.943099
3.30848 0.10891 0.953128
3.3166 0.110126 0.968051
3.30474 0.110416 0.987138
3.32202 0.113951 1.02396
3.31509 0.11309 1.03303
3.31618 0.114266 1.045
3.31025 0.114419 1.05505
3.31737 0.115636 1.06998
3.31044 0.115789 1.08003
3.31751 0.116917 1.08896
3.31759 0.117079 1.09996
3.31468 0.117259 1.11198
3.31277 0.118423 1.12298
3.31687 0.119628 1.13693
3.327 0.120872 1.15384
3.31506 0.119984 1.16094
3.31912 0.1211 1.1689
3.32322 0.122304 1.18285
3.31127 0.121416 1.18995
3.32642 0.124686 1.20879
3.32752 0.124878 1.22179
3.27734 0.0859712 -0.259465
3.2815 0.087279 -0.238513
3.27561 0.0865055 -0.223455
3.28077 0.0878126 -0.202511
3.27485 0.0869651 -0.192452
3.28993 0.0891168 -0.181596
3.276 0.0872604 -0.172462
3.2892 0.0896504 -0.145594
3.27828 0.0888066 -0.135497
3.27835 0.0889546 -0.125499
3.29452 0.0912684 -0.103652
3.28963 0.0904942 -0.0886014
3.27971 0.0896496 -0.0785128
3.28078 0.0897969 -0.0685217
3.29195 0.0921143 -0.0466371
3.27902 0.0902572 -0.0375109
3.29407 0.0923497 -0.0306543
3.28014 0.0904933 -0.0215206
3.28321 0.091639 -0.0115594
3.28938 0.0929602 0.0103776
3.29354 0.0932682 0.0313446
3.2826 0.0924095 0.040441
3.28765 0.0934946 0.0463877
3.28272 0.0936462 0.056424
3.28981 0.093804 0.0673697
3.28404 0.0942672 0.0984106
3.29109 0.0953508 0.104342
3.28616 0.0955025 0.114379
3.28725 0.0956646 0.12537
3.28532 0.0958141 0.135383
3.29841 0.0969821 0.147269
3.29449 0.0971331 0.157298
3.28956 0.0972847 0.167334
3.29261 0.0973714 0.17331
3.29569 0.0985319 0.184272
3.28776 0.097671 0.193345
3.30094 0.100017 0.217215
3.29709 0.100316 0.237242
3.30414 0.101414 0.244174
3.29521 0.100554 0.253255
3.3033 0.101726 0.265178
3.28936 0.100854 0.273297
3.29554 0.10219 0.296234
3.30563 0.103361 0.308142
3.30371 0.103525 0.319156
3.29473 0.102576 0.322238
3.29481 0.102739 0.333236
3.28897 0.103039 0.353279
3.30708 0.105248 0.368112
3.29915 0.105387 0.377171
3.3072 0.106485 0.384095
3.30128 0.105637 0.394153
3.29943 0.106949 0.415151
3.29258 0.106251 0.435215
3.29087 0.107814 0.47321
3.29997 0.109 0.486126
3.30306 0.110175 0.498087
3.30114 0.110325 0.508101
3.30022 0.110489 0.519107
3.30827 0.111586 0.526031
3.29433 0.110715 0.53415
3.30143 0.111902 0.54708
3.2955 0.11204 0.556124
3.30869 0.114415 0.581993
3.30677 0.114564 0.592007
3.29579 0.113617 0.595104
3.30791 0.11483 0.609997
3.30699 0.115994 0.620988
3.31008 0.116169 0.632964
3.29914 0.115296 0.641061
3.30846 0.11891 0.682943
3.31255 0.120085 0.694896
3.30261 0.119211 0.702985
3.3027 0.119388 0.714983
3.30788 0.12074 0.738928
3.30091 0.120804 0.74298
3.31102 0.122004 0.756888
3.3122 0.123358 0.780862
3.31438 0.124712 0.804829
3.30949 0.124938 0.819864
3.30056 0.125078 0.828931
3.30566 0.126266 0.841877
3.30073 0.126418 0.851913
3.30282 0.126594 0.863896
3.31404 0.129 0.89178
3.31217 0.130253 0.908778
3.30523 0.129392 0.917844
3.31635 0.13162 0.933729
3.30865 0.133203 0.972769
3.30819 0.137255 1.04372
3.31234 0.138563 1.06468
3.3087 0.141261 1.11167
3.30774 0.141351 1.11768
3.3204 0.147614 1.2035
3.28006 0.108344 -0.166804
3.27913 0.108493 -0.156798
3.27829 0.108804 -0.135794
3.27948 0.109174 -0.110805
3.28264 0.110482 -0.0898448
3.28172 0.110646 -0.0788388
3.27879 0.110796 -0.0688176
3.27995 0.111091 -0.0488279
3.28815 0.112485 -0.0219066
3.28122 0.111638 -0.0118405
3.28738 0.112945 0.00909664
3.28046 0.112098 0.0191628
3.29259 0.114341 0.0360405
3.28566 0.113494 0.0461066
3.29582 0.115797 0.0669988
3.2949 0.115961 0.0780049
3.28898 0.115113 0.0880634
3.28902 0.115187 0.0930628
3.28809 0.115336 0.103069
3.29618 0.116508 0.114992
3.29526 0.116656 0.124998
3.29133 0.116807 0.135027
3.29642 0.117966 0.145973
3.2975 0.118129 0.156964
3.29454 0.118205 0.161986
3.28861 0.117357 0.172045
3.2977 0.119513 0.182946
3.29177 0.118666 0.193004
3.29485 0.119826 0.203965
3.29694 0.119988 0.214949
3.29702 0.120151 0.225947
3.2941 0.120301 0.235968
3.29113 0.120362 0.239991
3.29121 0.120525 0.250989
3.3013 0.121695 0.262897
3.29537 0.121848 0.272941
3.29758 0.123246 0.299907
3.30699 0.126053 0.354803
3.30536 0.12778 0.403796
3.30999 0.136959 0.618655
3.30723 0.138435 0.650658
3.31329 0.139549 0.658597
3.30225 0.144437 0.785626
3.31751 0.14793 0.819464
3.30155 0.14603 0.825613
3.30866 0.148232 0.839529
3.31192 0.149748 0.874486
3.31908 0.152053 0.895401
3.31023 0.152356 0.915466
3.31232 0.152532 0.92745
3.3135 0.154887 0.951409
3.31355 0.154975 0.957408
3.31163 0.15514 0.968422
3.32184 0.157547 0.996313
3.31993 0.158711 1.00731
3.31601 0.158877 1.01834
3.31003 0.157925 1.0214
3.31213 0.159116 1.03437
3.31824 0.160334 1.04931
3.31432 0.160485 1.05933
3.31542 0.161676 1.07231
3.31149 0.161827 1.08234
3.32362 0.16407 1.09922
3.31765 0.164134 1.10326
3.32076 0.164339 1.11724
3.32185 0.165515 1.12921
3.31793 0.165681 1.14024
3.31502 0.165846 1.15126
3.32424 0.169269 1.18015
3.32237 0.169536 1.19816
3.31945 0.170701 1.20917
3.31654 0.170866 1.22019
3.31764 0.172058 1.23316
3.28313 0.125489 -0.292099
3.29256 0.127341 -0.234189
3.29214 0.129481 -0.157207
3.30604 0.15108 0.491458
3.2984 0.151796 0.539512
3.30814 0.158225 0.636357
3.31204 0.163999 0.756258
3.29123 0.167641 -0.281782
3.28338 0.166943 -0.26171
3.28554 0.167252 -0.240728
3.27666 0.166481 -0.225647
3.27881 0.166791 -0.204665
3.28589 0.167933 -0.194734
3.28805 0.168243 -0.173752
3.29109 0.169329 -0.16779
3.29317 0.169476 -0.157807
3.28824 0.169628 -0.147771
3.28832 0.169776 -0.137772
3.2894 0.169938 -0.126781
3.28948 0.170086 -0.116782
3.28455 0.169237 -0.106731
3.2886 0.170323 -0.100777
3.28767 0.170472 -0.0907709
3.29176 0.170632 -0.0798025
3.29283 0.171779 -0.0698262
3.28991 0.170929 -0.0597902
3.29407 0.172252 -0.0378381
3.28214 0.171394 -0.0287343
3.29719 0.173487 -0.0218777
3.29026 0.172625 -0.0128115
3.29643 0.173946 0.00912555
3.2975 0.174094 0.0191166
3.28858 0.173248 0.0291978
3.29766 0.175404 0.0400989
3.2917 0.174483 0.0451582
3.29077 0.174632 0.0551643
3.29086 0.174794 0.0661628
3.28993 0.174943 0.076169
3.28701 0.175093 0.0861902
3.2981 0.176263 0.0980909
3.30114 0.177349 0.104053
3.29622 0.176501 0.114104
3.28529 0.175642 0.1232
3.29938 0.17781 0.135063
3.28845 0.176951 0.14416
3.29962 0.179283 0.167044
3.29866 0.179358 0.172051
3.29582 0.179671 0.193071
3.29998 0.180994 0.215023
3.30314 0.182302 0.235983
3.30026 0.182541 0.252003
3.29934 0.18269 0.262009
3.30142 0.182851 0.272992
3.30159 0.184177 0.294975
3.30567 0.184337 0.305943
3.30079 0.184577 0.321978
3.30086 0.184725 0.331977
3.29694 0.184876 0.342006
3.30704 0.187061 0.354899
3.2951 0.185189 0.363018
3.3022 0.187376 0.375934
3.30124 0.18745 0.380941
3.30533 0.188625 0.392894
3.30649 0.18895 0.414884
3.30056 0.189088 0.423928
3.30064 0.18925 0.434926
3.30678 0.190512 0.452864
3.30085 0.19065 0.461907
3.3051 0.19315 0.495843
3.29625 0.192453 0.515923
3.30949 0.195902 0.546776
3.30766 0.196229 0.568788
3.30674 0.196393 0.579794
3.31287 0.198654 0.597717
3.30795 0.198806 0.607753
3.30812 0.199132 0.62975
3.30921 0.200309 0.641726
3.3113 0.201485 0.653695
3.31469 0.204252 0.705635
3.31577 0.205414 0.716612
3.30806 0.205982 0.754667
3.31525 0.208347 0.779581
3.30832 0.207485 0.788647
3.30841 0.208663 0.800631
3.31255 0.209941 0.819583
3.30762 0.210078 0.828619
3.31883 0.213484 0.856488
3.31198 0.213785 0.876538
3.3041 0.213013 0.891611
3.31029 0.215394 0.917533
3.32141 0.217622 0.933418
3.31348 0.217761 0.942477
3.30956 0.217912 0.952506
3.30764 0.218076 0.963519
3.32072 0.22023 0.974391
3.30778 0.219343 0.981502
3.31398 0.221738 1.00842
3.31508 0.222929 1.0214
3.31316 0.223094 1.03241
3.30928 0.223333 1.04844
3.31238 0.225523 1.06139
3.31659 0.22692 1.08834
3.30665 0.227046 1.09641
3.31878 0.229289 1.11329
3.30683 0.228401 1.12039
3.31892 0.23057 1.13227
3.30898 0.229695 1.14036
3.30807 0.230874 1.15235
3.28825 0.189641 -0.282085
3.28841 0.189952 -0.261088
3.28848 0.1901 -0.25109
3.27852 0.188181 -0.245985
3.2886 0.190337 -0.235092
3.28168 0.18949 -0.225026
3.28975 0.190632 -0.215102
3.28691 0.190945 -0.194082
3.28211 0.190334 -0.168034
3.29018 0.191476 -0.15811
3.29534 0.192783 -0.137165
3.29357 0.193243 -0.106155
3.29162 0.193333 -0.10014
3.28469 0.192487 -0.0900742
3.29185 0.193792 -0.0691446
3.29309 0.19525 -0.0381712
3.29512 0.195323 -0.0331869
3.29221 0.195488 -0.0221659
3.29328 0.195635 -0.0121748
3.29637 0.196796 -0.00121367
3.29965 0.197341 0.0357587
3.29672 0.197491 0.0457799
3.29695 0.19895 0.0767608
3.29639 0.200809 0.134745
3.30248 0.201968 0.145684
3.30156 0.202131 0.15669
3.30207 0.204138 0.224666
3.31272 0.235234 0.83921
3.319 0.238777 0.876115
3.31561 0.242979 0.95709
3.28243 0.203984 -0.259251
3.27451 0.203138 -0.249177
3.27858 0.203283 -0.239209
3.28866 0.205439 -0.228315
3.28174 0.204592 -0.218249
3.28786 0.205824 -0.202311
3.27593 0.203981 -0.192192
3.28902 0.206134 -0.181321
3.28509 0.205285 -0.171278
3.29017 0.20643 -0.161332
3.28825 0.206594 -0.150318
3.28629 0.206669 -0.145304
3.28652 0.207128 -0.114308
3.27967 0.206429 -0.0942433
3.28876 0.208586 -0.0833422
3.28679 0.207661 -0.078313
3.28387 0.207811 -0.0682918
3.28295 0.207975 -0.0572858
3.28303 0.208123 -0.0472872
3.28026 0.208584 -0.0162689
3.29135 0.210739 -0.00538278
3.28838 0.210815 -0.000360904
3.29747 0.211986 0.0115549
3.29455 0.212136 0.0215761
3.2887 0.211436 0.0416333
3.28289 0.211811 0.066675
3.28697 0.211971 0.0776434
3.29606 0.214142 0.0895444
3.28921 0.213443 0.109609
3.2983 0.215614 0.12151
3.28933 0.21468 0.125592
3.29442 0.214839 0.136553
3.29149 0.214989 0.146574
3.29358 0.21615 0.157543
3.30074 0.217471 0.179472
3.29282 0.216625 0.189546
3.30311 0.220194 0.228421
3.28616 0.217311 0.235592
3.30235 0.220654 0.259424
3.29253 0.220031 0.284511
3.29069 0.221344 0.305508
3.2959 0.222754 0.333452
3.29599 0.222917 0.34445
3.29915 0.224241 0.36641
3.30441 0.22674 0.400338
3.30345 0.226815 0.405345
3.30553 0.227976 0.416313
3.2956 0.227117 0.425402
3.29768 0.227278 0.436386
3.30077 0.228453 0.448347
3.30186 0.229615 0.459323
3.29993 0.229765 0.469336
3.29747 0.232818 0.54032
3.2976 0.233069 0.557317
3.30177 0.235407 0.580254
3.29701 0.235884 0.612288
3.31109 0.239022 0.622136
3.29714 0.237136 0.62927
3.30725 0.239335 0.643164
3.30741 0.240661 0.665146
3.30362 0.241078 0.693172
3.30571 0.242254 0.70514
3.30881 0.24343 0.717101
3.30396 0.243744 0.738136
3.30806 0.245933 0.751075
3.30915 0.24611 0.763066
3.30719 0.246186 0.76808
3.30026 0.246324 0.777131
3.30445 0.247691 0.802083
3.30762 0.250029 0.825028
3.30371 0.250195 0.836056
3.30994 0.252649 0.866977
3.30802 0.252814 0.877991
3.31413 0.255016 0.891914
3.3062 0.254155 0.900988
3.3123 0.256358 0.914911
3.30642 0.256584 0.929954
3.3045 0.256749 0.940968
3.30359 0.256927 0.952973
3.30569 0.258118 0.965942
3.30687 0.260472 0.989901
3.30291 0.260549 0.994931
3.31202 0.262764 1.00983
3.31631 0.265324 1.04777
3.32443 0.267555 1.06367
3.32247 0.26763 1.06869
3.31353 0.266755 1.07677
3.31563 0.267961 1.09074
3.3077 0.2681 1.0998
3.31404 0.271761 1.1447
3.30812 0.271914 1.15475
3.32026 0.275171 1.17261
3.29117 0.228427 -0.296683
3.28452 0.228128 -0.249622
3.2846 0.228276 -0.239624
3.28872 0.22951 -0.223671
3.29195 0.229967 -0.192698
3.29318 0.231425 -0.161724
3.29477 0.233578 -0.0837575
3.28988 0.232804 -0.0687072
3.29524 0.234496 -0.0217661
3.306 0.248907 0.34399
3.31456 0.267904 0.681691
3.32382 0.297277 1.11225
3.2842 0.317378 -0.300948
3.27427 0.316534 -0.29086
3.29036 0.318684 -0.280011
3.28243 0.317838 -0.269937
3.27847 0.316915 -0.264893
3.28355 0.318075 -0.253947
3.28163 0.318224 -0.243934
3.2777 0.317375 -0.23389
3.28186 0.318683 -0.212938
3.29094 0.320824 -0.203037
3.27901 0.318981 -0.192918
3.28306 0.319067 -0.186949
3.28013 0.319217 -0.176928
3.28021 0.319365 -0.166929
3.28129 0.319527 -0.155938
3.27937 0.319677 -0.145925
3.28845 0.321833 -0.135023
3.28853 0.321981 -0.125025
3.28256 0.321059 -0.119965
3.28364 0.321207 -0.109974
3.28272 0.32137 -0.0989684
3.2908 0.322527 -0.0880449
3.28387 0.321666 -0.0789786
3.28096 0.321831 -0.0679576
3.28699 0.3229 -0.0630182
3.28715 0.323211 -0.0420211
3.28623 0.32336 -0.032015
3.29532 0.325531 -0.020114
3.29039 0.324682 -0.0100629
3.29147 0.32583 -8.66159e-05
3.29751 0.326914 0.00585259
3.28658 0.325055 0.0149637
3.29366 0.326213 0.0258947
3.29475 0.327375 0.0368709
3.28582 0.325515 0.045967
3.2889 0.326676 0.0569281
3.29499 0.327849 0.0688665
3.28806 0.326987 0.0779327
3.2921 0.328073 0.083887
3.29819 0.329231 0.0948255
3.29727 0.329395 0.105832
3.29234 0.328532 0.114883
3.29042 0.328696 0.125896
3.28949 0.328845 0.135902
3.30055 0.33094 0.142789
3.29762 0.33109 0.15281
3.2937 0.331241 0.162839
3.29478 0.331403 0.17383
3.30287 0.333575 0.185738
3.29694 0.332713 0.194797
3.29202 0.331864 0.204848
3.30307 0.33396 0.211735
3.29714 0.334112 0.221779
3.29823 0.334274 0.23277
3.29438 0.334573 0.252797
3.30455 0.336906 0.275689
3.3036 0.336996 0.281696
3.30367 0.337144 0.291694
3.29875 0.337296 0.30173
3.29883 0.337458 0.312729
3.30392 0.338632 0.324675
3.3 0.338783 0.334704
3.30408 0.339943 0.345657
3.29615 0.339082 0.354731
3.3012 0.340182 0.361678
3.29936 0.340494 0.38269
3.29944 0.341657 0.393673
3.30462 0.342994 0.416618
3.30565 0.343067 0.42161
3.30081 0.343382 0.442644
3.3059 0.345555 0.454575
3.30106 0.34587 0.47561
3.30715 0.347043 0.487548
3.3092 0.34813 0.493518
3.30728 0.348294 0.504531
3.30837 0.348457 0.515522
3.30152 0.348758 0.535572
3.30661 0.349946 0.548518
3.29872 0.350159 0.562576
3.30783 0.35136 0.576492
3.30399 0.352674 0.597504
3.30708 0.353849 0.609465
3.31017 0.355024 0.621426
3.30524 0.354176 0.631477
3.30529 0.355265 0.637462
3.30946 0.356602 0.660414
3.30754 0.357766 0.671412
3.31064 0.357942 0.683388
3.30571 0.358094 0.693424
3.30679 0.359256 0.7044
3.31085 0.360356 0.711354
3.30592 0.359508 0.721405
3.30801 0.360684 0.733374
3.3081 0.361861 0.745358
3.30518 0.362012 0.755379
3.30728 0.363203 0.768347
3.30836 0.364365 0.779323
3.3064 0.36444 0.784338
3.3085 0.364631 0.797321
3.30758 0.365794 0.808312
3.30566 0.365959 0.819326
3.30375 0.366123 0.830339
3.31386 0.369337 0.845217
3.30593 0.368477 0.854291
3.31199 0.369591 0.86223
3.31207 0.370753 0.873214
3.31618 0.371957 0.887167
3.31426 0.372122 0.89818
3.31736 0.374312 0.911126
3.30842 0.373437 0.919208
3.31553 0.375654 0.934123
3.31056 0.374717 0.938175
3.30965 0.37588 0.949167
3.30573 0.376046 0.960195
3.30782 0.377222 0.972164
3.30892 0.378413 0.985139
3.32205 0.380655 1.00201
3.3081 0.379769 1.00913
3.31416 0.380883 1.01707
3.31726 0.382073 1.03003
3.31134 0.382226 1.04007
3.30842 0.382391 1.05109
3.30449 0.382542 1.06112
3.30559 0.383733 1.0741
3.30669 0.384925 1.08707
3.31175 0.38604 1.09502
3.31184 0.387217 1.107
3.31294 0.388409 1.11998
3.31705 0.390613 1.13392
3.31112 0.389765 1.14398
3.31724 0.391983 1.1589
3.31126 0.392031 1.16194
3.31437 0.393236 1.17591
3.31346 0.393415 1.18791
3.30863 0.394759 1.21093
3.28123 0.350391 -0.300414
3.2793 0.349541 -0.290386
3.28138 0.350688 -0.280417
3.27554 0.350003 -0.25936
3.27357 0.349078 -0.254331
3.27865 0.350223 -0.244385
3.27596 0.350847 -0.202368
3.28008 0.352066 -0.187415
3.28115 0.352213 -0.177424
3.28324 0.352374 -0.16644
3.28239 0.352686 -0.145436
3.27647 0.351838 -0.135377
3.27751 0.352912 -0.1304
3.28158 0.353057 -0.120432
3.28174 0.354367 -0.0994495
3.28182 0.354515 -0.0894509
3.27998 0.354828 -0.0684387
3.27805 0.353977 -0.0584102
3.2831 0.355062 -0.0524635
3.28217 0.355211 -0.0424573
3.28725 0.35637 -0.0315113
3.28841 0.35768 -0.0105365
3.28148 0.356819 -0.00147029
3.28453 0.356905 0.00450632
3.2856 0.358052 0.0144826
3.28668 0.358215 0.0254736
3.28977 0.359375 0.0364347
3.29284 0.359521 0.0464107
3.28993 0.359686 0.0574318
3.287 0.359836 0.067453
3.28804 0.359909 0.0724447
3.28912 0.360072 0.0834357
3.2912 0.361218 0.0934045
3.29228 0.36138 0.104395
3.29136 0.361529 0.114402
3.29144 0.362692 0.125385
3.29452 0.362852 0.136361
3.29756 0.363924 0.141323
3.29064 0.363077 0.151389
3.29272 0.364238 0.162358
3.28379 0.362378 0.171454
3.29588 0.365547 0.183318
3.29095 0.364699 0.193369
3.29704 0.365872 0.205307
3.29512 0.366021 0.215321
3.29316 0.366097 0.220335
3.29732 0.367419 0.242287
3.29139 0.367557 0.251331
3.29656 0.368879 0.273276
3.28959 0.367958 0.278342
3.29977 0.370291 0.301234
3.29184 0.36943 0.310308
3.294 0.370754 0.332275
3.30109 0.372927 0.344191
3.29512 0.37199 0.348251
3.2932 0.37214 0.358264
3.29028 0.372305 0.369285
3.29245 0.373629 0.391252
3.29954 0.375801 0.403168
3.30074 0.3772 0.430142
3.29381 0.376339 0.439209
3.2979 0.377513 0.451162
3.29298 0.377665 0.461198
3.29414 0.37899 0.483173
3.3072 0.381098 0.491044
3.30629 0.381262 0.502051
3.30136 0.381414 0.512087
3.29544 0.380566 0.522145
3.30362 0.383915 0.546037
3.3027 0.384064 0.556044
3.31176 0.386176 0.563945
3.30282 0.385316 0.573026
3.30391 0.385478 0.584017
3.30207 0.386805 0.606015
3.30316 0.387967 0.616991
3.30826 0.389155 0.629936
3.30529 0.389231 0.634958
3.29836 0.38837 0.644025
3.30847 0.39057 0.657918
3.30154 0.390708 0.666969
3.30062 0.390872 0.677975
3.31072 0.393071 0.691868
3.30781 0.393236 0.702889
3.30484 0.393298 0.706912
3.31294 0.395499 0.72082
3.3 0.393627 0.728946
3.3061 0.395815 0.74187
3.31421 0.398016 0.755778
3.30728 0.397154 0.764844
3.30435 0.397305 0.774865
3.31342 0.399431 0.783767
3.30649 0.399569 0.792818
3.30457 0.399734 0.803832
3.30867 0.400923 0.816785
3.30174 0.401061 0.825836
3.31185 0.403276 0.840729
3.30392 0.402415 0.849803
3.31199 0.404542 0.858712
3.31207 0.405705 0.869696
3.31015 0.405869 0.880709
3.30322 0.405008 0.889776
3.30632 0.407198 0.902722
3.3004 0.40635 0.91278
3.30851 0.408566 0.927688
3.31156 0.409668 0.93465
3.31566 0.411857 0.947588
3.31174 0.412008 0.957617
3.30982 0.412172 0.968631
3.31493 0.414375 0.982562
3.31301 0.41454 0.993575
3.30905 0.414617 0.998604
3.31215 0.415807 1.01157
3.31224 0.416984 1.02355
3.30932 0.417149 1.03457
