-0.0533984 1.72755 5.4513
-0.0713282 1.7307 5.46039
-0.0894746 1.72443 5.44161
-0.0985207 1.72235 5.43571
-0.116319 1.73174 5.46171
-0.134427 1.72655 5.44792
-0.152534 1.72236 5.43412
-0.170371 1.72968 5.45515
-0.188525 1.7234 5.43538
-0.197486 1.72548 5.44041
-0.216354 1.73074 5.45748
-0.233524 1.72343 5.43571
-0.251484 1.72552 5.44082
-0.270391 1.72971 5.4529
-0.28756 1.7234 5.43112
-0.305552 1.72342 5.43226
-0.315397 1.73073 5.45222
-0.33255 1.72444 5.43244
-0.351488 1.72758 5.44054
-0.369479 1.7286 5.44166
-0.387518 1.72654 5.43683
-0.40454 1.72651 5.43396
-0.423462 1.72967 5.44405
-0.440577 1.72546 5.42924
-0.450468 1.73068 5.44324
-0.468506 1.72962 5.43839
-0.485621 1.72541 5.42358
-0.502674 1.72332 5.41674
-0.522527 1.72961 5.4358
-0.540541 1.72959 5.43393
-0.558571 1.72955 5.43007
-0.566648 1.72641 5.42018
-0.585616 1.72848 5.42429
-0.603631 1.72846 5.42243
-0.621607 1.72952 5.42555
-0.638737 1.72528 5.40874
-0.657651 1.72946 5.41982
-0.676596 1.73257 5.42692
-0.684658 1.72946 5.41902
-0.702695 1.7294 5.41416
-0.721648 1.7315 5.42027
-0.737755 1.72831 5.40644
-0.754832 1.72517 5.39661
-0.776645 1.73454 5.42064
-0.784714 1.73142 5.41174
-0.802736 1.73139 5.40888
-0.820743 1.73238 5.408
-0.838718 1.73444 5.41111
-0.854856 1.72919 5.3933
-0.874755 1.73439 5.40638
-0.891854 1.73121 5.39355
-0.900831 1.73226 5.3966
-0.917915 1.72911 5.38578
-0.93689 1.73117 5.38889
-0.955843 1.73427 5.39499
-0.970996 1.72899 5.37518
-0.988049 1.7279 5.36832
-1.02695 1.7341 5.38053
-1.03596 1.7341 5.37959
-1.05302 1.73199 5.37175
-1.08904 1.73397 5.36899
-1.22322 1.73471 5.34599
-5.62839 1.75218 1.74942
-5.62954 1.7499 1.73046
-5.6267 1.74658 1.70949
-5.63184 1.74531 1.69054
-5.63099 1.74301 1.67057
-5.64909 1.74683 1.65765
-5.6342 1.7406 1.64262
-5.63136 1.73728 1.62165
-5.63949 1.73704 1.60471
-5.64364 1.73676 1.58574
-5.64179 1.73346 1.56578
-5.64592 1.7332 1.54781
-5.65904 1.73497 1.53188
-5.68264 1.7338 1.45206
5.20919 1.72591 2.45326
5.22041 1.73332 2.48107
5.19144 1.72641 2.48639
5.18048 1.7235 2.49152
5.18365 1.72882 2.51342
5.18281 1.73213 2.53438
5.17594 1.73239 2.55143
5.18113 1.73875 2.5763
5.15216 1.73085 2.58164
5.14831 1.73313 2.60063
5.14838 1.73528 2.6106
5.13348 1.73348 2.62374
5.13063 1.73578 2.64373
5.12778 1.73807 2.66272
5.10886 1.73524 2.67391
5.08818 1.73688 2.71605
1.62904 1.73033 5.23655
1.42053 1.73343 5.30209
1.4015 1.7314 5.29926
1.36553 1.72949 5.30356
1.34757 1.72958 5.30869
1.31265 1.73075 5.31894
1.26871 1.7299 5.32729
1.24971 1.72891 5.32744
1.21476 1.72904 5.33471
1.19783 1.73119 5.3438
1.17086 1.73027 5.34802
1.15185 1.72925 5.34618
1.11692 1.73042 5.35642
1.10099 1.73257 5.36551
1.07196 1.72953 5.36178
1.05502 1.73065 5.36889
1.01802 1.72869 5.3702
1.00003 1.72772 5.37135
0.963031 1.72674 5.37164
0.956116 1.72991 5.38265
0.938139 1.72997 5.38578
0.922231 1.73316 5.39786
0.902162 1.72904 5.38907
0.886285 1.73329 5.40513
0.866177 1.7281 5.39135
0.84927 1.73129 5.40344
0.841293 1.73134 5.40649
0.821224 1.72822 5.39769
0.804316 1.73141 5.40977
0.786293 1.72938 5.40694
0.768309 1.72942 5.40907
0.749316 1.72845 5.41023
0.711186 1.72222 5.39361
0.705371 1.72958 5.41755
0.687402 1.73066 5.42167
0.668371 1.72861 5.41784
0.650371 1.72762 5.41799
0.632372 1.72764 5.41813
0.614402 1.72771 5.42226
0.596403 1.72772 5.4224
0.58848 1.73088 5.43241
0.569419 1.72777 5.4246
0.551419 1.72678 5.42475
0.533442 1.72784 5.42787
0.515489 1.72894 5.43399
0.497458 1.7269 5.43015
0.489551 1.73108 5.44215
0.470497 1.72799 5.43534
0.451396 1.72281 5.42256
0.435598 1.73121 5.44856
0.416513 1.72806 5.43775
0.397483 1.72602 5.43392
0.381637 1.73232 5.45395
0.370491 1.72605 5.43512
0.353545 1.72817 5.44222
0.335615 1.73031 5.45133
0.316484 1.72507 5.43455
0.29957 1.72825 5.44563
0.281647 1.73141 5.45572
0.262477 1.7231 5.43398
0.253555 1.72625 5.444
0.236648 1.73044 5.45607
0.217517 1.72521 5.43929
0.199525 1.72523 5.44042
0.181673 1.73153 5.45947
0.163534 1.72527 5.4417
0.145549 1.72532 5.44383
0.136658 1.72953 5.45784
0.118543 1.72532 5.44303
0.100528 1.72431 5.44118
0.0826285 1.72851 5.45426
0.0645901 1.72645 5.44942
0.0465291 1.72435 5.44159
0.0278992 1.71616 5.22582
0.0109612 1.71829 5.23392
-0.00705398 1.71728 5.23207
-0.0240221 1.71935 5.23617
-0.0410373 1.71833 5.23431
-0.0590443 1.71833 5.23345
-0.0670441 1.71833 5.23351
-0.0850279 1.71938 5.23563
-0.10209 1.71627 5.2278
-0.12005 1.71836 5.23291
-0.17111 1.71628 5.22532
-0.180094 1.71731 5.22737
-0.198055 1.7194 5.23248
-0.215985 1.72255 5.24157
-0.233069 1.71939 5.23074
-0.249161 1.71523 5.21892
-0.267075 1.7194 5.23
-0.285098 1.71837 5.22715
-0.293159 1.71626 5.21924
-0.311112 1.71836 5.22534
-0.32812 1.71836 5.22447
-0.345173 1.71627 5.21763
-0.36218 1.71627 5.21676
-0.380148 1.71834 5.22086
-0.388164 1.71732 5.21894
-0.406147 1.71936 5.22104
-0.424115 1.72143 5.22515
-0.492259 1.7162 5.20674
-0.518265 1.7172 5.20592
-0.553287 1.71718 5.20318
-0.570278 1.71821 5.2043
-0.587301 1.71718 5.20144
-0.604331 1.71713 5.19757
-0.622345 1.71712 5.1957
-0.665389 1.71706 5.19003
-0.68242 1.71601 5.18617
-0.734455 1.71698 5.18155
-0.760469 1.71696 5.17974
-0.778445 1.71902 5.18285
-0.79546 1.719 5.18098
-0.813435 1.72106 5.18408
-0.828558 1.71684 5.16826
-0.856502 1.72096 5.17541
-0.872579 1.71782 5.16557
-0.88957 1.71885 5.16669
-0.907568 1.72086 5.16679
-0.924614 1.71879 5.16095
-0.943566 1.72289 5.16703
-0.953519 1.72499 5.17308
-0.968634 1.72078 5.15825
-0.987555 1.72594 5.16832
-1.00556 1.72593 5.16746
-1.02065 1.72378 5.1566
-1.03575 1.71959 5.14277
-1.05377 1.72057 5.14089
-1.06275 1.72161 5.14295
-1.07787 1.7174 5.12812
-1.1026 1.73092 5.16211
-1.11482 1.72251 5.13433
-1.13184 1.72248 5.13145
-1.15078 1.7256 5.13855
-1.1659 1.72239 5.12371
-1.17584 1.72551 5.13174
-1.19287 1.72546 5.12787
-1.21086 1.72648 5.12799
-1.22984 1.72854 5.1311
-1.24785 1.72952 5.12922
-1.26197 1.72531 5.11439
-1.27899 1.72627 5.1115
-1.28896 1.72834 5.11555
-1.30212 1.72204 5.09474
-1.32205 1.72719 5.10381
-1.33909 1.72611 5.09796
-1.3561 1.72711 5.09707
-1.37509 1.72914 5.09818
-1.3931 1.73014 5.0973
-1.39723 1.72489 5.08041
-1.41717 1.72901 5.0875
-1.43128 1.72581 5.07365
-1.45125 1.72888 5.07776
-1.46536 1.72467 5.06292
-1.4853 1.7298 5.071
-1.49845 1.72452 5.05117
-1.50841 1.7266 5.05622
-1.52836 1.7307 5.06231
-1.54639 1.73167 5.05943
-1.5556 1.72226 5.03164
-1.5775 1.72947 5.0447
-1.59065 1.72418 5.02487
-1.61255 1.73039 5.03794
-1.61472 1.72307 5.01607
-1.63663 1.72925 5.02714
-1.65075 1.72604 5.01229
-1.66875 1.72705 5.01241
-1.68481 1.72593 5.00355
-1.70574 1.73107 5.01263
-1.72278 1.73101 5.00776
-1.72787 1.72784 4.99585
-1.74783 1.73193 5.00094
-1.7639 1.73081 4.99207
-1.77995 1.72971 4.98521
-1.79697 1.7307 4.98332
-1.81793 1.73477 4.98742
-1.83104 1.73157 4.97356
-1.84397 1.73572 4.9826
-1.87804 1.73659 4.97284
-1.89507 1.73655 4.96897
-1.92425 1.73323 4.94624
-1.93931 1.73212 4.93837
-1.98534 1.73608 4.93365
-2.05561 1.7326 4.89823
-2.10182 1.73023 4.87161
-2.12572 1.73742 4.88369
-2.14276 1.73736 4.87881
-2.15392 1.73206 4.85797
-2.16193 1.73305 4.85702
-2.17897 1.73398 4.85113
-2.19503 1.73287 4.84327
-2.20911 1.73172 4.83239
-2.23107 1.73581 4.8375
-2.24024 1.72949 4.81566
-2.25023 1.73151 4.8167
-2.26925 1.73349 4.81482
-2.28137 1.73027 4.79895
-2.29446 1.7281 4.78708
-2.31641 1.7332 4.79317
-2.32559 1.72787 4.77032
-2.34262 1.72781 4.76545
-2.36359 1.73288 4.76953
-2.36867 1.72974 4.75961
-2.38178 1.72752 4.74474
-2.40176 1.73058 4.74785
-2.40699 1.72214 4.71801
-2.42994 1.72725 4.72411
-2.44993 1.73028 4.72521
-2.46006 1.72702 4.70733
-2.47106 1.72804 4.7084
-2.48711 1.72895 4.70151
-2.50119 1.7278 4.69063
-2.5202 1.7298 4.68974
-2.53724 1.73072 4.68386
-2.55231 1.7306 4.67497
-2.56541 1.72841 4.6621
-2.57737 1.7315 4.66715
-2.58948 1.72928 4.65227
-2.60752 1.73022 4.64739
-2.62555 1.73218 4.6435
-2.63766 1.72896 4.62863
-2.65764 1.73301 4.63072
-2.66567 1.73295 4.62678
-2.68469 1.73594 4.62488
-2.69582 1.73169 4.60803
-2.71187 1.7326 4.60113
-2.7299 1.73354 4.59625
-2.74596 1.73445 4.58936
-2.76004 1.7333 4.57848
-2.76906 1.73426 4.57554
-2.78511 1.73517 4.56864
-2.79327 1.72988 4.54878
-2.81425 1.73391 4.54988
-2.83524 1.73794 4.55098
-2.84638 1.73468 4.53311
-2.86342 1.73562 4.52822
-2.87243 1.73659 4.52627
-2.88355 1.73438 4.51139
-2.9075 1.73947 4.51649
-2.92974 1.73403 4.48574
-2.97582 1.7389 4.47501
-5.40143 1.74895 1.74376
-5.40158 1.74666 1.72379
-5.39368 1.74247 1.71179
-5.39781 1.74121 1.69384
-5.40793 1.74298 1.67789
-5.41206 1.74173 1.66094
-5.40921 1.73843 1.64096
-5.40836 1.73514 1.621
-5.42147 1.73792 1.60606
-5.41058 1.73272 1.59305
-5.42582 1.73325 1.56015
4.72452 1.73777 2.8958
2.69149 1.73466 4.6274
2.65264 1.73498 4.64769
2.6038 1.73433 4.66907
2.5609 1.73157 4.68344
2.548 1.73377 4.6965
2.52697 1.72973 4.69272
2.51306 1.73191 4.70479
2.49814 1.73207 4.71491
2.4832 1.7322 4.72302
2.46929 1.73439 4.73509
2.4603 1.73341 4.73617
2.4403 1.73044 4.73737
2.42639 1.73261 4.74844
2.40943 1.7317 4.75359
2.39449 1.73285 4.76268
2.38058 1.73402 4.77377
2.36464 1.73415 4.78189
2.35361 1.7311 4.77802
2.33767 1.73123 4.78614
2.31765 1.72821 4.78433
2.30476 1.73143 4.79838
2.28881 1.73154 4.8055
2.25997 1.73388 4.82669
2.23504 1.73403 4.83588
2.21606 1.73207 4.83805
2.19909 1.73116 4.84319
2.18721 1.73439 4.85823
2.16721 1.7324 4.85841
2.15023 1.73146 4.86156
2.14124 1.7305 4.86364
2.12327 1.72955 4.86679
2.10834 1.73071 4.87689
2.09341 1.73184 4.88498
2.05151 1.73108 4.89931
2.03659 1.73224 4.90941
2.00163 1.73034 4.9147
1.98162 1.72734 4.9139
1.97078 1.73266 4.9349
1.95175 1.72963 4.93209
1.94686 1.73384 4.94607
1.92886 1.73185 4.94623
1.91191 1.73195 4.95236
1.89391 1.72998 4.95352
1.88104 1.73423 4.96956
1.861 1.73017 4.96477
1.84097 1.72714 4.96196
1.81808 1.72936 4.97611
1.80317 1.73153 4.98719
1.7862 1.73061 4.99133
1.76922 1.72966 4.99447
1.75329 1.73181 5.00356
1.73633 1.73191 5.00969
1.72629 1.72884 5.00481
1.70933 1.72893 5.00994
1.69135 1.72797 5.01209
1.67232 1.72493 5.00827
1.65945 1.7292 5.02631
1.64251 1.73032 5.03342
1.62552 1.72935 5.03456
1.60548 1.7253 5.03078
1.60161 1.73055 5.04773
1.57745 1.72226 5.02703
1.56356 1.72548 5.04109
1.55071 1.73078 5.06111
1.52655 1.72149 5.04043
1.51164 1.72468 5.05249
1.49571 1.72581 5.0606
1.4867 1.7248 5.05968
1.47077 1.72596 5.06979
1.45586 1.72914 5.08085
1.43785 1.72713 5.08002
1.4178 1.72306 5.07423
1.40289 1.72623 5.0853
1.39183 1.72314 5.07842
1.37487 1.72322 5.08355
1.36304 1.72956 5.10555
1.34195 1.7234 5.0938
1.32703 1.72657 5.10486
1.31008 1.72667 5.11099
1.29001 1.72255 5.1022
1.28306 1.72365 5.10824
1.26609 1.72372 5.11237
1.2481 1.72376 5.1145
1.23009 1.72174 5.11267
1.21417 1.72392 5.12376
1.19407 1.71874 5.11098
1.17917 1.72194 5.12405
1.17224 1.72408 5.13307
1.15322 1.72207 5.13124
1.13625 1.72212 5.13437
1.12136 1.72636 5.14942
1.10229 1.72222 5.13963
1.08532 1.72231 5.14475
1.06627 1.71922 5.13794
1.05139 1.72347 5.15399
1.04238 1.72244 5.15208
1.02439 1.72147 5.15323
1.00532 1.71737 5.14543
0.989385 1.7195 5.15352
0.97244 1.72161 5.16062
0.954392 1.71754 5.15481
0.938501 1.72176 5.16887
0.929493 1.72175 5.16794
0.911446 1.71767 5.16213
0.895508 1.7198 5.17022
0.878547 1.72089 5.17534
0.861578 1.72196 5.17945
0.842509 1.71784 5.17065
0.834594 1.72101 5.18167
0.817586 1.72001 5.18081
0.800648 1.72214 5.18891
0.781532 1.71593 5.17414
0.764562 1.716 5.17827
0.747601 1.71709 5.18338
0.729601 1.7161 5.18353
0.721609 1.71612 5.18459
0.705695 1.7203 5.19565
0.687725 1.72037 5.19979
0.670718 1.71937 5.19893
0.65164 1.71523 5.18913
0.635702 1.71736 5.19722
0.617702 1.71638 5.19737
0.60871 1.7164 5.19844
0.592749 1.71848 5.20353
0.55778 1.71857 5.20779
0.539757 1.71654 5.20496
0.506873 1.72078 5.22015
0.497851 1.71974 5.21723
0.462882 1.72083 5.22148
0.444851 1.71878 5.21764
0.42679 1.71568 5.20982
0.409844 1.71679 5.21693
0.392806 1.71573 5.21208
0.383844 1.71681 5.21713
0.366906 1.71894 5.22523
0.34993 1.72 5.22834
0.331869 1.71689 5.22052
0.314884 1.71694 5.22265
0.297939 1.71905 5.22975
0.279916 1.71802 5.2269
0.270885 1.71697 5.22298
0.25394 1.71908 5.23008
0.218917 1.71707 5.22737
0.20191 1.71706 5.2265
0.18491 1.71708 5.22663
0.175918 1.7171 5.22769
0.158988 1.72024 5.23678
0.140966 1.71921 5.23393
0.123942 1.71718 5.23108
0.105897 1.7161 5.22524
0.0889125 1.71615 5.22736
0.0628982 1.71614 5.22556
-1.01087 1.71738 4.9946
-1.10201 1.71716 4.97629
-1.15402 1.72017 4.97463
-1.16911 1.71802 4.96378
-1.19606 1.72211 4.96892
-1.21213 1.71999 4.96007
-1.22816 1.71994 4.95619
-1.26315 1.72298 4.95741
-1.29331 1.71769 4.93671
-1.30327 1.72078 4.94174
-1.33438 1.71859 4.92801
-1.35528 1.72478 4.94008
-1.36647 1.71744 4.91627
-1.38545 1.71948 4.91838
-1.40148 1.71943 4.9145
-1.40853 1.71835 4.90857
-1.44354 1.72134 4.90679
-1.4586 1.71924 4.89893
-1.47465 1.71915 4.89205
-1.49263 1.7212 4.89516
-1.50867 1.72114 4.89028
-1.51571 1.72006 4.88435
-1.53371 1.72207 4.88445
-1.55075 1.72201 4.87958
-1.56579 1.72093 4.87371
-1.58184 1.72084 4.86683
-1.59887 1.72079 4.86296
-1.61685 1.72385 4.86605
-1.62291 1.72173 4.85813
-1.65501 1.72057 4.84538
-1.67105 1.7205 4.8405
-1.68613 1.71835 4.82965
-1.70216 1.7193 4.82575
-1.72016 1.7203 4.82488
-1.72915 1.72234 4.82691
-1.74715 1.72435 4.82702
-1.7632 1.72326 4.82016
-1.79333 1.72103 4.80341
-1.81426 1.72716 4.81148
-1.82444 1.71983 4.78866
-1.83344 1.72084 4.78872
-1.85144 1.72285 4.78882
-1.86943 1.72588 4.78991
-1.88353 1.7227 4.77706
-1.90446 1.72883 4.78513
-1.91658 1.72462 4.77028
-1.9246 1.72458 4.76734
-1.94066 1.72447 4.75947
-1.9557 1.72439 4.75358
-1.97666 1.7285 4.75968
-1.99957 1.73567 4.77075
-2.01071 1.7304 4.7519
-2.02774 1.73137 4.74902
-2.04671 1.73543 4.7521
-2.05476 1.73434 4.74618
-2.06883 1.73321 4.7363
-2.08486 1.73316 4.73242
-2.09994 1.73201 4.72155
-2.11697 1.73298 4.71866
-2.13006 1.73081 4.70679
-2.14219 1.72756 4.68993
-2.15512 1.73171 4.69897
-2.17116 1.73263 4.69307
-2.1872 1.73257 4.68819
-2.19736 1.72726 4.66735
-2.22223 1.73652 4.6834
-2.22748 1.72705 4.65157
-2.24746 1.73009 4.65368
-2.25253 1.72796 4.64475
-2.2666 1.72683 4.63487
-2.28067 1.7257 4.62599
-2.29968 1.7287 4.62509
-2.31868 1.73072 4.6252
-2.33276 1.72956 4.61432
-2.34471 1.73366 4.62035
-2.35387 1.72836 4.5995
-2.3709 1.72931 4.59561
-2.384 1.72713 4.58274
-2.39807 1.726 4.57386
-2.41804 1.73006 4.57695
-2.4282 1.72577 4.55709
-2.43819 1.7278 4.55814
-2.45522 1.72875 4.55425
-2.46043 1.72034 4.52641
-2.48534 1.72853 4.53848
-2.49745 1.72532 4.52362
-2.51349 1.72624 4.51772
-2.52658 1.72509 4.50684
-2.5346 1.72505 4.5039
-2.56473 1.72481 4.48612
-2.57683 1.72262 4.47325
-2.58992 1.72047 4.46238
-2.61385 1.72761 4.47045
-2.62497 1.72439 4.45558
-2.63201 1.72431 4.44963
-2.65792 1.7315 4.46172
-2.6641 1.72615 4.43785
-2.68902 1.73332 4.44793
-2.69817 1.72803 4.42807
-2.71618 1.73101 4.42617
-2.72039 1.72362 4.3993
-2.74124 1.73291 4.41832
-2.75236 1.7297 4.40345
-2.77236 1.7327 4.40256
-2.78939 1.73465 4.39866
-2.80248 1.73348 4.38677
-2.80965 1.72816 4.3649
-2.83162 1.73324 4.36899
-2.84162 1.73525 4.36904
-2.85372 1.73305 4.35516
-2.87273 1.73503 4.35328
-2.88779 1.73592 4.34537
-2.90484 1.73685 4.33949
-2.92187 1.7388 4.33559
-2.93595 1.73865 4.32469
-2.94199 1.73756 4.31876
-2.9741 1.73938 4.30497
-5.26682 1.75208 1.69069
-5.26896 1.75082 1.67272
-5.2721 1.74955 1.65476
-5.26725 1.74525 1.63479
-5.2644 1.74196 1.61481
-5.27351 1.74274 1.59987
-5.27159 1.74059 1.58988
-5.27373 1.73933 1.57192
-5.27287 1.73605 1.55296
-5.27501 1.73478 1.53499
4.60714 1.72116 2.7149
4.60722 1.72331 2.72487
4.59833 1.72353 2.73994
4.58961 1.72807 2.77594
4.56579 1.72646 2.80115
4.5699 1.73066 2.81506
4.55699 1.72985 2.82717
4.54408 1.72804 2.83929
4.52816 1.7262 2.84944
4.52128 1.72744 2.86548
4.52546 1.73379 2.88936
4.51356 1.73299 2.90246
4.50359 1.73106 2.90656
4.49973 1.73434 2.92555
4.48883 1.73354 2.93864
4.47995 1.73477 2.95369
4.46804 1.73397 2.9668
4.45329 1.73746 2.99886
4.45336 1.73961 3.00883
4.43945 1.73879 3.02095
3.05762 1.73478 4.24559
2.95015 1.73589 4.31639
2.91131 1.73522 4.33669
2.89838 1.73538 4.34679
2.88244 1.73551 4.35491
2.85359 1.73581 4.37413
2.84459 1.73483 4.37521
2.82561 1.73189 4.3784
2.81471 1.73409 4.39145
2.78384 1.73435 4.40768
2.75396 1.73462 4.4249
2.74497 1.73264 4.426
2.72902 1.73276 4.43312
2.7151 1.73292 4.44322
2.7032 1.73512 4.45628
2.68421 1.73316 4.45845
2.65029 1.73034 4.46875
2.63927 1.72831 4.46686
2.60838 1.72754 4.48111
2.54978 1.73437 4.53446
2.53384 1.7345 4.54258
2.48874 1.72434 4.53007
2.47582 1.72551 4.54115
2.42405 1.727 4.57152
2.41928 1.73543 4.60044
2.38635 1.7346 4.6107
2.36227 1.72747 4.60098
2.34836 1.72864 4.61207
2.34037 1.72868 4.61413
2.29963 1.73321 4.64838
2.27758 1.72812 4.64162
2.26061 1.72721 4.64676
2.2326 1.7232 4.64503
2.22174 1.72748 4.66305
2.20374 1.7255 4.66421
2.18983 1.72668 4.6753
2.17693 1.72988 4.68836
2.15894 1.72792 4.69052
2.14385 1.72176 4.67872
2.13502 1.72809 4.7007
2.11702 1.72612 4.70186
2.09598 1.72104 4.6961
2.08408 1.72426 4.71014
2.06815 1.72539 4.71825
2.05524 1.72757 4.73031
2.0403 1.7277 4.73842
2.02621 1.72255 4.7276
2.01638 1.72888 4.74959
1.99635 1.72484 4.7458
1.97835 1.72285 4.74596
1.96544 1.72504 4.75803
1.94949 1.72514 4.76415
1.93946 1.7231 4.76125
1.93373 1.73363 4.79615
1.91166 1.72849 4.78639
1.90182 1.73383 4.80839
1.87463 1.72248 4.78376
1.86173 1.72568 4.79681
1.84476 1.72475 4.80095
1.82575 1.72275 4.80012
1.81674 1.72074 4.79922
1.81202 1.73228 4.83509
1.7838 1.71987 4.80648
1.77501 1.72827 4.83343
1.75906 1.72939 4.84053
1.74719 1.73265 4.85757
1.72714 1.72958 4.85177
1.71611 1.72652 4.8479
1.70219 1.72868 4.85797
1.67906 1.72046 4.84227
1.64612 1.71961 4.85053
1.62709 1.71656 4.84672
1.62015 1.71868 4.85474
1.60112 1.71564 4.85093
1.58518 1.71675 4.85803
1.57127 1.71894 4.87011
1.55632 1.72006 4.8772
1.53934 1.7191 4.87934
1.52031 1.71605 4.87553
1.4794 1.71626 4.88784
1.44954 1.71955 4.90602
1.43048 1.71546 4.89922
1.4135 1.71552 4.90235
1.40452 1.71555 4.90442
1.33965 1.71585 4.9219
1.21586 1.71534 4.94985
1.15898 1.71662 4.96626
1.08723 1.72315 4.99871
1.07126 1.72322 5.00283
1.05325 1.72221 5.00198
1.03727 1.72227 5.0051
1.02031 1.72236 5.01022
1.00331 1.72137 5.01037
0.978341 1.72145 5.01455
0.961379 1.72253 5.01967
0.945402 1.72259 5.02279
0.92841 1.72162 5.02393
0.911418 1.72164 5.02506
0.874325 1.71549 5.01343
0.816409 1.7157 5.02486
0.00677263 1.71998 4.94289
-0.00929657 1.71686 4.93405
-0.0262107 1.72104 4.94512
-0.0422724 1.71793 4.93728
-0.0592017 1.72208 4.94635
-0.0841859 1.72212 4.94854
-0.100232 1.72005 4.94269
-0.117154 1.72421 4.95276
-0.149246 1.72005 4.94106
-0.16626 1.72004 4.93919
-0.174252 1.72006 4.94025
-0.240257 1.72109 4.93973
-0.25635 1.71692 4.92791
-0.272326 1.71798 4.93102
-0.280364 1.71691 4.92609
-0.297371 1.71691 4.92522
-0.314293 1.72107 4.93529
-0.3303 1.72107 4.93441
-0.346392 1.7169 4.92259
-0.379398 1.71791 4.92182
-0.387414 1.71689 4.9199
-0.40532 1.72208 4.93196
-0.420435 1.71687 4.91715
-0.437388 1.71997 4.92323
-0.469441 1.71789 4.9165
-0.48644 1.7189 4.91661
-0.511423 1.71995 4.91879
-0.544406 1.722 4.92101
-0.560452 1.72092 4.91514
-0.576505 1.71883 4.90829
-0.593465 1.72192 4.91338
-0.616557 1.71776 4.90161
-0.634517 1.72084 4.9067
-0.649602 1.71769 4.89586
-0.667516 1.72187 4.90693
-0.684491 1.72392 4.91003
-0.700537 1.72285 4.90417
-0.708575 1.72178 4.89924
-0.723636 1.71967 4.89139
-0.741581 1.72279 4.89848
-0.756626 1.72171 4.8926
-0.775548 1.72587 4.90269
-0.79064 1.72271 4.89085
-0.807615 1.72476 4.89394
-0.812739 1.71953 4.87806
-0.830684 1.72265 4.88515
-0.846752 1.72053 4.8763
-0.865658 1.72572 4.88837
-0.87975 1.72255 4.87652
-0.897695 1.72567 4.88361
-0.912779 1.72351 4.87275
-0.921755 1.72456 4.8758
-0.935855 1.72138 4.86296
-0.954761 1.72657 4.87502
-0.969845 1.72342 4.86418
-0.988782 1.72755 4.87226
-1.0019 1.72333 4.85642
-1.02084 1.72646 4.86452
-1.02693 1.7233 4.85361
-1.04584 1.72848 4.86468
-1.058 1.72218 4.84386
-1.07596 1.72526 4.84895
-1.09394 1.7273 4.85106
-1.10901 1.72518 4.8422
-1.126 1.72722 4.8443
-1.13401 1.7272 4.84236
-1.15101 1.72821 4.84247
-1.16512 1.72402 4.82864
-1.18308 1.7281 4.83371
-1.19912 1.72703 4.82785
-1.21902 1.73323 4.84091
-1.23117 1.72796 4.82208
-1.23918 1.72794 4.82014
-1.25909 1.73311 4.83121
-1.27417 1.73098 4.82136
-1.28824 1.72885 4.81249
-1.30914 1.73505 4.82456
-1.31838 1.72561 4.79477
-1.33441 1.72556 4.79089
-1.34726 1.73284 4.80888
-1.3604 1.7276 4.79205
-1.37447 1.72546 4.78219
-1.39441 1.73059 4.79026
-1.41141 1.73159 4.78938
-1.42354 1.72734 4.77253
-1.44251 1.73042 4.77663
-1.44856 1.72933 4.77069
-1.46655 1.73136 4.77179
-1.48259 1.7313 4.76691
-1.49763 1.73022 4.76104
-1.50977 1.72496 4.74321
-1.53167 1.73217 4.75627
-1.53478 1.72695 4.74137
-1.55179 1.72895 4.74047
-1.57076 1.73202 4.74457
-1.58191 1.72673 4.72472
-1.59893 1.7267 4.72185
-1.61984 1.73288 4.73292
-1.63488 1.73282 4.72803
-1.6431 1.72439 4.69922
-1.65407 1.72648 4.70427
-1.66912 1.72638 4.69738
-1.68709 1.72944 4.70047
-1.70704 1.73456 4.70755
-1.71624 1.72618 4.68174
-1.7352 1.73027 4.68682
-1.7571 1.73646 4.6989
-1.75632 1.72705 4.67103
-1.77235 1.728 4.66713
-1.78936 1.72898 4.66525
-1.80834 1.73204 4.66834
-1.8224 1.73092 4.65947
-1.83845 1.73084 4.65359
-1.8584 1.73594 4.65966
-1.86445 1.73386 4.65374
-1.88048 1.73481 4.64984
-1.89652 1.73473 4.64397
-1.90962 1.73155 4.63111
-1.92957 1.73665 4.63719
-1.94462 1.73656 4.6303
-1.95167 1.73548 4.62437
-2.06899 1.73693 4.58222
-2.0811 1.73271 4.56738
-2.10304 1.73885 4.57545
-2.11415 1.73563 4.56058
-2.12823 1.7345 4.5507
-2.14427 1.73443 4.54582
-2.1513 1.73438 4.54188
-2.16537 1.73324 4.532
-2.18238 1.73522 4.5301
-2.19744 1.73412 4.52222
-2.20955 1.73192 4.50835
-2.22756 1.73392 4.50745
-2.24063 1.73278 4.49757
-2.24472 1.7296 4.48564
-2.25781 1.72745 4.47477
-2.27974 1.73358 4.48285
-2.29382 1.73245 4.47297
-2.30394 1.72922 4.45709
-2.32097 1.73017 4.4532
-2.33405 1.72902 4.44232
-2.34208 1.72896 4.43838
-2.35319 1.72576 4.42451
-2.3771 1.73294 4.43558
-2.38724 1.72869 4.41772
-2.39736 1.72546 4.40184
-2.41439 1.72641 4.39796
-2.43141 1.72838 4.39505
-2.43647 1.72626 4.38712
-2.45251 1.7282 4.38221
-2.46461 1.72602 4.36934
-2.47967 1.72591 4.36145
-2.49669 1.72788 4.35855
-2.51173 1.7278 4.35266
-2.52383 1.72562 4.33978
-2.53975 1.73179 4.35081
-2.54888 1.72753 4.33294
-2.56 1.72532 4.31806
-2.58194 1.73143 4.32513
-2.59799 1.73134 4.31826
-2.61107 1.7312 4.30835
-2.63401 1.73732 4.31544
-2.64007 1.73521 4.30751
-2.65315 1.73507 4.29761
-2.66721 1.73496 4.28972
-2.68227 1.73484 4.28083
-2.69831 1.73578 4.27594
-2.71632 1.73876 4.27403
-2.73337 1.73969 4.26814
-2.73941 1.7386 4.26221
-2.79766 1.73915 4.22963
-5.15405 1.75059 1.52684
-5.15619 1.74932 1.50887
-5.15832 1.74807 1.49191
-5.16943 1.74986 1.47696
-5.15753 1.74366 1.46396
-5.15468 1.74037 1.44499
-5.16678 1.74318 1.43103
-5.15794 1.73687 1.41106
-5.16705 1.73864 1.3951
-5.16519 1.73538 1.37713
-5.16632 1.73412 1.36016
4.52453 1.73599 2.63229
4.51664 1.73721 2.64734
4.47658 1.72414 2.64083
4.46267 1.72231 2.65197
4.45176 1.72152 2.66506
4.44094 1.72286 2.68813
4.43305 1.72409 2.70317
4.43622 1.72941 2.72507
4.42029 1.72757 2.73522
4.41542 1.72983 2.75222
4.40552 1.73003 2.7653
4.39864 1.73127 2.78133
4.40174 1.73446 2.79426
4.39687 1.73672 2.81127
4.38999 1.73796 2.82731
4.38111 1.73919 2.84236
4.36131 1.7396 2.8695
2.113 1.73509 4.56474
2.03523 1.7346 4.59634
1.93452 1.73524 4.63509
1.90956 1.73333 4.64031
1.84774 1.73372 4.66377
1.82482 1.7349 4.67493
1.72206 1.73443 4.70672
1.69115 1.73465 4.71995
1.67519 1.73473 4.72507
1.64327 1.7349 4.73531
1.60337 1.73513 4.74861
1.58327 1.72896 4.73685
1.55546 1.73534 4.76097
1.53948 1.73439 4.7641
1.52249 1.73342 4.76524
1.50449 1.73143 4.76541
1.49957 1.7346 4.7764
1.48258 1.73363 4.77754
1.46149 1.72747 4.76579
1.44859 1.73068 4.77984
1.43468 1.73386 4.7909
1.4177 1.73291 4.79404
1.40869 1.73189 4.79213
1.39168 1.72989 4.79129
1.37674 1.73102 4.79938
1.3577 1.72796 4.79457
1.34586 1.73428 4.81557
1.32782 1.73021 4.81076
1.31391 1.73339 4.82182
1.30388 1.73134 4.81793
1.28275 1.72412 4.80219
1.2709 1.7294 4.82121
1.25287 1.72636 4.81739
1.23691 1.72746 4.82349
1.22302 1.73066 4.83655
1.206 1.72864 4.83471
1.19596 1.72658 4.82981
1.18105 1.72875 4.8409
1.16297 1.72462 4.83109
1.14807 1.72782 4.84416
1.13105 1.7258 4.84232
1.11716 1.73002 4.85636
1.09913 1.72697 4.85254
1.09114 1.72701 4.8546
1.07621 1.72915 4.86368
1.06128 1.7313 4.87276
1.04322 1.72719 4.86496
1.02624 1.72725 4.86809
1.01341 1.73458 4.89008
0.99429 1.72736 4.87433
0.985275 1.72634 4.87241
0.969298 1.72639 4.87553
0.954406 1.73061 4.88958
0.936337 1.72649 4.88078
0.921406 1.72864 4.88986
0.905445 1.72972 4.89497
0.887375 1.7256 4.88616
0.880444 1.72774 4.89518
0.861359 1.72359 4.88439
0.847499 1.72887 4.90242
0.82839 1.72268 4.88865
0.813452 1.7248 4.89673
0.798553 1.72901 4.90978
0.788459 1.72384 4.89793
0.770382 1.7197 4.88813
0.755467 1.72288 4.8992
0.739545 1.72604 4.90927
0.723576 1.72611 4.91339
0.706552 1.72407 4.91055
0.689537 1.72306 4.90869
0.683646 1.72827 4.92266
0.664499 1.721 4.90391
0.648576 1.72316 4.914
0.632622 1.72426 4.9201
0.616662 1.72635 4.92519
0.598499 1.71805 4.90445
0.582592 1.72124 4.91653
0.565561 1.71919 4.91268
0.558623 1.72232 4.92069
0.541608 1.7213 4.91883
0.5246 1.7203 4.91798
0.508616 1.72034 4.9201
0.492701 1.72351 4.93117
0.475639 1.72041 4.92335
0.459663 1.72146 4.92645
0.450639 1.71942 4.92355
0.434663 1.72048 4.92665
0.417648 1.71946 4.9248
0.401695 1.72156 4.93089
0.384602 1.7164 4.91909
0.368687 1.71957 4.93016
0.352711 1.72063 4.93327
0.344711 1.72063 4.93333
0.327634 1.7165 4.92352
0.311743 1.72172 4.93756
0.295781 1.7228 4.94267
0.278743 1.72074 4.93783
0.261759 1.72178 4.93994
0.254836 1.72494 4.94994
0.237782 1.72185 4.94312
0.22076 1.72081 4.94026
0.204721 1.71875 4.93541
0.187815 1.72294 4.94748
0.171784 1.72189 4.94361
0.154746 1.71983 4.93877
0.146707 1.71776 4.93386
0.130777 1.72091 4.94294
0.0977236 1.71783 4.93623
0.0807862 1.72096 4.94431
0.0647013 1.71681 4.9335
0.0477564 1.71993 4.94058
0.025023 1.72549 4.84265
0.00895383 1.72237 4.83382
-0.00805322 1.72237 4.83295
-0.0160687 1.72134 4.83102
-0.0320061 1.72447 4.8391
-0.0480678 1.72137 4.83126
-0.063982 1.72554 4.84232
-0.0799966 1.72552 4.84044
-0.0960036 1.72552 4.83956
-0.112988 1.72556 4.84169
-0.121003 1.72554 4.83975
-0.13608 1.7214 4.82993
-0.152956 1.72765 4.84596
-0.169087 1.72141 4.82917
-0.185109 1.72138 4.82629
-0.201055 1.72349 4.83338
-0.217131 1.72036 4.82355
-0.225092 1.72244 4.82858
-0.241099 1.72243 4.8277
-0.25799 1.72765 4.84175
-0.274036 1.72557 4.8359
-0.289144 1.72138 4.82208
-0.30605 1.72557 4.83415
-0.321174 1.72034 4.81833
-0.329227 1.71825 4.81143
-0.346172 1.72136 4.81851
-0.363071 1.72657 4.83156
-0.379109 1.7255 4.8267
-0.39417 1.7224 4.81885
-0.411138 1.72447 4.82295
-0.427153 1.72445 4.82107
-0.435168 1.72343 4.81915
-0.449322 1.71714 4.79934
-0.467151 1.72548 4.82136
-0.482236 1.72233 4.81052
-0.500103 1.72959 4.82755
-0.514273 1.72128 4.80577
-0.53214 1.72854 4.8228
-0.537365 1.71812 4.79399
-0.5571 1.73163 4.82795
-0.5722 1.72745 4.81512
-0.587261 1.72534 4.80726
-0.604245 1.72639 4.80938
-0.62119 1.7295 4.81646
-0.636258 1.72738 4.8076
-0.644265 1.72737 4.80666
-0.661257 1.7284 4.80778
-0.678202 1.73151 4.81486
-0.692317 1.7273 4.80002
-0.710262 1.73042 4.80712
-0.724354 1.72725 4.79527
-0.741353 1.72726 4.79539
-0.750275 1.73142 4.8054
-0.764429 1.72513 4.7856
-0.784211 1.73656 4.81358
-0.795489 1.72404 4.77785
-0.81534 1.73233 4.79688
-0.828456 1.72712 4.78205
-0.847346 1.73334 4.7961
-0.853462 1.72912 4.78121
-0.870422 1.73121 4.78631
-0.885498 1.72907 4.77645
-0.901521 1.72904 4.77357
-0.91752 1.73005 4.77368
-0.93548 1.73314 4.77877
-0.949564 1.72998 4.76792
-0.959501 1.73311 4.77595
-0.977453 1.73721 4.78202
-0.991522 1.73509 4.77316
-1.00563 1.73089 4.75933
-1.02164 1.73087 4.75745
-1.03958 1.73501 4.76552
-1.0537 1.73078 4.74969
-1.06266 1.73287 4.75573
-1.07772 1.73177 4.74786
-1.08891 1.72341 4.72306
-1.1117 1.73482 4.75007
-1.12772 1.73479 4.74719
-1.14181 1.73264 4.73632
-1.16073 1.73678 4.74541
-1.16778 1.7357 4.73947
-1.18089 1.7315 4.72563
-1.21488 1.73454 4.72684
-1.23089 1.73552 4.72495
-1.2469 1.7365 4.72306
-1.25201 1.73232 4.71015
-1.27095 1.73643 4.71724
-1.2991 1.73216 4.69751
-1.31609 1.7342 4.69961
-1.34814 1.73412 4.69285
-1.36124 1.73092 4.67899
-1.38819 1.73603 4.68512
-1.40422 1.73598 4.68124
-1.42122 1.73801 4.68234
-1.43042 1.72963 4.65653
-1.4523 1.73687 4.67159
-1.46344 1.7316 4.65275
-1.48651 1.73048 4.64394
-1.51856 1.73141 4.63817
-1.53654 1.73446 4.64026
-1.5676 1.73536 4.63248
-1.62368 1.73824 4.62185
-1.65475 1.73811 4.61209
-2.15117 1.73866 4.4258
-2.17226 1.7375 4.41397
-2.20137 1.7373 4.39919
-2.23147 1.73713 4.38642
-2.25453 1.73801 4.37758
-2.28069 1.73472 4.35682
-2.30065 1.73981 4.3619
-2.30783 1.73347 4.33904
-2.32879 1.73855 4.34312
-2.33891 1.73433 4.32826
-2.36296 1.73625 4.32141
-2.38096 1.73926 4.3215
-2.39207 1.73604 4.30663
-2.4202 1.73581 4.28985
-2.43721 1.7378 4.28794
-2.43932 1.73359 4.27402
-2.45832 1.7366 4.27412
-2.47139 1.73548 4.26523
-2.4894 1.73846 4.26332
-2.49951 1.73526 4.24945
-2.52566 1.73297 4.22867
-2.54774 1.73384 4.21883
-5.05163 1.75139 1.45005
-5.06998 1.7507 1.40319
-5.06613 1.74742 1.38421
-5.08129 1.75011 1.36228
-5.06546 1.74077 1.34029
-5.07557 1.74355 1.32533
-5.08967 1.74637 1.31239
-5.07185 1.73702 1.28939
-5.08395 1.73982 1.27544
-5.07903 1.73667 1.26545
-5.08415 1.73644 1.24949
4.37211 1.72328 2.57862
4.3612 1.72247 2.59072
4.36135 1.72677 2.61066
4.36352 1.73207 2.63157
4.35563 1.7333 2.64661
4.34774 1.73453 2.66165
4.32678 1.72862 2.6669
4.33389 1.73484 2.68175
4.32198 1.73302 2.69387
4.32315 1.73833 2.71479
4.30435 1.73875 2.74193
4.28455 1.73915 2.76807
2.05424 1.73564 4.46416
1.98646 1.73611 4.49367
1.87076 1.73478 4.53357
1.81485 1.73201 4.54703
1.78188 1.73009 4.55131
1.75299 1.73132 4.56551
1.73908 1.73349 4.57658
1.71799 1.72735 4.56583
1.71816 1.73567 4.58771
1.70219 1.73474 4.59185
1.6852 1.73279 4.594
1.66923 1.73284 4.59712
1.63318 1.72678 4.59148
1.62928 1.73097 4.60445
1.59633 1.7291 4.61173
1.56642 1.73029 4.62294
1.55456 1.73556 4.64095
1.53446 1.7294 4.62919
1.5105 1.72849 4.63439
1.49759 1.73168 4.64644
1.48367 1.73384 4.65652
1.46771 1.73392 4.66163
1.43268 1.72889 4.65797
1.42776 1.73205 4.66896
1.39888 1.73531 4.68514
1.37881 1.73018 4.67536
1.36592 1.73441 4.6904
1.35095 1.73448 4.69451
1.32983 1.72626 4.67879
1.32803 1.73564 4.70467
1.30692 1.72845 4.69093
1.29506 1.73473 4.70893
1.27701 1.73064 4.70213
1.24298 1.72662 4.69944
1.2301 1.73085 4.71448
1.2242 1.73505 4.72746
1.18603 1.72476 4.7069
1.17625 1.73318 4.73485
1.15613 1.72698 4.72009
1.14532 1.73434 4.74407
1.12624 1.72921 4.73429
1.09919 1.72512 4.72755
1.08735 1.73144 4.74855
1.07032 1.7294 4.74471
1.05847 1.7357 4.76471
1.03836 1.72849 4.74996
1.0314 1.72957 4.755
1.01439 1.72857 4.75414
1.00049 1.73177 4.7672
0.982426 1.72767 4.7594
0.967487 1.7298 4.76748
0.933433 1.72572 4.76079
0.927526 1.7299 4.77278
0.913665 1.73518 4.79081
0.892456 1.72379 4.76413
0.880665 1.7332 4.79109
0.864657 1.7322 4.79022
0.845564 1.72603 4.77845
0.83375 1.7344 4.80242
0.814641 1.7282 4.78866
0.806634 1.72819 4.78772
0.793796 1.73451 4.80872
0.771517 1.72 4.7731
0.75975 1.73045 4.80304
0.738525 1.71904 4.77436
0.726742 1.72846 4.80232
0.708657 1.72431 4.79151
0.704866 1.73371 4.81841
0.684664 1.72334 4.79271
0.671858 1.73172 4.81768
0.655858 1.73073 4.81782
0.636727 1.7245 4.80105
0.620757 1.72457 4.80517
0.604758 1.72458 4.80529
0.59675 1.72357 4.80437
0.580804 1.72569 4.81146
0.566905 1.72989 4.8245
0.547773 1.72265 4.80775
0.532843 1.72579 4.81682
0.515735 1.7206 4.80302
0.50889 1.7269 4.82298
0.491766 1.72068 4.8072
0.476883 1.72591 4.82224
0.459805 1.72177 4.81243
0.444961 1.72908 4.83244
0.427883 1.72494 4.82262
0.411906 1.725 4.82574
0.403853 1.7229 4.81883
0.385744 1.71671 4.80506
0.369745 1.71672 4.80518
0.355938 1.7251 4.83016
0.337799 1.71885 4.81239
0.324024 1.72929 4.84134
0.306846 1.71996 4.81861
0.290924 1.72312 4.82868
0.282916 1.72311 4.82774
0.266932 1.72315 4.82986
0.249824 1.71796 4.81607
0.233933 1.72318 4.83011
0.217848 1.71902 4.81929
0.203057 1.72843 4.84627
0.185957 1.72325 4.83347
0.177934 1.72222 4.83055
0.161965 1.72329 4.83465
0.145966 1.7233 4.83477
0.129997 1.72537 4.83886
0.112943 1.72228 4.83204
0.0969049 1.72022 4.82719
0.0901065 1.7296 4.8531
0.0728748 1.71917 4.82338
0.0570378 1.7265 4.8444
0.0409686 1.72337 4.83556
-0.794482 1.72408 4.64582
-1.15098 1.72535 4.58148
-1.18104 1.72525 4.57371
-1.20917 1.72101 4.55598
-1.24215 1.72507 4.55917
-1.28121 1.72497 4.55046
-1.29333 1.72076 4.53561
-1.35248 1.7195 4.51607
-1.39154 1.72041 4.50835
-1.48156 1.72942 4.5049
-1.76938 1.724 4.39713
-1.82757 1.72267 4.37259
-1.8516 1.72463 4.36874
-1.91174 1.72638 4.34916
-1.98905 1.72283 4.30879
-2.01813 1.72368 4.298
-2.03726 1.72045 4.28119
-2.33128 1.72165 4.14737
-2.46579 1.72274 4.08035
-2.56823 1.72192 4.02113
-2.62433 1.72776 4.00746
-2.67057 1.72633 3.97683
-2.69177 1.72195 3.95005
-2.70582 1.72285 3.94314
-2.71888 1.72274 3.93524
-2.73195 1.72262 3.92634
-2.75194 1.72665 3.92743
-2.75995 1.72764 3.92648
-2.76709 1.72337 3.90759
-2.78215 1.72427 3.90069
-2.7962 1.72518 3.89378
-2.81124 1.7261 3.88788
-2.82629 1.72702 3.88198
-2.83638 1.72484 3.86909
-2.84044 1.72372 3.86113
-2.87429 1.73704 3.88119
-2.87944 1.73175 3.86131
-2.89647 1.7337 3.85741
-2.9036 1.73046 3.8405
-2.91864 1.73138 3.8346
-2.92281 1.72606 3.81271
-2.93577 1.73014 3.81775
-2.95478 1.73312 3.81585
-2.97279 1.73711 3.81392
-2.98191 1.73389 3.79904
-2.99398 1.73375 3.78913
-3.00903 1.73467 3.78323
-3.01409 1.73356 3.77528
-3.02517 1.7324 3.76438
-3.04121 1.73434 3.75947
-3.0622 1.73936 3.75956
-3.06834 1.7351 3.74166
-3.10843 1.74093 3.72888
-3.13062 1.73859 3.70508
-3.14764 1.74055 3.70117
-3.16072 1.74041 3.69127
-3.16587 1.73613 3.67237
-3.22102 1.74286 3.65169
-3.23409 1.74272 3.64179
-3.30152 1.74192 3.5853
-3.31359 1.74179 3.57539
-3.34172 1.74355 3.55857
-3.43133 1.74242 3.47825
-4.85475 1.74998 1.5656
-4.87402 1.75246 1.52971
-4.8572 1.74311 1.50671
-4.87728 1.74796 1.49579
-4.87342 1.74469 1.47781
-4.86159 1.73735 1.45582
-4.87967 1.7422 1.44489
-4.87581 1.73793 1.42692
-4.88186 1.73883 1.41995
-4.88598 1.7386 1.40398
-4.88411 1.73535 1.38701
-4.88923 1.73512 1.37105
-4.90145 1.73568 1.34113
4.18375 1.73565 2.66287
4.15473 1.72664 2.66122
4.08129 1.72181 2.73686
4.09754 1.73427 2.76856
4.07154 1.72729 2.76886
4.07471 1.73362 2.79174
4.05065 1.72452 2.78406
4.05583 1.73188 2.80791
4.04291 1.73003 2.81804
4.02898 1.72818 2.82717
4.0402 1.7386 2.85594
4.02225 1.73471 2.86313
4.01235 1.73491 2.8762
4.01041 1.73703 2.88419
3.99447 1.73416 2.89235
3.98758 1.73539 2.90739
3.96677 1.73578 2.93254
3.95989 1.738 2.94756
3.94502 1.73828 2.96567
3.81015 1.73859 3.1157
3.77044 1.73819 3.15502
3.75047 1.73427 3.15922
3.73956 1.73445 3.17131
3.7357 1.73772 3.18929
3.71563 1.7306 3.18054
3.70169 1.72875 3.18968
3.69885 1.73404 3.20962
3.69902 1.73937 3.23155
3.66594 1.72825 3.22196
3.65804 1.72946 3.236
3.64512 1.72962 3.2461
3.64622 1.73281 3.25905
3.6353 1.73298 3.27013
3.61935 1.73109 3.27728
2.95951 1.73671 3.83124
2.88385 1.73544 3.87783
2.86991 1.73556 3.88494
2.849 1.73475 3.89711
2.83809 1.73593 3.90918
2.80819 1.73415 3.92243
2.79626 1.73531 3.9325
2.76028 1.72938 3.93586
2.7614 1.7336 3.95079
2.74645 1.73371 3.95791
2.7325 1.73283 3.96503
2.71756 1.73194 3.97215
2.70969 1.7362 3.98915
2.6917 1.73324 3.99133
2.64772 1.72532 3.99478
2.64593 1.73472 4.02166
2.63402 1.7359 4.03373
2.61704 1.73396 4.03689
2.60309 1.73306 4.04301
2.57407 1.72705 4.04132
2.57128 1.73545 4.06822
2.55125 1.73142 4.06543
2.5363 1.73052 4.07155
2.5254 1.73272 4.0846
2.50943 1.7318 4.08874
2.50258 1.7361 4.10873
2.48749 1.72994 4.09793
2.47254 1.73004 4.10404
2.4586 1.73017 4.11215
2.44263 1.72824 4.1163
2.4297 1.72939 4.12538
2.41474 1.72849 4.13151
2.40993 1.73584 4.15544
2.39381 1.72764 4.14068
2.38292 1.73085 4.15472
2.36999 1.73201 4.1648
2.34894 1.72592 4.15804
2.33704 1.72812 4.1711
2.32411 1.72926 4.18019
2.30914 1.72835 4.18531
2.30624 1.73253 4.19727
2.29533 1.73471 4.20933
2.27428 1.72864 4.20357
2.26136 1.7308 4.21364
2.24844 1.73197 4.22472
2.23043 1.72895 4.2229
2.2265 1.7321 4.23289
2.21052 1.72915 4.23505
2.17857 1.72727 4.24232
2.17481 1.73673 4.27321
2.15883 1.73579 4.27635
2.12977 1.72871 4.26967
2.12194 1.73504 4.29164
2.09782 1.72582 4.27595
2.08896 1.73109 4.29395
2.07096 1.72811 4.29413
2.05599 1.72819 4.29924
2.04002 1.72625 4.30239
2.04016 1.73351 4.32028
2.01605 1.72432 4.3066
2.01026 1.73373 4.33351
1.98612 1.72449 4.31682
1.97522 1.72669 4.32987
1.95722 1.72471 4.33004
1.94632 1.72691 4.34309
1.93529 1.72486 4.3392
1.9193 1.7229 4.34135
1.90842 1.72713 4.35637
1.88938 1.72207 4.35159
1.87748 1.72527 4.36463
1.86353 1.72638 4.37172
1.85367 1.73166 4.38972
1.83853 1.7224 4.37197
1.83378 1.73388 4.40384
1.80961 1.72259 4.38319
1.79672 1.72579 4.39624
1.77766 1.7207 4.38946
1.76781 1.727 4.40944
1.7377 1.7178 4.3948
1.72273 1.71789 4.39991
1.69689 1.7212 4.42006
1.66594 1.72033 4.42731
1.64708 1.72461 4.44539
1.61716 1.72478 4.45562
1.56818 1.72087 4.46004
1.54522 1.71996 4.46523
1.52922 1.71798 4.46538
1.51528 1.7201 4.47345
1.49929 1.71813 4.4746
1.49049 1.72752 4.50054
1.47141 1.72139 4.49077
1.45542 1.72041 4.4919
1.44845 1.72048 4.49596
1.43454 1.72367 4.50801
1.41854 1.72166 4.50716
1.40667 1.72692 4.52418
1.3845 1.71663 4.5035
1.37467 1.72396 4.52546
1.34863 1.71889 4.51973
1.31973 1.7211 4.53292
1.3027 1.71907 4.53008
1.28877 1.72122 4.53915
1.27897 1.72961 4.56511
1.24879 1.71829 4.5425
1.21989 1.7205 4.55569
1.20286 1.71746 4.55186
1.15 1.71976 4.57023
1.13505 1.72086 4.57632
1.11799 1.71676 4.56851
1.10509 1.72097 4.58255
1.08909 1.71998 4.58268
1.07312 1.72004 4.5858
1.06615 1.7201 4.58985
1.03519 1.72022 4.59609
1.02023 1.7213 4.60118
0.988254 1.72037 4.60444
0.9343 1.7185 4.61087
0.887346 1.71762 4.61724
0.865454 1.72184 4.63135
0.8484 1.71775 4.62453
0.802454 1.71789 4.63188
0.772563 1.72212 4.64604
0.687686 1.72342 4.66267
0.64764 1.71936 4.65703
0.2089 1.71916 4.69334
-0.0241924 1.71817 4.54909
-0.813681 1.71974 4.48701
-0.858717 1.7207 4.48233
-0.875668 1.7248 4.4884
-0.896784 1.71959 4.47363
-0.910806 1.71956 4.47074
-0.925843 1.7195 4.46585
-0.956841 1.72152 4.46606
-0.971864 1.72148 4.46317
-0.987862 1.7225 4.46328
-0.9939 1.72143 4.45834
-1.00991 1.72241 4.45644
-1.02494 1.72238 4.45356
-1.04092 1.72442 4.45565
-1.06901 1.72226 4.44389
-1.08499 1.7243 4.44598
-1.09205 1.7222 4.43906
-1.10609 1.72112 4.43318
-1.12015 1.71903 4.42632
-1.13516 1.72001 4.42442
-1.1652 1.72096 4.41963
-1.26237 1.72167 4.39635
-2.28725 1.7247 4.01797
-2.28934 1.72153 4.00603
-2.32335 1.72652 4.00421
-2.34554 1.72217 3.97944
-2.36156 1.72415 3.97753
-2.38164 1.724 3.96669
-2.39766 1.72597 3.96378
-2.43389 1.72255 3.9341
-2.46197 1.72439 3.92228
-2.51015 1.72507 3.89863
-2.55231 1.72679 3.87792
-2.58051 1.72341 3.85118
-2.59654 1.72537 3.84727
-2.62266 1.72515 3.83147
-2.6377 1.72609 3.82656
-2.65383 1.72383 3.80872
-2.66492 1.72268 3.79782
-2.68194 1.72564 3.7949
-2.69895 1.72863 3.79298
-2.71201 1.72852 3.78508
-2.71508 1.72539 3.77615
-2.72913 1.72629 3.76924
-2.74813 1.73031 3.76933
-2.7592 1.73017 3.75941
-2.77622 1.73213 3.75651
-2.78137 1.72786 3.73761
-2.80037 1.73187 3.73769
-2.81036 1.73388 3.73774
-2.82541 1.7348 3.73184
-2.8355 1.73363 3.71993
-2.85054 1.73455 3.71403
-2.86756 1.73752 3.71111
-2.87766 1.73635 3.6992
-2.89863 1.74141 3.70229
-2.89874 1.7372 3.68835
-2.90981 1.73606 3.67845
-2.92782 1.74004 3.67652
-2.93892 1.73888 3.66462
-2.94802 1.73567 3.65074
-2.96703 1.74067 3.64981
-2.99522 1.73831 3.62405
-3.0063 1.73815 3.61313
-3.01541 1.73495 3.59925
-3.05045 1.74189 3.59341
-3.05955 1.7397 3.58051
-3.06659 1.73964 3.57556
-3.0937 1.74243 3.56072
-3.10281 1.73923 3.54684
-3.11784 1.74217 3.5419
-3.36537 1.74233 3.33974
-3.38646 1.74417 3.32787
-4.78259 1.74831 1.32105
-4.78372 1.74607 1.30509
-4.78384 1.74382 1.28812
-4.78896 1.7436 1.27316
-4.79008 1.74237 1.25718
-4.7932 1.74113 1.24122
-4.8013 1.74293 1.22726
-4.79837 1.7398 1.21828
-4.79563 1.73529 1.18432
3.93388 1.72208 2.68196
3.91219 1.72571 2.72307
3.89431 1.72396 2.73924
3.89244 1.72822 2.75719
3.87146 1.72229 2.76044
3.86559 1.72453 2.77645
3.86372 1.72879 2.7944
3.84476 1.72388 2.79962
3.8429 1.72815 2.81757
3.84297 1.7313 2.82753
3.82803 1.72843 2.83568
3.81812 1.72861 2.84776
3.81224 1.73084 2.86277
3.79931 1.73 2.87288
3.79242 1.73121 2.88692
3.78956 1.73548 2.90488
3.78057 1.73351 2.90697
3.76966 1.7337 2.91905
3.7668 1.73697 2.93703
3.74581 1.73101 2.93928
3.7349 1.73118 2.95036
3.73607 1.73751 2.97226
3.71609 1.73257 2.97548
3.71415 1.73469 2.98347
3.69131 1.73403 3.00565
3.68442 1.73524 3.01969
3.67249 1.7354 3.02978
3.65655 1.73251 3.03694
3.65361 1.73363 3.04495
3.64772 1.73586 3.05996
3.6358 1.73602 3.07005
3.61481 1.73106 3.07228
3.60591 1.73126 3.08535
3.58995 1.72836 3.09151
3.58609 1.73263 3.10948
3.57811 1.73168 3.11255
3.55612 1.72571 3.11381
3.55225 1.72897 3.13079
3.54737 1.73221 3.14678
3.52235 1.7252 3.14508
3.51446 1.72741 3.1591
3.51261 1.73271 3.17904
3.50261 1.72971 3.17916
3.49876 1.734 3.19813
3.49086 1.73521 3.21217
3.48398 1.73844 3.22718
3.47004 1.73657 3.23531
2.80495 1.73672 3.75839
2.76311 1.73506 3.77974
2.75421 1.73726 3.79277
2.71925 1.73236 3.79811
2.71935 1.73657 3.81205
2.70743 1.73773 3.82212
2.69044 1.73477 3.82429
2.67953 1.73594 3.83536
2.65264 1.73518 3.85058
2.63869 1.73529 3.85768
2.61474 1.7324 3.86391
2.6018 1.73253 3.872
2.59595 1.73781 3.89097
2.5739 1.73074 3.88524
2.56603 1.736 3.90222
2.5541 1.73616 3.91231
2.54308 1.73412 3.90943
2.52508 1.73013 3.90962
2.51214 1.73026 3.91772
2.49514 1.72729 3.91889
2.48121 1.72742 3.92699
2.47637 1.73373 3.94794
2.45836 1.72973 3.94713
2.45545 1.73391 3.9591
2.44353 1.73507 3.96917
2.42146 1.72796 3.96144
2.41055 1.73013 3.97249
2.40269 1.73542 3.99148
2.38164 1.72833 3.98474
2.37669 1.73044 3.99175
2.36985 1.73574 4.01172
2.34676 1.7286 4.001
2.33586 1.7308 4.01405
2.32393 1.73195 4.02413
2.30186 1.72484 4.0154
2.29806 1.73321 4.0403
2.29007 1.73224 4.04238
2.26902 1.72617 4.03663
2.25608 1.72628 4.04372
2.24721 1.73154 4.06071
2.22715 1.72545 4.05395
2.21422 1.7266 4.06304
2.20739 1.73293 4.085
2.19533 1.72782 4.07716
2.18443 1.73102 4.0902
2.16844 1.72906 4.09235
2.15042 1.72504 4.09054
2.14156 1.7303 4.10753
2.12963 1.73146 4.11761
2.11467 1.73054 4.12274
2.10871 1.73162 4.12777
2.0917 1.72862 4.12694
2.07979 1.7308 4.139
2.06584 1.7309 4.1451
2.0529 1.73203 4.15318
2.03286 1.72697 4.14841
2.01992 1.7281 4.15649
2.01905 1.73335 4.17342
2.00103 1.73032 4.1706
1.98097 1.72423 4.16384
1.97415 1.73158 4.18679
1.96019 1.73168 4.19289
1.94522 1.73073 4.19602
1.93229 1.73187 4.2051
1.92021 1.72675 4.19627
1.90933 1.73098 4.21129
1.89232 1.72798 4.21046
1.88141 1.73116 4.2225
1.8583 1.72196 4.20781
1.84537 1.7241 4.21687
1.83244 1.72526 4.22695
1.8224 1.72219 4.22207
1.80845 1.72229 4.22818
1.79857 1.72753 4.24418
1.78462 1.72763 4.25028
1.76659 1.72359 4.24648
1.75263 1.72369 4.25258
1.73869 1.7248 4.25967
1.73069 1.72382 4.26075
1.71469 1.72183 4.2609
1.7038 1.72505 4.27493
1.68474 1.71996 4.26815
1.67081 1.7221 4.27723
1.65584 1.72116 4.28035
1.64085 1.7202 4.28248
1.63388 1.72026 4.28653
1.62197 1.72345 4.29858
1.60597 1.72146 4.29873
1.59202 1.72256 4.30482
1.57704 1.72161 4.30794
1.54709 1.72073 4.31418
1.53911 1.72078 4.31724
1.52617 1.7219 4.32533
1.50915 1.71889 4.3235
1.49622 1.72101 4.33157
1.48022 1.71904 4.33272
1.45028 1.71917 4.33994
1.44741 1.72442 4.35689
1.41539 1.72041 4.35519
1.40042 1.72048 4.3593
1.38648 1.72161 4.36739
1.37048 1.71961 4.36654
1.30461 1.71992 4.38503
1.28861 1.71894 4.38517
1.27364 1.71901 4.38928
1.26564 1.71801 4.38935
1.2398 1.72334 4.41047
1.2207 1.71716 4.39771
1.2088 1.72036 4.41075
1.19486 1.72248 4.41783
1.17885 1.72047 4.41698
1.16493 1.72263 4.42705
1.1569 1.72059 4.42414
1.14193 1.72065 4.42725
1.12489 1.71759 4.42243
1.11507 1.72594 4.44538
1.09596 1.71876 4.43263
1.08202 1.72087 4.4397
1.07713 1.72608 4.45366
1.05904 1.71993 4.44289
1.04511 1.72208 4.45196
1.03217 1.7242 4.46003
1.01411 1.7201 4.45223
1.00016 1.72121 4.45932
0.985172 1.72124 4.46043
0.96814 1.71819 4.4566
0.962194 1.7203 4.46362
0.949318 1.72554 4.47964
0.904348 1.72364 4.48401
0.889387 1.72472 4.4891
0.872325 1.72062 4.48129
0.867434 1.72583 4.49525
0.849364 1.72171 4.48645
0.819394 1.72079 4.49069
0.803363 1.71874 4.48684
0.782479 1.72298 4.50194
0.751487 1.72201 4.50318
0.737549 1.72414 4.51126
0.705494 1.71906 4.50458
0.691557 1.72219 4.51263
0.65361 1.72232 4.51992
0.636525 1.71717 4.50912
0.607595 1.71933 4.51831
0.584587 1.71833 4.5175
0.569642 1.72044 4.52458
0.492635 1.71749 4.52421
0.40969 1.71765 4.53183
0.379706 1.7177 4.53405
0.356745 1.71879 4.53921
-2.27534 1.72255 3.87289
-2.33754 1.72519 3.84632
-2.36871 1.72389 3.82457
-2.38077 1.72277 3.81568
-2.3958 1.72473 3.81276
-2.40589 1.72256 3.80087
-2.42882 1.7297 3.80894
-2.46612 1.72413 3.76929
-2.47819 1.72301 3.7604
-2.49717 1.72807 3.76347
-2.51023 1.72796 3.75557
-2.52033 1.72577 3.74267
-2.52932 1.72779 3.74371
-2.54238 1.72768 3.73581
-2.55246 1.72653 3.7249
-2.57243 1.73159 3.72798
-2.58351 1.73045 3.71808
-2.59361 1.72826 3.70518
-2.60962 1.73124 3.70326
-2.61665 1.73119 3.69931
-2.63069 1.73213 3.6944
-2.65165 1.7382 3.69847
-2.65977 1.73498 3.68358
-2.66987 1.7328 3.67069
-2.68292 1.7337 3.66377
-2.70092 1.7367 3.66286
-2.70202 1.73353 3.65091
-2.72595 1.74166 3.65898
-2.73209 1.7364 3.6411
-2.74712 1.73835 3.63718
-2.76413 1.74133 3.63526
-2.77027 1.73707 3.61737
-2.77937 1.73487 3.60347
-2.79629 1.74205 3.61449
-2.81033 1.74297 3.60859
-2.8224 1.74284 3.59968
-2.83546 1.74272 3.59078
-2.84456 1.74155 3.57886
-2.8596 1.74247 3.57296
-2.87265 1.74338 3.56604
-2.8868 1.74009 3.5462
-4.64388 1.74566 1.28304
-4.66108 1.74827 1.25612
-4.66419 1.74705 1.24116
-4.66232 1.7438 1.2242
-4.66837 1.74572 1.21821
-4.67048 1.7445 1.20324
-4.66363 1.73921 1.18427
-4.67172 1.74002 1.17132
-4.66686 1.73675 1.15332
-4.67895 1.73959 1.14137
-4.68007 1.73735 1.12541
-4.69358 1.73435 1.05755
3.65482 1.72212 2.80808
3.6102 1.72291 2.85941
3.59441 1.72632 2.88648
3.58147 1.72445 2.89461
3.56652 1.72157 2.90176
3.5666 1.72471 2.91172
3.55366 1.72386 2.92083
3.54375 1.72403 2.9319
3.5429 1.72932 2.95183
3.53198 1.72848 2.96193
3.50796 1.72147 2.96021
3.50609 1.72574 2.97817
3.50316 1.72786 2.98616
3.49425 1.72805 2.99922
3.47829 1.72514 3.00439
3.46837 1.72531 3.01546
3.46048 1.72752 3.02949
3.44553 1.72562 3.03563
3.43561 1.72579 3.04671
3.43166 1.7259 3.05374
3.42478 1.72913 3.06874
3.40881 1.72621 3.07391
3.39285 1.7233 3.07907
3.38797 1.72654 3.09506
3.38915 1.73288 3.11796
3.3621 1.72381 3.1123
3.37025 1.73208 3.13112
3.3684 1.73738 3.15106
3.35446 1.73551 3.15919
3.3405 1.73361 3.16532
2.9023 1.73839 3.53761
2.85841 1.73366 3.55401
2.80473 1.73531 3.59539
2.7748 1.73148 3.60568
2.76499 1.73786 3.63066
2.75004 1.73695 3.63679
2.72617 1.73824 3.65495
2.71221 1.73632 3.66008
2.70029 1.73748 3.67016
2.68025 1.73144 3.6664
2.67734 1.7346 3.67738
2.66337 1.73268 3.68251
2.6474 1.73076 3.68666
2.63141 1.72778 3.68782
2.62657 1.7341 3.70877
2.60857 1.73111 3.70895
2.60159 1.73016 3.71202
2.58764 1.72926 3.71814
2.57469 1.72837 3.72525
2.56479 1.73157 3.73828
2.55185 1.7317 3.74637
2.53587 1.72876 3.74954
2.5219 1.72783 3.75366
2.52202 1.73305 3.76858
2.50503 1.73009 3.77075
2.49106 1.72916 3.77487
2.4761 1.72724 3.78001
2.46113 1.72631 3.78414
2.4492 1.72647 3.79423
2.44031 1.72968 3.80825
2.42827 1.7256 3.8024
2.41938 1.72983 3.81741
2.40136 1.72482 3.81562
2.39247 1.72803 3.82964
2.37852 1.72713 3.83576
2.36659 1.72929 3.84582
2.35264 1.72838 3.85194
2.34161 1.72533 3.84807
2.33068 1.72649 3.85813
2.31571 1.72556 3.86226
2.30683 1.72879 3.87728
2.28982 1.72579 3.87645
2.27687 1.7259 3.88355
2.269 1.73016 3.90055
2.26102 1.72919 3.90262
2.24605 1.72826 3.90675
2.23411 1.7284 3.91584
2.21508 1.72436 3.91204
2.20113 1.72346 3.91816
2.1902 1.72561 3.92821
2.17422 1.72366 3.93036
2.16522 1.72166 3.93046
2.15633 1.72589 3.94547
2.1444 1.72702 3.95354
2.12943 1.7261 3.95867
2.11749 1.72723 3.96674
2.10252 1.72529 3.96988
