-2.95557 1.74531 4.15084
-2.96359 1.74528 4.1479
-2.99075 1.74498 4.1271
-3.00976 1.74797 4.1252
-3.01988 1.74475 4.11032
-3.03593 1.74666 4.10342
-3.05296 1.7486 4.09852
-3.06802 1.74849 4.09063
-3.07704 1.75047 4.08867
-3.09407 1.75241 4.08377
-3.10221 1.74815 4.06589
-3.12418 1.75421 4.06897
-3.14221 1.75616 4.06507
-3.15035 1.7529 4.04718
-3.16332 1.75595 4.05023
-3.19125 1.76511 4.05931
-3.19642 1.75879 4.03744
-3.2085 1.75863 4.02653
-3.22851 1.76262 4.02462
-3.24061 1.76043 4.01174
-3.25468 1.76131 4.00283
-3.27183 1.75903 3.98299
-3.28887 1.76095 3.97709
-3.31998 1.76375 3.96228
-3.35517 1.7634 3.93755
-3.36527 1.76222 3.92464
-3.3954 1.76399 3.90784
-3.40056 1.75868 3.88696
-3.41761 1.76059 3.88006
-3.42672 1.75838 3.86515
-3.44267 1.76448 3.87119
-3.46388 1.76109 3.84439
-3.47696 1.76094 3.83349
-3.50115 1.75959 3.80869
-3.52117 1.76356 3.80578
-3.52622 1.76246 3.79883
-3.54128 1.76335 3.79093
-3.54842 1.76009 3.77303
-3.56745 1.76303 3.76813
-3.57359 1.75976 3.75022
-3.5837 1.75856 3.73632
-3.61066 1.76564 3.74042
-3.60679 1.76039 3.72346
-3.61887 1.76023 3.71255
-3.63394 1.76111 3.70365
-3.64009 1.75784 3.68474
-3.66507 1.76387 3.68584
-3.66923 1.75958 3.66594
-3.6833 1.75944 3.65604
-3.68538 1.75729 3.64609
-3.69152 1.75403 3.62818
-3.71551 1.76005 3.62827
-3.72363 1.75782 3.61236
-3.73076 1.75457 3.59546
-3.74881 1.75749 3.58956
-3.7589 1.75631 3.57665
-3.77496 1.7582 3.56874
-3.78002 1.75809 3.56078
-3.78715 1.75484 3.54388
-3.80718 1.7588 3.53997
-3.82423 1.7617 3.53305
-3.82045 1.75329 3.50515
-3.8375 1.7552 3.49825
-3.85454 1.75812 3.49233
-3.86059 1.75802 3.48538
-3.87665 1.75991 3.47747
-3.89867 1.76488 3.47456
-3.90878 1.76368 3.46065
-3.9159 1.76145 3.44474
-3.93593 1.76539 3.43983
-3.94108 1.76212 3.42091
-3.9501 1.76308 3.41797
-3.95723 1.76083 3.40105
-3.96435 1.7586 3.38514
-3.98438 1.76254 3.38023
-4.00143 1.76545 3.37331
-4.01353 1.76526 3.3604
-4.0166 1.76313 3.35146
-4.02868 1.76398 3.34053
-4.03581 1.76173 3.32362
-4.05287 1.76463 3.3157
-4.06993 1.76652 3.3078
-4.08003 1.76632 3.29388
-4.09113 1.76614 3.28096
-4.11126 1.7669 3.2641
-4.13345 1.76653 3.23827
-4.16973 1.76701 3.20153
-4.17884 1.76681 3.1876
-4.24949 1.76557 3.10114
-4.26862 1.76633 3.08427
-4.27474 1.76409 3.06735
-4.28386 1.76287 3.05243
-4.35136 1.76693 2.98587
-4.35848 1.7657 2.96994
-4.36759 1.76448 2.95503
-4.38068 1.76531 2.94311
-4.3878 1.76408 2.92718
-4.39882 1.76706 2.92522
-4.40594 1.76483 2.9093
-5.14505 1.75343 1.56886
-5.14918 1.75318 1.55189
-5.14241 1.74673 1.52193
-5.14753 1.7465 1.50597
-5.16063 1.7483 1.49204
2.4496 1.73796 4.41926
2.40882 1.74041 4.44854
2.39883 1.73944 4.44963
2.355 1.74081 4.47294
2.34107 1.74095 4.48204
2.27027 1.73939 4.50861
2.24821 1.7333 4.50186
2.21049 1.73986 4.53805
2.2015 1.7399 4.54012
2.18858 1.74106 4.5502
2.16855 1.73701 4.54641
2.13561 1.73515 4.55469
2.12169 1.73633 4.56578
2.11082 1.74059 4.5828
2.10283 1.74061 4.58386
2.08383 1.73762 4.58405
2.07193 1.74082 4.59709
2.05597 1.73991 4.60222
2.04 1.73898 4.60636
2.00503 1.73606 4.61067
2.0001 1.73921 4.62066
1.98515 1.73931 4.62677
1.96614 1.73631 4.62596
1.95016 1.73537 4.62909
1.93726 1.73757 4.64216
1.92028 1.73661 4.6443
1.90535 1.73777 4.6544
1.89838 1.73884 4.65844
1.88141 1.73789 4.66158
1.86135 1.73281 4.6548
1.85151 1.73811 4.6748
1.8284 1.73092 4.66108
1.8114 1.72893 4.66124
1.80465 1.73942 4.69414
1.79461 1.73636 4.68926
1.77456 1.73227 4.68247
1.75859 1.73134 4.6866
1.74468 1.73453 4.69866
1.72871 1.7336 4.7028
1.71275 1.73368 4.70792
1.69268 1.72857 4.69914
1.68777 1.73175 4.71113
1.67282 1.73286 4.71823
1.65585 1.73192 4.72137
1.63681 1.72887 4.71756
1.62597 1.73418 4.73757
1.60793 1.73112 4.73275
1.59094 1.72916 4.73491
1.58194 1.72916 4.73497
1.532 1.72632 4.74339
1.51603 1.72639 4.74751
1.50109 1.7275 4.75461
1.48021 1.73076 4.77072
1.46117 1.7277 4.76591
1.44725 1.72985 4.77598
1.13279 1.72914 4.84937
-1.92673 1.74121 4.5242
-1.94277 1.74115 4.51932
-1.95782 1.74107 4.51343
-1.98267 1.75135 4.53147
-1.99576 1.7492 4.5206
-2.00983 1.74706 4.51074
-2.01392 1.74389 4.49881
-2.03485 1.75003 4.50788
-2.04205 1.74265 4.48204
-2.062 1.74676 4.48813
-2.09408 1.74863 4.47834
-2.14133 1.74416 4.44476
-2.20055 1.74278 4.41622
-2.66525 1.74674 4.19164
-2.66932 1.74461 4.1827
-2.68338 1.7445 4.1748
-2.69745 1.74438 4.16591
-2.71744 1.74841 4.167
-2.72558 1.74415 4.14912
-2.74063 1.74405 4.14224
-2.76259 1.75013 4.14631
-2.77567 1.74899 4.13643
-2.77973 1.74787 4.12847
-2.79972 1.7519 4.12956
-2.82193 1.74751 4.10179
-2.83402 1.74534 4.08991
-2.84709 1.74521 4.08101
-2.85906 1.74928 4.08504
-2.88498 1.75743 4.09412
-2.88522 1.74697 4.06327
-2.89928 1.74788 4.05636
-2.91829 1.75086 4.05446
-2.9294 1.74867 4.04058
-2.93851 1.74645 4.02567
-2.95839 1.75469 4.0407
-2.96257 1.74835 4.01783
-2.98752 1.75546 4.02391
-2.9996 1.7543 4.01302
-3.00477 1.74898 3.99113
-3.02773 1.75506 3.99522
-3.04179 1.75595 3.98731
-3.05081 1.75692 3.98536
-3.05202 1.74851 3.95749
-3.07697 1.75663 3.96456
-3.08806 1.75446 3.95267
-3.10015 1.75329 3.94078
-3.1251 1.7604 3.94686
-3.14015 1.76231 3.93995
-3.1363 1.75501 3.92002
-3.16125 1.76212 3.92611
-3.16443 1.75578 3.90322
-3.18443 1.75978 3.90231
-3.20345 1.76375 3.8994
-3.2096 1.75947 3.8805
-3.22862 1.76244 3.8776
-3.24675 1.7612 3.86076
-3.29906 1.76063 3.82015
-3.31917 1.76142 3.80529
-3.33323 1.7623 3.79638
-3.36434 1.7641 3.78159
-3.39862 1.76158 3.74488
-3.40863 1.76357 3.74392
-3.41873 1.76239 3.73102
-3.42883 1.76119 3.71711
-3.45084 1.76519 3.71621
-3.46609 1.75971 3.68341
-3.53138 1.76418 3.64483
-3.54247 1.76401 3.63291
-3.56467 1.76164 3.60711
-3.58875 1.76449 3.59625
-5.07369 1.74617 1.3514
-5.09198 1.74762 1.31351
-5.0991 1.74739 1.29756
4.59843 1.70576 2.13223
4.60158 1.71005 2.15215
4.56873 1.70338 2.1725
4.57992 1.71072 2.19631
4.59111 1.71908 2.2211
4.57317 1.71523 2.2303
4.57324 1.71736 2.23927
4.56133 1.71555 2.25139
4.55043 1.71475 2.26448
4.56062 1.7221 2.2883
4.53063 1.71415 2.29064
4.52273 1.71436 2.3047
4.53092 1.72071 2.32855
4.52697 1.72082 2.33558
4.50631 1.7235 2.3807
4.49642 1.72371 2.39477
4.48752 1.72393 2.40884
4.47166 1.72222 2.42799
2.45355 1.73589 4.28024
2.31608 1.73703 4.35127
2.29823 1.74032 4.37036
2.27922 1.73732 4.36955
2.25133 1.73857 4.38474
2.23742 1.73974 4.39583
2.22348 1.74087 4.40392
2.20853 1.73997 4.41005
2.19648 1.73689 4.40418
2.16555 1.73506 4.41444
2.15773 1.7414 4.43741
2.11867 1.73332 4.42983
2.10983 1.73963 4.4508
2.10081 1.73761 4.4489
2.08383 1.73567 4.45206
2.076 1.742 4.47402
2.05393 1.73587 4.46428
2.04304 1.7401 4.4793
2.02504 1.73711 4.47948
2.01314 1.74031 4.49253
2.00109 1.73621 4.48568
1.99021 1.74046 4.5017
1.97323 1.73852 4.50486
1.95318 1.73444 4.49907
1.94536 1.74079 4.52203
1.92428 1.73466 4.51228
1.91137 1.73684 4.52435
1.89931 1.73273 4.5165
1.88641 1.73594 4.52955
1.87859 1.74328 4.5525
1.84835 1.72785 4.52196
1.84156 1.73725 4.54887
1.81945 1.72906 4.53516
1.80655 1.73226 4.54821
1.80366 1.73748 4.56316
1.78155 1.72929 4.54944
1.76661 1.73041 4.55654
1.75165 1.73051 4.56265
1.73875 1.73269 4.57472
1.72278 1.73277 4.57884
1.70681 1.73285 4.58396
1.69678 1.7298 4.58008
1.68079 1.72883 4.58121
1.66788 1.73101 4.59328
1.65088 1.72903 4.59344
1.63697 1.7312 4.60451
1.62508 1.73643 4.61952
1.61217 1.73862 4.63159
1.59703 1.73035 4.61282
1.5872 1.73769 4.63579
1.56712 1.73155 4.62503
1.55731 1.73892 4.65
1.53209 1.72653 4.62237
1.52022 1.73179 4.63939
1.49625 1.72986 4.6436
1.47618 1.72575 4.63481
1.46226 1.7279 4.64488
1.44525 1.7259 4.64404
1.43133 1.72806 4.65411
1.41739 1.72919 4.6622
1.40041 1.72824 4.66534
1.39857 1.73554 4.68525
1.33056 1.72858 4.68487
1.31253 1.72653 4.68103
1.24784 1.73517 4.7214
1.21382 1.73117 4.71971
1.14087 1.72832 4.72731
1.08701 1.73063 4.74568
1.05402 1.72867 4.74696
0.951196 1.73008 4.77072
0.919257 1.73122 4.77894
0.880319 1.73237 4.78722
-3.30075 1.74532 3.59636
-3.36719 1.74451 3.53887
-3.41045 1.745 3.50318
-3.48781 1.75035 3.45568
-3.51611 1.74578 3.41595
-3.54433 1.74537 3.38717
-3.58156 1.74594 3.35644
-3.61583 1.74544 3.3217
-3.64602 1.74608 3.29591
-3.68524 1.74868 3.26716
-3.72041 1.75236 3.24437
-3.71958 1.74502 3.22147
-3.75368 1.75186 3.20862
-3.75781 1.74759 3.19072
-3.78685 1.75352 3.18485
-3.78205 1.74614 3.15892
-3.80423 1.7458 3.13508
-3.82724 1.7518 3.13417
-3.83833 1.75163 3.12225
-3.8375 1.7463 3.10032
-3.85546 1.75239 3.10537
-3.86058 1.74914 3.08845
-3.86671 1.74691 3.07253
-3.88773 1.75186 3.06861
-3.90179 1.75376 3.06069
-3.90991 1.75154 3.04578
-3.93192 1.75751 3.04286
-3.92612 1.74912 3.01694
-3.9421 1.75418 3.01998
-3.95915 1.75809 3.01305
-3.96428 1.75484 2.99614
-3.96146 1.7485 2.97321
-3.98745 1.75552 2.9733
-3.98164 1.74814 2.94836
-3.9857 1.74703 2.94041
-4.02959 1.76326 2.9545
-4.02378 1.75489 2.92958
-4.02195 1.74956 2.90764
-4.04794 1.75658 2.90773
-4.05109 1.7533 2.8888
-4.0592 1.7521 2.87488
-4.07418 1.75714 2.87691
-4.0634 1.74671 2.84798
-4.0735 1.74652 2.83506
-4.0985 1.75352 2.83415
-4.10264 1.75026 2.81622
-4.10278 1.74598 2.79728
-4.13078 1.755 2.79736
-4.13285 1.75287 2.78841
-4.14394 1.7537 2.77648
-4.1431 1.74839 2.75555
-4.14921 1.74717 2.74061
-4.16627 1.75006 2.73269
-4.1863 1.755 2.72777
-4.18248 1.74866 2.70483
-4.19349 1.75164 2.70287
-4.21453 1.75658 2.69796
-4.21568 1.75228 2.67802
-4.2198 1.75005 2.66209
-4.25278 1.7601 2.66419
-4.23403 1.74762 2.63223
-4.26203 1.75562 2.63132
-4.2631 1.75449 2.62234
-4.26921 1.75227 2.60742
-4.29025 1.7582 2.60149
-4.30334 1.75904 2.59057
-4.30249 1.75475 2.57063
-4.31955 1.75864 2.5627
-4.32368 1.75539 2.54577
-4.32773 1.75529 2.53881
-4.33882 1.75612 2.52687
-4.34792 1.75592 2.51294
-4.3421 1.74958 2.48999
-4.3711 1.75858 2.48908
-4.37423 1.75533 2.47215
-4.39527 1.76126 2.46622
-4.39634 1.75913 2.45725
-4.40146 1.75789 2.44131
-4.42052 1.76179 2.43339
-4.42067 1.75851 2.41444
-4.43375 1.76035 2.40351
-4.44285 1.76015 2.38958
-4.45096 1.75995 2.37564
-4.47101 1.76486 2.36872
-4.47008 1.76171 2.35876
-4.48516 1.76456 2.34783
-4.49426 1.76538 2.33488
-4.51147 1.76497 2.30701
-4.53786 1.76324 2.25623
-4.75631 1.7536 1.79896
-4.76833 1.75656 1.796
-4.77345 1.75633 1.78004
-4.78156 1.75611 1.76511
-4.8009 1.75546 1.72025
-4.80203 1.75321 1.70329
-4.81818 1.75593 1.68337
-4.81233 1.75063 1.6634
-4.82144 1.75143 1.64946
-4.83366 1.75099 1.61955
-4.82782 1.74669 1.59957
-4.83984 1.74964 1.59562
-4.85194 1.75246 1.58266
-4.84822 1.74592 1.54673
2.98303 1.73561 3.81019
2.94424 1.73604 3.83748
2.88252 1.73564 3.87596
2.8516 1.73181 3.88625
2.84069 1.733 3.89832
2.82079 1.73321 3.91147
2.80685 1.73335 3.92057
2.79493 1.73451 3.93064
2.782 1.73465 3.93974
2.76807 1.73479 3.94885
2.74411 1.7319 3.95507
2.73624 1.73616 3.97207
2.72028 1.73424 3.97722
2.70431 1.73231 3.98137
2.69745 1.7376 4.00034
2.66046 1.73064 4.00172
2.65957 1.73485 4.01567
2.64765 1.73702 4.02673
2.63067 1.73406 4.0289
2.61266 1.73108 4.02908
2.60176 1.73328 4.04213
2.57971 1.72619 4.0354
2.56779 1.72836 4.04646
2.56589 1.73155 4.05943
2.55094 1.73165 4.06554
2.53396 1.72971 4.0687
2.53116 1.7371 4.09462
2.5081 1.73101 4.08788
2.49617 1.73215 4.09695
2.48427 1.73435 4.11001
2.47425 1.73132 4.10713
2.46539 1.73559 4.12514
2.45144 1.7357 4.13224
2.42836 1.72757 4.12254
2.41747 1.73079 4.13657
2.40555 1.73296 4.14763
2.38958 1.73103 4.15178
2.38971 1.73728 4.16869
2.37476 1.73638 4.17482
2.35269 1.73028 4.16707
2.34992 1.73971 4.19596
2.32683 1.73157 4.18525
2.31899 1.73787 4.20522
2.29691 1.73075 4.19649
2.2869 1.72873 4.19459
2.28311 1.73713 4.2215
2.259 1.72896 4.2088
2.24507 1.7291 4.21791
2.22503 1.72504 4.21312
2.21718 1.72933 4.23212
2.20223 1.72944 4.23923
2.1922 1.72739 4.23533
2.1752 1.7244 4.23551
2.16329 1.72659 4.24756
2.14428 1.72357 4.24575
2.1405 1.733 4.27464
2.12046 1.72794 4.26987
2.10345 1.72494 4.26904
2.08355 1.72615 4.28218
2.05669 1.72844 4.30035
2.04173 1.72852 4.30546
2.02473 1.72655 4.30662
2.01282 1.72873 4.31868
1.98478 1.72268 4.31398
1.95894 1.72701 4.33511
1.92698 1.72411 4.34039
1.88837 1.73688 4.3905
1.85233 1.72984 4.38688
1.81729 1.7238 4.38223
1.78654 1.73129 4.41436
1.37643 1.72832 4.53451
-3.17141 1.74393 3.5084
-3.18348 1.74379 3.49849
-3.19051 1.74474 3.49453
-3.2499 1.74403 3.44398
-3.25493 1.74396 3.43901
-3.29216 1.74454 3.40928
-3.30918 1.74751 3.40637
-3.32523 1.74942 3.39946
-3.32639 1.74411 3.37854
-3.33244 1.74402 3.37259
-3.3455 1.7449 3.36367
-3.36766 1.7446 3.34284
-3.40272 1.7505 3.33402
-3.42174 1.75446 3.3311
-3.41092 1.74512 3.30815
-3.42398 1.74601 3.30024
-3.44499 1.75101 3.29932
-3.45607 1.75085 3.28841
-3.46318 1.74864 3.27349
-3.47741 1.7442 3.24366
-3.4904 1.74723 3.24471
-3.50743 1.75118 3.24078
-3.5205 1.75204 3.23087
-3.53158 1.75189 3.21995
-3.5516 1.75687 3.21803
-3.55276 1.75156 3.19711
-3.56583 1.75142 3.18721
-3.57782 1.75545 3.18824
-3.57898 1.75015 3.16833
-3.5861 1.74792 3.15241
-3.61207 1.75598 3.15549
-3.61421 1.7507 3.13658
-3.62232 1.7495 3.12266
-3.64532 1.75552 3.12274
-3.65044 1.75328 3.10681
-3.65648 1.7532 3.10086
-3.67451 1.75715 3.09693
-3.67369 1.74981 3.07403
-3.68675 1.75169 3.0651
-3.7038 1.75461 3.05919
-3.70594 1.75033 3.04026
-3.71396 1.75229 3.03729
-3.73001 1.7542 3.03039
-3.73216 1.74992 3.01146
-3.74722 1.75181 3.00355
-3.76725 1.75677 2.99962
-3.76939 1.75249 2.9807
-3.78345 1.75438 2.97278
-3.79445 1.75737 2.97182
-3.80058 1.75514 2.95589
-3.80967 1.75396 2.94298
-3.8297 1.75891 2.93905
-3.82092 1.74949 2.91112
-3.83398 1.75037 2.90221
-3.85103 1.75429 2.89628
-3.86303 1.75728 2.89532
-3.86915 1.75507 2.8804
-3.89315 1.76207 2.87948
-3.88436 1.75266 2.85255
-3.9034 1.75659 2.84663
-3.92442 1.76256 2.8437
-3.92258 1.75625 2.82278
-3.92962 1.75718 2.81782
-3.94071 1.75801 2.80589
-3.9498 1.75784 2.79396
-3.9589 1.75664 2.78004
-3.97511 1.75525 2.75318
-3.98619 1.75509 2.74226
-3.99322 1.75702 2.73729
-3.99735 1.75378 2.72036
-4.00644 1.7536 2.70843
-4.03046 1.76059 2.70651
-4.02564 1.75323 2.68258
-4.03771 1.75409 2.67266
-4.06471 1.76311 2.67273
-4.06379 1.75995 2.66176
-4.06593 1.75668 2.64383
-4.078 1.75755 2.6339
-4.08413 1.75631 2.61797
-4.0962 1.75717 2.60804
-4.11624 1.7621 2.60212
-4.11539 1.75782 2.58317
-4.12541 1.75978 2.58022
-4.14147 1.76267 2.5723
-4.14261 1.75939 2.55335
-4.14375 1.75513 2.53542
-4.15881 1.758 2.52649
-4.16194 1.75476 2.50956
-4.17502 1.75662 2.49963
-4.19307 1.76153 2.49269
-4.1822 1.75427 2.47571
-4.20523 1.76022 2.4718
-4.21233 1.75902 2.45787
-4.22243 1.75984 2.44493
-4.23451 1.76068 2.43401
-4.24559 1.76253 2.42306
-4.24475 1.75723 2.40313
-4.25377 1.76019 2.40016
-4.26287 1.75999 2.38623
-4.27395 1.76084 2.3753
-4.28206 1.76064 2.36136
-4.29712 1.76351 2.35243
-4.30424 1.7623 2.3375
-4.31034 1.76109 2.32356
-4.31639 1.76201 2.31759
-4.33857 1.76467 2.29371
-4.35477 1.76428 2.26684
-4.76033 1.75066 1.39798
-4.76438 1.75156 1.39099
-4.77161 1.75011 1.36006
-4.76975 1.74684 1.3421
-4.77686 1.74664 1.32815
-4.77499 1.74437 1.31017
-4.78509 1.74619 1.29721
4.14397 1.7071 2.33867
4.13809 1.70932 2.35368
4.12817 1.7085 2.36477
4.12429 1.71073 2.38077
4.11136 1.70889 2.39089
4.1095 1.71214 2.40786
4.10656 1.71327 2.41587
4.09966 1.71348 2.42992
4.08171 1.70958 2.43611
4.08888 1.71691 2.45895
4.08199 1.71813 2.47299
4.0741 1.71934 2.48703
4.07223 1.72259 2.504
4.06634 1.72382 2.51903
4.05837 1.72288 2.5231
4.04947 1.72308 2.53617
4.04358 1.72431 2.5512
4.03769 1.72552 2.56523
3.62634 1.72799 3.05236
2.84537 1.7344 3.72324
2.77674 1.73618 3.77273
2.72298 1.73468 3.80417
2.7061 1.73693 3.82026
2.68709 1.73293 3.81946
2.66425 1.73525 3.84061
2.65334 1.73644 3.85267
2.6224 1.73358 3.86095
2.61341 1.7316 3.86205
2.60553 1.73584 3.87804
2.58753 1.73186 3.87824
2.57461 1.73302 3.88832
2.56673 1.73626 3.90433
2.54569 1.7312 3.89957
2.53883 1.73547 3.91756
2.53388 1.73658 3.92458
2.51082 1.72948 3.91686
2.49686 1.72958 3.92296
2.49001 1.73486 3.94194
2.472 1.73086 3.94113
2.45501 1.7279 3.94331
2.44512 1.73112 3.95733
2.44017 1.73222 3.96436
2.42419 1.73027 3.96651
2.41329 1.73247 3.97956
2.39629 1.73049 3.98071
2.38233 1.72958 3.98583
2.37041 1.73075 3.99691
2.35748 1.73189 4.00599
2.34948 1.7309 4.00606
2.33858 1.7331 4.01912
2.32158 1.73011 4.01929
2.3117 1.73335 4.03532
2.3008 1.73654 4.04735
2.28075 1.73047 4.04159
2.26376 1.72851 4.04375
2.26389 1.73376 4.06067
2.24791 1.7318 4.06282
2.23497 1.73293 4.07091
2.22305 1.73409 4.08098
2.2091 1.7342 4.08808
2.18906 1.73014 4.08329
2.18222 1.73546 4.10427
2.16509 1.72722 4.08752
2.15113 1.7263 4.09264
2.14226 1.73056 4.10964
2.13136 1.73376 4.12268
2.1113 1.72767 4.11592
2.09939 1.73086 4.12797
2.0834 1.72788 4.12913
2.07745 1.72999 4.13615
2.06044 1.72699 4.13532
2.04954 1.73019 4.14835
2.03254 1.7272 4.14853
2.02367 1.73145 4.16453
2.0026 1.72533 4.15578
1.99273 1.72959 4.17279
1.96772 1.72559 4.17204
1.95071 1.72259 4.17121
1.93982 1.7268 4.18524
1.90987 1.72393 4.1925
1.8949 1.724 4.19662
1.87704 1.72728 4.21471
1.86207 1.72735 4.21882
1.8471 1.72642 4.22295
1.79419 1.72363 4.23539
1.43416 1.72679 4.36607
-2.88503 1.74348 3.55725
-2.91719 1.74519 3.53647
-2.96349 1.74263 3.49685
-3.01977 1.74411 3.45924
-3.04491 1.74486 3.44142
-3.06004 1.74362 3.42455
-3.07211 1.74348 3.41464
-3.08616 1.74439 3.40773
-3.11309 1.75354 3.4168
-3.12219 1.75236 3.40389
-3.12633 1.74809 3.38598
-3.15029 1.75517 3.39005
-3.15236 1.75304 3.3811
-3.17038 1.75601 3.37819
-3.17155 1.75068 3.35628
-3.18461 1.75057 3.34837
-3.20064 1.75351 3.34345
-3.21866 1.75748 3.34053
-3.21884 1.75014 3.31763
-3.22983 1.75316 3.31867
-3.23893 1.75198 3.30576
-3.251 1.75185 3.29685
-3.27001 1.75684 3.29492
-3.26622 1.74743 3.26802
-3.27829 1.74831 3.2591
-3.29333 1.75023 3.25319
-3.30739 1.75112 3.24528
-3.30152 1.74487 3.22832
-3.3126 1.74471 3.21741
-3.35277 1.7484 3.19465
-3.35592 1.74412 3.17574
-3.39899 1.75299 3.16493
-3.4152 1.7496 3.1381
-3.41933 1.74535 3.12119
-3.45348 1.74907 3.10039
-3.46555 1.74894 3.09148
-3.4796 1.75185 3.08454
-3.48473 1.7486 3.06763
-3.49978 1.75051 3.06071
-3.51483 1.75242 3.05379
-3.50597 1.74514 3.03583
-3.51507 1.74396 3.02292
-3.54204 1.75304 3.02699
-3.54021 1.74571 3.00508
-3.55724 1.74965 3.00015
-3.57328 1.75257 2.99422
-3.57344 1.74727 2.9743
-3.57749 1.74617 2.96735
-3.5985 1.75216 2.96542
-3.59369 1.74379 2.9405
-3.6157 1.74979 2.93958
-3.62081 1.74657 2.92466
-3.63388 1.74844 2.91573
-3.64298 1.74726 2.90282
-3.65597 1.75228 2.90384
-3.65314 1.74495 2.88192
-3.67515 1.75094 2.88
-3.68026 1.74872 2.86507
-3.68737 1.74652 2.85115
-3.69447 1.74532 2.83722
-3.71351 1.74926 2.83231
-3.71557 1.74814 2.82434
-3.7197 1.74489 2.80742
-3.73475 1.7478 2.80048
-3.74483 1.74764 2.78956
-3.7589 1.74952 2.78064
-3.76401 1.7473 2.76571
-3.77808 1.74918 2.75678
-3.77815 1.74705 2.74782
-3.79519 1.74997 2.7419
-3.80543 1.74552 2.71104
-3.82346 1.74946 2.70612
-3.82957 1.74824 2.69118
-3.84662 1.75116 2.68526
-3.86466 1.75609 2.67932
-3.86573 1.75395 2.67036
-3.86985 1.75072 2.65444
-3.87795 1.75053 2.6415
-3.88108 1.74728 2.62457
-3.89812 1.75021 2.61865
-3.91119 1.75308 2.60971
-3.91332 1.74882 2.59179
-3.91936 1.74975 2.58682
-3.9374 1.75367 2.58089
-3.94053 1.75042 2.56396
-3.94167 1.74716 2.54602
-3.9627 1.75211 2.5421
-3.96284 1.74783 2.52316
-3.97889 1.75174 2.51623
-3.98493 1.75167 2.51127
-3.99104 1.75045 2.49633
-3.99814 1.74927 2.4834
-4.00922 1.75111 2.47246
-4.02428 1.754 2.46453
-4.03636 1.75485 2.4536
-4.0424 1.75578 2.44864
-4.04652 1.75355 2.4327
-4.06755 1.75849 2.42778
-4.05973 1.75114 2.40483
-4.0748 1.75402 2.3959
-4.07594 1.74975 2.37797
-4.09199 1.75366 2.37103
-4.10008 1.75347 2.35809
-4.10314 1.75236 2.35013
-4.1192 1.75625 2.34219
-4.13625 1.76016 2.33526
-4.13241 1.75385 2.31432
-4.14847 1.75774 2.30639
-4.1506 1.75449 2.28945
-4.1587 1.7543 2.27651
-4.16275 1.7542 2.26954
-4.17383 1.75605 2.2586
-4.18989 1.75894 2.25067
-4.20596 1.76282 2.24174
-4.20112 1.7565 2.22079
-4.2122 1.75835 2.20984
-4.22726 1.76123 2.20091
-4.22534 1.75808 2.19094
-4.23344 1.75789 2.17801
-4.25249 1.7628 2.17108
-4.25461 1.76057 2.15512
-4.28695 1.76192 2.11034
-4.65111 1.75006 1.29415
-4.6564 1.74649 1.25523
-4.6665 1.7483 1.24228
-4.6726 1.7491 1.22831
-4.66674 1.74383 1.21035
-4.68102 1.74429 1.17344
3.99217 1.71658 2.36467
3.98441 1.72104 2.39567
3.97543 1.71909 2.39877
3.97155 1.72133 2.41477
3.9556 1.71845 2.42193
3.92356 1.70741 2.41833
3.91666 1.70861 2.43137
3.92183 1.71493 2.45324
3.90287 1.71002 2.45846
3.90395 1.71317 2.4684
3.89302 1.71232 2.4785
3.88513 1.71254 2.49256
3.87622 1.71272 2.50462
3.87334 1.71596 2.5206
3.86443 1.71614 2.53267
3.85451 1.71531 2.54375
3.86062 1.72152 2.55762
3.84669 1.71866 2.56677
3.84382 1.72191 2.58374
3.84195 1.72617 2.6007
3.82902 1.72431 2.60982
3.81307 1.72143 2.61699
3.8122 1.72469 2.63495
3.80222 1.72273 2.63705
3.79935 1.72598 2.65403
3.79145 1.72718 2.66707
3.78555 1.72839 2.6811
3.75279 1.72689 2.71337
3.74885 1.728 2.72039
3.7181 1.72651 2.75365
3.6239 1.72816 2.86135
3.59122 1.72981 2.90357
3.5714 1.73016 2.92672
3.55846 1.72929 2.93483
3.55149 1.72835 2.9389
3.52864 1.72767 2.95908
3.51872 1.72784 2.97016
3.5078 1.72801 2.98124
3.49301 1.73042 3.00832
2.79248 1.73568 3.6046
2.76154 1.73182 3.61289
2.75265 1.73505 3.62791
2.74769 1.73513 3.63295
2.73677 1.7363 3.64402
2.71473 1.73023 3.63827
2.69694 1.73565 3.66633
2.68196 1.73271 3.66949
2.67105 1.73489 3.68154
2.65901 1.73083 3.67669
2.65012 1.73304 3.69072
2.64224 1.73627 3.70574
2.62322 1.73226 3.70394
2.6113 1.73341 3.71401
2.59936 1.73354 3.7221
2.57933 1.72851 3.71933
2.57842 1.73169 3.73129
2.56448 1.7318 3.73839
2.54951 1.72987 3.74254
2.53758 1.73103 3.75261
2.52362 1.72911 3.75774
2.51169 1.73026 3.76682
2.50279 1.73347 3.78084
2.48974 1.72837 3.77401
2.47578 1.72747 3.78013
2.46791 1.73172 3.79613
2.457 1.7339 3.80818
2.4319 1.72473 3.79551
2.42097 1.72588 3.80557
2.41107 1.72808 3.81862
2.40105 1.72505 3.81574
2.39419 1.73033 3.83471
2.37719 1.72733 3.83388
2.36525 1.72747 3.84297
2.35232 1.72862 3.85206
2.34545 1.73387 3.86903
2.32237 1.72573 3.85832
2.32046 1.7289 3.87029
2.30549 1.72798 3.87442
2.29154 1.72809 3.88153
2.27453 1.72409 3.88071
2.26464 1.7273 3.89474
2.24966 1.72636 3.89787
2.23977 1.72857 3.91191
2.23177 1.72758 3.91199
2.21984 1.72872 3.92106
2.20893 1.7309 3.93311
2.19091 1.72689 3.93131
2.18001 1.72907 3.94336
2.16299 1.72606 3.94153
2.14802 1.72413 3.94567
2.14612 1.72932 3.95861
2.13318 1.72945 3.96671
2.12226 1.7316 3.97676
2.10628 1.72966 3.97991
2.10146 1.73802 4.00383
2.07835 1.72883 3.99014
2.06745 1.73203 4.00317
2.0564 1.72793 3.99631
2.05159 1.73631 4.02123
2.03763 1.73539 4.02635
2.02164 1.73342 4.0275
2.01278 1.73869 4.04549
1.99373 1.73362 4.03971
1.98079 1.73374 4.04781
1.96769 1.72758 4.03599
1.95883 1.73285 4.05399
1.94284 1.73088 4.05513
1.92683 1.72787 4.0543
1.91695 1.73212 4.07031
1.90095 1.72911 4.06948
1.88699 1.72921 4.07558
1.88105 1.73132 4.0826
1.86708 1.7314 4.0877
1.85311 1.73047 4.09182
1.83508 1.72643 4.08802
1.82213 1.72654 4.09511
1.78724 1.72677 4.10938
1.76034 1.72799 4.12256
1.74536 1.72703 4.12469
1.72937 1.72507 4.12684
1.63758 1.72355 4.15556
1.60168 1.72377 4.16883
-2.85018 1.7442 3.40496
-2.85422 1.74312 3.399
-2.86728 1.74401 3.39109
-2.88034 1.7449 3.38317
-2.89042 1.74376 3.37326
-2.91238 1.75083 3.37732
-2.91554 1.74554 3.35742
-2.93453 1.74955 3.35751
-2.94156 1.75051 3.35455
-2.94866 1.74831 3.34063
-2.96767 1.75231 3.33971
-2.9827 1.75425 3.3348
-2.99081 1.75205 3.32089
-2.9989 1.75088 3.30897
-3.01988 1.75692 3.31103
-3.027 1.7537 3.29613
-3.036 1.75569 3.29517
-3.05814 1.75543 3.27634
-3.06922 1.75529 3.26642
-3.10029 1.76016 3.25658
-3.10929 1.76217 3.25662
-3.1174 1.75995 3.24171
-3.12451 1.75775 3.2278
-3.12963 1.75352 3.2119
-3.14468 1.75544 3.20598
-3.14881 1.75219 3.18906
-3.15591 1.74899 3.17516
-3.17286 1.75611 3.18218
-3.17897 1.75289 3.16727
-3.18906 1.75172 3.15536
-3.20806 1.75773 3.15542
-3.21021 1.75144 3.13553
-3.21831 1.75025 3.1226
-3.23831 1.75525 3.12168
-3.23245 1.74799 3.10474
-3.24451 1.74887 3.09582
-3.26352 1.75387 3.09489
-3.26765 1.75062 3.07796
-3.27872 1.75048 3.06805
-3.29575 1.75343 3.06413
-3.29988 1.75018 3.04721
-3.30194 1.74807 3.03925
-3.31897 1.75202 3.03532
-3.33004 1.75188 3.02541
-3.33218 1.74662 3.0075
-3.35318 1.75262 3.00657
-3.36227 1.75245 2.99464
-3.3664 1.7482 2.97773
-3.3764 1.7512 2.97776
-3.38152 1.74797 2.96184
-3.39259 1.74885 2.95291
-3.40467 1.74871 2.943
-3.41077 1.7465 2.92908
-3.41986 1.74533 2.91717
-3.4359 1.74927 2.91223
-3.43201 1.74406 2.89827
-3.44606 1.74597 2.89135
-3.45415 1.74479 2.87943
-3.46226 1.74359 2.8655
-3.47431 1.74448 2.85758
-3.48738 1.74636 2.84865
-3.49753 1.74407 2.82876
-3.51158 1.74598 2.82183
-3.52465 1.74685 2.81292
-3.53176 1.74565 2.79899
-3.5468 1.74857 2.79306
-3.55092 1.74534 2.77713
-3.56299 1.74622 2.76821
-3.57108 1.74604 2.75627
-3.57612 1.74596 2.75031
-3.58621 1.7458 2.73939
-3.5943 1.74462 2.72646
-3.60339 1.74446 2.71553
-3.61545 1.74534 2.70661
-3.62554 1.74517 2.69469
-3.63562 1.74602 2.68475
-3.64662 1.74902 2.68379
-3.65273 1.74781 2.66985
-3.65685 1.74458 2.65393
-3.66693 1.74444 2.644
-3.68098 1.74733 2.63606
-3.68709 1.74513 2.62214
-3.69618 1.74496 2.61021
-3.70222 1.74589 2.60524
-3.70932 1.7447 2.59231
-3.72636 1.74862 2.58638
-3.73942 1.75051 2.57845
-3.74851 1.75034 2.56652
-3.75064 1.74609 2.5496
-3.76462 1.75213 2.55161
-3.76775 1.74888 2.53468
-3.77585 1.7477 2.52176
-3.78394 1.74753 2.50982
-3.798 1.74942 2.5019
-3.80212 1.74718 2.48596
-3.82214 1.75315 2.48302
-3.82824 1.75095 2.4691
-3.84025 1.75494 2.46813
-3.85033 1.75579 2.45719
-3.85345 1.75255 2.44126
-3.85857 1.75034 2.42633
-3.86865 1.75118 2.41539
-3.87873 1.75202 2.40445
-3.89279 1.75492 2.39651
-3.89286 1.75278 2.38755
-3.89996 1.75158 2.37361
-3.91303 1.75346 2.36468
-3.91813 1.75225 2.35074
-3.92822 1.75208 2.33882
-3.93035 1.74885 2.32288
-3.94739 1.75377 2.31693
-3.94647 1.75162 2.30696
-3.95058 1.7484 2.29203
-3.9736 1.75638 2.28909
-3.97473 1.75212 2.27216
-3.98382 1.75295 2.26021
-3.9939 1.7538 2.24927
-4.00299 1.75363 2.23734
-4.00206 1.75149 2.22836
-4.01513 1.75335 2.21843
-4.02124 1.75315 2.20448
-4.03231 1.75401 2.19455
-4.04041 1.75382 2.18161
-4.05448 1.7567 2.17268
-4.05461 1.75245 2.15574
-4.06562 1.75643 2.15376
-4.07372 1.75624 2.14082
-4.08281 1.75707 2.12888
-4.08593 1.75484 2.11293
-4.09601 1.75568 2.10199
-4.11007 1.75856 2.09306
-4.11519 1.75634 2.07812
-4.1252 1.75932 2.07616
-4.1414 1.75994 2.05027
-4.52083 1.74756 1.19819
-4.52194 1.74634 1.18321
-4.52511 1.744 1.16027
-4.52623 1.74278 1.14529
-4.54331 1.74763 1.13435
3.83467 1.70872 2.29997
3.80693 1.70824 2.33419
3.79407 1.70852 2.35228
3.79018 1.71074 2.36728
3.78227 1.71092 2.37934
3.76933 1.70905 2.38747
3.77148 1.71433 2.40638
3.75653 1.71146 2.41453
3.75359 1.71257 2.42154
3.74869 1.71378 2.43556
3.74179 1.71498 2.4486
3.73589 1.71617 2.46162
3.73302 1.71943 2.4786
3.71506 1.71551 2.48379
3.71218 1.71875 2.49977
3.70621 1.71782 2.50383
3.69931 1.71901 2.51687
3.69643 1.72225 2.53284
3.68853 1.72345 2.54589
3.6766 1.72159 2.555
3.6707 1.7238 2.56902
3.66783 1.72704 2.58499
3.66488 1.72715 2.59201
3.65395 1.7273 2.6021
3.64202 1.72545 2.61121
3.6331 1.72562 2.62228
3.6232 1.7258 2.63435
3.62032 1.72904 2.65033
3.60839 1.72818 2.65943
3.60342 1.72826 2.66447
3.5925 1.72741 2.67457
3.57669 1.7288 2.69967
2.70461 1.73603 3.48924
2.67871 1.73525 3.50345
2.66577 1.73437 3.51056
2.64189 1.73462 3.52674
2.63198 1.7358 3.5388
2.61105 1.73495 3.54797
2.59304 1.72995 3.54718
2.57219 1.73326 3.56729
2.56027 1.73342 3.57738
2.55035 1.73559 3.58842
2.53932 1.73154 3.58457
2.52636 1.73064 3.59068
2.51444 1.73179 3.60075
2.49946 1.72985 3.60389
2.49157 1.73306 3.61791
2.48065 1.73423 3.62897
2.46162 1.72919 3.62519
2.45667 1.73028 3.63121
2.44271 1.72938 3.63733
2.43178 1.73052 3.6464
2.41985 1.73166 3.65547
2.40892 1.7318 3.66456
2.39395 1.73089 3.66968
2.38201 1.731 3.67677
2.37806 1.73211 3.68379
2.36411 1.73221 3.68989
2.34811 1.72923 3.69106
2.34023 1.73246 3.70607
2.32119 1.72742 3.70229
2.31433 1.73267 3.71926
2.29834 1.72971 3.72143
2.2944 1.73284 3.72941
2.28043 1.7309 3.73355
2.26444 1.72793 3.73471
2.25454 1.73113 3.74774
2.24057 1.7302 3.75186
2.2266 1.72928 3.75698
2.2167 1.73147 3.76902
2.20566 1.7274 3.76417
2.1988 1.73369 3.78313
2.18483 1.73174 3.78626
2.17188 1.73186 3.79336
2.15589 1.7299 3.79551
2.14497 1.73106 3.80558
2.13303 1.73218 3.81365
2.12503 1.73119 3.81372
2.10904 1.72823 3.81589
2.0971 1.72936 3.82396
2.08314 1.72844 3.82908
2.0712 1.72957 3.83716
2.06333 1.73481 3.85314
2.04936 1.73389 3.85826
2.03933 1.73084 3.85438
2.02435 1.72888 3.85652
2.01445 1.73208 3.86955
2.00048 1.73115 3.87367
1.9855 1.72921 3.87681
1.9756 1.73241 3.88984
1.96264 1.73251 3.89594
1.95464 1.7315 3.89501
1.9417 1.73262 3.9031
1.93078 1.7348 3.91415
1.91377 1.73078 3.91234
1.89877 1.7288 3.91348
1.88684 1.72995 3.92255
1.87782 1.72792 3.92065
1.86488 1.72904 3.92773
1.85089 1.72708 3.92987
1.84101 1.73131 3.94488
1.82805 1.73139 3.94998
1.81205 1.72942 3.95113
1.79707 1.72746 3.95327
1.79009 1.72751 3.95632
1.77612 1.72758 3.96043
1.76114 1.72562 3.96257
1.74613 1.72363 3.96271
1.7342 1.72477 3.97179
1.7182 1.72278 3.97194
1.71442 1.7332 3.99981
1.69826 1.72291 3.98009
1.68734 1.72507 3.99014
1.67543 1.72824 4.00118
1.63045 1.72333 4.00559
1.59757 1.72458 4.02082
1.56963 1.72372 4.02905
1.55973 1.72792 4.04206
1.2125 1.72767 4.1457
1.01795 1.73268 4.2061
0.987912 1.72863 4.20138
0.980942 1.72869 4.20543
0.957152 1.73811 4.23248
0.93902 1.72987 4.21573
0.913175 1.73619 4.23584
0.895027 1.72692 4.21711
0.889096 1.73006 4.22611
-2.79497 1.74261 3.29955
-2.81811 1.74236 3.28173
-2.8281 1.74538 3.28276
-2.84015 1.74629 3.27583
-2.8613 1.74501 3.25601
-2.89416 1.75928 3.27305
-2.89928 1.75505 3.25715
-2.9163 1.75901 3.25422
-2.90549 1.74765 3.2303
-2.92448 1.75268 3.23137
-2.9486 1.75446 3.21552
-2.96562 1.75843 3.21259
-2.96975 1.75318 3.1957
-2.97389 1.74892 3.17779
-2.98388 1.75194 3.17882
-2.99594 1.75183 3.17091
-3.008 1.75272 3.16299
-3.01411 1.7495 3.14808
-3.03212 1.75449 3.14614
-3.05212 1.7595 3.14622
-3.04038 1.74499 3.11234
-3.09846 1.75787 3.10158
-3.09681 1.7432 3.05678
-3.12482 1.75019 3.05489
-3.12299 1.74285 3.03198
-3.13405 1.74274 3.02407
-3.15009 1.74668 3.01913
-3.15819 1.74449 3.00622
-3.16429 1.74229 2.9923
-3.17834 1.74421 2.98637
-3.19543 1.74503 2.97349
-3.20056 1.7418 2.95757
-3.25491 1.74314 2.91095
-3.26094 1.74408 2.90698
-3.27002 1.74293 2.89607
-3.30026 1.74248 2.8643
-3.35255 1.74694 2.82562
-3.53815 1.74392 2.61404
-3.5654 1.74345 2.58124
-3.57746 1.74432 2.57232
-3.60067 1.74493 2.54448
-3.69556 1.74425 2.42719
-3.69861 1.74415 2.42021
-3.70869 1.74399 2.40929
-3.71976 1.74586 2.40035
-3.72288 1.74263 2.38441
-3.74802 1.74638 2.36655
-3.76307 1.74929 2.35962
-3.75518 1.74306 2.34465
-3.76327 1.7429 2.33371
-3.77845 1.74255 2.30882
-3.79251 1.74544 2.30089
-3.80159 1.74528 2.28996
-3.8067 1.74408 2.27601
-3.81473 1.74502 2.27206
-3.82182 1.74485 2.26011
-3.8319 1.7457 2.24917
-3.84795 1.7496 2.24223
-3.84907 1.74637 2.22629
-3.85916 1.7472 2.21435
-3.87024 1.74806 2.20442
-3.88131 1.74992 2.19447
-3.87043 1.74269 2.1795
-3.89145 1.74864 2.17557
-3.90154 1.75049 2.16461
-3.90664 1.74828 2.15068
-3.91274 1.7471 2.13774
-3.93576 1.75507 2.1348
-3.92196 1.74367 2.10886
-3.94591 1.75378 2.11489
-3.94504 1.74953 2.09795
-3.94517 1.74528 2.08101
-3.95923 1.74915 2.07206
-3.97628 1.75306 2.06512
-3.97542 1.74881 2.04818
-3.98743 1.75279 2.04621
-3.99551 1.75363 2.03526
-3.99962 1.75141 2.02032
-4.01866 1.75734 2.01437
-4.02277 1.75513 2.00044
-4.03285 1.75698 1.98948
-4.03896 1.75577 1.97554
-4.04705 1.7566 1.96359
-4.04811 1.75448 1.95563
-4.05819 1.75633 1.94468
-4.07537 1.75698 1.92079
-4.30915 1.74871 1.41961
-4.39069 1.74874 1.21619
-4.39092 1.7443 1.18626
-4.40001 1.74511 1.17331
-4.40206 1.74501 1.16633
-4.40229 1.74157 1.13638
-4.41239 1.74338 1.12342
3.81158 1.71257 2.15406
3.82076 1.7219 2.17686
3.78275 1.70893 2.17734
3.64021 1.70991 2.37243
3.62834 1.71017 2.38951
3.62848 1.71444 2.40745
3.62259 1.71665 2.42147
3.59958 1.70866 2.42176
3.5967 1.7119 2.43773
3.59584 1.71616 2.45468
3.5839 1.7143 2.4638
3.59101 1.7215 2.47764
3.58512 1.72271 2.49167
3.57821 1.72389 2.5037
3.56527 1.72202 2.51183
3.5634 1.72527 2.5288
3.55549 1.72646 2.54084
3.53953 1.72254 2.54602
3.53557 1.72264 2.55205
3.51861 1.71872 2.55724
3.51875 1.72399 2.57516
3.51084 1.72517 2.5872
3.50192 1.72534 2.59827
3.493 1.72551 2.60934
3.48812 1.72774 2.62434
3.37509 1.72971 2.75318
2.72644 1.73472 3.33407
2.71147 1.73279 3.33822
2.70356 1.73497 3.35025
2.68961 1.73407 3.35637
2.67464 1.73114 3.36052
2.66279 1.73544 3.38055
2.62595 1.73478 3.40184
2.61098 1.73185 3.406
2.60208 1.73505 3.41902
2.59913 1.73616 3.42603
2.5712 1.73332 3.43628
2.55926 1.73345 3.44437
2.54833 1.73459 3.45344
2.53336 1.73265 3.45658
2.52646 1.73586 3.47058
2.50653 1.73401 3.47976
2.48953 1.73002 3.47995
2.48265 1.73426 3.49594
2.46767 1.73232 3.49908
2.45573 1.73243 3.50617
2.42891 1.7348 3.53034
2.40785 1.72772 3.5236
2.40098 1.73196 3.5396
2.38397 1.72796 3.53878
2.37507 1.73117 3.5528
2.3601 1.72923 3.55595
2.35918 1.73339 3.56689
2.34723 1.7335 3.57398
2.33327 1.73159 3.57912
2.31221 1.72548 3.57137
2.31242 1.7349 3.59923
2.29845 1.73397 3.60335
2.28551 1.73408 3.61044
2.27549 1.73106 3.60856
2.26557 1.73221 3.61862
2.24348 1.72407 3.60791
2.24371 1.73551 3.63774
2.19978 1.72968 3.64716
2.19482 1.73075 3.65218
2.17881 1.72776 3.65235
2.16688 1.72891 3.66142
2.1529 1.72696 3.66456
2.14604 1.73222 3.68153
2.13206 1.73027 3.68467
2.12407 1.73031 3.68673
2.11212 1.73041 3.69282
2.10425 1.73466 3.70982
2.08926 1.73269 3.71096
2.07732 1.73382 3.71903
2.06537 1.73393 3.72612
2.05039 1.73198 3.72926
2.0434 1.731 3.73033
2.03654 1.73727 3.74829
2.01546 1.72914 3.73857
2.00657 1.73336 3.75258
1.99666 1.73554 3.76462
1.98371 1.73564 3.77072
1.9677 1.73264 3.76988
1.95766 1.72857 3.76502
1.94369 1.72864 3.76912
1.93784 1.73494 3.78908
1.91879 1.72886 3.78331
1.90584 1.72896 3.78941
1.89491 1.7311 3.79846
1.88297 1.73223 3.80653
1.87292 1.72815 3.80067
1.8671 1.73549 3.82361
1.84701 1.72835 3.81286
1.83508 1.72949 3.82194
1.82008 1.7275 3.82208
1.80917 1.72967 3.83313
1.79518 1.72871 3.83525
1.79227 1.73287 3.84621
1.78033 1.73402 3.85529
1.76025 1.72687 3.84454
1.74321 1.72181 3.83974
1.7323 1.72499 3.85178
1.72035 1.72611 3.85885
1.70638 1.72517 3.86297
1.69734 1.72211 3.85809
1.68541 1.72325 3.86716
1.67348 1.72539 3.87622
1.66052 1.72547 3.88132
1.63358 1.72461 3.88953
1.62267 1.72778 3.90057
1.60068 1.72483 3.90278
1.5867 1.72388 3.9059
1.57374 1.72397 3.911
1.56384 1.72817 3.92401
1.5468 1.72411 3.9192
1.53488 1.72626 3.92926
1.52788 1.72527 3.92933
1.49991 1.72335 3.93357
1.48798 1.7255 3.94363
1.44109 1.72475 3.95799
1.42711 1.7248 3.9611
1.41314 1.72487 3.9652
1.26448 1.72463 4.01033
1.19662 1.72496 4.02984
1.18366 1.72604 4.03492
1.14975 1.72623 4.04618
-2.83208 1.74146 3.15283
-2.84909 1.74544 3.1509
-2.92548 1.74873 3.09942
-2.95578 1.74416 3.05971
-3.78166 1.74316 2.14782
-3.8585 1.74358 2.03737
-3.86559 1.7434 2.02543
-3.87168 1.74321 2.01248
-3.89389 1.74482 1.98462
-3.92015 1.74633 1.95079
-3.92227 1.7441 1.93483
-3.92233 1.74198 1.92686
-3.95032 1.752 1.92693
-3.95145 1.74876 1.91098
-3.95456 1.74754 1.89602
-3.97161 1.75145 1.88909
-3.97372 1.74923 1.87414
-3.98778 1.75312 1.86618
-3.99482 1.75505 1.86121
-3.98697 1.74775 1.84125
-3.99506 1.74758 1.82932
-4.00813 1.75046 1.82037
-4.01722 1.75128 1.80842
-4.01236 1.74601 1.79046
-4.03943 1.75389 1.78055
-4.03856 1.74963 1.7636
-4.05959 1.75657 1.75866
-4.06569 1.75639 1.74571
-4.07179 1.7562 1.73275
-4.0739 1.75398 1.7178
-4.1724 1.7531 1.51953
-4.16454 1.74682 1.50056
-4.18371 1.75049 1.47764
-4.19392 1.7491 1.45074
-4.18301 1.74291 1.43875
-4.20007 1.7488 1.43079
-4.20019 1.74557 1.41483
-4.20728 1.7464 1.40287
-4.21637 1.74822 1.39091
-4.2115 1.74297 1.37395
-4.22868 1.74563 1.35004
-4.23771 1.74857 1.34606
-4.24492 1.74716 1.31813
-4.25101 1.74698 1.30518
-4.25113 1.74475 1.29021
-4.25823 1.74557 1.27725
-4.27031 1.74841 1.2663
-4.26239 1.74324 1.25531
-4.26649 1.74305 1.24235
-4.27669 1.74266 1.21542
-4.28777 1.74551 1.20446
3.46681 1.71221 2.45271
3.46091 1.7144 2.46572
3.45099 1.71356 2.47581
3.43906 1.7117 2.48493
3.43214 1.71287 2.49597
3.42625 1.71508 2.50998
3.41732 1.71523 2.52005
3.41538 1.71635 2.52805
3.4125 1.71958 2.54302
3.40459 1.72076 2.55507
3.39265 1.71889 2.56318
3.38776 1.72211 2.57818
3.38186 1.72331 2.5912
3.38294 1.72646 2.60115
3.37704 1.72865 2.61416
3.3651 1.72678 2.62228
3.35115 1.72489 2.62942
3.32727 1.72215 2.64564
3.3264 1.7274 2.66257
3.32043 1.72646 2.66663
3.30849 1.72459 2.67475
3.29353 1.72168 2.67991
3.2977 1.73001 2.70275
3.27872 1.72506 2.70497
3.26879 1.72521 2.71504
3.26289 1.72641 2.72807
3.26297 1.72956 2.73803
3.23304 1.72373 2.74834
3.2362 1.73104 2.76921
3.21822 1.72609 2.77242
3.20147 1.73159 2.80547
3.1796 1.72986 2.82266
2.76039 1.73462 3.1938
2.74238 1.72963 3.19401
2.73346 1.73079 3.20406
2.71647 1.72681 3.20525
2.70949 1.72586 3.20832
2.70159 1.72906 3.22133
2.69772 1.73331 3.2383
2.68174 1.73037 3.24146
2.67181 1.73151 3.25052
2.66188 1.73267 3.26058
2.6459 1.72971 3.26275
2.64599 1.73389 3.27469
2.62798 1.72888 3.2739
2.61906 1.73005 3.28495
2.60712 1.73017 3.29204
2.60124 1.73441 3.30802
2.58121 1.72736 3.30427
2.57431 1.73057 3.31828
2.57138 1.73369 3.32626
2.55134 1.72765 3.3225
2.53737 1.72472 3.32665
2.53453 1.73102 3.34658
2.51651 1.727 3.34477
2.50356 1.72612 3.35188
2.49565 1.7283 3.36391
2.48665 1.72629 3.36301
2.47369 1.72539 3.36912
2.4668 1.7286 3.38313
2.45891 1.73181 3.39714
2.44392 1.72885 3.3993
2.43096 1.72895 3.4054
2.42914 1.73629 3.4283
2.41305 1.72913 3.41653
2.40718 1.73338 3.43351
2.39927 1.73657 3.44553
2.27373 1.73156 3.50756
2.25571 1.72655 3.50577
2.23972 1.72357 3.50693
2.22574 1.72263 3.51005
2.21176 1.71967 3.5122
2.21096 1.73005 3.53806
2.18889 1.72194 3.52934
2.18696 1.72509 3.53931
2.17096 1.7221 3.53947
2.16205 1.72428 3.55151
2.14808 1.72334 3.55463
2.13715 1.72449 3.5647
2.13027 1.72872 3.57969
2.1163 1.7278 3.58481
2.10526 1.72372 3.57895
2.09534 1.72589 3.59
2.08238 1.72498 3.59511
2.06636 1.72096 3.59329
2.05442 1.72209 3.60136
2.03944 1.72013 3.6035
2.02951 1.72127 3.61256
2.02557 1.72439 3.62055
2.01565 1.72656 3.63159
1.99964 1.72254 3.62977
1.98566 1.7216 3.63289
1.97372 1.72172 3.64098
1.94779 1.72087 3.65019
1.94385 1.723 3.65819
1.91996 1.72523 3.67334
1.90801 1.72533 3.67943
1.7794 1.7232 3.73244
-2.17962 1.74386 3.47692
-2.75048 1.7436 3.09817
-2.75957 1.74144 3.08727
-3.91678 1.74112 1.73381
-3.93501 1.74169 1.70393
-3.95516 1.74539 1.68303
-3.96934 1.74604 1.65912
-3.98247 1.7468 1.64221
-3.98159 1.74356 1.62625
-3.98569 1.74237 1.61329
-4.00375 1.74827 1.60534
-4.01083 1.74811 1.59439
-4.03099 1.7518 1.57249
-4.03803 1.75373 1.56751
-4.02818 1.74644 1.54854
-4.04623 1.75134 1.54061
-4.04336 1.7471 1.52464
-4.05742 1.75097 1.51569
-4.05754 1.74875 1.50072
-4.0716 1.75263 1.49177
-4.05472 1.7434 1.47678
-4.07389 1.74607 1.45388
-4.07998 1.7459 1.44193
-4.09927 1.74735 1.40404
-4.09334 1.74321 1.39506
-4.09345 1.74099 1.38009
-4.09855 1.7408 1.36713
-4.11274 1.74144 1.34223
-4.14737 1.74122 1.25848
-4.15346 1.74205 1.24651
-4.15656 1.74084 1.23255
-4.18499 1.74302 1.17572
-4.19734 1.74133 1.12883
3.38149 1.71462 2.40931
3.32695 1.71356 2.47075
3.31895 1.71158 2.47183
3.31204 1.71176 2.48389
3.30816 1.71599 2.49885
3.29534 1.71835 2.52292
3.29448 1.72362 2.54085
3.26341 1.71051 2.53228
3.28261 1.72388 2.55794
3.26463 1.71994 2.56113
3.25368 1.71805 2.56824
3.2498 1.72127 2.58323
3.24994 1.72755 2.60214
3.23699 1.72467 2.60928
3.218 1.7197 2.61049
3.21807 1.72183 2.61946
3.19807 1.71584 2.6197
3.1962 1.7211 2.63664
3.19534 1.72536 2.65459
3.17936 1.72142 2.65777
3.1795 1.7277 2.67667
3.15454 1.72179 2.68195
3.15367 1.72605 2.6989
3.14677 1.72824 2.71192
3.12575 1.72123 2.71018
3.12791 1.72854 2.73106
3.11108 1.73088 2.75315
3.09503 1.7228 2.74739
3.09417 1.72907 2.76531
3.07517 1.7231 2.76654
3.0733 1.72835 2.78348
3.06741 1.73156 2.79748
3.05546 1.72967 2.8046
3.04855 1.73185 2.81662
3.03467 1.73209 2.83172
3.02474 1.73224 2.8418
2.85881 1.73145 2.98408
2.84585 1.73055 2.99019
2.82794 1.72873 3.00135
2.8101 1.73106 3.02346
2.78822 1.73132 3.03962
2.7793 1.73147 3.04969
2.77635 1.73358 3.05668
2.75734 1.72758 3.05591
2.75246 1.7318 3.07089
2.72351 1.72693 3.07818
2.70063 1.72618 3.09436
2.69971 1.72933 3.10432
2.69281 1.73253 3.11733
2.68288 1.73267 3.12641
2.6689 1.73074 3.13054
2.65898 1.73189 3.1406
2.63592 1.72279 3.13291
2.62295 1.72187 3.13802
2.62001 1.72298 3.14502
2.61008 1.72414 3.15508
2.59611 1.7222 3.15922
2.3675 1.73308 3.3438
2.33762 1.73234 3.36004
2.33073 1.73655 3.37403
2.31372 1.73255 3.37322
2.29974 1.7296 3.37637
2.29691 1.73692 3.39729
2.27889 1.7329 3.39548
2.25872 1.71959 3.37383
2.24677 1.7197 3.38092
2.23685 1.72186 3.39096
2.17212 1.72144 3.42746
1.83162 1.7326 3.62689
1.81559 1.72857 3.62407
1.79754 1.7225 3.61829
1.79361 1.72562 3.62628
-2.56353 1.74837 3.09069
-2.6029 1.74169 3.04308
-2.61098 1.73954 3.03217
-2.65422 1.74009 3.00049
-2.68235 1.74085 2.98268
-2.69341 1.74174 2.97475
-2.7015 1.74058 2.96383
-2.71552 1.74253 2.95991
-2.72254 1.74451 2.95793
-2.72665 1.74029 2.94302
-2.74267 1.74427 2.94108
-2.76066 1.74828 2.94116
-2.77088 1.74186 2.91233
-2.77798 1.73967 2.89941
-2.785 1.74065 2.89745
-2.80101 1.74463 2.89551
-2.80512 1.74041 2.8806
-2.81816 1.74335 2.87566
-2.82724 1.74221 2.86574
-2.84127 1.74414 2.86082
-2.87154 1.74163 2.82508
-2.88558 1.74357 2.82015
-2.89763 1.74547 2.81321
-2.90868 1.74638 2.80628
-2.91479 1.74317 2.79237
-2.91684 1.74207 2.78541
-2.96519 1.74143 2.73977
-2.98724 1.74534 2.73288
-2.99036 1.7411 2.71696
-3.00042 1.74199 2.70903
-3.01049 1.74187 2.7001
-3.06387 1.74315 2.64948
-3.10002 1.74786 2.62868
-3.10421 1.74151 2.6048
-3.11924 1.74445 2.59987
-3.15142 1.74812 2.57605
-3.16964 1.7447 2.54724
-3.17375 1.74148 2.53231
-3.22211 1.74282 2.48565
-3.23323 1.74159 2.46975
-3.24329 1.74247 2.46081
-3.27052 1.74304 2.43101
-3.31894 1.74325 2.37536
-3.38762 1.74095 2.2849
-3.52294 1.74144 2.10989
-3.5644 1.74057 2.0492
-3.60686 1.7417 1.9885
-3.67654 1.7454 1.89796
-3.68363 1.74523 1.88601
-3.68275 1.74099 1.87007
-3.69382 1.74286 1.86112
-3.70091 1.74269 1.84917
-3.70395 1.7426 1.8432
-3.70805 1.74142 1.83024
-3.72422 1.7421 1.80835
-3.7323 1.74294 1.7974
-3.74237 1.7448 1.78745
-3.75543 1.74769 1.7795
-3.75648 1.74659 1.77252
-3.76457 1.74743 1.76157
-3.76468 1.74421 1.74662
-3.76978 1.74302 1.73367
-3.7908 1.74998 1.72973
-3.78594 1.74371 1.71178
-3.80299 1.74963 1.70582
-3.79707 1.74447 1.69485
-3.80814 1.74734 1.68589
-3.81423 1.74717 1.67394
-3.82629 1.75004 1.66498
-3.83438 1.75089 1.65403
-3.84246 1.75171 1.64208
-3.84955 1.75156 1.63113
-3.84961 1.75044 1.62315
-3.86167 1.75331 1.6142
-4.03461 1.74865 1.22451
-4.03882 1.74525 1.19759
-4.03993 1.74405 1.18362
-4.051 1.7469 1.17366
-4.1226 1.7438 0.961212
-4.1267 1.74361 0.948244
-4.13179 1.74444 0.936268
-4.13389 1.74323 0.9223
-4.14009 1.74185 0.896364
-4.15133 1.74239 0.864436
-4.15643 1.7432 0.851461
-4.17082 1.74244 0.799573
-4.17508 1.73994 0.765638
3.32142 1.71056 2.2678
3.31552 1.71275 2.28082
3.30262 1.71197 2.29493
3.29873 1.71418 2.30893
3.28779 1.71331 2.31702
3.28087 1.71447 2.32806
3.27396 1.71466 2.34011
3.26202 1.71378 2.34821
3.2541 1.71394 2.35827
3.26322 1.72115 2.3731
3.24322 1.71518 2.37434
3.24034 1.71841 2.38931
3.24047 1.72366 2.40624
3.22349 1.71872 2.40944
3.2206 1.72194 2.42442
3.22174 1.7282 2.44232
3.21073 1.7242 2.44146
3.20483 1.72539 2.45449
3.18799 1.72672 2.4756
3.17806 1.72586 2.48469
3.15436 1.73047 2.5248
3.14443 1.73061 2.53388
3.13651 1.73078 2.54493
3.10872 1.73121 2.57314
2.35645 1.73601 3.20383
2.31856 1.73225 3.21817
2.31461 1.73336 3.22518
2.30771 1.73655 3.23819
2.2826 1.72537 3.22454
1.98994 1.7312 3.40369
1.97799 1.7313 3.40977
1.95995 1.72524 3.405
1.95204 1.72842 3.41701
1.9411 1.72955 3.42508
1.93004 1.72445 3.41824
1.91403 1.72043 3.41642
1.90917 1.7267 3.43436
1.89213 1.72166 3.43057
1.88018 1.72175 3.43666
1.8733 1.72698 3.45163
1.85728 1.72296 3.44981
1.85535 1.7261 3.45878
1.81948 1.72638 3.47605
1.80548 1.7234 3.4772
1.7915 1.72244 3.47932
1.77853 1.72151 3.48343
1.77457 1.7236 3.48943
1.76058 1.72063 3.49058
1.74964 1.72275 3.49863
1.73769 1.72285 3.50472
1.72573 1.72293 3.50981
1.71478 1.72404 3.51688
1.70179 1.72208 3.51901
1.69786 1.72421 3.52701
1.68387 1.72324 3.52913
1.67088 1.72127 3.53025
1.65995 1.72341 3.53931
1.63501 1.72255 3.54751
1.61707 1.72268 3.55564
1.5952 1.72595 3.57276
1.58018 1.72293 3.57092
1.55932 1.72721 3.58901
1.54429 1.72316 3.58519
1.53831 1.72321 3.58823
1.51643 1.72646 3.60435
1.50143 1.72446 3.60349
1.49049 1.72559 3.61156
1.47649 1.7236 3.61169
1.46657 1.72677 3.62272
1.45855 1.72473 3.61981
1.44557 1.72378 3.62293
1.41172 1.7271 3.64314
1.39671 1.7251 3.64228
1.38475 1.72518 3.64737
1.37674 1.72316 3.64546
1.35281 1.72331 3.65464
1.34391 1.72852 3.66863
-2.21778 1.74463 3.19016
-2.22587 1.74246 3.17825
-2.69007 1.75642 2.8855
-2.70311 1.75835 2.88057
-2.68733 1.74393 2.85266
-2.70448 1.74164 2.83282
-2.72445 1.7487 2.83586
-2.7487 1.74424 2.80411
-2.7538 1.74104 2.79019
-2.76082 1.74302 2.78822
-2.77881 1.74804 2.78928
-2.77698 1.73972 2.76738
-2.79199 1.7437 2.76544
-2.81098 1.74971 2.76549
-2.81418 1.74234 2.74062
-2.8302 1.74631 2.73768
-2.85741 1.74492 2.70991
-2.87959 1.74358 2.68609
-2.88469 1.74139 2.67316
-2.90878 1.74421 2.6603
-2.93798 1.74485 2.6345
-2.96214 1.74554 2.61267
-2.99034 1.74516 2.58589
-3.01749 1.74789 2.56605
-3.18296 1.74212 2.37235
-3.37066 1.74289 2.14672
-3.38688 1.74148 2.11786
-3.44647 1.74135 2.0393
-3.45853 1.74424 2.03135
-3.4666 1.7451 2.0214
-3.46772 1.74088 2.00647
-3.47381 1.7407 1.99451
-3.49096 1.74142 1.97463
-3.49599 1.74236 1.97065
-3.4991 1.74016 1.95671
-3.50618 1.74 1.94576
-3.52022 1.74392 1.93981
-3.52632 1.74273 1.92687
-3.53439 1.74359 1.91692
-3.54744 1.7465 1.90997
-3.5495 1.7454 1.903
-3.55061 1.74217 1.88805
-3.56167 1.74406 1.88011
-3.56577 1.74287 1.86716
-3.57285 1.74272 1.85621
-3.5869 1.74662 1.84926
-3.591 1.74443 1.83632
-3.59405 1.74435 1.83034
-3.59914 1.74317 1.8184
-3.60124 1.74097 1.80444
-3.61231 1.74284 1.7955
-3.62038 1.7437 1.78554
-3.62548 1.74251 1.7726
-3.63057 1.74234 1.76064
-3.63362 1.74225 1.75466
-3.64169 1.74211 1.74472
-3.65475 1.746 1.73676
-3.66582 1.74787 1.72782
-3.66692 1.74567 1.71386
-3.67301 1.74549 1.7019
-3.68408 1.74737 1.69296
-3.69609 1.75135 1.69099
-3.6972 1.74914 1.67703
-3.70627 1.751 1.66707
-3.70738 1.74779 1.65312
-3.71845 1.75067 1.64416
-3.72653 1.75051 1.63322
-3.7356 1.75237 1.62326
-3.7407 1.75118 1.61032
-3.74275 1.75109 1.60433
-3.74884 1.75092 1.59238
-3.75393 1.74975 1.58043
-3.764 1.7526 1.57046
-3.77717 1.75327 1.54755
-4.07733 1.74138 0.731875
-4.1052 1.73968 0.616094
-4.1084 1.7383 0.590135
3.35291 1.71256 2.06651
3.33995 1.70866 2.07266
3.33403 1.70982 2.08369
3.33114 1.71303 2.09767
3.30825 1.70927 2.1129
3.31542 1.71759 2.13473
3.3024 1.71257 2.1329
3.29649 1.71375 2.14493
3.2946 1.71696 2.1589
3.28265 1.71507 2.16601
3.26769 1.71016 2.1712
3.27385 1.71946 2.19202
3.25184 1.71047 2.19132
3.25392 1.71461 2.20124
3.25203 1.71784 2.21621
3.24108 1.71595 2.22332
3.23719 1.71916 2.23731
3.23632 1.7234 2.25325
3.21833 1.71744 2.25548
3.21745 1.72168 2.27142
3.22456 1.72888 2.28526
3.2106 1.72596 2.29041
3.20267 1.72612 2.30047
3.19576 1.7273 2.31251
3.19186 1.72949 2.32551
3.18394 1.72965 2.33557
2.11169 1.73665 3.23666
1.74703 1.73454 3.41647
1.73304 1.73156 3.41762
1.71905 1.7296 3.41975
1.70505 1.72761 3.41989
1.70008 1.72868 3.42391
1.68811 1.72775 3.42801
1.67818 1.72989 3.43706
1.66826 1.73204 3.4471
1.65528 1.7311 3.45021
1.64432 1.73118 3.4553
1.63032 1.72919 3.45543
1.62232 1.72719 3.45552
1.6134 1.73036 3.46654
1.5994 1.72837 3.46668
1.58742 1.72743 3.46978
1.58259 1.73575 3.4917
1.56657 1.73172 3.48888
1.56261 1.7338 3.49388
1.55269 1.73595 3.50392
1.53666 1.73192 3.5011
1.52468 1.73098 3.50421
1.51273 1.73207 3.51028
1.50382 1.73624 3.52129
1.48879 1.73121 3.51848
1.48486 1.73534 3.52745
1.47084 1.73131 3.52461
1.45685 1.73035 3.52673
1.44795 1.73455 3.53974
1.43394 1.73154 3.53889
1.41993 1.72954 3.53802
1.41307 1.73681 3.55597
