-3.96412 1.81002 8.54431
-4.25833 1.80384 8.3846
-4.28938 1.80476 8.37782
-4.34359 1.8044 8.35123
-4.40593 1.80176 8.30573
-4.43007 1.8005 8.28693
-4.4631 1.80246 8.28315
-4.48528 1.80014 8.26035
-4.51436 1.801 8.24955
-4.53258 1.79758 8.22073
-4.54268 1.7964 8.20783
-4.57274 1.79729 8.19904
-4.60576 1.79927 8.19626
-4.62497 1.79587 8.16845
-3.45201 1.803 8.15851
-3.4781 1.80284 8.1467
-3.50713 1.8038 8.14291
-3.52929 1.80149 8.12111
-3.54234 1.80141 8.1152
-3.57138 1.80234 8.10941
-3.59747 1.80218 8.09761
-3.64475 1.79867 8.06101
-3.66493 1.79533 8.03721
-3.69102 1.79517 8.0254
-3.708 1.79723 8.0285
-3.7282 1.79386 8.0027
-3.75036 1.79156 7.9819
-3.7735 1.7893 7.9631
-3.80057 1.79019 7.95429
-3.81878 1.78678 7.92648
-3.84881 1.78773 7.92169
-3.84907 1.78124 7.88878
-3.87417 1.78105 7.87497
-3.89926 1.7809 7.86316
-3.92338 1.77968 7.84736
-3.94652 1.77843 7.82955
-3.97457 1.77934 7.82275
-4.0319 1.77573 7.77923
-4.65469 1.76668 7.412
-4.713 1.7641 7.37047
-4.76023 1.76369 7.34083
-4.78929 1.76558 7.33202
-4.80234 1.7655 7.32612
-4.82545 1.76529 7.31129
-4.84759 1.76503 7.29246
-3.86997 1.78853 7.50178
-3.88816 1.78517 7.47696
-3.91818 1.78716 7.47516
-3.9334 1.78273 7.44533
-3.96046 1.78365 7.43852
-3.98161 1.78237 7.4187
-4.00669 1.78222 7.40789
-4.01577 1.78106 7.39697
-4.04579 1.78304 7.39417
-4.06594 1.78176 7.37434
-4.08412 1.77843 7.35152
-4.11216 1.78036 7.3457
-4.1254 1.7749 7.31388
-4.13548 1.77376 7.30397
-4.15958 1.77359 7.29115
-4.18171 1.77235 7.27433
-4.20383 1.77211 7.2575
-4.22989 1.77301 7.24968
-4.24807 1.76967 7.22587
-4.27612 1.7716 7.22005
-4.29112 1.77361 7.22013
-4.30831 1.77024 7.19431
-4.3324 1.77008 7.18249
-4.35848 1.77095 7.17267
-4.37764 1.76866 7.15185
-4.39976 1.76844 7.13602
-4.42879 1.77038 7.13121
-4.4428 1.77136 7.1293
-4.46988 1.77223 7.11949
-4.49594 1.77412 7.11065
-4.51807 1.7729 7.09484
-4.54909 1.77588 7.09203
-4.57515 1.77776 7.08319
-4.59431 1.77547 7.06237
-4.60635 1.77539 7.05646
-4.62255 1.77201 7.03063
-4.6506 1.77393 7.02381
-4.6658 1.77056 6.99797
-4.71597 1.77225 6.97532
-4.747 1.77521 6.97151
-4.76713 1.77396 6.95368
-4.7772 1.77384 6.94475
-4.84456 1.77218 6.89728
-3.57164 1.78305 7.27958
-3.60065 1.78506 7.27877
-3.60677 1.78283 7.26285
-3.63184 1.7827 7.25304
-3.6569 1.7836 7.24521
-3.67311 1.77921 7.21839
-3.70014 1.78115 7.21357
-3.72423 1.78099 7.20175
-3.74436 1.77976 7.18492
-3.76134 1.78181 7.18802
-3.78147 1.77956 7.1702
-3.80457 1.77939 7.15737
-3.82176 1.77603 7.13255
-3.84287 1.77482 7.11772
-3.86401 1.77357 7.0999
-3.88611 1.77238 7.08608
-3.89618 1.77125 7.07717
-3.91237 1.7679 7.05234
-3.93645 1.76875 7.04151
-3.9487 1.76327 7.00868
-3.97771 1.76628 7.00785
-3.99981 1.76509 6.99403
-4.02192 1.76489 6.9802
-4.03298 1.76378 6.9723
-4.04818 1.7604 6.94546
-4.07917 1.76445 6.94763
-4.09634 1.76112 6.92481
-4.1214 1.76202 6.91698
-4.14055 1.76074 6.89714
-4.16463 1.76059 6.88633
-4.18476 1.75936 6.86949
-4.20272 1.76244 6.87458
-4.21891 1.75908 6.84975
-4.24595 1.76103 6.84493
-4.2641 1.75975 6.82508
-4.28226 1.75743 6.80325
-4.30733 1.75832 6.79442
-4.33042 1.75816 6.7826
-4.34048 1.75805 6.77467
-4.35666 1.7547 6.75084
-4.38371 1.75663 6.74502
-4.40087 1.75432 6.72318
-4.42396 1.75516 6.71134
-4.44706 1.75498 6.69851
-4.47212 1.75587 6.68969
-4.47725 1.75362 6.67276
-4.50627 1.7566 6.66993
-4.52047 1.75322 6.64408
-4.54751 1.75515 6.63826
-4.57951 1.75918 6.63844
-4.60062 1.75899 6.6246
-4.60674 1.75675 6.60868
-4.62883 1.75658 6.59584
-4.646 1.75426 6.574
-4.67305 1.75618 6.56718
-4.69022 1.75387 6.54534
-4.7222 1.75892 6.54751
-4.74134 1.75765 6.52867
-4.74943 1.75648 6.51674
-4.77351 1.75735 6.50691
-4.79859 1.7582 6.49608
-4.81179 1.75483 6.47023
-4.83785 1.75671 6.4614
-4.85798 1.75548 6.44456
-4.87118 1.7521 6.41871
-4.90021 1.75505 6.41389
-4.91325 1.75599 6.40897
-4.93238 1.75575 6.39211
-4.95548 1.75556 6.37829
-4.97759 1.75637 6.36444
-4.99671 1.75513 6.3476
-5.01289 1.7538 6.32474
-5.10147 1.75071 6.24744
-5.12259 1.75049 6.2316
-5.2092 1.74737 6.15229
-5.2204 1.74397 6.12542
-5.2534 1.74798 6.12461
-5.25867 1.74247 6.08973
-3.57535 1.77672 6.91965
-3.59548 1.77549 6.90282
-3.61362 1.77323 6.88499
-3.62369 1.77211 6.87608
-3.64775 1.77299 6.86725
-3.66393 1.76966 6.84441
-3.688 1.76953 6.8346
-3.71305 1.77045 6.82777
-3.73711 1.77135 6.81994
-3.75624 1.77011 6.8031
-3.76138 1.76685 6.78518
-3.78643 1.76776 6.77836
-3.80556 1.76652 6.76152
-3.82568 1.7653 6.74568
-3.84186 1.76196 6.72185
-3.85507 1.75755 6.69401
-3.88111 1.7585 6.68919
-3.89018 1.75836 6.67926
-3.91129 1.75717 6.66544
-3.93337 1.75802 6.65459
-3.9525 1.75578 6.63777
-3.9746 1.7556 6.62493
-4.00261 1.75859 6.6231
-4.01759 1.76063 6.62518
-4.03278 1.75728 6.60034
-4.05192 1.75602 6.5825
-4.074 1.75588 6.57167
-4.09314 1.75462 6.55383
-4.11522 1.75448 6.543
-4.13435 1.75324 6.52616
-4.14342 1.7521 6.51624
-4.16748 1.754 6.50839
-4.19057 1.75384 6.49657
-4.20475 1.75049 6.47272
-4.22586 1.7503 6.45888
-4.24992 1.7512 6.45105
-4.26707 1.74992 6.43119
-4.29311 1.75184 6.42536
-4.29923 1.74963 6.41044
-4.34538 1.75035 6.38977
-4.36351 1.75011 6.37291
-4.37869 1.74677 6.34907
-4.3978 1.74556 6.33423
-4.4288 1.74958 6.3344
-4.42304 1.74312 6.30345
-4.44612 1.74397 6.29261
-4.48304 1.75015 6.3028
-4.48931 1.74363 6.26794
-4.51535 1.74656 6.26209
-4.54139 1.74849 6.25626
-4.55261 1.74407 6.2274
-4.56464 1.74502 6.22348
-4.59069 1.74694 6.21665
-4.59795 1.74145 6.18378
-4.62895 1.74546 6.18295
-4.65202 1.74633 6.17311
-4.66818 1.74403 6.15226
-4.68928 1.74485 6.13941
-4.7033 1.74582 6.1365
-4.70658 1.73928 6.09962
-4.74848 1.7475 6.11281
-4.77749 1.75049 6.11099
-4.78672 1.74605 6.08112
-4.80485 1.7458 6.06326
-4.83387 1.74877 6.06043
-4.837 1.74553 6.0435
-4.85613 1.74529 6.02664
-4.88416 1.74825 6.02281
-4.89339 1.74381 5.99294
-4.92043 1.74674 5.9871
-4.94549 1.74864 5.97926
-4.95966 1.74631 5.9564
-4.96774 1.74517 5.94648
-5.00271 1.75124 5.94965
-5.00401 1.74366 5.91077
-5.03402 1.74765 5.90893
-5.05216 1.7474 5.89107
-5.06237 1.74299 5.86321
-5.0904 1.74594 5.85838
-5.10739 1.74897 5.85946
-5.11067 1.74244 5.82358
-5.13474 1.74431 5.81373
-3.62199 1.76858 6.57008
-3.64307 1.76843 6.55924
-3.66712 1.76934 6.5524
-3.67718 1.76925 6.54548
-3.69729 1.76804 6.53065
-3.72134 1.76895 6.52381
-3.73749 1.76667 6.50397
-3.75564 1.7644 6.48513
-3.77377 1.76216 6.4683
-3.79191 1.76089 6.44945
-3.80313 1.75547 6.42061
-3.81319 1.75436 6.41271
-3.83033 1.75309 6.39385
-3.8534 1.75298 6.38503
-3.87941 1.75597 6.38318
-3.89557 1.75367 6.36233
-3.91272 1.7514 6.34349
-3.93875 1.75336 6.33966
-3.93991 1.74905 6.31873
-3.96495 1.75098 6.31289
-3.99197 1.75395 6.31004
-4.00614 1.75064 6.2882
-4.02329 1.74835 6.26836
-4.05327 1.7524 6.27052
-4.06447 1.74801 6.24367
-4.08243 1.75211 6.24975
-4.11043 1.75512 6.24891
-4.11868 1.74964 6.21605
-4.13978 1.74946 6.20321
-4.17668 1.75668 6.21638
-4.19085 1.75335 6.19354
-4.21293 1.75422 6.18369
-4.22495 1.75517 6.17976
-4.24011 1.75287 6.15891
-4.25627 1.75058 6.13906
-4.28429 1.75356 6.13623
-4.29647 1.75021 6.11237
-4.31856 1.75005 6.10053
-4.34558 1.75403 6.09768
-4.34574 1.74872 6.07676
-4.36584 1.74852 6.06291
-4.39386 1.7525 6.06006
-4.40507 1.74811 6.03321
-4.43011 1.75004 6.02736
-4.45813 1.75401 6.02452
-4.46734 1.7486 5.99666
-4.47443 1.74743 5.98473
-4.50245 1.75041 5.9819
-4.51761 1.74811 5.96104
-4.53376 1.74684 5.94218
-4.56475 1.75187 5.94334
-4.57594 1.74751 5.91849
-4.59802 1.74837 5.90764
-4.61797 1.75347 5.91371
-4.6262 1.74803 5.88385
-4.64728 1.74888 5.873
-4.67036 1.74974 5.86216
-4.67859 1.7453 5.83228
-4.6977 1.74509 5.81742
-4.71978 1.74596 5.80758
-4.73593 1.74468 5.78771
-4.74103 1.74249 5.77478
-4.77004 1.74648 5.77294
-4.78222 1.74313 5.74908
-4.80035 1.74289 5.73222
-4.82737 1.74585 5.72838
-4.84253 1.74357 5.70852
-4.86263 1.74438 5.69466
-4.87863 1.74639 5.69475
-4.88883 1.74301 5.66887
-4.91488 1.74592 5.66203
-4.95013 1.74445 5.62831
-4.96825 1.74422 5.61245
-4.99233 1.74609 5.6026
-4.98256 1.73864 5.57263
-5.00861 1.74156 5.56578
-5.03564 1.7445 5.56094
-5.04385 1.74009 5.53307
-5.06594 1.74095 5.52222
-5.08605 1.74174 5.50736
-5.09723 1.73939 5.48347
-5.10431 1.73825 5.47354
-5.12342 1.73804 5.45869
-3.50555 1.75549 6.23135
-3.52268 1.75323 6.21351
-3.54869 1.75622 6.21166
-3.5668 1.75503 6.19781
-3.58295 1.75274 6.17796
-3.60797 1.75472 6.17512
-3.62018 1.75033 6.14828
-3.62528 1.74812 6.13434
-3.64636 1.74799 6.1245
-3.67765 1.74345 6.0868
-3.74795 1.7429 6.04633
-3.78616 1.74151 6.01864
-3.80624 1.74138 6.00879
-4.11282 1.73547 5.80016
-4.17522 1.73274 5.74766
-4.21835 1.7355 5.72994
-4.33507 1.73116 5.63487
-4.58972 1.72411 5.41787
-4.83431 1.72015 5.20774
-4.8745 1.7218 5.18301
-4.88269 1.71843 5.15712
-4.91171 1.72242 5.15528
-4.9308 1.72324 5.14241
-4.94198 1.71991 5.11954
-4.95698 1.7229 5.11861
-4.96617 1.71955 5.09473
-4.97634 1.71722 5.07183
-5.00237 1.72016 5.06699
-5.01354 1.71785 5.0451
-5.04951 1.72493 5.04927
-5.06067 1.72261 5.02738
-5.06676 1.72146 5.01644
-5.08188 1.72022 4.99957
-5.09206 1.71788 4.97668
-3.54913 1.75442 5.88764
-3.55719 1.75331 5.87972
-3.57135 1.75001 5.85887
-3.57958 1.74457 5.82901
-3.60064 1.74547 5.82115
-3.62172 1.74534 5.81131
-3.63093 1.73993 5.78346
-3.65001 1.73978 5.7726
-3.67009 1.74065 5.76274
-3.7818 1.73332 5.66868
-4.70542 1.71392 4.92782
-4.72253 1.71371 4.91295
-4.77286 1.7141 4.86932
-4.77794 1.71295 4.85937
-4.79504 1.71276 4.8455
-4.81115 1.71255 4.83063
-4.8233 1.71126 4.81073
-4.84636 1.71316 4.80288
-4.86149 1.71292 4.78599
-4.87562 1.71167 4.76912
-4.89471 1.71251 4.75725
-4.90376 1.71341 4.7503
-4.91789 1.71217 4.73342
-4.94095 1.71507 4.72555
-4.95409 1.7138 4.70667
-4.96722 1.71254 4.68878
-4.98333 1.71235 4.6749
-5.00441 1.7142 4.66403
-5.00552 1.71199 4.65007
-5.02164 1.71177 4.6342
-5.03974 1.71257 4.62032
-5.05387 1.71133 4.60344
-5.07594 1.71421 4.59456
-5.09702 1.71607 4.58369
-5.1042 1.71272 4.55979
-5.10828 1.71156 4.54884
-5.13631 1.71552 4.54499
-5.13655 1.71006 4.51407
-5.15266 1.70985 4.49919
-3.61812 1.74461 5.49225
-3.64722 1.74542 5.47846
-3.66234 1.7442 5.46259
-3.68736 1.74719 5.46073
-3.69358 1.74075 5.43087
-3.70376 1.73742 5.40799
-3.7179 1.73516 5.39013
-3.73286 1.73823 5.3942
-3.75391 1.73914 5.38734
-3.77794 1.7421 5.38348
-3.78713 1.73774 5.35861
-3.79929 1.73445 5.33875
-3.81935 1.73533 5.32988
-3.83447 1.73412 5.31501
-3.84662 1.73083 5.29515
-3.86061 1.73386 5.29621
-3.88166 1.73577 5.28934
-3.89678 1.73454 5.27347
-3.91685 1.73542 5.26461
-3.92999 1.73315 5.24574
-3.9362 1.72674 5.21788
-3.96319 1.73179 5.22001
-3.96432 1.72754 5.20307
-3.97547 1.72524 5.18219
-4.00445 1.7303 5.18533
-4.0156 1.72702 5.16546
-4.03469 1.72785 5.15359
-4.0498 1.72666 5.13972
-4.06392 1.72541 5.12285
-4.06901 1.72325 5.11191
-4.09304 1.72621 5.10805
-4.11112 1.72705 5.09617
-4.12425 1.72481 5.0793
-4.14135 1.72463 5.06643
-4.15944 1.72546 5.05455
-4.16056 1.72223 5.03861
-4.17271 1.71995 5.01973
-4.20987 1.72065 4.998
-4.22796 1.72149 4.98612
-4.25099 1.72445 4.98225
-4.25323 1.71798 4.95036
-4.27515 1.72314 4.96045
-4.28334 1.71979 4.93656
-4.30935 1.72378 4.93469
-4.32644 1.72361 4.92282
-4.33859 1.72133 4.90295
-4.3646 1.72532 4.90108
-4.37971 1.7251 4.8862
-4.39185 1.72285 4.86832
-4.40288 1.7238 4.86439
-4.41701 1.72255 4.84751
-4.43113 1.72233 4.83162
-4.45021 1.72318 4.82075
-4.45739 1.71883 4.79686
-4.47747 1.72069 4.78698
-4.49852 1.72259 4.77911
-4.50658 1.72249 4.77218
-4.52467 1.72333 4.7603
-4.54969 1.72729 4.75643
-4.54895 1.7198 4.72353
-4.57001 1.72168 4.71466
-4.58413 1.72045 4.69878
-4.60123 1.72127 4.68589
-4.61126 1.72222 4.68196
-4.63232 1.7241 4.67308
-4.64149 1.72079 4.6512
-4.66057 1.72264 4.64031
-4.66081 1.71618 4.60941
-4.69477 1.72328 4.61456
-4.71187 1.72408 4.60067
-4.72588 1.72608 4.59975
-4.74717 1.72151 4.56097
-4.77222 1.72544 4.5551
-4.78137 1.72315 4.5352
-4.7945 1.7219 4.51732
-4.83179 1.72136 4.4796
-4.84789 1.72217 4.46571
-4.86697 1.72302 4.45484
-4.87813 1.72173 4.43494
-4.90339 1.71923 4.40016
-4.91542 1.72118 4.39622
-4.94167 1.71871 4.36345
-4.95479 1.71847 4.34655
-4.99617 1.71676 4.29688
-5.0788 1.71657 4.2135
-3.59304 1.73782 5.23713
-3.60815 1.73661 5.22226
-3.61438 1.73018 5.1934
-3.62948 1.72899 5.17953
-3.65251 1.73094 5.17567
-3.6696 1.73078 5.1638
-3.67863 1.73172 5.15985
-3.68979 1.72842 5.13898
-3.70786 1.72829 5.12912
-3.72621 1.72062 5.08337
-3.7563 1.72248 5.07256
-3.76942 1.72024 5.05569
-3.82366 1.7218 5.02408
-3.83678 1.71958 5.0082
-3.8509 1.71835 4.99233
-3.85995 1.71827 4.9864
-4.24738 1.71075 4.66538
-4.26843 1.71266 4.65851
-4.28762 1.71031 4.63369
-4.38829 1.70906 4.54545
-4.41453 1.70761 4.51367
-4.44176 1.70617 4.48289
-4.45786 1.70599 4.47001
-4.47198 1.70576 4.45412
-4.51718 1.70839 4.42742
-4.53626 1.70926 4.41755
-4.55433 1.71112 4.40765
-4.57639 1.71402 4.39978
-4.57859 1.70862 4.37287
-4.59854 1.71373 4.37894
-4.61465 1.71353 4.36507
-4.61586 1.70812 4.33715
-4.62998 1.70791 4.32226
-4.64905 1.70977 4.31237
-4.65919 1.7075 4.29348
-4.68124 1.71041 4.2866
-4.69734 1.71123 4.27371
-4.69447 1.70698 4.25675
-4.70263 1.70367 4.23586
-4.71476 1.70343 4.21895
-4.73879 1.70637 4.21409
-4.75589 1.70819 4.20119
-4.77199 1.70801 4.18831
-4.77916 1.70469 4.16641
-4.79415 1.7087 4.16646
-4.80627 1.70747 4.15057
-4.8194 1.70723 4.13367
-4.83152 1.706 4.11778
-4.84663 1.70681 4.10388
-4.85776 1.70455 4.08599
-4.86791 1.70326 4.06608
-4.86702 1.70005 4.05212
-4.87914 1.69982 4.03622
-4.90716 1.7048 4.03335
-4.92525 1.70663 4.02146
-4.9334 1.70334 4.00157
-4.96142 1.70932 3.99869
-4.97057 1.70703 3.97879
-4.97465 1.70588 3.96884
-4.98876 1.70667 3.95393
-5.00188 1.70645 3.93803
-5.01401 1.7052 3.92114
-5.02613 1.70496 3.90423
-5.0462 1.70684 3.89535
-5.05634 1.70557 3.87644
-5.06638 1.7065 3.87151
-5.07752 1.70624 3.85359
-5.08368 1.70292 3.83168
-5.09978 1.70374 3.81879
-5.11688 1.70556 3.80589
-5.13298 1.70636 3.792
-5.14113 1.70407 3.77209
-5.15017 1.70501 3.76714
-5.1633 1.70476 3.75024
-5.17343 1.70351 3.73234
-5.18854 1.70431 3.71844
-5.19967 1.70405 3.70052
-5.2279 1.70463 3.67072
-5.23596 1.70451 3.66278
-3.60841 1.72418 4.9234
-3.62351 1.724 4.91052
-3.62958 1.72287 4.90158
-3.63578 1.71749 4.8757
-3.69915 1.7158 4.8262
-4.71538 1.69429 3.87204
-4.72849 1.69408 3.85714
-4.76793 1.69125 3.79947
-4.78104 1.69104 3.78457
-4.79514 1.69084 3.77068
-4.80826 1.69063 3.75578
-4.82752 1.68812 3.72096
-4.85663 1.69192 3.70612
-4.87589 1.68942 3.67129
-4.88603 1.68716 3.6534
-4.91226 1.68773 3.62359
-4.93034 1.68958 3.61269
-4.92744 1.68637 3.59872
-4.93956 1.68615 3.58281
-4.9638 1.6857 3.552
-4.9789 1.68651 3.5381
-4.99301 1.68731 3.52419
-5.0091 1.68813 3.5113
-5.01516 1.68803 3.50434
-5.02231 1.68674 3.48441
-5.0394 1.68757 3.47253
-5.04753 1.68631 3.4546
-5.07059 1.69021 3.44672
-5.07476 1.68689 3.4248
-5.08289 1.68563 3.40687
-5.08994 1.68653 3.39991
-5.10206 1.6863 3.38401
-5.11617 1.6871 3.3701
-5.14023 1.691 3.36222
-5.14439 1.6877 3.3413
-5.15452 1.68744 3.32338
-5.1736 1.69029 3.31248
-5.17269 1.68711 3.30051
-5.18084 1.68583 3.28159
-5.20787 1.69178 3.27671
-5.20606 1.68641 3.25177
-5.21819 1.68616 3.23486
-5.22433 1.68489 3.21592
-5.23944 1.68569 3.20202
-5.25553 1.68751 3.18912
-5.2596 1.68738 3.18015
-5.27073 1.68714 3.16323
-5.28583 1.68794 3.14933
-5.29198 1.68666 3.1304
-5.30111 1.6854 3.11248
-5.30826 1.68413 3.09355
-5.33431 1.68903 3.08567
-5.3344 1.68686 3.0747
-5.34652 1.68764 3.05878
-5.3666 1.69049 3.04789
-5.37275 1.6882 3.02797
-3.62369 1.72867 4.75343
-3.63087 1.72432 4.72954
-3.64695 1.72419 4.71967
-3.65315 1.71881 4.69379
-3.66527 1.71658 4.67791
-3.68629 1.71953 4.67403
-3.68445 1.71424 4.65409
-3.70251 1.71513 4.64621
-3.71858 1.716 4.63632
-3.73071 1.71375 4.61944
-3.74185 1.71149 4.60155
-4.5528 1.69134 3.81485
-4.60423 1.69054 3.75824
-4.63333 1.69436 3.7454
-4.63551 1.69001 3.72148
-4.65259 1.69186 3.71058
-4.66371 1.69063 3.69468
-4.67384 1.68939 3.67777
-4.68595 1.68917 3.66287
-4.694 1.68909 3.65693
-4.70313 1.68785 3.64001
-4.72319 1.69073 3.63112
-4.74127 1.69259 3.62123
-4.74742 1.6903 3.6013
-4.76549 1.69217 3.59141
-4.76866 1.68884 3.56948
-4.78267 1.69182 3.56754
-4.79678 1.69163 3.55365
-4.80392 1.69035 3.53472
-4.82 1.6912 3.52383
-4.84007 1.69406 3.51393
-4.84423 1.69076 3.49301
-4.86828 1.69569 3.48712
-4.86041 1.69041 3.46914
-4.88346 1.69433 3.46225
-4.88862 1.69203 3.44232
-4.90173 1.69182 3.42742
-4.90788 1.68953 3.4075
-4.92198 1.69035 3.39459
-4.93211 1.6891 3.37768
-4.94223 1.68887 3.36176
-4.95127 1.68979 3.35581
-4.96935 1.69164 3.34492
-4.9745 1.68935 3.32499
-4.98065 1.68707 3.30607
-5.0027 1.69097 3.29818
-5.00985 1.68969 3.27925
-5.02395 1.6905 3.26534
-5.03598 1.69245 3.2614
-5.03815 1.68912 3.23946
-5.05821 1.692 3.23057
-5.07232 1.69281 3.21666
-5.08344 1.69258 3.20075
-5.0886 1.69027 3.17982
-5.10369 1.6911 3.16792
-5.11372 1.69304 3.16296
-5.11092 1.68765 3.13702
-5.13099 1.69052 3.12713
-5.13813 1.68925 3.1092
-5.16634 1.69186 3.08137
-5.18551 1.69253 3.0585
-5.19979 1.689 3.02165
-5.24328 1.68907 2.95697
-3.62734 1.71248 4.40265
-3.66718 1.7258 4.42275
-3.69141 1.72238 4.39298
-3.70253 1.72115 4.37708
-3.71068 1.71686 4.3572
-3.72477 1.71669 4.34531
-3.73677 1.7187 4.34537
-3.74493 1.71539 4.32448
-3.76496 1.71835 4.32059
-3.78698 1.72131 4.31671
-3.78423 1.71283 4.28481
-3.79832 1.71266 4.27292
-3.82034 1.71663 4.27002
-3.83741 1.7175 4.26014
-3.82464 1.70706 4.23119
-3.83774 1.70688 4.21829
-3.85777 1.70982 4.2134
-3.87187 1.70964 4.2005
-3.88001 1.70636 4.18161
-3.89907 1.70827 4.17473
-3.91018 1.70706 4.15983
-3.91425 1.70491 4.14989
-3.92438 1.70267 4.13299
-3.9464 1.70764 4.13009
-3.95058 1.7023 4.10719
-3.96468 1.70212 4.0943
-3.97777 1.70195 4.0824
-3.99087 1.70075 4.06851
-3.99495 1.69961 4.05856
-4.01895 1.70461 4.05767
-4.0261 1.70132 4.03777
-4.03424 1.69806 4.01987
-4.05329 1.70097 4.01297
-4.07235 1.70287 4.00509
-4.06947 1.69863 3.98913
-4.0915 1.70258 3.98523
-4.0927 1.6962 3.95933
-4.11671 1.70119 3.95744
-4.12584 1.69894 3.94054
-4.13299 1.69565 3.92064
-4.158 1.70165 3.91974
-4.1561 1.69745 3.90579
-4.1702 1.69726 3.89289
-4.1974 1.6979 3.86708
-4.2095 1.6967 3.85319
-4.23153 1.70066 3.8493
-4.23371 1.6953 3.82539
-4.24979 1.69715 3.81448
-4.25585 1.69705 3.80753
-4.26994 1.69688 3.79564
-4.28303 1.6967 3.78274
-4.29713 1.69752 3.76983
-4.30824 1.69631 3.75493
-4.32531 1.69818 3.74603
-4.35827 1.70627 3.75016
-4.34149 1.69684 3.72217
-4.34863 1.69358 3.70427
-4.37662 1.7006 3.70437
-4.36987 1.69212 3.67244
-4.39687 1.69813 3.67156
-4.41891 1.70207 3.66666
-4.42406 1.69878 3.64675
-4.42415 1.6956 3.6348
-4.46408 1.70776 3.64392
-4.44042 1.69208 3.59896
-4.48034 1.70325 3.6091
-4.48351 1.69993 3.58717
-4.4827 1.69356 3.56226
-4.49978 1.69541 3.55136
-4.52172 1.70153 3.55843
-4.53185 1.7013 3.54251
-4.53104 1.69593 3.51758
-4.55209 1.69884 3.51069
-4.55525 1.69552 3.48876
-4.57134 1.69637 3.47787
-4.59934 1.70337 3.47698
-4.58452 1.695 3.45299
-4.60061 1.69585 3.44209
-4.62365 1.69978 3.43621
-4.61687 1.69235 3.40726
-4.63594 1.69523 3.39836
-4.65499 1.69812 3.39046
-4.6522 1.69172 3.36353
-4.66223 1.69367 3.35958
-4.68147 1.69221 3.32774
-4.69955 1.69407 3.31785
-4.7196 1.69797 3.30994
-4.71481 1.69057 3.28301
-4.7299 1.6924 3.2711
-4.74987 1.69746 3.27417
-4.758 1.69621 3.25725
-4.75619 1.69186 3.2333
-4.7804 1.69145 3.20448
-4.7945 1.69226 3.19157
-4.8207 1.69388 3.16474
-4.82378 1.69274 3.15478
-4.84384 1.69562 3.14589
-4.86308 1.69517 3.11504
-4.89045 1.69245 3.06528
-4.8975 1.69337 3.05931
-4.94312 1.68919 2.97771
-4.9797 1.68507 2.90104
-5.00275 1.68997 2.89314
-3.70139 1.71749 4.13009
-3.70954 1.7142 4.1102
-3.71867 1.71195 4.0933
-3.72978 1.71074 4.0784
-3.73979 1.71173 4.07746
-3.75289 1.71153 4.06356
-3.76599 1.71137 4.05166
-3.77511 1.70812 4.03478
-3.79217 1.71002 4.02687
-3.80131 1.70776 4.00897
-3.81242 1.70654 3.99407
-3.81648 1.70443 3.98614
-3.82859 1.70423 3.97223
-3.84565 1.70612 3.96433
-3.84882 1.70078 3.94143
-3.86391 1.70063 3.93054
-3.87005 1.69736 3.91163
-3.88415 1.69717 3.89874
-3.89525 1.69699 3.88582
-3.90328 1.69692 3.88089
-3.91638 1.69674 3.86799
-3.93741 1.70069 3.86408
-3.93761 1.69431 3.83818
-3.96479 1.69397 3.81438
-3.98978 1.69999 3.81448
-3.98691 1.69575 3.79852
-3.99603 1.69352 3.78262
-4.02003 1.69852 3.78173
-4.0242 1.6942 3.75982
-4.05634 1.69694 3.74102
-4.06447 1.6947 3.72411
-4.06655 1.69255 3.71416
-4.0846 1.69545 3.70625
-4.09075 1.69217 3.68734
-4.11377 1.69714 3.68444
-4.12785 1.69699 3.67355
-4.13003 1.69164 3.64964
-4.14511 1.6935 3.63972
-4.16208 1.69855 3.64278
-4.1583 1.69014 3.61487
-4.17536 1.69303 3.60696
-4.19044 1.69388 3.59605
-4.19361 1.68956 3.57414
-4.2067 1.68939 3.56224
-4.23171 1.69538 3.56034
-4.23379 1.69322 3.54938
-4.2439 1.69202 3.53548
-4.25898 1.69286 3.52458
-4.26512 1.69059 3.50565
-4.27325 1.68834 3.48875
-4.29329 1.69227 3.48284
-4.29845 1.68897 3.46292
-4.30251 1.68786 3.45497
-4.32752 1.69385 3.45307
-4.3277 1.68849 3.42915
-4.34477 1.69037 3.42024
-4.35985 1.69122 3.40934
-4.364 1.68793 3.38942
-4.37808 1.68977 3.3785
-4.38414 1.68967 3.37155
-4.38432 1.68432 3.34762
-4.41331 1.69136 3.34874
-4.41845 1.68908 3.32981
-4.42757 1.68685 3.31391
-4.44464 1.68973 3.30499
-4.45674 1.68954 3.29208
-4.4599 1.68623 3.27115
-4.458 1.68304 3.25818
-4.47009 1.68286 3.24528
-4.48319 1.68367 3.23236
-4.4943 1.68346 3.21745
-4.51137 1.68534 3.20855
-4.51055 1.68098 3.1846
-4.52364 1.68182 3.17269
-4.53566 1.68379 3.17075
-4.54478 1.68356 3.15482
-4.55588 1.68336 3.1409
-4.55804 1.67906 3.11998
-4.57627 1.67761 3.08913
-4.59136 1.67946 3.07822
-4.60835 1.68348 3.07929
-4.61349 1.68121 3.06036
-4.63951 1.68718 3.05746
-4.63769 1.68182 3.03352
-4.6478 1.68163 3.0196
-4.65791 1.68141 3.00468
-4.66902 1.6812 2.98976
-4.67706 1.68213 2.98481
-4.69016 1.68394 2.97188
-4.69231 1.68065 2.95194
-4.7064 1.68148 2.94003
-4.72049 1.68332 2.92811
-4.72961 1.68209 2.9122
-4.73674 1.68084 2.89527
-4.74279 1.68074 2.88831
-4.74395 1.67743 2.86737
-4.75008 1.67618 2.85043
-4.77909 1.68317 2.84854
-4.78622 1.68191 2.83061
-4.77941 1.67554 2.80565
-4.80047 1.67943 2.79775
-4.80552 1.67933 2.79079
-4.81664 1.67912 2.77588
-4.82774 1.67992 2.76195
-4.83586 1.67869 2.74602
-4.84398 1.67846 2.73009
-4.86007 1.68029 2.71818
-4.86023 1.67698 2.69723
-4.87225 1.67995 2.69427
-4.88535 1.68076 2.68136
-3.72157 1.71222 3.84128
-3.72969 1.70998 3.82438
-3.74576 1.71086 3.81548
-3.74199 1.70241 3.78558
-3.75607 1.70227 3.77568
-3.77005 1.70631 3.77773
-3.77123 1.69996 3.75383
-3.78234 1.69976 3.73991
-3.80435 1.70375 3.73802
-3.80157 1.69631 3.7091
-3.82061 1.69925 3.7042
-3.84262 1.70324 3.70231
-3.83974 1.699 3.68635
-3.85085 1.6978 3.67245
-3.86195 1.69662 3.65955
-3.85916 1.69022 3.63262
-3.87324 1.69006 3.62173
-3.89228 1.69299 3.61582
-3.89643 1.6897 3.5959
-3.90546 1.69066 3.59295
-3.92251 1.69257 3.58605
-3.93876 1.68909 3.55322
-3.96177 1.69408 3.55132
-3.96691 1.6898 3.53242
-3.99399 1.69366 3.52157
-4.00311 1.69243 3.50565
-4.01223 1.69121 3.49074
-4.02531 1.69106 3.47984
-4.03938 1.69292 3.46991
-4.05663 1.68846 3.4381
-4.06376 1.68721 3.42117
-4.06682 1.68508 3.41223
-4.07991 1.68591 3.40031
-4.08903 1.6847 3.3854
-4.11521 1.68536 3.36158
-4.12928 1.68622 3.35167
-4.14535 1.6881 3.34277
-4.14643 1.68594 3.3318
-4.15355 1.68371 3.31589
-4.17575 1.68332 3.28906
-4.19994 1.68397 3.26423
-4.21006 1.68276 3.24932
-4.21808 1.6847 3.24535
-4.23416 1.68557 3.23546
-4.24326 1.68537 3.22153
-4.25338 1.68415 3.20662
-4.26547 1.68498 3.1947
-4.2706 1.68172 3.17678
-4.28468 1.68357 3.16586
-4.29769 1.68656 3.16491
-4.30382 1.68431 3.14799
-4.31492 1.68412 3.13407
-4.32801 1.68496 3.12316
-4.3421 1.68579 3.11125
-4.34822 1.68355 3.09433
-4.35734 1.68333 3.0794
-4.3614 1.68222 3.07144
-4.3715 1.68202 3.05752
-4.3826 1.68183 3.0446
-4.39271 1.68163 3.03068
-4.39685 1.67935 3.01174
-4.40894 1.67918 2.99984
-4.43496 1.68616 2.99693
-4.42808 1.68092 2.98095
-4.43321 1.67867 2.96402
-4.45028 1.68053 2.95412
-4.45741 1.6793 2.93819
-4.46751 1.6791 2.92427
-4.48856 1.68301 2.91737
-4.49071 1.67973 2.89843
-4.49874 1.68067 2.89348
-4.51481 1.68353 2.88355
-4.52194 1.68228 2.86662
-4.53006 1.68107 2.8517
-4.5342 1.67879 2.83276
-4.54629 1.67962 2.82084
-4.55839 1.67944 2.80793
-4.55946 1.6783 2.79896
-4.56957 1.67809 2.78403
-4.58365 1.67994 2.77311
-4.58879 1.67767 2.75518
-4.59889 1.67747 2.74126
-4.61 1.67827 2.72733
-4.62209 1.6791 2.7154
-4.62722 1.67684 2.69747
-4.63327 1.67776 2.6915
-4.64935 1.67961 2.6806
-4.64851 1.67629 2.65964
-4.66458 1.67816 2.64973
-4.68166 1.68102 2.63981
-4.68182 1.67671 2.61888
-4.69092 1.67651 2.60495
-4.7109 1.68355 2.60699
-4.71205 1.68026 2.58705
-4.72415 1.68108 2.57412
-3.71311 1.70718 3.63627
-3.72223 1.70497 3.62137
-3.7244 1.69963 3.59846
-3.72856 1.69534 3.57855
-3.73866 1.69414 3.56464
-3.73984 1.6888 3.54173
-4.46873 1.66975 2.63038
-4.50929 1.66668 2.55672
-3.79536 1.70381 3.3379
-3.81556 1.70243 3.31106
-3.8226 1.70336 3.3061
-3.87408 1.70045 3.24253
-3.89221 1.70121 3.22565
-3.90032 1.699 3.21074
-3.90447 1.69572 3.19182
-3.92251 1.69864 3.18591
-3.93262 1.69844 3.17199
-3.93278 1.69313 3.15106
-3.95281 1.69707 3.14616
-3.94991 1.69288 3.13319
-3.962 1.69371 3.12127
-3.97508 1.69457 3.11135
-3.98617 1.6944 3.09944
-3.98335 1.68804 3.07551
-4.0014 1.69097 3.0696
-4.01348 1.6918 3.05768
-4.03154 1.69471 3.05077
-4.04055 1.69668 3.04881
-4.04965 1.69648 3.03488
-4.05479 1.69322 3.01696
-4.07085 1.69611 3.00904
-4.07599 1.69285 2.99112
-4.09204 1.69574 2.9832
-4.10123 1.6924 2.95932
-4.11132 1.69221 2.94639
-4.12158 1.68672 2.91255
-4.13863 1.69062 2.90562
-4.14277 1.68736 2.88769
-4.15287 1.68718 2.87477
-4.15991 1.68811 2.86981
-4.169 1.68792 2.85688
-4.17911 1.68772 2.84296
-4.18423 1.68549 2.82703
-4.2003 1.68737 2.81812
-4.2084 1.68716 2.80418
-4.21552 1.68493 2.78826
-4.22355 1.68688 2.7843
-4.22967 1.68465 2.76837
-4.24076 1.68548 2.75644
-4.25897 1.68408 2.7286
-4.28514 1.68777 2.70674
-4.29822 1.68862 2.69582
-4.30327 1.68852 2.68886
-4.40761 1.68196 2.51172
-4.40271 1.67776 2.49874
-3.80793 1.69674 3.13007
-3.81505 1.69451 3.11415
-3.8311 1.69742 3.10723
-3.83922 1.6962 3.0923
-3.82738 1.68689 3.07135
-3.85634 1.69597 3.07543
-3.85948 1.6927 3.0575
-3.87057 1.69253 3.04559
-3.87768 1.69131 3.03066
-3.88381 1.68808 3.01475
-3.9088 1.6951 3.01483
-3.89896 1.6878 2.99487
-3.92196 1.6938 2.99395
-3.93304 1.69464 2.98302
-3.93916 1.69241 2.9671
-3.9443 1.68915 2.94918
-3.95142 1.68693 2.93427
-3.95951 1.68675 2.92133
-3.95761 1.68257 2.90937
-3.9836 1.69059 2.90945
-3.97681 1.68218 2.88252
-3.99982 1.68817 2.8806
-4.00196 1.6839 2.86268
-4.02497 1.69089 2.86075
-4.0132 1.67944 2.83083
-4.03821 1.68643 2.82891
-4.03232 1.68121 2.81494
-4.0613 1.69026 2.81703
-4.05947 1.68494 2.79509
-4.07652 1.68785 2.78817
-4.08065 1.6846 2.77125
-4.09273 1.68644 2.76031
-4.08791 1.67909 2.73638
-4.1039 1.68413 2.73843
-4.10206 1.6788 2.71649
-4.12905 1.68683 2.71758
-4.12224 1.67946 2.69263
-4.13945 1.67806 2.66478
-4.17142 1.68814 2.66887
-4.14863 1.67572 2.64188
-4.16568 1.67863 2.63496
-4.1897 1.6856 2.63204
-4.18587 1.67926 2.6091
-4.20192 1.68217 2.60218
-4.216 1.68503 2.59224
-4.20521 1.67561 2.56429
-4.23313 1.68578 2.57436
-4.21538 1.67329 2.5424
-4.23641 1.67923 2.53747
-3.76132 1.686 2.94685
-3.78035 1.68994 2.94193
-3.79143 1.69079 2.931
-3.79579 1.68009 2.88419
-3.85228 1.68017 2.8196
4.59323 -0.716738 21.429
4.63637 -0.727608 21.9799
4.67963 -0.738241 22.5468
4.72304 -0.748579 23.1338
4.77493 -0.760959 23.7856
4.35082 -0.537906 18.4348
4.43278 -0.553311 19.6266
4.50585 -0.564442 20.5663
3.77571 -0.394282 11.496
4.16932 -0.431442 16.3643
4.1948 -0.433573 16.6942
4.4457 -0.457643 19.7391
4.48015 -0.46187 20.1979
4.62054 -0.474564 21.8453
4.21751 -0.30139 16.9091
4.23894 -0.301637 17.231
4.26766 -0.301297 17.5928
4.29645 -0.301823 17.9636
4.33669 -0.30147 18.3944
4.50914 -0.302191 20.4464
3.7656 -0.237631 11.2008
3.77372 -0.23743 11.3497
3.78495 -0.236024 11.5126
3.79414 -0.235691 11.6706
3.80846 -0.235095 11.8465
3.85112 -0.231929 12.3322
3.85942 -0.231373 12.5051
3.87081 -0.230657 12.6891
3.89045 -0.229443 12.9069
3.90601 -0.228374 13.1148
3.92265 -0.227157 13.3327
3.9708 -0.226002 13.7504
3.98241 -0.224841 13.9643
4.00021 -0.223315 14.2032
4.02425 -0.222319 14.474
4.03803 -0.22082 14.7109
4.05802 -0.219925 14.9748
4.08014 -0.218764 15.2567
4.21441 -0.211678 16.7538
4.23376 -0.210072 17.0656
4.25835 -0.207996 17.4095
3.78278 -0.150462 11.4824
3.79093 -0.148202 11.6353
3.80011 -0.146898 11.7912
3.87465 -0.136084 12.6596
3.89527 -0.133916 12.8745
3.90877 -0.131979 13.0734
3.92126 -0.129056 13.2713
3.93689 -0.126868 13.4871
4.00485 -0.119159 14.1456
4.04258 -0.113842 14.6413
4.06256 -0.109977 14.9031
4.08565 -0.106877 15.181
4.10058 -0.104097 15.4368
4.12376 -0.100819 15.7267
4.15114 -0.0971595 16.0424
4.25418 -0.0834497 17.2426
4.35505 -0.0681095 18.5528
3.75375 -0.0965042 11.2078
3.76598 -0.0930996 11.3706
3.80537 -0.0884341 11.6873
3.81561 -0.0859983 11.8522
3.82691 -0.0834595 12.0241
3.8372 -0.0799349 12.195
3.8465 -0.0773799 12.3679
3.90476 -0.0680412 12.9334
3.91727 -0.0650887 13.1333
3.9298 -0.0620918 13.3362
3.94338 -0.0579921 13.5461
3.95803 -0.0547598 13.765
4.03341 -0.0432419 14.4783
4.05234 -0.0384649 14.7341
4.06824 -0.0347301 14.987
4.09243 -0.0304534 15.2768
4.1053 -0.0257757 15.5257
4.13062 -0.0212481 15.8324
4.2347 -0.00146568 17.0375
4.25411 0.00425863 17.3573
4.28702 0.00996537 17.7441
4.32518 0.017142 18.1627
4.36344 0.0245259 18.5954
3.79803 -0.00623817 11.7672
3.90667 0.0216211 13.0451
3.91711 0.0264416 13.236
4.05838 0.0634447 14.8626
4.07837 0.0693393 15.1264
4.09741 0.0753382 15.3972
4.11546 0.0813526 15.669
4.13974 0.0878215 15.9718
4.16202 0.0952769 16.2735
4.22338 0.107806 16.852
4.24173 0.115397 17.1628
4.34667 0.141897 18.3487
4.79525 0.269231 23.9943
3.82244 0.08037 12.0787
3.83889 0.0852009 12.2706
3.93981 0.119658 13.4535
3.95237 0.125714 13.6603
3.96808 0.132049 13.8861
3.98899 0.138795 14.1399
4.08664 0.167737 15.1529
4.10468 0.175737 15.4237
4.12482 0.183927 15.7074
4.14915 0.19247 16.0152
4.17147 0.201014 16.3229
4.19075 0.210471 16.6247
4.25231 0.227384 17.229
4.41447 0.285042 19.2382
4.44571 0.297386 19.6679
3.7696 0.142835 11.2971
3.77874 0.148064 11.448
3.78893 0.154396 11.6058
3.79815 0.159773 11.7667
3.86436 0.183956 12.4569
3.87574 0.190657 12.6398
3.89431 0.197723 12.8476
3.90986 0.204747 13.0524
3.92133 0.211626 13.2472
3.93796 0.219812 13.463
3.98406 0.233863 13.8735
4.00594 0.242549 14.1232
4.02274 0.25106 14.361
4.04264 0.260777 14.6128
4.06467 0.269743 14.8815
4.08159 0.278507 15.1363
4.09754 0.288315 15.394
4.2256 0.339927 16.8585
4.24186 0.350342 17.1573
3.77441 0.204381 11.2662
3.80096 0.218366 11.6038
3.81528 0.224931 11.7776
3.91892 0.276777 13.0542
4.36579 0.501576 18.5953
3.77435 0.276166 11.2511
3.78758 0.283569 11.4139
3.80901 0.298306 11.7346
3.82027 0.30577 11.9014
3.83155 0.314279 12.0712
3.899 0.346918 12.7923
3.91453 0.356898 12.9941
3.93315 0.366067 13.2088
3.94363 0.375946 13.4036
3.85507 0.409124 12.2637
3.98731 0.49401 13.8816
4.37555 0.754695 18.8045
3.781 0.502143 11.3157
3.79323 0.512532 11.4775
3.89243 0.590475 12.6927
3.90797 0.603483 12.8965
4.26237 0.895562 17.4391
4.29327 0.920209 17.8216
4.36977 0.984837 18.8122
3.81974 0.61433 11.8018
3.83 0.625779 11.9676
4.60536 1.30178 21.5171
4.63605 1.33598 22.0044
4.46775 1.30203 19.9749
4.67244 1.49041 22.4389
3.77342 0.722703 11.2165
3.7846 0.736004 11.3722
4.08796 1.04421 15.1109
4.09671 1.06262 15.3416
4.10961 1.08333 15.5922
4.16974 1.12835 16.1362
4.19105 1.15385 16.4407
4.21137 1.17936 16.7462
4.24205 1.20858 17.0996
4.27284 1.23902 17.4679
4.29231 1.26583 17.7934
4.3667 1.34722 18.7678
4.50284 1.46888 20.2352
4.5374 1.50781 20.7044
3.70889 0.729819 10.6138
3.96486 0.993506 13.6404
3.97133 1.01039 13.8351
4.01963 1.04879 14.2692
4.03958 1.07058 14.5258
4.05543 1.09218 14.7694
4.07651 1.11623 15.0439
4.09761 1.14032 15.3204
4.11567 1.16433 15.592
4.14309 1.19205 15.9114
4.37822 1.43714 18.6944
3.81879 0.915031 11.7794
3.84292 0.953111 12.1907
4.06556 1.20825 14.9086
4.08764 1.2333 15.1831
4.10773 1.25936 15.4576
4.13198 1.28773 15.754
4.1532 1.31505 16.0465
4.1755 1.34352 16.349
4.19891 1.37323 16.6674
4.39037 1.57822 18.8342
3.72247 0.890709 10.8083
4.08642 1.32174 15.1448
4.1065 1.3498 15.4193
4.15204 1.40862 16.0161
4.17747 1.44133 16.3355
4.51977 1.85417 20.4554
3.96936 1.27609 13.8132
3.98509 1.30044 14.0397
4.01422 1.32959 14.3211
4.04133 1.35969 14.5985
4.05925 1.38642 14.851
4.08133 1.41546 15.1244
4.09524 1.44118 15.376
3.91943 1.2964 13.1562
3.93609 1.32063 13.3747
3.95793 1.34819 13.6162
3.97673 1.37468 13.8527
3.99144 1.399 14.0772
4.02472 1.43343 14.3775
3.96684 1.43488 13.5948
4.00236 1.48972 14.0578
4.02429 1.51946 14.3112
3.699 1.14154 10.4567
3.70499 1.15746 10.5865
3.86135 1.37436 12.3403
3.87376 1.39709 12.5249
3.89237 1.42323 12.7374
3.90483 1.44704 12.928
3.92043 1.47316 13.1385
3.93605 1.4993 13.3511
3.95893 1.52995 13.5985
3.14428 0.357197 3.52757
3.13999 0.366576 3.62048
3.15422 0.37101 3.65031
3.15542 0.374408 3.67726
3.70613 1.21369 10.4666
3.7213 1.23396 10.6202
3.71808 1.24647 10.7221
3.7908 1.3605 11.604
3.80717 1.38315 11.7835
3.82051 1.40676 11.9601
3.84931 1.45418 12.3272
3.86479 1.47906 12.5218
3.12471 0.3621 3.31762
3.12002 0.365711 3.35861
3.12322 0.369108 3.38554
3.12634 0.370328 3.4005
3.1235 0.37264 3.42149
3.12671 0.376052 3.44942
3.13294 0.379506 3.48032
3.14875 0.393063 3.58602
3.15458 0.405672 3.6948
3.1568 0.408099 3.72375
3.56842 1.05498 8.79278
3.62639 1.15955 9.5759
3.65025 1.17522 9.6895
3.65511 1.18989 9.80227
3.65384 1.20229 9.8971
3.66283 1.22021 10.0268
3.68592 1.25728 10.3021
3.70372 1.27182 10.4068
3.72197 1.29323 10.5703
3.78234 1.40558 11.4063
3.80794 1.45162 11.7475
3.82435 1.47635 11.932
3.52239 1.01517 8.12862
3.5898 1.14753 9.10029
3.59559 1.16206 9.20404
3.60751 1.17884 9.32472
3.61232 1.19341 9.43048
3.63113 1.22591 9.66789
3.65373 1.25601 9.87731
3.66166 1.27282 10
3.67065 1.29074 10.1297
3.68678 1.31091 10.2773
3.69376 1.32882 10.406
3.70586 1.34895 10.5506
3.71491 1.36799 10.6883
3.83834 1.56017 12.0547
3.10782 0.404301 3.19511
3.11404 0.407726 3.22401
3.12023 0.427044 3.3807
3.12784 0.437222 3.4605
3.14426 0.445039 3.51627
3.48165 1.00784 7.63197
3.52455 1.09933 8.27438
3.54351 1.1182 8.40097
3.55023 1.13158 8.49474
3.55698 1.14503 8.5925
3.57629 1.17057 8.765
3.59972 1.21628 9.08319
3.60961 1.233 9.19989
3.61237 1.24746 9.29867
3.65964 1.32873 9.85818
3.66759 1.34658 9.98388
3.72952 1.46005 10.7598
3.11819 0.441986 3.24148
3.11735 0.445297 3.26244
3.11543 0.446446 3.27243
3.11678 0.452126 3.31835
3.11914 0.457834 3.36625
3.13345 0.464416 3.40605
3.12555 0.464629 3.42011
3.13583 0.470154 3.45596
3.13693 0.47236 3.46992
3.42511 0.97698 7.03177
3.42885 0.990412 7.12855
3.47684 1.06913 7.6511
3.48753 1.08247 7.74183
3.49215 1.09466 7.82263
3.49675 1.10684 7.90243
3.50646 1.12021 7.99517
3.50805 1.13135 8.072
3.51576 1.14572 8.16474
3.53032 1.1568 8.23848
3.53701 1.17114 8.32923
3.54575 1.18557 8.42596
3.55248 1.19999 8.52171
3.55312 1.21222 8.60454
3.56495 1.22883 8.71422
3.56457 1.24003 8.79507
3.58122 1.25428 8.87974
3.59311 1.272 8.99641
3.60295 1.28864 9.1071
3.61558 1.32078 9.31956
3.62751 1.33859 9.44222
3.63539 1.35628 9.55692
3.69484 1.46483 10.271
3.70384 1.48476 10.4016
3.12354 0.46963 3.28503
3.1207 0.471943 3.30602
3.12793 0.476397 3.33691
3.13132 0.483149 3.38779
3.13517 0.497788 3.49856
3.14968 0.507783 3.56631
3.14391 0.511232 3.59631
3.1657 0.526754 3.69993
3.17015 0.534609 3.75778
3.4358 1.04621 7.24969
3.45714 1.0738 7.42515
3.46376 1.08599 7.50593
3.46936 1.09817 7.58572
3.48848 1.12133 7.73225
3.50385 1.14797 7.91076
3.50337 1.15899 7.97961
3.51778 1.18671 8.16412
3.52929 1.19768 8.22988
3.54109 1.21423 8.33456
3.55249 1.24195 8.51909
3.55823 1.25737 8.61483
3.56804 1.27395 8.72153
3.5687 1.28723 8.80834
3.59999 1.33365 9.10746
3.61393 1.35347 9.23108
3.61874 1.37004 9.33681
3.62458 1.38666 9.44653
3.63349 1.40541 9.5652
3.66811 1.45848 9.90821
3.70017 1.5214 10.3091
3.12329 0.499109 3.24959
3.12649 0.503491 3.27551
3.12464 0.505789 3.29549
3.13289 0.510256 3.32737
3.12903 0.51254 3.34636
3.13719 0.516844 3.36724
3.13636 0.519171 3.38922
3.12644 0.519341 3.40029
3.13911 0.532619 3.48701
3.36429 0.949609 6.26152
3.40865 1.04004 6.83193
3.42737 1.05541 6.92557
3.42478 1.06322 6.97949
3.42321 1.07206 7.03637
3.43485 1.08629 7.12009
3.43533 1.09523 7.18296
3.45106 1.11162 7.27761
3.47111 1.15358 7.54588
3.47977 1.16786 7.63261
3.48945 1.18217 7.72134
3.49304 1.19433 7.79914
3.52815 1.26033 8.20596
3.53382 1.27463 8.29372
3.54155 1.29003 8.38844
3.56653 1.33187 8.64867
3.58005 1.36381 8.84712
3.58684 1.38033 8.94984
3.59362 1.39785 9.05255
3.14529 0.63484 3.50145
3.53038 1.40855 8.35477
3.53405 1.42285 8.44254
3.54856 1.45577 8.63997
3.13107 0.677372 3.46893
3.34001 1.1039 6.0764
3.3558 1.12241 6.17902
3.35618 1.13117 6.22989
3.3858 1.18922 6.57186
3.39334 1.20226 6.64262
3.39173 1.21002 6.69352
3.39725 1.22202 6.76131
3.40276 1.23401 6.8281
3.42116 1.26571 7.01152
3.42774 1.27882 7.08629
3.42921 1.28973 7.14812
3.43681 1.3029 7.22688
3.44491 1.32802 7.37047
3.45253 1.34221 7.45121
3.46806 1.35422 7.51993
3.47466 1.36839 7.59868
3.47112 1.37829 7.65957
3.47572 1.39244 7.73733
3.48237 1.40669 7.82208
3.49569 1.43724 7.99455
3.51634 1.45349 8.07917
3.52098 1.46772 8.16294
3.52767 1.48307 8.25367
3.53236 1.49939 8.34341
3.10804 0.677375 3.19806
3.11225 0.681786 3.22597
3.12229 0.703805 3.36259
3.12587 0.715912 3.43739
3.26604 1.00537 5.16029
3.26938 1.01302 5.20415
3.29107 1.05229 5.42544
3.29545 1.06102 5.47529
3.3176 1.11116 5.75541
3.32403 1.121 5.81223
3.3315 1.1319 5.87302
3.33084 1.13956 5.91792
3.33325 1.14934 5.97076
3.34635 1.17548 6.1153
3.34777 1.18428 6.16916
3.3721 1.23979 6.4742
3.38856 1.25066 6.53392
3.39203 1.26258 6.59573
3.38943 1.27135 6.64763
3.39596 1.28336 6.71641
3.40046 1.29533 6.78221
3.40295 1.30628 6.84603
3.41559 1.32251 6.92971
3.4209 1.33012 6.97056
3.42544 1.34215 7.04036
3.42693 1.35409 7.10418
3.44215 1.38345 7.26365
3.45282 1.39974 7.35134
3.45026 1.40959 7.40823
3.47188 1.42578 7.48983
3.47342 1.43782 7.55965
3.47396 1.45087 7.63047
3.48263 1.46716 7.71817
3.48928 1.48241 7.80291
3.49752 1.5118 7.96443
3.11706 0.733317 3.32918
3.2297 0.973853 4.71897
3.23604 0.981514 4.76381
3.24164 0.995664 4.84157
3.24496 1.00328 4.88344
3.25375 1.02181 4.98711
3.26445 1.03917 5.07879
3.282 1.07516 5.28115
3.27928 1.08169 5.31708
3.29885 1.09679 5.39172
3.30119 1.10444 5.43559
3.29948 1.11101 5.47451
3.29879 1.11761 5.51443
3.30318 1.12736 5.56526
3.30131 1.13061 5.58223
3.31178 1.14152 5.64399
3.32024 1.1534 5.70376
3.32464 1.16317 5.75559
3.32702 1.1719 5.80545
3.33042 1.18167 5.85729
3.34294 1.19467 5.92501
3.34819 1.20115 5.95788
3.34755 1.20885 6.00478
3.354 1.21971 6.06358
3.35234 1.22838 6.10847
3.34866 1.235 6.1504
3.36122 1.24908 6.22311
3.36385 1.26429 6.30488
3.3744 1.27834 6.3766
3.38191 1.29033 6.44337
3.39043 1.30334 6.51213
3.39085 1.31414 6.56597
3.3923 1.32401 6.62482
3.39373 1.33484 6.68066
3.41978 1.36186 6.81808
3.42328 1.37384 6.88389
3.42881 1.38685 6.95266
3.42012 1.39346 6.99363
3.45329 1.44764 7.27662
3.46343 1.47584 7.42515
3.1079 0.750012 3.17298
3.11539 0.760953 3.23677
3.11556 0.765293 3.25971
3.11473 0.768619 3.28167
3.11995 0.774044 3.31056
3.12517 0.779469 3.33944
3.12149 0.785093 3.38139
3.13993 0.796923 3.43808
3.14416 0.802363 3.46798
3.15227 0.827517 3.61356
3.14237 0.827716 3.62664
3.20491 0.936471 4.21964
3.20717 0.941972 4.25354
3.20742 0.947445 4.28547
3.2036 0.951803 4.30943
3.20183 0.956248 4.33938
3.21813 0.964813 4.37814
3.21356 0.974659 4.43504
3.22089 0.98329 4.47786
3.2262 0.990892 4.51871
3.21533 0.992152 4.53578
3.22369 1.00183 4.58158
3.23824 1.01589 4.65427
3.23649 1.02137 4.68621
3.24384 1.03004 4.73203
3.2431 1.03655 4.76594
3.24133 1.04201 4.79688
3.24669 1.05068 4.84272
3.26012 1.06152 4.89946
3.26966 1.07555 4.96919
3.26084 1.07891 4.99321
3.2753 1.09078 5.05294
3.2756 1.09836 5.09183
3.27589 1.10494 5.13073
3.27317 1.11147 5.16666
3.28649 1.12008 5.20844
3.28679 1.12766 5.24733
3.2871 1.13427 5.28824
3.29654 1.14612 5.346
3.29382 1.15265 5.38193
3.29819 1.16237 5.43076
3.3127 1.17535 5.49747
3.3068 1.17753 5.50948
3.31727 1.18944 5.57123
3.31997 1.20679 5.66197
3.32336 1.21655 5.71381
3.33183 1.22845 5.77457
3.32507 1.23393 5.80655
3.34387 1.25445 5.91012
3.35375 1.27715 6.02472
3.35755 1.2967 6.12942
3.35998 1.30752 6.18525
3.37478 1.32806 6.28985
3.3827 1.35083 6.40947
3.39064 1.37465 6.53207
3.4002 1.38973 6.60579
3.42759 1.45133 6.91671
3.45564 1.52921 7.3144
3.12032 0.836688 3.35363
3.12793 0.851851 3.43236
3.15001 0.901873 3.70449
3.15021 0.906257 3.73043
3.15789 0.923568 3.81913
3.18282 0.971291 4.07127
3.18102 0.975677 4.09722
3.18832 0.984248 4.13604
3.20095 1.02439 4.34838
3.20648 1.03742 4.41816
3.20977 1.04498 4.45603
3.22051 1.06441 4.55267
3.23739 1.11203 4.79787
3.24272 1.12066 4.84071
3.2521 1.1314 4.89049
3.25846 1.16602 5.06795
3.26583 1.17573 5.11576
3.27383 1.20165 5.24533
3.28224 1.21244 5.29912
3.29385 1.22861 5.3788
3.28709 1.23408 5.40978
3.29552 1.2459 5.46555
3.308 1.25982 5.52825
3.30257 1.27293 5.60311
3.30899 1.28474 5.6579
3.32032 1.29437 5.70068
3.31763 1.30196 5.74059
3.32405 1.31279 5.79639
3.32644 1.32352 5.84622
3.3339 1.33542 5.90699
3.33629 1.34616 5.95682
3.33665 1.35487 6.0047
3.3541 1.36771 6.06238
3.35141 1.37632 6.10328
3.34571 1.3829 6.14223
3.35827 1.39899 6.21591
3.36373 1.41087 6.2757
3.36616 1.4227 6.33152
3.37265 1.43564 6.39529
3.39298 1.4722 6.56861
3.12134 0.859716 3.22027
3.12756 0.86514 3.24914
3.12773 0.86948 3.27208
3.13388 0.873756 3.29097
3.13625 0.882479 3.33983
3.14166 0.892259 3.39265
3.13982 0.896571 3.41361
3.14937 0.910629 3.48534
3.15398 0.925809 3.56509
3.15619 0.931221 3.593
3.15134 0.933506 3.612
3.15759 0.939989 3.64486
3.16495 0.949679 3.69167
3.16718 0.956121 3.72156
3.16859 0.965918 3.77541
3.16274 0.968204 3.79443
3.16799 0.975688 3.82728
3.17011 0.978923 3.84322
3.16932 0.983323 3.87016
3.17964 0.992936 3.91195
3.17682 0.996293 3.93592
3.17804 1.00172 3.96484
3.19038 1.01236 4.00859
3.18454 1.01568 4.02959
3.18668 1.01894 4.04753
3.19498 1.02753 4.08735
3.18814 1.02983 4.10737
3.19038 1.0363 4.13926
3.20274 1.04699 4.18601
3.19792 1.05134 4.20999
3.20422 1.05892 4.24883
3.21142 1.0653 4.27469
3.2066 1.06864 4.29768
3.21595 1.07831 4.34347
3.21947 1.09232 4.41125
3.22274 1.09985 4.44712
3.22604 1.10741 4.48498
3.22515 1.10963 4.49996
3.2254 1.11612 4.53287
3.23274 1.12576 4.57667
3.22895 1.13118 4.60463
3.23731 1.14087 4.65143
3.23454 1.14631 4.68137
3.23482 1.15384 4.71726
3.24406 1.16031 4.7491
3.25141 1.17099 4.7949
3.25474 1.1796 4.83675
3.255 1.18612 4.87165
3.25427 1.19264 4.90657
3.25282 1.20671 4.97838
3.27018 1.21839 5.02508
3.26237 1.22176 5.0501
3.27584 1.23566 5.1108
3.27919 1.24533 5.15664
3.27543 1.25081 5.18859
3.28486 1.26363 5.24433
3.28922 1.27332 5.29116
3.30219 1.30018 5.41669
3.31062 1.312 5.47246
3.31196 1.32066 5.51732
3.31027 1.32927 5.55821
3.30857 1.33685 5.59712
3.32836 1.35936 5.69965
3.3287 1.36902 5.74451
3.34194 1.40341 5.90593
3.33928 1.41206 5.94982
3.35366 1.42379 5.99955
3.35405 1.43353 6.04941
3.12854 0.903046 3.24257
3.17253 1.00673 3.76278
3.18578 1.04015 3.92621
3.18408 1.04673 3.96513
3.18833 1.05421 3.99799
3.18978 1.06608 4.05681
3.19404 1.07258 4.09069
3.20157 1.0876 4.15942
3.22999 1.15325 4.47428
3.2315 1.16724 4.54107
3.23581 1.17483 4.58093
3.23101 1.18022 4.60689
3.24556 1.19627 4.67855
3.23874 1.19963 4.70255
3.25013 1.21138 4.7533
3.25344 1.22098 4.79414
3.24865 1.22538 4.82111
3.24488 1.23083 4.85107
3.25312 1.23828 4.8819
3.27421 1.27038 5.02428
3.28189 1.28868 5.11197
3.28218 1.29624 5.14986
3.2874 1.30366 5.17871
3.29104 1.3209 5.26244
3.29134 1.32948 5.30132
3.11421 0.934372 3.19621
3.11271 0.946349 3.26205
3.12636 0.964581 3.34569
3.12141 0.964689 3.35273
3.1248 0.97544 3.40355
3.12599 0.979809 3.42848
3.12819 0.985192 3.45439
3.13545 0.993689 3.48821
3.13977 1.00231 3.53006
3.14299 1.00772 3.55796
3.14015 1.01205 3.57992
3.1466 1.0239 3.6377
3.15821 1.04107 3.71737
3.15033 1.04332 3.7334
3.20359 1.16251 4.28831
3.19978 1.16687 4.31228
3.21103 1.17535 4.34507
3.20419 1.17867 4.36608
3.21076 1.19476 4.4398
3.2248 1.22476 4.57527
3.23012 1.23437 4.61709
3.23038 1.24088 4.651
3.23267 1.24944 4.68886
3.23396 1.257 4.72674
3.23929 1.26763 4.76955
3.24578 1.28156 4.83231
3.24808 1.29015 4.87217
3.25443 1.30082 4.91797
3.25575 1.30943 4.95884
3.25502 1.31694 4.99373
3.25632 1.32553 5.0336
3.26371 1.33627 5.0834
3.26994 1.34372 5.11424
3.27023 1.35228 5.15212
3.27287 1.37051 5.23484
3.28332 1.38437 5.29356
3.28971 1.39612 5.34435
3.29916 1.40897 5.4021
3.3054 1.41644 5.43394
3.30877 1.42715 5.48177
3.30809 1.43677 5.52363
3.31248 1.44852 5.57443
3.31281 1.45716 5.61731
3.31316 1.46784 5.66316
3.17706 1.10765 3.82426
3.18486 1.13018 3.92788
3.1881 1.13765 3.95975
3.18225 1.14094 3.97875
3.18551 1.14844 4.01262
3.19392 1.16023 4.06639
3.20368 1.18269 4.16499
3.20819 1.19666 4.23076
3.22037 1.23194 4.38517
3.2239 1.24695 4.45293
3.23236 1.26084 4.51367
3.23565 1.26939 4.55052
3.23691 1.2769 4.58541
3.23744 1.29192 4.65419
3.24376 1.30154 4.69601
3.26478 1.36141 4.958
3.28867 1.41803 5.20301
3.29201 1.4287 5.24784
3.12046 1.05466 3.3504
3.13999 1.07169 3.42001
3.13321 1.0771 3.44799
3.13598 1.0986 3.54866
3.1494 1.11138 3.60238
3.15645 1.14142 3.7399
3.16223 1.16392 3.84154
3.17308 1.18956 3.95209
3.18509 1.21948 4.08258
3.19362 1.23651 4.15227
3.20707 1.27928 4.33956
3.20957 1.29426 4.40533
3.21374 1.29958 4.42722
3.21804 1.30915 4.46606
3.2236 1.32623 4.53877
3.22527 1.34551 4.62549
3.22985 1.36363 4.70119
3.24328 1.37745 4.7569
3.24382 1.3935 4.82766
3.25221 1.40623 4.87742
3.25741 1.41263 4.90429
3.25495 1.42867 4.97408
3.25524 1.43723 5.01196
3.25959 1.44789 5.05677
3.10399 1.05979 3.15543
3.11148 1.07471 3.21816
3.11283 1.08439 3.26401
3.11721 1.09613 3.31381
3.1274 1.10248 3.33764
3.13363 1.10992 3.36749
3.12876 1.11317 3.38448
3.12793 1.11751 3.40743
3.1382 1.12702 3.44221
3.1283 1.12822 3.45527
3.13958 1.13776 3.49205
3.1417 1.14098 3.50699
3.13987 1.14631 3.52893
3.13904 1.15065 3.55187
3.1463 1.15914 3.5857
3.14588 1.17525 3.66047
3.15001 1.1795 3.67738
3.15021 1.18589 3.70329
3.15242 1.1923 3.73118
3.16011 1.21362 3.82082
3.16568 1.23071 3.89453
3.17238 1.25205 3.98518
3.17685 1.26597 4.04695
3.19112 1.27647 4.08169
3.18326 1.27975 4.0997
3.18651 1.28723 4.13257
3.19281 1.29679 4.17039
3.19404 1.30425 4.20127
3.19124 1.30963 4.22722
3.20259 1.3213 4.27297
3.20069 1.3245 4.28593
3.21206 1.33618 4.33268
3.2133 1.34466 4.36455
3.20546 1.34797 4.38557
3.20975 1.35752 4.4224
3.21504 1.36709 4.46122
3.23086 1.39364 4.56672
3.22302 1.39696 4.58774
3.22833 1.40756 4.62854
3.22657 1.41502 4.65945
3.23622 1.43526 4.74309
3.23648 1.44376 4.77697
3.24371 1.4512 4.80681
3.24498 1.45973 4.84268
3.115 1.11272 3.15056
3.1224 1.12549 3.20332
3.12714 1.14791 3.29897
3.1353 1.15421 3.31981
3.13649 1.15958 3.34473
3.14089 1.17135 3.39653
3.15062 1.19475 3.49112
3.16178 1.22997 3.64154
3.16298 1.23637 3.66844
3.16641 1.25019 3.72422
3.1636 1.25455 3.74818
3.17288 1.26509 3.78495
3.16804 1.2684 3.80594
3.17027 1.27585 3.83582
3.17968 1.28962 3.88855
3.1799 1.29705 3.91745
3.18416 1.30554 3.95029
3.18841 1.31302 3.98316
3.18055 1.31629 4.00117
3.19392 1.32999 4.04887
3.19931 1.34274 4.09965
3.20582 1.35873 4.16637
3.20808 1.36723 4.20023
3.20753 1.3811 4.25904
3.22129 1.40655 4.35757
3.2281 1.4331 4.46214
3.22936 1.4416 4.49601
3.23683 1.4575 4.55673
3.23608 1.46499 4.58963
3.24242 1.47663 4.63342
3.24268 1.48514 4.66729
3.10739 1.16343 3.19787
3.11269 1.173 3.2367
3.1179 1.18041 3.26455
3.1211 1.18679 3.29044
3.12063 1.20281 3.35921
3.12897 1.21346 3.403
3.1342 1.2219 3.43284
3.13338 1.22724 3.45577
3.14265 1.23675 3.49056
3.14384 1.24212 3.51548
3.13797 1.24537 3.53247
3.13917 1.25175 3.55837
3.14532 1.25705 3.57825
3.14551 1.26341 3.60316
3.14773 1.26983 3.63105
3.1459 1.27517 3.65399
3.18778 1.4026 4.15686
3.18903 1.41107 4.18873
3.19352 1.42703 4.25347
3.1052 1.23596 3.16581
3.1084 1.24234 3.1917
3.11378 1.25506 3.24047
3.119 1.26249 3.26933
3.12312 1.26772 3.28522
3.12431 1.27409 3.31012
3.13558 1.2846 3.34489
