-3.08947 1.74226 3.21087
-3.12566 1.7439 3.18512
-3.16294 1.7424 3.14941
-3.18508 1.74313 3.13057
-3.18814 1.74201 3.12261
-3.21226 1.74278 3.10577
-3.22036 1.74159 3.09285
-3.23541 1.74352 3.08693
-3.2445 1.74234 3.07502
-3.24863 1.7381 3.05811
-3.26061 1.74213 3.06014
-3.27069 1.74199 3.05022
-3.28077 1.74184 3.03929
-3.3049 1.74359 3.02145
-3.31796 1.74448 3.01353
-3.32308 1.74125 2.99762
-3.31919 1.73604 2.98366
-3.33423 1.73897 2.97873
-3.35027 1.7419 2.97281
-3.35538 1.73868 2.95789
-3.36745 1.73955 2.94897
-3.38051 1.74144 2.94104
-3.38562 1.73823 2.92612
-3.39869 1.7391 2.91721
-3.40373 1.73903 2.91224
-3.41778 1.74194 2.90531
-3.42885 1.74181 2.89639
-3.43595 1.74061 2.88246
-3.44504 1.73944 2.87054
-3.45513 1.73928 2.85962
-3.46811 1.74432 2.86164
-3.4633 1.73495 2.83674
-3.48132 1.73992 2.83381
-3.4904 1.73976 2.82287
-3.49255 1.73448 2.80397
-3.51156 1.74047 2.80202
-3.51469 1.73622 2.7851
-3.52973 1.73914 2.77917
-3.53577 1.74007 2.7742
-3.54287 1.73788 2.76129
-3.55494 1.73976 2.75235
-3.56303 1.73857 2.73943
-3.5761 1.73945 2.73051
-3.5822 1.73826 2.71757
-3.59327 1.73912 2.70764
-3.60527 1.74213 2.70769
-3.61039 1.73991 2.69276
-3.6155 1.73769 2.67783
-3.63353 1.74164 2.6739
-3.63864 1.73943 2.65897
-3.6517 1.74132 2.65104
-3.6598 1.74113 2.6381
-3.66881 1.74311 2.63614
-3.67492 1.7409 2.62222
-3.69394 1.74686 2.61827
-3.69607 1.74261 2.60135
-3.70815 1.74347 2.59143
-3.71723 1.74331 2.5805
-3.72433 1.74313 2.56755
-3.73037 1.74306 2.5626
-3.73846 1.74287 2.54966
-3.74855 1.74271 2.53874
-3.76459 1.74664 2.5328
-3.7768 1.74323 2.50494
-3.78688 1.74408 2.494
-3.78198 1.73888 2.48104
-3.79405 1.74075 2.4721
-3.81209 1.74468 2.46618
-3.82018 1.74451 2.45424
-3.82728 1.74432 2.44129
-3.8314 1.7411 2.42637
-3.84944 1.74602 2.42043
-3.84951 1.74389 2.41146
-3.85859 1.74374 2.40053
-3.87067 1.74558 2.38959
-3.87876 1.74541 2.37766
-3.88088 1.74217 2.36172
-3.89395 1.74405 2.35279
-3.89906 1.74283 2.33784
-3.90411 1.74275 2.33188
-3.91518 1.74361 2.32195
-3.92426 1.74445 2.311
-3.93635 1.7453 2.30008
-3.95054 1.74492 2.27419
-3.95863 1.74475 2.26225
-3.97376 1.74551 2.24535
-3.98484 1.74735 2.23441
-3.99492 1.7472 2.22348
-3.99904 1.74598 2.20853
-4.00912 1.74682 2.19759
-4.01622 1.74664 2.18465
-4.03134 1.7474 2.16775
-4.04043 1.74822 2.1558
-4.04853 1.74804 2.14286
-4.06173 1.74666 2.11698
-4.07281 1.74851 2.10603
-4.08097 1.7462 2.08513
-4.10923 1.7487 2.0503
-4.45633 1.7489 1.37382
-4.45968 1.74322 1.32792
-4.51255 1.74653 1.21125
-4.51261 1.74541 1.20327
-4.5227 1.74724 1.19132
-4.51484 1.74197 1.17333
-4.52494 1.74378 1.16038
-4.53104 1.74459 1.14741
-4.52517 1.74032 1.12943
-4.5243 1.73709 1.11347
-4.53034 1.739 1.10748
-4.52547 1.73475 1.09051
-4.53767 1.73636 1.06357
3.94281 1.71238 2.16119
3.92505 1.71386 2.1933
3.90923 1.71423 2.21742
3.9134 1.72054 2.2383
3.89945 1.71767 2.24645
3.90153 1.72081 2.25639
3.90267 1.72508 2.27432
3.87265 1.71507 2.27269
3.87278 1.71932 2.28963
3.87192 1.72259 2.30759
3.85295 1.71768 2.31281
3.8561 1.72296 2.33171
3.85918 1.72712 2.34263
3.84022 1.72221 2.34784
3.84136 1.72647 2.36577
3.83747 1.7297 2.38076
3.82253 1.72683 2.38891
3.82065 1.73006 2.40488
3.81872 1.7312 2.41388
3.80176 1.72728 2.41907
3.79486 1.72748 2.43212
3.79299 1.73173 2.44907
3.78206 1.73089 2.45917
3.77315 1.73108 2.47123
2.55143 1.7312 3.57659
2.53747 1.73028 3.58171
2.51259 1.73054 3.59789
2.44491 1.73121 3.6404
2.43398 1.73135 3.64948
2.419 1.7294 3.65262
2.41304 1.73048 3.65765
2.39704 1.72751 3.65882
2.38613 1.72868 3.66988
2.36327 1.73096 3.68802
2.3493 1.72903 3.69216
2.30652 1.73149 3.72145
2.29153 1.72953 3.72359
2.27757 1.72862 3.72871
2.24874 1.73098 3.7519
2.22285 1.7312 3.76609
2.20786 1.72925 3.76823
2.168 1.72854 3.78654
2.13613 1.72882 3.80378
1.90493 1.72854 3.91054
1.89094 1.72658 3.91268
1.878 1.72771 3.92076
1.86199 1.7247 3.91993
1.85006 1.72685 3.92898
1.84118 1.73109 3.94499
1.82518 1.72809 3.94416
1.81615 1.72605 3.94125
1.80728 1.73029 3.95726
1.78823 1.72522 3.95148
1.77425 1.72427 3.9546
1.76131 1.7254 3.96268
1.74937 1.72651 3.96975
1.73832 1.72243 3.9639
1.72637 1.72354 3.97097
1.71241 1.72363 3.97608
1.70149 1.7258 3.98713
1.68855 1.72691 3.99421
1.66948 1.72079 3.98544
1.65857 1.72398 3.99748
1.6526 1.72504 4.00151
1.63658 1.72202 3.99967
1.62364 1.72214 4.00677
1.61069 1.72325 4.01385
1.59467 1.72023 4.01202
1.58071 1.72032 4.01712
1.57081 1.72452 4.03014
1.55276 1.71943 4.02335
1.54476 1.71845 4.02442
1.53488 1.72268 4.03944
1.51886 1.71966 4.0376
1.50386 1.71765 4.03674
1.49399 1.72291 4.05374
1.47796 1.71988 4.05091
1.46603 1.72201 4.05897
1.4611 1.72516 4.06896
1.44304 1.72005 4.06117
1.42905 1.71808 4.0623
1.41612 1.72022 4.07137
1.40008 1.71717 4.06754
1.38611 1.71724 4.07164
1.37521 1.72044 4.08468
1.36822 1.72046 4.08573
1.35118 1.7164 4.08092
1.33927 1.71957 4.09196
1.32529 1.71863 4.09508
1.31027 1.71661 4.09323
1.29939 1.72084 4.10825
1.28934 1.71774 4.10137
1.27945 1.72197 4.11638
1.26548 1.72204 4.12049
1.24945 1.71899 4.11665
1.2355 1.72009 4.12274
1.22564 1.72637 4.14073
1.20547 1.71607 4.12003
1.2026 1.72131 4.13597
1.18761 1.72135 4.13809
1.1726 1.71833 4.13624
1.15658 1.71631 4.13439
1.14776 1.72466 4.15734
1.12863 1.71644 4.1416
1.11672 1.71961 4.15265
1.10378 1.72174 4.16071
1.09884 1.72486 4.16871
1.08176 1.71872 4.15892
1.06987 1.72394 4.17294
1.05382 1.71885 4.16613
1.03987 1.72096 4.17321
1.02793 1.72309 4.18127
1.015 1.72523 4.19034
1.01008 1.72938 4.20031
0.993019 1.72528 4.1925
0.981119 1.72848 4.20554
0.966127 1.7285 4.20666
0.936111 1.7255 4.20493
0.924203 1.72868 4.21697
0.917203 1.72869 4.21703
0.88614 1.72259 4.20935
0.873234 1.72678 4.22139
-2.44136 1.72501 3.49128
-2.45846 1.72382 3.47743
-2.4796 1.72256 3.4596
-2.49363 1.7235 3.45469
-2.50669 1.72441 3.44778
-2.52783 1.72314 3.42895
-2.54079 1.72722 3.43399
-2.55185 1.72711 3.42607
-2.57181 1.73319 3.43014
-2.57002 1.72279 3.40327
-2.58802 1.7278 3.40333
-2.60008 1.72769 3.39542
-2.60818 1.7255 3.38252
-2.62022 1.72542 3.37661
-2.62626 1.72535 3.37165
-2.6393 1.72627 3.36574
-2.64938 1.72513 3.35583
-2.66145 1.72501 3.34692
-2.68043 1.73105 3.34897
-2.68951 1.7289 3.33807
-2.69761 1.72671 3.32516
-2.70364 1.72665 3.32121
-2.71372 1.7255 3.3103
-2.72874 1.72848 3.30837
-2.75169 1.73658 3.31442
-2.75187 1.72823 3.29055
-2.77085 1.73327 3.29261
-2.77895 1.73109 3.27971
-2.78102 1.72896 3.27075
-2.79606 1.73089 3.26584
-2.80713 1.73077 3.25692
-2.81225 1.72653 3.24102
-2.83717 1.73668 3.25006
-2.84726 1.73553 3.23915
-2.85526 1.73652 3.23819
-2.86831 1.73843 3.23126
-2.88731 1.74244 3.23135
-2.88946 1.73716 3.21244
-2.91044 1.7432 3.21451
-2.91655 1.73999 3.1996
-2.91672 1.73266 3.17771
-2.9277 1.7367 3.17973
-2.94769 1.74173 3.18081
-2.95678 1.74157 3.16988
-2.98107 1.73503 3.13215
-2.99411 1.73695 3.12622
-3.01221 1.73777 3.11334
-3.02723 1.74072 3.10941
-3.03533 1.73853 3.0965
-3.04046 1.7343 3.0806
-3.06342 1.74238 3.08466
-3.07152 1.74019 3.07175
-3.09373 1.73779 3.04395
-3.11472 1.74382 3.04501
-3.11885 1.73957 3.02811
-3.13388 1.74252 3.02418
-3.13801 1.73927 3.00725
-3.148 1.74228 3.00728
-3.16006 1.74217 2.99937
-3.17427 1.73878 2.97253
-3.19839 1.74056 2.95668
-3.20153 1.7353 2.93878
-3.22152 1.74131 2.93884
-3.21763 1.7361 2.92489
-3.2287 1.73698 2.91596
-3.2487 1.74198 2.91503
-3.25977 1.74285 2.9061
-3.25794 1.73553 2.88419
-3.271 1.73742 2.87626
-3.2761 1.73421 2.86235
-3.28015 1.73413 2.85638
-3.2942 1.73603 2.84946
-3.29733 1.73178 2.83254
-3.31534 1.73677 2.8306
-3.32343 1.7356 2.81868
-3.33848 1.73852 2.81275
-3.34458 1.73632 2.79882
-3.35061 1.73626 2.79487
-3.3607 1.7361 2.78395
-3.37176 1.73698 2.77502
-3.37389 1.73273 2.75809
-3.38695 1.73462 2.75016
-3.3861 1.72934 2.73123
-3.4071 1.73534 2.7303
-3.40916 1.73322 2.72235
-3.41824 1.73307 2.71141
-3.42932 1.73393 2.70148
-3.44635 1.73786 2.69655
-3.44649 1.7326 2.67863
-3.45458 1.73143 2.66671
-3.46664 1.73332 2.65877
-3.46474 1.72914 2.64681
-3.4748 1.73001 2.63788
-3.48687 1.73089 2.62895
-3.49595 1.73073 2.61802
-3.51099 1.73365 2.61209
-3.52505 1.73654 2.60415
-3.53214 1.73537 2.59222
-3.53221 1.73324 2.58325
-3.54627 1.73513 2.57533
-3.55238 1.73293 2.56141
-3.56642 1.73585 2.55547
-3.57153 1.73363 2.54054
-3.57863 1.73246 2.52861
-3.58871 1.7333 2.51767
-3.60567 1.73937 2.52171
-3.60581 1.73511 2.50377
-3.62583 1.74108 2.50083
-3.62398 1.73479 2.48191
-3.62411 1.73053 2.46397
-3.63717 1.73242 2.45604
-3.64725 1.73326 2.4451
-3.64732 1.73113 2.43613
-3.6574 1.73099 2.42621
-3.67344 1.73491 2.42027
-3.68054 1.73373 2.40734
-3.69062 1.73457 2.3964
-3.70368 1.73746 2.38846
-3.70879 1.73526 2.37452
-3.71582 1.7372 2.37055
-3.72589 1.73706 2.36062
-3.73 1.73484 2.34569
-3.74207 1.73672 2.33675
-3.74917 1.73653 2.3238
-3.75726 1.73636 2.31186
-3.76733 1.73622 2.30194
-3.77237 1.73715 2.29696
-3.7914 1.74209 2.29203
-3.79949 1.74192 2.2801
-3.80659 1.74173 2.26715
-3.79777 1.73238 2.24422
-3.81282 1.73629 2.23727
-3.82887 1.7402 2.23034
-3.82403 1.7339 2.21039
-3.842 1.74095 2.21342
-3.85209 1.74078 2.2015
-3.85222 1.73753 2.18455
-3.87324 1.7435 2.18161
-3.88033 1.74332 2.16867
-3.87946 1.73906 2.15172
-3.89055 1.73991 2.14079
-3.90056 1.74289 2.13882
-3.8987 1.73862 2.12087
-3.91774 1.74354 2.11494
-3.92185 1.74234 2.10099
-3.92794 1.74115 2.08805
-3.94201 1.74403 2.07911
-3.94313 1.74079 2.06317
-3.94618 1.7407 2.05719
-3.96522 1.74563 2.05126
-3.96734 1.74339 2.03531
-3.96846 1.74016 2.01936
-3.98551 1.74407 2.01243
-3.9926 1.74389 2.00048
-4.00169 1.74472 1.98854
-4.00673 1.74565 1.98356
-4.01681 1.7475 1.97261
-4.02391 1.74731 1.95966
-4.03598 1.74917 1.94972
-4.0381 1.74695 1.93477
-4.03923 1.7427 1.91784
-4.05733 1.7465 1.90392
-4.0704 1.74937 1.89397
-4.0775 1.74918 1.88103
-4.07961 1.74696 1.86607
-4.30177 1.7509 1.44763
-4.32622 1.75001 1.38682
-4.31936 1.74474 1.36885
-4.32048 1.74252 1.35388
-4.32259 1.7413 1.33892
-4.32371 1.73908 1.32396
-4.34874 1.74701 1.31803
-4.34288 1.74274 1.30004
-4.35889 1.74872 1.29807
-4.33807 1.73738 1.27608
-4.34716 1.73819 1.26314
-4.3742 1.74812 1.25719
-4.37033 1.74387 1.24022
-4.36846 1.74063 1.22426
-4.39051 1.74853 1.2163
-4.38458 1.74439 1.20732
-4.38569 1.74217 1.19236
-4.38282 1.73893 1.17638
-4.38194 1.73669 1.16041
-4.38704 1.73649 1.14645
-4.40012 1.74034 1.13549
-4.39625 1.7361 1.11952
-4.40728 1.74003 1.11454
-4.39742 1.73376 1.09656
-4.40962 1.73438 1.07064
3.8259 1.72261 2.17192
3.79814 1.7201 2.20417
3.79123 1.7213 2.21721
3.75537 1.71359 2.23559
3.74545 1.71277 2.24668
3.74357 1.716 2.26265
3.73868 1.71821 2.27666
3.72875 1.71737 2.28674
3.73084 1.72053 2.29768
3.72091 1.71969 2.30777
3.70898 1.71783 2.31689
3.70308 1.71902 2.32992
3.70221 1.72328 2.34687
3.70335 1.72854 2.36478
3.6874 1.72466 2.37196
3.67841 1.72269 2.37406
3.67754 1.72595 2.39102
3.67064 1.72714 2.40405
3.65569 1.72426 2.41121
3.64275 1.72239 2.41934
3.62981 1.72051 2.42746
3.64202 1.7309 2.45422
3.62498 1.72384 2.44945
3.6221 1.72708 2.46543
3.61218 1.72724 2.4755
3.60327 1.72742 2.48757
3.59435 1.72759 2.49864
3.53402 1.73195 2.58804
3.43782 1.73159 2.69478
2.53545 1.72928 3.44672
2.47078 1.72997 3.4902
2.42888 1.7252 3.50459
2.41005 1.72954 3.52667
2.39609 1.72763 3.5318
2.33345 1.73137 3.57923
2.26473 1.73197 3.61674
2.24772 1.72797 3.61593
2.21786 1.72927 3.63514
2.20795 1.73145 3.64718
2.19398 1.72951 3.65032
2.18203 1.72962 3.6574
2.16704 1.72766 3.65955
2.09833 1.72927 3.69805
2.06745 1.72953 3.71428
1.9868 1.73227 3.76085
1.93498 1.73165 3.78425
1.92201 1.73172 3.78835
1.90308 1.73188 3.79849
1.88809 1.72991 3.79963
1.85913 1.727 3.8049
1.83831 1.73236 3.82798
1.82434 1.73243 3.83208
1.81326 1.7263 3.82326
1.80439 1.73155 3.83925
1.78533 1.72544 3.83148
1.77032 1.72245 3.83164
1.76348 1.72975 3.85158
1.74645 1.72571 3.84777
1.73248 1.72478 3.85189
1.7316 1.73101 3.86781
1.71252 1.72388 3.85805
1.70059 1.72602 3.86711
1.68559 1.72303 3.86727
1.67364 1.72415 3.87435
1.66171 1.72629 3.88341
1.64876 1.72739 3.88949
1.63971 1.7233 3.88362
1.6278 1.72548 3.89467
1.61279 1.72347 3.89382
1.59473 1.71738 3.88704
1.58381 1.72054 3.89708
1.57596 1.72682 3.91605
1.56387 1.72067 3.90523
1.54988 1.7187 3.90636
1.53999 1.72392 3.92136
1.52398 1.72091 3.91953
1.51305 1.72306 3.92958
1.50008 1.72313 3.93368
1.48816 1.72529 3.94374
1.4781 1.72118 3.93587
1.46514 1.72128 3.94197
1.45525 1.72549 3.95598
1.43821 1.72141 3.95017
1.42422 1.72045 3.95229
1.41331 1.72364 3.96433
1.39627 1.71958 3.95952
1.38126 1.71757 3.95866
1.37837 1.72177 3.97162
1.36336 1.71976 3.97076
1.35246 1.72396 3.98378
1.33643 1.72093 3.98095
1.32448 1.72203 3.98702
1.31051 1.7221 3.99113
1.29449 1.71907 3.98829
1.29158 1.72325 4.00026
1.27759 1.72229 4.00237
1.26361 1.72233 4.00448
1.24964 1.72239 4.00858
1.23463 1.71939 4.00774
1.22372 1.72358 4.01976
1.20974 1.72262 4.02188
1.20172 1.72058 4.01897
1.1867 1.71856 4.01712
1.17582 1.72279 4.03214
1.16389 1.72595 4.04218
1.14992 1.72601 4.04629
1.1318 1.71779 4.03054
1.12895 1.72607 4.04945
1.11495 1.72408 4.04958
1.10202 1.72623 4.05865
-2.70451 1.72494 3.20523
-2.75381 1.7244 3.1666
-2.78997 1.7271 3.14483
-2.81309 1.72788 3.12899
-2.83009 1.73187 3.12806
-2.85503 1.74201 3.1361
-2.84718 1.73271 3.11617
-2.85231 1.72847 3.10027
-2.89226 1.74158 3.10538
-2.88253 1.72705 3.07052
-2.89755 1.73002 3.06759
-2.93248 1.74216 3.07567
-2.92769 1.73176 3.04878
-2.94768 1.73779 3.04985
-2.9409 1.72637 3.02196
-2.97675 1.74368 3.04098
-2.97889 1.7374 3.02208
-2.97211 1.72598 2.9942
-3.00193 1.74232 3.01618
-3.00027 1.72769 2.97338
-3.02438 1.72948 2.95853
-3.03545 1.72934 2.94862
-3.04354 1.72819 2.9377
-3.05056 1.72915 2.93473
-3.06261 1.73105 2.92779
-3.07169 1.72989 2.91688
-3.07582 1.72565 2.89997
-3.08787 1.72755 2.89303
-3.10589 1.73153 2.89111
-3.11497 1.73138 2.88018
-3.11604 1.72825 2.87123
-3.12611 1.72812 2.86231
-3.13816 1.73001 2.85437
-3.14525 1.72784 2.84245
-3.15136 1.72563 2.82853
-3.16144 1.72549 2.81861
-3.17754 1.7263 2.80471
-3.19455 1.73028 2.80278
-3.21173 1.72895 2.77993
-3.24096 1.72852 2.74915
-3.36702 1.72652 2.60911
-3.5738 1.72814 2.37261
-3.63743 1.72795 2.28908
-3.66766 1.73051 2.25827
-3.69696 1.73095 2.21948
-3.72519 1.7325 2.18766
-3.72327 1.72935 2.17769
-3.73832 1.73326 2.17075
-3.75549 1.73393 2.14786
-3.77975 1.73444 2.11404
-3.78379 1.73436 2.10807
-3.79599 1.73198 2.08219
-3.7991 1.72976 2.06724
-3.81714 1.7347 2.06231
-3.82423 1.73453 2.05036
-3.83332 1.73536 2.03841
-3.83537 1.73425 2.03145
-3.84147 1.73307 2.01851
-3.84856 1.73289 2.00656
-3.85565 1.73272 1.99462
-3.8707 1.73663 1.98767
-3.86983 1.73238 1.97072
-3.88091 1.73422 1.95978
-3.88906 1.73295 1.94086
-3.9081 1.73787 1.93493
-3.91419 1.7377 1.92297
-3.91233 1.73343 1.90502
-3.9234 1.73529 1.89507
-3.93746 1.73818 1.88714
-3.93553 1.73605 1.87815
-3.9476 1.73791 1.86821
-3.9527 1.73672 1.85527
-3.96876 1.74161 1.84732
-3.96788 1.73737 1.83137
-3.98094 1.74025 1.82242
-3.98605 1.74005 1.80846
-3.98213 1.7359 1.79849
-4.00017 1.74182 1.79254
-4.00428 1.7396 1.7776
-4.0283 1.74857 1.77465
-4.02045 1.74127 1.7547
-4.02854 1.7421 1.74274
-4.03264 1.74091 1.72979
-4.05263 1.74894 1.73082
-4.05574 1.74673 1.71688
-4.04988 1.74145 1.69791
-4.07192 1.74839 1.69297
-4.06605 1.74212 1.67502
-4.08709 1.74905 1.66907
-4.09319 1.74886 1.65612
-4.11864 1.747 1.59733
-4.13382 1.74866 1.57342
-4.13693 1.74644 1.55847
-4.1371 1.7431 1.53552
-4.1442 1.74291 1.52257
-4.17233 1.75066 1.50467
-4.17961 1.74714 1.46877
-4.1857 1.74695 1.45582
-4.17387 1.73863 1.43485
-4.19989 1.74859 1.4309
-4.19303 1.74232 1.41294
-4.2071 1.74618 1.40298
-4.19027 1.73584 1.38101
-4.20828 1.74284 1.38004
-4.20042 1.73655 1.36107
-4.20552 1.73636 1.34811
-4.2186 1.74023 1.33815
-4.23466 1.7441 1.32921
-4.22082 1.73578 1.30823
-4.23888 1.74168 1.30027
-4.22597 1.73449 1.28828
-4.23506 1.73532 1.27634
-4.25014 1.74018 1.26638
-4.25523 1.73999 1.25342
-4.25635 1.73877 1.23844
-4.24948 1.73252 1.22148
-4.25857 1.73434 1.20952
-4.26261 1.73526 1.20354
-4.2727 1.73809 1.19157
-4.27393 1.73365 1.16164
-4.28812 1.73529 1.13672
3.62057 1.71309 2.26362
3.57403 1.71303 2.32498
3.56712 1.71421 2.33702
3.5643 1.71955 2.35996
3.55538 1.71972 2.37103
3.53943 1.71583 2.37721
3.53856 1.72008 2.39415
3.52863 1.71923 2.40424
3.52575 1.72246 2.41922
3.51582 1.72161 2.42931
3.50985 1.72068 2.43337
3.52105 1.73105 2.45913
3.47647 1.7319 2.51446
3.46949 1.73095 2.51753
3.46258 1.73213 2.52956
3.44562 1.72822 2.53475
3.4308 1.72958 2.55885
3.41785 1.7277 2.56597
3.41195 1.72989 2.57899
3.40397 1.72794 2.58208
3.39908 1.73015 2.59608
3.38613 1.72827 2.60321
3.37318 1.72638 2.61033
3.36139 1.73079 2.63736
3.35441 1.72884 2.64044
3.34751 1.73104 2.65347
3.32867 1.73136 2.67461
3.25624 1.73152 2.75016
2.70377 1.72886 3.22243
2.69184 1.729 3.23151
2.68192 1.73015 3.24157
2.66096 1.72726 3.24778
2.65204 1.72943 3.25881
2.6322 1.73074 3.27894
2.62026 1.73087 3.28703
2.60932 1.73099 3.29512
2.60032 1.729 3.29521
2.59241 1.73118 3.30724
2.57339 1.72617 3.30546
2.56144 1.72526 3.31156
2.54362 1.72963 3.33564
2.5347 1.7308 3.34669
2.52873 1.73087 3.35073
2.51274 1.72789 3.3519
2.50079 1.728 3.35899
2.48195 1.73133 3.38008
2.4609 1.72426 3.37434
2.45402 1.72848 3.38934
2.45311 1.73166 3.4013
2.43812 1.72869 3.40245
2.42922 1.73189 3.41548
2.41829 1.73203 3.42456
2.26196 1.73146 3.51476
2.25001 1.73157 3.52185
2.22186 1.7183 3.50225
2.21803 1.72562 3.52417
2.21002 1.72363 3.52426
2.19504 1.72167 3.52641
2.18512 1.72383 3.53645
2.16911 1.71984 3.53663
2.17034 1.73127 3.56546
2.14724 1.72211 3.55376
2.14127 1.72216 3.55681
2.13439 1.7274 3.57279
2.10543 1.72351 3.57906
2.09348 1.7236 3.58515
2.0856 1.72783 3.60015
2.07669 1.73103 3.61317
2.06564 1.72594 3.60633
2.05268 1.72502 3.61144
2.04175 1.72716 3.62049
2.02676 1.7252 3.62264
2.01583 1.72634 3.6317
1.99981 1.72232 3.62988
1.99194 1.72757 3.64587
1.97693 1.72458 3.64602
1.9669 1.72153 3.64214
1.95902 1.72575 3.65714
1.94099 1.72071 3.65335
1.93107 1.72288 3.6644
1.92216 1.72606 3.67642
1.90412 1.721 3.67163
1.89319 1.72214 3.68069
1.87908 1.71495 3.66691
1.87223 1.72123 3.68587
1.85926 1.7203 3.68998
1.84732 1.72143 3.69805
1.8374 1.7236 3.7091
1.82036 1.71954 3.70429
1.8125 1.72481 3.72227
1.80347 1.72176 3.71838
1.78542 1.71567 3.71161
1.7755 1.71884 3.72264
1.76357 1.71998 3.73171
1.7506 1.72005 3.73581
1.73966 1.72117 3.74387
1.73166 1.72018 3.74395
1.71361 1.71409 3.73718
1.70675 1.72037 3.75614
1.69073 1.71634 3.75332
1.67878 1.71745 3.76039
1.6648 1.71651 3.76351
1.65082 1.71555 3.76563
1.6428 1.71351 3.76272
1.63189 1.7167 3.77476
1.61994 1.71681 3.78185
1.60492 1.71379 3.78
1.5991 1.72212 3.80193
1.58205 1.71706 3.79713
1.56706 1.71608 3.79826
1.55614 1.71824 3.80831
1.54608 1.71413 3.80045
1.52321 1.71741 3.81857
1.51025 1.7175 3.82367
1.49524 1.71448 3.82183
1.4833 1.7166 3.82989
1.4693 1.71463 3.83102
1.46334 1.71569 3.83505
1.42342 1.71488 3.84636
1.3985 1.71607 3.85754
1.38759 1.71924 3.86857
1.37651 1.7141 3.85873
1.36354 1.71417 3.86283
1.3516 1.71529 3.8709
1.33965 1.71639 3.87698
1.32464 1.71439 3.87612
1.30569 1.7155 3.88325
1.29479 1.7187 3.89628
1.27979 1.7167 3.89543
1.26784 1.71881 3.90249
1.23986 1.71588 3.90574
1.23306 1.72625 3.93064
-2.13966 1.72421 3.45001
-2.26715 1.72733 3.38492
-2.29332 1.72401 3.36216
-2.30537 1.72493 3.35624
-2.33854 1.72361 3.33351
-2.64103 1.72688 3.13671
-2.66298 1.73499 3.14276
-2.66315 1.72766 3.12086
-2.68213 1.73271 3.12293
-2.6932 1.73258 3.11401
-2.69435 1.72629 3.09411
-2.71432 1.73234 3.09718
-2.72043 1.72914 3.08327
-2.77664 1.73475 3.0546
-2.80272 1.73861 3.04374
-2.80082 1.73341 3.0308
-2.80891 1.73126 3.01989
-2.8312 1.72471 2.98215
-2.85118 1.73076 2.98421
-2.85232 1.72548 2.9653
-2.88047 1.7262 2.9455
-2.90541 1.73632 2.95254
-2.92967 1.73184 2.91878
-2.95088 1.72845 2.89199
-2.96095 1.72831 2.88206
-2.96705 1.72612 2.86914
-2.98208 1.72907 2.86521
-2.99108 1.73207 2.86423
-2.99521 1.72783 2.84832
-3.01435 1.72756 2.82947
-3.02442 1.72742 2.81955
-3.03648 1.72833 2.81262
-3.06265 1.72901 2.78981
-3.06775 1.72682 2.77688
-3.11405 1.72724 2.73621
-3.14228 1.72682 2.70643
-3.19965 1.72912 2.65682
-3.25007 1.72833 2.6012
-3.26525 1.727 2.57833
-3.27731 1.72789 2.57041
-3.28936 1.72978 2.56247
-3.31347 1.73358 2.5476
-3.32674 1.72707 2.51279
-3.34687 1.72882 2.49491
-3.35397 1.72764 2.48298
-3.38624 1.72813 2.44721
-3.41334 1.73395 2.43333
-3.4568 1.73106 2.37169
-3.468 1.72768 2.34582
-3.51419 1.73633 2.32004
-3.52551 1.72872 2.27823
-3.53764 1.72847 2.26132
-3.60933 1.73015 2.16882
-3.66089 1.72909 2.09522
-3.68115 1.72859 2.06037
-3.70435 1.73022 2.03452
-3.7296 1.73173 2.00068
-3.7671 1.72978 1.93498
-3.79135 1.7303 1.90115
-3.79937 1.73326 1.89817
-3.80858 1.72987 1.87129
-3.85802 1.73603 1.81256
-3.85515 1.73077 1.79561
-3.86324 1.7316 1.78366
-3.8783 1.73549 1.77572
-3.88749 1.73312 1.74982
-3.88755 1.731 1.74185
-3.90261 1.73489 1.7339
-3.90982 1.7325 1.70699
-3.91989 1.73436 1.69703
-3.92798 1.73418 1.6851
-3.92909 1.73196 1.67014
-3.94708 1.73899 1.67117
-3.9462 1.73577 1.65621
-3.96625 1.74168 1.64927
-3.95341 1.73336 1.62829
-3.97854 1.73911 1.61039
-3.9687 1.73079 1.58944
-3.97673 1.73274 1.58547
-3.99179 1.73763 1.57751
-3.99788 1.73746 1.56556
-4.00696 1.7393 1.5546
-4.02302 1.74419 1.54665
-4.03708 1.74707 1.53771
-4.04816 1.74991 1.52675
-4.04922 1.74881 1.51977
-4.03937 1.74152 1.5008
-4.04845 1.74335 1.48884
-4.05255 1.74216 1.47589
-4.06862 1.74604 1.46695
-4.06574 1.7428 1.45097
-4.07283 1.74263 1.43903
-4.07887 1.74456 1.43405
-4.07201 1.73829 1.41608
-4.08309 1.74113 1.40512
-4.08618 1.73994 1.39216
-4.09029 1.73874 1.37821
-4.10037 1.74158 1.36724
-4.11244 1.74444 1.35729
-4.11151 1.74233 1.34931
-4.10365 1.73605 1.33134
-4.10974 1.73688 1.31938
-4.10686 1.73264 1.30341
-4.12392 1.73752 1.29447
-4.12204 1.7343 1.2795
-4.13711 1.73916 1.26954
-4.15977 1.73389 1.18278
-4.17689 1.73865 1.16583
-4.18831 1.73384 1.11098
-4.20775 1.73298 1.05213
-4.21484 1.73481 1.04016
-4.21795 1.73361 1.0262
-4.22615 1.73321 0.999263
3.45995 1.71395 2.31482
3.45298 1.71301 2.31889
3.44721 1.71845 2.34786
3.42145 1.71894 2.38005
3.40347 1.714 2.38326
3.40454 1.71715 2.39321
3.41475 1.72752 2.41898
3.39877 1.72359 2.42316
3.39891 1.72886 2.44108
3.39301 1.73006 2.45411
3.37805 1.72614 2.45928
3.35798 1.71804 2.45155
3.36416 1.72637 2.47438
3.34416 1.7204 2.47562
3.33826 1.7226 2.48864
3.34142 1.72889 2.50852
3.32243 1.72294 2.51075
3.30647 1.71902 2.51593
3.30862 1.72632 2.53581
3.29157 1.71924 2.53004
3.28768 1.72145 2.54404
3.27991 1.7279 2.57401
3.27401 1.7301 2.58702
3.2681 1.73228 2.59904
3.2481 1.72531 2.60029
3.24818 1.72846 2.61025
3.24329 1.73167 2.62424
3.22026 1.72364 2.62153
3.21537 1.72585 2.63554
3.21552 1.73213 2.65444
3.19667 1.73244 2.67458
3.16882 1.72976 2.69484
3.14694 1.72803 2.71203
2.87986 1.73198 2.96802
2.86396 1.73117 2.98015
2.82912 1.72952 3.00244
2.81129 1.73186 3.02454
2.80632 1.73192 3.02858
2.78545 1.73221 3.04674
2.7634 1.72413 3.04102
2.74069 1.7317 3.07809
2.72276 1.72986 3.08825
2.71183 1.73 3.09733
2.68994 1.72924 3.11251
2.68305 1.73245 3.12652
2.66908 1.73052 3.13065
2.66008 1.72853 3.13075
2.65419 1.73174 3.14475
2.62928 1.72893 3.15698
2.60925 1.72291 3.15422
2.60841 1.73022 3.17512
2.5914 1.72621 3.1743
2.31187 1.73029 3.37038
2.29586 1.72629 3.36956
2.26093 1.72145 3.37889
2.2591 1.72977 3.40079
2.23194 1.7165 3.38119
2.22021 1.72702 3.41612
2.20309 1.7178 3.40039
2.19519 1.721 3.4134
2.18628 1.72318 3.42544
2.16621 1.71506 3.41671
2.15628 1.71722 3.42675
2.14231 1.71527 3.42989
2.12834 1.71434 3.434
2.12641 1.71748 3.44297
2.1104 1.71348 3.44215
1.8037 1.72223 3.61536
1.79581 1.72644 3.62936
1.77368 1.71622 3.61367
1.70286 1.71463 3.63823
1.63507 1.71509 3.66674
1.52736 1.71374 3.70558
1.44662 1.7163 3.74015
1.33191 1.71694 3.77901
1.30495 1.71504 3.78425
1.24812 1.71742 3.80764
1.24027 1.72471 3.8266
-2.55965 1.73259 3.053
-2.57863 1.73864 3.05505
-2.59777 1.73738 3.03721
-2.60486 1.73521 3.0253
-2.60206 1.72483 2.99943
-2.6269 1.73914 3.01941
-2.6231 1.72877 2.99453
-2.64504 1.73687 3.00057
-2.65314 1.7357 2.98865
-2.65527 1.72944 2.97076
-2.67227 1.73445 2.97081
-2.67838 1.73124 2.9569
-2.69035 1.73531 2.96093
-2.70041 1.7352 2.95301
-2.71047 1.73508 2.94408
-2.71955 1.73493 2.93415
-2.73654 1.73995 2.93421
-2.74167 1.73471 2.91832
-2.7467 1.73466 2.91436
-2.75775 1.73556 2.90743
-2.77079 1.7385 2.90248
-2.77788 1.73531 2.88958
-2.7939 1.73929 2.88764
-2.80396 1.73917 2.87872
-2.81502 1.74007 2.87179
-2.82005 1.74 2.86683
-2.83012 1.73987 2.8579
-2.8382 1.73873 2.84798
-2.84926 1.73962 2.84005
-2.8623 1.74154 2.83412
-2.87336 1.74243 2.82619
-2.88243 1.7423 2.81726
-2.88647 1.74122 2.8113
-2.89455 1.74008 2.80138
-2.90164 1.7379 2.78946
-2.9127 1.73879 2.78153
-2.92177 1.73765 2.77161
-2.93482 1.74057 2.76567
-2.93298 1.73226 2.74478
-2.94709 1.73206 2.73088
-2.96707 1.73909 2.73193
-2.96524 1.73178 2.71102
-2.98026 1.73473 2.70709
-2.98933 1.73461 2.69816
-2.99642 1.73243 2.68624
-3.0055 1.73229 2.67631
-3.02343 1.74042 2.68433
-3.01563 1.73003 2.65842
-3.02967 1.73297 2.65348
-3.04668 1.73795 2.65153
-3.05079 1.73475 2.63761
-3.0549 1.73053 2.6227
-3.07092 1.73549 2.61975
-3.07099 1.73236 2.6108
-3.08107 1.73222 2.60087
-3.09808 1.7372 2.59893
-3.09722 1.73094 2.58101
-3.10928 1.73283 2.57307
-3.12728 1.73882 2.57212
-3.1314 1.73461 2.55721
-3.1265 1.72941 2.54425
-3.14947 1.73847 2.54729
-3.15656 1.7363 2.53537
-3.16067 1.73409 2.52143
-3.17769 1.73806 2.5185
-3.17782 1.7328 2.50058
-3.18186 1.73272 2.49561
-3.19888 1.73769 2.49266
-3.201 1.73346 2.47674
-3.2061 1.73127 2.46381
-3.22809 1.7383 2.46487
-3.22525 1.732 2.44494
-3.23233 1.73084 2.43401
-3.24929 1.73793 2.43903
-3.24643 1.73165 2.4201
-3.25552 1.73149 2.40917
-3.2765 1.73852 2.41022
-3.27465 1.73224 2.3913
-3.27379 1.72697 2.37337
-3.29578 1.735 2.37442
-3.29187 1.72982 2.36246
-3.3089 1.73477 2.35852
-3.31995 1.73566 2.35059
-3.31512 1.72835 2.32965
-3.33724 1.73113 2.31378
-3.34532 1.73097 2.30284
-3.35837 1.73388 2.29589
-3.35545 1.72971 2.28493
-3.36651 1.7306 2.277
-3.38254 1.73555 2.27305
-3.38465 1.73233 2.25811
-3.39684 1.72997 2.23323
-3.40784 1.73398 2.23326
-3.42102 1.73163 2.20939
-3.42413 1.72943 2.19544
-3.43618 1.73133 2.1885
-3.44626 1.73219 2.17857
-3.45931 1.7351 2.17162
-3.45545 1.72881 2.15268
-3.46247 1.72978 2.14972
-3.46956 1.72962 2.13877
-3.47863 1.73048 2.12883
-3.49268 1.73338 2.12189
-3.50176 1.73424 2.11194
-3.50896 1.72985 2.08506
-3.515 1.73078 2.08009
-3.5191 1.72859 2.06715
-3.53812 1.73556 2.06419
-3.53824 1.73132 2.04825
-3.54731 1.73118 2.03832
-3.55142 1.72997 2.02437
-3.56348 1.73186 2.01643
-3.5705 1.73382 2.01345
-3.5756 1.73264 2.00051
-3.59064 1.73656 1.99456
-3.59176 1.73334 1.97962
-3.59586 1.73113 1.96568
-3.6109 1.73505 1.95973
-3.61003 1.73082 1.94379
-3.62302 1.73583 1.94381
-3.62812 1.73464 1.93086
-3.63421 1.73346 1.91893
-3.63931 1.73328 1.90597
-3.64938 1.73415 1.89703
-3.65647 1.73398 1.88508
-3.66156 1.7328 1.87314
-3.67057 1.73678 1.87114
-3.67169 1.73256 1.85621
-3.67878 1.73239 1.84427
-3.69482 1.73731 1.83831
-3.69593 1.73509 1.82335
-3.70501 1.73595 1.81341
-3.71906 1.73985 1.80646
-3.72609 1.74078 1.80149
-3.7272 1.73858 1.78753
-3.73429 1.7384 1.77559
-3.7354 1.7362 1.76163
-3.73751 1.73298 1.74669
-3.75854 1.73993 1.74274
-3.75865 1.73671 1.72779
-3.76468 1.73866 1.72381
-3.77077 1.73848 1.71185
-3.78184 1.74036 1.70291
-3.78694 1.73917 1.68996
-3.798 1.74204 1.681
-3.79613 1.73779 1.66405
-3.80521 1.73865 1.6541
-3.81024 1.73958 1.64912
-3.81434 1.73839 1.63617
-3.82342 1.74025 1.62621
-3.83648 1.74312 1.61727
-3.84257 1.74295 1.60531
-3.84667 1.74176 1.59236
-3.85077 1.74157 1.57939
-3.86377 1.74657 1.57841
-3.86987 1.74638 1.56546
-3.87098 1.74317 1.55152
-3.89101 1.75011 1.54656
-3.88515 1.74484 1.52859
-3.89921 1.74873 1.52064
-3.9053 1.74854 1.50769
-3.91842 1.75032 1.49176
-3.92451 1.75014 1.47981
-4.02934 1.74862 1.23758
-4.02745 1.7454 1.22262
-4.02856 1.74319 1.20866
-4.03167 1.74199 1.19469
-4.03975 1.74383 1.18373
-4.04285 1.74264 1.17077
-4.0429 1.74154 1.16378
-4.04102 1.7383 1.14781
-4.0491 1.74014 1.13685
-4.0532 1.73995 1.12388
-4.05929 1.73978 1.11192
-4.05741 1.73655 1.09696
-4.07746 1.74345 1.089
-4.08051 1.74436 1.08301
-4.08161 1.74316 1.06904
-4.09169 1.745 1.05808
-4.0918 1.74279 1.04411
-4.0959 1.7426 1.03115
-4.09501 1.7404 1.01717
-4.1031 1.74222 1.0052
-4.10115 1.74012 0.998219
-4.11423 1.74397 0.987259
-4.11633 1.74277 0.97429
-4.11643 1.74157 0.960307
-4.11754 1.73936 0.946346
-4.12264 1.74017 0.933371
-4.13571 1.74403 0.923411
-4.1218 1.73686 0.91241
-4.1269 1.73667 0.89945
-4.13498 1.7385 0.887482
-4.14007 1.73933 0.875507
-4.14727 1.73895 0.849563
-4.14239 1.73471 0.833587
-4.14754 1.73443 0.814627
-4.15783 1.73386 0.775707
3.44255 1.71519 2.12791
3.42778 1.71765 2.15799
3.41281 1.71373 2.16316
3.40992 1.71594 2.17715
3.41206 1.72221 2.19505
3.39106 1.71524 2.19631
3.39716 1.72043 2.20919
3.39125 1.72161 2.22122
3.38031 1.72073 2.22931
3.37843 1.72396 2.24428
3.37152 1.72514 2.25632
3.35756 1.72124 2.26248
3.34662 1.72037 2.27058
3.34775 1.72562 2.28749
3.33273 1.7196 2.2857
3.33387 1.72485 2.30261
3.334 1.7301 2.31953
3.31602 1.72416 2.32276
3.31514 1.72839 2.3387
3.30534 1.73279 2.36472
3.28151 1.73214 2.38791
2.30282 1.73222 3.2304
2.29087 1.73232 3.23649
1.97308 1.72594 3.4
1.97421 1.73217 3.4159
1.95921 1.72918 3.41606
1.94319 1.72517 3.41424
1.93124 1.72526 3.42033
1.92232 1.72743 3.43136
1.90325 1.72031 3.42261
1.89536 1.72453 3.43661
1.89243 1.72768 3.44659
1.87741 1.72364 3.44376
1.86343 1.7227 3.44688
1.84842 1.7187 3.44605
1.83849 1.72084 3.4551
1.82856 1.72298 3.46414
1.81559 1.72204 3.46825
1.81062 1.72311 3.47227
1.79765 1.72218 3.47639
1.7857 1.72227 3.48248
1.77374 1.72236 3.48757
1.76584 1.72657 3.50156
1.74981 1.72152 3.49776
1.73786 1.72263 3.50483
1.73086 1.72062 3.50392
1.72093 1.72378 3.51395
1.70898 1.72388 3.52003
1.69804 1.725 3.5281
1.68303 1.722 3.52726
1.67208 1.72311 3.53433
1.66012 1.72319 3.53942
1.65618 1.72532 3.54742
1.64319 1.72434 3.54853
1.62819 1.72135 3.54869
1.61826 1.72349 3.55773
1.60528 1.72255 3.56084
1.59537 1.72573 3.57287
1.58036 1.72271 3.57103
1.57437 1.72275 3.57307
1.56139 1.72078 3.5752
1.55046 1.72394 3.58524
1.53849 1.72299 3.58834
1.52552 1.72306 3.59244
1.51152 1.72107 3.59257
1.50262 1.72527 3.60558
1.49663 1.72531 3.60763
1.48265 1.72335 3.60976
1.47272 1.72549 3.6188
1.45974 1.72554 3.6219
1.44472 1.72152 3.62007
1.43583 1.72673 3.63407
1.42183 1.72474 3.6342
1.41481 1.72272 3.63228
1.40797 1.73002 3.65223
1.39396 1.72802 3.65137
1.37691 1.72294 3.64557
1.37007 1.73024 3.66551
1.35504 1.72619 3.66169
1.33797 1.72109 3.65389
-2.22193 1.7288 3.14853
-2.3255 1.72575 3.07334
-2.68715 1.74371 2.85277
-2.69623 1.74257 2.84285
-2.71436 1.74131 2.82501
-2.72542 1.7422 2.81707
-2.73853 1.74101 2.80319
-2.7486 1.74088 2.79427
-2.7707 1.74269 2.7804
-2.7768 1.7395 2.76749
-2.7938 1.7445 2.76655
-2.78693 1.73726 2.7506
-2.80196 1.74021 2.74667
-2.81712 1.73689 2.72483
-2.82818 1.7378 2.7179
-2.84518 1.7428 2.71695
-2.84631 1.73755 2.70004
-2.85135 1.73748 2.69508
-2.87445 1.74028 2.68121
-2.88054 1.73811 2.66928
-2.90165 1.7399 2.65441
-2.90372 1.73779 2.64646
-2.91392 1.7314 2.61963
-2.92894 1.73536 2.61668
-2.93404 1.73317 2.60375
-2.9451 1.73406 2.59582
-2.94722 1.72984 2.5809
-2.96217 1.73593 2.58592
-2.97124 1.7358 2.57699
-2.97932 1.73464 2.56606
-2.99733 1.74064 2.56511
-2.9935 1.73231 2.5432
-3.00553 1.73425 2.53826
-3.02057 1.73818 2.53332
-3.01369 1.73096 2.51837
-3.02375 1.73185 2.51043
-3.03977 1.73581 2.50749
-3.04189 1.73158 2.49157
-3.04599 1.72839 2.47865
-3.06996 1.73845 2.48168
-3.06513 1.72912 2.45978
-3.07519 1.73001 2.45184
-3.09313 1.73813 2.45886
-3.09624 1.73492 2.44492
-3.10234 1.73273 2.432
-3.11637 1.73667 2.42705
-3.12246 1.7345 2.41512
-3.12656 1.73231 2.40219
-3.13458 1.73428 2.40022
-3.14166 1.73313 2.38929
-3.14775 1.73195 2.37735
-3.16179 1.73489 2.37241
-3.16888 1.73372 2.36048
-3.16999 1.72949 2.34555
-3.189 1.73649 2.34459
-3.19509 1.73431 2.33166
-3.19615 1.7322 2.3247
-3.20721 1.73409 2.31675
-3.2123 1.73192 2.30482
-3.22037 1.73178 2.29489
-3.23442 1.7357 2.28893
-3.23256 1.72943 2.27101
-3.24561 1.73134 2.26408
-3.24964 1.73126 2.25911
-3.26468 1.7352 2.25416
-3.27076 1.73504 2.24321
-3.27884 1.73489 2.23227
-3.2899 1.73577 2.22434
-3.29499 1.7346 2.21239
-3.31301 1.73957 2.20946
-3.29916 1.72929 2.1915
-3.31618 1.73425 2.18756
-3.32227 1.73407 2.1756
-3.32836 1.73291 2.16466
-3.34241 1.73582 2.15773
-3.34948 1.73568 2.14778
-3.3516 1.73246 2.13284
-3.35364 1.73137 2.12687
-3.3657 1.73326 2.11893
-3.36782 1.73004 2.104
-3.37787 1.73193 2.09604
-3.39491 1.73687 2.0911
-3.39602 1.73265 2.07617
-3.41007 1.73657 2.07021
-3.4161 1.73751 2.06624
-3.41323 1.73226 2.0493
-3.42529 1.73415 2.04136
-3.44033 1.73807 2.03541
-3.44144 1.73485 2.02047
-3.45649 1.73877 2.01452
-3.46655 1.74064 2.00557
-3.46263 1.73649 1.9956
-3.46971 1.73634 1.98465
-3.48774 1.74129 1.98072
-3.48885 1.73807 1.96577
-3.49991 1.73996 1.95782
-3.50699 1.7398 1.94688
-3.50612 1.73556 1.93093
-3.51315 1.73751 1.92696
-3.52521 1.7394 1.91902
-3.5303 1.73923 1.90706
-3.52942 1.73499 1.89111
-3.54247 1.73789 1.88416
-3.54258 1.73467 1.86921
-3.55266 1.73553 1.85927
-3.57063 1.74359 1.86229
-3.56477 1.73632 1.84435
-3.57783 1.73921 1.83641
-3.57994 1.737 1.82245
-3.59598 1.74193 1.8165
-3.59908 1.73974 1.80355
-3.61413 1.74364 1.79661
-3.6112 1.74051 1.78763
-3.61131 1.73729 1.77268
-3.62038 1.73814 1.76273
-3.63344 1.74203 1.75477
-3.63952 1.74188 1.74382
-3.64761 1.74172 1.73288
-3.6527 1.74154 1.72092
-3.65774 1.74147 1.71596
-3.66383 1.7413 1.704
-3.66493 1.73909 1.69004
-3.68097 1.74402 1.68409
-3.68109 1.7408 1.66914
-3.68419 1.73861 1.65619
-3.70123 1.74453 1.65023
-3.69637 1.73826 1.63228
-3.7024 1.7402 1.6283
-3.71446 1.74309 1.62035
-3.72851 1.74699 1.61239
-3.72962 1.74478 1.59843
-3.74368 1.74867 1.59048
-3.74977 1.7485 1.57853
-3.75386 1.74732 1.56657
-3.7569 1.74724 1.5606
-3.76498 1.74808 1.54964
-3.76709 1.74587 1.53569
-3.7682 1.74367 1.52173
-3.78524 1.74859 1.51578
-3.79233 1.74942 1.50382
-3.99516 1.74203 0.996391
-4.00225 1.74385 0.984416
-4.00345 1.74046 0.957472
-4.04834 1.74274 0.83976
-4.04849 1.73945 0.819807
-4.05678 1.73787 0.780888
-4.06387 1.7397 0.768912
-4.05804 1.73437 0.746944
-4.07211 1.73923 0.736977
-4.07631 1.73785 0.711025
-4.07442 1.73564 0.697042
-4.08565 1.73619 0.666114
-4.09385 1.73681 0.640163
-4.09694 1.73662 0.627187
-4.10129 1.73394 0.581253
-4.10958 1.73339 0.543319
3.41362 1.71739 2.00508
3.40872 1.71959 2.01809
3.39376 1.71567 2.02326
3.39891 1.72295 2.04211
3.38093 1.71702 2.04634
3.383 1.72016 2.05528
3.38916 1.72845 2.07511
3.37118 1.7225 2.07833
3.36828 1.72471 2.09232
3.36338 1.72691 2.10533
3.35445 1.72605 2.11441
3.34553 1.7252 2.12449
3.34156 1.72528 2.12952
3.32962 1.72339 2.13664
3.32371 1.72458 2.14867
3.32181 1.72778 2.16264
3.31189 1.72694 2.17273
3.30698 1.72912 2.18473
3.29409 1.72834 2.19884
3.27737 1.7329 2.23591
3.26643 1.73102 2.24402
1.73818 1.73027 3.41271
1.72419 1.72931 3.41483
1.71324 1.72941 3.42091
1.70026 1.72846 3.42402
1.68931 1.72957 3.43109
1.67837 1.72968 3.43817
1.6664 1.72975 3.44226
1.66347 1.73289 3.45123
1.62656 1.73109 3.46354
1.61561 1.7322 3.47061
1.59169 1.73338 3.48177
1.5857 1.7324 3.48283
1.53785 1.73272 3.50219
1.52486 1.73076 3.50432
1.51188 1.73081 3.50742
1.50488 1.72982 3.50748
1.49496 1.73197 3.51753
1.483 1.73206 3.52262
1.42813 1.73136 3.54104
1.41718 1.73246 3.54711
1.40317 1.73045 3.54625
1.37924 1.73061 3.55542
1.36933 1.73378 3.56645
1.34728 1.7277 3.56071
1.33534 1.72983 3.56877
-1.64954 1.72115 3.33135
-1.95563 1.7242 3.18659
-1.96668 1.72412 3.18068
-1.9797 1.72508 3.17776
-1.98778 1.72293 3.16685
-2.00869 1.73312 3.17886
-2.01678 1.72895 3.16698
-2.03088 1.72777 3.1541
-2.04588 1.73078 3.15417
-2.05593 1.73068 3.14725
-2.06797 1.73161 3.14232
-2.4307 1.73444 2.91298
-2.46781 1.73925 2.89819
-2.47885 1.74017 2.89226
-2.52907 1.74377 2.86358
-2.88136 1.7435 2.56019
-2.90254 1.74216 2.53637
-2.91359 1.74406 2.52942
-2.95092 1.74144 2.48574
-2.96197 1.74334 2.47879
-2.97303 1.74525 2.47185
-2.97912 1.74307 2.45992
-3.00533 1.74268 2.43212
-3.01333 1.74567 2.43114
-3.02651 1.74234 2.40828
-3.04762 1.74513 2.3934
-3.04775 1.73988 2.37648
-3.06477 1.74485 2.37353
-3.07986 1.74568 2.36163
-3.08595 1.74451 2.34969
-3.09203 1.74335 2.33875
-3.10308 1.74425 2.33182
-3.11427 1.74089 2.30695
-3.12427 1.7439 2.30698
-3.13334 1.74477 2.29804
-3.14141 1.74463 2.2881
-3.16465 1.74319 2.25729
-3.17272 1.74304 2.24735
-3.17774 1.744 2.24438
-3.19589 1.74474 2.2255
-3.20495 1.74561 2.21655
-3.21402 1.74648 2.20761
-3.22011 1.74531 2.19567
-3.2403 1.74495 2.17082
-3.24937 1.74583 2.16188
-3.26652 1.74654 2.14199
-3.26961 1.74335 2.12906
-3.28167 1.74624 2.12111
-3.28769 1.7472 2.11814
-3.29079 1.74501 2.10519
-3.30285 1.74692 2.09826
-3.30496 1.7437 2.08332
-3.31701 1.7466 2.07636
-3.32409 1.74644 2.06542
-3.32818 1.74427 2.05348
-3.33521 1.74621 2.0495
-3.34527 1.7471 2.04156
-3.35336 1.74695 2.03063
-3.35247 1.74272 2.01568
-3.36652 1.74563 2.00874
-3.37658 1.74752 2.00079
-3.38571 1.74627 1.98387
-3.40187 1.74698 1.96298
-3.40397 1.74477 1.94903
-3.41702 1.74769 1.94308
-3.4413 1.74714 1.90527
-3.44341 1.74394 1.89133
-3.46863 1.74651 1.86148
-3.48384 1.74511 1.83361
-3.49689 1.74802 1.82666
-3.50398 1.74786 1.81572
-3.50707 1.74667 1.80276
-3.51814 1.74854 1.79381
-3.56876 1.74835 1.71118
-4.00084 1.73876 0.640434
-4.02674 1.737 0.520638
-4.03089 1.73672 0.501671
-4.03009 1.73432 0.474697
-4.03318 1.73415 0.462721
-4.03927 1.73497 0.450753
-4.04137 1.73478 0.43777
-4.04147 1.73359 0.424786
-4.05489 1.73476 0.367862
3.30554 1.71629 1.99391
3.27679 1.71482 2.02815
3.26496 1.71715 2.05021
3.26105 1.71933 2.06221
3.25313 1.7195 2.07327
3.2442 1.71864 2.08235
3.23929 1.72082 2.09435
3.24136 1.72395 2.10329
3.22941 1.72107 2.11043
3.22652 1.72428 2.1244
3.21759 1.72342 2.13348
3.21972 1.72967 2.15038
3.20174 1.72372 2.1536
3.19783 1.7259 2.1656
3.1989 1.72904 2.17455
3.19702 1.73326 2.1895
3.1911 1.73343 2.20055
3.18016 1.73255 2.20864
3.17122 1.73168 2.21672
1.91965 1.72415 3.2094
1.91377 1.72939 3.22537
1.88781 1.72648 3.23061
1.8809 1.72966 3.24262
1.87392 1.7287 3.24468
1.86195 1.72777 3.24879
1.84998 1.72783 3.25288
1.84106 1.73 3.26391
1.82807 1.72803 3.26504
1.81204 1.723 3.26224
1.80413 1.72616 3.27325
1.80017 1.72826 3.27925
1.7872 1.72732 3.28336
1.77522 1.72536 3.28548
1.76325 1.72545 3.29057
1.7523 1.72554 3.29665
1.73931 1.72358 3.29878
1.72837 1.72469 3.30585
1.72238 1.72371 3.30691
1.71345 1.72687 3.31693
1.70251 1.72798 3.324
1.69054 1.72705 3.3281
1.68161 1.7292 3.33814
1.66659 1.72517 3.33531
1.65259 1.72318 3.33544
1.65067 1.72734 3.3464
1.63973 1.72845 3.35347
1.62573 1.72546 3.35362
1.61577 1.72656 3.35968
1.60585 1.72972 3.3697
1.59285 1.72673 3.36985
1.58688 1.72779 3.37388
1.57695 1.72993 3.38292
1.5609 1.72485 3.37712
1.54791 1.72289 3.37924
1.54409 1.73223 3.40214
1.52804 1.72614 3.39535
1.51608 1.72623 3.40044
1.50218 1.73043 3.41348
1.48817 1.72744 3.41363
1.47724 1.72956 3.42168
1.46322 1.72555 3.41985
1.45125 1.72561 3.42394
1.44337 1.73084 3.43892
1.4324 1.73091 3.443
3.85258 -0.608174 15.7791
3.8285 -0.610335 15.9023
3.79928 -0.611788 16.0056
3.76688 -0.615609 16.2189
3.74084 -0.617695 16.3472
3.71068 -0.619029 16.4584
3.68053 -0.621333 16.5717
3.65044 -0.623519 16.693
3.62244 -0.625528 16.8262
3.58928 -0.629876 17.0716
3.55926 -0.631913 17.2029
3.52929 -0.633877 17.3391
3.49621 -0.636031 17.4624
3.46631 -0.638847 17.6087
3.43123 -0.641014 17.731
2.76794 -0.695816 20.8913
2.72643 -0.698853 21.0897
2.66604 -0.704684 21.4362
2.41101 -0.726814 22.6327
2.31154 -0.734795 23.1026
2.26032 -0.739262 23.3391
2.20819 -0.743536 23.5886
2.0752 -0.75556 24.2568
2.01918 -0.760623 24.5204
3.87114 -0.502177 15.7114
3.8419 -0.503659 15.8126
3.81474 -0.504995 15.9239
3.72808 -0.509356 16.3687
3.69896 -0.510602 16.4859
3.66986 -0.511819 16.6052
3.64282 -0.512903 16.7334
3.54956 -0.518474 17.2313
3.51958 -0.520438 17.3675
3.48861 -0.521401 17.5038
3.45764 -0.52335 17.6411
3.42775 -0.525136 17.7893
3.39582 -0.52601 17.9316
2.68247 -0.564985 21.348
2.56822 -0.570526 21.8471
2.52177 -0.573441 22.0535
2.42707 -0.577885 22.4923
2.15329 -0.594558 23.8538
2.09807 -0.597008 24.0913
3.88167 -0.424215 15.6411
3.79384 -0.426915 16.0629
3.76879 -0.428031 16.1891
3.73653 -0.428556 16.2874
3.70421 -0.430215 16.5117
3.67617 -0.430314 16.6389
3.6471 -0.431456 16.7632
3.61909 -0.432496 16.8944
3.58697 -0.43274 17.0117
3.55799 -0.433704 17.1479
2.62633 -0.464431 21.585
2.55987 -0.466391 21.9226
2.51242 -0.468306 22.129
2.46399 -0.469175 22.3384
2.13808 -0.481152 23.9473
2.08182 -0.482675 24.1797
2.02255 -0.484241 24.4092
3.88625 -0.300224 15.5723
3.85061 -0.299517 15.7535
3.82446 -0.299825 15.8668
3.79625 -0.299249 15.972
3.68057 -0.299679 16.5459
3.65249 -0.298837 16.6691
3.62446 -0.298921 16.7974
3.59541 -0.299019 16.9246
3.5013 -0.298309 17.4414
3.47137 -0.298184 17.5836
3.44148 -0.29897 17.7319
2.54341 -0.296524 21.9792
2.49597 -0.296424 22.1866
2.45078 -0.296837 22.427
2.06426 -0.297046 24.2201
3.84399 -0.21487 15.7963
3.82302 -0.214826 15.9335
3.79176 -0.213367 16.0307
3.76155 -0.21279 16.136
3.72609 -0.211728 16.3413
3.69905 -0.210828 16.4685
3.67303 -0.210884 16.5987
3.64398 -0.209982 16.7259
3.61287 -0.209226 16.8431
3.58489 -0.208192 16.9794
3.54974 -0.207523 17.2256
3.52078 -0.206459 17.3639
3.4589 -0.205252 17.6454
2.97882 -0.192642 19.8951
2.93809 -0.192124 20.0634
2.88342 -0.190493 20.3739
2.56072 -0.18306 21.8754
2.51437 -0.181768 22.0957
2.46487 -0.1808 22.2941
2.41648 -0.179595 22.5085
3.89019 -0.102604 15.5453
3.88277 -0.101443 15.6233
3.8566 -0.10081 15.7326
3.83045 -0.0991176 15.8457
3.80328 -0.0974541 15.9569
3.74066 -0.0937439 16.2724
3.71253 -0.0930204 16.3876
3.68757 -0.0909439 16.5268
3.65638 -0.0893368 16.634
3.62941 -0.0883031 16.7702
3.57133 -0.0844848 17.0256
3.5641 -0.083969 17.1277
3.50412 -0.0809567 17.3961
3.47732 -0.0785679 17.5563
3.4443 -0.0766337 17.6856
3.00497 -0.0525124 19.7688
2.96631 -0.0498633 19.9461
2.8859 -0.0457107 20.2907
2.45752 -0.0217159 22.3658
2.40807 -0.0186295 22.5722
2.07515 0.000335889 24.1766
2.01689 0.00279906 24.4081
3.77279 -0.0155826 16.149
3.74363 -0.0139177 16.2602
3.7114 -0.0123691 16.3634
3.65212 -0.00698021 16.7248
3.62101 -0.00422512 16.842
3.59303 -0.00219087 16.9782
3.56093 -0.000405357 17.0975
3.52991 0.00154228 17.2277
3.43093 0.0105069 17.7614
2.98383 0.0450473 19.8725
2.94308 0.0475499 20.0398
2.51921 0.080563 22.0488
2.47401 0.0851201 22.2871
2.42246 0.0880008 22.4795
3.89215 0.0770939 15.5236
3.82726 0.0832724 15.8031
3.50189 0.118342 17.3472
3.47093 0.121393 17.4844
3.44206 0.124635 17.6346
3.41216 0.127819 17.7808
3.00366 0.170576 19.7055
2.96497 0.175165 19.8788
2.55297 0.219917 21.8705
2.50545 0.223854 22.0668
2.45813 0.22919 22.2901
3.46708 0.232547 17.4938
3.43719 0.236745 17.641
3.3796 0.24551 17.9603
2.99917 0.296424 19.7617
2.49095 0.363663 22.1198
2.11465 0.415811 23.9372
3.88076 0.293012 15.5835
3.85355 0.296586 15.6887
3.76572 0.310854 16.1082
3.7386 0.315606 16.2253
3.71152 0.319417 16.3465
3.62213 0.336574 16.826
3.59002 0.34033 16.9432
3.55997 0.344217 17.0694
3.53098 0.349222 17.2035
3.49894 0.353126 17.3307
3.47003 0.358279 17.4749
3.4401 0.363403 17.6171
3.39373 0.370635 17.8333
3.00485 0.43659 19.7046
2.87072 0.459237 20.3503
2.55099 0.51156 21.8442
2.39007 0.539596 22.6501
2.05416 0.596545 24.253
1.99595 0.605096 24.4903
3.83366 0.386649 15.8265
3.7439 0.403066 16.256
3.68771 0.41266 16.4963
3.66175 0.418722 16.6345
3.53435 0.441817 17.2432
3.46927 0.452639 17.4985
2.53741 0.627254 21.8896
2.03386 0.72576 24.3332
1.97353 0.735076 24.5546
3.86938 0.476992 15.6479
3.84011 0.481449 15.7451
3.81498 0.48617 15.8602
3.78254 0.496244 16.0663
3.75438 0.500907 16.1775
3.72522 0.505572 16.2886
3.69713 0.511384 16.4098
3.6701 0.517298 16.5379
3.57878 0.538575 17.0254
3.54979 0.54458 17.1595
3.51981 0.5506 17.2947
3.48675 0.55646 17.4188
3.45576 0.562467 17.553
3.44653 0.566983 17.655
3.41355 0.572991 17.7892
2.98257 0.663722 19.7784
2.88707 0.684661 20.2429
2.5259 0.763047 21.9416
2.48167 0.773543 22.1759
2.40808 0.78832 22.4952
2.02431 0.875461 24.3791
1.96513 0.886072 24.6204
3.8132 0.596456 15.8786
3.7881 0.602236 15.9977
3.66941 0.63176 16.5682
3.6424 0.638719 16.6994
3.6113 0.644504 16.8185
3.58019 0.650273 16.9367
3.48514 0.67707 17.4591
3.45319 0.684151 17.5982
3.41916 0.691071 17.7264
2.9731 0.799602 19.8364
2.87563 0.823572 20.3029
2.70835 0.8639 21.0607
2.60356 0.892208 21.6171
2.55921 0.903467 21.8353
2.50963 0.913286 22.0236
2.46229 0.925578 22.2438
2.24248 0.981755 23.3267
2.18709 0.992949 23.54
2.13294 1.00662 23.7853
1.99707 1.04177 24.4649
3.88588 0.677729 15.5618
3.7573 0.710468 16.1463
3.73018 0.717219 16.2635
3.61068 0.7511 16.8579
3.58269 0.758104 16.9921
3.55369 0.766079 17.1242
3.41947 0.801532 17.7568
3.38756 0.809687 17.9009
3.17425 0.867883 18.9178
2.03086 1.17916 24.2895
3.91735 0.758587 15.3503
3.89116 0.76519 15.4574
3.86497 0.771793 15.5645
3.86272 0.77826 15.6635
3.83656 0.784922 15.7746
3.81046 0.791703 15.8937
3.78124 0.798249 15.9968
3.75414 0.80503 16.116
3.72077 0.819252 16.332
3.69267 0.826034 16.4512
3.66464 0.833949 16.5793
3.63556 0.841761 16.7004
3.6055 0.849619 16.8245
3.57546 0.857521 16.9517
3.54647 0.865525 17.0858
3.47727 0.888053 17.456
3.44636 0.897207 17.6001
3.4123 0.905067 17.7243
3.38041 0.914252 17.8704
3.33941 0.931204 18.1355
3.30447 0.939302 18.2757
3.27271 0.949753 18.4398
3.23782 0.958939 18.5859
3.20407 0.969406 18.751
3.16513 0.978507 18.8912
3.13144 0.989093 19.0643
2.96636 1.03879 19.847
2.92777 1.05058 20.0341
2.79096 1.09384 20.7206
2.74736 1.10559 20.9048
2.7038 1.11745 21.0959
2.65714 1.12811 21.2732
2.61266 1.1411 21.4733
2.50513 1.17893 22.0647
2.45672 1.19207 22.2749
2.40947 1.20752 22.506
2.35697 1.21949 22.7043
2.30566 1.23385 22.9285
2.18168 1.27675 23.5919
2.12642 1.29118 23.8211
2.06912 1.30555 24.0463
3.93218 0.859121 15.3187
3.87978 0.873282 15.5299
3.85564 0.880987 15.644
3.79701 0.901663 15.9572
3.77092 0.910444 16.0763
3.74071 0.91702 16.1814
3.71466 0.925889 16.3065
3.59415 0.965755 16.8999
3.56724 0.975906 17.044
3.531 0.982412 17.1442
3.50621 0.992799 17.3042
3.40205 1.02739 17.8126
3.36908 1.03743 17.9487
3.33514 1.04653 18.0888
3.30123 1.05667 18.2319
3.19068 1.09745 18.8203
3.11805 1.11814 19.1335
3.08442 1.13084 19.3146
2.91541 1.18567 20.1062
2.87575 1.19832 20.2833
2.83306 1.20992 20.4565
2.6925 1.25965 21.1749
2.64797 1.27355 21.3691
2.60349 1.28756 21.5702
2.55699 1.30152 21.7684
2.29645 1.3882 23.0183
2.24416 1.40457 23.2435
2.06001 1.4681 24.149
2.00278 1.48459 24.3822
1.94365 1.50229 24.6295
3.82311 0.981755 15.8288
3.79598 0.990477 15.9439
3.76885 0.998199 16.059
3.67722 1.03085 16.5043
3.65023 1.03984 16.6373
3.61911 1.04858 16.7535
3.59214 1.05861 16.8895
3.46092 1.10505 17.5209
3.42893 1.11405 17.6551
3.35388 1.14287 18.0442
3.28607 1.16419 18.3335
3.25333 1.17668 18.4996
3.21531 1.18663 18.6297
2.94296 1.28067 19.9036
2.84978 1.31821 20.4088
2.80921 1.33202 20.5969
2.76556 1.3457 20.7761
2.72094 1.35942 20.9572
2.5727 1.41579 21.7186
2.52737 1.43208 21.9387
2.47682 1.44695 22.1309
2.42844 1.46314 22.3441
2.31016 1.50947 22.9684
2.25781 1.52672 23.1855
2.20347 1.543 23.4047
2.07261 1.59413 24.0831
2.01545 1.61277 24.3262
1.95629 1.6304 24.5695
4.01238 1.02733 14.9296
3.96293 1.0434 15.1347
3.93874 1.051 15.2418
3.91356 1.0596 15.3489
3.83169 1.09177 15.7621
3.80557 1.10152 15.8792
3.77738 1.11013 15.9863
3.74291 1.12614 16.1883
3.71583 1.13495 16.3094
3.6867 1.14466 16.4235
3.65864 1.15353 16.5486
3.63058 1.16339 16.6727
3.60051 1.17322 16.7948
3.53528 1.20268 17.1609
3.50738 1.21485 17.3059
3.47639 1.22484 17.439
3.44334 1.23473 17.5651
3.41033 1.24468 17.6953
3.38049 1.25796 17.8483
3.30448 1.28886 18.2435
3.27167 1.30221 18.4006
3.23574 1.31331 18.5407
3.20193 1.32566 18.6978
3.16402 1.33682 18.8419
3.12028 1.36126 19.1399
3.0835 1.37467 19.301
2.96722 1.41402 19.7924
2.9275 1.42755 19.9615
2.83532 1.46908 20.4657
2.79268 1.48277 20.6458
2.75004 1.49745 20.8249
2.55828 1.57573 21.7803
2.51184 1.59281 21.9865
2.46123 1.60756 22.1697
3.70225 1.22267 16.3562
3.55082 1.28465 17.0915
