2.90724 1.75109 6.20093
2.88427 1.75015 6.20412
2.86333 1.7503 6.21328
2.84647 1.75258 6.23137
2.81535 1.74537 6.21571
2.81048 1.74962 6.23269
2.79055 1.74978 6.24284
2.76552 1.74674 6.23907
2.74561 1.74794 6.2512
2.72874 1.75019 6.2673
2.70067 1.74509 6.25959
2.68787 1.75048 6.28561
2.67485 1.74845 6.28273
2.6529 1.74857 6.2899
2.63705 1.75186 6.30897
2.61203 1.74883 6.3062
2.587 1.74581 6.30344
2.56913 1.74807 6.32054
2.54818 1.74818 6.3267
2.53414 1.74511 6.32185
2.51421 1.74627 6.33198
2.49531 1.74748 6.34511
2.47845 1.75076 6.36319
2.45241 1.7477 6.35843
2.43351 1.74891 6.37156
2.40849 1.74589 6.36879
2.40057 1.74805 6.37982
2.37963 1.74817 6.38698
2.35357 1.74409 6.38023
2.33161 1.74318 6.38541
2.30759 1.74117 6.38362
2.28972 1.74342 6.39973
2.27183 1.74665 6.41481
2.25984 1.74567 6.41592
2.23275 1.74053 6.4052
2.21282 1.74068 6.41435
2.19393 1.7429 6.42846
2.17197 1.74299 6.43362
2.14693 1.73994 6.42886
2.12802 1.74113 6.44098
2.11704 1.74116 6.44307
2.09303 1.73917 6.44228
2.03019 1.73952 6.46375
2.01027 1.7417 6.47487
1.98521 1.7376 6.46711
1.97936 1.74189 6.4861
1.95535 1.73989 6.48531
1.93542 1.74105 6.49544
1.91654 1.74429 6.51054
1.89352 1.74227 6.50874
1.86952 1.74028 6.50795
1.86058 1.7414 6.516
1.83859 1.74045 6.51818
1.81765 1.74157 6.52533
1.79672 1.74273 6.53547
1.77473 1.74176 6.53665
1.75484 1.744 6.55177
1.73288 1.74407 6.55593
1.61407 1.74354 6.58284
1.59418 1.74677 6.59694
1.56907 1.74158 6.58321
1.55809 1.74161 6.58529
1.49114 1.73977 6.59282
1.42626 1.74004 6.60831
1.39327 1.73908 6.60957
0.759061 1.74306 6.71731
0.516157 1.74142 6.73116
0.0292148 1.74192 6.47479
0.00833083 1.74616 6.48988
-0.0127301 1.74406 6.48207
-0.0346529 1.74622 6.49221
-0.0556291 1.74728 6.49535
-0.0776127 1.74832 6.4975
-0.0877204 1.74412 6.48364
-0.10965 1.74727 6.49276
-0.129788 1.74202 6.47498
-0.151641 1.74732 6.49407
-0.17354 1.75153 6.50718
-0.194609 1.74941 6.49837
-0.215685 1.74628 6.48857
-0.2267 1.74626 6.48665
-0.247676 1.74731 6.4898
-0.269668 1.74735 6.49096
-0.290737 1.74523 6.48215
-0.312612 1.75048 6.49824
-0.332727 1.74627 6.48345
-0.354718 1.7473 6.4846
-0.364749 1.74625 6.48069
-0.386748 1.74627 6.48086
-0.407755 1.74627 6.48002
-0.428754 1.74728 6.48016
-0.471775 1.74727 6.47748
-0.493743 1.74935 6.48162
-0.503789 1.74726 6.47572
-0.52485 1.74516 6.46791
-0.545818 1.74724 6.47204
-0.566849 1.74619 6.46821
-0.587878 1.74615 6.46437
-0.610785 1.75034 6.47648
-0.631861 1.74721 6.46669
-0.641899 1.74614 6.46178
-0.662898 1.74716 6.46192
-0.684905 1.74716 6.46109
-0.70495 1.74609 6.45525
-0.726949 1.7471 6.45541
-0.747956 1.7471 6.45456
-0.769931 1.74916 6.4577
-0.780008 1.74602 6.44782
-0.802883 1.75227 6.4639
-0.821106 1.74386 6.43516
-0.84592 1.75223 6.45923
-0.866927 1.75223 6.45838
-0.88891 1.75428 6.46052
-0.909955 1.7532 6.45469
-0.91997 1.75318 6.45277
-0.941961 1.75421 6.45392
-0.963952 1.75524 6.45507
-0.985951 1.75626 6.45522
-1.00507 1.75204 6.43943
-1.02612 1.75196 6.43358
-1.04712 1.75196 6.43274
-1.05717 1.75088 6.42683
-1.07915 1.75293 6.42897
-1.09925 1.74975 6.41617
-1.12219 1.75288 6.42429
-1.14414 1.75599 6.43041
-1.16617 1.75595 6.42658
-1.1872 1.7559 6.42274
-1.19817 1.75697 6.42681
-1.2173 1.75373 6.41
-1.2393 1.75475 6.41015
-1.25841 1.75155 6.39634
-1.2823 1.75676 6.40944
-1.30238 1.75463 6.39962
-1.32437 1.75666 6.40076
-1.33729 1.75982 6.41081
-1.35448 1.75448 6.38701
-1.37647 1.75549 6.38717
-1.3975 1.75546 6.38432
-1.41565 1.75118 6.36452
-1.43958 1.75533 6.37364
-1.4577 1.75211 6.35782
-1.4716 1.75631 6.37087
-1.49361 1.75731 6.37002
-1.51076 1.75303 6.35021
-1.53276 1.75404 6.35036
-1.55476 1.75504 6.34951
-1.57677 1.75605 6.34866
-1.59781 1.75599 6.34382
-1.60588 1.75384 6.33391
-1.62984 1.75695 6.34005
-1.64795 1.75474 6.32521
-1.66899 1.75468 6.32037
-1.6939 1.75986 6.33148
-1.71787 1.76194 6.33563
-1.73597 1.75976 6.3228
-1.76996 1.7628 6.32401
-1.78905 1.76064 6.31219
-1.83209 1.76258 6.30648
-1.87418 1.76243 6.2948
-2.32528 1.76057 6.15021
-2.36834 1.76248 6.1425
-2.38547 1.75924 6.12567
-2.40257 1.75705 6.11183
-2.41162 1.75697 6.1059
-2.42776 1.7527 6.08709
-2.44488 1.75049 6.07224
-2.46984 1.75458 6.07737
-2.48598 1.75131 6.05854
-2.5031 1.7491 6.0437
-2.52314 1.74903 6.03785
-2.53613 1.75105 6.03892
-2.54931 1.7457 6.01509
-2.57132 1.74771 6.01423
-2.59138 1.7476 6.00638
-2.60947 1.74644 5.99453
-2.63347 1.74945 5.99467
-2.64764 1.74514 5.97284
-2.66356 1.7493 5.9829
-2.68164 1.74815 5.97205
-2.71782 1.74582 5.94835
-2.73789 1.7457 5.9395
-2.754 1.74349 5.92466
-2.78606 1.7454 5.91687
-2.80514 1.74425 5.90603
-2.82323 1.7441 5.89516
-2.84624 1.74608 5.89331
-2.86433 1.74492 5.88146
-2.88143 1.74374 5.86861
-2.89343 1.74473 5.86768
-2.93256 1.74451 5.85098
-2.95557 1.7465 5.84912
-2.97957 1.74951 5.84926
-2.99077 1.74414 5.82342
-3.01575 1.74819 5.82555
-3.02184 1.74603 5.81462
-3.04682 1.74908 5.81677
-3.06295 1.74684 5.79992
-3.08498 1.74879 5.79605
-3.10109 1.74658 5.78121
-3.12411 1.74855 5.77835
-3.14909 1.7526 5.78048
-3.16011 1.75358 5.77855
-3.1851 1.7566 5.77869
-3.20023 1.75436 5.76184
-3.22325 1.75633 5.75898
-3.2443 1.75826 5.75311
-3.26239 1.75708 5.74026
-3.28541 1.75906 5.7384
-3.29644 1.76001 5.73447
-3.30071 1.75148 5.69863
-3.32571 1.7545 5.69877
-3.34182 1.7533 5.68491
-3.36287 1.75422 5.67805
-3.37405 1.74987 5.6542
-3.39116 1.74866 5.63934
-3.40218 1.74964 5.63741
-3.41731 1.7474 5.62055
-3.43341 1.7462 5.60669
-3.45349 1.74607 5.59684
-3.46762 1.74383 5.57998
-3.48373 1.74262 5.56512
-3.50873 1.74562 5.56426
-4.29879 1.74217 5.02819
-4.33906 1.74067 4.99251
-4.35617 1.74047 4.97864
-4.42245 1.74396 4.94108
-4.43262 1.74064 4.91921
-4.44872 1.74044 4.90533
-4.46681 1.74128 4.89345
-4.49903 1.74087 4.8647
-4.51811 1.74172 4.85383
-4.53422 1.74153 4.83995
-4.54624 1.74249 4.83702
-4.5683 1.74539 4.82915
-4.58342 1.74416 4.81328
-4.60051 1.74498 4.80039
-4.62059 1.74585 4.79053
-4.62975 1.74353 4.76863
-4.64586 1.74333 4.75475
-4.65887 1.74531 4.75282
-4.6859 1.74927 4.74896
-4.68118 1.74074 4.71305
-4.71712 1.74887 4.7202
-4.71835 1.74241 4.6893
-4.74834 1.74845 4.69044
-4.76545 1.74925 4.67655
-4.76656 1.74603 4.66161
-4.78068 1.7448 4.64573
-4.81168 1.75083 4.64587
-4.82084 1.74852 4.62497
-4.83 1.7462 4.60307
-4.85505 1.74913 4.59722
-4.85318 1.74588 4.58025
-4.88516 1.75192 4.5814
-4.90127 1.75172 4.56752
-4.90547 1.74734 4.54162
-4.92456 1.74918 4.52973
-4.94563 1.75104 4.51986
-4.97465 1.75602 4.51701
-4.97376 1.7528 4.50205
-4.99088 1.75259 4.48718
-5.00797 1.75341 4.47429
-5.02012 1.75213 4.4554
-5.02232 1.74774 4.42848
-5.05134 1.75271 4.42562
-5.05951 1.74938 4.40273
-5.08047 1.75547 4.4078
-5.0797 1.74902 4.37788
-5.10276 1.75192 4.37001
-5.14392 1.75562 4.34826
-5.14713 1.75123 4.32135
-5.17714 1.75722 4.31949
-5.19634 1.75583 4.29265
-5.21047 1.75559 4.27576
-5.22459 1.75536 4.25986
-5.2258 1.74995 4.23195
-5.27492 1.75675 4.21622
-5.28496 1.75767 4.21028
-5.29214 1.75533 4.18736
-5.31741 1.75382 4.15157
-5.76854 1.75399 3.60389
-5.83529 1.75255 3.5044
2.95975 1.75015 5.8695
2.92393 1.75152 5.89276
2.90297 1.75062 5.89893
2.87795 1.74761 5.89716
2.86311 1.75092 5.91723
2.85008 1.74888 5.91436
2.83218 1.75007 5.92648
2.80816 1.74706 5.9247
2.78924 1.74724 5.93584
2.76727 1.7463 5.93902
2.7514 1.74858 5.95711
2.72636 1.74451 5.95136
2.72148 1.74875 5.96733
2.69848 1.74576 5.96755
2.67447 1.74377 5.96676
2.65758 1.74499 5.98087
2.63662 1.74509 5.98703
2.61871 1.74628 5.99915
2.59776 1.74539 6.00532
2.58982 1.74651 6.01337
2.56683 1.74454 6.01457
2.54689 1.74468 6.02272
2.52694 1.74479 6.02987
2.50496 1.74385 6.03305
2.48605 1.74503 6.04417
2.4712 1.74834 6.06424
2.45613 1.74522 6.0554
2.44028 1.74851 6.07447
2.41726 1.7455 6.07269
2.39734 1.74666 6.08282
2.37943 1.74785 6.09494
2.3554 1.74482 6.09217
2.33954 1.7481 6.11024
2.32651 1.74605 6.10637
2.30861 1.74826 6.11947
2.29072 1.75048 6.13358
2.27282 1.75168 6.1467
2.24572 1.74651 6.13397
2.22884 1.74876 6.15007
2.21479 1.74668 6.14421
2.19587 1.74784 6.15433
2.17901 1.75112 6.17241
2.15189 1.74492 6.15771
2.13297 1.74608 6.16784
2.09718 1.75052 6.19604
2.08211 1.74638 6.18622
2.06317 1.74751 6.19434
2.04837 1.75293 6.22138
2.02535 1.7509 6.21858
1.99413 1.74049 6.18997
1.9783 1.74584 6.21301
1.96245 1.74914 6.23208
1.94149 1.74924 6.23824
1.92639 1.74504 6.22441
1.9044 1.74409 6.22659
1.88239 1.74108 6.2248
1.8645 1.74431 6.23989
1.84353 1.74439 6.24405
1.82359 1.74452 6.2522
1.80162 1.74458 6.25537
1.79164 1.74463 6.25844
1.77065 1.74268 6.26063
1.75278 1.74693 6.2767
1.72359 1.73759 6.25306
1.70673 1.74187 6.27112
1.6868 1.74302 6.28026
1.67166 1.73676 6.26246
1.63282 1.7401 6.28371
1.61081 1.73809 6.2819
1.55513 1.74675 6.3242
1.54104 1.74258 6.31237
1.51798 1.7395 6.30558
1.475 1.73756 6.30794
1.40523 1.74205 6.3384
1.38324 1.74108 6.33958
1.36537 1.74435 6.35667
1.34543 1.74648 6.36479
1.32343 1.7445 6.36498
1.30244 1.74454 6.36714
1.28046 1.74359 6.36932
1.26157 1.74782 6.3844
1.25057 1.74682 6.3835
1.22959 1.74688 6.38666
1.20965 1.74801 6.39479
1.18556 1.74285 6.38305
1.16354 1.74184 6.38123
1.14569 1.74613 6.4003
1.12264 1.74306 6.39452
1.11371 1.7452 6.40356
1.09065 1.7421 6.39578
1.07075 1.7453 6.40888
1.0487 1.74222 6.40209
1.02775 1.74334 6.40924
1.00467 1.7402 6.39945
0.996829 1.74551 6.41944
0.973736 1.74134 6.40767
0.953805 1.74249 6.41681
0.931798 1.74149 6.41599
0.911875 1.74366 6.42611
0.889837 1.7416 6.4213
0.868876 1.74269 6.42644
0.858898 1.74274 6.42952
0.836899 1.74276 6.42968
0.816984 1.74493 6.4408
0.795999 1.74498 6.44296
0.773969 1.74293 6.43916
0.751915 1.74085 6.43235
0.732054 1.74513 6.45044
0.721 1.74303 6.44356
0.701108 1.74625 6.45766
0.679093 1.74524 6.45584
0.658124 1.74531 6.46
0.637194 1.74846 6.46911
0.616194 1.74748 6.46928
0.593064 1.74224 6.45253
0.583171 1.74546 6.46656
0.563257 1.74864 6.47767
0.542272 1.74868 6.47982
0.51918 1.74452 6.46806
0.498173 1.74452 6.46722
0.477219 1.74562 6.47336
0.45632 1.74883 6.48647
0.445259 1.74672 6.47858
0.424298 1.74781 6.48373
0.403336 1.7489 6.48887
0.381168 1.74259 6.46713
0.359176 1.74262 6.46829
0.339291 1.74586 6.48339
0.317254 1.7448 6.47858
0.307346 1.74798 6.49061
0.28537 1.74905 6.49376
0.264416 1.75015 6.4999
0.243317 1.74597 6.48712
0.221294 1.74494 6.4843
0.200356 1.74708 6.49242
0.189349 1.74707 6.49151
0.16838 1.74814 6.49565
0.147427 1.75025 6.50178
0.125373 1.74716 6.49499
0.104405 1.74924 6.49912
0.0833438 1.74613 6.49132
0.0614216 1.7493 6.50144
0.0514068 1.74927 6.49952
-1.72903 1.74172 6.04998
-1.74295 1.74587 6.06002
-1.76201 1.74478 6.05318
-1.78107 1.74468 6.04533
-1.80402 1.74778 6.05145
-1.82699 1.75084 6.05458
-1.84997 1.75291 6.05772
-1.86708 1.7507 6.04288
-1.87807 1.75172 6.04395
-1.89908 1.75272 6.0431
-1.92009 1.7547 6.04122
-1.94111 1.75568 6.03837
-1.96604 1.75983 6.0475
-1.98317 1.7566 6.03167
-2.0071 1.76174 6.03978
-2.01322 1.75751 6.02388
-2.02937 1.75324 6.00506
-2.04942 1.75315 5.99822
-2.07238 1.75624 6.00334
-2.08657 1.75088 5.97853
-2.10075 1.74555 5.95571
-2.12469 1.74968 5.96383
-2.13082 1.74644 5.94692
-2.14988 1.74533 5.93908
-2.17089 1.74732 5.93721
-2.19094 1.74723 5.93036
-2.20803 1.74506 5.91852
-2.22906 1.74602 5.91466
-2.24518 1.7428 5.89883
-2.25424 1.7417 5.89191
-4.69746 1.73926 4.41015
-4.73661 1.74198 4.3894
-4.79198 1.74329 4.34079
-4.81623 1.74081 4.30701
-4.84138 1.74153 4.28719
-4.86862 1.74108 4.25539
-4.88892 1.73751 4.21659
-4.90999 1.7394 4.20772
-4.93414 1.7401 4.18689
-4.94627 1.73986 4.16998
-4.96634 1.74173 4.16011
-4.97549 1.73944 4.14021
-5.00848 1.74648 4.14135
-5.00671 1.74103 4.11141
-5.03076 1.74394 4.10455
-5.04289 1.7437 4.08764
-5.05689 1.7457 4.08672
-5.06903 1.74544 4.06881
-5.09507 1.74937 4.06295
-5.1072 1.74913 4.04604
-5.12827 1.75099 4.03617
-5.14835 1.75386 4.02628
-5.15949 1.75259 4.00738
-5.39245 1.75487 3.74707
-5.42069 1.75542 3.71527
-5.43382 1.75518 3.69837
-5.4369 1.75402 3.6874
-5.44108 1.75068 3.66448
-5.4552 1.75145 3.64858
-5.46932 1.75123 3.63268
-5.47548 1.74892 3.61176
-5.48761 1.74866 3.59385
-5.49974 1.74842 3.57695
-5.50282 1.74726 3.56598
-5.52092 1.74908 3.55309
-5.53305 1.74884 3.53618
-5.53922 1.74652 3.51426
-5.55433 1.74729 3.49836
-5.56248 1.74602 3.47944
-5.57661 1.74677 3.46253
-5.5946 1.75079 3.46261
-5.5938 1.7464 3.43666
-5.60892 1.74718 3.42076
-5.62106 1.74692 3.40286
-5.63517 1.74771 3.38795
-5.63934 1.74437 3.36503
-5.65844 1.74719 3.35213
-5.66451 1.74706 3.34317
-5.67863 1.74783 3.32727
-5.68578 1.74553 3.30635
-5.69791 1.74629 3.28943
-5.718 1.74812 3.27755
-5.72914 1.74785 3.25864
-5.7353 1.74654 3.2377
-5.73938 1.7454 3.22775
-5.75549 1.74719 3.21284
-5.77259 1.74899 3.19894
-5.7887 1.75078 3.18403
-5.80482 1.75156 3.16814
-5.80899 1.74923 3.1462
-5.83116 1.75091 3.12334
-5.84529 1.75167 3.10644
-5.91211 1.7521 2.99792
3.66709 1.7465 5.24714
3.64512 1.74459 5.25234
3.6272 1.74375 5.26249
3.6103 1.74496 5.2756
3.59642 1.7472 5.29167
3.57952 1.74741 5.3048
3.56059 1.74756 5.31394
3.54049 1.74139 5.30218
3.52864 1.74368 5.32124
3.51072 1.74386 5.33237
3.49381 1.74505 5.34448
3.47083 1.74211 5.3477
3.44988 1.74121 5.35387
3.43702 1.7435 5.37294
3.42298 1.74044 5.36809
3.40507 1.74062 5.37922
3.3831 1.73869 5.38342
3.37023 1.74197 5.40147
3.34118 1.73589 5.39478
3.32629 1.73712 5.40987
3.31344 1.74041 5.42892
3.2984 1.73735 5.42408
3.28351 1.73858 5.43918
3.26357 1.7377 5.44634
3.24565 1.73887 5.45746
3.22366 1.73592 5.45967
3.21386 1.7413 5.48467
3.18884 1.73729 5.48292
3.18495 1.74051 5.4979
3.15689 1.73441 5.4902
3.14404 1.73872 5.51024
3.12002 1.73469 5.50748
3.09907 1.73381 5.51465
3.08216 1.73399 5.52577
3.0622 1.73309 5.53194
3.05426 1.73421 5.53998
3.03431 1.73332 5.54615
3.01435 1.73242 5.55231
2.99847 1.73465 5.5674
2.97446 1.73166 5.56663
2.95653 1.7318 5.57576
2.93656 1.73089 5.58092
2.89075 1.73129 5.60627
2.75228 1.73342 5.67629
-1.77671 1.74545 5.82725
-1.8219 1.74111 5.80265
-1.84094 1.74103 5.7968
-1.88587 1.74819 5.80503
-1.88905 1.74085 5.78216
-1.91103 1.74391 5.78528
-1.93103 1.74591 5.7844
-1.96815 1.7447 5.7687
-1.9921 1.74882 5.77582
-2.00822 1.74559 5.75998
-2.02116 1.74872 5.76804
-2.03923 1.74759 5.75819
-2.05241 1.74226 5.73536
-2.08854 1.74103 5.71865
-2.10954 1.74303 5.71778
-2.13566 1.74081 5.70201
-4.56483 1.73747 4.22715
-4.66756 1.73709 4.12992
-4.72996 1.73936 4.07735
-4.75829 1.73674 4.0346
-4.77637 1.73859 4.0237
-4.79544 1.74046 4.01382
-4.81551 1.74232 4.00394
-4.8167 1.73795 3.97901
-4.83876 1.74085 3.97113
-4.85685 1.74268 3.95924
-4.8639 1.74259 3.95229
-4.87702 1.74236 3.93639
-4.8961 1.74422 3.92651
-4.91219 1.74504 3.91362
-4.93724 1.74897 3.90775
-4.94638 1.7477 3.88883
-4.97042 1.75163 3.88295
-4.97549 1.7515 3.87399
-4.9906 1.75129 3.85911
-5.08332 1.75293 3.76377
-5.10041 1.75477 3.75187
-5.10856 1.75248 3.73196
-5.12566 1.7543 3.71906
-5.13878 1.75407 3.70316
-5.14801 1.75062 3.67228
-5.1671 1.75245 3.66039
-5.16729 1.74808 3.63545
-5.1824 1.74887 3.62055
-5.19751 1.74967 3.60665
-5.20664 1.74842 3.58874
-5.20485 1.74301 3.5618
-5.22682 1.74807 3.56489
-5.23894 1.74785 3.54899
-5.24908 1.74759 3.53106
-5.26121 1.74734 3.51416
-5.27333 1.74712 3.49825
-5.27949 1.74381 3.47734
-5.2936 1.7456 3.46242
-5.30264 1.74652 3.45647
-5.31676 1.74629 3.44058
-5.32391 1.745 3.42065
-5.34896 1.74991 3.41377
-5.35114 1.74557 3.39084
-5.36127 1.74531 3.37292
-5.37937 1.74713 3.36003
-5.37748 1.74393 3.34606
-5.38562 1.74265 3.32714
-5.40968 1.74655 3.31926
-5.40987 1.74318 3.29431
-5.42398 1.74397 3.2794
-5.44208 1.74579 3.26651
-5.45022 1.74451 3.24758
-5.46931 1.74735 3.23568
-5.48433 1.75032 3.23275
-5.48252 1.74494 3.20782
-5.49862 1.74675 3.19391
-5.50378 1.74444 3.17298
-5.51889 1.74623 3.15806
-5.53301 1.747 3.14216
-5.54423 1.74458 3.11327
-5.56133 1.7464 3.10037
-5.57644 1.74819 3.08546
-5.60566 1.75077 3.05564
-5.96506 1.73741 2.34144
-5.97636 1.73483 2.30156
3.60939 1.74521 5.02257
3.59348 1.7454 5.03469
3.57353 1.7445 5.04085
3.52669 1.74185 5.06224
3.50673 1.74095 5.06841
3.49184 1.74217 5.08251
3.47391 1.74132 5.09165
3.46003 1.74356 5.10773
3.45612 1.74574 5.11973
3.4301 1.74173 5.11798
3.40609 1.73774 5.11722
3.39728 1.7421 5.14123
3.38137 1.74329 5.15333
3.3604 1.74136 5.15752
3.3374 1.73738 5.15775
3.32945 1.73849 5.16479
3.3105 1.73761 5.17195
3.29967 1.74194 5.19397
3.27059 1.73481 5.1843
3.2638 1.74122 5.21126
3.2408 1.73723 5.21149
3.21984 1.73632 5.21666
3.21187 1.7364 5.22172
3.19293 1.73554 5.22988
3.16487 1.72944 5.22218
3.16112 1.73793 5.25508
3.13913 1.73496 5.25629
3.12019 1.73409 5.26445
3.10327 1.73425 5.27458
3.09836 1.73743 5.28657
3.06724 1.72924 5.27192
3.05337 1.7315 5.289
3.0334 1.72957 5.29318
3.01852 1.7318 5.30826
2.99753 1.72985 5.31044
2.98365 1.7321 5.32652
2.95574 1.73129 5.33874
2.93577 1.73037 5.34291
2.91886 1.73054 5.35403
2.85913 1.73312 5.39045
-1.94031 1.7414 5.61451
-4.48683 1.73645 4.09356
-4.53422 1.73572 4.04292
-4.55329 1.73759 4.03304
-4.57752 1.73615 4.00224
-4.60155 1.74111 3.99835
-4.60762 1.73998 3.98941
-4.62072 1.73978 3.97551
-4.63681 1.74061 3.96361
-4.65192 1.74142 3.94971
-4.67198 1.74431 3.94182
-4.69006 1.74516 3.93094
-4.70615 1.746 3.91905
-4.70824 1.74482 3.90708
-4.72532 1.74567 3.8962
-4.73744 1.74544 3.88029
-4.75353 1.74628 3.8684
-4.77359 1.74916 3.8595
-4.78571 1.74793 3.84361
-4.80876 1.75184 3.83672
-4.79893 1.74552 3.81574
-4.82396 1.74947 3.81087
-4.83608 1.74924 3.79496
-4.85515 1.75211 3.78506
-4.86926 1.75191 3.77117
-4.8774 1.75063 3.75225
-4.88853 1.74939 3.73535
-4.89559 1.74928 3.7274
-4.9077 1.74906 3.71249
-4.91188 1.74573 3.68957
-4.92897 1.74656 3.67769
-4.93015 1.74221 3.65376
-4.95519 1.74714 3.64787
-4.96731 1.74692 3.63296
-4.97536 1.74682 3.62603
-4.98449 1.74556 3.60811
-4.99761 1.74635 3.5932
-5.00078 1.74301 3.57027
-5.01787 1.74385 3.55838
-5.02701 1.74259 3.54047
-5.04509 1.74444 3.52957
-5.05214 1.74534 3.52261
-5.06029 1.74305 3.5027
-5.07042 1.74281 3.48578
-5.09447 1.74672 3.4789
-5.10659 1.74649 3.463
-5.11174 1.7442 3.44307
-5.12884 1.74602 3.43017
-5.13698 1.74374 3.41126
-5.15099 1.74672 3.40932
-5.15615 1.74442 3.38839
-5.17424 1.74625 3.3765
-5.18536 1.74602 3.36058
-5.19251 1.74473 3.34065
-5.22751 1.75276 3.3408
-5.22072 1.74634 3.31284
-5.23474 1.7493 3.3099
-5.23791 1.74598 3.28797
-5.25401 1.7478 3.27506
-5.2721 1.74962 3.26217
-5.28421 1.74941 3.24726
-5.29534 1.74916 3.23035
-5.30945 1.75095 3.21542
-5.31551 1.75084 3.20747
-5.32266 1.74856 3.18856
-5.32782 1.74625 3.16763
-5.34691 1.74909 3.15573
-5.35405 1.74781 3.1368
-5.36815 1.74862 3.12289
-5.38823 1.75147 3.112
-5.38435 1.74824 3.09701
-5.39348 1.74698 3.0791
-5.41356 1.75083 3.06819
-5.41972 1.74854 3.04827
-5.43482 1.75035 3.03435
-5.45209 1.74883 2.9985
-5.46014 1.74973 2.99155
-5.48737 1.75129 2.96073
-5.49452 1.75001 2.9418
-5.81713 1.74216 2.33026
-5.81929 1.73986 2.3103
-5.8065 1.73344 2.2823
-5.81456 1.73433 2.27435
-5.83864 1.73918 2.26345
-5.83183 1.7338 2.23848
-5.8599 1.74068 2.22859
-5.87302 1.74145 2.21267
-5.86322 1.73606 2.18668
-5.85832 1.73286 2.17368
-5.87243 1.73465 2.15876
-5.88057 1.73437 2.13982
-5.8917 1.73513 2.12289
-5.89585 1.73384 2.10294
-5.903 1.73356 2.084
-5.89618 1.7282 2.06002
-5.91329 1.73099 2.04511
-5.91353 1.72752 2.01316
-5.92566 1.72927 1.99622
3.68864 1.7447 4.78895
3.67171 1.74486 4.79907
3.59708 1.74463 4.84764
3.5751 1.74169 4.85085
3.55918 1.74186 4.86197
3.54428 1.74207 4.87508
3.53429 1.7411 4.87717
3.51839 1.74231 4.89028
3.50855 1.74561 4.91031
3.48556 1.74266 4.91252
3.47167 1.74387 4.92661
3.44867 1.73991 4.92784
3.43782 1.7432 4.94688
3.42682 1.7422 4.94698
3.40787 1.74032 4.95415
3.38691 1.73841 4.95933
3.36796 1.73753 4.96649
3.35305 1.73872 4.97859
3.33613 1.73888 4.98871
3.31111 1.73387 4.98698
3.30619 1.73602 4.99698
3.28724 1.73513 5.00414
3.27232 1.73531 5.01525
3.25844 1.73754 5.03033
3.22531 1.72833 5.01471
3.2175 1.7337 5.03969
3.19855 1.73282 5.04685
3.19059 1.7329 5.05191
3.17974 1.73619 5.07094
3.14762 1.72799 5.05631
3.1388 1.73234 5.07931
3.11681 1.72939 5.08152
3.10596 1.73369 5.10154
3.09106 1.73488 5.11364
3.07195 1.7287 5.10087
3.03911 1.72903 5.12212
3.02524 1.73128 5.13819
2.94247 1.7288 5.16985
-2.0004 1.73834 5.33798
-3.064 1.73796 4.86293
-3.11521 1.7386 4.8363
-3.13029 1.73845 4.82541
-4.10667 1.73551 4.11372
-4.12275 1.73637 4.10382
-4.20622 1.73949 4.0404
-4.22131 1.73932 4.02851
-4.23243 1.73809 4.01261
-4.25238 1.74421 4.01967
-4.25557 1.73884 3.99477
-4.27958 1.74383 3.99288
-4.28177 1.73846 3.96797
-4.30579 1.74343 3.96508
-4.32088 1.74426 3.95318
-4.33895 1.74513 3.9433
-4.34005 1.74295 3.93134
-4.3601 1.74586 3.92445
-4.36923 1.7436 3.90655
-4.38928 1.74651 3.89965
-4.39543 1.74322 3.87974
-4.40656 1.74299 3.86383
-4.4405 1.75111 3.86997
-4.4556 1.75193 3.85707
-4.46463 1.75287 3.85312
-4.48986 1.75245 3.82331
-4.48806 1.74605 3.79639
-4.51805 1.75308 3.79751
-4.52222 1.74876 3.7756
-4.52837 1.74547 3.7557
-4.54337 1.74948 3.75575
-4.56045 1.75133 3.74485
-4.5656 1.74804 3.72493
-4.58864 1.75196 3.71905
-4.5938 1.74866 3.69813
-4.59598 1.74432 3.67521
-4.61514 1.74401 3.65336
-4.64414 1.75103 3.65347
-4.64333 1.74466 3.62856
-4.66539 1.74855 3.62066
-4.66656 1.74421 3.59773
-4.68464 1.74608 3.58784
-4.69069 1.74598 3.58089
-4.69486 1.74266 3.55896
-4.72684 1.7507 3.56009
-4.72207 1.74326 3.53116
-4.7302 1.74202 3.51423
-4.76914 1.75213 3.52038
-4.76237 1.74469 3.49043
-4.78334 1.75076 3.4945
-4.79147 1.74851 3.47759
-4.80656 1.75033 3.46468
-4.80079 1.7419 3.43576
-4.84092 1.74866 3.41796
-4.85999 1.75153 3.40806
-4.87517 1.75018 3.38419
-4.91449 1.75157 3.34146
-4.92959 1.75239 3.32856
-4.94677 1.75205 3.30469
-4.97515 1.74933 3.25494
-5.5979 1.7435 2.22757
-5.61094 1.74644 2.22263
-5.61723 1.74286 2.18372
-5.61839 1.73955 2.16278
-5.62752 1.74031 2.14583
-5.63565 1.74005 2.12789
-5.6398 1.73877 2.10894
-5.64187 1.73764 2.09997
-5.649 1.73738 2.08203
-5.64916 1.73507 2.06106
-5.6573 1.7348 2.04312
-5.66941 1.73659 2.02819
-5.66658 1.73225 2.00522
-5.68368 1.73607 1.9923
-5.68376 1.73391 1.98133
-5.68093 1.73058 1.95935
-5.69105 1.73135 1.94341
-5.6932 1.72905 1.92346
-5.70034 1.72879 1.90552
-5.71246 1.73056 1.88958
-5.7176 1.72929 1.87063
-5.72074 1.72801 1.85167
-5.71982 1.72686 1.84168
3.12511 1.74202 4.85424
3.07633 1.74248 4.8836
3.06532 1.74147 4.8827
3.0565 1.74582 4.90571
3.0355 1.74285 4.90691
3.01858 1.74301 4.91704
3.00467 1.7452 4.92911
2.98064 1.74016 4.92536
2.9627 1.73929 4.93351
2.96386 1.7456 4.95441
2.93272 1.73636 4.93678
2.91781 1.73653 4.9479
2.91102 1.74395 4.97584
2.88293 1.73681 4.96516
2.86699 1.73694 4.97328
2.85209 1.73814 4.98637
2.83601 1.73299 4.97557
2.81806 1.73211 4.98272
2.80619 1.73537 4.99976
2.78622 1.73344 5.00394
2.76927 1.73356 5.01107
2.75233 1.73369 5.01919
2.74336 1.73274 5.02228
2.72438 1.7308 5.02545
2.70949 1.73301 5.03953
2.69253 1.73212 5.04567
2.67357 1.7312 5.05083
2.65663 1.73134 5.05896
2.64071 1.73249 5.06906
2.62766 1.72842 5.06322
2.6158 1.73271 5.08225
2.59277 1.72865 5.07748
2.56296 1.73204 5.10266
2.54398 1.7301 5.10583
2.52806 1.73127 5.11693
2.51705 1.72927 5.11604
2.48418 1.73054 5.13328
-1.95475 1.73965 5.15859
-1.96983 1.7375 5.14773
-1.99078 1.74161 5.15383
-2.00391 1.73736 5.13699
-2.02195 1.7383 5.13211
-2.04293 1.74135 5.13422
-2.05996 1.7423 5.13034
-2.06701 1.7402 5.12342
-2.10406 1.74314 5.11765
-2.1362 1.74088 5.09893
-2.15227 1.73976 5.09006
-2.16833 1.73964 5.08118
-2.17539 1.73854 5.07425
-2.19145 1.73744 5.06639
-2.22653 1.7383 5.05564
-2.24358 1.73821 5.04877
-2.28866 1.74108 5.03806
-2.33588 1.73768 5.00947
-2.36801 1.73745 4.99271
-2.43212 1.74128 4.97813
-2.46031 1.73691 4.95241
-2.48129 1.74097 4.95551
-2.50441 1.73975 4.9397
-2.51949 1.7376 4.92884
-2.55163 1.73736 4.91108
-2.57065 1.73933 4.9082
-2.60981 1.73803 4.88651
-2.62589 1.73689 4.87664
-2.659 1.7377 4.86188
-2.79851 1.73877 4.79391
-2.80458 1.73766 4.78597
-2.83869 1.73846 4.77121
-2.85376 1.73733 4.76134
-2.87377 1.74033 4.76045
-2.88885 1.74017 4.74956
-2.90492 1.74005 4.74068
-2.91789 1.74311 4.74373
-2.93296 1.74298 4.73485
-2.94113 1.73766 4.71299
-2.96115 1.73963 4.71011
-2.98412 1.74469 4.71321
-2.98933 1.7373 4.68635
-3.00541 1.73716 4.67647
-3.0243 1.74438 4.69051
-3.03542 1.74214 4.67362
-3.05544 1.74411 4.67075
-3.07249 1.74503 4.66486
-3.0856 1.74382 4.64997
-3.10462 1.74579 4.64709
-3.12465 1.74775 4.64321
-3.13466 1.74974 4.64226
-3.14579 1.74649 4.62538
-3.16086 1.74636 4.6155
-3.17694 1.74622 4.60562
-3.19103 1.74605 4.59373
-3.20709 1.74595 4.58585
-3.22415 1.74683 4.57696
-3.23711 1.74991 4.58202
-3.24034 1.74247 4.55215
-3.26926 1.75065 4.56324
-3.27149 1.74321 4.53337
-3.29052 1.74515 4.52848
-3.30857 1.74607 4.5226
-3.32365 1.74592 4.51172
-3.31982 1.73959 4.48978
-3.34677 1.7457 4.49589
-3.35788 1.74449 4.48099
-3.37197 1.74332 4.46911
-3.39199 1.74629 4.46622
-3.40214 1.74302 4.44734
-3.4182 1.74389 4.43845
-3.43019 1.74592 4.43951
-3.4423 1.74472 4.42562
-3.46035 1.74663 4.41872
-3.46455 1.74025 4.39285
-3.48161 1.74114 4.38496
-3.50361 1.74516 4.38507
-3.51077 1.74084 4.36318
-3.51781 1.74077 4.35824
-3.54181 1.74578 4.35834
-3.54797 1.74048 4.33746
-3.57197 1.7455 4.33757
-3.58209 1.74325 4.32068
-3.59519 1.74207 4.30779
-3.61423 1.74501 4.30289
-3.6193 1.74288 4.29396
-3.63239 1.7427 4.28106
-3.64847 1.74256 4.27118
-3.66454 1.74444 4.26227
-3.67169 1.74015 4.24239
-3.69073 1.74207 4.2365
-3.70383 1.74189 4.2236
-3.71682 1.74491 4.22466
-3.7309 1.74476 4.21376
-3.73905 1.74147 4.19387
-3.76206 1.74547 4.19298
-3.77516 1.74427 4.1791
-3.78132 1.74098 4.15919
-3.79828 1.74607 4.16424
-3.81039 1.74386 4.14936
-3.83042 1.7478 4.14446
-3.85046 1.75074 4.13956
-3.86256 1.74955 4.12667
-3.88062 1.75145 4.11878
-3.8848 1.74609 4.09488
-3.89284 1.74703 4.08993
-3.91882 1.75307 4.09204
-3.92993 1.75086 4.07715
-3.94997 1.7538 4.07226
-3.96109 1.75257 4.05636
-3.97915 1.75447 4.04847
-3.99026 1.75325 4.03357
-3.9983 1.75318 4.02863
-4.0245 1.7528 4.00182
-4.03859 1.75264 3.98993
-5.56584 1.74369 1.83627
-5.57397 1.74444 1.81932
-5.56316 1.73808 1.79533
-5.57826 1.74088 1.7814
-5.5814 1.7396 1.76244
-5.58654 1.73834 1.7445
-5.59658 1.74126 1.73853
-5.58277 1.73388 1.71353
-5.59689 1.73567 1.69861
-5.60302 1.7354 1.68065
-5.60516 1.73412 1.66169
-5.59733 1.72879 1.6397
-5.61044 1.73158 1.62476
-5.61551 1.73145 1.6158
-5.61766 1.73017 1.59683
-5.6178 1.72789 1.57786
-5.62194 1.72763 1.5599
-5.62309 1.72533 1.53994
2.94531 1.74556 4.74853
2.9233 1.74155 4.74675
2.90939 1.74274 4.75884
2.89245 1.74287 4.76697
2.87651 1.743 4.77509
2.85551 1.74003 4.77629
2.8406 1.7402 4.7874
2.82554 1.73609 4.77957
2.81366 1.73934 4.79562
2.80076 1.74054 4.8087
2.77875 1.73754 4.80791
2.76586 1.73976 4.82197
2.74789 1.73785 4.82714
2.73299 1.74004 4.83922
2.72502 1.7401 4.84328
2.70604 1.73816 4.84645
2.68401 1.73313 4.84369
2.67924 1.74158 4.87361
2.65317 1.73545 4.86389
2.64332 1.73975 4.88391
2.62636 1.73885 4.89005
2.60926 1.73267 4.87727
2.59537 1.73489 4.89134
2.58451 1.73917 4.90936
2.56451 1.73619 4.91056
2.54859 1.73735 4.92066
2.52655 1.7333 4.91589
2.51061 1.73343 4.92401
2.50671 1.73662 4.93699
2.48469 1.73259 4.93421
2.46571 1.73065 4.93739
2.45383 1.7339 4.95343
2.43586 1.73297 4.95758
2.42095 1.73414 4.96868
2.40299 1.73425 4.97481
2.39501 1.7343 4.97787
2.35807 1.73144 4.98619
2.32213 1.72959 4.99449
2.31128 1.73388 5.01351
2.29128 1.73189 5.01369
2.27925 1.72885 5.01083
2.26636 1.73207 5.02488
2.24738 1.73013 5.02805
2.23145 1.73127 5.03716
2.21246 1.7293 5.03833
2.2006 1.73358 5.05636
2.18264 1.73267 5.06151
2.17264 1.73167 5.0616
2.11973 1.72989 5.07402
2.06989 1.73025 5.0964
2.06193 1.73133 5.10144
2.04499 1.73146 5.10957
1.99412 1.73175 5.12695
1.97615 1.73082 5.1311
1.91631 1.73118 5.15255
1.86546 1.7325 5.17191
-3.12773 1.73568 4.36837
-3.16478 1.74058 4.36058
-3.17591 1.73736 4.34471
-3.17998 1.73521 4.33477
-3.19603 1.73712 4.32786
-3.21111 1.73698 4.31798
-3.22617 1.73687 4.31009
-3.24421 1.7388 4.3042
-3.26226 1.74072 4.2983
-3.26842 1.73642 4.27741
-3.28534 1.74156 4.28646
-3.29251 1.73726 4.26558
-3.30856 1.73815 4.25768
-3.31968 1.73594 4.2428
-3.33871 1.73889 4.2389
-3.34884 1.73565 4.22202
-3.36082 1.73868 4.22406
-3.37391 1.73852 4.21216
-3.387 1.73735 4.20028
-3.40207 1.73821 4.19038
-3.41516 1.73704 4.17849
-3.4595 1.73442 4.13486
-3.53188 1.73471 4.08339
-3.53992 1.73564 4.07844
-3.59524 1.73504 4.03586
-3.62836 1.73783 4.02007
-3.63451 1.73454 4.00016
-3.64254 1.73448 3.99622
-3.6715 1.74258 4.00132
-3.67765 1.73829 3.98142
-3.68677 1.73606 3.96552
-3.70284 1.73693 3.95663
-3.71989 1.73884 3.94973
-3.732 1.73864 3.93582
-3.74994 1.74376 3.94288
-3.76699 1.74567 3.93598
-3.76522 1.73824 3.90707
-3.78227 1.73913 3.89919
-3.79636 1.73998 3.88828
-3.81738 1.74395 3.88538
-3.83345 1.74481 3.87549
-3.83453 1.74265 3.86453
-3.84267 1.73939 3.84663
-3.86865 1.74544 3.84874
-3.86587 1.73801 3.81982
-3.88888 1.74301 3.81892
-3.90495 1.74387 3.80903
-3.90505 1.74068 3.79608
-3.91616 1.73948 3.78218
-3.94215 1.74652 3.78327
-3.95424 1.74533 3.77037
-3.9604 1.74204 3.75047
-3.97943 1.74498 3.74557
-3.99153 1.7448 3.73266
-3.99163 1.7416 3.7197
-4.0067 1.74247 3.7098
-4.02575 1.74539 3.7039
-4.03288 1.74313 3.68599
-4.04697 1.74296 3.67409
-4.05411 1.7407 3.65618
-4.06125 1.73744 3.63828
-4.07821 1.74251 3.64233
-4.0784 1.73716 3.61841
-4.09049 1.73697 3.6055
-4.11252 1.74093 3.60161
-4.12661 1.74176 3.5897
-4.12878 1.73644 3.56779
-4.1518 1.74141 3.56489
-4.15487 1.74028 3.55593
-4.163 1.73803 3.53902
-4.17808 1.73888 3.52812
-4.2001 1.74384 3.52421
-4.20028 1.7385 3.50129
-4.21635 1.74036 3.49138
-4.22448 1.73812 3.47448
-4.22755 1.73699 3.46552
-4.24064 1.73682 3.45361
-4.25672 1.73868 3.44371
-4.26087 1.73539 3.42378
-4.27396 1.73622 3.41187
-4.28904 1.73707 3.40097
-4.30312 1.73791 3.39006
-4.31016 1.73883 3.3841
-4.30935 1.73248 3.36018
-4.32642 1.73535 3.35127
-4.33155 1.73209 3.33335
-4.34763 1.73394 3.32245
-4.35775 1.73273 3.30754
-4.37382 1.73459 3.29763
-4.3879 1.73544 3.28672
-4.38899 1.73427 3.27575
-4.40903 1.7372 3.26985
-4.42727 1.73474 3.23802
-4.44136 1.73657 3.2261
-4.44352 1.73226 3.20518
-4.45263 1.73105 3.19026
-4.46663 1.73506 3.19031
-4.47376 1.73281 3.17339
-4.48586 1.73363 3.16047
-4.49995 1.73446 3.14856
-4.50907 1.73323 3.13265
-4.52613 1.73611 3.12373
-4.53824 1.73691 3.10981
-4.54627 1.73784 3.10485
-4.55738 1.73764 3.09094
-4.56948 1.73846 3.07802
-4.57561 1.7362 3.06009
-4.58771 1.73601 3.04719
-4.59683 1.73578 3.03126
-4.60793 1.7356 3.01834
-4.62392 1.74061 3.01839
-4.63305 1.73938 3.00247
-4.65012 1.74224 2.99256
-4.65725 1.74 2.97564
-4.67332 1.74286 2.96572
-4.68045 1.74161 2.94879
-4.69852 1.74448 2.93888
-4.70656 1.74541 2.93393
-4.71667 1.7452 2.919
-4.72281 1.74293 2.90108
-4.749 1.74557 2.87524
-5.27571 1.74471 1.98509
-5.27586 1.74143 1.96614
-5.29095 1.74425 1.95321
-5.28213 1.7379 1.93023
-5.28926 1.73766 1.91329
-5.29332 1.73754 1.90532
-5.30144 1.73831 1.88937
-5.31355 1.7401 1.87443
-5.32068 1.73985 1.85749
-5.32781 1.7396 1.84054
-5.33194 1.73835 1.82359
-5.33906 1.73811 1.80664
-5.33515 1.73594 1.79564
-5.34128 1.73569 1.77869
-5.3464 1.73445 1.76175
-5.35452 1.73522 1.74579
-5.36664 1.737 1.73086
-5.37077 1.73574 1.7129
-5.36294 1.73041 1.69092
-5.36999 1.73131 1.68396
-5.37213 1.73004 1.66599
-5.38026 1.7308 1.64904
-5.37342 1.72548 1.62806
-5.38553 1.72727 1.61313
-5.38567 1.72499 1.59416
-5.38781 1.72372 1.57619
-5.39686 1.72563 1.56923
3.18242 1.74172 4.36374
3.16154 1.74197 4.3799
3.11169 1.7393 4.40032
3.06894 1.74081 4.43262
3.06096 1.73986 4.4357
3.04907 1.74207 4.44976
3.03313 1.7422 4.45787
3.01617 1.7403 4.46403
2.99719 1.73836 4.4672
2.97923 1.73645 4.47237
2.96431 1.73761 4.48246
2.9533 1.7346 4.48159
2.94241 1.73783 4.49663
2.92546 1.73593 4.50278
2.90546 1.73296 4.50398
2.89155 1.73415 4.51607
2.88372 1.73947 4.53705
2.86271 1.73547 4.53627
2.85069 1.73345 4.53439
2.83068 1.72945 4.5336
2.81474 1.72958 4.54172
2.79373 1.72558 4.54094
2.7869 1.73091 4.56291
2.76894 1.73 4.56806
2.75198 1.7281 4.57422
2.75313 1.73438 4.59312
2.72907 1.72829 4.58639
2.71517 1.73048 4.59846
2.70124 1.73064 4.60857
2.68428 1.72972 4.61371
2.66733 1.72884 4.62085
2.65341 1.73 4.63094
2.64138 1.72796 4.62806
2.62341 1.72602 4.63123
2.60848 1.72618 4.64134
2.5966 1.72941 4.65638
2.57963 1.72848 4.66052
2.56673 1.7297 4.6746
2.54181 1.72987 4.68479
2.52586 1.72897 4.69092
2.49092 1.72712 4.70022
2.43715 1.72861 4.7306
-3.03457 1.73595 4.25565
-3.07877 1.73658 4.22897
-3.09581 1.73852 4.22407
-3.11582 1.7415 4.22218
-3.1299 1.74137 4.21228
-3.13793 1.74231 4.20833
-3.15792 1.74633 4.20842
-3.17498 1.74724 4.20154
-3.19498 1.75124 4.20063
-3.21028 1.74267 4.16186
-3.23128 1.74667 4.16096
-3.24943 1.7454 4.14212
-3.26548 1.74631 4.13522
-3.27262 1.74203 4.11634
-3.29067 1.74396 4.11044
-3.29484 1.73862 4.08755
-3.31486 1.74159 4.08466
-3.32498 1.73938 4.06976
-3.33102 1.73929 4.06381
-3.3451 1.73915 4.05392
-3.35621 1.73694 4.03903
-3.36929 1.7368 4.02913
-3.38732 1.73974 4.02422
-3.39744 1.73753 4.00933
-3.40755 1.73531 3.99444
-3.41756 1.7373 3.99348
-3.42768 1.73507 3.97759
-3.44274 1.73595 3.96869
-3.4598 1.73786 3.96179
-3.46792 1.73463 3.94589
-3.481 1.73448 3.93499
-3.50103 1.73743 3.9311
-3.51203 1.74044 3.93114
-3.51323 1.73306 3.90525
-3.53523 1.73806 3.90434
-3.54534 1.73686 3.89044
-3.56041 1.73672 3.88055
-3.59132 1.7469 3.89163
-3.57954 1.73648 3.8637
-3.59064 1.73528 3.8498
-3.61958 1.74341 3.85689
-3.62969 1.74221 3.84299
-3.6408 1.74101 3.82909
-3.66082 1.74498 3.82618
-3.67688 1.74586 3.81728
-3.67698 1.74266 3.80433
-3.68808 1.74148 3.79143
-3.70514 1.74337 3.78353
-3.70731 1.73805 3.76162
-3.7313 1.74407 3.76171
-3.73448 1.73773 3.73883
-3.75053 1.73964 3.73192
-3.75955 1.7416 3.72896
-3.77364 1.74145 3.71806
-3.77581 1.73611 3.69516
-3.79584 1.74006 3.69125
-3.80297 1.73682 3.67435
-3.82003 1.73871 3.66645
-3.83609 1.7406 3.65854
-3.84015 1.73947 3.64959
-3.84828 1.73724 3.63368
-3.86335 1.7381 3.62378
-3.88338 1.74206 3.61987
-3.88555 1.73672 3.59696
-3.89963 1.73758 3.58705
-3.91669 1.73948 3.57915
-3.90983 1.73321 3.56119
-3.92887 1.73713 3.55528
-3.94295 1.73698 3.54438
-3.94809 1.7337 3.52547
-3.96911 1.73867 3.52255
-3.97824 1.73644 3.50665
-3.99331 1.7383 3.49674
-4.00035 1.73823 3.49179
-4.00847 1.736 3.47588
-4.02453 1.73788 3.46697
-4.0406 1.73976 3.45806
-4.04474 1.73648 3.43914
-4.05585 1.73528 3.42524
-4.08085 1.7423 3.42533
-4.08004 1.73593 3.40041
-4.09304 1.73894 3.40046
-4.10513 1.73876 3.38756
-4.1202 1.74063 3.37864
-4.1303 1.74043 3.36472
-4.14539 1.74128 3.35382
-4.15252 1.73903 3.3369
-4.16063 1.73782 3.32198
-4.16668 1.73772 3.31503
-4.18076 1.73858 3.30512
-4.19285 1.73941 3.29319
-4.20495 1.73921 3.27929
-4.22598 1.74317 3.27539
-4.22715 1.73885 3.25346
-4.24222 1.73971 3.24355
-4.24827 1.73961 3.2366
-4.25738 1.73941 3.22267
-4.26451 1.73715 3.20476
-4.28257 1.74006 3.19785
-4.29764 1.74192 3.18793
-4.29881 1.73759 3.166
-4.3109 1.73743 3.15409
-4.31794 1.73834 3.14813
-4.32905 1.73814 3.13422
-4.34114 1.73797 3.12231
-4.35422 1.73981 3.11038
-4.36532 1.73962 3.09746
-4.37643 1.73942 3.08355
-4.38057 1.73614 3.06463
-4.39159 1.73912 3.06266
-4.40666 1.74098 3.05275
-4.4118 1.73771 3.03383
-4.42688 1.73957 3.02392
-4.43997 1.7404 3.012
-4.44908 1.74019 2.99707
-4.46018 1.74 2.98416
-4.45927 1.73782 2.97218
-4.47037 1.73762 2.95827
-4.4775 1.73539 2.94235
-4.49357 1.73826 2.93243
-4.50964 1.74112 2.9225
-4.5108 1.73682 2.90257
-4.52786 1.7397 2.89366
-4.54386 1.74371 2.89372
-4.55894 1.74556 2.8828
-4.55512 1.7402 2.85885
-4.57219 1.74308 2.84994
-4.58826 1.74495 2.84003
-4.59539 1.7437 2.8231
-4.61445 1.7476 2.81518
-4.61354 1.74442 2.80322
-4.6306 1.7483 2.79429
-4.64072 1.74808 2.77937
-4.63888 1.74277 2.75843
-5.16466 1.74378 1.85925
-5.1799 1.74432 1.82736
-5.18303 1.74305 1.8094
-5.20333 1.74349 1.77054
-5.20447 1.74121 1.75158
-5.20362 1.73793 1.73262
-5.21173 1.73871 1.71766
-5.21786 1.73846 1.70071
-5.242 1.7432 1.68182
-5.23516 1.73888 1.66083
-5.24029 1.73764 1.64388
-5.23545 1.73332 1.62291
-5.23957 1.73307 1.60594
-5.25766 1.73691 1.59402
-5.24676 1.73171 1.58101
-5.23793 1.72638 1.55902
-5.24107 1.72411 1.54108
-5.25217 1.72591 1.52713
-5.25645 1.72338 1.4912
-5.26556 1.72417 1.47625
3.1751 1.74012 4.1878
3.14422 1.73938 4.20404
3.12827 1.73849 4.21118
3.12029 1.73754 4.21425
3.10637 1.7377 4.22436
3.08055 1.74007 4.24852
3.04259 1.73418 4.25389
3.03384 1.74267 4.28684
3.00397 1.74194 4.30408
2.98701 1.74105 4.31022
2.97107 1.74018 4.31835
2.95512 1.73928 4.32449
2.9412 1.74045 4.33558
2.92512 1.73431 4.32579
2.9193 1.74066 4.34874
2.90132 1.73772 4.35192
2.88335 1.73579 4.35608
2.8664 1.73489 4.36223
2.8545 1.73711 4.37628
2.84158 1.73826 4.38637
2.8245 1.73213 4.37658
2.81767 1.73746 4.39856
2.79664 1.73243 4.39579
2.78171 1.73257 4.4049
2.75461 1.7244 4.39223
-2.92746 1.73514 4.13784
-2.96856 1.73896 4.12409
-3.01076 1.73959 4.0974
-3.02285 1.73842 4.0855
-3.0279 1.73732 4.07856
-3.05483 1.74548 4.08764
-3.05901 1.73914 4.06476
-3.08495 1.74626 4.07185
-3.10495 1.75026 4.07094
-3.12101 1.75217 4.06404
-3.13309 1.75101 4.05314
-3.35833 1.75072 3.88882
-3.37538 1.75264 3.88292
-3.3835 1.74941 3.86703
-3.38261 1.74519 3.85208
-3.41175 1.74694 3.83427
-3.43176 1.75093 3.83236
-3.45594 1.74959 3.80856
-3.46704 1.74841 3.79566
-3.47408 1.74834 3.79072
-3.48814 1.74921 3.78181
-3.4923 1.74391 3.76091
-3.50539 1.74375 3.75001
-3.5254 1.74772 3.74711
-3.53353 1.74548 3.7302
-3.55553 1.75049 3.73029
-3.55365 1.74527 3.71535
-3.56772 1.74613 3.70544
-3.58873 1.75112 3.70353
-3.5909 1.74479 3.68163
-3.60398 1.74464 3.67073
-3.61111 1.74239 3.65382
-3.63015 1.74533 3.64892
-3.6342 1.74423 3.64196
-3.64233 1.74199 3.62505
-3.66037 1.74493 3.62015
-3.67642 1.74683 3.61324
-3.68752 1.74565 3.60034
-3.70258 1.74753 3.59142
-3.70673 1.74323 3.57151
-3.72676 1.74719 3.56761
-3.73082 1.74507 3.55967
-3.73299 1.74075 3.53774
-3.755 1.74474 3.53585
-3.75916 1.74044 3.51594
-3.76231 1.73615 3.49603
-3.78928 1.74421 3.49911
-3.80534 1.74611 3.4912
-3.80047 1.73985 3.47426
-3.81752 1.74276 3.46734
-3.82862 1.74158 3.45444
-3.84765 1.74553 3.45052
-3.86272 1.74739 3.44061
-3.85892 1.73901 3.4147
-3.87896 1.74295 3.40979
-3.87904 1.74078 3.39882
-3.89411 1.74165 3.38892
-3.90223 1.74043 3.374
-3.91233 1.73925 3.36109
-3.93535 1.74422 3.35819
-3.94247 1.74199 3.34228
-3.95654 1.74385 3.33235
-3.95663 1.74068 3.3214
-3.97964 1.74566 3.3185
-3.99273 1.7465 3.30758
-4.00183 1.7453 3.29367
-4.01392 1.74513 3.28176
-4.02303 1.74493 3.26783
-4.03909 1.74681 3.25892
-4.04315 1.7457 3.25097
-4.06021 1.74759 3.24307
-4.06237 1.7443 3.22313
-4.07645 1.74514 3.21222
-4.09052 1.746 3.20231
-4.09963 1.7458 3.18838
-4.10775 1.74357 3.17247
-4.11875 1.74657 3.17151
-4.13084 1.7464 3.15961
-4.13896 1.74518 3.14468
-4.18534 1.74546 3.09402
-4.19933 1.74948 3.09507
-4.22268 1.74481 3.04831
-4.26914 1.74394 2.98766
-4.29531 1.74663 2.96581
-4.30939 1.74748 2.95491
-4.31949 1.74728 2.94098
-4.32462 1.74503 2.92405
-4.33465 1.74698 2.9201
-4.3368 1.7437 2.90116
-4.34689 1.74351 2.88824
-4.36794 1.74842 2.88132
-4.37506 1.74621 2.86641
-4.39725 1.74784 2.84055
-4.42151 1.74734 2.80573
-4.43162 1.74714 2.79181
-4.46392 1.74757 2.75204
-5.112 1.74015 1.54887
-5.12438 1.7374 1.49799
-5.13149 1.73819 1.48303
-5.14672 1.73874 1.45214
-5.14878 1.73862 1.44415
-5.15092 1.73736 1.42618
-5.14407 1.73206 1.40621
-5.1452 1.73081 1.38923
-5.15631 1.73259 1.37429
-5.14149 1.72426 1.3523
-5.14861 1.72502 1.33634
2.80846 1.74108 4.23755
2.79656 1.74328 4.25061
2.77844 1.73507 4.23587
2.77566 1.74349 4.26377
2.74476 1.74272 4.27801
2.72779 1.74079 4.28217
2.71488 1.74196 4.29325
2.69791 1.74003 4.29741
2.67094 1.73711 4.30166
2.66207 1.74139 4.31966
2.64105 1.73636 4.3169
2.63219 1.74063 4.3349
2.61521 1.73869 4.33806
2.59925 1.73777 4.34319
2.59634 1.74095 4.35517
2.58242 1.74211 4.36526
2.56444 1.74017 4.36842
2.54442 1.73615 4.36663
2.53048 1.73628 4.37474
2.52062 1.74055 4.39275
2.50363 1.7386 4.39491
2.49466 1.73765 4.39799
2.47462 1.7336 4.3942
2.46577 1.73789 4.41321
2.45184 1.73903 4.4223
2.43386 1.73709 4.42546
2.40992 1.73623 4.43365
2.39903 1.73844 4.44771
2.38004 1.73647 4.44888
2.36509 1.73659 4.45599
2.35826 1.74292 4.47795
2.33113 1.7327 4.46231
2.3243 1.73903 4.48427
2.31429 1.73702 4.48337
2.29732 1.7361 4.48751
2.27527 1.73101 4.48075
2.27149 1.73944 4.50966
2.25045 1.73538 4.50488
2.23245 1.73239 4.50506
2.22363 1.73874 4.52803
2.20359 1.73368 4.52326
2.19865 1.7358 4.53127
2.18372 1.73695 4.54036
2.16876 1.73705 4.54647
2.14669 1.73093 4.53773
2.13685 1.73625 4.55873
2.12191 1.73636 4.56584
2.10493 1.73542 4.56898
2.09795 1.73547 4.57204
2.07384 1.72727 4.55734
2.04702 1.73164 4.58148
2.028 1.72861 4.57867
2.01509 1.7308 4.59073
2.00812 1.73086 4.59478
1.97416 1.72898 4.60107
1.96226 1.73118 4.61413
1.94529 1.73125 4.61825
1.92727 1.72722 4.61545
1.9103 1.72729 4.61958
1.90332 1.72734 4.62263
1.89247 1.73163 4.64165
1.87752 1.73274 4.64875
1.84151 1.72775 4.64809
1.82964 1.73201 4.66512
-2.06505 1.73629 4.45437
-2.18347 1.73455 4.39928
-2.52576 1.73324 4.22886
-2.58287 1.73906 4.2142
-2.6342 1.73446 4.17165
-2.66737 1.73314 4.14891
-2.68834 1.7382 4.152
-2.71647 1.73797 4.13521
-2.75163 1.73767 4.11348
-2.7647 1.73755 4.10457
-2.79086 1.73525 4.0838
-2.82392 1.73916 4.07599
-2.82996 1.73908 4.07004
-2.83712 1.73379 4.05017
-2.85018 1.73366 4.04127
-2.87709 1.74284 4.05234
-2.90028 1.7395 4.02856
-2.91127 1.74253 4.02959
-2.91742 1.73724 4.00972
-2.9305 1.73608 3.99883
-2.96928 1.75252 4.02688
-2.96752 1.74306 3.99601
-2.98258 1.74396 3.9881
-2.99862 1.74589 3.9832
-3.00268 1.74376 3.97426
-3.01872 1.7457 3.96935
-3.03971 1.74973 3.97045
-3.05181 1.74855 3.95755
-3.06587 1.74944 3.94965
-3.08488 1.75242 3.94774
-3.09806 1.74808 3.92391
-3.12916 1.75091 3.9111
-3.31321 1.74997 3.77248
-3.32827 1.75086 3.76458
-3.38365 1.74915 3.71401
-3.39672 1.75002 3.7051
-3.43297 1.74855 3.67139
-3.46814 1.75023 3.64862
-3.49132 1.74891 3.62581
-3.50441 1.74874 3.61391
-3.51649 1.74858 3.60301
-3.54967 1.75024 3.57823
-3.57384 1.74993 3.55641
-3.59702 1.74859 3.5326
-3.60911 1.74842 3.52069
-3.63634 1.74698 3.48992
-3.67061 1.74548 3.45419
-3.76521 1.74836 3.37485
-3.79345 1.74791 3.34307
-3.81861 1.74861 3.32224
-3.84982 1.74922 3.29446
-5.06045 1.74125 1.35544
-5.0637 1.73875 1.32149
-5.06883 1.73852 1.30553
-5.07694 1.7393 1.29058
-5.06211 1.73197 1.26857
-5.06324 1.72972 1.25161
-5.07128 1.73163 1.24564
-5.06543 1.72735 1.22666
-5.07055 1.72712 1.2107
-5.07467 1.72688 1.19473
-5.08092 1.7254 1.1618
-5.08504 1.72516 1.14583
-5.07712 1.721 1.13483
2.81735 1.7399 4.09048
2.78139 1.735 4.09583
2.77757 1.74235 4.11975
2.7696 1.7414 4.12283
2.75769 1.74259 4.1349
2.73869 1.73961 4.13509
2.70474 1.73573 4.1424
2.69992 1.74208 4.16535
2.67687 1.73601 4.15961
2.67901 1.74229 4.1785
2.66103 1.73933 4.18068
2.64507 1.73841 4.18582
2.61517 1.73764 4.20006
2.60022 1.73776 4.20717
2.60136 1.74301 4.22408
2.5783 1.73692 4.21735
2.56639 1.73811 4.22942
2.55044 1.73821 4.23554
2.54156 1.74145 4.25156
2.51749 1.73434 4.24285
2.51572 1.74378 4.27272
2.50166 1.73867 4.2649
2.49178 1.74292 4.28092
2.46668 1.73476 4.26923
2.45681 1.738 4.28525
2.43678 1.73397 4.28246
2.42385 1.73512 4.29155
2.41399 1.73939 4.30956
2.39396 1.73434 4.30579
2.37988 1.72821 4.29598
2.37712 1.73867 4.32685
2.35303 1.73152 4.31614
2.34416 1.73578 4.33314
2.30513 1.72775 4.32956
2.29525 1.73199 4.34557
2.29539 1.73826 4.36348
2.26724 1.72699 4.34385
2.26041 1.73333 4.36682
2.25258 1.73966 4.38878
2.22238 1.7263 4.3632
2.21454 1.73262 4.38417
2.20859 1.73372 4.3912
2.19262 1.73278 4.39434
2.17158 1.72772 4.38957
2.16882 1.7382 4.42144
2.15184 1.73624 4.4236
2.12875 1.72909 4.41288
2.11888 1.73335 4.42989
2.1109 1.73339 4.43195
2.09188 1.72937 4.43015
2.0759 1.72843 4.43329
2.05993 1.7275 4.43742
2.05006 1.73176 4.45443
2.03105 1.72874 4.45262
2.02119 1.73402 4.47062
2.00709 1.72685 4.45883
1.99825 1.73315 4.47881
1.94728 1.72725 4.48328
1.9014 1.72752 4.49962
1.81762 1.72702 4.53027
-3.162 1.73433 3.66855
-3.20427 1.73282 3.63189
-3.22745 1.73149 3.60908
-3.36625 1.734 3.50208
-3.40051 1.73252 3.46835
-3.47605 1.73051 3.39694
-3.57069 1.7313 3.31163
-3.58178 1.73115 3.30071
-3.60395 1.73082 3.27788
-3.61702 1.73068 3.26798
-3.64615 1.73445 3.25114
-3.65434 1.73009 3.22627
-3.68859 1.72962 3.19353
-3.7178 1.73023 3.16573
-3.72789 1.73006 3.15381
-3.74195 1.73094 3.1449
-3.76298 1.73589 3.14099
-3.79905 1.74377 3.13114
-3.78631 1.73127 3.09822
-3.80832 1.73726 3.0963
-3.80244 1.73102 3.08035
-3.81253 1.73085 3.06842
-3.8405 1.73891 3.07152
-3.85474 1.73546 3.04067
-3.86085 1.73325 3.02575
-3.86797 1.73103 3.01083
-3.88096 1.73504 3.01087
-3.9 1.73898 3.00595
-3.90413 1.73573 2.98903
-3.90727 1.73245 2.9701
-3.92631 1.73639 2.96519
-3.93243 1.73416 2.94926
-3.94849 1.73705 2.94134
-3.94459 1.73186 2.92839
-3.96362 1.7368 2.92345
-3.97173 1.73559 2.90953
-3.98381 1.73644 2.89861
-3.99092 1.73422 2.88369
-4.01096 1.73916 2.87877
-4.01303 1.73803 2.8698
-4.03604 1.74402 2.86789
-4.01929 1.73052 2.83495
-4.03933 1.73546 2.83003
-4.05539 1.73835 2.82211
-4.05455 1.73304 2.80118
-4.07956 1.74003 2.79926
-4.08162 1.73891 2.79129
-4.07879 1.73258 2.76936
-4.10081 1.73854 2.76544
-4.11688 1.74142 2.75652
-4.11205 1.73409 2.73459
-4.13508 1.74105 2.73066
-4.14318 1.73985 2.71673
-4.13331 1.73259 2.69976
-4.16429 1.74264 2.70185
-4.16146 1.73631 2.67992
-4.16459 1.73306 2.66299
-4.17766 1.73492 2.65306
-4.19075 1.73677 2.64213
-4.19388 1.73351 2.6242
-4.2039 1.73648 2.62223
-4.21698 1.73733 2.61131
-4.23006 1.73918 2.60038
-4.23916 1.73899 2.58745
-4.23732 1.73368 2.56651
-4.24045 1.73143 2.54957
-4.26944 1.74045 2.54965
-4.26156 1.73422 2.53468
-4.26867 1.73301 2.51975
-4.30165 1.74406 2.52184
-4.30179 1.73978 2.5029
-4.30492 1.73753 2.48595
-4.32298 1.74142 2.47803
-4.3271 1.73919 2.46209
-4.34111 1.74318 2.46114
-4.34026 1.73889 2.44119
-4.36429 1.74485 2.43729
-4.36045 1.73953 2.41633
-4.37651 1.74241 2.40741
-4.3687 1.73605 2.38344
-4.38377 1.73791 2.37353
-4.40084 1.74179 2.3646
-4.40787 1.74272 2.35964
-4.41499 1.74151 2.34471
-4.43219 1.74212 2.31782
-4.44741 1.7407 2.28895
-4.46646 1.74561 2.28202
-4.46952 1.74549 2.27405
-4.47861 1.74531 2.26112
-4.76686 1.74115 1.69827
-4.77297 1.74093 1.68332
-4.78109 1.74072 1.66838
-4.77922 1.73745 1.65041
-4.7953 1.7413 1.63948
-4.80142 1.74108 1.62452
-4.79749 1.73793 1.61454
-4.80561 1.73871 1.59959
-4.80374 1.73544 1.58162
-4.82281 1.74031 1.57169
-4.82294 1.73806 1.55472
-4.82507 1.73681 1.53775
-4.83617 1.73862 1.52481
-4.84221 1.73954 1.51884
-4.84135 1.73627 1.50088
-4.83949 1.734 1.4829
-4.85557 1.73785 1.47196
-4.8567 1.73559 1.454
-4.84786 1.72929 1.43402
-4.86594 1.73414 1.42308
-4.86507 1.73188 1.40611
-4.86813 1.73177 1.39813
-4.87324 1.73155 1.38317
-4.87138 1.72828 1.3652
-4.86951 1.72503 1.34824
-4.87861 1.72683 1.33428
-4.89528 1.72154 1.24647
3.18225 1.73854 3.6767
3.0987 1.73849 3.73734
3.07973 1.73555 3.74052
3.05002 1.74015 3.77968
3.0181 1.73734 3.79097
2.9883 1.73874 3.81718
2.97234 1.73683 3.82232
2.9286 1.73938 3.85762
2.90859 1.73438 3.85685
2.88576 1.73672 3.87899
2.87487 1.73894 3.89304
2.84394 1.73611 3.90331
2.82404 1.73631 3.91646
2.81313 1.7375 3.92853
2.80223 1.7397 3.94158
2.78728 1.7388 3.94771
2.76626 1.73379 3.94594
2.76243 1.74011 3.96788
2.74737 1.73401 3.96008
2.7314 1.73208 3.96423
2.72556 1.73839 3.98518
2.71566 1.74059 3.99823
2.70375 1.74178 4.0103
2.68374 1.73778 4.00951
2.66675 1.73481 4.01068
2.65065 1.72864 3.99889
2.62683 1.731 4.02204
2.6139 1.73216 4.03212
2.59692 1.7292 4.0343
2.58298 1.72933 4.0424
2.56598 1.72635 4.04357
2.57219 1.73675 4.07037
2.54811 1.72962 4.06066
2.53721 1.73182 4.07371
2.52024 1.72988 4.07687
2.50324 1.7269 4.07804
2.49335 1.73012 4.09207
2.48346 1.73235 4.10711
2.47142 1.72928 4.10225
2.45241 1.72527 4.10045
2.43745 1.72437 4.10658
2.43061 1.73068 4.12754
2.41362 1.72771 4.12871
2.39967 1.72782 4.13582
2.38573 1.72794 4.14292
2.37572 1.72593 4.14202
2.377 1.73746 4.17785
2.34884 1.72619 4.15823
2.33998 1.73146 4.17622
2.32299 1.7285 4.17839
2.31006 1.72964 4.18747
2.28901 1.72457 4.1817
2.28204 1.72462 4.18476
2.25517 1.72589 4.20194
2.25037 1.73428 4.22786
2.22829 1.72715 4.21813
2.2094 1.72938 4.23324
2.14755 1.72571 4.25276
2.07084 1.72834 4.29231
2.04196 1.72859 4.30752
