-2.64878 1.72184 5.02108
-2.66174 1.72492 5.02613
-2.67977 1.72586 5.02125
-2.68993 1.72156 5.00039
-2.71881 1.7298 5.01549
-2.7211 1.71925 4.97865
-2.74505 1.72436 4.98476
-2.76113 1.72422 4.97488
-2.7672 1.72208 4.96496
-2.78326 1.72197 4.95708
-2.80427 1.72497 4.95619
-2.8164 1.72173 4.93933
-2.83542 1.72369 4.93544
-2.85445 1.72564 4.93156
-2.86053 1.7235 4.92163
-2.87956 1.72545 4.91775
-2.89957 1.72744 4.91587
-2.91663 1.72833 4.90798
-2.92975 1.7251 4.89213
-2.95469 1.73122 4.89923
-2.96486 1.72692 4.87836
-2.97388 1.72788 4.87542
-3.00503 1.72661 4.85567
-3.03295 1.73378 4.86577
-3.04112 1.72844 4.84291
-3.05522 1.72726 4.83003
-3.07624 1.73023 4.82715
-3.08922 1.73229 4.83021
-3.10825 1.73422 4.82533
-3.12037 1.732 4.80945
-3.14336 1.73603 4.81056
-3.14758 1.72962 4.78269
-3.16958 1.73263 4.78281
-3.18071 1.72937 4.76494
-3.19369 1.73243 4.76799
-3.20384 1.72914 4.74811
-3.21299 1.72485 4.72824
-3.23006 1.72573 4.71936
-3.24613 1.72559 4.70948
-3.25923 1.72341 4.69661
-3.27432 1.72324 4.68472
-3.28631 1.72527 4.68578
-3.30832 1.72927 4.68489
-3.31846 1.72599 4.66601
-3.32662 1.72169 4.64513
-3.34863 1.72469 4.64426
-3.35877 1.72142 4.62538
-3.37188 1.72022 4.61149
-3.38485 1.72327 4.61455
-3.395 1.72 4.59567
-3.40909 1.71883 4.58379
-3.4311 1.72282 4.5819
-3.44519 1.72165 4.57002
-3.46424 1.72358 4.56413
-3.47636 1.72135 4.54825
-3.47846 1.71816 4.53532
-3.50146 1.72316 4.53441
-3.53856 1.72599 4.52165
-3.54967 1.72378 4.50676
-3.55882 1.7205 4.48788
-3.58083 1.72448 4.48499
-3.58789 1.72338 4.47805
-3.59901 1.72215 4.46215
-3.61311 1.72097 4.44928
-3.6371 1.726 4.45038
-3.65515 1.72691 4.4435
-3.66528 1.72465 4.42561
-3.68334 1.72554 4.41773
-3.6894 1.72543 4.40978
-3.7025 1.72425 4.39689
-3.7166 1.72406 4.384
-3.73167 1.72393 4.37412
-3.74776 1.72478 4.36322
-3.76185 1.72359 4.35034
-3.77397 1.72238 4.33545
-3.79389 1.72854 4.34551
-3.79907 1.72419 4.32161
-3.81019 1.72196 4.30573
-3.82825 1.72386 4.29783
-3.84135 1.72267 4.28495
-3.85445 1.72248 4.27105
-3.88143 1.72752 4.27318
-3.88353 1.72535 4.26122
-3.88869 1.72103 4.23932
-3.91567 1.72708 4.24144
-3.93473 1.72899 4.23455
-3.93197 1.72051 4.20265
-3.95399 1.72448 4.19976
-3.97404 1.72639 4.19288
-3.97811 1.72526 4.18393
-3.99518 1.72613 4.17404
-4.01424 1.72904 4.16714
-4.02535 1.72782 4.15224
-4.03845 1.72663 4.13835
-4.05155 1.72644 4.12545
-4.0716 1.72835 4.11858
-4.07568 1.72721 4.10862
-4.09473 1.73012 4.10172
-4.11379 1.73201 4.09384
-4.12688 1.73183 4.08094
-4.14197 1.73268 4.07004
-4.1521 1.73042 4.05214
-4.17115 1.73233 4.04526
-4.18217 1.73429 4.04231
-4.19727 1.73413 4.03042
-4.21433 1.736 4.02152
-4.22843 1.73582 4.00863
-4.23757 1.73356 3.99073
-4.25761 1.73649 3.98484
-4.27271 1.73731 3.97194
-4.27677 1.73618 3.96298
-4.29782 1.7391 3.9571
-4.30497 1.73581 3.9372
-4.32105 1.73766 3.92629
-4.35221 1.73936 3.9045
-4.37535 1.74011 3.88666
-4.39163 1.73557 3.84984
-4.42875 1.74035 3.83305
-4.45497 1.73994 3.80425
-4.49219 1.74152 3.7745
-4.65343 1.74319 3.61067
-4.68976 1.74257 3.56695
-4.71597 1.74317 3.53913
-5.62609 1.74687 2.19775
-5.62126 1.74253 2.17477
-5.62334 1.74138 2.1648
-5.61054 1.73399 2.13881
-5.62864 1.73779 2.12489
-5.63777 1.73755 2.10796
-5.64889 1.73832 2.09203
-5.65104 1.73702 2.07206
-5.66416 1.7378 2.05615
-5.65327 1.73358 2.04213
-5.66937 1.73639 2.02821
-5.67352 1.73409 2.00827
-5.68579 1.73357 1.97236
2.81896 1.72663 4.96481
2.79304 1.7258 4.97502
2.71832 1.72642 5.01357
2.70038 1.72654 5.02071
2.60772 1.72727 5.0664
2.58671 1.72427 5.06561
2.55486 1.72559 5.08583
2.53792 1.72572 5.09396
2.52098 1.72584 5.10108
2.49997 1.72285 5.10128
2.49505 1.725 5.11129
2.47811 1.72513 5.11942
2.45914 1.72421 5.12357
2.44424 1.72641 5.13666
2.42629 1.72551 5.14281
2.40526 1.72248 5.14001
2.38935 1.72366 5.15111
2.37731 1.72059 5.14625
2.3624 1.72278 5.15833
2.34241 1.72083 5.16051
2.32547 1.72094 5.16764
2.30853 1.72107 5.17576
2.29669 1.72639 5.19678
2.28076 1.72654 5.2059
2.26873 1.72449 5.20202
2.25076 1.72357 5.20717
2.23383 1.72472 5.21628
2.21791 1.72588 5.22638
2.19689 1.72286 5.22458
2.17485 1.71881 5.21981
2.16198 1.72207 5.23686
2.15299 1.72209 5.23793
2.13708 1.72428 5.25002
2.11607 1.72126 5.24822
2.09912 1.72138 5.25535
2.08321 1.72255 5.26645
2.06626 1.72267 5.27358
2.04728 1.72173 5.27674
2.03931 1.72279 5.28078
2.02545 1.72607 5.29884
1.99931 1.71882 5.28114
1.98851 1.72522 5.30713
1.96953 1.72427 5.31029
1.94952 1.72227 5.30947
1.92951 1.71926 5.30766
1.92053 1.71931 5.31073
1.90461 1.72147 5.32082
1.88768 1.72262 5.32993
1.87074 1.72275 5.33806
1.85174 1.72176 5.33822
1.83174 1.71977 5.3384
1.81581 1.72093 5.3485
1.80376 1.71784 5.34164
1.78477 1.71688 5.34379
1.76682 1.71699 5.34993
1.75089 1.71813 5.35903
1.73396 1.71928 5.36814
1.71703 1.72042 5.37726
1.69802 1.71942 5.37641
1.68803 1.71844 5.3775
1.66903 1.71747 5.37866
1.6521 1.71862 5.38777
1.63517 1.71976 5.39689
1.6172 1.71982 5.40002
1.5982 1.71785 5.40119
1.57922 1.71689 5.40335
1.57125 1.71796 5.4074
1.55122 1.71493 5.40459
1.53328 1.71604 5.41171
1.5153 1.7151 5.41486
1.49838 1.71726 5.42496
1.48041 1.71733 5.42909
1.46347 1.71846 5.4372
1.45141 1.71536 5.42934
1.43861 1.72275 5.45533
1.41648 1.71553 5.4396
1.39853 1.71663 5.44572
1.37955 1.71569 5.44888
1.3626 1.71679 5.45499
1.34465 1.71789 5.46111
1.33568 1.71796 5.46518
1.31769 1.718 5.46731
1.29972 1.71807 5.47145
1.28385 1.72234 5.48851
1.26379 1.71823 5.48072
1.24998 1.72561 5.50572
1.22685 1.71838 5.489
1.21888 1.71944 5.49304
1.20198 1.72265 5.50612
1.16191 1.71653 5.49651
1.14601 1.71973 5.50959
1.12702 1.71978 5.51173
1.10696 1.71567 5.50394
1.10421 1.72616 5.53681
1.08208 1.71993 5.52007
1.06101 1.71579 5.51029
1.042 1.71379 5.50946
1.02821 1.72222 5.53744
1.00815 1.71911 5.52964
0.98916 1.71814 5.5308
0.980168 1.71816 5.53186
0.962206 1.71925 5.53698
0.940067 1.712 5.51925
0.927353 1.72356 5.55618
0.904152 1.71419 5.53049
0.886175 1.71425 5.53363
0.870299 1.7185 5.54969
0.858176 1.71327 5.53385
0.842345 1.71961 5.55588
0.825407 1.72074 5.56399
0.804276 1.7145 5.54724
0.784222 1.71241 5.54043
0.767314 1.7146 5.55252
0.750454 1.71988 5.57057
0.740353 1.71569 5.55771
0.721361 1.71472 5.55887
0.702315 1.71265 5.55304
0.686555 1.72212 5.58402
0.666439 1.71691 5.56925
0.647393 1.71384 5.56344
0.629424 1.71491 5.56756
0.619439 1.71495 5.56963
0.600339 1.71077 5.55684
0.58244 1.71397 5.56993
0.563355 1.70982 5.55913
0.54544 1.713 5.57022
0.526417 1.71197 5.56738
0.508464 1.71307 5.5735
0.500541 1.71622 5.58351
0.480465 1.71309 5.57371
0.462441 1.71106 5.57087
0.444511 1.71421 5.57996
0.42445 1.7111 5.57216
0.407589 1.71638 5.59021
0.38745 1.71013 5.57245
0.37952 1.71327 5.58147
0.360482 1.71121 5.57664
0.342652 1.71755 5.59868
0.323513 1.71129 5.58092
0.305606 1.71549 5.59299
0.286437 1.70817 5.57124
0.26853 1.71136 5.58333
0.258561 1.71343 5.58738
0.240554 1.71243 5.58653
0.221546 1.71143 5.58569
0.203724 1.71878 5.60871
0.184586 1.71353 5.59093
0.166571 1.71251 5.58908
0.157618 1.71461 5.59512
0.138533 1.71046 5.58432
0.12058 1.71256 5.59043
0.101611 1.71363 5.59456
0.0835807 1.71259 5.59071
0.0645273 1.7105 5.58388
0.0465278 1.71051 5.58402
0.010206 1.71293 5.40823
-0.00787071 1.7098 5.39841
-0.0168397 1.71086 5.40246
-0.0346767 1.71819 5.42349
-0.052769 1.71402 5.41169
-0.0707528 1.71506 5.41381
-0.0887448 1.71509 5.41495
-0.106806 1.71299 5.40711
-0.124852 1.71091 5.40128
-0.133751 1.71511 5.41428
-0.151812 1.713 5.40645
-0.169881 1.71088 5.39762
-0.18778 1.71509 5.41069
-0.205772 1.71512 5.41183
-0.222863 1.71195 5.4
-0.241723 1.71823 5.41805
-0.249901 1.7109 5.39522
-0.268807 1.71509 5.4073
-0.285814 1.71509 5.40643
-0.303907 1.71092 5.39462
-0.321813 1.71511 5.4067
-0.339921 1.71092 5.3929
-0.357843 1.71508 5.40297
-0.366866 1.71404 5.40005
-0.384857 1.71507 5.40117
-0.402856 1.71508 5.40131
-0.419948 1.71192 5.38948
-0.438878 1.71507 5.39858
-0.457815 1.7182 5.40668
-0.474899 1.71505 5.39585
-0.483899 1.71505 5.39592
-0.501844 1.71817 5.40301
-0.518943 1.71499 5.39018
-0.536966 1.71396 5.38733
-0.555911 1.71708 5.39443
-0.572941 1.71703 5.39056
-0.599932 1.71806 5.39175
-0.616078 1.71179 5.37296
-0.637845 1.72325 5.40296
-0.653945 1.71907 5.39014
-0.671959 1.71906 5.38828
-0.689082 1.71483 5.37247
-0.707042 1.71692 5.37757
-0.716987 1.72003 5.3846
-0.73218 1.71167 5.35984
-0.753009 1.72001 5.38187
-0.768209 1.71264 5.35609
-0.789046 1.71996 5.37714
-0.807052 1.72096 5.37626
-0.822221 1.71465 5.35447
-0.834066 1.72195 5.37445
-0.852073 1.72195 5.37359
-0.869141 1.71983 5.36475
-0.885233 1.71666 5.35291
-0.904185 1.71977 5.35901
-0.921262 1.71763 5.34917
-0.940237 1.71969 5.35228
-0.950182 1.7228 5.35931
-0.96629 1.7186 5.34549
-0.983343 1.71751 5.33864
-1.00325 1.72271 5.35071
-1.01935 1.71952 5.33788
-1.03545 1.71634 5.32505
-1.05634 1.72157 5.33913
-1.06342 1.71841 5.32823
-1.08337 1.72151 5.33433
-1.10042 1.72144 5.32846
-1.11747 1.71934 5.32162
-1.13742 1.72346 5.32871
-1.15444 1.72343 5.32584
-1.17344 1.72444 5.32597
-1.18245 1.72442 5.32403
-1.19853 1.72228 5.31419
-1.21557 1.72221 5.30831
-1.22971 1.71695 5.2905
-1.2487 1.71898 5.29161
-1.26962 1.72416 5.30269
-1.28666 1.72308 5.29683
-1.29762 1.72516 5.30189
-1.31081 1.71882 5.27808
-1.33268 1.72507 5.29415
-1.34876 1.72394 5.28429
-1.36775 1.72496 5.28542
-1.38479 1.72489 5.27955
-1.40283 1.72483 5.27468
-1.41279 1.72691 5.27973
-1.42984 1.72683 5.27386
-1.44593 1.72367 5.26202
-1.4649 1.72672 5.26512
-1.48001 1.72353 5.25128
-1.50289 1.72977 5.26636
-1.51605 1.72448 5.24654
-1.52798 1.72862 5.25557
-1.54698 1.72962 5.25469
-1.56402 1.72956 5.24982
-1.57912 1.72738 5.23697
-1.59908 1.73045 5.24107
-1.61418 1.72728 5.22923
-1.63416 1.73033 5.23134
-1.64219 1.72927 5.22741
-1.66022 1.73023 5.22353
-1.6792 1.73227 5.22565
-1.6953 1.73009 5.2128
-1.71234 1.73003 5.20793
-1.7474 1.73094 5.20018
-1.77444 1.73187 5.19437
-2.14537 1.73329 5.07212
-2.20356 1.73294 5.04656
-2.23667 1.73276 5.03281
-2.25471 1.7327 5.02795
-2.28683 1.73247 5.01119
-2.32308 1.72702 4.97954
-2.34503 1.73111 4.98465
-2.37422 1.72778 4.96091
-2.39421 1.73081 4.96202
-2.42125 1.73274 4.95619
-2.43929 1.73366 4.95031
-2.45437 1.73253 4.94044
-2.47143 1.73242 4.93257
-2.48551 1.73127 4.92169
-2.50256 1.73119 4.91582
-2.51159 1.73114 4.91189
-2.52765 1.73103 4.90401
-2.56174 1.73286 4.89124
-2.57782 1.73173 4.88138
-2.59485 1.73267 4.87649
-2.60895 1.73048 4.86363
-2.61698 1.73043 4.85969
-2.63798 1.73345 4.8598
-2.65009 1.73123 4.84492
-2.6642 1.72904 4.83106
-2.68914 1.73517 4.83916
-2.69829 1.73088 4.81929
-2.71435 1.73078 4.81141
-2.73452 1.72746 4.78961
-2.75847 1.73257 4.79571
-2.77846 1.73558 4.79582
-2.78961 1.73231 4.77695
-2.80862 1.7343 4.77506
-2.8478 1.73397 4.75136
-2.86782 1.73594 4.74848
-2.87994 1.73373 4.7336
-2.89501 1.73359 4.72372
-3.25563 1.73365 4.5104
-3.2937 1.73753 4.50063
-3.30284 1.73427 4.48275
-3.33894 1.73709 4.46898
-3.43842 1.7382 4.4047
-3.44448 1.7371 4.39776
-3.5048 1.73751 4.3552
-3.54199 1.73715 4.32948
-3.58822 1.73872 4.29881
-3.61343 1.73634 4.27203
-3.6306 1.73302 4.2492
-3.65261 1.73802 4.24829
-3.68475 1.73876 4.22952
-3.82057 1.73923 4.12052
-5.52271 1.7506 1.98088
-5.53184 1.75035 1.96395
-5.54004 1.74996 1.93702
-5.55116 1.75073 1.92109
-5.55929 1.75048 1.90415
-5.55744 1.74719 1.88418
-5.5556 1.74387 1.86321
-5.5727 1.74768 1.84929
-5.56687 1.74335 1.8273
-5.57393 1.74424 1.81934
-5.57009 1.73992 1.79837
-5.58221 1.74169 1.78244
-5.57937 1.73838 1.76146
-5.59148 1.74017 1.74652
-5.59064 1.73787 1.72655
-5.59876 1.73762 1.70961
-5.59286 1.73444 1.69761
-5.60498 1.73621 1.68168
-5.66324 1.73477 1.51411
2.48456 1.72608 4.91333
2.41184 1.72766 4.94986
2.37099 1.72799 4.97016
2.32012 1.72729 4.98856
2.24437 1.72782 5.02112
2.22842 1.72794 5.02824
2.19147 1.72507 5.03557
2.17248 1.7241 5.03672
2.14859 1.72532 5.05089
2.12754 1.72125 5.04511
2.10078 1.72773 5.07622
2.07975 1.7247 5.07342
2.04889 1.72599 5.09163
2.03891 1.72602 5.09371
2.00703 1.72728 5.10993
1.97007 1.72539 5.11524
1.9382 1.72666 5.13246
1.9282 1.72567 5.13255
1.8943 1.72688 5.14579
1.87631 1.72593 5.14794
1.85732 1.72397 5.15012
1.8424 1.72613 5.1602
1.82239 1.72312 5.15839
1.81545 1.72524 5.16641
1.79746 1.72428 5.16856
1.78155 1.72646 5.17965
1.76051 1.7224 5.17487
1.74559 1.72457 5.18595
1.72761 1.72363 5.1891
1.70656 1.71954 5.18232
1.70269 1.72479 5.19928
1.68369 1.72281 5.19945
1.66264 1.71874 5.19367
1.65082 1.72508 5.21666
1.63077 1.72201 5.21086
1.61076 1.719 5.20905
1.59587 1.72221 5.22312
1.58893 1.72434 5.23114
1.56888 1.72126 5.22534
1.55503 1.72555 5.24438
1.53498 1.72248 5.23858
1.5139 1.71735 5.22881
1.49902 1.72158 5.24386
1.48001 1.71958 5.24304
1.46587 1.71232 5.22525
1.45612 1.72182 5.25818
1.43917 1.72292 5.2643
1.41708 1.71676 5.25255
1.39704 1.7137 5.24775
1.38625 1.72212 5.27571
1.36517 1.71697 5.26494
1.35412 1.71388 5.25807
1.33925 1.71914 5.27511
1.31816 1.71399 5.26434
1.30225 1.71618 5.27643
1.28737 1.72042 5.29148
1.26938 1.71946 5.29363
1.25137 1.71744 5.2918
1.24445 1.72061 5.3028
1.22545 1.71961 5.30196
1.20537 1.71448 5.29219
1.19257 1.72287 5.31816
1.16734 1.71144 5.28852
1.15455 1.71987 5.31649
1.13657 1.71891 5.31864
1.12548 1.71474 5.30679
1.10959 1.71797 5.32186
1.09369 1.72118 5.33494
1.0736 1.71602 5.32316
1.05455 1.71294 5.31735
1.04075 1.72132 5.34233
1.0186 1.71306 5.32362
1.01064 1.71514 5.32865
0.994738 1.71834 5.34172
0.975699 1.71528 5.33691
0.955606 1.71012 5.32514
0.942877 1.72164 5.36007
0.920668 1.71126 5.33339
0.902714 1.71236 5.33951
0.8979 1.72072 5.36342
0.876776 1.7135 5.34769
0.858768 1.7125 5.34684
0.845007 1.72197 5.3778
0.824861 1.7157 5.35905
0.807938 1.71786 5.36914
0.792062 1.72211 5.3852
0.777776 1.70957 5.34849
0.764047 1.7211 5.38343
0.747093 1.7222 5.38954
0.72383 1.70972 5.35589
0.709008 1.71707 5.3789
0.691008 1.71608 5.37905
0.671939 1.71296 5.37024
0.665047 1.71717 5.38423
0.647063 1.71722 5.38637
0.628032 1.71517 5.38254
0.610001 1.71312 5.37871
0.592032 1.7142 5.38282
0.574017 1.71318 5.38098
0.556017 1.71219 5.38113
0.547048 1.71326 5.38518
0.530133 1.71643 5.39626
0.512102 1.71439 5.39243
0.49301 1.71022 5.38063
0.476142 1.71549 5.39768
0.458119 1.71446 5.39483
0.449173 1.71657 5.40187
0.431119 1.71348 5.39505
0.413104 1.71246 5.3932
0.395182 1.71562 5.40329
0.37712 1.71252 5.39547
0.359113 1.71151 5.39462
0.341183 1.71466 5.40371
0.332128 1.71156 5.39682
0.315191 1.71469 5.40491
0.297253 1.71683 5.41301
0.278099 1.71054 5.39325
0.261192 1.71373 5.40533
0.24213 1.71063 5.39752
0.225208 1.71379 5.4076
0.216193 1.71377 5.40567
0.180202 1.71381 5.40694
0.162148 1.71072 5.40012
0.144117 1.70967 5.39627
0.126195 1.71283 5.40636
0.108211 1.71387 5.40848
0.0992731 1.716 5.41652
0.0812736 1.71601 5.41665
0.0632201 1.71392 5.40982
0.0451742 1.71185 5.40398
-1.72522 1.71535 4.95921
-1.74322 1.71737 4.95931
-1.76025 1.71832 4.95543
-1.83347 1.71594 4.92701
-1.84854 1.71481 4.91714
-1.8685 1.71889 4.92223
-1.87652 1.71886 4.91929
-1.89258 1.71775 4.91143
-1.93153 1.72486 4.91761
-1.9417 1.71855 4.89578
-1.95678 1.71741 4.88591
-1.97676 1.72045 4.88802
-1.9838 1.71939 4.88309
-1.99986 1.71928 4.87521
-2.02179 1.72441 4.8833
-2.02902 1.71499 4.85449
-2.049 1.71903 4.85658
-2.06701 1.72003 4.8557
-2.07111 1.71683 4.84177
-2.09207 1.72092 4.84687
-2.10713 1.71981 4.839
-2.12024 1.71761 4.82513
-2.15431 1.71849 4.81537
-2.19542 1.71931 4.80167
-2.20656 1.71504 4.78281
-2.22359 1.71599 4.77893
-2.24357 1.71903 4.78103
-2.26062 1.71996 4.77515
-2.27469 1.71882 4.76527
-2.28371 1.7188 4.76334
-2.3299 1.71745 4.7377
-2.37608 1.71712 4.71405
-2.41621 1.7169 4.69735
-2.59081 1.71883 4.61763
-2.88302 1.71866 4.45881
-2.90512 1.71847 4.44498
-2.92413 1.72045 4.44309
-2.95921 1.72331 4.43231
-2.9723 1.72316 4.42141
-2.98144 1.71888 4.40254
-3.00133 1.72611 4.41659
-3.01244 1.72391 4.4027
-3.02455 1.72269 4.38781
-3.04555 1.72571 4.38792
-3.06753 1.73075 4.39001
-3.07173 1.72337 4.36415
-3.09372 1.7284 4.36524
-3.1057 1.73044 4.3673
-3.11879 1.73027 4.3554
-3.13485 1.73017 4.34752
-3.15684 1.7352 4.34861
-3.1551 1.72471 4.31575
-3.18698 1.73494 4.32984
-3.19908 1.73375 4.31695
-3.20118 1.73056 4.30401
-3.21624 1.73145 4.29611
-3.23725 1.73445 4.29522
-3.24935 1.73326 4.28133
-3.26344 1.73309 4.26944
-3.27256 1.72986 4.25355
-3.28863 1.73074 4.24466
-3.29962 1.73276 4.24571
-3.31271 1.73259 4.23381
-3.32382 1.73038 4.21893
-3.34286 1.73232 4.21404
-3.35595 1.73215 4.20214
-3.3631 1.72786 4.18225
-3.37916 1.72877 4.17536
-3.38323 1.72662 4.16542
-3.39335 1.72441 4.15053
-3.41535 1.72941 4.14962
-3.4314 1.73032 4.14273
-3.43855 1.72603 4.12284
-3.45461 1.72692 4.11495
-3.47464 1.73087 4.11104
-3.47772 1.72873 4.10109
-3.48982 1.72653 4.08722
-3.49696 1.72327 4.06931
-3.52491 1.73138 4.07541
-3.53305 1.72812 4.05751
-3.54713 1.72796 4.04662
-3.56815 1.73093 4.04373
-3.57222 1.7298 4.03478
-3.57738 1.7255 4.01388
-3.60136 1.73054 4.01599
-3.61743 1.73242 4.00708
-3.6325 1.73229 3.99719
-3.64955 1.73419 3.99029
-3.65174 1.72883 3.96538
-3.66473 1.73186 3.96744
-3.68674 1.73585 3.96554
-3.68991 1.73051 3.94264
-3.69706 1.72724 3.92374
-3.71907 1.73122 3.92185
-3.74009 1.73519 3.91895
-3.75219 1.73401 3.90606
-3.75923 1.73393 3.90011
-3.76538 1.73065 3.8812
-3.78739 1.73564 3.87929
-3.80941 1.73961 3.8764
-3.82448 1.74047 3.8665
-3.83162 1.73721 3.8486
-3.85265 1.74116 3.8447
-3.85572 1.73902 3.83475
-3.86584 1.7378 3.81984
-3.90808 1.73935 3.78714
-3.93725 1.74004 3.76534
-3.93238 1.73479 3.74838
-3.96134 1.74187 3.75249
-3.9655 1.73856 3.73157
-4.00379 1.73802 3.69386
-4.01678 1.74105 3.69492
-4.02788 1.73985 3.68102
-4.03998 1.73966 3.66811
-4.04712 1.7374 3.65019
-4.07212 1.74241 3.64931
-4.08025 1.74016 3.6324
-4.09235 1.73998 3.61949
-4.11366 1.73539 3.57871
-4.13966 1.74139 3.57782
-4.14878 1.74017 3.56291
-4.1589 1.73894 3.547
-4.17298 1.73979 3.53609
-4.18209 1.73858 3.52117
-4.18021 1.73435 3.50622
-4.20323 1.73932 3.50332
-4.21831 1.74017 3.49242
-4.21252 1.73275 3.46448
-4.23456 1.7367 3.45959
-4.24367 1.73548 3.44467
-4.25279 1.73425 3.42876
-4.26381 1.73623 3.42681
-4.27194 1.73398 3.4099
-4.28503 1.7348 3.39699
-4.29911 1.73565 3.38608
-4.30525 1.73339 3.36816
-4.31636 1.73319 3.35424
-4.33044 1.73403 3.34333
-4.33151 1.73189 3.33337
-4.35356 1.73581 3.32748
-4.35672 1.73251 3.30655
-4.36881 1.73234 3.29464
-4.36998 1.72801 3.27271
-4.38705 1.72988 3.26281
-4.40014 1.73071 3.2509
-4.40718 1.73162 3.24494
-4.42127 1.73246 3.23303
-4.42343 1.72815 3.2121
-4.43851 1.73001 3.20219
-4.46154 1.73495 3.19729
-4.47065 1.73374 3.18237
-4.47878 1.73249 3.16545
-4.48284 1.73238 3.15748
-4.50289 1.73529 3.15059
-4.50704 1.73301 3.13165
-4.52113 1.73384 3.11974
-4.52925 1.73261 3.10382
-4.54135 1.73241 3.08991
-4.55643 1.73426 3.079
-4.54756 1.729 3.06201
-4.57358 1.73498 3.05911
-4.5847 1.73476 3.0442
-4.58982 1.73251 3.02727
-4.60392 1.73333 3.01436
-4.62795 1.73929 3.01045
-4.62712 1.73495 2.98751
-4.63616 1.73588 2.98256
-4.64726 1.7367 2.96963
-4.65439 1.73445 2.95272
-4.67445 1.73833 2.94381
-4.69252 1.74121 2.9349
-4.70064 1.74098 2.91896
-4.71274 1.74078 2.90505
-4.72874 1.74579 2.9051
-4.73686 1.74456 2.88918
-4.74399 1.74331 2.87225
-4.75908 1.74515 2.86033
-4.77217 1.74596 2.84742
-5.29676 1.74936 1.9742
-5.29989 1.74709 1.95625
-5.29805 1.7438 1.93629
-5.30019 1.74152 1.91733
-5.30831 1.74229 1.90138
-5.31045 1.74001 1.88243
-5.31551 1.74091 1.87545
-5.31864 1.73864 1.85751
-5.32378 1.73838 1.83955
-5.31994 1.73407 1.81858
-5.34201 1.73993 1.80866
-5.34017 1.73562 1.7877
-5.33931 1.73334 1.76873
-5.35542 1.73614 1.75481
-5.3495 1.73298 1.74381
-5.3666 1.7368 1.73088
-5.37473 1.73655 1.71394
-5.3931 1.73582 1.66408
-5.40543 1.73418 1.62019
2.91334 1.72844 4.483
2.89942 1.72862 4.49411
2.88348 1.72873 4.50122
2.86652 1.72683 4.50738
2.84753 1.72488 4.50955
2.8387 1.72919 4.53056
2.83173 1.72926 4.53461
2.81173 1.72629 4.53581
2.79579 1.72642 4.54393
2.78188 1.72759 4.55501
2.76593 1.72671 4.56215
2.74593 1.72372 4.56234
2.73404 1.72695 4.57739
2.71999 1.72186 4.57057
2.70606 1.72302 4.58066
2.6952 1.72729 4.59868
2.67418 1.72226 4.59591
2.65824 1.72239 4.60403
2.64128 1.72148 4.60917
2.6304 1.72472 4.62521
2.62243 1.72479 4.62927
2.60547 1.72387 4.63441
2.59358 1.7261 4.64947
2.57358 1.72312 4.64966
2.55459 1.72115 4.65084
2.54269 1.72336 4.66489
2.52575 1.72348 4.67202
2.51573 1.72146 4.67013
2.49674 1.71849 4.67131
2.48587 1.72276 4.68933
2.47095 1.72392 4.69943
2.454 1.72302 4.70557
2.43803 1.72211 4.71071
2.42007 1.72119 4.71586
2.41716 1.72437 4.72783
2.39512 1.72032 4.72306
2.38222 1.72252 4.73613
2.3612 1.71849 4.73334
2.34932 1.72173 4.74939
2.32727 1.71665 4.74263
2.31337 1.71885 4.7557
2.30844 1.721 4.76571
2.29351 1.72214 4.77481
2.27553 1.72019 4.77697
2.2606 1.72135 4.78707
2.24262 1.72039 4.78922
2.23074 1.72363 4.80526
2.20969 1.71856 4.79949
2.19867 1.71653 4.79661
2.18477 1.71873 4.80968
2.17085 1.7209 4.82075
2.1549 1.721 4.82687
2.13692 1.71906 4.83004
2.11894 1.7171 4.8322
2.103 1.71823 4.84031
2.09604 1.71931 4.84534
2.08315 1.72254 4.8604
2.06312 1.7185 4.85661
2.04616 1.7186 4.86273
2.02512 1.71453 4.85695
2.01632 1.72192 4.88291
1.99525 1.71681 4.87514
1.98932 1.71794 4.88317
1.97441 1.72012 4.89526
1.95742 1.71917 4.8974
1.93841 1.71717 4.89657
1.92044 1.71522 4.89974
1.90347 1.7153 4.90386
1.88854 1.71644 4.91296
1.88261 1.71859 4.92297
1.86156 1.7145 4.91619
1.8456 1.7146 4.92231
1.8317 1.71781 4.93537
1.81065 1.71272 4.9286
1.7988 1.71802 4.94862
1.78182 1.71707 4.95076
1.76874 1.71193 4.94093
1.75278 1.71201 4.94605
1.73889 1.71624 4.9611
1.72089 1.71426 4.96126
1.70289 1.71227 4.96143
1.69002 1.71653 4.97846
1.66895 1.71141 4.9697
1.64401 1.71155 4.97788
1.61007 1.71169 4.98614
1.59618 1.71491 5.0002
1.57612 1.70981 4.99242
1.55426 1.71409 5.01053
1.53625 1.71209 5.00969
1.50334 1.71329 5.02192
1.48637 1.71336 5.02605
1.35856 1.71081 5.05105
-1.86165 1.71762 4.76918
-1.89276 1.71744 4.75541
-1.91076 1.71944 4.75452
-1.92975 1.72146 4.75563
-1.9409 1.71719 4.73677
-1.95889 1.71922 4.73788
-1.96497 1.71708 4.72796
-1.98197 1.71907 4.72705
-1.99999 1.72004 4.72417
-2.01701 1.72101 4.72129
-2.04615 1.71876 4.70354
-2.06121 1.71866 4.69565
-2.06924 1.7186 4.69171
-2.0843 1.7175 4.68384
-2.09838 1.71636 4.67396
-2.11343 1.71627 4.66708
-2.83909 1.71851 4.31546
-2.87921 1.7203 4.29974
-2.92638 1.72199 4.27706
-2.94045 1.72187 4.26817
-2.95749 1.72381 4.26327
-2.96847 1.72685 4.26531
-2.98453 1.72674 4.25743
-2.9986 1.72662 4.24854
-3.02157 1.73268 4.25162
-3.03466 1.73151 4.23973
-3.04774 1.73035 4.22885
-3.06675 1.73334 4.22695
-3.07973 1.73739 4.22998
-3.12392 1.73804 4.2043
-3.15505 1.73881 4.18753
-3.20035 1.73625 4.1479
-3.2285 1.73598 4.12811
-3.23961 1.73478 4.11421
-3.25269 1.73362 4.10333
-3.26765 1.73871 4.10836
-3.27579 1.73545 4.09047
-3.28986 1.73531 4.08058
-3.30294 1.73516 4.06968
-3.3091 1.72985 4.0488
-3.32516 1.73076 4.04191
-3.33229 1.7275 4.02401
-3.33934 1.72741 4.01806
-3.35638 1.72934 4.01216
-3.37145 1.73021 4.00326
-3.38156 1.728 3.98836
-3.40455 1.73303 3.98946
-3.40773 1.72769 3.96656
-3.43072 1.73272 3.96766
-3.42983 1.7285 3.95272
-3.43796 1.72526 3.93582
-3.46293 1.73133 3.93992
-3.47998 1.73324 3.93302
-3.49108 1.73204 3.91912
-3.50219 1.73084 3.90522
-3.52023 1.73278 3.90033
-3.51835 1.72854 3.88437
-3.53836 1.73253 3.88246
-3.54748 1.7303 3.86656
-3.56751 1.73325 3.86267
-3.56869 1.7269 3.83877
-3.58476 1.72778 3.82988
-3.60576 1.73278 3.82896
-3.60389 1.72754 3.81302
-3.62688 1.73356 3.81311
-3.63302 1.72929 3.79521
-3.64909 1.73117 3.7863
-3.66812 1.73411 3.7814
-3.67823 1.73291 3.7675
-3.69122 1.73594 3.76855
-3.71025 1.73888 3.76365
-3.7394 1.74062 3.74484
-3.75348 1.74146 3.73393
-3.77964 1.74116 3.71213
-3.79074 1.74097 3.69921
-3.79977 1.74192 3.69527
-3.80591 1.73866 3.67736
-3.81701 1.73746 3.66346
-3.83506 1.74037 3.65655
-3.83922 1.73607 3.63664
-3.85727 1.73798 3.62975
-3.87431 1.74091 3.62384
-3.87044 1.73565 3.60688
-3.88155 1.73445 3.59298
-3.89959 1.73738 3.58707
-3.90771 1.73515 3.57116
-3.92279 1.73701 3.56125
-3.93884 1.7389 3.55334
-3.943 1.73461 3.53343
-3.95599 1.73762 3.53349
-3.96511 1.7364 3.51857
-3.97721 1.73622 3.50566
-3.99228 1.73708 3.49576
-3.99047 1.73071 3.47084
-4.01448 1.73571 3.46995
-4.02856 1.73756 3.45902
-4.03163 1.73543 3.45008
-4.0467 1.73729 3.44016
-4.0578 1.73711 3.42725
-4.07684 1.74003 3.42135
-4.07702 1.73469 3.39842
-4.08812 1.73349 3.38452
-4.10518 1.73639 3.37661
-4.10825 1.73426 3.36766
-4.12233 1.7361 3.35674
-4.12648 1.73183 3.33783
-4.14949 1.7378 3.33491
-4.15662 1.73555 3.318
-4.17169 1.73743 3.30908
-4.17485 1.73312 3.28817
-4.1799 1.73302 3.28121
-4.19597 1.7349 3.2723
-4.19813 1.73059 3.25138
-4.21519 1.73248 3.24348
-4.23126 1.73435 3.23357
-4.24931 1.73826 3.22664
-4.25346 1.73396 3.20674
-4.25652 1.73385 3.19876
-4.26067 1.72957 3.17985
-4.28071 1.73349 3.17394
-4.28287 1.72919 3.15302
-4.30191 1.73311 3.14711
-4.30805 1.73085 3.12918
-4.32511 1.73374 3.12127
-4.33315 1.73467 3.11631
-4.34127 1.73344 3.10039
-4.35038 1.73223 3.08548
-4.35949 1.73201 3.07055
-4.36264 1.72773 3.05163
-4.37772 1.72958 3.04071
-4.3908 1.73143 3.02978
-4.40381 1.73442 3.02884
-4.41293 1.73319 3.01292
-4.43099 1.73609 3.00502
-4.43215 1.73278 2.98407
-4.44126 1.73156 2.96915
-4.46428 1.73752 2.96524
-4.4734 1.7363 2.95032
-4.46652 1.73106 2.93435
-4.49154 1.73703 2.93145
-4.49767 1.73479 2.91452
-4.51076 1.73662 2.90259
-4.52683 1.73848 2.89269
-4.53495 1.73825 2.87675
-4.54705 1.73807 2.86384
-4.55219 1.73581 2.84591
-4.56818 1.74083 2.84696
-4.5743 1.73958 2.83002
-4.59038 1.74145 2.82011
-4.60049 1.74123 2.80519
-4.6086 1.74102 2.79025
-4.62468 1.74286 2.77934
-4.62782 1.7406 2.7614
-4.63685 1.74155 2.75745
-4.65293 1.7444 2.74653
-4.66603 1.74521 2.73361
-4.68011 1.74706 2.72269
-4.68823 1.74683 2.70675
-4.69933 1.74663 2.69284
-4.71449 1.74733 2.67194
-5.17352 1.74877 1.87227
-5.18056 1.74969 1.8663
-5.17672 1.74538 1.84534
-5.18185 1.74513 1.82838
-5.18897 1.7449 1.81243
-5.19311 1.74363 1.79448
-5.20122 1.74442 1.77953
-5.19631 1.74023 1.76755
-5.2134 1.74407 1.75562
-5.21654 1.74281 1.73766
-5.21568 1.73952 1.7187
-5.21483 1.73724 1.69972
-5.22793 1.73904 1.68579
-5.22907 1.73678 1.66783
-5.24217 1.73958 1.65389
-5.25022 1.74148 1.64692
-5.24737 1.7382 1.62794
-5.26047 1.74 1.61401
-5.2656 1.73975 1.59705
-5.26574 1.73747 1.57809
-5.28084 1.74029 1.56516
2.97567 1.72412 4.26157
2.94682 1.72443 4.28078
2.93187 1.72354 4.28791
2.91593 1.72367 4.29603
2.89796 1.72174 4.30019
2.89403 1.72388 4.30919
2.87909 1.72301 4.31732
2.85909 1.72004 4.31851
2.84313 1.71912 4.32365
2.83124 1.72134 4.33771
2.80921 1.71631 4.33495
2.80034 1.71957 4.35197
2.7944 1.72169 4.35998
2.7754 1.71771 4.36018
2.75946 1.71782 4.3673
2.74553 1.71798 4.37741
2.73161 1.71914 4.3875
2.71768 1.71928 4.3966
2.70579 1.72251 4.41164
2.70692 1.72776 4.42856
2.67881 1.71858 4.41491
2.66387 1.71871 4.42302
2.64792 1.71781 4.42915
2.62995 1.71588 4.43332
2.61906 1.71909 4.44735
2.60108 1.71717 4.45152
2.59514 1.71828 4.45855
2.58324 1.72048 4.4716
2.55714 1.71232 4.45992
2.54625 1.71553 4.47396
2.5303 1.71465 4.48109
2.51536 1.71476 4.4882
2.50347 1.71799 4.50325
2.49652 1.71809 4.5093
2.48157 1.7182 4.51641
2.46054 1.71416 4.51263
2.4456 1.71429 4.52074
2.43167 1.71443 4.52984
2.42079 1.71868 4.54587
2.39874 1.7136 4.54011
2.39382 1.71575 4.55011
2.37685 1.71483 4.55426
2.36292 1.71497 4.56336
2.34392 1.713 4.56453
2.32999 1.71414 4.57362
2.31607 1.7153 4.58371
2.30012 1.7144 4.58984
2.29214 1.71445 4.5929
2.27721 1.7156 4.602
2.26124 1.71468 4.60714
2.24427 1.71375 4.61128
2.23137 1.71594 4.62334
2.21236 1.71295 4.62353
2.20251 1.71824 4.64253
2.18843 1.71309 4.63171
2.17451 1.71426 4.6428
2.15652 1.71229 4.64396
2.14159 1.71343 4.65306
2.12459 1.71146 4.65422
2.10965 1.71159 4.66233
2.09268 1.71065 4.66547
2.08777 1.71383 4.67746
2.03887 1.71207 4.69186
2.00594 1.71123 4.70112
1.98999 1.71133 4.70724
1.96605 1.71047 4.71544
1.95315 1.71367 4.72849
1.86231 1.71005 4.75023
-1.58824 1.71528 4.69014
-1.6373 1.7172 4.68248
-1.72351 1.71785 4.65512
-1.73857 1.71673 4.64624
-1.75263 1.71562 4.63837
-1.77063 1.71763 4.63847
-1.7806 1.7207 4.6425
-1.80875 1.71642 4.62277
-1.82283 1.71528 4.6129
-1.83984 1.71627 4.61101
-1.85783 1.71929 4.6121
-1.87386 1.72025 4.60821
-1.88678 1.72542 4.61923
-1.90084 1.7233 4.61036
-1.91885 1.72529 4.60947
-1.93194 1.72313 4.5976
-1.94895 1.72512 4.5967
-1.96301 1.724 4.58782
-1.97905 1.72494 4.58293
-1.98609 1.72387 4.57799
-1.99918 1.7217 4.56612
-2.01521 1.72265 4.56223
-2.0283 1.72049 4.55036
-2.04139 1.71832 4.53849
-2.0594 1.72032 4.53759
-2.15379 1.71661 4.48635
-2.56524 1.71803 4.2944
-2.6526 1.71839 4.24805
-2.6737 1.7182 4.23421
-2.71786 1.71891 4.21253
-2.73193 1.71879 4.20364
-2.746 1.71866 4.19474
-2.77105 1.72158 4.18789
-2.78808 1.72353 4.18399
-2.79621 1.71927 4.16611
-2.82115 1.72641 4.17419
-2.83126 1.72319 4.15931
-2.85125 1.72722 4.1604
-2.85829 1.72715 4.15546
-2.86544 1.72286 4.13557
-2.88742 1.72792 4.13866
-2.90544 1.73089 4.13576
-2.92049 1.7308 4.12887
-2.93653 1.73272 4.12296
-2.95555 1.7357 4.12106
-2.95863 1.73254 4.11013
-2.97961 1.73759 4.11221
-3.00775 1.73733 4.09342
-3.38882 1.73752 3.82025
-3.40487 1.73842 3.81336
-3.44204 1.74112 3.7916
-3.47631 1.7386 3.75489
-3.5648 1.7407 3.69052
-3.57887 1.74157 3.68061
-3.67557 1.73926 3.58836
-3.69064 1.74114 3.57944
-3.72989 1.74168 3.54673
-3.74198 1.74151 3.53482
-3.76309 1.7423 3.51996
-3.76822 1.73904 3.50205
-3.77635 1.73681 3.48614
-3.7914 1.7387 3.47822
-3.80648 1.73956 3.46832
-3.82561 1.74032 3.45145
-3.85275 1.74205 3.43163
-3.88505 1.74049 3.39289
-3.89813 1.74034 3.38199
-3.89723 1.73715 3.36903
-3.91031 1.73799 3.35811
-3.92736 1.7399 3.35121
-3.92555 1.73355 3.32729
-3.95551 1.74263 3.33138
-3.95966 1.73935 3.31246
-3.9638 1.73507 3.29355
-3.97282 1.73703 3.29059
-3.99186 1.74097 3.28567
-4.02201 1.7437 3.26586
-4.03211 1.7425 3.25195
-4.05231 1.74213 3.2261
-4.04941 1.73792 3.21214
-4.06448 1.7398 3.20323
-4.08154 1.74169 3.19533
-4.09562 1.74354 3.1844
-4.09877 1.73926 3.16549
-4.10986 1.73907 3.15257
-4.12096 1.73889 3.13966
-4.13594 1.74393 3.1417
-4.13511 1.7386 3.11976
-4.15218 1.74048 3.11086
-4.17023 1.74439 3.10394
-4.18232 1.74422 3.09203
-4.19242 1.74404 3.07911
-4.2045 1.74487 3.06719
-4.22065 1.74458 3.04731
-4.23076 1.74438 3.03339
-4.246 1.74094 3.00255
-4.25312 1.7397 2.98662
-4.27316 1.74363 2.98071
-4.2773 1.74037 2.96279
-4.29428 1.74541 2.96484
-4.30438 1.74521 2.95092
-4.30553 1.74191 2.93097
-4.31266 1.73968 2.91506
-4.32872 1.74256 2.90614
-4.34082 1.74238 2.89323
-4.34992 1.74219 2.8803
-4.35497 1.74209 2.87334
-4.37303 1.74597 2.86441
-4.38114 1.74477 2.85049
-4.39423 1.7456 2.83857
-4.40648 1.74212 2.80571
-4.41558 1.74192 2.79178
-4.41765 1.74079 2.78281
-4.43671 1.74468 2.7749
-4.44781 1.7445 2.76198
-4.45094 1.74223 2.74404
-4.46702 1.7441 2.73413
-4.49725 1.74666 2.70332
-5.11127 1.75228 1.63871
-5.11846 1.75091 1.61378
-5.12458 1.75068 1.59783
-5.12586 1.74615 1.5619
-5.12599 1.74388 1.54393
-5.14208 1.74771 1.532
-5.13723 1.74341 1.51202
-5.13531 1.74127 1.50204
-5.1534 1.7461 1.4901
-5.15353 1.74383 1.47213
-5.1427 1.7375 1.45014
-5.16278 1.74235 1.43922
-5.16512 1.7377 1.3953
2.45566 1.73041 4.39441
2.26034 1.72989 4.4859
2.24236 1.72793 4.48806
2.19549 1.72722 4.50543
2.15455 1.72337 4.5138
2.14572 1.72971 4.53677
2.11277 1.72783 4.54305
2.07576 1.72184 4.54242
2.07592 1.72915 4.56331
2.06199 1.73029 4.5724
2.04093 1.7252 4.56563
2.02598 1.7253 4.57175
2.009 1.72436 4.57489
1.99202 1.72242 4.57805
1.97708 1.72353 4.58514
1.9742 1.72877 4.60109
1.95109 1.72058 4.58738
1.93614 1.72068 4.59349
1.92732 1.72804 4.61746
1.9042 1.71984 4.60275
1.8913 1.72304 4.6158
1.87941 1.72625 4.62984
1.87041 1.72526 4.62993
1.8473 1.71807 4.6162
1.83747 1.7234 4.6382
1.81944 1.72036 4.63438
1.80553 1.72253 4.64546
1.79059 1.72366 4.65355
1.76952 1.71854 4.64479
1.76152 1.71756 4.64586
1.74862 1.71975 4.65793
1.73061 1.71775 4.65709
1.7177 1.71994 4.66916
1.70275 1.72105 4.67626
1.68474 1.71903 4.67442
1.66468 1.71394 4.66765
1.66181 1.7192 4.6846
1.63971 1.71302 4.67185
1.62783 1.71725 4.68688
1.61288 1.71737 4.69399
1.5959 1.71742 4.69712
1.57993 1.71648 4.70025
1.56807 1.72075 4.71828
1.55803 1.71869 4.71339
1.54102 1.71669 4.71255
1.50499 1.71167 4.70989
1.49312 1.71591 4.72592
1.47511 1.71391 4.72509
1.46119 1.71607 4.73516
1.45217 1.71505 4.73324
1.43928 1.71826 4.74729
1.42024 1.7152 4.74248
1.40218 1.71111 4.73568
1.38931 1.71536 4.75171
1.36537 1.7165 4.75988
1.34835 1.71448 4.75804
1.33239 1.71456 4.76316
1.29942 1.71265 4.76743
1.28241 1.71063 4.76559
1.2685 1.71382 4.77765
1.25847 1.71177 4.77376
1.24248 1.71081 4.77589
1.2296 1.71504 4.79093
1.21158 1.71302 4.78909
1.19664 1.71514 4.79618
1.17858 1.71105 4.78937
1.16468 1.71425 4.80243
1.15464 1.71117 4.79655
1.12374 1.71338 4.80975
1.10777 1.71447 4.81486
1.05879 1.71153 4.81727
1.03383 1.71163 4.82246
0.985912 1.71282 4.8338
0.969935 1.71288 4.83692
0.952912 1.71085 4.83408
0.92895 1.71094 4.83926
0.897019 1.7121 4.84848
-0.352388 1.71413 4.79886
-0.910883 1.71553 4.73504
-0.958934 1.71646 4.72839
-0.998947 1.71846 4.72666
-1.01305 1.71428 4.71382
-1.04604 1.71732 4.71503
-1.06014 1.71414 4.70218
-1.08513 1.71617 4.70334
-1.11521 1.71403 4.69259
-1.13318 1.71709 4.69568
-1.17928 1.71593 4.68305
-1.21835 1.71582 4.67434
-1.23438 1.71577 4.67046
-1.30452 1.71554 4.65199
-1.35354 1.71953 4.6493
-1.48581 1.71908 4.6133
-1.50594 1.71585 4.5965
-1.52585 1.72204 4.60856
-1.56808 1.71663 4.57895
-1.5841 1.71659 4.57607
-1.61106 1.72169 4.5812
-1.62122 1.71538 4.56037
-1.64311 1.7226 4.57443
-1.65228 1.71627 4.55159
-1.67124 1.72036 4.55667
-1.6853 1.71927 4.54979
-1.69429 1.72029 4.55084
-1.70737 1.71813 4.53997
-1.74041 1.72008 4.53519
-1.7574 1.72311 4.53628
-1.76755 1.71782 4.51643
-1.78848 1.72297 4.52551
-1.79256 1.71983 4.51559
-1.81056 1.72182 4.51469
-1.82363 1.7207 4.50581
-1.83475 1.71647 4.48995
-1.85765 1.72368 4.50302
-1.87562 1.72774 4.50609
-1.89069 1.72663 4.49822
-1.89476 1.72348 4.4883
-1.9157 1.72962 4.49637
-1.92879 1.72745 4.4845
-1.94579 1.72946 4.48459
-1.95495 1.72316 4.46375
-1.97391 1.72725 4.46884
-1.987 1.72508 4.45697
-1.99502 1.72504 4.45403
-2.013 1.72908 4.4561
-2.01921 1.72069 4.42927
-2.04407 1.72997 4.44732
-2.05225 1.72364 4.42447
-2.07122 1.72669 4.42757
-2.07841 1.72035 4.40372
-2.09429 1.72758 4.41873
-2.09951 1.71815 4.38991
-2.12339 1.72741 4.40595
-2.12762 1.71795 4.37512
-2.14857 1.72307 4.3822
-2.15771 1.7178 4.36335
-2.17866 1.72391 4.37042
-2.18176 1.71971 4.3565
-2.19976 1.72172 4.3566
-2.21676 1.72473 4.35669
-2.22887 1.72154 4.34282
-2.25276 1.72975 4.35589
-2.25699 1.72132 4.32704
-2.274 1.7233 4.32514
-2.27709 1.71913 4.31322
-2.301 1.72731 4.32428
-2.30621 1.71893 4.29844
-2.32913 1.72608 4.30751
-2.33433 1.71871 4.28265
-2.35627 1.72483 4.28973
-2.36738 1.72163 4.27586
-2.37933 1.72573 4.28189
-2.38747 1.72045 4.26302
-2.40942 1.72657 4.2701
-2.42052 1.72437 4.25622
-2.43557 1.72429 4.25033
-2.44569 1.72107 4.23445
-2.46862 1.72821 4.24352
-2.4727 1.72506 4.23259
-2.49267 1.73013 4.23667
-2.50181 1.72587 4.2188
-2.52572 1.73303 4.22888
-2.52795 1.72361 4.20003
-2.54991 1.7297 4.2051
-2.55508 1.72336 4.18223
-2.56804 1.72746 4.18827
-2.58309 1.72737 4.18138
-2.60602 1.7345 4.18945
-2.61022 1.72712 4.16359
-2.63317 1.73322 4.16967
-2.63736 1.72587 4.14581
-2.66031 1.73198 4.15189
-2.66339 1.72882 4.14096
-2.67843 1.73075 4.13605
-2.69842 1.73478 4.13714
-2.71149 1.73364 4.12725
-2.71964 1.72937 4.10837
-2.74381 1.72706 4.08659
-2.76071 1.73425 4.09861
-2.77576 1.73516 4.09171
-2.8039 1.73491 4.07392
-2.82708 1.73157 4.05014
-2.84806 1.73662 4.05223
-2.85508 1.73658 4.04928
-2.86915 1.73645 4.04039
-2.8763 1.73218 4.0215
-2.89827 1.73824 4.02458
-2.90541 1.73398 4.00669
-2.92244 1.73592 4.00179
-2.99067 1.73951 3.97125
-5.02915 1.7525 1.52207
-5.04365 1.74953 1.45622
-5.0608 1.75223 1.4353
-5.05396 1.74693 1.41533
-5.06506 1.74873 1.40138
-5.05535 1.74116 1.36342
-5.07344 1.746 1.35148
-5.07157 1.74273 1.33351
-5.07669 1.7425 1.31755
-5.08475 1.7444 1.31058
-5.08088 1.74013 1.29262
-5.08002 1.73786 1.27464
-5.08315 1.73761 1.25766
-5.08428 1.73536 1.2407
2.62104 1.73111 4.17812
2.48357 1.73025 4.24918
2.43073 1.72861 4.27161
2.38994 1.73104 4.29888
2.36599 1.72915 4.30509
2.3191 1.7264 4.32049
2.2783 1.72883 4.34776
2.23839 1.72704 4.36009
2.22547 1.7292 4.37016
2.17655 1.72538 4.38058
2.16071 1.72972 4.40264
2.13967 1.72566 4.39786
2.11077 1.72587 4.41108
2.09583 1.72599 4.41819
2.06679 1.71995 4.4145
2.06099 1.72832 4.43942
2.04401 1.72638 4.44258
2.03007 1.72751 4.45067
2.009 1.72139 4.44191
2.00221 1.72979 4.46884
1.97604 1.71849 4.44721
1.97314 1.72268 4.46017
1.96227 1.72694 4.47719
1.94018 1.7208 4.46644
1.92421 1.71987 4.47058
1.89327 1.71901 4.47883
1.87832 1.71911 4.48494
1.87646 1.72539 4.50386
1.85946 1.7234 4.50402
1.84451 1.7235 4.51013
1.82751 1.72152 4.51029
1.81461 1.72372 4.52336
1.79659 1.7217 4.52152
1.78265 1.72183 4.52962
1.77772 1.72497 4.53862
1.75868 1.72091 4.53382
1.73964 1.71685 4.52902
1.72878 1.72212 4.54703
1.70771 1.716 4.53828
1.69377 1.71712 4.54537
1.6788 1.7172 4.55048
1.6739 1.72038 4.56247
1.65485 1.71631 4.55667
1.64296 1.72052 4.5707
1.62187 1.71438 4.55995
1.611 1.71864 4.57697
1.594 1.71665 4.57713
1.58602 1.71668 4.57919
1.56698 1.71262 4.57439
1.55612 1.71891 4.59338
1.53912 1.71691 4.59254
1.52312 1.71494 4.59369
1.51021 1.71812 4.60574
1.49526 1.71922 4.61184
1.48627 1.71825 4.61292
1.46721 1.71314 4.60514
1.45429 1.71631 4.61619
1.44038 1.7195 4.62825
1.4213 1.71337 4.61848
1.41151 1.72176 4.64444
1.3914 1.71557 4.63068
1.3865 1.71976 4.64366
1.36642 1.71363 4.6339
1.35454 1.71786 4.64893
1.33651 1.71583 4.64609
1.32154 1.7159 4.6502
1.30967 1.72016 4.66723
1.28855 1.71294 4.6515
1.2816 1.71505 4.65852
1.26458 1.71201 4.65569
1.2517 1.71726 4.67171
1.22075 1.71637 4.67796
1.18776 1.71443 4.68024
1.17873 1.71237 4.67633
1.16687 1.71865 4.69433
1.14676 1.71146 4.68059
1.13387 1.71567 4.69463
1.10194 1.71683 4.70385
1.08002 1.71899 4.71399
1.04807 1.71912 4.72123
1.01399 1.71298 4.71057
0.997001 1.71202 4.71271
0.975086 1.7152 4.72383
0.942077 1.71221 4.72313
0.911147 1.71337 4.73234
0.880201 1.71449 4.73956
0.872216 1.71453 4.74162
0.855177 1.71147 4.73679
0.808278 1.71369 4.75012
0.79227 1.71269 4.74925
0.768309 1.71378 4.75442
0.752301 1.71178 4.75357
0.497558 1.71445 4.78845
0.457573 1.71351 4.79077
0.216639 1.71181 4.80061
-1.93107 1.71694 4.31465
-2.91892 1.72303 3.80693
-2.99623 1.72646 3.76545
-3.01543 1.72308 3.73864
-3.02653 1.72091 3.72676
-3.04246 1.72804 3.73477
-3.04959 1.72379 3.71789
-3.07256 1.72986 3.72197
-3.07177 1.72145 3.69409
-3.11691 1.7262 3.67535
-3.12395 1.72613 3.67041
-3.14295 1.73013 3.66949
-3.15702 1.73101 3.66058
-3.15918 1.7247 3.63969
-3.18018 1.72971 3.63977
-3.20117 1.73473 3.63986
-3.20632 1.73045 3.62096
-3.20641 1.72627 3.60902
-3.22543 1.73026 3.6071
-3.22958 1.72597 3.58719
-3.2476 1.72893 3.58429
-3.2577 1.72775 3.57138
-3.26284 1.72247 3.55249
-3.29374 1.73467 3.56455
-3.28691 1.72636 3.54361
-3.31799 1.7302 3.53179
-3.32016 1.72488 3.50988
-3.34432 1.72458 3.48907
-3.3564 1.72444 3.47916
-3.36244 1.72436 3.4732
-3.38641 1.73042 3.47629
-3.38957 1.72613 3.45638
-3.41354 1.73319 3.45946
-3.43292 1.72346 3.40974
-3.44094 1.72442 3.40678
-3.477 1.73133 3.39895
-3.51423 1.7319 3.36822
-3.5355 1.72738 3.33244
-3.54162 1.72415 3.31653
-3.55569 1.72603 3.30761
-3.58166 1.73309 3.3107
-3.58084 1.72675 3.28779
-3.59291 1.72761 3.27786
-3.60391 1.73062 3.2779
-3.62014 1.72618 3.24809
-3.62725 1.72397 3.23317
-3.65025 1.72998 3.23326
-3.6514 1.72469 3.21334
-3.68036 1.73378 3.21842
-3.67251 1.7265 3.19947
-3.69253 1.73147 3.19655
-3.70279 1.72497 3.16272
-3.72677 1.732 3.16379
-3.73688 1.7308 3.14988
-3.74499 1.7296 3.13596
-3.7679 1.73877 3.146
-3.75218 1.72524 3.11108
-3.76823 1.72814 3.10415
-3.79024 1.73313 3.10225
-3.79835 1.73191 3.08732
-3.80944 1.73175 3.07541
-3.82549 1.73365 3.0685
-3.83963 1.73338 3.04961
-3.86463 1.7404 3.04969
-3.86876 1.73715 3.03277
-3.86098 1.72773 3.00484
-3.88001 1.73167 2.99993
-3.88216 1.72738 2.98001
-3.88721 1.72729 2.97404
-3.90028 1.72815 2.96413
-3.92329 1.73515 2.9632
-3.92941 1.73192 2.94729
-3.94347 1.7348 2.93835
-3.95059 1.73258 2.92344
-3.95572 1.72933 2.90652
-3.96772 1.73333 2.90555
-3.98676 1.73727 2.90064
-3.97995 1.72889 2.87571
-4.00794 1.73793 2.87678
-4.02499 1.74084 2.86987
-4.01322 1.73038 2.83993
-4.04518 1.74047 2.84402
-4.03234 1.73216 2.82404
-4.05535 1.73815 2.82213
-4.06843 1.73899 2.81121
-4.0805 1.74085 2.80128
-4.07271 1.73245 2.77434
-4.09871 1.73947 2.77443
-4.09481 1.73527 2.76146
-4.10391 1.73509 2.74853
-4.11201 1.73389 2.73461
-4.12509 1.73573 2.72368
-4.13122 1.7335 2.70775
-4.14826 1.73741 2.70082
-4.14842 1.73311 2.68089
-4.15951 1.73294 2.66897
-4.17151 1.73694 2.668
-4.16868 1.73061 2.64607
-4.1738 1.72838 2.63014
-4.19782 1.73535 2.62722
-4.19299 1.72902 2.60527
-4.22099 1.73702 2.60436
-4.2281 1.73582 2.59043
-4.22818 1.73367 2.58046
-4.22534 1.72835 2.55852
-4.26031 1.74043 2.5626
-4.2505 1.73105 2.53767
-4.27254 1.73698 2.53174
-4.28462 1.73783 2.52082
-4.27382 1.72943 2.49486
-4.28982 1.73445 2.49491
-4.30489 1.73732 2.48598
-4.30503 1.73304 2.46704
-4.31114 1.73182 2.4521
-4.31527 1.72958 2.43516
-4.34726 1.73961 2.43625
-4.3474 1.73635 2.4183
-4.3614 1.74034 2.41735
-4.3715 1.74016 2.40442
-4.37364 1.73789 2.38647
-4.38075 1.73668 2.37154
-4.40876 1.74467 2.36963
-4.40392 1.73935 2.34867
-4.41003 1.73813 2.33373
-4.41608 1.73905 2.32777
-4.42319 1.73783 2.31283
-4.44126 1.74171 2.30391
-4.45732 1.74559 2.29497
-4.45846 1.74232 2.27703
-4.47353 1.74519 2.2671
-4.47964 1.74397 2.25216
-4.48868 1.7459 2.2472
-4.50275 1.74876 2.23726
-4.51485 1.74958 2.22434
-4.51697 1.74734 2.20839
-4.52807 1.74816 2.19546
-4.5413 1.74673 2.16557
-4.54933 1.74866 2.1606
-4.76735 1.75086 1.76016
-4.77048 1.74861 1.74321
-4.78158 1.75043 1.73027
-4.7827 1.74818 1.71331
-4.77885 1.74389 1.69434
-4.80291 1.75079 1.68642
-4.80197 1.74966 1.67743
-4.79414 1.74334 1.65646
-4.78331 1.73601 1.63448
-4.7944 1.73782 1.62154
-4.79652 1.73659 1.60557
-4.80962 1.73941 1.59262
-4.81773 1.7392 1.57869
-4.80982 1.73502 1.56669
-4.81792 1.73582 1.55273
-4.83799 1.74069 1.54281
-4.84012 1.73944 1.52584
-4.83327 1.73415 1.50687
-4.83839 1.73392 1.49091
-4.84749 1.73572 1.47695
-4.84556 1.73358 1.46796
-4.85667 1.73538 1.45402
-4.87388 1.73698 1.42612
2.82195 1.72986 3.89959
2.79598 1.72594 3.90384
2.78405 1.7271 3.91392
2.77517 1.72932 3.92895
2.74223 1.72547 3.93726
2.69646 1.72696 3.96859
2.68556 1.72916 3.98164
2.6706 1.72824 3.98677
2.6597 1.73044 3.99982
2.60482 1.72472 4.01632
2.59594 1.72896 4.03232
2.57288 1.72186 4.0246
2.57008 1.72925 4.05052
2.54804 1.72419 4.04576
2.54714 1.72839 4.0587
2.53421 1.72954 4.06878
2.51519 1.72453 4.067
2.50632 1.72877 4.08301
2.4863 1.72476 4.08122
2.47742 1.728 4.09724
2.45841 1.72398 4.09544
2.43647 1.72313 4.10462
2.42658 1.72635 4.11865
2.40758 1.72336 4.11884
2.40175 1.72969 4.14079
2.37156 1.71636 4.11721
2.36573 1.72269 4.13916
2.36485 1.72791 4.1541
2.34685 1.72494 4.15528
2.32682 1.71989 4.1515
2.32607 1.73137 4.18334
2.30197 1.72219 4.17066
2.2921 1.72645 4.18767
2.27205 1.72138 4.1819
2.25797 1.71524 4.17209
2.25216 1.7226 4.19603
2.23719 1.72268 4.20114
2.22529 1.72487 4.2132
2.20829 1.72188 4.21337
2.1913 1.71993 4.21553
2.18331 1.71895 4.21661
2.17545 1.72423 4.23559
2.15644 1.72022 4.23379
2.14147 1.7203 4.2389
2.13159 1.72353 4.25393
2.1085 1.71637 4.24221
2.09455 1.71649 4.24932
2.09165 1.72068 4.26228
2.07567 1.71874 4.26543
2.05563 1.71468 4.26064
2.04675 1.71892 4.27664
2.02875 1.71593 4.27682
2.01684 1.7181 4.28788
2.00595 1.72133 4.30292
1.9939 1.71724 4.29607
1.9609 1.71328 4.29738
1.949 1.71547 4.30944
1.932 1.71349 4.31059
1.91907 1.71564 4.31966
1.90513 1.71576 4.32776
1.89612 1.71476 4.32685
1.87129 1.7191 4.34897
1.85429 1.7161 4.34815
1.82742 1.71837 4.36532
1.78644 1.71444 4.36868
1.75549 1.71357 4.37593
1.74154 1.71367 4.38203
1.70957 1.71177 4.3873
1.7026 1.71182 4.39036
1.66078 1.7152 4.41463
1.57899 1.71567 4.44324
1.31351 1.71388 4.51327
1.06995 1.7139 4.57212
-1.83993 1.71818 4.19992
-1.86199 1.71909 4.19308
-2.89415 1.7216 3.64374
-2.99369 1.72159 3.57148
-3.01883 1.72234 3.55366
-3.03089 1.72221 3.54475
-3.04891 1.72518 3.54184
-3.07108 1.72387 3.52002
-3.08207 1.72689 3.52106
-3.09711 1.72883 3.51614
-3.10721 1.72665 3.50325
-3.11531 1.72445 3.48934
-3.13134 1.7274 3.48542
-3.13846 1.72417 3.46952
-3.15648 1.72813 3.46659
-3.16054 1.72602 3.45866
-3.17559 1.72794 3.45274
-3.19459 1.73294 3.45181
-3.20468 1.73177 3.4399
-3.21973 1.73268 3.433
-3.22585 1.73044 3.41708
-3.2419 1.73237 3.41117
-3.24496 1.73025 3.40322
-3.2491 1.72597 3.38431
-3.2691 1.73099 3.38439
-3.27423 1.72674 3.36749
-3.29623 1.73275 3.36757
-3.30433 1.73055 3.35366
-3.31739 1.73144 3.34574
-3.3274 1.73444 3.34477
-3.33749 1.73327 3.33286
-3.35056 1.73414 3.32395
-3.36164 1.73399 3.31303
-3.37371 1.73386 3.30412
-3.39173 1.73782 3.3002
-3.39687 1.73355 3.2823
-3.40092 1.73347 3.27633
-3.41101 1.7323 3.26442
-3.43102 1.73728 3.2625
-3.43416 1.733 3.24358
-3.44922 1.73491 3.23667
-3.45435 1.73066 3.21977
-3.47436 1.73565 3.21784
-3.48139 1.73659 3.21388
-3.49346 1.73745 3.20396
-3.50058 1.73424 3.18906
-3.51067 1.73407 3.17714
-3.51976 1.73288 3.16422
-3.53878 1.73685 3.1613
-3.55582 1.74079 3.15637
-3.55094 1.73455 3.14043
-3.56003 1.73338 3.12851
-3.58899 1.74347 3.13358
-3.58815 1.73716 3.11266
-3.59825 1.73598 3.09976
-3.60735 1.73579 3.08683
-3.61247 1.73256 3.07091
-3.62148 1.73453 3.06895
-3.64448 1.74055 3.06903
-3.64563 1.73526 3.04912
-3.65771 1.7361 3.03819
-3.67872 1.7421 3.03726
-3.68086 1.73682 3.01835
-3.68599 1.73457 3.00142
-3.69997 1.73861 3.00347
-3.69914 1.73229 2.98155
-3.72015 1.73827 2.97962
-3.7362 1.74118 2.9727
-3.74232 1.73896 2.95778
-3.75142 1.73778 2.94486
-3.76655 1.73752 2.92698
-3.7816 1.74043 2.92005
-3.79965 1.74335 2.91414
-3.79781 1.73803 2.8922
-3.80492 1.73582 2.87828
-3.82892 1.74284 2.87836
-3.82602 1.73865 2.8654
-3.83114 1.73641 2.84947
-3.85017 1.74035 2.84455
-3.8543 1.7371 2.82763
-3.87134 1.74103 2.8217
-3.88541 1.7429 2.81278
-3.88358 1.73658 2.79085
-3.89863 1.73948 2.78392
-3.91064 1.74348 2.78295
-3.91377 1.73921 2.76504
-3.92883 1.74211 2.75711
-3.9429 1.74398 2.74819
-3.94205 1.73869 2.72826
-3.94816 1.73747 2.71332
-3.96231 1.7372 2.69442
-3.97538 1.73806 2.68451
-3.9964 1.74403 2.68158
-3.99954 1.74077 2.66365
-4.01062 1.74161 2.65272
-4.01375 1.73836 2.63579
-4.01887 1.73613 2.61986
-4.02789 1.73809 2.6169
-4.03997 1.73894 2.60597
-4.04111 1.73567 2.58803
-4.05915 1.7396 2.5821
-4.07124 1.74044 2.57118
-4.07636 1.73821 2.55525
-4.08943 1.74007 2.54532
-4.0895 1.73794 2.53635
-4.10257 1.7398 2.52642
-4.10869 1.73858 2.51148
-4.12375 1.74146 2.50255
-4.12191 1.73616 2.48261
-4.14294 1.7411 2.4777
-4.15303 1.74193 2.46576
-4.15112 1.73877 2.45479
-4.1632 1.74061 2.44385
-4.17627 1.74247 2.43392
-4.17641 1.73821 2.41598
-4.18849 1.74005 2.40505
-4.19858 1.73988 2.39312
-4.19872 1.7366 2.37417
-4.21272 1.74061 2.37422
-4.22879 1.74449 2.36528
-4.215 1.73408 2.33833
-4.23901 1.74105 2.3354
-4.2521 1.7429 2.32447
-4.26418 1.74375 2.31355
-4.27726 1.74659 2.3026
-4.27633 1.74346 2.29364
-4.28244 1.74324 2.27869
-4.28258 1.73897 2.26075
-4.30959 1.74796 2.25882
-4.31172 1.7447 2.24088
-4.31485 1.74246 2.22494
-4.3319 1.74636 2.21701
-4.32202 1.74013 2.20202
-4.34406 1.74606 2.1961
-4.35714 1.7479 2.18517
-4.36424 1.74771 2.17223
-4.37533 1.74954 2.16028
-4.37348 1.74425 2.14034
-4.38158 1.74406 2.1274
-4.38663 1.74498 2.12143
-4.40568 1.74987 2.1135
-4.66444 1.74965 1.61538
-4.67054 1.74945 1.60143
-4.67566 1.74923 1.58647
-4.67878 1.748 1.57051
-4.6898 1.75095 1.56655
-4.69991 1.75275 1.55259
-4.68807 1.74443 1.53163
-4.69219 1.74419 1.51566
-4.70826 1.74806 1.50572
-4.71538 1.74884 1.49076
-4.7175 1.74661 1.47481
-4.72254 1.74752 1.46883
-4.72966 1.7483 1.45387
-4.72081 1.742 1.43389
-4.74387 1.7489 1.42596
-4.74399 1.74665 1.409
-4.74712 1.74541 1.39304
-4.74724 1.74318 1.37707
-4.75528 1.74509 1.3711
-4.75541 1.74284 1.35413
-4.75354 1.73959 1.33716
-4.77261 1.74545 1.32722
-4.76776 1.74117 1.30824
-4.78484 1.74602 1.2973
