-3.05986 1.76788 6.49176
-3.36282 1.76919 6.365
-3.3961 1.76467 6.32832
-3.42408 1.76874 6.33147
-3.44319 1.76753 6.31663
-3.4623 1.76633 6.30279
-3.47234 1.76625 6.29686
-3.49737 1.76821 6.29302
-3.5076 1.76277 6.26318
-3.52966 1.76266 6.25434
-3.55567 1.76566 6.25349
-3.57082 1.76338 6.23364
-3.59191 1.76321 6.2218
-3.60491 1.76422 6.22188
-3.62204 1.76298 6.20503
-3.64411 1.76285 6.19519
-3.66815 1.7648 6.19035
-3.69515 1.76781 6.1905
-3.70537 1.76238 6.16066
-3.72843 1.76429 6.1538
-3.73649 1.76316 6.14488
-3.76151 1.76514 6.14204
-3.79084 1.75952 6.09934
-3.81685 1.76251 6.09749
-3.85471 1.77081 6.11565
-3.8521 1.75906 6.0658
-3.873 1.76426 6.07788
-3.89112 1.76403 6.06202
-3.90332 1.75966 6.03617
-3.94315 1.769 6.05734
-3.95041 1.7625 6.02348
-3.98236 1.76862 6.03063
-4.00048 1.7674 6.01479
-3.99669 1.76098 5.98685
-4.02172 1.76294 5.98301
-4.03094 1.75752 5.95415
-4.06585 1.76471 5.96531
-4.07902 1.76239 5.94344
-4.08824 1.75697 5.91459
-4.12317 1.76313 5.92376
-4.11838 1.75673 5.89682
-4.15923 1.76704 5.91597
-4.16252 1.75948 5.87811
-4.18558 1.76037 5.87027
-4.19973 1.75807 5.8494
-4.2307 1.76316 5.85356
-4.23596 1.75666 5.81969
-4.26084 1.7629 5.83479
-4.27698 1.76164 5.81693
-4.29113 1.75936 5.79707
-4.30826 1.75812 5.78021
-4.32933 1.75898 5.77036
-4.35141 1.75984 5.75951
-4.37546 1.76177 5.75366
-4.38155 1.76059 5.74172
-4.40363 1.76145 5.73087
-4.4247 1.76231 5.72102
-4.44282 1.7621 5.70616
-4.46192 1.76191 5.6923
-4.48598 1.76381 5.68445
-4.52091 1.77095 5.69261
-4.50127 1.75826 5.64664
-4.53819 1.76543 5.65682
-4.54442 1.75998 5.62594
-4.56154 1.75875 5.61009
-4.60144 1.76797 5.62325
-4.59579 1.7573 5.57836
-4.61474 1.76139 5.58344
-4.64177 1.76535 5.57959
-4.65493 1.76305 5.55872
-4.67404 1.76284 5.54386
-4.67828 1.75639 5.51299
-4.7182 1.76556 5.52315
-4.7346 1.75679 5.4704
-4.74465 1.75671 5.46448
-4.76772 1.75858 5.45462
-4.78682 1.7594 5.44175
-4.82206 1.75795 5.41003
-4.86027 1.75856 5.38231
-4.86833 1.75844 5.37337
-4.88942 1.75929 5.36251
-4.89662 1.7549 5.33563
-4.92069 1.75778 5.32677
-4.9579 1.75738 5.29805
-4.98805 1.7591 5.27825
-5.01635 1.75555 5.23951
-5.05654 1.75719 5.21378
-5.09376 1.75779 5.18505
-5.14426 1.75383 5.11848
-5.19536 1.75966 5.10478
-5.21261 1.75619 5.07195
-5.23992 1.75361 5.03219
-5.27812 1.75523 5.00445
-5.33657 1.7544 4.9459
-5.52801 1.75369 4.75532
0.949941 1.7467 6.98393
0.868964 1.7448 6.98757
0.698159 1.7473 7.01382
0.675205 1.7484 7.01998
0.629237 1.74849 7.02433
0.571269 1.74859 7.02876
0.445333 1.7488 7.03771
0.0290812 1.73967 6.74094
0.00711256 1.74074 6.74509
-0.0149791 1.73758 6.7333
-0.0378937 1.74076 6.74443
-0.0489398 1.73868 6.73854
-0.0709235 1.73972 6.74069
-0.0930001 1.73659 6.7309
-0.114838 1.74292 6.75198
-0.136976 1.73767 6.73422
-0.15889 1.74085 6.74534
-0.180912 1.74082 6.74251
-0.191912 1.74083 6.74259
-0.214904 1.74086 6.74376
-0.236926 1.74083 6.74093
-0.258917 1.74086 6.74209
-0.280863 1.74298 6.74923
-0.302993 1.73874 6.73245
-0.313908 1.74192 6.74349
-0.335945 1.74086 6.73867
-0.357998 1.73977 6.73185
-0.380021 1.73874 6.72903
-0.402073 1.73765 6.72222
-0.424919 1.74297 6.74231
-0.447018 1.73979 6.72952
-0.469932 1.74397 6.74064
-0.479948 1.74295 6.73873
-0.503831 1.74819 6.75383
-0.524038 1.7408 6.72709
-0.546944 1.745 6.7392
-0.569013 1.74288 6.7304
-0.591928 1.74606 6.74152
-0.602935 1.74605 6.74061
-0.623995 1.74495 6.73278
-0.647917 1.74811 6.74292
-0.669908 1.74914 6.74407
-0.691923 1.74913 6.74223
-0.713968 1.74806 6.73641
-0.735975 1.74806 6.73558
-0.758974 1.74908 6.73574
-0.769988 1.74905 6.73382
-0.792902 1.75323 6.74493
-0.813056 1.74795 6.72516
-0.8379 1.75427 6.74526
-0.859961 1.75316 6.73744
-0.88006 1.74999 6.72463
-0.904005 1.75311 6.73177
-0.913089 1.74995 6.72088
-0.936096 1.74995 6.72006
-0.958133 1.7499 6.71522
-0.980116 1.75194 6.71736
-1.00024 1.74772 6.70157
-1.02513 1.75294 6.71568
-1.04621 1.75081 6.70587
-1.05723 1.74977 6.70297
-1.08305 1.75813 6.72604
-1.10413 1.75599 6.71523
-1.12235 1.74857 6.68648
-1.14629 1.75171 6.69461
-1.16829 1.75272 6.69476
-1.17932 1.75267 6.69084
-1.20039 1.75055 6.68203
-1.22526 1.75682 6.69913
-1.27028 1.75781 6.69645
-1.29137 1.75565 6.68464
-1.31532 1.75875 6.69078
-1.3244 1.75661 6.68088
-1.34546 1.75551 6.67305
-1.36459 1.75126 6.65526
-1.39242 1.7586 6.67736
-1.41347 1.75853 6.67152
-1.43455 1.75638 6.66071
-1.4815 1.7605 6.667
-1.49058 1.75836 6.6571
-1.51163 1.75828 6.65026
-1.53465 1.75825 6.64743
-1.62372 1.76118 6.63906
-1.63475 1.76113 6.63514
-2.30513 1.76186 6.45416
-2.32423 1.75968 6.44133
-2.33426 1.75962 6.43641
-2.35336 1.75744 6.42358
-2.37735 1.76047 6.42472
-2.3945 1.7572 6.40589
-2.41163 1.75395 6.38807
-2.43564 1.75595 6.38722
-2.44175 1.75275 6.37331
-2.46771 1.75583 6.37746
-2.48681 1.75465 6.36462
-2.50689 1.75351 6.35479
-2.52892 1.75447 6.35094
-2.54997 1.75437 6.3431
-2.5681 1.75214 6.32726
-2.58107 1.7542 6.33033
-2.60017 1.75302 6.31749
-2.62122 1.75293 6.31065
-2.65013 1.75911 6.32178
-2.66333 1.75374 6.29595
-2.68637 1.75468 6.29111
-2.70839 1.75565 6.28826
-2.71747 1.75451 6.27835
-2.73753 1.75439 6.2695
-2.75859 1.75429 6.26166
-2.78064 1.75522 6.25581
-2.79971 1.75408 6.24597
-2.82078 1.75396 6.23713
-2.84282 1.75489 6.23128
-2.84892 1.7527 6.21836
-2.87294 1.75469 6.21651
-2.89498 1.75562 6.21066
-2.90817 1.75026 6.18584
-2.93612 1.75537 6.19197
-2.95323 1.75317 6.17813
-2.97529 1.75407 6.17028
-2.98827 1.75611 6.17235
-3.01031 1.75704 6.1665
-3.02841 1.75586 6.15365
-3.04554 1.75362 6.13681
-3.07841 1.76089 6.15396
-3.08667 1.7534 6.12012
-3.11168 1.75638 6.11827
-3.12861 1.76053 6.12734
-3.14276 1.75724 6.10749
-3.17071 1.76135 6.11364
-3.19867 1.76645 6.11877
-3.21284 1.76213 6.09694
-3.23588 1.76407 6.09209
-3.26087 1.76709 6.09223
-3.26501 1.76283 6.07432
-3.29001 1.76585 6.07447
-3.31403 1.76782 6.07162
-3.3272 1.76449 6.04876
-3.34335 1.76122 6.02993
-3.36835 1.76422 6.02907
-3.37759 1.75777 5.99823
-3.39255 1.76086 6.0033
-3.41362 1.76174 5.99445
-3.42285 1.7553 5.96461
-3.44784 1.75832 5.96475
-3.47286 1.76129 5.96189
-3.48505 1.75693 5.93705
-3.50808 1.75889 5.93319
-3.51714 1.75779 5.92628
-3.53326 1.75657 5.91041
-3.54348 1.75114 5.88157
-3.57441 1.7573 5.89071
-3.58757 1.754 5.86985
-3.61555 1.75805 5.87201
-3.6297 1.75476 5.85216
-3.63777 1.75364 5.84323
-3.65488 1.75243 5.82838
-3.68483 1.75854 5.83452
-3.68812 1.74998 5.79666
-3.71412 1.753 5.79681
-3.73419 1.75386 5.78695
-3.75526 1.75474 5.77809
-3.76629 1.75469 5.77418
-3.7834 1.75348 5.75932
-3.80151 1.75329 5.74546
-3.81861 1.75209 5.7316
-3.83869 1.75296 5.72174
-3.85482 1.75072 5.70489
-3.87687 1.75262 5.69703
-3.88197 1.75044 5.6851
-3.90699 1.75342 5.68224
-3.92015 1.75012 5.66139
-4.24071 1.75125 5.45476
-5.08183 1.75075 4.77801
-5.57946 1.75493 4.29663
-5.59878 1.75132 4.25482
-5.63003 1.75184 4.22105
-5.66724 1.75446 4.19328
-5.68546 1.75304 4.16444
-5.69363 1.75071 4.14153
-5.71174 1.75251 4.12764
-5.74498 1.75305 4.09488
-5.76519 1.75266 4.06803
-5.77137 1.75031 4.04411
-5.8034 1.75626 4.03926
-5.82869 1.75471 4.00147
-5.8279 1.7503 3.97353
-5.84204 1.75003 3.95463
-5.86899 1.75614 3.96075
-5.8712 1.75274 3.93381
-5.89726 1.75662 3.92495
-5.90841 1.75534 3.90505
-5.92056 1.75505 3.88514
-5.94166 1.75687 3.87227
-5.95579 1.75762 3.85436
-5.96585 1.75852 3.84743
2.05889 1.736 6.44266
2.03591 1.73506 6.44585
2.01496 1.73516 6.45201
1.97102 1.73431 6.46035
1.95213 1.73653 6.47446
1.94115 1.73659 6.47754
1.91917 1.73563 6.47972
1.87521 1.73475 6.48607
1.85118 1.73171 6.48229
1.83436 1.73706 6.50534
1.8093 1.73296 6.49759
1.79522 1.72983 6.48774
1.76912 1.72465 6.47502
1.75537 1.73215 6.50801
1.72721 1.72486 6.48733
1.70111 1.71969 6.4746
1.6654 1.72828 6.51275
1.66061 1.73468 6.53969
1.63348 1.72845 6.52299
1.61046 1.72642 6.52019
1.59364 1.73179 6.54424
1.56753 1.7266 6.53051
1.54452 1.7256 6.5297
1.52667 1.7299 6.54878
1.51672 1.73101 6.55584
1.49472 1.73002 6.55602
1.47381 1.7312 6.56716
1.45078 1.72916 6.56336
1.4319 1.73241 6.57946
1.40891 1.73144 6.58064
1.38691 1.73046 6.58082
1.37802 1.73367 6.59485
1.35603 1.73372 6.59701
1.333 1.73167 6.59321
1.31102 1.73072 6.59539
1.29321 1.7371 6.62044
1.26808 1.73087 6.60372
1.24611 1.73094 6.60788
1.23722 1.73517 6.62289
1.21418 1.7321 6.61711
1.19326 1.73426 6.62723
1.17126 1.73329 6.62841
1.14719 1.73018 6.61964
1.12938 1.73555 6.6437
1.10636 1.73453 6.64189
1.09434 1.7335 6.63899
1.07337 1.73357 6.64315
1.05139 1.73363 6.64631
1.02837 1.73161 6.64352
1.00953 1.73692 6.66358
0.987548 1.73698 6.66675
0.965556 1.73601 6.66793
0.953556 1.73602 6.66802
0.930487 1.7329 6.65924
0.909587 1.73511 6.67236
0.886518 1.73199 6.66358
0.866672 1.7373 6.68366
0.844657 1.73629 6.68184
0.823734 1.73845 6.69196
0.81275 1.73849 6.69405
0.789704 1.73642 6.68825
0.767712 1.73545 6.68943
0.746805 1.73864 6.70154
0.723774 1.7366 6.69775
0.702836 1.73873 6.70587
0.678744 1.73457 6.69411
0.668798 1.73668 6.70116
0.645752 1.73461 6.69536
0.624844 1.7368 6.70749
0.601814 1.73576 6.70368
0.580838 1.73582 6.70684
0.558869 1.7369 6.71099
0.535869 1.73591 6.71117
0.5259 1.73698 6.71523
0.502854 1.73491 6.70944
0.480909 1.73703 6.71657
0.458847 1.73392 6.70878
0.438048 1.74132 6.73483
0.414894 1.73504 6.7151
0.392857 1.73399 6.71028
0.382995 1.73826 6.72829
0.360003 1.73829 6.72947
0.337981 1.73726 6.72665
0.316035 1.73938 6.73378
0.294028 1.73838 6.73296
0.27209 1.74052 6.7411
0.249952 1.73527 6.72334
0.238999 1.73737 6.72939
0.217076 1.73953 6.73953
0.195092 1.74057 6.74168
0.172039 1.73849 6.73488
0.15007 1.73956 6.73903
0.128093 1.73962 6.7422
0.106002 1.73646 6.73041
0.0950178 1.7375 6.73247
0.0729488 1.73438 6.72369
0.0510034 1.7365 6.73082
0.0292271 1.74701 6.4938
0.00818123 1.74493 6.48798
-0.0128025 1.74598 6.49013
-0.0238022 1.74599 6.49021
-0.044848 1.74391 6.4844
-0.0668242 1.74497 6.48755
-0.0879158 1.74181 6.47575
-0.109738 1.74917 6.49881
-0.130814 1.74603 6.48902
-0.141776 1.74712 6.49408
-0.161913 1.74287 6.47629
-0.183897 1.74291 6.47846
-0.204835 1.74604 6.48657
-0.22685 1.74503 6.48475
-0.24698 1.74079 6.46797
-0.268833 1.74609 6.48705
-0.289916 1.74394 6.47624
-0.300893 1.745 6.47931
-0.322838 1.74712 6.48645
-0.343806 1.74919 6.49057
-0.364868 1.74609 6.48278
-0.385928 1.74498 6.47495
-0.407843 1.74816 6.48607
-0.427973 1.74393 6.46928
-0.439864 1.74814 6.48331
-0.461841 1.7492 6.48646
-0.481955 1.74499 6.47167
-0.503869 1.74917 6.48278
-0.525837 1.75125 6.48691
-0.547821 1.75229 6.48906
-0.56889 1.75018 6.48025
-0.578005 1.74596 6.46538
-0.599911 1.75015 6.47749
-0.620972 1.74805 6.46968
-0.642933 1.75014 6.47481
-0.663993 1.74904 6.46698
-0.685931 1.75117 6.47512
-0.695984 1.75008 6.46821
-0.71796 1.75114 6.47136
-0.738975 1.75112 6.46952
-0.760027 1.75003 6.46269
-0.781088 1.74893 6.45487
-0.803986 1.75314 6.46798
-0.825963 1.7542 6.47113
-0.835031 1.75207 6.46223
-0.856068 1.75201 6.45739
-0.898151 1.74988 6.44673
-0.921089 1.75302 6.45486
-0.941172 1.75087 6.44404
-0.985131 1.75397 6.44933
-1.01715 1.75495 6.44655
-1.03817 1.75492 6.44371
-1.06017 1.75594 6.44386
-1.0812 1.75591 6.44102
-1.12231 1.75372 6.42636
-2.45972 1.76186 6.11027
-2.4668 1.75971 6.09936
-2.48982 1.76168 6.0965
-2.50694 1.75947 6.08166
-2.52404 1.75729 6.06882
-2.54803 1.76032 6.06996
-2.56515 1.7581 6.05412
-2.58618 1.75905 6.05026
-2.5972 1.75902 6.04734
-2.61234 1.75575 6.0285
-2.63044 1.75457 6.01566
-2.6564 1.75866 6.02079
-2.6735 1.75648 6.00795
-2.69947 1.76054 6.01109
-2.71756 1.75938 5.99924
-2.71972 1.75408 5.97933
-2.7388 1.75394 5.96847
-2.76378 1.75698 5.97062
-2.78089 1.75479 5.95678
-2.8039 1.75678 5.95492
-2.82494 1.75772 5.95007
-2.84304 1.75654 5.93722
-2.8511 1.75543 5.92929
-2.87115 1.75634 5.92243
-2.89023 1.75519 5.91159
-2.90931 1.75504 5.90073
-2.93528 1.75912 5.90487
-2.95042 1.75586 5.88703
-2.96948 1.75574 5.87817
-2.9874 1.76092 5.88923
-3.00746 1.76081 5.88138
-3.02752 1.76171 5.87352
-3.04364 1.75948 5.85767
-3.06271 1.75935 5.84782
-3.08869 1.7634 5.84995
-3.23818 1.76554 5.78604
-3.32649 1.76599 5.74469
-3.35972 1.76357 5.71497
-3.37271 1.76559 5.71604
-3.39278 1.76547 5.70719
-3.401 1.75905 5.67835
-3.41712 1.75782 5.66248
-3.44112 1.76083 5.66162
-3.45823 1.75963 5.64777
-3.47433 1.75844 5.6339
-3.47846 1.7552 5.61798
-3.49654 1.75505 5.60712
-3.5097 1.75175 5.58626
-3.53074 1.75268 5.58041
-3.55376 1.75565 5.57753
-3.55704 1.74712 5.54168
-3.58091 1.75439 5.55876
-3.58714 1.74793 5.52789
-3.60621 1.74881 5.51902
-3.62528 1.74868 5.50917
-3.64734 1.75059 5.5023
-3.68647 1.75135 5.48459
-3.69666 1.74699 5.45972
-3.72577 1.74779 5.44493
-3.74879 1.75076 5.44206
-3.76491 1.74954 5.4262
-3.7991 1.74819 5.40147
-3.83119 1.75004 5.38968
-3.8463 1.74883 5.37481
-3.90057 1.74933 5.33921
-3.93575 1.749 5.31547
-3.96289 1.74874 5.29668
-3.98395 1.74964 5.28883
-4.03525 1.74908 5.24921
-4.05333 1.74893 5.23835
-4.08345 1.75073 5.22355
-4.15183 1.75001 5.17207
-4.17699 1.74872 5.15127
-4.23126 1.75023 5.11566
-4.24737 1.74902 5.10079
-4.27154 1.74871 5.07898
-4.29161 1.74959 5.07011
-4.34092 1.749 5.02849
-4.38107 1.75174 5.00875
-4.38814 1.75061 4.99982
-4.40523 1.75144 4.98793
-4.42135 1.75022 4.97207
-4.43348 1.74796 4.95419
-4.4486 1.74774 4.93831
-4.47264 1.75068 4.93344
-4.50783 1.75132 4.90769
-4.51489 1.75121 4.89975
-4.53398 1.75204 4.88788
-4.54612 1.74978 4.87
-4.56124 1.74956 4.85412
-4.5823 1.75144 4.84524
-4.59545 1.74917 4.82638
-4.6175 1.75208 4.8195
-4.62654 1.752 4.81357
-4.64068 1.75074 4.79569
-4.6548 1.75052 4.7798
-4.66992 1.74929 4.76393
-4.69595 1.75325 4.76006
-4.70015 1.74885 4.73316
-4.73213 1.7549 4.73531
-4.73423 1.75271 4.72235
-4.75431 1.75357 4.71149
-4.7605 1.7502 4.68658
-4.79248 1.75625 4.68874
-4.81356 1.75812 4.67886
-4.82074 1.75477 4.65497
-4.84876 1.75975 4.6521
-4.84987 1.75654 4.63816
-4.85803 1.75322 4.61626
-4.88704 1.75921 4.61439
-4.89621 1.75589 4.59251
-4.90736 1.7536 4.57262
-4.92248 1.75339 4.55774
-4.94145 1.75845 4.56081
-4.95061 1.75615 4.53991
-4.96772 1.75594 4.52504
-4.97787 1.75366 4.50615
-5.01383 1.76175 4.5103
-5.00811 1.75321 4.47438
-5.03017 1.75609 4.4655
-5.02533 1.75079 4.44554
-5.06527 1.76093 4.45269
-5.06946 1.75654 4.42678
-5.08358 1.75632 4.41089
-5.10169 1.75712 4.39701
-5.12177 1.75898 4.38613
-5.12794 1.75564 4.36323
-5.14803 1.75748 4.35135
-5.15708 1.75739 4.34542
-5.17418 1.7582 4.33153
-5.19328 1.76002 4.31865
-5.19747 1.75565 4.29374
-5.20365 1.7523 4.26983
-5.24559 1.76244 4.277
-5.25077 1.75908 4.25309
-5.26678 1.76208 4.25216
-5.27792 1.76081 4.23326
-5.29702 1.76263 4.22038
-5.29525 1.75618 4.19046
-5.32726 1.76218 4.18861
-5.32449 1.75573 4.15868
-5.35451 1.76169 4.15482
-5.34965 1.75742 4.13684
-5.36875 1.75825 4.12397
-5.36896 1.75383 4.09603
-5.40495 1.76187 4.09718
-5.41411 1.75957 4.07628
-5.44215 1.7645 4.07042
-5.43739 1.75702 4.03849
-5.45936 1.7631 4.04257
-5.46852 1.76079 4.02167
-5.48662 1.7626 4.00778
-5.48882 1.75822 3.98186
-5.50891 1.76005 3.96998
-5.53695 1.76498 3.96411
-5.53716 1.76057 3.93618
-5.54323 1.76044 3.92722
-5.57227 1.76537 3.92137
-5.58442 1.7641 3.90248
-5.59258 1.76279 3.88155
-5.62182 1.76333 3.84876
-5.69554 1.76296 3.75331
-5.73882 1.76644 3.71658
-5.743 1.76309 3.69266
-5.76707 1.76696 3.68278
-5.78837 1.7654 3.64396
-5.80548 1.76619 3.62907
-5.81165 1.76385 3.60615
-5.81772 1.76372 3.5972
-5.83682 1.76553 3.58331
-5.85394 1.76732 3.56841
-5.84617 1.75986 3.53746
-5.86925 1.76371 3.52658
-5.8804 1.76342 3.50666
-5.89852 1.76521 3.49177
-5.90458 1.76508 3.48282
-5.90677 1.76071 3.45789
-5.93284 1.7656 3.44902
-5.93602 1.76325 3.42507
-5.9402 1.75989 3.40115
-5.96427 1.76376 3.39127
-5.97552 1.76128 3.35839
1.82522 1.73586 6.22139
1.73034 1.73416 6.23714
1.70316 1.72584 6.21446
1.6894 1.73332 6.24646
1.35009 1.73888 6.33794
1.30915 1.73903 6.34625
1.24729 1.74034 6.3647
1.22529 1.74037 6.36587
1.17234 1.7395 6.37228
1.12932 1.73649 6.36965
1.10942 1.7397 6.38275
1.08947 1.74081 6.38989
1.07847 1.73982 6.38998
1.05749 1.73988 6.39314
1.01557 1.74106 6.40344
0.99561 1.74215 6.40858
0.952656 1.74227 6.4149
0.899695 1.74138 6.42031
0.879772 1.74354 6.43043
0.762866 1.74381 6.44331
0.720881 1.74287 6.44564
0.677913 1.74296 6.44996
0.667906 1.74295 6.44904
0.646967 1.74408 6.45718
0.603976 1.74413 6.4585
0.583007 1.7442 6.46266
0.487031 1.74332 6.4664
0.466032 1.74333 6.46656
0.444009 1.74231 6.46374
0.424155 1.7466 6.48282
0.402026 1.74237 6.46605
0.39211 1.74454 6.4771
0.370072 1.74348 6.47228
0.349126 1.7446 6.47942
0.328188 1.74673 6.48755
0.306135 1.74464 6.48074
0.285112 1.74361 6.47792
0.264167 1.74573 6.48504
0.253213 1.74683 6.49111
0.232175 1.74577 6.48628
0.210061 1.74157 6.47151
0.189153 1.74476 6.48362
0.168154 1.74477 6.48378
0.147177 1.74483 6.48694
0.136163 1.74481 6.48502
0.114102 1.74271 6.47722
0.0931945 1.7459 6.48933
0.0721487 1.74383 6.48352
0.0511649 1.74487 6.48566
0.0282527 1.73014 6.23302
0.00738447 1.73541 6.2501
-0.0127844 1.7291 6.22834
-0.033738 1.7302 6.23448
-0.0547066 1.73128 6.23863
-0.0747826 1.72915 6.22881
-0.0856204 1.73546 6.2498
-0.105774 1.72918 6.23004
-0.126673 1.73339 6.24314
-0.146765 1.73023 6.23133
-0.167641 1.73548 6.24742
-0.187733 1.73132 6.23563
-0.208632 1.73552 6.24872
-0.238777 1.73026 6.23003
-0.279776 1.73129 6.23032
-0.320805 1.73027 6.22664
-0.330805 1.73027 6.22672
-0.351742 1.73341 6.23483
-0.392802 1.73132 6.22717
-0.464861 1.73125 6.21971
-0.505882 1.73124 6.21702
-0.525882 1.73125 6.21717
-0.588801 1.73644 6.22757
-0.607909 1.73225 6.21378
-0.618885 1.7333 6.21684
-0.6389 1.73329 6.21499
-0.679959 1.7322 6.20732
-0.700919 1.73529 6.21243
-0.74291 1.73634 6.21373
-0.751979 1.73421 6.20483
-0.772939 1.7363 6.20996
-0.792984 1.73522 6.20412
-0.814914 1.73837 6.21324
-0.834998 1.73622 6.20243
-0.857865 1.74249 6.21951
-0.866011 1.73722 6.20064
-0.887918 1.74141 6.21275
-0.906086 1.7361 6.19096
-0.927993 1.74029 6.20307
-0.948069 1.73816 6.19325
-0.970006 1.74129 6.20137
-0.988136 1.73705 6.18457
-1.001 1.74333 6.20257
-1.01916 1.73803 6.18178
-1.04205 1.74326 6.19588
-1.06113 1.74011 6.18507
-1.08211 1.74215 6.1872
-1.10121 1.73897 6.17439
-1.12412 1.74417 6.18648
-1.13031 1.7368 6.16164
-1.15228 1.73888 6.16577
-1.17329 1.73986 6.16392
-1.19429 1.74088 6.16406
-1.21238 1.73873 6.15322
-1.23435 1.74079 6.15636
-1.25441 1.73969 6.14853
-1.27443 1.73967 6.14668
-1.3045 1.73854 6.13692
-1.32259 1.73638 6.12509
-1.34552 1.74053 6.1342
-1.36461 1.73837 6.12237
-1.38657 1.74146 6.12749
-1.4076 1.74143 6.12465
-1.41856 1.74349 6.12871
-1.43665 1.74133 6.11687
-1.45574 1.73918 6.10605
-1.48063 1.74441 6.12016
-1.50067 1.74435 6.11531
-1.51974 1.74321 6.10547
-1.52976 1.74319 6.10354
-1.55077 1.74417 6.10169
-1.57178 1.74518 6.10083
-1.58986 1.74303 6.09
-1.61088 1.744 6.08714
-1.63382 1.74813 6.09525
-1.65483 1.74912 6.0934
-1.66778 1.75123 6.10046
-1.68781 1.75218 6.0966
-1.70786 1.7511 6.08977
-1.73177 1.75628 6.10087
-1.77282 1.7572 6.09417
-2.03535 1.75934 6.0251
-2.05247 1.75612 6.00928
-2.06152 1.75502 6.00236
-2.10355 1.75799 5.99863
-2.12067 1.75477 5.98281
-2.14073 1.75468 5.97596
-2.16175 1.75565 5.9731
-2.17884 1.75448 5.96125
-2.18692 1.75133 5.95035
-2.20403 1.74913 5.93651
-2.22407 1.75006 5.93065
-2.24116 1.74789 5.91881
-2.25926 1.74671 5.90596
-2.27538 1.74349 5.89013
-2.29444 1.7434 5.88327
-2.30348 1.74232 5.87735
-3.05181 1.74524 5.57091
-3.0699 1.74408 5.55906
-3.08698 1.74393 5.54819
-3.10505 1.74379 5.53832
-3.14615 1.74563 5.52561
-3.15715 1.74764 5.52566
-3.1782 1.74855 5.5188
-4.75472 1.74684 4.39255
-4.82221 1.74591 4.32706
-4.88166 1.74607 4.2675
-4.91784 1.74874 4.24373
-4.94817 1.74611 4.19999
-4.97917 1.75213 4.20014
-5.00046 1.74959 4.16233
-5.04887 1.74881 4.1077
-5.09301 1.75456 4.08894
-5.08925 1.7471 4.05802
-5.12124 1.75412 4.05816
-5.11837 1.74986 4.0412
-5.14242 1.75378 4.03432
-5.14064 1.74835 4.00538
-5.17463 1.75539 4.00653
-5.17286 1.74894 3.97661
-5.20485 1.75596 3.97675
-5.20208 1.74952 3.94682
-5.22206 1.75458 3.94989
-5.24711 1.75949 3.94301
-5.25129 1.75514 3.9191
-5.26939 1.75696 3.90621
-5.28748 1.75878 3.89332
-5.29464 1.75547 3.87242
-5.32069 1.76039 3.86554
-5.32179 1.7582 3.85258
-5.35379 1.76521 3.85172
-5.35797 1.76185 3.82779
-5.36911 1.7606 3.80989
-5.39019 1.76345 3.79901
-5.40333 1.76319 3.78111
-5.41744 1.76398 3.7662
-5.42848 1.7649 3.76027
-5.4426 1.76567 3.74436
-5.47701 1.7639 3.69064
-5.48218 1.76057 3.66873
-5.49431 1.76032 3.65082
-5.50236 1.76122 3.64387
-5.51351 1.75995 3.62497
-5.52266 1.75866 3.60505
-5.53876 1.76046 3.59114
-5.5499 1.7592 3.57324
-5.55208 1.75585 3.54931
-5.56322 1.75458 3.53041
-5.5673 1.75443 3.52044
-5.58241 1.75522 3.50554
-5.59654 1.75498 3.48865
-5.60767 1.75472 3.47073
-5.61383 1.75241 3.44981
-5.63194 1.75422 3.43592
-5.64009 1.75293 3.41599
-5.65411 1.75588 3.41206
-5.65928 1.75356 3.39013
-5.66743 1.75227 3.3702
-5.68254 1.75306 3.3553
-5.68671 1.75073 3.33337
-5.7078 1.75357 3.32148
-5.72093 1.75333 3.30458
-5.72908 1.75204 3.28466
-5.73116 1.75088 3.27369
-5.74131 1.75059 3.25377
-5.75842 1.75239 3.23987
-5.77851 1.75522 3.22698
-5.78467 1.75291 3.20606
-5.7968 1.75267 3.18915
-5.82088 1.75752 3.17826
-5.81301 1.75226 3.16127
-5.83907 1.75715 3.1524
-5.84822 1.75686 3.13247
-5.85936 1.7566 3.11455
-5.86652 1.7553 3.09362
-5.88064 1.75607 3.07771
-5.89576 1.75684 3.06181
-5.89087 1.75362 3.04682
-5.91197 1.75644 3.03394
-5.92011 1.75616 3.015
-5.93125 1.75589 2.99609
-5.9414 1.75562 2.97716
-5.95452 1.75637 2.96025
-5.96467 1.7561 2.94133
-5.97471 1.75802 2.93537
3.01691 1.72263 5.51251
3.00695 1.72271 5.51759
2.99003 1.72289 5.52871
2.9491 1.72005 5.53807
2.9322 1.72126 5.55118
2.91427 1.7214 5.56031
2.89837 1.72362 5.5744
2.8884 1.72367 5.57747
2.84748 1.72087 5.58883
2.82549 1.71891 5.59102
2.80349 1.71693 5.59122
2.78761 1.71916 5.6063
2.7707 1.72035 5.61842
2.75767 1.7173 5.61456
2.73974 1.71846 5.62468
2.7198 1.71758 5.63184
2.7039 1.7198 5.64593
2.6809 1.7168 5.64515
2.66296 1.71693 5.65328
2.64912 1.72125 5.67433
2.63608 1.71819 5.66947
2.62324 1.72251 5.69051
2.59819 1.71844 5.68475
2.58129 1.71964 5.69786
2.56132 1.71872 5.70203
2.54545 1.72198 5.7191
2.52957 1.72422 5.73419
2.51653 1.72115 5.72933
2.49963 1.72336 5.74243
2.47864 1.7214 5.74462
2.46072 1.72256 5.75474
2.4428 1.72374 5.76586
2.42283 1.72281 5.77002
2.4039 1.72296 5.77916
2.39495 1.72405 5.78522
2.37703 1.72523 5.79633
2.35604 1.72326 5.79752
2.33505 1.7223 5.79969
2.32021 1.72561 5.81976
2.29617 1.72256 5.81499
2.27007 1.71638 5.80227
2.26519 1.72062 5.81825
2.24828 1.72181 5.83036
2.22935 1.72296 5.83949
2.21144 1.72415 5.85161
2.19351 1.7253 5.86072
2.17355 1.72438 5.86589
2.14849 1.72028 5.85814
2.13952 1.72137 5.86319
2.12058 1.72148 5.87033
2.10471 1.72475 5.88741
2.08168 1.72172 5.88462
2.06784 1.72604 5.90567
2.03971 1.71881 5.88898
2.01974 1.71888 5.89313
2.00975 1.7179 5.89422
1.99183 1.71907 5.90434
1.97187 1.71915 5.90949
1.95395 1.72033 5.92061
1.934 1.72043 5.92676
1.91301 1.71948 5.92893
1.88894 1.71536 5.92017
1.88203 1.71855 5.93218
1.86413 1.71974 5.9443
1.84209 1.71769 5.9405
1.82419 1.7199 5.9536
1.80526 1.72003 5.96174
1.78221 1.71696 5.95596
1.76121 1.71497 5.95615
1.69648 1.72054 5.99156
1.67959 1.72377 6.00664
1.5288 1.72128 6.03482
1.49681 1.72032 6.03607
1.47786 1.72044 6.04321
1.46204 1.72679 6.06624
1.43897 1.72267 6.05748
1.42209 1.72592 6.07356
1.40005 1.72287 6.06877
1.37908 1.72294 6.07292
1.36907 1.72192 6.07101
1.35014 1.72408 6.08113
1.32913 1.72207 6.07931
1.31128 1.72737 6.09937
1.28714 1.72011 6.08066
1.27133 1.72649 6.10569
1.24722 1.7213 6.09195
1.23827 1.7224 6.098
1.21828 1.72244 6.10015
1.1973 1.7225 6.1033
1.15737 1.72266 6.1126
1.13634 1.72062 6.10879
1.11639 1.72172 6.11493
1.10537 1.7207 6.11303
1.0255 1.722 6.12961
0.985544 1.72212 6.13591
0.95562 1.72329 6.14612
0.934613 1.72229 6.14529
0.843691 1.7225 6.15598
0.823729 1.72259 6.16113
0.782776 1.72371 6.16742
0.762799 1.72377 6.17057
0.74283 1.72384 6.17472
0.72183 1.72386 6.17488
0.712869 1.72494 6.17993
0.6919 1.72501 6.18409
0.630932 1.72511 6.18854
0.610947 1.72516 6.19069
0.589955 1.72519 6.19185
0.58104 1.72836 6.20287
0.559994 1.72528 6.19708
0.54011 1.72952 6.21217
0.519018 1.72536 6.20039
0.500149 1.73062 6.21745
0.478041 1.72543 6.20369
0.468073 1.7275 6.20774
0.447042 1.72545 6.20393
0.427097 1.72757 6.21105
0.406074 1.72554 6.20824
0.36609 1.7256 6.21054
0.345144 1.72772 6.21766
0.325183 1.72881 6.2228
0.315153 1.72776 6.21889
0.294161 1.72779 6.22005
0.274169 1.72782 6.2212
0.233224 1.72995 6.22848
0.212155 1.72683 6.21968
0.202202 1.72893 6.22572
0.0992582 1.73011 6.23348
0.0791898 1.72799 6.22466
0.0581904 1.728 6.22482
0.0483519 1.73332 6.24582
-0.135407 1.72799 6.01325
-0.68157 1.73203 5.9933
-0.74159 1.73303 5.99074
-0.849715 1.73286 5.97456
-0.869706 1.73389 5.97569
-0.888759 1.7328 5.96885
-0.928772 1.7338 5.96714
-0.959732 1.73689 5.97232
-1.01689 1.73263 5.95182
-1.03786 1.7357 5.95593
-1.05693 1.73358 5.9471
-1.06885 1.73674 5.95715
-1.08693 1.73459 5.94631
-1.126 1.73348 5.93762
-1.146 1.7355 5.93774
-1.16506 1.73339 5.92992
-1.18504 1.73544 5.93204
-1.21606 1.73643 5.93026
-1.27319 1.7352 5.9127
-1.3642 1.74024 5.91131
-1.40038 1.73491 5.88766
-1.44041 1.73688 5.88393
-1.45043 1.73686 5.88201
-1.48753 1.73568 5.8683
-1.51048 1.7388 5.87543
-1.5266 1.73557 5.8596
-1.54953 1.73971 5.86771
-1.5676 1.73759 5.85888
-1.57956 1.74067 5.86392
-1.59862 1.73958 5.85708
-1.62543 1.74896 5.88115
-1.63962 1.7426 5.85635
-1.66352 1.74881 5.86944
-1.6884 1.75505 5.88453
-1.70357 1.74973 5.86272
-1.71554 1.7518 5.86678
-1.7375 1.75487 5.8709
-1.75363 1.75063 5.85409
-1.77462 1.75368 5.8562
-1.92287 1.75527 5.82229
-1.96611 1.75084 5.79167
-1.98222 1.74763 5.77684
-2.00225 1.7486 5.77398
-2.01836 1.74539 5.75914
-2.03741 1.7453 5.75229
-2.06329 1.75254 5.76738
-2.07452 1.74511 5.73757
-2.08356 1.74404 5.73265
-2.10653 1.74811 5.73677
-2.11577 1.73965 5.70496
-2.13776 1.74269 5.70708
-2.16171 1.7468 5.7132
-2.19197 1.73932 5.67953
-2.25715 1.739 5.65502
-3.13003 1.74191 5.2755
-4.87695 1.74756 3.9634
-4.89722 1.74405 3.9276
-4.91928 1.74794 3.91971
-4.93031 1.74889 3.91578
-4.94641 1.74971 3.90288
-4.96748 1.75258 3.893
-4.98358 1.7534 3.88011
-5.00066 1.75523 3.86821
-5.00683 1.75191 3.8463
-5.0289 1.75579 3.83741
-5.04688 1.75983 3.83948
-5.06596 1.76169 3.8286
-5.07709 1.76144 3.81168
-5.22737 1.76302 3.64177
-5.23851 1.76176 3.62387
-5.24466 1.75945 3.60295
-5.25977 1.76026 3.58904
-5.27985 1.76311 3.57815
-5.29297 1.76288 3.56225
-5.29415 1.75853 3.53832
-5.30032 1.75621 3.5164
-5.30439 1.75608 3.50743
-5.31055 1.75277 3.48652
-5.32566 1.75456 3.47161
-5.3338 1.75228 3.4527
-5.35189 1.75512 3.44079
-5.36402 1.75488 3.42389
-5.38012 1.75568 3.40999
-5.38321 1.75452 3.39903
-5.38637 1.7512 3.3771
-5.41242 1.75611 3.37023
-5.41461 1.75276 3.34629
-5.43668 1.75663 3.3364
-5.44383 1.75433 3.31648
-5.45993 1.75614 3.30257
-5.45704 1.75293 3.2886
-5.4831 1.75783 3.28072
-5.49124 1.75655 3.2618
-5.49739 1.75426 3.24188
-5.50853 1.754 3.22396
-5.51766 1.75374 3.20603
-5.53079 1.7535 3.18913
-5.54381 1.75647 3.18619
-5.53703 1.75003 3.15723
-5.55612 1.75287 3.14533
-5.57223 1.75466 3.13042
-5.59232 1.7575 3.11853
-5.5935 1.75416 3.09558
-5.62055 1.75906 3.08771
-5.62064 1.75688 3.07574
-5.63675 1.75867 3.06084
-5.63892 1.75534 3.0389
-5.65105 1.7561 3.02198
-5.66915 1.75892 3.00907
-5.68625 1.76073 2.99517
-5.69141 1.75842 2.97424
-5.70544 1.76137 2.9703
-5.71159 1.76008 2.95036
-5.72571 1.76085 2.93446
-5.75612 1.76006 2.87969
-5.83811 1.76116 2.74827
3.08877 1.71937 5.22798
3.05493 1.72071 5.24922
3.0409 1.71766 5.24537
3.02701 1.71988 5.25944
3.00705 1.71898 5.26561
2.99113 1.71916 5.27673
2.97321 1.71932 5.28686
2.95324 1.71839 5.29102
2.93835 1.71961 5.30512
2.92735 1.71863 5.30622
2.91348 1.72088 5.32229
2.88641 1.71578 5.31457
2.87456 1.71907 5.33361
2.84952 1.71501 5.32886
2.83361 1.7162 5.34097
2.81872 1.71742 5.35506
2.80976 1.7175 5.36013
2.7847 1.71242 5.35339
2.77185 1.71671 5.37243
2.75188 1.7158 5.37759
2.73598 1.71699 5.3897
2.71092 1.7119 5.38296
2.70417 1.72038 5.41489
2.69012 1.7163 5.40905
2.6732 1.71746 5.41917
2.66034 1.72075 5.43822
2.63326 1.71461 5.42751
2.61939 1.71787 5.44457
2.60145 1.718 5.4527
2.58047 1.71606 5.45589
2.57251 1.71714 5.46094
2.55865 1.72043 5.47999
2.53359 1.71533 5.47226
2.5187 1.71757 5.48734
2.50586 1.72187 5.50737
2.47673 1.71364 5.49071
2.46388 1.71795 5.51075
2.45693 1.71905 5.51779
2.43494 1.71709 5.51898
2.41495 1.71513 5.52116
2.4062 1.72361 5.5531
2.38011 1.71745 5.54139
2.36931 1.72386 5.56838
2.3483 1.72084 5.56658
2.33424 1.71775 5.55973
2.31835 1.71997 5.57382
2.30143 1.72115 5.58494
2.2784 1.71809 5.58015
2.26353 1.72135 5.59722
2.2507 1.72569 5.61925
2.22459 1.71951 5.60654
2.21358 1.71849 5.60464
2.19667 1.71968 5.61675
2.16748 1.71035 5.59311
2.11369 1.71279 5.62048
2.10087 1.71814 5.6435
2.1011 1.72658 5.67338
2.05501 1.71944 5.66183
2.04627 1.72796 5.69677
2.01913 1.7207 5.67808
1.99506 1.71558 5.66934
1.97506 1.71461 5.6705
1.96612 1.71572 5.67755
1.94818 1.71585 5.68569
1.93126 1.71803 5.69679
1.91026 1.71605 5.69697
1.8703 1.71415 5.7023
1.84338 1.71532 5.71249
1.82442 1.71542 5.71863
1.80548 1.71554 5.72577
1.78446 1.71352 5.72396
1.77063 1.71886 5.74599
1.68997 1.72558 5.7915
1.66688 1.72042 5.77975
1.51903 1.71583 5.80094
1.4801 1.71599 5.81023
1.47112 1.71602 5.8123
1.43322 1.71724 5.82557
1.41529 1.7194 5.83567
1.39528 1.71739 5.83385
1.37634 1.71852 5.84198
1.35739 1.71962 5.84811
1.34842 1.71969 5.85217
1.30948 1.71984 5.86047
1.25053 1.71897 5.86692
1.23263 1.72119 5.88103
1.16262 1.71823 5.8806
1.14471 1.7204 5.8917
1.07577 1.71957 5.90024
1.03682 1.71969 5.90653
0.977902 1.71989 5.91797
0.891049 1.72224 5.93759
0.802119 1.72144 5.94728
0.783181 1.72357 5.95539
0.714197 1.72165 5.95794
0.695243 1.72275 5.96406
0.675228 1.72173 5.96223
0.616337 1.72498 5.97663
0.606313 1.72295 5.97373
0.547391 1.72514 5.98415
0.527407 1.72518 5.9863
0.507376 1.72314 5.98248
0.43844 1.72531 5.99096
0.399463 1.72538 5.99426
0.340503 1.7255 5.9997
0.33055 1.72759 6.00575
0.251559 1.72666 6.00735
0.231606 1.72877 6.01347
0.181591 1.72777 6.01187
0.141539 1.7257 6.0052
0.102571 1.72679 6.00948
0.0925859 1.72682 6.01155
-0.637678 1.73082 5.84597
-0.744742 1.73177 5.83776
-0.763764 1.73174 5.83491
-0.908872 1.73362 5.82097
-0.946916 1.73356 5.81526
-0.965953 1.7325 5.81041
-0.975961 1.73249 5.80949
-1.01401 1.73242 5.80278
-1.07305 1.73439 5.79819
-1.2443 1.73401 5.76548
-1.2643 1.73502 5.76562
-1.3685 1.7337 5.73942
-1.40655 1.73362 5.73271
-1.47366 1.73445 5.7182
-1.53073 1.73534 5.70861
-1.57075 1.73733 5.70588
-1.58979 1.73727 5.70103
-1.64076 1.74235 5.70434
-1.65687 1.74015 5.69049
-1.68077 1.74536 5.70359
-1.7037 1.75051 5.71269
-1.71399 1.73996 5.67492
-1.72593 1.74308 5.68296
-1.74398 1.74199 5.67612
-1.76498 1.74399 5.67524
-1.78108 1.74181 5.6624
-1.80695 1.74908 5.67949
-1.82403 1.74795 5.66963
-1.84893 1.75314 5.68174
-1.85601 1.751 5.67183
-1.87405 1.75092 5.66596
-1.89212 1.7498 5.65711
-1.91703 1.756 5.66921
-1.92923 1.74861 5.64241
-1.95218 1.75273 5.64952
-1.96339 1.74532 5.62171
-1.97046 1.74419 5.61278
-1.99147 1.74519 5.61192
-2.00953 1.74509 5.60406
-2.02659 1.74398 5.5962
-2.04758 1.74701 5.59732
-2.06075 1.74068 5.57451
-2.07981 1.74059 5.56765
-2.10297 1.7373 5.54687
-2.12102 1.73721 5.54001
-4.50891 1.74337 4.10071
-4.57338 1.7435 4.03918
-4.69128 1.74279 3.91907
-4.70439 1.74258 3.90417
-4.72148 1.74443 3.89327
-4.73658 1.74423 3.87938
-4.74969 1.74402 3.86448
-4.76469 1.74803 3.86453
-4.79072 1.75299 3.86066
-4.78892 1.74659 3.83373
-4.81098 1.74949 3.82586
-4.82509 1.75029 3.81195
-4.84913 1.75522 3.80606
-4.86224 1.755 3.79116
-4.87724 1.75802 3.79122
-4.89632 1.75987 3.78034
-4.91042 1.76067 3.76643
-4.9295 1.76252 3.75555
-5.08191 1.76086 3.56969
-5.10416 1.76039 3.53686
-5.11926 1.76119 3.52296
-5.12244 1.75685 3.50005
-5.13456 1.75663 3.48414
-5.1436 1.75854 3.47818
-5.1579 1.75396 3.43835
-5.18195 1.75888 3.43146
-5.18214 1.75452 3.40752
-5.19426 1.75429 3.39161
-5.20538 1.75405 3.3747
-5.21344 1.75395 3.36776
-5.22754 1.75475 3.35385
-5.23171 1.75243 3.33191
-5.25377 1.75631 3.32302
-5.25694 1.75299 3.30109
-5.27006 1.75276 3.28519
-5.28616 1.75458 3.27228
-5.29918 1.75755 3.26934
-5.30135 1.75321 3.24642
-5.31845 1.75603 3.2335
-5.32062 1.75169 3.21058
-5.33772 1.75451 3.19766
-5.34983 1.7543 3.18276
-5.35101 1.75096 3.15981
-5.36205 1.75188 3.15388
-5.39208 1.75884 3.15
-5.39824 1.75753 3.12906
-5.40538 1.75526 3.11015
-5.41252 1.75398 3.09122
-5.4507 1.75965 3.06742
-5.43884 1.75338 3.04942
-5.47005 1.75697 3.0206
-5.48715 1.75879 3.0077
-5.49231 1.75648 2.98677
-5.91493 1.75671 2.24185
-5.9141 1.75337 2.21889
-5.88835 1.74188 2.18686
-5.89549 1.7416 2.16791
-5.9126 1.74439 2.153
-5.92373 1.74515 2.13607
-5.9229 1.74282 2.1141
-5.94092 1.74678 2.11017
-5.94108 1.74447 2.0892
-5.94324 1.74216 2.06825
-5.96634 1.74698 2.05535
-5.94756 1.73854 2.02633
-5.95071 1.73725 2.00637
-5.9758 1.74209 1.99449
-5.97397 1.73876 1.97252
-5.97405 1.7376 1.96154
3.18004 1.7159 4.99731
3.1482 1.71725 5.01954
3.09828 1.71245 5.03098
3.08641 1.71571 5.04803
3.0624 1.7117 5.04627
3.05155 1.716 5.06629
3.02954 1.712 5.06551
3.02463 1.71419 5.07752
3.00669 1.7143 5.08465
2.98976 1.71446 5.09478
2.97689 1.71772 5.11183
2.95792 1.7158 5.116
2.9339 1.71178 5.11424
2.92407 1.71712 5.13624
2.90293 1.70885 5.11752
2.88903 1.71007 5.13161
2.87414 1.71229 5.14569
2.85619 1.7124 5.15283
2.83521 1.70945 5.15503
2.82335 1.71374 5.17406
2.79727 1.70661 5.16436
2.79135 1.70876 5.17437
2.77443 1.70992 5.18448
2.76359 1.71424 5.2055
2.73446 1.70603 5.18984
2.72566 1.71142 5.21583
2.70366 1.70943 5.21603
2.6847 1.70752 5.2212
2.67674 1.7086 5.22624
2.65879 1.70772 5.23339
2.63881 1.70678 5.23656
2.629 1.71214 5.26056
2.60699 1.70914 5.25977
2.59108 1.71033 5.27187
2.57109 1.70837 5.27405
2.5611 1.7074 5.27514
2.53029 1.71077 5.29932
2.51438 1.71196 5.31143
2.49439 1.71101 5.31359
2.47951 1.71324 5.32868
2.45443 1.70711 5.31895
2.44954 1.71132 5.33293
2.42956 1.70938 5.33611
2.41364 1.71055 5.34721
2.38182 1.71392 5.37041
2.35776 1.70883 5.36366
2.34185 1.71001 5.37477
2.34204 1.71738 5.39966
2.31086 1.70806 5.37703
2.29596 1.70926 5.39013
2.28312 1.71458 5.41115
2.26008 1.71051 5.40538
2.2513 1.71795 5.43434
2.22724 1.71285 5.4266
2.21521 1.71081 5.42372
2.20234 1.71407 5.44077
2.18543 1.71525 5.45188
2.16033 1.71009 5.44014
2.14953 1.71546 5.46515
2.13056 1.71555 5.47029
2.10956 1.71355 5.46948
2.10058 1.7136 5.47254
2.08265 1.71375 5.48168
2.06469 1.71385 5.48781
2.04368 1.71185 5.487
2.02879 1.71407 5.50108
2.00575 1.71101 5.4963
1.58374 1.71425 5.62945
1.54582 1.71442 5.63974
-0.698513 1.72925 5.60242
-0.858558 1.73427 5.59655
-1.05086 1.73082 5.55804
-1.0789 1.73075 5.55226
-1.11592 1.73173 5.54952
-1.13495 1.73168 5.54566
-1.171 1.73161 5.53893
-1.21708 1.73149 5.52928
-1.25315 1.73137 5.51955
-1.27218 1.73132 5.5157
-1.29117 1.73335 5.51681
-1.30019 1.73232 5.51389
-1.32015 1.7354 5.519
-1.40938 1.73302 5.4897
-1.42742 1.73296 5.48484
-1.50956 1.73274 5.46646
-1.55564 1.73361 5.45579
-1.57367 1.73355 5.45093
-1.62973 1.73547 5.44332
-1.64778 1.73538 5.43646
-1.65778 1.73641 5.43752
-1.67777 1.73842 5.43764
-1.69774 1.74049 5.44176
-1.71578 1.74043 5.43689
-1.73579 1.74243 5.43602
-1.75968 1.74864 5.4491
-1.77285 1.74333 5.42728
-1.78576 1.74851 5.4393
-1.79893 1.7422 5.41749
-1.8238 1.74945 5.43357
-1.83795 1.74518 5.41474
-1.86282 1.75243 5.43082
-1.875 1.74609 5.40701
-1.89598 1.74915 5.41012
-1.90305 1.74802 5.40119
-1.92304 1.75005 5.40231
-1.93619 1.74476 5.38248
-1.95814 1.74887 5.38859
-1.97033 1.74252 5.36477
-1.99326 1.74766 5.37287
-2.00836 1.74549 5.36101
-2.03032 1.74956 5.36512
-2.03052 1.74118 5.33924
-2.04857 1.74109 5.33238
-2.06563 1.74098 5.32451
-2.08464 1.74198 5.32363
-2.10172 1.74083 5.31278
-2.11388 1.73653 5.29193
-2.13487 1.73858 5.29406
-2.14094 1.73643 5.28413
-2.16193 1.73948 5.28625
-2.19212 1.73613 5.26152
-2.22722 1.73595 5.24779
-2.70572 1.73832 5.05033
-2.89944 1.73902 4.95477
-2.99477 1.74144 4.91144
-3.03397 1.73907 4.88477
-3.08219 1.73867 4.85613
-4.18214 1.7407 4.06928
-4.2263 1.74541 4.04754
-4.23644 1.74315 4.02965
-4.24953 1.74297 4.01675
-4.26165 1.74175 4.00186
-4.28468 1.74571 3.99797
-4.29481 1.74445 3.98006
-4.30384 1.7454 3.97612
-4.31297 1.74315 3.95922
-4.3241 1.74191 3.94232
-4.3372 1.74173 3.92942
-4.36519 1.74775 3.92954
-4.37134 1.74446 3.90963
-4.40034 1.75148 3.90974
-4.40252 1.74612 3.88584
-4.42148 1.75121 3.89091
-4.4197 1.74479 3.86298
-4.45483 1.74854 3.84419
-4.47092 1.74937 3.8323
-4.49098 1.75227 3.8244
-4.50706 1.75312 3.81351
-4.51213 1.75299 3.80455
-4.54013 1.75901 3.80467
-4.53636 1.75156 3.77475
-4.56038 1.75652 3.77086
-4.57964 1.75403 3.73703
-4.59076 1.7528 3.72113
-4.62185 1.75764 3.70929
-4.63892 1.75851 3.69941
-4.66216 1.75807 3.66859
-4.74984 1.75978 3.57821
-4.88507 1.75945 3.41521
-4.92041 1.7588 3.36948
-4.93162 1.75539 3.34161
-4.94572 1.75621 3.3287
-4.97591 1.75885 3.30289
-4.98604 1.7586 3.28597
-5.0053 1.75711 3.25213
-5.03359 1.75655 3.21334
-5.05167 1.7594 3.20244
-5.19722 1.75846 2.99752
-5.6666 1.75223 2.15203
-5.67074 1.75095 2.13308
-5.67389 1.74866 2.11313
-5.67405 1.74535 2.09218
-5.69216 1.74915 2.07826
-5.69232 1.74684 2.05729
-5.71939 1.75271 2.04741
-5.72445 1.7536 2.03943
-5.72161 1.74927 2.01747
-5.70682 1.74186 1.99046
-5.72891 1.7467 1.97856
-5.73604 1.74644 1.96061
-5.7372 1.74414 1.94065
-5.74433 1.74388 1.92271
-5.7484 1.74375 1.91374
-5.74756 1.74144 1.89276
-5.75469 1.74118 1.87482
-5.75086 1.73685 1.85285
-5.78093 1.74472 1.84296
-5.76813 1.73734 1.81797
-5.77426 1.73708 1.80002
-5.77733 1.73695 1.79104
-5.78746 1.73871 1.77409
-5.79789 1.73485 1.71622
5.90861 1.66731 0.68188
5.90768 1.66745 0.690886
5.90081 1.66672 0.708951
5.89896 1.668 0.727949
5.89152 1.67012 0.802984
2.84845 1.71897 4.92075
2.81863 1.72034 4.94396
2.79763 1.71735 4.94416
2.73985 1.71784 4.9746
2.71104 1.72123 4.99977
2.68903 1.71821 4.99798
2.66615 1.71947 5.01413
2.6482 1.71858 5.02128
2.61431 1.71882 5.03554
2.59738 1.71898 5.04566
2.58941 1.71904 5.04972
2.57147 1.71916 5.05686
2.55757 1.72136 5.06993
2.54063 1.72149 5.07806
2.52267 1.72059 5.08421
2.5047 1.71967 5.08836
2.48471 1.7177 5.08954
2.47185 1.72097 5.10759
2.46286 1.72001 5.10967
2.44185 1.71801 5.10886
2.42695 1.71921 5.12195
2.40899 1.7193 5.12709
2.39408 1.72047 5.13819
2.37408 1.7185 5.13937
2.35715 1.71865 5.14849
2.35326 1.72286 5.16246
2.33429 1.72093 5.16663
2.31429 1.71895 5.16681
2.29326 1.7159 5.16302
2.27734 1.71708 5.17412
2.25938 1.71616 5.17927
2.23939 1.71421 5.18145
2.2355 1.71842 5.19542
2.21958 1.71958 5.20552
2.19753 1.71551 5.19975
2.18263 1.71771 5.21283
2.16671 1.71887 5.22293
2.14874 1.71795 5.22808
2.14385 1.72217 5.24206
2.12384 1.72017 5.24124
2.10385 1.71819 5.24242
2.08894 1.72038 5.2545
2.071 1.7205 5.26164
2.05201 1.71854 5.26381
2.03199 1.71553 5.262
2.01506 1.71767 5.2711
2.01119 1.72191 5.28707
1.99425 1.72204 5.2952
1.97015 1.71588 5.28347
1.95627 1.71912 5.29853
1.93729 1.71818 5.30168
1.91932 1.71825 5.30582
1.90728 1.71518 5.30095
1.89239 1.7184 5.31502
1.87339 1.71641 5.31519
1.85644 1.71653 5.32232
1.84054 1.71973 5.33539
1.82257 1.71881 5.33954
1.80462 1.71891 5.34568
1.7936 1.71687 5.34279
1.7746 1.71589 5.34295
1.75765 1.716 5.35008
1.74173 1.71818 5.36116
1.72173 1.71619 5.36134
1.70172 1.71418 5.35953
1.6858 1.71635 5.37061
1.67888 1.7185 5.38064
1.6568 1.71337 5.37088
1.63884 1.71346 5.37601
1.62292 1.71563 5.3871
1.60496 1.71572 5.39224
1.58494 1.71369 5.38942
1.56696 1.71275 5.39257
1.56415 1.72012 5.41748
1.52722 1.72028 5.42676
1.50616 1.71618 5.41898
1.48612 1.71312 5.41417
1.4723 1.71947 5.43719
1.45226 1.71641 5.43238
1.44432 1.71853 5.44041
1.42428 1.71547 5.43561
1.41043 1.72077 5.45464
1.37247 1.71887 5.45995
1.35243 1.71581 5.45515
1.33653 1.71901 5.46822
1.32444 1.71486 5.45737
1.31165 1.72227 5.48436
1.28852 1.71603 5.46763
1.2747 1.72238 5.49064
1.25463 1.71828 5.48285
1.23668 1.71938 5.48897
1.21563 1.71529 5.48219
1.21077 1.72156 5.50013
1.18868 1.71642 5.48938
1.1707 1.71647 5.49251
1.1548 1.71968 5.50558
1.13685 1.71978 5.51172
1.09987 1.71885 5.51501
1.09093 1.72096 5.52205
1.05395 1.72003 5.52534
1.01801 1.72018 5.53361
0.997989 1.71915 5.53078
0.952019 1.71724 5.53515
0.916104 1.71943 5.54639
0.879143 1.71953 5.55167
0.85222 1.7217 5.56184
0.797266 1.72083 5.56827
0.694298 1.71896 5.57307
0.593407 1.72024 5.58782
-0.953207 1.72909 5.37831
-1.01629 1.72898 5.36778
-1.06935 1.7289 5.36018
-1.18645 1.73176 5.34602
-1.21155 1.72959 5.33324
-1.22957 1.73057 5.33136
-1.28363 1.73147 5.32275
-1.30068 1.7304 5.3169
-1.31066 1.73144 5.31896
-1.32674 1.7303 5.3091
-1.34573 1.73133 5.31022
-1.36472 1.73336 5.31134
-1.38176 1.73328 5.30547
-1.39979 1.73323 5.3016
-1.41586 1.73111 5.29275
-1.42585 1.73315 5.2948
-1.44581 1.73622 5.2989
-1.46384 1.73618 5.29504
-1.48186 1.73716 5.29316
-1.49793 1.73502 5.28331
-1.51791 1.73808 5.28642
-1.53301 1.73489 5.27258
-1.54299 1.73594 5.27564
-1.561 1.73792 5.27374
-1.581 1.73895 5.27488
-1.59705 1.73886 5.268
-1.61023 1.73251 5.24419
-1.63213 1.73872 5.25726
-1.65015 1.73869 5.2544
-1.66527 1.73548 5.23956
-1.67526 1.7375 5.2406
-1.69717 1.74268 5.25169
-1.71715 1.74472 5.25382
-1.73615 1.74674 5.25393
-1.74636 1.73934 5.22711
-1.77025 1.74657 5.24119
-1.78828 1.74652 5.23732
-1.79729 1.74751 5.23638
-1.81728 1.74954 5.2375
-1.83724 1.75262 5.2416
-1.85333 1.75145 5.22974
-1.87235 1.75243 5.22787
-1.88939 1.75236 5.222
-1.89741 1.75232 5.21906
-1.91251 1.74914 5.20622
-1.92957 1.74903 5.19834
-1.94467 1.74687 5.18649
-1.96367 1.74887 5.1856
-1.98269 1.74983 5.18273
-1.99483 1.74558 5.16488
-2.00288 1.74348 5.15797
-2.0209 1.74545 5.15508
-2.03403 1.74121 5.13824
-2.05011 1.74007 5.12838
-2.06911 1.74208 5.12849
-2.08617 1.74198 5.12062
-2.10126 1.73981 5.10876
-2.11419 1.74395 5.1178
-2.12438 1.73759 5.09297
-2.14339 1.73959 5.09208
-2.16044 1.7395 5.08521
-2.17453 1.73733 5.07335
-2.19354 1.73932 5.07146
-2.21453 1.74236 5.07357
-2.21765 1.73813 5.05766
-2.23568 1.73908 5.05378
-2.25765 1.74215 5.0579
-2.26487 1.73473 5.02906
-2.30093 1.73662 5.0203
-2.31995 1.73861 5.01841
-2.32896 1.73858 5.01648
-2.34797 1.74057 5.0146
-2.37421 1.73513 4.98387
-2.39912 1.74131 4.99497
-2.42536 1.73587 4.96424
-2.43536 1.73688 4.9643
-2.46946 1.7377 4.95055
-2.48848 1.73966 4.94766
-2.50159 1.73647 4.9338
-2.51864 1.73738 4.92692
-2.53667 1.73833 4.92304
-2.54372 1.73725 4.91711
-2.56372 1.74025 4.91621
-2.57585 1.737 4.89935
-2.59389 1.73794 4.89447
-2.60995 1.73783 4.88659
-2.62996 1.73982 4.88471
-2.65407 1.73963 4.8709
-2.67209 1.74158 4.867
-2.68817 1.74045 4.85714
-2.72128 1.74125 4.84238
-2.73241 1.73801 4.8255
-2.75638 1.74308 4.82961
-2.76243 1.74098 4.82269
-2.77949 1.74188 4.8148
-2.79358 1.74071 4.80292
-2.81162 1.74165 4.79804
-2.82275 1.73839 4.78017
-2.84277 1.74037 4.77829
-2.85981 1.7423 4.77239
-2.86193 1.73706 4.75648
-2.88391 1.74212 4.75958
-2.90195 1.74305 4.7537
-2.92 1.74397 4.74782
-2.93408 1.74282 4.73694
-2.95805 1.7479 4.74105
-2.9682 1.74461 4.72117
-2.97623 1.74455 4.71723
-2.9992 1.74861 4.72034
-3.01132 1.74639 4.70446
-3.0333 1.75043 4.70657
-3.04839 1.75028 4.69569
-3.06644 1.75119 4.68881
-3.0746 1.74688 4.66793
-3.08757 1.74994 4.67098
-3.09277 1.74356 4.64511
-3.11872 1.74966 4.65122
-3.12885 1.74642 4.63434
-3.1479 1.74735 4.62847
-3.16198 1.74719 4.61758
-3.18003 1.7481 4.6107
-3.18905 1.74908 4.60875
-3.20018 1.74582 4.59088
-3.21427 1.74565 4.57899
-3.22935 1.74552 4.5691
-3.24442 1.74538 4.55922
-3.26248 1.74627 4.55134
-3.2715 1.74725 4.54939
-3.28459 1.74607 4.53651
-3.30265 1.74698 4.52963
-3.32168 1.74892 4.52474
-3.32884 1.74461 4.50386
-3.34986 1.74758 4.50097
-3.35604 1.74225 4.47809
-3.3731 1.74414 4.47019
-3.37124 1.73786 4.45127
-3.39918 1.745 4.45937
-3.4103 1.74377 4.44347
-3.42241 1.74155 4.4286
-3.44343 1.74454 4.42671
-3.45653 1.74334 4.41282
-3.46864 1.74214 4.39893
-3.47964 1.74414 4.39798
-3.50066 1.74712 4.3961
-3.51574 1.74697 4.38521
-3.52983 1.7468 4.37332
-3.53997 1.74354 4.35544
-3.55801 1.74547 4.34955
-3.57012 1.74425 4.33466
-3.57618 1.74316 4.32772
-3.60313 1.75025 4.33282
-3.6093 1.74593 4.31092
-3.63131 1.74991 4.30903
-3.63847 1.74561 4.28814
-3.65553 1.7465 4.28026
-3.67556 1.74946 4.27636
-3.67667 1.74625 4.26242
-3.69967 1.75025 4.26153
-3.70385 1.74492 4.23864
-3.72686 1.7499 4.23674
-3.7459 1.75183 4.23085
-3.75802 1.75061 4.21596
-3.76109 1.74847 4.20601
-3.78014 1.75139 4.20011
-3.79423 1.75123 4.18822
-3.80733 1.75003 4.17434
-3.81745 1.7478 4.15844
-3.83749 1.75074 4.15355
-3.84167 1.74539 4.12966
-3.86259 1.75255 4.13971
-3.87668 1.75238 4.12782
-3.89573 1.75429 4.12093
-3.89891 1.74995 4.09802
-3.92688 1.75602 4.10114
-3.9271 1.7496 4.07323
-3.95308 1.75564 4.07434
-3.96013 1.75555 4.06839
-3.9762 1.75642 4.0585
-3.99227 1.7573 4.0496
-4.00736 1.75813 4.0377
-4.00955 1.75176 4.01281
-4.02563 1.75262 4.00292
-4.04964 1.75761 4.00102
-4.05777 1.75535 3.98312
-4.0668 1.7563 3.97917
-4.11106 1.75783 3.94548
-4.15234 1.75829 3.90777
-5.61735 1.75277 1.7856
-5.63261 1.75328 1.7517
-5.63475 1.752 1.73274
-5.6379 1.74972 1.71379
-5.64403 1.74946 1.69584
-5.64511 1.74931 1.68585
-5.65024 1.74805 1.6679
-5.65937 1.7488 1.65096
-5.65354 1.74447 1.62897
-5.66266 1.74524 1.61303
-5.66182 1.74293 1.59205
-5.66595 1.74167 1.5741
-5.65605 1.73747 1.56109
-5.67615 1.74229 1.54817
-5.67132 1.73796 1.52619
-5.67545 1.7377 1.50822
-5.68258 1.73745 1.49128
-5.68972 1.73819 1.47332
-5.68288 1.73388 1.45233
-5.692 1.73463 1.43538
-5.69108 1.73348 1.42539
-5.69422 1.7322 1.40643
-5.70534 1.73397 1.39049
2.51507 1.71745 4.87128
2.42947 1.72229 4.92486
2.37962 1.72162 4.94525
2.36267 1.72073 4.95139
2.35165 1.7197 4.94949
2.31979 1.72099 4.96771
2.30182 1.72007 4.97186
2.28791 1.72125 4.98395
2.27401 1.72346 4.99703
2.25504 1.72252 5.00018
2.24214 1.72473 5.01425
2.2301 1.72167 5.00939
2.21214 1.72175 5.01452
2.19723 1.72394 5.0266
2.18231 1.7251 5.0367
2.16231 1.72212 5.03689
2.14128 1.71907 5.0331
2.14044 1.72538 5.05401
2.11838 1.72028 5.04625
2.10348 1.7225 5.06033
2.08958 1.7257 5.07339
2.04956 1.71969 5.07078
2.03669 1.72395 5.08782
2.02667 1.72193 5.08592
2.00768 1.71995 5.0871
1.99276 1.72213 5.09818
1.97683 1.72326 5.10628
1.95989 1.72339 5.11441
1.93885 1.72033 5.10961
1.92189 1.71942 5.11476
1.91597 1.72258 5.12575
1.89696 1.72058 5.12493
1.87695 1.71758 5.12412
1.86409 1.72286 5.14214
1.84305 1.7188 5.13736
1.82814 1.72097 5.14844
1.81221 1.72212 5.15755
1.80118 1.72007 5.15366
1.77909 1.71392 5.14292
1.7693 1.72133 5.16988
1.75133 1.7214 5.17402
1.72824 1.71525 5.16328
1.7164 1.72157 5.18428
1.70047 1.72272 5.19339
1.68534 1.71548 5.1766
1.6725 1.72078 5.19662
1.65347 1.71875 5.1938
1.63344 1.71571 5.18999
1.62163 1.72207 5.21399
1.60363 1.7211 5.21514
1.58053 1.71392 5.20242
1.57565 1.71915 5.21738
1.55664 1.71715 5.21655
1.53558 1.71305 5.20877
1.52067 1.71523 5.22085
1.50476 1.71842 5.23293
1.48471 1.71434 5.22614
1.46879 1.71651 5.23723
1.46185 1.71862 5.24425
1.44078 1.71352 5.23648
1.42486 1.71567 5.24657
1.41099 1.71994 5.26362
1.38992 1.71582 5.25484
1.37297 1.71692 5.26095
1.35911 1.7212 5.27899
1.34496 1.71393 5.2602
1.33111 1.71922 5.27923
1.31417 1.72035 5.28734
1.29618 1.72039 5.28948
1.27818 1.7194 5.28963
1.26227 1.72159 5.30172
1.24428 1.72062 5.30287
1.23218 1.71544 5.29003
1.21836 1.72279 5.31303
1.19623 1.71555 5.2963
1.17824 1.7146 5.29845
1.1644 1.7209 5.31847
1.14433 1.71578 5.30969
1.1274 1.71793 5.31879
1.11944 1.72001 5.32382
1.10042 1.71799 5.32199
1.0814 1.71596 5.31917
1.06547 1.71811 5.32826
1.02844 1.71509 5.32558
1.01463 1.72145 5.34959
1.00254 1.71729 5.33774
0.969674 1.72158 5.35593
0.949605 1.71746 5.34714
0.932658 1.71857 5.35425
0.895643 1.71657 5.35256
0.887666 1.71662 5.35562
0.871805 1.7219 5.37367
0.834744 1.71781 5.366
0.815744 1.71682 5.36616
0.771806 1.71797 5.37448
0.718876 1.71914 5.38386
0.522039 1.7196 5.40634
-3.08463 1.73591 4.39913
-3.10168 1.73782 4.39223
-3.12786 1.73548 4.36846
-3.1349 1.73541 4.36351
-3.18505 1.73914 4.34283
-3.20211 1.74005 4.33595
-3.21223 1.73682 4.32007
-3.2263 1.73668 4.31017
-3.23235 1.73658 4.30322
-3.25238 1.73955 4.30033
-3.26447 1.73837 4.28743
-3.31277 1.73581 4.24783
-3.34489 1.7376 4.23204
-3.40727 1.7369 4.18252
