-5.29595 1.75835 5.00513
-5.32424 1.75579 4.96637
-5.3333 1.7567 4.95943
-5.35737 1.75857 4.94958
-5.3725 1.75831 4.93169
-5.38863 1.75807 4.91482
-5.40774 1.75886 4.89995
-5.42089 1.75758 4.88006
-5.43305 1.75527 4.85918
-5.45601 1.76036 4.86428
-5.46619 1.75803 4.84139
-5.50961 1.75623 4.78574
-5.52573 1.75599 4.76886
-5.54782 1.75783 4.757
-5.60925 1.75903 4.70044
-5.69598 1.75766 4.6041
-3.50908 1.75368 5.91186
-3.60041 1.75509 5.86852
-3.6376 1.75373 5.84282
-3.75 1.75703 5.79061
-3.78127 1.75252 5.75491
-3.79624 1.75559 5.75897
-3.81533 1.75543 5.74712
-3.83639 1.75631 5.73826
-3.85746 1.75719 5.72941
-3.87853 1.75807 5.72055
-3.89564 1.75686 5.7057
-3.91671 1.75773 5.69584
-3.92378 1.7566 5.68691
-3.95899 1.75521 5.65919
-3.98007 1.75608 5.64934
-4.00113 1.75696 5.64048
-4.0403 1.75766 5.61876
-4.04737 1.75652 5.60883
-4.06645 1.75737 5.59796
-4.08358 1.75615 5.58211
-4.10069 1.75494 5.56725
-4.12374 1.75685 5.56039
-4.13986 1.75563 5.54453
-4.153 1.75335 5.52566
-4.15909 1.75218 5.51372
-4.17818 1.75203 5.50287
-4.20024 1.75391 5.49401
-4.22131 1.7548 5.48515
-4.23743 1.75357 5.46929
-4.25257 1.75232 5.45142
-4.27661 1.75424 5.44557
-4.27675 1.75098 5.42762
-4.30177 1.75394 5.42376
-4.32086 1.75377 5.4119
-4.33402 1.75149 5.39203
-4.35212 1.75129 5.37817
-4.37023 1.7511 5.36431
-4.39625 1.75507 5.36145
-4.39441 1.74976 5.34051
-4.40953 1.74852 5.32364
-4.42764 1.74833 5.30978
-4.45068 1.75125 5.30391
-4.46581 1.75001 5.28703
-4.48392 1.74982 5.27317
-4.49508 1.7465 5.2513
-4.51503 1.7516 5.25738
-4.52223 1.74723 5.23149
-4.54133 1.74705 5.21864
-4.56933 1.75205 5.21778
-4.58148 1.74976 5.1979
-4.59761 1.74854 5.18203
-4.61869 1.75039 5.17116
-4.61981 1.74716 5.15522
-4.64485 1.75008 5.14936
-4.66295 1.74991 5.1365
-4.67708 1.74865 5.11862
-4.69816 1.75052 5.10875
-4.71725 1.75135 5.09688
-4.72332 1.75021 5.08694
-4.74638 1.75211 5.07909
-4.75953 1.75082 5.0592
-4.77268 1.74855 5.04033
-4.79573 1.75145 5.03246
-4.8059 1.74813 5.01059
-4.83194 1.75206 5.00472
-4.85216 1.74966 4.97691
-4.87224 1.75051 4.96605
-4.88836 1.75029 4.95017
-4.9377 1.74964 4.90454
-4.98098 1.75012 4.86786
-5.0162 1.75072 4.83911
-5.0927 1.75177 4.77166
-5.11577 1.75365 4.76281
-5.16015 1.75193 4.71216
-5.20045 1.75237 4.67245
-5.2518 1.75272 4.62683
-5.52077 1.75602 4.36577
-5.79606 1.75869 4.06176
-5.82422 1.76039 4.03994
-5.90395 1.76101 3.94352
-5.93521 1.76253 3.90973
-5.97066 1.75966 3.85003
-3.66312 1.75379 5.50796
-3.67727 1.75152 5.4891
-3.70425 1.75557 5.49124
-3.71838 1.75433 5.47437
-3.73958 1.75094 5.44757
-3.76658 1.75496 5.44772
-3.77774 1.75166 5.42685
-3.7978 1.75254 5.41798
-3.82083 1.7545 5.41413
-3.83991 1.75535 5.40326
-3.85405 1.75309 5.38539
-3.87624 1.75074 5.36059
-3.90124 1.75374 5.35974
-3.91934 1.75356 5.34687
-3.93941 1.75444 5.33801
-3.94365 1.74799 5.30713
-3.98053 1.75722 5.32128
-3.9777 1.75189 5.29933
-3.99778 1.75276 5.28947
-4.01982 1.75469 5.28361
-4.0389 1.75554 5.27274
-4.05105 1.75227 5.25387
-4.0642 1.74998 5.234
-4.09219 1.75501 5.23514
-4.09529 1.75181 5.22121
-4.12624 1.75892 5.22734
-4.13345 1.75353 5.20047
-4.15649 1.75645 5.1946
-4.17061 1.75523 5.17872
-4.18573 1.754 5.16285
-4.18686 1.74977 5.14692
-4.21881 1.75686 5.15205
-4.23097 1.75458 5.13218
-4.25302 1.75649 5.12531
-4.27012 1.75629 5.11144
-4.28523 1.75508 5.09657
-4.30332 1.75592 5.0847
-4.31435 1.75687 5.08076
-4.33443 1.75773 5.0709
-4.35252 1.75755 5.05804
-4.37655 1.76051 5.05417
-4.37582 1.75299 5.01928
-4.40085 1.75695 5.01541
-4.41993 1.7578 5.00453
-4.42104 1.75458 4.98959
-4.44905 1.75859 4.98874
-4.46219 1.75732 4.96986
-4.47235 1.75401 4.94898
-4.49738 1.75797 4.94511
-4.51745 1.75884 4.93525
-4.53158 1.7576 4.91837
-4.54274 1.75529 4.89748
-4.55377 1.75624 4.89355
-4.56889 1.75602 4.87767
-4.58896 1.75688 4.8678
-4.60705 1.75772 4.85593
-4.62118 1.75648 4.83905
-4.64622 1.76042 4.83418
-4.65538 1.7571 4.81229
-4.67038 1.76011 4.81236
-4.6855 1.75989 4.79648
-4.69962 1.75866 4.7806
-4.71177 1.75637 4.76072
-4.72887 1.75719 4.74784
-4.74101 1.75492 4.72896
-4.75911 1.75574 4.71608
-4.76716 1.75564 4.70914
-4.79915 1.76268 4.71028
-4.81426 1.76247 4.69539
-4.82938 1.76124 4.67952
-4.83657 1.75789 4.65562
-4.85565 1.75974 4.64474
-4.87672 1.76161 4.63487
-4.87784 1.75839 4.61992
-4.88898 1.75712 4.60102
-4.91601 1.76106 4.59617
-4.93808 1.76294 4.5873
-4.92838 1.75336 4.54837
-4.9703 1.76352 4.55754
-4.96756 1.75603 4.52462
-4.98553 1.76009 4.5277
-5.00959 1.76299 4.51983
-5.02172 1.76173 4.50194
-5.02295 1.7563 4.47303
-5.04204 1.75814 4.46114
-5.07105 1.76312 4.45829
-5.05727 1.75469 4.4303
-5.08728 1.76068 4.42844
-5.11233 1.7636 4.42159
-5.11454 1.7592 4.39466
-5.1376 1.76208 4.38579
-5.15371 1.76187 4.37092
-5.15691 1.75749 4.345
-5.17589 1.76153 4.34708
-5.19201 1.76231 4.33119
-5.20017 1.76 4.31028
-5.22424 1.76289 4.30142
-5.24134 1.76369 4.28754
-5.25547 1.76345 4.27065
-5.26363 1.76115 4.24974
-5.29465 1.76712 4.24688
-5.28284 1.75975 4.2219
-5.3069 1.76364 4.21402
-5.31804 1.76237 4.19512
-5.33217 1.76213 4.17823
-5.34927 1.76293 4.16434
-5.37035 1.76479 4.15347
-5.36858 1.75834 4.12355
-5.39353 1.76545 4.12964
-5.39772 1.76208 4.10471
-5.4208 1.76495 4.09484
-5.42598 1.7616 4.07093
-5.45004 1.76448 4.06207
-5.45323 1.76112 4.03714
-5.48326 1.76608 4.03329
-5.47442 1.76076 4.0123
-5.50545 1.76672 4.00844
-5.51261 1.7644 3.98653
-5.52873 1.76519 3.97164
-5.53789 1.76289 3.95074
-5.56395 1.76677 3.94187
-5.57012 1.76445 3.91995
-5.58514 1.76742 3.91702
-5.59926 1.76719 3.90113
-5.61439 1.76795 3.88423
-5.61857 1.76458 3.85931
-5.65159 1.77156 3.85645
-5.65975 1.76926 3.83554
-5.66195 1.76488 3.80962
-5.69686 1.77506 3.82074
-5.70502 1.77276 3.79983
-5.71715 1.7725 3.78192
-5.73228 1.77326 3.76502
-5.74939 1.77405 3.75014
-5.75875 1.76836 3.70329
-5.78472 1.77444 3.70739
-5.79486 1.77416 3.68847
-5.80302 1.77184 3.66656
-5.81218 1.77056 3.64665
-5.81934 1.76924 3.62472
-5.83546 1.77001 3.60883
-5.84462 1.76871 3.58791
-5.85168 1.76859 3.57997
-5.86879 1.77038 3.56507
-5.87098 1.76701 3.54013
-5.89506 1.76987 3.52927
-5.90521 1.76958 3.50934
-5.90541 1.7652 3.48341
-5.92252 1.76699 3.46851
-5.93457 1.7689 3.46257
-5.94471 1.76763 3.44366
-5.96382 1.76942 3.42878
-2.38764 1.73984 5.8346
-2.4458 1.73957 5.81404
-2.44992 1.73534 5.79814
-2.47783 1.74152 5.80926
-2.49001 1.73717 5.78541
-2.51399 1.74023 5.78854
-2.53598 1.74227 5.78968
-2.55309 1.74107 5.77583
-2.56527 1.73572 5.75199
-2.57627 1.73673 5.75206
-2.59337 1.73454 5.73822
-2.61243 1.73443 5.73036
-2.62854 1.73324 5.7165
-2.65349 1.73734 5.72263
-2.67257 1.73721 5.71277
-2.69162 1.73712 5.70592
-2.69869 1.73598 5.69599
-2.71972 1.73695 5.69313
-2.73485 1.73369 5.67529
-2.75882 1.73777 5.67941
-2.78182 1.74079 5.67954
-2.79792 1.73859 5.66569
-2.82388 1.74368 5.67081
-2.82505 1.73736 5.64891
-2.84509 1.73828 5.64305
-2.86513 1.73922 5.63818
-2.89011 1.74327 5.64031
-2.91015 1.74421 5.63545
-2.93019 1.74514 5.62959
-2.95124 1.74606 5.62373
-2.98032 1.74692 5.61293
-3.17803 1.74864 5.51839
-3.20515 1.74844 5.50359
-3.22026 1.74623 5.48874
-3.23637 1.74504 5.47487
-3.25543 1.74492 5.46602
-3.26662 1.74057 5.44216
-3.28864 1.74254 5.4393
-3.30376 1.74132 5.42343
-3.31181 1.74022 5.4165
-3.32592 1.73901 5.40163
-3.34301 1.73784 5.38977
-3.35616 1.73457 5.37092
-3.38116 1.73859 5.37104
-3.3943 1.73532 5.35219
-3.40743 1.73307 5.33532
-3.42042 1.7351 5.33639
-3.43653 1.7339 5.32252
-3.47663 1.73672 5.30878
-3.48877 1.73345 5.28992
-3.5269 1.73523 5.27318
-4.62364 1.74665 4.51317
-4.63268 1.74758 4.50822
-4.6629 1.74716 4.47845
-4.67503 1.74592 4.46156
-4.73238 1.74726 4.41496
-4.76458 1.74789 4.38819
-4.77771 1.74665 4.37131
-4.79779 1.74851 4.36143
-4.80991 1.74727 4.34454
-4.84311 1.74889 4.31776
-4.88039 1.74837 4.28104
-4.89352 1.74813 4.26414
-4.93665 1.75289 4.2464
-4.93985 1.74851 4.22048
-4.95485 1.75152 4.22055
-5.00834 1.74958 4.15497
-5.04254 1.75122 4.1292
-5.06769 1.75295 4.10936
-5.07684 1.75066 4.08946
-5.09791 1.75352 4.07958
-5.12417 1.75204 4.04579
-5.15428 1.75584 4.03096
-5.15449 1.75042 4.00304
-5.18352 1.75639 3.99917
-5.19068 1.75408 3.97825
-5.22069 1.76006 3.97539
-5.21494 1.75258 3.94346
-5.23701 1.75545 3.93358
-5.2391 1.75329 3.92262
-5.26713 1.75923 3.91775
-5.26237 1.75177 3.88682
-5.29239 1.75773 3.88295
-5.29955 1.75543 3.86204
-5.32759 1.76037 3.85718
-5.33475 1.75805 3.83526
-5.35572 1.76413 3.83933
-5.35493 1.75871 3.8114
-5.37104 1.75952 3.79751
-5.40205 1.76549 3.79465
-5.40326 1.7611 3.76772
-5.42632 1.76498 3.75884
-5.44741 1.76683 3.74797
-5.45148 1.76669 3.738
-5.47256 1.76954 3.72712
-5.47873 1.76622 3.70521
-5.48987 1.76594 3.68629
-5.50399 1.76572 3.6704
-5.5211 1.76752 3.6565
-5.53522 1.76829 3.64059
-5.53035 1.76404 3.62362
-5.53651 1.76172 3.6017
-5.54466 1.76044 3.58277
-5.56376 1.76225 3.56889
-5.5739 1.76099 3.55098
-5.58006 1.75867 3.52906
-5.59816 1.76049 3.51617
-5.60423 1.76036 3.50721
-5.61437 1.76009 3.48829
-5.6285 1.75985 3.4714
-5.63466 1.75854 3.45046
-5.64181 1.75623 3.42955
-5.66489 1.7601 3.41966
-5.66806 1.75676 3.39673
-5.67612 1.75765 3.38878
-5.69124 1.75843 3.37288
-5.70038 1.75715 3.35396
-5.71252 1.75689 3.33606
-5.72166 1.75662 3.31713
-5.7328 1.75636 3.29921
-5.74493 1.7561 3.2813
-5.7691 1.75779 3.25946
-5.78024 1.75752 3.24054
-5.79138 1.75726 3.22263
-5.80749 1.75905 3.20772
-5.81664 1.75776 3.18781
-5.82976 1.75852 3.17089
-5.84887 1.76133 3.15699
-5.85394 1.7612 3.14803
-5.8581 1.75787 3.12611
-5.8792 1.7617 3.11321
-5.88834 1.76042 3.0943
-5.8955 1.75912 3.07337
-5.91759 1.76295 3.06147
-5.92872 1.7627 3.04356
-5.92683 1.76049 3.02958
-5.94194 1.76128 3.01468
-5.95906 1.76305 2.99878
-5.97119 1.76381 2.98185
-2.19888 1.73727 5.6692
-2.21695 1.73715 5.66033
-2.24501 1.73704 5.65155
-2.26407 1.73695 5.64469
-2.28508 1.73894 5.64282
-2.30216 1.73779 5.63196
-2.31532 1.7335 5.61212
-2.33534 1.73445 5.60826
-2.34243 1.7323 5.59734
-2.35951 1.73115 5.58649
-2.37462 1.72795 5.57265
-2.39662 1.73095 5.57177
-2.41763 1.73295 5.5709
-2.43274 1.73076 5.55704
-2.4518 1.73065 5.54918
-2.45591 1.72643 5.53428
-2.47987 1.73052 5.5394
-2.49694 1.73039 5.52953
-2.516 1.73028 5.52167
-2.53899 1.73333 5.5238
-2.55114 1.72904 5.50395
-2.56921 1.72791 5.4941
-2.57824 1.72785 5.49017
-2.60318 1.73299 5.49828
-2.61929 1.7318 5.48442
-2.64325 1.73587 5.48854
-2.65247 1.72946 5.4607
-2.66954 1.72833 5.45085
-2.69449 1.73345 5.45796
-2.70255 1.73234 5.45004
-2.72257 1.73431 5.44716
-2.7436 1.73526 5.4433
-2.7587 1.73407 5.42943
-2.7807 1.73608 5.42957
-2.79975 1.73699 5.42269
-2.81387 1.73477 5.40683
-2.82586 1.73579 5.40791
-2.84393 1.73567 5.39904
-2.86003 1.73449 5.38618
-2.88302 1.73852 5.38729
-2.9001 1.73737 5.37644
-2.92013 1.73933 5.37256
-2.94116 1.74028 5.3687
-2.94724 1.73914 5.35877
-2.97516 1.74529 5.36789
-2.98534 1.73996 5.34504
-3.00537 1.74191 5.34116
-3.02048 1.7397 5.3263
-3.04447 1.74373 5.32743
-3.06451 1.74467 5.32256
-3.07354 1.74461 5.31763
-3.0857 1.74132 5.29777
-3.09981 1.73911 5.2829
-3.11591 1.73793 5.27004
-3.13002 1.73672 5.25516
-3.14908 1.73661 5.24731
-3.16221 1.73437 5.23044
-3.17223 1.73433 5.22751
-3.19227 1.73627 5.22263
-3.20342 1.73298 5.20276
-3.21953 1.73179 5.1889
-3.25368 1.73152 5.16916
-3.26369 1.7325 5.16722
-3.2788 1.7313 5.15335
-3.31493 1.73206 5.13561
-3.3419 1.73714 5.13974
-3.35007 1.7318 5.11688
-4.53031 1.74431 4.29147
-4.66524 1.74557 4.16845
-4.73876 1.74559 4.09899
-4.75983 1.74847 4.09011
-4.78198 1.74918 4.06926
-4.8102 1.74877 4.04048
-4.88881 1.74962 3.96004
-4.89994 1.74837 3.94214
-4.91405 1.74817 3.92825
-4.93015 1.74899 3.91536
-4.94923 1.75184 3.90446
-4.95032 1.74866 3.89251
-4.99444 1.75544 3.87574
-4.99961 1.75212 3.85383
-5.02664 1.75707 3.84896
-5.03777 1.75682 3.83204
-5.0499 1.75558 3.81515
-5.07186 1.76167 3.82023
-5.07603 1.75833 3.7973
-5.0961 1.7612 3.78741
-5.12016 1.7651 3.77953
-5.14024 1.76695 3.76866
-5.14442 1.76361 3.74573
-5.16251 1.76545 3.73384
-5.17254 1.76638 3.7289
-5.17969 1.76509 3.70897
-5.20773 1.77003 3.70411
-5.228 1.76852 3.66828
-5.25226 1.76701 3.63348
-5.27641 1.76874 3.61363
-5.28058 1.76641 3.5917
-5.28972 1.76414 3.5728
-5.31279 1.76802 3.56391
-5.31895 1.76572 3.54299
-5.32511 1.76339 3.52107
-5.32918 1.76226 3.51211
-5.34131 1.76202 3.49521
-5.35144 1.76176 3.47728
-5.36656 1.76255 3.46238
-5.37968 1.76232 3.44648
-5.37887 1.75795 3.42154
-5.39099 1.75771 3.40463
-5.4071 1.75951 3.39072
-5.41117 1.75837 3.38077
-5.43025 1.76122 3.36987
-5.43941 1.75993 3.34996
-5.44257 1.75661 3.32803
-5.45669 1.7574 3.31312
-5.47478 1.75922 3.30023
-5.47497 1.75485 3.27529
-5.48799 1.75781 3.27234
-5.50311 1.75859 3.25644
-5.51922 1.76039 3.24254
-5.51244 1.75396 3.21358
-5.54745 1.76195 3.21172
-5.53569 1.75348 3.18075
-5.55777 1.75734 3.16986
-5.57478 1.76132 3.16793
-5.57595 1.75798 3.14498
-5.59306 1.75978 3.13109
-5.61215 1.76261 3.11819
-5.61532 1.75928 3.09626
-5.62247 1.75799 3.07633
-5.65251 1.76492 3.07045
-5.63967 1.75862 3.05044
-5.66374 1.76249 3.04057
-5.68084 1.76429 3.02667
-5.67903 1.75994 3.00271
-5.69514 1.76173 2.98781
-5.71026 1.7635 2.97189
-5.72337 1.76427 2.95598
-5.72844 1.76414 2.94702
-5.74853 1.76698 2.93512
-5.75867 1.76671 2.9162
-5.76881 1.76645 2.89828
-5.77795 1.76617 2.87935
-5.7841 1.76388 2.85943
-5.8042 1.7677 2.84652
-5.80528 1.76654 2.83554
-5.82039 1.76733 2.82064
-5.83054 1.76706 2.80172
-5.8337 1.76473 2.77978
-5.85479 1.76857 2.76788
-5.85796 1.76625 2.74593
-5.88602 1.77213 2.73706
-5.87416 1.76586 2.71906
-5.89824 1.77071 2.70816
-5.89941 1.76839 2.6862
-5.91752 1.77018 2.67131
-5.92367 1.76889 2.65138
-5.951 1.77025 2.60755
-0.13365 1.71533 5.82699
-0.238693 1.71432 5.82179
-0.248653 1.7164 5.82684
-0.325681 1.7164 5.82342
-0.393663 1.71848 5.8259
-0.412724 1.71637 5.81807
-1.09711 1.72607 5.76908
-1.14419 1.72594 5.75843
-1.18225 1.72585 5.75072
-1.3264 1.72865 5.73076
-1.48766 1.72924 5.69696
-2.08378 1.73643 5.54933
-2.09889 1.73322 5.53449
-2.10988 1.73525 5.53654
-2.14402 1.733 5.51783
-2.15817 1.72871 5.49799
-2.18112 1.73282 5.50411
-2.19722 1.73064 5.49126
-2.21233 1.72844 5.4774
-2.22527 1.73155 5.48446
-2.23942 1.72728 5.46562
-2.25354 1.72506 5.44976
-2.27553 1.72709 5.4509
-2.29162 1.72594 5.44003
-2.30868 1.72581 5.43116
-2.32675 1.72469 5.42231
-2.33185 1.72151 5.4094
-2.34892 1.72139 5.40053
-2.3709 1.72443 5.40265
-2.38994 1.72537 5.39778
-2.41093 1.72739 5.3979
-2.42605 1.72517 5.38305
-2.44311 1.72507 5.37518
-2.45018 1.72294 5.36626
-2.46824 1.72284 5.3584
-2.48924 1.72484 5.35753
-2.50729 1.72576 5.35165
-2.52632 1.72671 5.34778
-2.54143 1.7245 5.33292
-2.56145 1.72547 5.33006
-2.56851 1.72436 5.32213
-2.58559 1.72422 5.31225
-2.6217 1.72403 5.29753
-2.64172 1.726 5.29465
-2.65683 1.7238 5.28079
-2.67979 1.72788 5.28491
-2.68489 1.72469 5.27199
-2.72099 1.72651 5.25823
-2.73805 1.7264 5.25036
-2.75711 1.72631 5.24351
-2.77417 1.72619 5.23464
-2.7942 1.72815 5.23076
-2.81013 1.73229 5.23982
-2.81833 1.72691 5.21395
-2.8423 1.73097 5.21708
-2.8574 1.72981 5.20521
-2.87842 1.73178 5.20233
-2.89943 1.73376 5.20046
-2.90647 1.73368 5.19452
-2.9275 1.73565 5.19165
-2.94358 1.7345 5.18078
-2.95968 1.73332 5.16792
-2.97674 1.7332 5.15905
-2.99775 1.7362 5.15816
-3.01385 1.73502 5.1453
-3.02781 1.7381 5.15036
-3.0429 1.73692 5.13749
-3.05998 1.73678 5.12762
-3.07705 1.73666 5.11875
-3.09708 1.7386 5.11387
-3.10824 1.73432 5.09401
-3.11939 1.73103 5.07414
-3.12348 1.72885 5.0622
-3.23085 1.73119 5.01297
-3.25892 1.73308 5.00415
-3.39861 1.73182 4.91321
-4.50665 1.74464 4.11226
-4.53685 1.74628 4.08646
-4.56407 1.74587 4.05767
-4.58016 1.7467 4.04577
-4.59635 1.74433 4.01993
-4.61046 1.74413 4.00603
-4.62655 1.74497 3.99414
-4.63966 1.74475 3.97924
-4.66688 1.74434 3.95045
-4.69102 1.74608 3.9316
-4.70711 1.74691 3.91971
-4.73333 1.74649 3.88991
-4.75141 1.74834 3.87902
-4.7685 1.74919 3.86813
-4.77764 1.74791 3.84922
-4.78966 1.74988 3.84628
-4.81171 1.75279 3.8394
-4.81688 1.74947 3.81748
-4.83893 1.75337 3.80959
-4.86198 1.75729 3.80371
-4.87608 1.7571 3.78981
-4.89218 1.75892 3.77691
-4.9042 1.76088 3.77397
-4.92526 1.76376 3.76508
-4.94136 1.76458 3.75219
-5.11781 1.76784 3.55944
-5.13193 1.76862 3.54454
-5.13809 1.76532 3.52363
-5.14524 1.76403 3.5037
-5.15337 1.76277 3.48578
-5.17146 1.7646 3.47389
-5.16658 1.76036 3.45791
-5.19164 1.76426 3.45004
-5.19382 1.76092 3.4271
-5.20494 1.76069 3.41119
-5.21507 1.75943 3.39328
-5.23018 1.76124 3.37936
-5.24031 1.75998 3.36146
-5.24537 1.75986 3.3535
-5.26247 1.76168 3.3406
-5.26862 1.75939 3.32067
-5.27676 1.75812 3.30175
-5.28988 1.7579 3.28685
-5.29802 1.75663 3.26793
-5.31014 1.7574 3.25201
-5.31421 1.75627 3.24305
-5.33728 1.76014 3.23317
-5.34343 1.75885 3.21323
-5.35754 1.75964 3.19832
-5.37165 1.76044 3.18441
-5.37482 1.7571 3.16148
-5.3949 1.75997 3.15159
-5.39897 1.75982 3.14162
-5.4091 1.75958 3.1247
-5.42023 1.75933 3.10779
-5.43135 1.75909 3.09087
-5.44646 1.76089 3.07696
-5.45858 1.76067 3.06105
-5.46871 1.76041 3.04313
-5.48074 1.76236 3.03919
-5.48989 1.76208 3.02026
-5.50797 1.76492 3.00835
-5.52409 1.76571 2.99346
-5.53521 1.76648 2.97753
-5.54932 1.76725 2.96162
-5.55647 1.76597 2.94269
-5.56651 1.76789 2.93674
-5.57764 1.76765 2.91982
-5.59175 1.76844 2.90492
-5.5979 1.76714 2.88498
-5.61102 1.76792 2.86906
-5.63509 1.77279 2.85917
-5.65328 1.77343 2.8343
-5.66241 1.77318 2.81737
-5.96434 1.76069 2.16374
1.70207 1.69065 5.51948
1.67719 1.6929 5.53563
1.64029 1.69412 5.5489
-2.13979 1.7365 5.28171
-2.16392 1.73428 5.26592
-2.22097 1.7382 5.25829
-2.23411 1.73395 5.24045
-2.25215 1.73488 5.23557
-2.26412 1.73694 5.23863
-2.27824 1.73371 5.22279
-2.29627 1.73566 5.21889
-2.30745 1.72933 5.19607
-2.32941 1.73342 5.20117
-2.35138 1.73748 5.20428
-2.3596 1.73007 5.17645
-2.37256 1.73314 5.1805
-2.39059 1.7341 5.17662
-2.40962 1.73505 5.17275
-2.41784 1.72764 5.14492
-2.44373 1.73485 5.15801
-2.45392 1.72951 5.13416
-2.47392 1.73151 5.13328
-2.48196 1.73144 5.12834
-2.50493 1.73551 5.13246
-2.51215 1.72809 5.10362
-2.53905 1.7353 5.11671
-2.54726 1.72791 5.08988
-2.57218 1.73406 5.09898
-2.58629 1.73186 5.08512
-2.60123 1.73599 5.09317
-2.60942 1.73063 5.06831
-2.63239 1.73469 5.07142
-2.64551 1.73148 5.05656
-2.6606 1.73031 5.04469
-2.67962 1.73228 5.04181
-2.69669 1.73216 5.03294
-2.70669 1.73315 5.032
-2.73361 1.74032 5.04209
-2.7418 1.73397 5.01825
-2.76575 1.73906 5.02335
-2.77986 1.73686 5.00949
-2.79987 1.73985 5.0076
-2.81003 1.73454 4.98675
-2.82695 1.74072 4.99779
-2.83317 1.73329 4.96894
-2.8591 1.73945 4.97804
-2.87123 1.7362 4.96118
-2.89421 1.74025 4.96329
-2.90239 1.7349 4.93943
-2.92537 1.73895 4.94155
-2.93143 1.73783 4.93361
-2.95342 1.74186 4.93471
-2.97345 1.74282 4.93085
-2.98657 1.74161 4.91596
-2.99771 1.73733 4.89711
-3.02563 1.7445 4.90721
-3.03775 1.74227 4.89134
-3.04085 1.73908 4.87841
-3.07596 1.74089 4.86364
-3.09106 1.7387 4.85078
-3.10812 1.7396 4.8429
-3.11926 1.73634 4.82503
-3.13336 1.73516 4.81215
-3.14337 1.73614 4.81021
-3.14956 1.73077 4.78533
-3.16464 1.72962 4.77446
-3.18566 1.7326 4.77258
-3.21485 1.73026 4.74783
-3.22994 1.73009 4.73594
-3.23797 1.73004 4.732
-3.25503 1.73093 4.72412
-3.27605 1.7339 4.72123
-3.30226 1.73049 4.69248
-3.32427 1.73349 4.6916
-3.3364 1.73125 4.67472
-3.35952 1.73103 4.6589
-3.37459 1.73089 4.64901
-3.39166 1.73177 4.64012
-3.73134 1.73568 4.41759
-3.84994 1.73859 4.33843
-3.85303 1.73641 4.32649
-3.86712 1.73624 4.31459
-3.94454 1.73747 4.25915
-3.96568 1.7372 4.24031
-3.98076 1.73705 4.22943
-3.99685 1.7379 4.21853
-4.02504 1.73754 4.19275
-4.04508 1.74048 4.18785
-4.04717 1.7383 4.1759
-4.06424 1.73916 4.16602
-4.08428 1.74209 4.16012
-4.09343 1.73882 4.14124
-4.13252 1.74465 4.12844
-4.12966 1.73938 4.1105
-4.14475 1.74022 4.0986
-4.15983 1.74006 4.08771
-4.17889 1.74296 4.07981
-4.19596 1.74384 4.07093
-4.21006 1.74364 4.05703
-4.22019 1.7424 4.04013
-4.24729 1.74522 4.02729
-4.26138 1.74506 4.01539
-4.28441 1.749 4.01051
-4.28859 1.74466 3.9876
-4.30764 1.74656 3.97971
-4.31579 1.74428 3.96081
-4.34169 1.75248 3.97288
-4.34289 1.74709 3.94697
-4.37088 1.75413 3.94807
-4.37009 1.74773 3.92116
-4.39312 1.75167 3.91627
-4.40424 1.75044 3.90037
-4.41735 1.75024 3.88647
-4.42846 1.74903 3.87157
-4.4365 1.74995 3.86562
-4.45557 1.75183 3.85673
-4.4786 1.75577 3.85185
-4.49171 1.75557 3.83795
-4.4929 1.7502 3.81303
-4.53183 1.76136 3.82216
-4.52308 1.75187 3.78923
-4.54105 1.75693 3.79229
-4.55614 1.75776 3.78039
-4.55634 1.75238 3.75447
-4.5764 1.75527 3.74658
-4.6044 1.76128 3.7457
-4.62148 1.76313 3.7348
-4.62168 1.75774 3.70888
-4.64085 1.75743 3.68702
-4.65991 1.76032 3.67912
-4.67997 1.76321 3.67023
-4.69109 1.76198 3.65433
-4.70618 1.76281 3.64243
-4.93227 1.76086 3.36612
-4.94935 1.76271 3.35522
-4.97964 1.76315 3.31644
-5.00387 1.76272 3.28662
-5.014 1.76248 3.2697
-5.0412 1.76409 3.24188
-5.04427 1.76295 3.23292
-5.07647 1.76659 3.2071
-5.0846 1.76433 3.1892
-5.11181 1.76694 3.16136
-5.11199 1.7626 3.13842
-5.12202 1.76353 3.13348
-5.13315 1.76329 3.11657
-5.15521 1.76817 3.10766
-5.15638 1.76384 3.08573
-5.17148 1.76566 3.07281
-5.1836 1.76543 3.05691
-5.20168 1.76828 3.046
-5.20276 1.76712 3.03502
-5.20692 1.76381 3.0141
-5.22003 1.76462 3.00019
-5.23811 1.76747 2.98928
-5.24525 1.76619 2.97035
-5.25439 1.76593 2.95242
-5.27148 1.76777 2.94052
-5.28965 1.76844 2.91764
-5.2948 1.76615 2.89771
-5.30493 1.7659 2.88079
-5.31803 1.7677 2.86686
-5.33114 1.76849 2.85194
-5.34226 1.76826 2.83603
-5.34434 1.76712 2.82606
-5.35447 1.76687 2.80914
-5.35763 1.76456 2.78819
-5.37671 1.76741 2.77729
-5.37787 1.76409 2.75535
-5.39397 1.76691 2.74243
-5.41215 1.76757 2.71855
-5.42825 1.76938 2.70564
-5.70786 1.75651 2.09486
-5.71001 1.75422 2.0749
-5.73509 1.76007 2.064
-5.73325 1.75676 2.04304
-5.74645 1.75637 2.01614
-5.76056 1.75916 2.0012
-5.7697 1.7589 1.98327
-5.76587 1.75557 1.96129
-5.78712 1.75708 1.92742
-0.376802 1.71729 5.40873
-2.24257 1.73808 5.04643
-2.29273 1.73779 5.02481
-2.30978 1.7377 5.01794
-2.34192 1.73545 5.00021
-2.35289 1.73851 5.00325
-2.36995 1.7384 4.99538
-2.38208 1.73517 4.97951
-2.40012 1.7351 4.97365
-2.42208 1.74019 4.97874
-2.43716 1.73804 4.96789
-2.45028 1.73582 4.95301
-2.47634 1.73671 4.9442
-2.49439 1.73763 4.93832
-2.53044 1.74055 4.93155
-2.56766 1.73715 4.90287
-2.58864 1.7402 4.90499
-2.6057 1.74009 4.89711
-2.61881 1.73788 4.88224
-2.63389 1.73674 4.87237
-2.65389 1.73976 4.87248
-2.66701 1.73753 4.85661
-2.71111 1.73935 4.84291
-2.73014 1.74131 4.83903
-2.74621 1.74119 4.83015
-2.75634 1.73793 4.81227
-2.77833 1.74096 4.81339
-2.78932 1.744 4.81543
-2.80637 1.7439 4.80856
-2.81949 1.74168 4.79269
-2.94689 1.74597 4.73958
-3.03426 1.74629 4.69022
-3.08148 1.7459 4.66158
-3.10163 1.74362 4.64176
-3.12067 1.74556 4.63688
-3.13574 1.74542 4.62699
-3.15577 1.74737 4.62311
-3.16689 1.74515 4.60723
-3.18394 1.74605 4.60034
-3.202 1.74696 4.59346
-3.20311 1.74374 4.57852
-3.21917 1.74364 4.57064
-3.24216 1.74867 4.57174
-3.24835 1.7423 4.54688
-3.26639 1.74424 4.54198
-3.28739 1.74824 4.54108
-3.2926 1.74185 4.51421
-3.30656 1.74493 4.51927
-3.32065 1.74476 4.50738
-3.33573 1.74461 4.49649
-3.34487 1.74135 4.47861
-3.36886 1.74538 4.47973
-3.38492 1.74626 4.47083
-3.40099 1.74714 4.46194
-3.40408 1.74396 4.45001
-3.42311 1.74692 4.44611
-3.44215 1.74784 4.44024
-3.44437 1.74143 4.41235
-3.46242 1.74334 4.40545
-3.48739 1.7484 4.40857
-3.49752 1.74616 4.39167
-3.50853 1.74715 4.39074
-3.52559 1.74904 4.38284
-3.53967 1.74889 4.37195
-3.54783 1.74459 4.35107
-3.55698 1.74131 4.33218
-3.58987 1.75153 4.34528
-3.60099 1.7493 4.3294
-3.60704 1.7482 4.32246
-3.6241 1.75009 4.31456
-3.63819 1.74993 4.30267
-3.65624 1.75084 4.29579
-3.66637 1.74859 4.27889
-3.6765 1.74635 4.262
-3.70545 1.75347 4.26911
-3.71965 1.75008 4.24227
-3.73672 1.75096 4.23338
-3.75179 1.75182 4.22348
-3.76985 1.75272 4.2156
-3.78394 1.75255 4.20371
-3.79495 1.75454 4.20276
-3.80606 1.75333 4.18786
-3.83523 1.75401 4.16507
-3.88246 1.75559 4.1344
-3.88852 1.75447 4.12646
-3.9298 1.75395 4.08977
-3.99122 1.75317 4.03424
-4.17936 1.75804 3.88256
-5.66289 1.75553 1.69248
-5.6691 1.75412 1.66454
-5.68022 1.75489 1.64861
-5.69249 1.75436 1.61271
-5.69977 1.7528 1.57478
0.0365989 1.70588 5.19576
0.0195372 1.70277 5.18793
0.00256848 1.70385 5.19204
-0.0145314 1.69967 5.17923
-0.0323609 1.707 5.20126
-0.0405464 1.69866 5.17744
-0.0583444 1.70805 5.20344
-0.0754368 1.70389 5.19163
-0.0924207 1.70493 5.19374
-0.109482 1.70182 5.18591
-0.127427 1.70494 5.19301
-0.144489 1.70184 5.18518
-0.153388 1.70703 5.19817
-0.17038 1.70706 5.1993
-0.187503 1.70184 5.1835
-0.205394 1.70706 5.19756
-0.22247 1.70392 5.18774
-0.238547 1.70079 5.1779
-0.256469 1.70495 5.18798
-0.265438 1.70601 5.19203
-0.281607 1.6987 5.17026
-0.300382 1.70914 5.19925
-0.316536 1.70286 5.17946
-0.333543 1.70285 5.17859
-0.351511 1.70493 5.18269
-0.368549 1.70386 5.17783
-0.37658 1.70181 5.17393
-0.393634 1.69972 5.16708
-0.411555 1.70388 5.17716
-0.427686 1.69864 5.16036
-0.446507 1.707 5.18338
-0.463591 1.70385 5.17255
-0.480614 1.70381 5.16968
-0.488652 1.70175 5.16477
-0.506574 1.70591 5.17484
-0.523588 1.70589 5.17297
-0.540626 1.70483 5.16812
-0.558556 1.70897 5.17719
-0.576555 1.70899 5.17733
-0.594523 1.71106 5.18143
-0.600708 1.70371 5.15758
-0.618622 1.70788 5.16866
-0.63659 1.70996 5.17276
-0.655535 1.71307 5.17986
-0.67065 1.70886 5.16504
-0.687681 1.70782 5.16118
-0.707556 1.71407 5.17724
-0.71371 1.70777 5.15737
-0.731686 1.70983 5.16048
-0.747716 1.70878 5.15662
-0.764777 1.70668 5.14877
-0.781807 1.70663 5.1449
-0.800712 1.71182 5.15697
-0.814866 1.70554 5.13717
-0.827688 1.71389 5.16014
-0.845664 1.71594 5.16325
-0.860771 1.71175 5.14942
-0.878762 1.71378 5.15053
-0.8958 1.71271 5.14567
-0.911845 1.71164 5.13981
-0.927929 1.70849 5.12897
-0.938812 1.71472 5.14397
-0.95392 1.71052 5.13014
-0.972872 1.71362 5.13624
-0.987979 1.71043 5.1224
-1.00502 1.70936 5.11754
-1.02302 1.71038 5.11766
-1.03294 1.71453 5.12768
-1.04708 1.70926 5.10886
-1.06699 1.71445 5.12093
-1.08693 1.71859 5.12902
-1.10009 1.71229 5.10821
-1.11809 1.7133 5.10833
-1.13607 1.71534 5.11044
-1.14217 1.71115 5.09754
-1.15822 1.71006 5.09068
-1.18008 1.71834 5.10873
-1.19517 1.71519 5.09788
-1.21511 1.71931 5.10497
-1.23021 1.71613 5.09213
-1.24721 1.71714 5.09225
-1.26232 1.71394 5.07841
-1.2713 1.71498 5.08046
-1.29029 1.71701 5.08157
-1.30441 1.7128 5.06674
-1.32336 1.71589 5.07184
-1.33943 1.71478 5.06397
-1.35839 1.71787 5.06907
-1.37249 1.71467 5.05522
-1.38151 1.71465 5.05329
-1.40144 1.71979 5.06237
-1.4175 1.71767 5.05352
-1.4326 1.71551 5.04166
-1.45447 1.72276 5.05772
-1.47246 1.72479 5.05883
-1.47662 1.71748 5.03796
-1.49364 1.71845 5.03508
-1.51068 1.71838 5.0302
-1.52866 1.72144 5.0333
-1.54474 1.71929 5.02245
-1.56272 1.72133 5.02455
-1.57781 1.71917 5.0127
-1.58779 1.72122 5.01574
-1.60384 1.72013 5.00888
-1.62184 1.72214 5.00898
-1.64083 1.72417 5.0101
-1.65982 1.7262 5.01121
-1.67783 1.72719 5.01033
-1.69095 1.72397 4.99447
-1.70385 1.72917 5.0075
-1.72186 1.73115 5.0056
-1.73695 1.729 4.99475
-1.77199 1.73094 4.98898
-1.81408 1.73079 4.9773
-1.83209 1.73279 4.97641
-1.84521 1.72856 4.96056
-1.85931 1.72638 4.9477
-1.87634 1.72632 4.94283
-1.89826 1.73248 4.95291
-1.90845 1.72613 4.92907
-1.91549 1.72505 4.92314
-1.93841 1.73123 4.93422
-1.94465 1.72076 4.90242
-1.96561 1.72586 4.9085
-1.98068 1.72473 4.89863
-1.99576 1.72259 4.88878
-2.01083 1.72145 4.87891
-2.02278 1.72455 4.88495
-2.03686 1.72341 4.87507
-2.05391 1.72332 4.8682
-2.07584 1.72947 4.87728
-2.08405 1.72108 4.85046
-2.09617 1.71785 4.8346
-2.11714 1.72192 4.83869
-2.11927 1.71667 4.82179
-2.13924 1.71973 4.82489
-2.16119 1.72485 4.83198
-2.18739 1.71947 4.80526
-2.20837 1.72353 4.80835
-2.21951 1.71926 4.7895
-2.22753 1.71923 4.78756
-2.24654 1.72122 4.78567
-2.26159 1.72112 4.77879
-2.2937 1.72093 4.76403
-2.33384 1.72069 4.74633
-2.3499 1.72058 4.73845
-2.38494 1.72352 4.73267
-2.39706 1.72029 4.71681
-2.43211 1.72321 4.71003
-2.4372 1.72105 4.6991
-2.4693 1.72187 4.68533
-2.51844 1.72262 4.66668
-2.53253 1.72147 4.65581
-2.54056 1.72142 4.65187
-2.55956 1.72442 4.65097
-2.60673 1.72411 4.62832
-2.62082 1.72294 4.61644
-2.64785 1.7259 4.6126
-2.67602 1.7236 4.59085
-2.6911 1.72345 4.57996
-2.7101 1.72544 4.57907
-2.72123 1.72322 4.56319
-2.74122 1.72623 4.56329
-2.75025 1.72619 4.56036
-2.78235 1.72801 4.54658
-2.79742 1.72789 4.53769
-2.81248 1.72776 4.5288
-2.82558 1.7256 4.51693
-2.84558 1.7296 4.51602
-2.85263 1.72851 4.51009
-2.86671 1.72736 4.49921
-2.88573 1.73033 4.49631
-2.90771 1.73437 4.49842
-2.93488 1.73205 4.47566
-2.95785 1.73713 4.47975
-2.95304 1.72977 4.45582
-2.98292 1.739 4.46991
-2.99108 1.73471 4.45004
-3.00319 1.7325 4.43516
-3.02517 1.73654 4.43726
-3.04321 1.73848 4.43237
-3.04642 1.73108 4.4055
-3.06433 1.73826 4.41653
-3.0794 1.73812 4.40664
-3.09446 1.73801 4.39876
-3.1046 1.73475 4.38088
-3.12659 1.73978 4.38197
-3.13967 1.73863 4.37109
-3.15672 1.73954 4.3642
-3.1608 1.73739 4.35426
-3.16994 1.73414 4.33638
-3.18699 1.73504 4.32949
-3.20205 1.73594 4.32159
-3.21515 1.73474 4.3077
-3.23219 1.73668 4.3028
-3.25023 1.7386 4.29691
-3.25431 1.73646 4.28697
-3.26839 1.73632 4.27708
-3.28939 1.73932 4.27619
-3.2916 1.73292 4.2493
-3.30866 1.73381 4.24141
-3.32372 1.73369 4.23253
-3.33175 1.73464 4.22857
-3.3488 1.73555 4.22169
-3.35991 1.73435 4.20779
-3.37399 1.73421 4.19789
-3.395 1.7382 4.19599
-3.40513 1.73495 4.17911
-3.42515 1.73792 4.17622
-3.43615 1.74093 4.17626
-3.44924 1.73976 4.16437
-3.46233 1.73958 4.15147
-3.4774 1.73946 4.14259
-3.48455 1.73617 4.12269
-3.49467 1.73395 4.10779
-3.51667 1.73795 4.1069
-3.5247 1.7389 4.10295
-3.53879 1.73873 4.09105
-3.55187 1.73858 4.08015
-3.56199 1.73636 4.06526
-3.57706 1.73623 4.05537
-3.59115 1.73606 4.04348
-3.60226 1.73486 4.02958
-3.61733 1.73572 4.01968
-3.62734 1.73771 4.01872
-3.64143 1.73755 4.00683
-3.65947 1.73947 4.00094
-3.68049 1.74344 3.99804
-3.68862 1.7402 3.98115
-3.70766 1.74312 3.97524
-3.71878 1.74191 3.96034
-3.71789 1.7377 3.9464
-3.74485 1.74478 3.9505
-3.74803 1.73942 3.9266
-3.77005 1.74341 3.9247
-3.78809 1.74633 3.91879
-3.79226 1.74101 3.8969
-3.80733 1.74188 3.887
-3.81834 1.74387 3.88605
-3.8354 1.74576 3.87815
-3.84651 1.74455 3.86325
-3.86158 1.74543 3.85435
-3.87666 1.74627 3.84345
-3.89173 1.74714 3.83355
-3.90978 1.75006 3.82764
-3.91187 1.74688 3.8157
-3.92 1.74464 3.7988
-3.94003 1.74858 3.79389
-3.9571 1.74946 3.785
-3.9682 1.74926 3.77109
-3.98526 1.75115 3.76319
-4.00133 1.75303 3.75428
-4.00143 1.74884 3.74134
-4.03058 1.75055 3.72053
-4.04169 1.75035 3.70662
-4.06768 1.75637 3.70672
-4.08187 1.75302 3.68288
-4.10092 1.75693 3.67596
-4.11916 1.75247 3.64416
-4.13821 1.75638 3.63724
-4.15328 1.75725 3.62734
-4.15348 1.75088 3.60244
-4.15654 1.74974 3.59348
-4.18652 1.75781 3.59658
-4.19861 1.75763 3.58367
-4.20873 1.7564 3.56777
-4.22382 1.75725 3.55687
-4.22995 1.75498 3.53894
-4.24702 1.75686 3.53004
-4.26209 1.75772 3.52014
-4.25722 1.75247 3.50318
-4.28639 1.75517 3.48136
-4.28856 1.74984 3.45945
-4.31555 1.75686 3.45955
-4.31573 1.75151 3.43563
-4.32784 1.75131 3.42172
-4.33687 1.75325 3.41776
-4.35294 1.75412 3.40786
-4.35809 1.75184 3.38893
-4.37317 1.75269 3.37803
-4.3803 1.75044 3.36112
-4.38843 1.7492 3.3442
-4.40549 1.75208 3.33528
-4.4026 1.74787 3.32132
-4.4157 1.74768 3.30842
-4.43177 1.74955 3.29851
-4.44685 1.75139 3.2876
-4.46093 1.75224 3.27669
-4.47105 1.75201 3.26077
-4.47619 1.74875 3.24285
-4.48324 1.74967 3.23689
-4.49336 1.74844 3.22098
-4.50446 1.74824 3.20707
-4.51457 1.74804 3.19314
-4.53065 1.74989 3.18223
-4.53679 1.74762 3.16431
-4.55684 1.75153 3.1574
-4.55593 1.74936 3.14543
-4.56802 1.74917 3.13252
-4.58211 1.75001 3.12061
-4.59621 1.75182 3.10769
-4.60532 1.75061 3.09277
-4.6224 1.75347 3.08286
-4.63749 1.7543 3.07096
-4.64552 1.75624 3.06599
-4.65166 1.75397 3.04807
-4.66078 1.75274 3.03215
-4.67288 1.75356 3.01923
-4.69691 1.7595 3.01432
-4.69609 1.75416 2.99139
-4.71018 1.755 2.97948
-4.71822 1.75691 2.97352
-4.72833 1.7567 2.95859
-4.73347 1.75443 2.94066
-4.74757 1.75525 2.92775
-4.76563 1.75813 2.91885
-4.77674 1.75893 2.90492
-4.79282 1.76078 2.89401
-4.807 1.76044 2.87012
-4.82308 1.76228 2.85921
-4.8463 1.76287 2.83037
-4.85541 1.76266 2.81544
-5.37968 1.7577 1.85133
-5.37976 1.75556 1.84136
-5.39187 1.75734 1.82643
-5.39301 1.75506 1.80747
-5.39615 1.7538 1.78951
-5.40328 1.75355 1.77256
-5.40043 1.75025 1.75258
-5.41254 1.75204 1.73765
-5.42458 1.75496 1.73169
-5.43071 1.75471 1.71474
-5.43484 1.75346 1.69779
-5.44496 1.75523 1.68184
-5.45109 1.75499 1.66488
-5.45238 1.75042 1.62696
5.46732 1.63492 0.360225
5.46445 1.63518 0.377245
5.47059 1.63744 0.395168
5.4587 1.63468 0.411301
5.46384 1.63795 0.429216
5.46198 1.63821 0.447229
5.4593 1.63985 0.49023
1.28831 1.69551 5.02045
1.24045 1.69783 5.03978
1.13165 1.69929 5.06659
1.09669 1.69839 5.07186
1.06375 1.69953 5.0801
1.05578 1.69958 5.08315
0.987876 1.69983 5.09666
0.953922 1.69994 5.10292
0.895007 1.70115 5.11435
0.878046 1.70223 5.11946
0.859992 1.69814 5.11266
0.852077 1.70231 5.12365
0.818116 1.70241 5.12891
0.800077 1.69935 5.12409
0.766123 1.70046 5.13033
0.749131 1.69949 5.13147
0.723154 1.69955 5.13467
0.707224 1.7027 5.14374
0.673232 1.70074 5.14503
0.655216 1.69972 5.14318
0.638278 1.70185 5.15128
0.630309 1.70292 5.15532
0.611178 1.69668 5.13856
0.597387 1.70509 5.16554
0.578248 1.69884 5.14777
0.561341 1.70202 5.15985
0.545395 1.70414 5.16694
0.527334 1.70103 5.15912
0.518326 1.70003 5.15821
0.501318 1.69902 5.15735
0.483334 1.69907 5.15949
0.467474 1.70534 5.17752
0.450458 1.70433 5.17566
0.433436 1.7033 5.1728
0.416474 1.70438 5.17791
0.407466 1.70337 5.177
0.389405 1.70027 5.16918
0.373514 1.70549 5.18322
0.355537 1.70554 5.18636
0.338445 1.70138 5.17455
0.320406 1.69932 5.16971
0.304546 1.7056 5.18774
0.294415 1.69935 5.17091
0.277453 1.70044 5.17602
0.260547 1.70463 5.18809
0.243531 1.70361 5.18623
0.226555 1.70467 5.18934
0.209586 1.70574 5.19345
0.191548 1.70368 5.18862
0.18361 1.7068 5.19663
0.166588 1.70577 5.19378
0.148518 1.70165 5.18497
0.131418 1.69747 5.17216
0.114597 1.70582 5.19517
0.0964654 1.69959 5.1784
0.0794966 1.70066 5.18251
0.0715514 1.70377 5.18952
0.0535827 1.70484 5.19364
0.0233217 1.69639 5.02697
0.0153062 1.69536 5.02505
-0.00170896 1.69435 5.02319
-0.0187235 1.69433 5.02132
-0.0346842 1.69642 5.02641
-0.0517226 1.69435 5.02157
-0.0686832 1.69644 5.02667
-0.143743 1.69438 5.01926
-0.19371 1.69647 5.02361
-0.202709 1.69648 5.02367
-0.235709 1.6965 5.02392
-0.252716 1.6965 5.02305
-0.269738 1.69647 5.02018
-0.302752 1.69646 5.01843
-0.311728 1.69751 5.02148
-0.327766 1.69645 5.01662
-0.503828 1.69845 5.00891
-0.520765 1.70158 5.01699
-0.545803 1.70052 5.0122
-0.578824 1.7005 5.00945
-0.62986 1.70146 5.00482
-0.721886 1.70447 5.00146
-0.73087 1.70551 5.00352
-0.745961 1.70234 4.99168
-0.797928 1.70544 4.99602
-0.829996 1.70433 4.98728
-0.838064 1.7022 4.97837
-0.855025 1.70429 4.98347
-0.871078 1.70319 4.9766
-0.889054 1.70525 4.97971
-0.955127 1.70515 4.97021
-0.96411 1.70719 4.97224
-1.01512 1.7092 4.9706
-1.03024 1.70498 4.95577
-1.04624 1.70598 4.95488
-1.06423 1.70802 4.95698
-1.13835 1.70784 4.94154
-1.1804 1.70875 4.93385
-1.19643 1.70871 4.92997
-1.21246 1.70866 4.92609
-1.22852 1.70657 4.91924
-1.26738 1.71585 4.9364
-1.27055 1.70852 4.91453
-1.33666 1.70935 4.90001
-1.35269 1.7093 4.89613
-1.37871 1.71028 4.89331
-1.41078 1.71017 4.88455
-1.42975 1.71324 4.88865
-1.44482 1.7121 4.87878
-1.45987 1.71102 4.87291
-1.47594 1.7099 4.86405
-1.4859 1.71198 4.86909
-1.50193 1.71194 4.86521
-1.51798 1.71184 4.85833
-1.53499 1.71284 4.85745
-1.55202 1.71279 4.85357
-1.56804 1.71376 4.85068
-1.58409 1.71267 4.84382
-1.59112 1.71262 4.83987
-1.61106 1.71673 4.84696
-1.62516 1.71457 4.8351
-1.64121 1.71347 4.82823
-1.66016 1.71758 4.83432
-1.67817 1.71856 4.83244
-1.68933 1.71327 4.8126
-1.70223 1.71846 4.82462
-1.7124 1.71214 4.80279
-1.73529 1.72036 4.81684
-1.75231 1.72135 4.81495
-1.76348 1.71503 4.79313
-1.78635 1.72328 4.80918
-1.80533 1.72533 4.81129
-1.81041 1.72318 4.80136
-1.8245 1.72101 4.7895
-1.84544 1.72513 4.79659
-1.85854 1.72295 4.78372
-1.87753 1.72498 4.78484
-1.89259 1.72487 4.77695
-1.91255 1.72896 4.78204
-1.91666 1.72475 4.76813
-1.93564 1.72781 4.77123
-1.94775 1.7246 4.75637
-1.96576 1.7266 4.75547
-1.98378 1.72757 4.75259
-1.99785 1.72643 4.74272
-2.01193 1.72429 4.73285
-2.02191 1.72633 4.7349
-2.03796 1.72625 4.72902
-2.04713 1.71992 4.70618
-2.06415 1.72189 4.70328
-2.07922 1.72078 4.69541
-2.09724 1.72175 4.69253
-2.11425 1.72373 4.69063
-2.1213 1.72263 4.68369
-2.13832 1.7236 4.68081
-2.15436 1.72454 4.67591
-2.16451 1.71926 4.65707
-2.18154 1.7202 4.65218
-2.20152 1.72426 4.65527
-2.21265 1.72002 4.63841
-2.22657 1.72517 4.64844
-2.24261 1.72611 4.64355
-2.25767 1.72499 4.63468
-2.27174 1.72487 4.62579
-2.28484 1.72268 4.61292
-2.30481 1.72674 4.61601
-2.31694 1.72251 4.60016
-2.32397 1.72245 4.59521
-2.34198 1.72444 4.59432
-2.3531 1.72121 4.57845
-2.37309 1.72424 4.57955
-2.39307 1.7283 4.58264
-2.40222 1.72401 4.56277
-2.41334 1.71978 4.54692
-2.4253 1.72387 4.55195
-2.44038 1.72273 4.54208
-2.47443 1.72565 4.53529
-2.48259 1.72035 4.51443
-2.50159 1.72335 4.51353
-2.52368 1.72318 4.50169
-2.53678 1.721 4.48882
-2.57183 1.72492 4.48203
-2.60097 1.72368 4.46426
-2.64207 1.7265 4.45053
-2.68331 1.72306 4.41889
-2.70231 1.72607 4.41898
-2.71947 1.72277 4.39816
-2.73849 1.72574 4.39526
-2.75256 1.7246 4.38538
-2.77157 1.7276 4.38448
-2.78565 1.72646 4.3746
-2.8007 1.72737 4.3677
-2.81576 1.72725 4.35881
-2.82872 1.73133 4.36385
-2.84281 1.73018 4.35297
-2.86378 1.73524 4.35606
-2.87885 1.73512 4.34717
-2.88502 1.72979 4.32529
-2.91391 1.73901 4.33838
-2.92799 1.73887 4.32848
-2.93108 1.73469 4.31657
-2.95009 1.73868 4.31465
-2.96812 1.74063 4.31076
-2.97726 1.73637 4.29289
-2.99429 1.73833 4.28898
-3.01232 1.74026 4.28409
-3.03244 1.74004 4.26824
-3.06554 1.74187 4.25546
-3.09171 1.74055 4.23268
-3.10579 1.74041 4.22278
-3.11381 1.74138 4.21983
-3.12393 1.73815 4.20395
-3.13504 1.73593 4.18907
-3.15506 1.73892 4.18717
-3.17012 1.73981 4.17927
-3.18023 1.7376 4.16438
-3.19233 1.73641 4.15149
-3.20233 1.7384 4.15053
-3.21345 1.73619 4.13565
-3.23048 1.73813 4.13074
-3.2416 1.73591 4.11586
-3.2616 1.73991 4.11495
-3.27568 1.73976 4.10406
-3.28481 1.73653 4.08817
-3.30185 1.73845 4.08227
-3.30593 1.73631 4.07233
-3.31306 1.73305 4.05443
-3.33506 1.73706 4.05454
-3.34616 1.73588 4.04164
-3.35529 1.73264 4.02475
-3.37233 1.73456 4.01885
-3.38245 1.73234 4.00396
-3.39444 1.73535 4.004
-3.40851 1.73623 3.9951
-3.41566 1.73194 3.97521
-3.43765 1.73697 3.9763
-3.44777 1.73475 3.96141
-3.45887 1.73356 3.94751
-3.47493 1.73445 3.93961
-3.48989 1.73853 3.94467
-3.50297 1.73838 3.93377
-3.51705 1.73924 3.92386
-3.52717 1.73701 3.90797
-3.53628 1.7348 3.89306
-3.55136 1.73566 3.88316
-3.56543 1.73652 3.87326
-3.56949 1.73441 3.86532
-3.58754 1.73733 3.85941
-3.60459 1.73924 3.85251
-3.62064 1.74115 3.8456
-3.62679 1.73686 3.82571
-3.64681 1.74083 3.8228
-3.65593 1.7386 3.8069
-3.65802 1.73543 3.79596
-3.67804 1.7394 3.79305
-3.69113 1.73924 3.78115
-3.7052 1.7401 3.77124
-3.72225 1.74201 3.76434
-3.74029 1.74493 3.75843
-3.73841 1.73971 3.74349
-3.75447 1.7416 3.73559
-3.7735 1.74554 3.73067
-3.78362 1.74333 3.71578
-3.80265 1.74626 3.71088
-3.8207 1.74917 3.70397
-3.81891 1.74177 3.67706
-3.84182 1.74997 3.68911
-3.87096 1.75169 3.66931
-3.91221 1.75323 3.63659
-3.9124 1.74686 3.61168
-3.93442 1.75183 3.60877
-3.93352 1.74864 3.59581
-3.98072 1.75328 3.56909
-3.9948 1.75312 3.5582
-4.02296 1.75483 3.53739
-4.02901 1.75473 3.53043
-4.04209 1.75558 3.51952
-4.05022 1.75333 3.50261
-4.06629 1.75521 3.4937
-4.06646 1.74987 3.47078
-4.10158 1.75466 3.45497
-4.10862 1.75559 3.45001
-4.11773 1.75338 3.43511
-4.12586 1.75113 3.4182
-4.13994 1.75298 3.40728
-4.14707 1.75073 3.39036
-4.16413 1.75263 3.38246
-4.17423 1.75243 3.36854
-4.1773 1.75029 3.35959
-4.18742 1.75008 3.34467
-4.19653 1.74886 3.32975
-4.20763 1.74867 3.31584
-4.22469 1.75056 3.30794
-4.23778 1.75139 3.29602
-4.2469 1.75018 3.28111
-4.24301 1.74595 3.26614
-4.26405 1.74989 3.26124
-4.26819 1.74661 3.24231
-4.28526 1.74849 3.23341
-4.28742 1.74518 3.21248
-4.30547 1.74809 3.20557
-4.32353 1.75099 3.19766
-4.31765 1.74575 3.18169
-4.32975 1.74656 3.16877
-4.34383 1.74741 3.15786
-4.35792 1.74824 3.14595
-4.37001 1.74907 3.13403
-4.37614 1.74681 3.11611
-4.40215 1.7528 3.11421
-4.40323 1.75065 3.10425
-4.40937 1.74839 3.08633
-4.41251 1.74511 3.0674
-4.43058 1.74799 3.05849
-4.43671 1.74574 3.04157
-4.46073 1.7517 3.03766
-4.4599 1.74738 3.01572
-4.47191 1.74936 3.01378
-4.47606 1.74708 2.99484
-4.48915 1.74791 2.98292
-4.50125 1.74873 2.97
-4.51234 1.74854 2.95709
-4.51848 1.74628 2.93916
-4.54051 1.75222 2.93424
-4.53463 1.74699 2.91927
-4.55469 1.75089 2.91136
-4.56181 1.74966 2.89543
-4.57788 1.75152 2.88553
-4.58401 1.75027 2.86859
-4.60108 1.75214 2.85869
-4.6102 1.75192 2.84376
-4.62022 1.75387 2.8398
-4.62735 1.75262 2.82287
-4.64641 1.75652 2.81496
-4.65453 1.75529 2.79904
-4.67657 1.76122 2.79311
-4.68469 1.75998 2.77719
-4.69481 1.75977 2.76227
-4.69886 1.75967 2.7553
-4.72505 1.7613 2.72947
-4.7393 1.75982 2.69659
-5.25756 1.7559 1.73442
-5.26269 1.75465 1.71748
-5.26482 1.75338 1.69951
-5.27693 1.75519 1.68557
-5.28519 1.75367 1.65065
-5.28135 1.74936 1.62968
-5.29545 1.75218 1.61675
-5.29766 1.74876 1.58881
-5.30179 1.74852 1.57184
-5.3109 1.7493 1.5569
-5.31204 1.74702 1.53794
-5.32316 1.74881 1.52299
-5.33747 1.74819 1.4811
1.60552 1.69279 4.78207
1.55455 1.68888 4.78651
1.52674 1.69426 4.81065
1.51671 1.69222 4.80775
1.50074 1.69228 4.81087
1.48682 1.69445 4.82195
1.46777 1.69038 4.81615
1.45183 1.69251 4.82424
1.43793 1.69469 4.83631
1.42093 1.69372 4.83746
1.41192 1.6927 4.83554
1.38101 1.6939 4.84776
1.36403 1.69295 4.8509
1.34703 1.69197 4.85104
1.33108 1.69307 4.85715
1.31305 1.69004 4.85433
1.29402 1.68698 4.84951
1.29322 1.69638 4.87639
1.27417 1.69229 4.86959
1.25926 1.69546 4.88066
1.2402 1.69137 4.87386
1.22318 1.68935 4.87202
1.20826 1.69151 4.8821
1.1923 1.6916 4.88722
1.18328 1.69057 4.8853
1.16632 1.69065 4.88943
1.15137 1.69176 4.89652
1.13335 1.69074 4.89468
1.11944 1.69292 4.90575
1.10454 1.69612 4.91882
1.09653 1.69611 4.91788
1.07955 1.69515 4.92002
1.06152 1.69312 4.91718
1.04661 1.6963 4.92825
1.03063 1.69635 4.93137
1.01262 1.69434 4.92954
0.994576 1.69127 4.92472
0.986577 1.69128 4.92478
0.973731 1.69659 4.9448
0.954677 1.6935 4.93799
0.9387 1.69355 4.94111
0.921723 1.69361 4.94423
0.904715 1.69261 4.94338
0.888761 1.69371 4.94948
0.878691 1.68958 4.94062
0.862723 1.69065 4.94472
0.84887 1.69694 4.96374
0.827676 1.68659 4.93905
0.814838 1.69291 4.96005
0.797846 1.69294 4.96118
0.779792 1.68985 4.95436
0.771831 1.69093 4.95941
0.756932 1.69513 4.97246
0.738831 1.68995 4.95967
0.723939 1.69317 4.97373
0.710125 1.70153 4.99772
0.693133 1.70156 4.99885
0.677202 1.7037 5.00794
0.666025 1.69537 4.98514
0.647939 1.69022 4.97435
0.631994 1.69234 4.98144
0.616064 1.69548 4.99052
0.599079 1.69552 4.99264
0.582009 1.6914 4.98383
0.563948 1.6883 4.97601
0.557025 1.69145 4.98602
0.540056 1.69252 4.99013
0.524095 1.69361 4.99524
0.507064 1.69156 4.99139
0.490057 1.69056 4.99054
0.473072 1.6906 4.99267
0.45708 1.69063 4.99379
0.449143 1.69375 5.0018
0.432127 1.69274 4.99994
0.416181 1.69385 5.00705
0.400244 1.69698 5.01512
0.382166 1.69285 5.00532
0.365136 1.6908 5.00148
0.349167 1.69287 5.00557
0.341206 1.69395 5.01061
0.324167 1.69189 5.00577
0.307145 1.69086 5.00291
0.291237 1.69405 5.01499
0.274215 1.69301 5.01213
0.257192 1.69198 5.00927
0.240216 1.69304 5.01239
0.232262 1.69413 5.01843
0.215162 1.68995 5.00562
0.182201 1.69105 5.01085
0.165202 1.69106 5.01098
0.148233 1.69313 5.01508
0.13228 1.69424 5.02118
0.12328 1.69424 5.02125
0.107242 1.69318 5.01639
0.0902426 1.69319 5.01651
0.0562354 1.6922 5.01579
0.0313244 1.70241 4.89381
0.0152552 1.69929 4.88497
-0.00170542 1.70138 4.89007
-0.0177207 1.70036 4.8882
-0.0336581 1.70349 4.89628
-0.0497041 1.70141 4.89043
-0.0586341 1.70455 4.89945
-0.0747266 1.70039 4.88763
-0.0907807 1.69729 4.8808
-0.106756 1.69935 4.88389
-0.123717 1.70144 4.88899
-0.139709 1.70146 4.89011
-0.155709 1.70147 4.89023
-0.163755 1.69939 4.88432
-0.179793 1.69833 4.87945
-0.196707 1.7025 4.89052
-0.21283 1.69728 4.87472
-0.229705 1.70353 4.89075
-0.244829 1.6973 4.87496
-0.261743 1.70148 4.88603
-0.27075 1.70147 4.88509
-0.286742 1.7025 4.8862
-0.302718 1.70355 4.8893
-0.318772 1.70146 4.88245
-0.334833 1.69935 4.87461
-0.351817 1.7004 4.87672
-0.358863 1.69831 4.8708
-0.375785 1.70247 4.88087
-0.391822 1.70141 4.87601
-0.407861 1.69935 4.87116
-0.42389 1.6993 4.86728
-0.441781 1.70452 4.88134
-0.457851 1.7014 4.8725
-0.465858 1.70139 4.87156
-0.481896 1.70033 4.8667
-0.497864 1.7024 4.87079
-0.514878 1.70238 4.86892
-0.530862 1.70342 4.87102
-0.546908 1.70234 4.86516
-0.565744 1.71067 4.88618
-0.579906 1.70337 4.86539
-0.587937 1.70232 4.86147
-0.605835 1.70752 4.87453
-0.622795 1.71061 4.87961
-0.636942 1.70434 4.86081
-0.652956 1.70432 4.85893
-0.669955 1.70533 4.85904
-0.685001 1.70325 4.85318
-0.694923 1.70741 4.8632
-0.709046 1.70318 4.84737
-0.726045 1.70319 4.84749
-0.74206 1.70318 4.84561
-0.758082 1.70314 4.84273
-0.774096 1.70312 4.84086
-0.78308 1.70516 4.84289
-0.800025 1.70828 4.84998
-0.815117 1.70511 4.83813
-0.848099 1.70716 4.84035
-0.865106 1.70816 4.83947
-0.879213 1.70396 4.82563
-0.889151 1.70709 4.83366
-0.90325 1.70391 4.82081
-0.922156 1.7091 4.83288
-0.937232 1.70696 4.82302
-0.969269 1.70691 4.81827
-0.985307 1.70685 4.81339
-0.996189 1.71308 4.82838
-1.01028 1.70891 4.81655
-1.02632 1.70885 4.81167
-1.04137 1.70676 4.80481
-1.0603 1.7119 4.81388
-1.07632 1.71187 4.811
-1.09138 1.71078 4.80413
-1.09844 1.70866 4.79621
-1.11542 1.71071 4.79831
-1.13049 1.70858 4.78945
-1.14943 1.7127 4.79653
-1.1635 1.71058 4.78767
-1.17953 1.71053 4.78379
-1.19848 1.71363 4.78989
-1.20553 1.71255 4.78396
-1.22153 1.71356 4.78406
-1.23952 1.71559 4.78517
-1.25165 1.71035 4.76834
-1.26963 1.71239 4.77044
-1.28955 1.71855 4.7805
-1.29975 1.71017 4.7547
-1.30679 1.70912 4.75077
-1.32864 1.7174 4.76881
-1.33786 1.70799 4.74102
-1.37284 1.71205 4.74322
-1.40391 1.71194 4.73446
-1.41778 1.71918 4.75045
-1.4299 1.71497 4.73561
-1.44497 1.71385 4.72673
-1.46098 1.71383 4.72486
-1.47605 1.71271 4.71598
-1.49209 1.71265 4.71111
-1.50615 1.71154 4.70323
-1.51515 1.71153 4.70229
-1.5302 1.71145 4.69641
-1.54818 1.7135 4.69851
-1.56713 1.7176 4.7046
-1.57926 1.71337 4.68875
-1.60015 1.72058 4.7018
-1.61425 1.7174 4.68895
-1.62128 1.71734 4.68501
-1.64024 1.72143 4.69009
-1.65139 1.71516 4.67126
-1.66937 1.7182 4.67335
-1.68833 1.72229 4.67844
-1.70534 1.72327 4.67655
-1.71845 1.72007 4.66269
-1.73038 1.72421 4.67172
-1.74445 1.72309 4.66285
-1.76049 1.72303 4.65797
-1.77945 1.72711 4.66305
-1.79451 1.72601 4.65518
-1.81348 1.73006 4.65826
-1.93472 1.73368 4.62712
-1.98789 1.73336 4.60352
-2.03404 1.73311 4.58487
-2.04107 1.73205 4.57994
-2.0581 1.73301 4.57705
-2.07315 1.73292 4.57016
-2.09017 1.73489 4.56726
-2.10228 1.73169 4.5534
-2.12224 1.73576 4.55749
-2.14137 1.73253 4.54068
-2.15053 1.72722 4.51982
-2.17149 1.73231 4.52491
-2.1836 1.72911 4.51104
-2.19766 1.728 4.50317
-2.21566 1.731 4.50226
-2.22973 1.72989 4.49438
-2.23087 1.72361 4.47548
-2.25182 1.72972 4.48154
-2.25901 1.72237 4.4577
-2.27406 1.72228 4.45082
-2.29207 1.72527 4.44991
-2.30416 1.72311 4.43803
-2.32119 1.72406 4.43414
-2.3292 1.72503 4.43219
-2.34425 1.72494 4.4253
-2.35537 1.72173 4.41043
-2.37436 1.72476 4.41153
-2.39828 1.73191 4.42061
-2.39855 1.7204 4.38678
-2.41853 1.72445 4.38887
-2.42852 1.72647 4.38991
-2.43964 1.72324 4.37404
-2.45765 1.72624 4.37313
-2.47071 1.72512 4.36425
-2.48775 1.72605 4.35936
-2.50378 1.72801 4.35545
-2.51884 1.7279 4.34756
-2.5239 1.72578 4.33963
-2.54192 1.72775 4.33674
-2.55302 1.72557 4.32385
-2.57006 1.72751 4.31895
-2.58412 1.7274 4.31106
-2.60509 1.73146 4.31416
-2.60522 1.72621 4.29723
-2.6262 1.73127 4.30032
-2.63729 1.72908 4.28743
-2.64841 1.72587 4.27256
-2.67234 1.733 4.28064
-2.68542 1.73186 4.27075
-2.70047 1.73277 4.26385
-2.70652 1.73169 4.25791
-2.72652 1.73469 4.25702
-2.73466 1.73043 4.23914
-2.75366 1.73443 4.23822
-2.77365 1.73845 4.23931
-2.78278 1.73421 4.22244
