2.92422 1.71033 5.27837
2.9073 1.7115 5.28849
2.88733 1.70957 5.29267
2.8694 1.70972 5.3018
2.85451 1.71193 5.31588
2.84147 1.70888 5.31202
2.82557 1.71007 5.32413
2.80763 1.71022 5.33326
2.79274 1.71244 5.34734
2.77278 1.71153 5.35251
2.75687 1.71272 5.36461
2.74198 1.71493 5.37869
2.72997 1.71293 5.37781
2.70898 1.71096 5.379
2.69816 1.71632 5.40301
2.67616 1.71334 5.40322
2.6582 1.71244 5.40937
2.64638 1.71779 5.43238
2.62639 1.71583 5.43456
2.61337 1.7138 5.43169
2.59849 1.71604 5.44777
2.57647 1.71302 5.44498
2.56057 1.71422 5.45808
2.54467 1.71642 5.47117
2.52368 1.71445 5.47236
2.50982 1.71775 5.49142
2.47987 1.71686 5.49766
2.46091 1.71596 5.50381
2.44602 1.71818 5.51789
2.41891 1.71199 5.50419
2.39995 1.71109 5.51034
2.38508 1.71434 5.52641
2.37021 1.7176 5.54348
2.36022 1.71664 5.54557
2.3433 1.7178 5.55568
2.32435 1.7179 5.56182
2.30845 1.72012 5.57591
2.28948 1.71919 5.58007
2.2695 1.71825 5.58323
2.25033 1.70994 5.5615
2.24056 1.71638 5.59048
2.21651 1.71331 5.5847
2.20062 1.71553 5.59879
2.1837 1.7167 5.6099
2.16269 1.7147 5.60909
2.14373 1.71379 5.61425
2.13374 1.71381 5.61532
2.11274 1.71083 5.61553
2.09685 1.71406 5.6306
2.08096 1.71628 5.64469
2.05997 1.71531 5.64586
2.03793 1.71125 5.64109
2.02409 1.71657 5.66212
2.00796 1.71033 5.64533
1.99514 1.71568 5.66835
1.97208 1.7116 5.66158
1.95414 1.71173 5.66972
1.93416 1.71077 5.67188
1.91829 1.71503 5.68894
1.88908 1.70466 5.66231
1.87832 1.71212 5.69328
1.86729 1.71007 5.6894
1.82939 1.71129 5.70267
1.81453 1.71558 5.72172
1.79044 1.71042 5.70997
1.76838 1.70634 5.7032
1.66771 1.71103 5.74589
1.64876 1.71115 5.75304
1.64184 1.7133 5.76306
1.62391 1.71546 5.77316
1.60804 1.71871 5.78924
1.58806 1.71877 5.79239
1.57011 1.71889 5.79952
1.54807 1.71581 5.79373
1.52913 1.71695 5.80186
1.51914 1.71697 5.80293
1.50325 1.7202 5.81801
1.48122 1.71716 5.81422
1.46328 1.71829 5.82234
1.44224 1.71523 5.81754
1.42329 1.71634 5.82367
1.40226 1.71431 5.82086
1.39536 1.7175 5.83386
1.37437 1.71653 5.83504
1.35539 1.71558 5.83719
1.3354 1.71562 5.83934
1.31646 1.71675 5.84747
1.29645 1.71474 5.84565
1.27956 1.71796 5.85973
1.26748 1.71482 5.84987
1.25063 1.71911 5.86893
1.22751 1.71391 5.85418
1.20854 1.71398 5.85833
1.19063 1.71616 5.86943
1.17066 1.71623 5.87358
1.15063 1.7142 5.87076
1.14274 1.71841 5.88476
1.1217 1.71535 5.87996
1.10483 1.71962 5.89703
1.08377 1.71652 5.88923
1.0669 1.72076 5.9053
1.04482 1.71663 5.89552
1.02483 1.71568 5.89769
1.01484 1.7157 5.89876
0.995864 1.71576 5.90191
0.976934 1.7179 5.91102
0.959011 1.72007 5.92112
0.93798 1.71802 5.91731
0.919027 1.71912 5.92344
0.898988 1.71706 5.91862
0.887988 1.71607 5.91872
0.87005 1.7182 5.92682
0.848996 1.71512 5.92003
0.830089 1.71831 5.93212
0.812212 1.72256 5.9482
0.792189 1.72053 5.94538
0.77322 1.7216 5.9495
0.762182 1.71953 5.94462
0.743259 1.7217 5.95473
0.723221 1.71964 5.94991
0.704321 1.72284 5.96301
0.68319 1.71761 5.94624
0.664291 1.72081 5.95934
0.644283 1.71981 5.9585
0.637492 1.72822 5.98543
0.615315 1.72089 5.96271
0.596407 1.72308 5.97482
0.57533 1.71995 5.96502
0.557446 1.72419 5.9801
0.5364 1.72211 5.97428
0.517408 1.72214 5.97543
0.508493 1.72531 5.98645
0.487416 1.72118 5.97667
0.467379 1.72012 5.97183
0.449579 1.72752 5.99786
0.428456 1.7223 5.9821
0.408472 1.72234 5.98425
0.388418 1.72025 5.97743
0.379495 1.7224 5.98746
0.359473 1.72138 5.98463
0.339511 1.72246 5.98977
0.319505 1.72246 5.98892
0.300528 1.72252 5.99206
0.280536 1.72255 5.99321
0.260567 1.72362 5.99734
0.250599 1.72569 6.00139
0.230514 1.72154 5.9906
0.211653 1.72682 6.00867
0.191523 1.72159 5.99189
0.171647 1.72684 6.00797
0.151608 1.72478 6.00315
0.132625 1.72582 6.00528
0.122594 1.72377 6.00138
0.102656 1.7269 6.00949
0.0826877 1.72798 6.01362
0.0626343 1.72589 6.0068
0.0403121 1.71631 5.83209
0.0204207 1.72053 5.84618
0.00137476 1.71846 5.84035
-0.0176247 1.71847 5.84049
-0.0376856 1.71637 5.83268
-0.0566619 1.71743 5.8358
-0.0666308 1.71849 5.83986
-0.085661 1.71745 5.83602
-0.104738 1.71431 5.82621
-0.123637 1.71852 5.83929
-0.181681 1.71747 5.83374
-0.191711 1.71642 5.82983
-0.210703 1.71745 5.83096
-0.22971 1.71745 5.83011
-0.268724 1.71745 5.8284
-0.287716 1.71748 5.82954
-0.30766 1.7206 5.83665
-0.316768 1.7164 5.82278
-0.355667 1.72062 5.83601
-0.374689 1.72058 5.83315
-0.393758 1.71747 5.82434
-0.43181 1.71639 5.81764
-0.442709 1.72059 5.83066
-0.461708 1.7216 5.83079
-0.480723 1.72159 5.82894
-0.500706 1.72263 5.83107
-0.521582 1.72788 5.84715
-0.537844 1.71739 5.81343
-0.557758 1.72157 5.82452
-0.56775 1.72259 5.82558
-0.587749 1.72261 5.82573
-0.606764 1.72259 5.82387
-0.624855 1.72043 5.81204
-0.643854 1.72044 5.81218
-0.663869 1.72043 5.81033
-0.684736 1.72669 5.8274
-0.692852 1.72248 5.81252
-0.711851 1.72249 5.81266
-0.731857 1.72349 5.8118
-0.750856 1.7245 5.81192
-0.770847 1.72553 5.81306
-0.790839 1.72656 5.8142
-0.80983 1.72759 5.81532
-0.819822 1.72761 5.8164
-0.837929 1.72442 5.80258
-0.858866 1.72755 5.81069
-0.877881 1.72754 5.80884
-0.896879 1.72955 5.80895
-0.915925 1.72747 5.80312
-0.92594 1.72745 5.8012
-0.943977 1.72739 5.79634
-0.965898 1.73156 5.80644
-0.98299 1.72839 5.79461
-1.003 1.72938 5.79275
-1.02011 1.72518 5.77894
-1.04202 1.73036 5.79003
-1.05912 1.72719 5.7782
-1.07009 1.72925 5.78126
-1.0872 1.72505 5.76744
-1.10716 1.72814 5.77255
-1.1262 1.72708 5.76771
-1.14811 1.73226 5.7788
-1.16523 1.72905 5.76397
-1.18326 1.72799 5.75912
-1.19327 1.72898 5.75818
-1.21518 1.73317 5.77029
-1.23134 1.72787 5.74949
-1.25325 1.73305 5.76058
-1.27037 1.72883 5.74477
-1.28939 1.72981 5.74289
-1.30746 1.72768 5.73306
-1.32035 1.73291 5.74808
-1.33841 1.7318 5.74023
-1.3584 1.73383 5.74135
-1.38034 1.73695 5.74847
-1.39646 1.73373 5.73264
-1.41742 1.73682 5.73775
-1.44839 1.7399 5.74194
-1.46742 1.73985 5.73809
-1.5055 1.73973 5.72837
-1.94133 1.74338 5.61859
-1.97551 1.73906 5.59591
-1.99551 1.74106 5.59503
-2.01553 1.74203 5.59216
-2.02967 1.73877 5.57432
-2.04676 1.73661 5.56247
-2.05382 1.7345 5.55456
-2.0758 1.73754 5.55668
-2.08895 1.73327 5.53784
-2.11093 1.73632 5.53996
-2.12409 1.73101 5.51913
-2.14509 1.73403 5.51925
-2.15118 1.73086 5.50734
-2.16727 1.72971 5.49648
-2.18827 1.73071 5.49562
-2.20436 1.72956 5.48476
-2.22046 1.72736 5.47091
-2.23753 1.72624 5.46205
-2.26854 1.72923 5.46024
-2.30171 1.72693 5.43852
-2.31976 1.72684 5.43166
-2.35684 1.7277 5.42092
-2.61962 1.72934 5.31786
-2.72994 1.73178 5.27565
-2.73503 1.72962 5.26472
-2.75505 1.73159 5.26184
-2.77211 1.73147 5.25297
-2.80922 1.73229 5.23924
-2.82826 1.73322 5.23337
-2.84731 1.73414 5.2275
-2.85731 1.73514 5.22656
-2.87636 1.73606 5.22069
-2.88752 1.73176 5.19983
-2.91248 1.73685 5.20494
-2.93251 1.73879 5.20007
-2.94662 1.73659 5.1862
-2.96468 1.73749 5.17832
-2.97272 1.7364 5.1724
-2.99473 1.73941 5.17152
-3.00686 1.73615 5.15366
-3.02789 1.73812 5.15079
-3.04298 1.73694 5.13792
-3.06104 1.73783 5.13004
-3.07022 1.7325 5.10718
-3.08319 1.73555 5.11024
-3.10323 1.73749 5.10536
-3.38556 1.73406 4.92951
-4.36998 1.73906 4.21275
-4.40314 1.74075 4.19098
-4.41824 1.74157 4.17808
-4.43444 1.7392 4.15223
-4.50057 1.74898 4.13458
-4.4978 1.74152 4.10367
-4.51786 1.74342 4.09579
-4.53494 1.74527 4.08489
-4.55015 1.74288 4.05803
-4.56524 1.7427 4.04515
-4.57935 1.7425 4.03126
-4.59841 1.74538 4.02236
-4.60359 1.74104 3.99946
-4.61968 1.74188 3.98756
-4.63169 1.74485 3.98561
-4.65374 1.74777 3.97873
-4.66983 1.7486 3.96684
-4.67599 1.74529 3.94593
-4.68713 1.74404 3.92803
-4.69329 1.74073 3.90712
-4.71931 1.7457 3.90425
-4.72139 1.74454 3.89328
-4.7345 1.74433 3.87838
-4.7506 1.74515 3.86548
-4.77067 1.74803 3.85659
-4.79072 1.74993 3.84871
-4.79788 1.74762 3.8278
-4.82589 1.75361 3.82592
-4.82808 1.74926 3.802
-4.8411 1.75122 3.79907
-4.86116 1.7541 3.79017
-4.87328 1.75388 3.77427
-4.89534 1.75677 3.76639
-4.90845 1.75656 3.75149
-4.92951 1.76046 3.74359
-4.95167 1.76116 3.72274
-5.18376 1.7622 3.44544
-5.19986 1.76302 3.43254
-5.19796 1.75981 3.41858
-5.22103 1.76369 3.40969
-5.23432 1.76012 3.37084
-5.24545 1.75988 3.35392
-5.25757 1.75965 3.33802
-5.27168 1.76044 3.32311
-5.27476 1.7593 3.31315
-5.29086 1.7611 3.29924
-5.29105 1.75674 3.2753
-5.30516 1.75753 3.26039
-5.32225 1.75937 3.24849
-5.33338 1.75912 3.23158
-5.34351 1.75886 3.21366
-5.35056 1.75877 3.20671
-5.36169 1.75852 3.1898
-5.3758 1.75931 3.17489
-5.38494 1.75905 3.15696
-5.39109 1.75676 3.13704
-5.40619 1.75856 3.12312
-5.43026 1.76245 3.11424
-5.44645 1.76207 3.08837
-5.45459 1.76181 3.07043
-5.46572 1.76157 3.05352
-5.47983 1.76236 3.03861
-5.483 1.76003 3.01666
-5.49711 1.76082 3.00176
-5.5142 1.76264 2.98886
-5.52026 1.76353 2.98089
-5.53638 1.76432 2.966
-5.57174 1.76562 2.91724
-5.97099 1.75262 2.09032
-5.98012 1.75336 2.07238
-5.98228 1.75105 2.05143
3.61304 1.71363 4.71906
3.55329 1.71216 4.75254
3.51943 1.71147 4.7718
3.48658 1.71079 4.79206
3.4847 1.71401 4.80703
3.46776 1.71416 4.81616
3.45286 1.71434 4.82827
3.42002 1.71469 4.85052
3.40207 1.71381 4.85766
3.37517 1.71302 4.87088
3.35621 1.71111 4.87605
3.34434 1.71437 4.8931
3.32742 1.71455 4.90422
3.30846 1.71263 4.90939
3.28547 1.70967 4.91061
3.27258 1.7109 4.92569
3.26563 1.71199 4.93173
3.24972 1.71218 4.94385
3.22975 1.71025 4.94803
3.19184 1.70847 4.96134
3.18706 1.71489 4.98929
3.16392 1.70664 4.97158
3.15002 1.70785 4.98467
3.12803 1.70589 4.98686
3.11718 1.70918 5.0059
3.09416 1.70517 5.00413
3.07724 1.70533 5.01426
3.05828 1.70443 5.02042
3.05741 1.70867 5.03636
3.03845 1.70777 5.04252
3.02254 1.70796 5.05464
3.00561 1.70811 5.06376
2.99779 1.71347 5.08775
2.96566 1.70424 5.07112
2.95177 1.70646 5.0852
2.93976 1.70445 5.08432
2.92587 1.70668 5.09939
2.90386 1.70367 5.0976
2.89302 1.70799 5.11862
2.87001 1.70399 5.11785
2.86221 1.71038 5.14382
2.83208 1.70115 5.12718
2.82615 1.7033 5.1372
2.81025 1.70449 5.1493
2.78823 1.70148 5.14751
2.7713 1.70163 5.15664
2.76452 1.70906 5.18558
2.7415 1.70503 5.18282
2.72253 1.70312 5.18799
2.71763 1.7063 5.19998
2.69866 1.70539 5.20514
2.68072 1.70551 5.21227
2.66481 1.70669 5.22437
2.64685 1.7058 5.23052
2.62586 1.70383 5.23171
2.61299 1.70709 5.24876
2.59912 1.71035 5.26582
2.59014 1.70939 5.2679
2.57627 1.71265 5.28496
2.55018 1.7065 5.27425
2.53529 1.70874 5.28933
2.5214 1.71095 5.3034
2.50346 1.71109 5.31154
2.49142 1.70802 5.30667
2.48467 1.7165 5.3386
2.4535 1.7072 5.31697
2.44268 1.71256 5.34098
2.42779 1.71478 5.35506
2.40678 1.71178 5.35426
2.38477 1.70876 5.35247
2.37477 1.70779 5.35356
2.3497 1.70267 5.34482
2.31992 1.70812 5.37397
2.29993 1.70615 5.37515
2.28503 1.70836 5.38823
2.26403 1.70537 5.38844
2.26525 1.71378 5.41631
2.2473 1.7139 5.42344
2.22528 1.71089 5.42165
2.20325 1.70784 5.41786
2.18225 1.70586 5.41805
2.17247 1.71328 5.44602
2.14838 1.70714 5.43529
2.13351 1.7104 5.45235
2.12248 1.70835 5.44847
2.10045 1.7053 5.44468
2.08352 1.70646 5.45479
2.06762 1.70867 5.46788
2.04559 1.70563 5.46409
2.03274 1.70992 5.48312
2.01377 1.70899 5.48728
2.00172 1.70591 5.48142
1.98073 1.70394 5.4826
1.96174 1.70298 5.48476
1.94381 1.70411 5.49288
1.92585 1.70422 5.49902
1.84405 1.70466 5.52563
1.80918 1.70694 5.54286
1.65843 1.70454 5.57704
1.64663 1.71093 5.60303
1.62355 1.7058 5.59328
1.60869 1.71008 5.61133
1.58973 1.71016 5.61648
1.56869 1.70811 5.61167
1.55178 1.70928 5.62278
1.54176 1.70826 5.62087
1.52691 1.71356 5.6409
1.50588 1.71051 5.63611
1.48588 1.70954 5.63727
1.47309 1.71694 5.66426
1.43204 1.71189 5.65865
1.42204 1.71089 5.65874
1.40512 1.71305 5.66883
1.38202 1.70788 5.65608
1.36407 1.70899 5.6632
1.3482 1.71326 5.68026
1.32716 1.71018 5.67446
1.31028 1.71343 5.69054
1.29715 1.70719 5.67373
1.27817 1.70724 5.67588
1.26128 1.71047 5.69096
1.24331 1.71054 5.69509
1.2233 1.70953 5.69326
1.20538 1.7117 5.70436
1.18537 1.70969 5.70254
1.17638 1.70972 5.70461
1.15948 1.71293 5.71769
1.13739 1.70777 5.70593
1.12049 1.71097 5.71901
1.1005 1.71102 5.72116
1.08359 1.71319 5.73226
1.06461 1.71325 5.7354
1.03356 1.71017 5.72868
1.01354 1.70815 5.72686
0.995589 1.70926 5.73298
0.977658 1.7114 5.74209
0.957635 1.70937 5.73927
0.939704 1.71152 5.74837
0.932858 1.71682 5.76835
0.912805 1.71473 5.76153
0.891759 1.71166 5.75573
0.873836 1.71382 5.76584
0.853751 1.70967 5.75505
0.835859 1.71289 5.76914
0.816882 1.71295 5.77228
0.80689 1.71297 5.77335
0.790021 1.71823 5.79041
0.767867 1.71095 5.77068
0.748883 1.711 5.77282
0.729898 1.71104 5.77496
0.710945 1.71214 5.78109
0.691945 1.71216 5.78123
0.682984 1.71324 5.78629
0.66403 1.71434 5.79241
0.645076 1.71544 5.79854
0.62603 1.71337 5.79271
0.6071 1.71552 5.80183
0.588146 1.71662 5.80795
0.567016 1.71138 5.79119
0.558047 1.71245 5.79524
0.540178 1.71671 5.81231
0.520132 1.71464 5.8065
0.502232 1.71784 5.81958
0.481079 1.71156 5.79983
0.463133 1.71368 5.80694
0.444172 1.71477 5.81207
0.434226 1.71688 5.81911
0.415234 1.71691 5.82025
0.395173 1.7138 5.81245
0.376181 1.71383 5.81359
0.356127 1.71174 5.80677
0.337135 1.71177 5.80792
0.318189 1.71289 5.81504
0.30922 1.71395 5.8191
0.290228 1.71398 5.82024
0.270191 1.71292 5.8154
0.251284 1.71611 5.8275
0.233377 1.7203 5.83958
0.213277 1.71613 5.82679
0.194285 1.71616 5.82793
0.1843 1.71619 5.83001
0.165347 1.7183 5.83612
0.145248 1.71412 5.82333
0.126279 1.71519 5.82746
0.107357 1.71835 5.83755
0.08828 1.71522 5.82774
0.0694042 1.72047 5.84381
0.0593424 1.71736 5.83593
0.0369133 1.72954 5.64489
0.0179295 1.73059 5.64702
-0.000100755 1.72954 5.64317
-0.0191617 1.72744 5.63534
-0.0561374 1.72851 5.63861
-0.0840519 1.73169 5.64977
-0.122112 1.7296 5.64209
-0.159196 1.72647 5.63141
-0.178025 1.7338 5.65345
-0.187056 1.73275 5.64953
-0.224155 1.72859 5.63687
-0.262123 1.73067 5.64113
-0.299152 1.72964 5.63742
-0.309098 1.73275 5.64445
-0.327135 1.73169 5.6396
-0.346065 1.73484 5.6487
-0.364196 1.7296 5.63191
-0.384102 1.73379 5.644
-0.402125 1.73276 5.64115
-0.42114 1.73274 5.6393
-0.43107 1.73588 5.64832
-0.486144 1.73478 5.63875
-0.524158 1.73477 5.63704
-0.589186 1.73576 5.63352
-0.729279 1.73667 5.62156
-0.832366 1.73757 5.61032
-0.952513 1.73736 5.59122
-0.990511 1.73839 5.59149
-1.11068 1.73814 5.5694
-1.12969 1.73913 5.56853
-1.14773 1.73806 5.56268
-1.15579 1.73696 5.55576
-1.17478 1.73799 5.55688
-1.23083 1.73991 5.54928
-1.29689 1.74084 5.54176
-1.98023 1.74467 5.36683
-2.04142 1.74333 5.3413
-2.0575 1.7422 5.33144
-2.07555 1.74211 5.32458
-2.09359 1.74204 5.31971
-2.10555 1.74511 5.32376
-2.1138 1.73664 5.29194
-2.13379 1.73867 5.29306
-2.15184 1.73858 5.2862
-2.16791 1.73746 5.27734
-2.18105 1.73319 5.25849
-2.20204 1.73624 5.26061
-2.21303 1.73826 5.26166
-2.22812 1.73609 5.2498
-2.24519 1.73597 5.24093
-2.26224 1.73588 5.23406
-2.28421 1.73894 5.23718
-2.2993 1.73779 5.22631
-2.31146 1.73249 5.20548
-2.31949 1.73243 5.20154
-2.33459 1.73025 5.18869
-2.35361 1.73222 5.1858
-2.36968 1.73108 5.17594
-2.39363 1.7362 5.18304
-2.40577 1.73193 5.16419
-2.41872 1.73605 5.17123
-2.43087 1.73176 5.15138
-2.45384 1.73583 5.1555
-2.46892 1.73468 5.14463
-2.48598 1.73458 5.13675
-2.50108 1.7324 5.1239
-2.52304 1.73647 5.128
-2.53518 1.73221 5.11016
-2.54815 1.73528 5.11421
-2.56718 1.73624 5.11034
-2.57932 1.73296 5.09148
-2.60524 1.73914 5.10258
-2.61736 1.7359 5.08572
-2.63542 1.73681 5.07884
-2.64952 1.73463 5.06598
-2.65952 1.73562 5.06504
-2.67265 1.73338 5.04817
-2.69759 1.7385 5.05528
-2.71072 1.73527 5.03942
-2.72482 1.73408 5.02555
-2.74582 1.73709 5.02566
-2.76978 1.74118 5.03078
-2.76501 1.73274 5.00087
-2.78797 1.73683 5.00598
-2.808 1.73878 5.0021
-2.82209 1.73761 4.99022
-2.83521 1.73439 4.97437
-2.86608 1.74365 4.99046
-2.87032 1.73619 4.9596
-2.88723 1.74136 4.97065
-2.90429 1.74226 4.96277
-2.92431 1.74423 4.95989
-2.93546 1.73996 4.94103
-2.95745 1.74399 4.94214
-2.96366 1.73658 4.91429
-2.98256 1.74378 4.92733
-3.00751 1.74889 4.93344
-3.01371 1.74251 4.90758
-3.03572 1.7455 4.9057
-3.04982 1.74431 4.89282
-3.05009 1.7348 4.85796
-3.06419 1.73261 4.8451
-3.0752 1.73459 4.84315
-3.09128 1.73446 4.83327
-3.10735 1.73432 4.8234
-3.12737 1.73629 4.82052
-3.15161 1.73185 4.78976
-3.17164 1.7338 4.78588
-3.20986 1.7324 4.75719
-3.34847 1.73329 4.67621
-3.89033 1.73603 4.2982
-3.98283 1.73809 4.23085
-4.07544 1.73795 4.15054
-4.10254 1.74078 4.1377
-4.11663 1.7406 4.12481
-4.13073 1.74042 4.11192
-4.14978 1.74233 4.10503
-4.1609 1.7411 4.08913
-4.18095 1.74402 4.08324
-4.18999 1.74394 4.07731
-4.20111 1.74271 4.06141
-4.21719 1.74357 4.05151
-4.23029 1.74338 4.03761
-4.23843 1.74112 4.01971
-4.26444 1.74611 4.01783
-4.27258 1.74383 3.99892
-4.28856 1.74789 4.00198
-4.30464 1.74873 3.99109
-4.31576 1.74751 3.97519
-4.32689 1.74626 3.95829
-4.34792 1.7492 3.9534
-4.35706 1.74794 3.93549
-4.37711 1.75085 3.92859
-4.38416 1.75076 3.92165
-4.39032 1.74745 3.90074
-4.41335 1.75141 3.89685
-4.42547 1.75018 3.88096
-4.43858 1.74998 3.86706
-4.45962 1.75391 3.86116
-4.45683 1.74649 3.83325
-4.4629 1.74636 3.82429
-4.4909 1.75238 3.82441
-4.49208 1.74703 3.8005
-4.50916 1.74888 3.7896
-4.53915 1.75591 3.79072
-4.54133 1.75156 3.7668
-4.56635 1.75653 3.76391
-4.5734 1.75643 3.75697
-4.58253 1.75519 3.74005
-4.59068 1.75291 3.72114
-4.62682 1.75664 3.70136
-4.6429 1.75849 3.69045
-4.65999 1.76034 3.67955
-4.68014 1.76005 3.6587
-5.0656 1.7615 3.20052
-5.09788 1.76297 3.16374
-5.11912 1.76252 3.1319
-5.13124 1.76329 3.11598
-5.15854 1.76272 3.07619
-5.21513 1.76359 2.99759
-5.24641 1.76405 2.95981
-5.27778 1.76434 2.91104
-5.30011 1.76271 2.86723
-5.31522 1.76451 2.85331
-5.72827 1.75589 2.05144
-5.73042 1.7536 2.03149
-5.74254 1.75537 2.01555
-5.75167 1.75611 1.99761
-5.74983 1.7528 1.97664
-5.7549 1.75267 1.96768
-5.78596 1.76056 1.95879
-5.78213 1.75623 1.93682
-5.79824 1.75902 1.9219
-5.80339 1.75874 1.90294
-5.79955 1.75441 1.88098
-5.8057 1.75413 1.86202
-5.80378 1.75297 1.85102
-5.81291 1.75273 1.83409
-5.81606 1.75143 1.81413
-5.82619 1.75219 1.7972
-5.82734 1.74989 1.77724
-5.82849 1.7486 1.75726
-5.83862 1.74935 1.74033
5.96063 1.68324 0.671264
5.96593 1.68683 0.711176
5.95907 1.6861 0.729241
5.96722 1.69039 0.749119
5.94634 1.68464 0.765364
5.96945 1.69283 0.77907
5.95857 1.69109 0.79618
5.95171 1.68936 0.81426
5.95586 1.69266 0.834183
5.95701 1.69395 0.854158
5.96317 1.69726 0.875065
5.94428 1.69349 0.890265
5.95738 1.69768 0.903107
5.94651 1.69594 0.920217
5.94781 1.69951 0.959159
5.9451 1.70209 0.998147
5.93924 1.70136 1.0162
5.91757 1.69903 1.06041
5.88733 1.69855 1.16166
3.1552 1.71624 4.74147
3.02474 1.7154 4.81448
2.97392 1.7148 4.83887
2.96002 1.716 4.85196
2.92903 1.71205 4.85425
2.9131 1.7122 4.86337
2.90326 1.71651 4.88439
2.87822 1.71144 4.87865
2.86736 1.71473 4.89768
2.85041 1.71485 4.90481
2.83144 1.71292 4.90898
2.82449 1.71302 4.91504
2.81364 1.71732 4.93506
2.79162 1.71329 4.93228
2.7757 1.71445 4.94239
2.7618 1.71667 4.95646
2.73979 1.71266 4.95468
2.72589 1.71487 4.96876
2.71487 1.71284 4.96587
2.69794 1.71298 4.975
2.68505 1.71521 4.99006
2.66609 1.7143 4.99522
2.64711 1.71236 4.99839
2.63321 1.71456 5.01147
2.61931 1.71676 5.02454
2.60932 1.71479 5.02565
2.58628 1.71075 5.02188
2.57645 1.71608 5.04388
2.55648 1.71414 5.04706
2.53952 1.71424 5.05318
2.52564 1.71647 5.06826
2.50361 1.71244 5.06548
2.49666 1.71354 5.07152
2.48074 1.71471 5.08262
2.46277 1.71378 5.08677
2.44787 1.71599 5.09985
2.42787 1.713 5.10005
2.41194 1.71415 5.10915
2.395 1.71428 5.11728
2.38603 1.71434 5.12135
2.37112 1.71653 5.13343
2.35315 1.7156 5.13758
2.33621 1.71572 5.14471
2.32029 1.71689 5.15581
2.3003 1.71494 5.15799
2.28233 1.71399 5.16114
2.27946 1.71926 5.17909
2.25743 1.71421 5.17433
2.22865 1.72066 5.20345
2.2117 1.72077 5.21058
2.19475 1.72089 5.2177
2.16271 1.71482 5.21204
2.14578 1.71597 5.22115
2.12373 1.7119 5.21537
2.11087 1.71619 5.23441
2.09188 1.71421 5.23558
2.08107 1.72058 5.25957
2.05392 1.71232 5.2409
2.04596 1.7124 5.24596
2.02902 1.71353 5.25407
2.01106 1.71261 5.25922
1.99105 1.71061 5.2584
1.97716 1.71385 5.27346
1.95614 1.71082 5.27066
1.94022 1.71198 5.28076
1.93329 1.71513 5.29077
1.91328 1.71212 5.28897
1.89325 1.70909 5.28616
1.8794 1.71338 5.3052
1.8604 1.71239 5.30536
1.84654 1.71668 5.32441
1.83471 1.72202 5.34642
1.81856 1.71473 5.32665
1.80367 1.71796 5.34171
1.78263 1.71391 5.33693
1.77081 1.72025 5.35993
1.74876 1.71617 5.35315
1.73284 1.71834 5.36424
1.71283 1.71633 5.36242
1.70693 1.71952 5.37542
1.68487 1.71544 5.36865
1.67305 1.72178 5.39165
1.64791 1.71354 5.37396
1.63404 1.7178 5.391
1.61199 1.71371 5.38422
1.60607 1.71688 5.39522
1.58809 1.71694 5.39836
1.5691 1.71496 5.39953
1.55012 1.71502 5.40267
1.53523 1.71824 5.41674
1.51521 1.71523 5.41494
1.49621 1.71424 5.41509
1.48415 1.71113 5.40723
1.46618 1.7112 5.41136
1.45441 1.71864 5.44035
1.43127 1.71139 5.42263
1.41333 1.71252 5.43075
1.39846 1.71778 5.44778
1.37945 1.71578 5.44695
1.37045 1.71479 5.44704
1.35148 1.71486 5.45118
1.33246 1.71283 5.44835
1.31347 1.71188 5.45051
1.29757 1.71508 5.46358
1.27857 1.71308 5.46276
1.25855 1.71207 5.46092
1.25472 1.71839 5.48286
1.23262 1.71322 5.4701
1.2136 1.7112 5.46827
1.19877 1.71652 5.48931
1.17769 1.71239 5.47953
1.15972 1.71246 5.48366
1.14385 1.71673 5.50072
1.1338 1.71464 5.49483
1.11689 1.71682 5.50593
1.09998 1.72001 5.51801
1.07888 1.71483 5.50524
1.0609 1.71489 5.50838
1.04503 1.71914 5.52443
1.02707 1.72022 5.52955
1.006 1.71612 5.52177
1.00121 1.72451 5.54769
0.980066 1.71726 5.52995
0.962121 1.71938 5.53706
0.944175 1.72049 5.54418
0.923066 1.7143 5.53043
0.905098 1.71537 5.53455
0.901399 1.72795 5.57339
0.88026 1.7207 5.55566
0.860221 1.71864 5.55084
0.84226 1.71973 5.55596
0.823244 1.71771 5.55413
0.807368 1.72296 5.57018
0.78836 1.72096 5.56935
0.778368 1.72098 5.57042
0.760383 1.72103 5.57256
0.742415 1.7221 5.57668
0.723407 1.7211 5.57584
0.704423 1.72114 5.57798
0.686453 1.72121 5.58211
0.666361 1.71705 5.57032
0.658415 1.71916 5.57735
0.642639 1.7276 5.60635
0.621516 1.72238 5.59059
0.603532 1.72242 5.59272
0.56547 1.71833 5.58507
0.547587 1.72357 5.60013
0.529617 1.72364 5.60426
0.519517 1.71945 5.5914
0.501633 1.72369 5.60647
0.484749 1.72792 5.62154
0.465742 1.72792 5.62068
0.446696 1.72485 5.61487
0.428766 1.72799 5.62396
0.409727 1.72593 5.61913
0.399689 1.72387 5.61424
0.382859 1.7312 5.63626
0.362782 1.72707 5.62647
0.344829 1.72917 5.63258
0.325806 1.72814 5.62973
0.307814 1.72817 5.63087
0.298892 1.73132 5.64089
0.278768 1.7251 5.62513
0.260831 1.72823 5.63322
0.241839 1.72826 5.63437
0.223917 1.73142 5.64446
0.204817 1.72724 5.63166
0.185809 1.72624 5.63082
0.176926 1.73147 5.64581
0.15781 1.72626 5.63103
0.120834 1.72734 5.63429
0.101881 1.72844 5.64042
0.083804 1.7253 5.6306
0.0557816 1.72428 5.62783
0.0283672 1.72352 5.44002
0.00931376 1.72143 5.43319
0.000414423 1.72562 5.4462
-0.0176315 1.72355 5.44036
-0.035646 1.72353 5.4385
-0.0535916 1.72565 5.4456
-0.0715754 1.72669 5.44772
-0.0895516 1.72775 5.45084
-0.107652 1.72357 5.43804
-0.115728 1.72043 5.42815
-0.134589 1.72671 5.4462
-0.151735 1.72044 5.42742
-0.169758 1.71941 5.42457
-0.188587 1.72675 5.44661
-0.20671 1.72252 5.4308
-0.224671 1.72361 5.43592
-0.233671 1.72362 5.43599
-0.251739 1.7215 5.42716
-0.269638 1.7257 5.44023
-0.287692 1.72361 5.4334
-0.304815 1.71839 5.4176
-0.324605 1.7288 5.4446
-0.341674 1.72568 5.43577
-0.350766 1.72251 5.42389
-0.369595 1.72985 5.44592
-0.387633 1.72879 5.44107
-0.404733 1.72461 5.42826
-0.424585 1.7319 5.44731
-0.442577 1.73193 5.44844
-0.459622 1.73085 5.44259
-0.468653 1.7298 5.43867
-0.486652 1.72982 5.4388
-0.505589 1.73295 5.4469
-0.522674 1.7298 5.43608
-0.542587 1.73497 5.44715
-0.560617 1.73393 5.4433
-0.577671 1.73184 5.43646
-0.585725 1.72974 5.42955
-0.605646 1.7339 5.43964
-0.622676 1.73286 5.43578
-0.641652 1.73491 5.4389
-0.660635 1.73696 5.44101
-0.677712 1.73382 5.43118
-0.695696 1.73486 5.4333
-0.721772 1.73273 5.42353
-0.758777 1.73475 5.42278
-0.776768 1.73577 5.4239
-0.794783 1.73576 5.42204
-0.812805 1.73573 5.41917
-0.821843 1.73466 5.41425
-0.840803 1.73675 5.41937
-0.856926 1.73252 5.40355
-0.912845 1.73871 5.41388
-0.930883 1.73765 5.40903
-0.95599 1.73446 5.39527
-1.00907 1.73434 5.38467
-1.04799 1.73951 5.39488
-1.05607 1.73737 5.38497
-1.09306 1.73941 5.38622
-1.12716 1.73724 5.37351
-1.17318 1.73922 5.36983
-1.20921 1.74019 5.36608
-1.22627 1.73909 5.35923
-1.26037 1.73691 5.34552
-1.32442 1.73985 5.33895
-1.35756 1.73661 5.32125
-1.39652 1.7407 5.32548
-2.06197 1.7433 5.13543
-2.08706 1.74314 5.12362
-2.10313 1.742 5.11376
-2.12214 1.743 5.11289
-2.13722 1.74185 5.10202
-2.15623 1.74385 5.10113
-2.17524 1.74583 5.09924
-2.18838 1.74157 5.0814
-2.19444 1.73946 5.07348
-2.21346 1.74144 5.07159
-2.22756 1.73925 5.05773
-2.24265 1.7381 5.04686
-2.26657 1.74325 5.05596
-2.27675 1.73791 5.03311
-2.29478 1.73887 5.02924
-2.30379 1.73884 5.0273
-2.32085 1.73875 5.02043
-2.33494 1.73757 5.00755
-2.36281 1.74584 5.02464
-2.37003 1.73842 4.9958
-2.38707 1.73836 4.99093
-2.40511 1.73928 4.98505
-2.40627 1.73399 4.96514
-2.42724 1.73705 4.96825
-2.45019 1.74215 4.97435
-2.46036 1.73683 4.9525
-2.47938 1.73882 4.95062
-2.4984 1.74079 4.94773
-2.51249 1.73962 4.93585
-2.51954 1.73752 4.92894
-2.54052 1.74156 4.93103
-2.54773 1.73417 4.90419
-2.56675 1.73614 4.90131
-2.59266 1.74332 4.9124
-2.60578 1.74011 4.89754
-2.61184 1.73899 4.8896
-2.63086 1.74096 4.88672
-2.64497 1.73877 4.87285
-2.66397 1.74177 4.87195
-2.683 1.74372 4.86807
-2.69807 1.74258 4.8582
-2.71513 1.74349 4.85131
-2.73106 1.74764 4.86037
-2.73726 1.74124 4.83351
-2.75924 1.7453 4.83661
-2.77925 1.74729 4.83473
-2.79038 1.74404 4.81786
-2.81237 1.74807 4.81897
-2.8235 1.74483 4.8021
-2.82857 1.74269 4.79217
-2.8476 1.74464 4.78828
-2.87058 1.74869 4.7904
-2.88073 1.74541 4.77152
-2.9027 1.74947 4.77462
-2.91877 1.74935 4.76575
-2.92991 1.74609 4.74788
-2.93991 1.74709 4.74694
-2.97305 1.74784 4.72917
-2.9891 1.74775 4.72229
-3.00024 1.74449 4.70442
-3.02124 1.74749 4.70354
-3.03237 1.74525 4.68665
-3.04844 1.74513 4.67777
-3.06043 1.74715 4.67883
-3.06958 1.74388 4.65995
-3.08861 1.74482 4.65508
-3.10171 1.74363 4.64219
-3.11778 1.7435 4.63231
-3.12891 1.74127 4.61643
-3.13794 1.74122 4.6125
-3.15498 1.74314 4.60659
-3.17105 1.74302 4.59772
-3.18317 1.74079 4.58184
-3.20417 1.74379 4.58095
-3.21233 1.73949 4.56007
-3.22939 1.74039 4.55319
-3.24138 1.74342 4.55423
-3.24954 1.73911 4.53336
-3.26166 1.73688 4.51748
-3.2886 1.74301 4.52459
-3.3007 1.74182 4.5117
-3.30887 1.7375 4.48982
-3.33976 1.74672 4.50292
-3.33495 1.73936 4.47899
-3.35299 1.74128 4.4731
-3.37499 1.7453 4.4732
-3.37919 1.73892 4.44732
-3.40218 1.74294 4.44744
-3.41825 1.74381 4.43854
-3.4264 1.73952 4.41867
-3.44037 1.74359 4.42271
-3.45941 1.74553 4.41783
-3.47251 1.74433 4.40394
-3.49056 1.74624 4.39705
-3.50762 1.74714 4.38916
-3.52269 1.74702 4.38028
-3.54273 1.74996 4.37538
-3.54779 1.74883 4.36644
-3.55099 1.74244 4.34055
-3.573 1.74644 4.33966
-3.5871 1.74526 4.32678
-3.60415 1.74717 4.31988
-3.62418 1.75011 4.31499
-3.63827 1.74994 4.30309
-3.63244 1.74261 4.28115
-3.65742 1.74766 4.28327
-3.6735 1.74853 4.27338
-3.68759 1.74836 4.26148
-3.69672 1.7451 4.2436
-3.71378 1.74699 4.2357
-3.73283 1.74892 4.22981
-3.74482 1.75193 4.22986
-3.76486 1.75487 4.22496
-3.77697 1.75265 4.21008
-3.80614 1.75335 4.18829
-3.82936 1.75092 4.1585
-3.84533 1.75499 4.16256
-3.85248 1.7517 4.14266
-3.88166 1.75138 4.11988
-3.90169 1.75432 4.11499
-3.93086 1.755 4.09219
-3.93692 1.75389 4.08425
-3.9651 1.75455 4.06045
-4.01849 1.75284 4.00987
-4.11504 1.75681 3.93653
-4.15126 1.75739 3.90679
-5.68229 1.7559 1.64904
-5.69457 1.75538 1.61313
-5.69563 1.75425 1.60416
-5.69479 1.75194 1.58318
-5.7099 1.75473 1.56825
-5.70821 1.75013 1.5283
-5.71035 1.74885 1.50933
-5.71848 1.74861 1.4924
-5.75222 1.74818 1.39464
5.79277 1.68566 0.557477
5.80693 1.69196 0.57828
3.00818 1.71535 4.60757
2.97238 1.71676 4.63383
2.83693 1.71694 4.70785
2.80505 1.7162 4.72411
2.79912 1.71732 4.73214
2.76624 1.71758 4.74838
2.75131 1.71774 4.7585
2.73133 1.71579 4.76067
2.70249 1.71812 4.78186
2.65655 1.71429 4.79127
2.64163 1.71445 4.80138
2.60876 1.71472 4.81862
2.59891 1.71902 4.83864
2.57399 1.71919 4.84882
2.55398 1.71619 4.84802
2.53907 1.71738 4.86011
2.51906 1.71438 4.85931
2.48719 1.71565 4.87653
2.47211 1.71052 4.86672
2.44431 1.71392 4.89288
2.42634 1.713 4.89703
2.41954 1.72038 4.92298
2.39344 1.71321 4.91028
2.38463 1.71959 4.93525
2.37259 1.71652 4.93039
2.35258 1.71351 4.92859
2.34377 1.71988 4.95356
2.32275 1.71586 4.95078
2.30071 1.7118 4.946
2.29191 1.71819 4.97198
2.25308 1.72056 4.99524
2.22798 1.71438 4.98252
2.21816 1.71973 5.00552
2.19612 1.71567 5.00074
2.18221 1.71786 5.01282
2.1673 1.71905 5.02491
2.15729 1.71803 5.023
2.13829 1.71606 5.02418
2.12747 1.7214 5.04718
2.10439 1.71627 5.03743
2.08845 1.7164 5.04555
2.07558 1.72066 5.06258
2.05454 1.71659 5.0568
2.04761 1.71873 5.06582
2.03064 1.7178 5.06997
2.01164 1.71583 5.07114
1.99572 1.71699 5.08124
1.98285 1.72125 5.09828
1.96386 1.71928 5.09945
1.94587 1.71832 5.1016
1.93893 1.72044 5.10962
1.91891 1.71742 5.10682
1.89787 1.71336 5.10204
1.885 1.71762 5.11907
1.87009 1.71979 5.13016
1.85008 1.71679 5.12935
1.84517 1.71997 5.14134
1.8231 1.71486 5.13258
1.81025 1.72016 5.1526
1.78714 1.71296 5.13788
1.77428 1.71825 5.1569
1.75734 1.71836 5.16403
1.74242 1.72054 5.17511
1.72421 1.71015 5.1484
1.71547 1.72064 5.18131
1.6934 1.71553 5.17256
1.67643 1.71561 5.17768
1.66563 1.72199 5.20267
1.64458 1.71892 5.19688
1.62967 1.72109 5.20796
1.60939 1.70759 5.17331
1.58062 1.71404 5.20243
1.56468 1.71617 5.21052
1.5467 1.71523 5.21367
1.52975 1.71633 5.21978
1.51383 1.7185 5.23087
1.50895 1.72273 5.24585
1.48582 1.71551 5.23013
1.46578 1.71245 5.22532
1.45501 1.72089 5.25428
1.4329 1.71469 5.24054
1.42008 1.72104 5.26355
1.39798 1.71487 5.2508
1.39104 1.71699 5.25882
1.371 1.71393 5.25402
1.35508 1.71609 5.26411
1.33916 1.71927 5.27518
1.31911 1.71518 5.26839
1.30525 1.72047 5.28742
1.2821 1.71219 5.26772
1.2662 1.71539 5.28079
1.2603 1.71959 5.29377
1.23818 1.71238 5.27905
1.22638 1.72078 5.30501
1.20843 1.72088 5.31115
1.18421 1.71048 5.28348
1.17141 1.71788 5.30947
1.16241 1.71788 5.30954
1.14444 1.71794 5.31267
1.12334 1.71176 5.29992
1.11052 1.71913 5.32391
1.08943 1.71397 5.31215
1.07454 1.7182 5.3272
1.05657 1.71826 5.33033
1.04652 1.71518 5.32445
1.02853 1.7152 5.32559
1.01263 1.71841 5.33866
0.993606 1.71638 5.33584
0.975629 1.71643 5.33897
0.957652 1.71649 5.34211
0.941729 1.71865 5.3522
0.929613 1.71344 5.33736
0.914767 1.71874 5.3574
0.896768 1.71876 5.35753
0.87876 1.71676 5.3567
0.860798 1.71784 5.36182
0.842814 1.71789 5.36396
0.822706 1.71269 5.35018
0.809984 1.72424 5.38611
0.797791 1.71487 5.36134
0.780899 1.71909 5.37541
0.762899 1.71811 5.37556
0.741745 1.71083 5.35582
0.727961 1.71925 5.3838
0.708938 1.71722 5.38098
0.690908 1.71617 5.37713
0.682961 1.71728 5.38417
0.663915 1.71521 5.37834
0.644861 1.71212 5.37153
0.630062 1.72051 5.39752
0.611047 1.7195 5.39568
0.591962 1.71435 5.3849
0.584024 1.71747 5.39291
0.565993 1.71543 5.38908
0.547993 1.71444 5.38923
0.531141 1.72073 5.40827
0.512033 1.71554 5.39449
0.495149 1.71978 5.40955
0.47711 1.71772 5.40472
0.468118 1.71774 5.40579
0.449026 1.71357 5.39399
0.432111 1.71675 5.40507
0.415235 1.722 5.42112
0.396112 1.71677 5.40534
0.378135 1.71683 5.40848
0.360205 1.71998 5.41757
0.351182 1.71794 5.41466
0.333213 1.72001 5.41877
0.315206 1.71901 5.41792
0.298307 1.72322 5.43099
0.280268 1.72115 5.42615
0.261199 1.71804 5.41734
0.244354 1.72434 5.43738
0.235277 1.7212 5.42749
0.217332 1.72332 5.4346
0.199316 1.7223 5.43275
0.181309 1.7223 5.43188
0.16224 1.71818 5.42309
0.145372 1.72444 5.44012
0.127303 1.72133 5.4313
0.118365 1.72345 5.43934
0.100396 1.72552 5.44345
0.081296 1.72034 5.43066
0.0632965 1.72036 5.4308
0.0464131 1.72559 5.44585
-0.975819 1.71989 5.1536
-1.07094 1.72073 5.1383
-1.19911 1.72146 5.11525
-1.2592 1.72233 5.10369
-1.29325 1.72225 5.09695
-1.33923 1.72731 5.09922
-1.3553 1.72519 5.09037
-1.37038 1.72305 5.08051
-1.40346 1.72192 5.06978
-1.41951 1.72182 5.0629
-1.4475 1.72386 5.06408
-1.48156 1.72476 5.05632
-1.49955 1.72679 5.05743
-1.51368 1.72257 5.04159
-1.53071 1.7225 5.03672
-1.5436 1.72772 5.05075
-1.56062 1.72869 5.04786
-1.57863 1.72969 5.04698
-1.59664 1.73167 5.04508
-1.61173 1.72952 5.03423
-1.63363 1.73471 5.04632
-1.63874 1.73151 5.0324
-1.65576 1.73148 5.02953
-1.67378 1.73246 5.02765
-1.69569 1.73864 5.03873
-1.71272 1.73959 5.03484
-1.7317 1.74163 5.03695
-1.74973 1.74259 5.03308
-1.76285 1.73938 5.01822
-1.76696 1.73416 5.00333
-1.78596 1.73617 5.00344
-1.79713 1.73085 4.9816
-1.81317 1.73078 4.97572
-1.83216 1.7328 4.97683
-1.84628 1.72959 4.96199
-1.86329 1.73058 4.9601
-1.87231 1.73054 4.95717
-1.88739 1.7294 4.9473
-1.91852 1.72717 4.93056
-1.93162 1.72499 4.91769
-1.94964 1.72596 4.91481
-1.96961 1.72902 4.91792
-1.9747 1.72586 4.907
-2.84356 1.7328 4.52939
-2.87074 1.73047 4.50563
-2.94101 1.73199 4.47013
-2.95707 1.73188 4.46225
-2.9751 1.73382 4.45736
-2.98919 1.73366 4.44646
-3.00017 1.7357 4.44852
-3.02217 1.73972 4.44862
-3.02537 1.73232 4.42175
-3.04736 1.73635 4.42286
-3.06145 1.7362 4.41197
-3.08467 1.73179 4.3832
-3.09664 1.73484 4.38625
-3.12282 1.7325 4.36248
-3.13889 1.73338 4.35358
-3.17002 1.73415 4.3368
-3.18707 1.73506 4.32992
-3.20522 1.73378 4.31007
-3.24944 1.73338 4.28141
-3.26353 1.73321 4.26951
-3.28662 1.73405 4.25767
-3.29971 1.73288 4.24579
-3.31577 1.73376 4.23689
-3.33678 1.73776 4.23599
-3.34888 1.73556 4.22212
-3.35999 1.73437 4.20821
-3.37704 1.73527 4.20133
-3.38705 1.73727 4.20037
-3.40113 1.73711 4.18948
-3.41422 1.73695 4.17758
-3.42534 1.73472 4.1617
-3.44238 1.73664 4.15579
-3.45647 1.73649 4.1449
-3.47649 1.73944 4.14101
-3.48353 1.73937 4.13606
-3.49661 1.73922 4.12516
-3.51169 1.73908 4.11527
-3.52875 1.74098 4.10737
-3.53985 1.73878 4.09349
-3.55195 1.73859 4.08058
-3.56603 1.73844 4.06969
-3.57209 1.73734 4.06275
-3.58716 1.73821 4.05285
-3.60024 1.73805 4.04195
-3.61037 1.73582 4.02605
-3.64448 1.73963 4.01125
-3.65558 1.73743 3.99737
-3.66263 1.73734 3.99142
-3.68959 1.74442 3.99552
-3.69674 1.74114 3.97662
-3.70587 1.7389 3.95972
-3.72886 1.74392 3.95982
-3.73998 1.7417 3.94493
-3.75703 1.7436 3.93703
-3.76011 1.74145 3.92708
-3.76626 1.73817 3.90818
-3.7853 1.7411 3.90228
-3.79839 1.74093 3.89038
-3.81545 1.74282 3.88248
-3.82854 1.74266 3.87057
-3.85551 1.74972 3.87367
-3.85066 1.74344 3.85473
-3.86175 1.74225 3.84183
-3.88973 1.74931 3.84493
-3.89191 1.74396 3.82103
-3.90599 1.74481 3.81012
-3.93099 1.74983 3.81023
-3.93416 1.7455 3.78832
-3.94418 1.74647 3.78538
-3.96719 1.75145 3.78348
-3.9783 1.75125 3.76956
-3.98444 1.74798 3.75065
-4.00646 1.75195 3.74776
-4.02452 1.75384 3.73987
-4.02769 1.74952 3.71795
-4.03969 1.75251 3.717
-4.04385 1.74821 3.69609
-4.06389 1.75113 3.6902
-4.07996 1.75301 3.68129
-4.09007 1.75179 3.66638
-4.10217 1.75161 3.65347
-4.11735 1.74927 3.62962
-4.13044 1.74911 3.61872
-4.15941 1.75716 3.62082
-4.17567 1.75267 3.587
-4.20682 1.7554 3.56719
-4.21487 1.75632 3.56124
-4.22796 1.75615 3.54934
-4.23708 1.75492 3.53342
-4.24521 1.75267 3.51652
-4.28945 1.75621 3.48379
-4.2955 1.75612 3.47684
-4.30959 1.75696 3.46593
-4.31771 1.75472 3.44902
-4.32684 1.75349 3.43311
-4.33198 1.75121 3.41418
-4.35005 1.75309 3.40529
-4.36313 1.75392 3.39337
-4.36919 1.75382 3.38642
-4.38327 1.75467 3.37551
-4.39637 1.75549 3.36259
-4.40052 1.75219 3.34267
-4.41758 1.75407 3.33377
-4.43068 1.75489 3.32085
-4.43781 1.75264 3.30394
-4.43989 1.7515 3.29397
-4.46291 1.75645 3.29007
-4.46409 1.75111 3.26715
-4.47519 1.75091 3.25324
-4.49724 1.75584 3.24733
-4.50039 1.75155 3.22742
-4.50553 1.74927 3.20849
-4.52649 1.75536 3.21355
-4.53561 1.75513 3.19762
-4.5497 1.75596 3.18572
-4.56777 1.75884 3.17681
-4.56098 1.75042 3.14888
-4.57606 1.75227 3.13796
-4.58418 1.75104 3.12204
-4.59222 1.75197 3.11709
-4.60433 1.75277 3.10316
-4.61941 1.75462 3.09225
-4.6325 1.75444 3.07935
-4.65157 1.75832 3.07043
-4.65969 1.75709 3.05451
-4.67478 1.75892 3.0426
-4.67983 1.75882 3.03563
-4.69194 1.75962 3.02171
-4.69707 1.75736 3.00378
-4.70819 1.75714 2.98887
-4.72625 1.76002 2.97996
-4.7304 1.75673 2.96004
-4.74946 1.76063 2.95212
-5.39394 1.75838 1.82785
-5.39708 1.75711 1.80989
-5.40826 1.75675 1.78498
-5.42551 1.75727 1.7521
-5.42266 1.75397 1.73212
-5.41882 1.75066 1.71114
-5.43692 1.75448 1.69822
-5.44205 1.75322 1.68027
-5.44511 1.7531 1.6723
-5.45124 1.75286 1.65534
-5.44939 1.75056 1.63536
-5.46351 1.75235 1.62044
-5.47462 1.75413 1.60549
-5.4628 1.74778 1.5825
-5.47797 1.74944 1.55858
-5.48838 1.74665 1.50469
5.52869 1.68561 0.813502
5.52482 1.68588 0.83153
5.53792 1.69105 0.843356
5.57011 1.70339 0.867935
5.54921 1.69762 0.882179
3.18264 1.71423 4.26923
3.13887 1.71471 4.29956
3.12595 1.71588 4.31064
3.10507 1.71613 4.32679
3.0861 1.71421 4.33097
3.07319 1.71438 4.34206
3.05522 1.71347 4.34721
3.03827 1.71157 4.35337
3.02739 1.71481 4.3694
3.01941 1.71386 4.37248
3.00144 1.71193 4.37664
2.98549 1.71104 4.38278
2.96955 1.71017 4.39091
2.94955 1.7072 4.39211
2.94475 1.71457 4.41704
2.92475 1.7106 4.41825
2.92083 1.71275 4.42825
2.90286 1.71082 4.43241
2.88894 1.71199 4.4435
2.86996 1.71004 4.44567
2.85097 1.70708 4.44786
2.83908 1.7093 4.46192
2.82617 1.71048 4.474
2.80807 1.70331 4.46124
2.80226 1.71068 4.48618
2.7853 1.70877 4.49133
2.77137 1.70992 4.50142
2.75543 1.70904 4.50856
2.74049 1.70918 4.51767
2.72759 1.71139 4.53074
2.71962 1.71144 4.5338
2.6986 1.70742 4.53201
2.68771 1.70965 4.54707
2.66671 1.70565 4.54628
2.65583 1.7099 4.5623
2.63379 1.70484 4.55754
2.62293 1.70811 4.57558
2.61495 1.70816 4.57864
2.60002 1.70831 4.58775
2.58204 1.70637 4.59092
2.57014 1.70857 4.60397
2.55724 1.71077 4.61704
2.53824 1.7088 4.61821
2.5213 1.70791 4.62535
2.51027 1.70588 4.62247
2.49026 1.70188 4.62168
2.48346 1.70925 4.64662
2.46343 1.70522 4.64383
2.45053 1.70742 4.6569
2.43256 1.7065 4.66105
2.41458 1.70454 4.66321
2.40965 1.70668 4.67222
2.39575 1.70788 4.68531
2.37776 1.70692 4.68746
2.36281 1.70704 4.69457
2.34788 1.70718 4.70368
2.33295 1.70832 4.71278
2.31803 1.7095 4.72388
2.30598 1.7054 4.71703
2.29309 1.70862 4.73108
2.27308 1.70562 4.73027
2.25915 1.70678 4.74036
2.24422 1.70792 4.74946
2.22929 1.70807 4.75857
2.21334 1.70817 4.76469
2.20638 1.70926 4.77073
2.19146 1.71042 4.78082
2.17144 1.7074 4.77902
2.15956 1.71063 4.79406
2.13852 1.70658 4.78928
2.12256 1.70668 4.7954
2.11256 1.70468 4.79551
2.09763 1.70581 4.8036
2.08475 1.70906 4.81965
2.06776 1.7081 4.8218
2.03485 1.70729 4.83306
2.01891 1.70842 4.84116
2.00889 1.7064 4.83927
1.99397 1.70756 4.84936
1.97698 1.7066 4.85151
1.95899 1.70463 4.85267
1.94202 1.7047 4.8568
1.92812 1.7069 4.86987
1.91013 1.70493 4.87104
1.90012 1.70392 4.87013
1.89132 1.71131 4.89609
1.85533 1.70735 4.89742
1.83939 1.7085 4.90652
1.81934 1.70441 4.89973
1.80339 1.70552 4.90684
1.79542 1.70557 4.9099
1.74655 1.70588 4.92826
1.71362 1.70603 4.93751
1.65474 1.70531 4.95397
1.60486 1.70557 4.96934
1.48113 1.70619 5.00627
1.47215 1.70623 5.00834
1.42225 1.70646 5.02171
1.13678 1.70869 5.09284
-1.65006 1.72393 4.85758
-1.69214 1.72581 4.84786
-1.71013 1.72782 4.84797
-1.72422 1.72567 4.83711
-1.75199 1.73812 4.86614
-1.78624 1.73165 4.83348
-1.79542 1.72432 4.81066
-1.81343 1.7253 4.80878
-1.82948 1.72523 4.8029
-1.85355 1.72511 4.79408
-1.87056 1.72709 4.79218
-1.8876 1.72703 4.78731
-1.91672 1.7248 4.77056
-1.95176 1.72775 4.76578
-2.67313 1.73157 4.45311
-2.76955 1.73081 4.39784
-2.81671 1.73252 4.37617
-2.82683 1.7303 4.36128
-2.85078 1.73539 4.36638
-2.86287 1.73423 4.35449
-2.86597 1.73104 4.34156
-2.8909 1.73819 4.35064
-2.90005 1.73391 4.33177
-2.91905 1.73691 4.33087
-2.94005 1.74093 4.33097
-2.95214 1.73976 4.31908
-2.9593 1.73445 4.29821
-2.97622 1.74061 4.30824
-2.98634 1.73838 4.29235
-2.9935 1.73308 4.27148
-3.00955 1.734 4.26559
-3.02462 1.73386 4.2557
-3.03771 1.73371 4.2448
-3.06266 1.73982 4.2509
-3.06672 1.73768 4.24196
-3.07981 1.73752 4.23006
-3.09191 1.73533 4.21718
-3.11093 1.73932 4.21527
-3.11808 1.73403 4.19539
-3.13117 1.73286 4.18351
-3.1492 1.73581 4.1796
-3.15722 1.73677 4.17665
-3.16833 1.73456 4.16176
-3.18636 1.73651 4.15787
-3.19944 1.73636 4.14697
-3.22958 1.73712 4.12918
-3.24563 1.73802 4.12229
-3.25464 1.74 4.12033
-3.25883 1.73365 4.09645
-3.27883 1.73765 4.09554
-3.29094 1.73545 4.08166
-3.30601 1.73633 4.07276
-3.31908 1.73619 4.06286
-3.33217 1.73502 4.05097
-3.33623 1.7339 4.04302
-3.35328 1.73581 4.03612
-3.3634 1.7336 4.02123
-3.37846 1.73448 4.01232
-3.40441 1.74158 4.01842
-3.41157 1.73729 3.99853
-3.42366 1.73612 3.98664
-3.43366 1.73812 3.98568
-3.45984 1.73778 3.96188
-3.47689 1.7387 3.956
-3.48304 1.73541 3.93609
-3.49514 1.73423 3.9232
-3.51118 1.73615 3.91729
-3.54439 1.73576 3.88954
-3.55847 1.73662 3.87963
-3.58464 1.7363 3.85683
-3.60477 1.73606 3.83998
-3.62776 1.74108 3.84008
-3.64084 1.74093 3.82918
-3.64501 1.7356 3.80729
-3.66404 1.73856 3.80339
-3.6801 1.74045 3.79548
-3.68625 1.73616 3.77559
-3.7032 1.74228 3.78262
-3.71232 1.74005 3.76672
-3.72838 1.74192 3.75782
-3.74742 1.74486 3.75291
-3.7486 1.73851 3.72901
-3.76565 1.74143 3.7231
-3.77973 1.74128 3.71221
-3.78478 1.74118 3.70524
-3.79589 1.73998 3.69134
-3.82187 1.74603 3.69345
-3.83396 1.74586 3.68154
-3.84903 1.74772 3.67163
-3.85518 1.74445 3.65272
-3.87421 1.74739 3.64782
-3.86637 1.74007 3.62686
-3.89235 1.74712 3.62896
-3.92329 1.75624 3.63606
-3.91655 1.74575 3.60316
-3.97069 1.75349 3.58345
-3.99398 1.74995 3.54567
-4.01402 1.75389 3.54076
-4.01817 1.7496 3.52085
-4.0392 1.75455 3.51694
-4.05328 1.7544 3.50604
-4.05734 1.75428 3.49808
-4.0744 1.75618 3.49017
-4.0855 1.75598 3.47626
-4.09263 1.75373 3.45934
-4.1087 1.75561 3.45044
-4.1198 1.75441 3.43654
-4.13289 1.75524 3.42462
-4.13794 1.75516 3.41866
-4.14706 1.75293 3.40276
-4.16214 1.75477 3.39184
-4.17422 1.75462 3.38093
-4.18633 1.75442 3.36703
-4.18451 1.74907 3.34309
-4.20356 1.75198 3.33619
-4.21159 1.75292 3.33223
-4.22071 1.75169 3.31632
-4.22784 1.74945 3.2994
-4.25284 1.75545 3.2985
-4.25302 1.75011 3.27558
-4.26413 1.74991 3.26167
-4.27722 1.75074 3.24975
-4.2922 1.75477 3.2508
-4.29238 1.74943 3.22788
-4.31043 1.75234 3.22097
-4.3116 1.74801 3.19904
-4.32667 1.74987 3.18913
-4.34076 1.75071 3.17722
-4.34988 1.74949 3.1623
-4.35394 1.74937 3.15433
-4.37497 1.75332 3.14943
-4.38011 1.75104 3.1305
-4.3932 1.75188 3.11959
-4.40132 1.75065 3.10367
-4.41839 1.75252 3.09377
-4.41856 1.74819 3.07183
-4.42659 1.74914 3.06787
-4.42974 1.74585 3.04794
-4.44482 1.74769 3.03703
-4.45394 1.74648 3.02211
-4.47796 1.75244 3.01821
-4.47415 1.74608 2.99427
-4.49519 1.751 2.98835
-4.50025 1.75089 2.98039
-4.50438 1.74763 2.96247
-4.52245 1.75051 2.95356
-4.53455 1.75132 2.94064
-4.55062 1.75319 2.93073
-4.56669 1.75605 2.92081
-4.56189 1.74968 2.89586
-4.58592 1.75462 2.89097
-4.59694 1.75758 2.88801
-4.60208 1.75532 2.87008
-4.60721 1.75307 2.85315
-4.62826 1.75797 2.84523
-4.63042 1.75367 2.82531
-4.6445 1.75552 2.81439
-4.65163 1.75427 2.79746
-4.67474 1.75805 2.78157
-4.69281 1.76093 2.77266
-4.69595 1.75865 2.75372
-5.28 1.75622 1.68701
-5.28207 1.75509 1.67804
-5.29232 1.75459 1.64412
-5.29845 1.75434 1.62717
-5.30871 1.75285 1.59326
-5.30884 1.75058 1.57529
-5.30991 1.75045 1.5663
-5.31604 1.7502 1.54935
-5.32715 1.75199 1.5344
-5.33427 1.75176 1.51846
-5.33157 1.74618 1.47952
-5.34965 1.75101 1.46758
-5.3478 1.74773 1.44861
-5.34588 1.74557 1.43763
-5.37409 1.75117 1.40975
3.25399 1.71592 4.04864
3.23905 1.71507 4.05776
3.2112 1.71538 4.07797
3.19526 1.7145 4.08511
3.18436 1.7157 4.09817
3.17538 1.71575 4.10124
3.15538 1.71178 4.10245
3.14751 1.71504 4.11946
3.12955 1.71312 4.12463
3.11259 1.71121 4.12978
3.0936 1.70825 4.13197
3.07866 1.70738 4.1401
3.06969 1.70745 4.14416
3.06182 1.71071 4.16118
3.04688 1.70984 4.1693
3.03599 1.71205 4.18336
3.01701 1.70911 4.18654
2.99903 1.70717 4.18971
2.98814 1.70938 4.20376
2.97612 1.70635 4.20089
2.96625 1.70961 4.21792
2.95029 1.70871 4.22406
2.93231 1.70576 4.22724
2.92446 1.71005 4.24623
2.9075 1.70915 4.25238
2.89357 1.7093 4.26148
2.88154 1.70525 4.25763
2.86965 1.70746 4.27169
2.85065 1.70449 4.27288
2.84078 1.70773 4.2889
2.81976 1.70372 4.28712
2.81191 1.70802 4.30712
2.7919 1.70402 4.30633
2.78493 1.70409 4.31038
2.76798 1.70319 4.31652
2.75709 1.70642 4.33156
2.74011 1.70447 4.33472
2.72417 1.70359 4.34185
2.7082 1.70268 4.34699
2.69125 1.70178 4.35313
2.68733 1.70393 4.36313
2.6744 1.70508 4.37321
2.65136 1.70003 4.36846
2.6425 1.7033 4.38648
2.62755 1.70342 4.39359
2.61464 1.70459 4.40467
2.59464 1.7016 4.40487
2.5897 1.70272 4.41289
2.57476 1.70285 4.421
2.55779 1.70193 4.42514
2.54487 1.7031 4.43622
2.52487 1.70011 4.43642
2.51601 1.70439 4.45442
2.50107 1.70451 4.46254
2.49005 1.70148 4.45966
2.4622 1.70379 4.47984
2.4133 1.70104 4.49425
2.4004 1.70324 4.50732
2.39242 1.70228 4.50939
2.37646 1.70238 4.51551
2.36153 1.70252 4.52462
2.34456 1.70159 4.52877
2.33164 1.70275 4.53885
2.31772 1.70492 4.54992
2.30974 1.70396 4.552
2.29481 1.7051 4.56109
2.27783 1.70316 4.56425
2.24591 1.70234 4.57551
2.21603 1.70359 4.59071
2.21109 1.70572 4.59972
2.19209 1.70274 4.59991
2.17715 1.70387 4.60801
2.14828 1.70514 4.62521
2.04353 1.70271 4.65904
2.01366 1.70396 4.67524
1.87104 1.70382 4.72733
-1.17838 1.72099 4.81406
-1.24444 1.7229 4.80553
-1.66731 1.72448 4.69168
-1.71638 1.72637 4.68202
-1.74551 1.72414 4.66527
-1.76643 1.7303 4.67533
-1.77348 1.72822 4.66942
-1.79245 1.73227 4.6725
-1.80848 1.73223 4.66862
-1.82059 1.72903 4.65476
-1.83761 1.73 4.65187
-1.85657 1.73408 4.65695
-1.87065 1.73193 4.64609
-1.88473 1.73079 4.63621
-1.89667 1.73492 4.64424
-1.90977 1.73174 4.63139
-1.9209 1.72749 4.61453
-1.94085 1.7326 4.62061
-1.95492 1.73146 4.61073
-1.96998 1.73035 4.60286
-1.97997 1.73239 4.6049
-1.99404 1.73125 4.59502
-2.00711 1.72913 4.58615
-2.02611 1.73214 4.58625
-2.04115 1.73206 4.58036
-2.05522 1.73094 4.57149
-2.07224 1.73291 4.56858
-2.07437 1.72666 4.55169
-2.09041 1.7276 4.5468
-2.10841 1.73061 4.54689
-2.12248 1.72847 4.53702
-2.13752 1.72941 4.53212
-2.1575 1.73245 4.53423
-2.17353 1.7344 4.53032
-2.18057 1.73334 4.52539
-2.19661 1.73427 4.52049
-2.20969 1.73212 4.50962
-2.22278 1.72995 4.49775
-2.24374 1.73504 4.50284
-2.25781 1.73392 4.49396
-2.27088 1.73278 4.48407
-2.27891 1.73273 4.48013
-2.29002 1.72953 4.46626
-2.30312 1.72734 4.45339
-2.32408 1.73243 4.45847
-2.33813 1.73234 4.45158
-2.35221 1.73119 4.4407
-2.3722 1.73523 4.44279
-2.38935 1.73095 4.42298
-2.40145 1.72875 4.4091
-2.44661 1.72847 4.38845
-2.48276 1.7282 4.36872
-2.50177 1.7312 4.36782
-2.55704 1.72869 4.33127
-2.5769 1.73799 4.35028
-2.58209 1.73162 4.32541
-2.60011 1.73359 4.32252
-2.60924 1.72934 4.30565
-2.63219 1.73545 4.31173
-2.64033 1.73117 4.29285
-2.66032 1.7352 4.29394
-2.66243 1.731 4.28002
-2.67946 1.73295 4.27612
-2.70142 1.73804 4.28121
-2.7066 1.7317 4.25834
-2.72759 1.73573 4.25944
-2.74461 1.73769 4.25554
-2.75374 1.73444 4.23865
-2.76275 1.73543 4.2377
-2.78175 1.73843 4.2368
-2.79583 1.7383 4.22691
-2.81187 1.73922 4.22101
-2.8289 1.74117 4.21711
-2.84199 1.74002 4.20623
-2.85506 1.73988 4.19633
-2.86605 1.7419 4.19738
-2.88012 1.74178 4.18849
-2.89814 1.74475 4.18558
-2.91814 1.74775 4.18468
-2.94629 1.74749 4.1659
-2.98245 1.74819 4.14416
-3.05279 1.74856 4.09867
-3.09093 1.75032 4.08093
-3.10105 1.74809 4.06504
-3.12721 1.7468 4.04425
-3.14028 1.74666 4.03435
-3.16732 1.75059 4.0285
-3.17052 1.74322 4.00363
-3.19766 1.74396 3.98482
-3.21569 1.74691 3.98091
-3.23867 1.75194 3.98201
-3.23481 1.74567 3.96407
-3.24196 1.7414 3.94518
-3.26197 1.74538 3.94328
-3.27209 1.74317 3.92838
-3.28812 1.74511 3.92347
-3.30021 1.74394 3.91158
-3.31726 1.74586 3.90568
-3.32529 1.74681 3.90173
-3.34332 1.74975 3.89682
-3.34748 1.74444 3.87593
-3.35957 1.74327 3.86403
-3.37958 1.74725 3.86212
-3.39167 1.74709 3.85022
-3.39484 1.74076 3.82833
-3.40783 1.7448 3.83037
-3.41001 1.73845 3.80647
-3.43002 1.74243 3.80457
-3.45103 1.74643 3.80367
-3.45619 1.74213 3.78277
-3.46332 1.73888 3.76586
-3.48234 1.74183 3.76196
-3.49037 1.74278 3.75801
-3.50543 1.74367 3.75011
-3.52644 1.74867 3.74919
-3.53358 1.7454 3.73029
-3.53873 1.74112 3.71139
-3.56371 1.74717 3.71349
-3.56985 1.74391 3.69558
-3.57093 1.74074 3.68464
-3.59789 1.74882 3.68872
-3.60007 1.74248 3.66583
-3.6191 1.74644 3.66191
-3.6282 1.74424 3.64801
-3.64526 1.74613 3.64011
-3.66131 1.74804 3.6332
-3.66736 1.74795 3.62725
-3.6844 1.75088 3.62133
-3.68956 1.74659 3.60143
