-3.50877 1.7345 5.02941
-3.5209 1.73126 5.01255
-3.54391 1.73525 5.01066
-3.561 1.7351 4.99979
-3.57808 1.73495 4.98892
-3.58514 1.73383 4.98099
-3.59924 1.73264 4.96711
-3.62423 1.73767 4.96823
-3.65048 1.7332 4.93549
-3.66658 1.73302 4.92261
-3.68662 1.73496 4.91773
-3.68873 1.73174 4.90279
-3.71175 1.73471 4.89992
-3.71992 1.73039 4.87804
-3.74392 1.7344 4.87717
-3.75804 1.73318 4.86229
-3.77215 1.73197 4.84741
-3.79419 1.73491 4.84253
-3.79728 1.73174 4.8306
-3.81634 1.73262 4.82173
-3.83045 1.73242 4.80784
-3.85645 1.73644 4.80797
-3.8755 1.73835 4.80109
-3.88466 1.73503 4.7792
-3.90372 1.73593 4.77133
-3.91895 1.73149 4.74151
-3.94891 1.73859 4.74663
-3.9692 1.73304 4.70886
-3.98628 1.73289 4.69799
-4.0103 1.73686 4.69511
-4.01438 1.73472 4.68517
-4.0275 1.73349 4.66929
-4.0577 1.73311 4.64252
-4.07677 1.73399 4.63365
-4.10498 1.7326 4.60588
-4.11897 1.73561 4.60594
-4.16428 1.73404 4.56529
-4.18334 1.73593 4.55741
-4.2185 1.73765 4.53665
-4.22258 1.73649 4.52569
-4.24881 1.73405 4.49492
-4.26789 1.73591 4.48504
-4.30205 1.73661 4.46328
-4.36455 1.73468 4.39777
-4.3856 1.73659 4.3909
-4.41382 1.73617 4.36111
-4.42286 1.7361 4.35618
-4.47015 1.73757 4.31851
-4.48724 1.73841 4.30663
-4.50035 1.73819 4.29173
-4.52141 1.74009 4.28386
-4.51854 1.73582 4.2659
-4.53364 1.73664 4.253
-4.54675 1.73543 4.23811
-4.57377 1.7404 4.23524
-4.58093 1.7371 4.21434
-4.59901 1.73896 4.20445
-4.61411 1.73877 4.19056
-4.62624 1.73752 4.17367
-4.6452 1.74261 4.17874
-4.64541 1.7372 4.15082
-4.67243 1.74217 4.14794
-4.68455 1.74094 4.13205
-4.69172 1.73762 4.11015
-4.70086 1.73636 4.09224
-4.73284 1.74341 4.09437
-4.726 1.7371 4.07341
-4.75698 1.74414 4.07454
-4.75918 1.73975 4.04862
-4.77826 1.74162 4.03874
-4.7874 1.73934 4.01984
-4.80449 1.74018 4.00795
-4.82059 1.741 3.99506
-4.83758 1.74502 3.99613
-4.84374 1.74272 3.9752
-4.85586 1.74148 3.95831
-4.87294 1.74333 3.94741
-4.89103 1.74416 3.93553
-4.90018 1.74289 3.91662
-4.92224 1.74578 3.90874
-4.9273 1.74465 3.89979
-4.94341 1.74646 3.88589
-4.95056 1.74317 3.86599
-4.97659 1.74811 3.86111
-4.98276 1.74579 3.83919
-5.00382 1.74869 3.8313
-5.00999 1.74537 3.80939
-5.01605 1.74525 3.80144
-5.03214 1.74607 3.78855
-5.05123 1.74791 3.77666
-5.05738 1.74562 3.75674
-5.07945 1.7495 3.74785
-5.09356 1.74929 3.73295
-5.10568 1.74906 3.71705
-5.11573 1.74998 3.71111
-5.12685 1.74973 3.69419
-5.14494 1.75157 3.6823
-5.16204 1.75339 3.6694
-5.17516 1.75316 3.6535
-5.19524 1.75501 3.64262
-5.19941 1.75269 3.62069
-5.22843 1.75865 3.61682
-5.22852 1.75647 3.60485
-5.25159 1.75936 3.59598
-5.26073 1.75808 3.57706
-5.28697 1.75863 3.54525
-5.35664 1.75936 3.45675
-5.36081 1.75602 3.43383
-5.36597 1.75372 3.4129
-5.38904 1.7566 3.40403
-5.3961 1.75749 3.39607
-5.40623 1.75623 3.37816
-5.41139 1.75392 3.35723
-5.41954 1.75264 3.33831
-5.43266 1.75342 3.32239
-5.45075 1.75524 3.3095
-5.45592 1.75292 3.28757
-5.456 1.75075 3.2766
-5.47411 1.75256 3.26271
-5.4932 1.75539 3.25081
-5.49636 1.75207 3.22888
-5.50451 1.75078 3.20896
-5.52659 1.75465 3.19906
-5.52776 1.75131 3.17612
-5.53283 1.75118 3.16716
-5.56387 1.75711 3.1613
-5.55111 1.74964 3.13031
-5.57518 1.75351 3.12044
-5.59128 1.75532 3.10653
-5.60142 1.75506 3.08861
-5.61255 1.7548 3.07069
-5.61961 1.75469 3.06275
-5.6178 1.75033 3.03879
-5.63888 1.75417 3.02689
-5.64703 1.75289 3.00797
-5.65816 1.75263 2.99006
-5.67327 1.75442 2.97514
-5.69635 1.75829 2.96526
-5.6815 1.75198 2.94524
-5.71056 1.75789 2.93737
-5.71572 1.75558 2.91644
-5.72884 1.75635 2.90052
-5.74395 1.75814 2.88561
-5.76604 1.76198 2.87371
-5.77617 1.76172 2.85579
-5.76232 1.75543 2.83678
-5.79038 1.76132 2.8279
-5.79852 1.76004 2.80898
-5.81164 1.76081 2.79306
-5.82179 1.76054 2.77414
-5.8379 1.76233 2.75924
-5.83907 1.76 2.73728
-5.84722 1.75871 2.71735
-5.85825 1.76065 2.71241
-5.87337 1.76242 2.69649
-5.88867 1.76085 2.65763
-5.8988 1.7606 2.6397
-5.9169 1.7634 2.6258
-5.91609 1.76005 2.60184
-5.93111 1.763 2.59791
-5.95438 1.7645 2.56305
-5.96252 1.76422 2.54412
-5.97565 1.76498 2.5272
-5.97582 1.76164 2.50425
2.4532 1.72432 5.53572
2.21188 1.72483 5.62754
2.15605 1.7252 5.64996
2.14607 1.72524 5.65203
2.12813 1.72537 5.66017
2.11019 1.7265 5.66829
2.09123 1.72559 5.67345
2.0523 1.72475 5.68275
2.03233 1.72484 5.6879
2.00747 1.72712 5.70606
1.96445 1.72312 5.70444
1.94857 1.72636 5.71951
1.92755 1.72334 5.71772
1.90245 1.71716 5.704
1.88834 1.71196 5.69018
1.8653 1.7089 5.6854
1.86581 1.72789 5.75212
1.84585 1.72798 5.75727
1.82688 1.72805 5.76141
1.78 1.72832 5.77776
1.6632 1.72779 5.80466
1.63322 1.72585 5.80691
1.59429 1.72602 5.8172
1.57634 1.72712 5.82332
1.55739 1.72724 5.83046
1.49055 1.72859 5.85095
1.47159 1.72867 5.85609
1.44956 1.72665 5.85329
1.43161 1.72775 5.85941
1.41162 1.72679 5.86157
1.40267 1.72789 5.86763
1.38062 1.7248 5.86084
1.36375 1.72906 5.8779
1.34477 1.72812 5.88106
1.32482 1.72923 5.8872
1.30583 1.72827 5.88935
1.27585 1.72732 5.89159
1.2369 1.72745 5.89889
1.16008 1.72985 5.92243
1.14903 1.72777 5.91654
1.1301 1.72992 5.92566
1.09116 1.73006 5.93395
0.796494 1.73091 5.97916
0.747526 1.73101 5.98353
0.647511 1.72705 5.98234
0.598635 1.73132 5.99865
0.489706 1.73154 6.00847
0.360724 1.72966 6.01147
0.28181 1.73188 6.02303
0.211843 1.73299 6.02754
0.171821 1.73198 6.02486
0.13283 1.73202 6.02615
0.102822 1.73103 6.02539
0.0628234 1.73105 6.02569
0.0406946 1.72985 5.87586
0.0206801 1.72983 5.87401
0.00162601 1.72675 5.8672
-0.0173038 1.72989 5.8763
-0.0374036 1.72571 5.86351
-0.0563027 1.72992 5.87659
-0.0663175 1.7299 5.87466
-0.0862165 1.7341 5.88775
-0.105417 1.72573 5.86202
-0.124347 1.72888 5.87112
-0.143438 1.72572 5.8593
-0.163369 1.72787 5.86842
-0.18246 1.7247 5.85661
-0.19236 1.7289 5.86963
-0.211336 1.72996 5.87276
-0.231358 1.72993 5.86991
-0.250303 1.73205 5.87702
-0.270364 1.72994 5.8692
-0.289364 1.72996 5.86934
-0.308486 1.72573 5.85355
-0.318324 1.73205 5.87453
-0.337424 1.72787 5.86173
-0.357346 1.73204 5.87182
-0.376368 1.731 5.86898
-0.396306 1.73414 5.87709
-0.416297 1.73517 5.87822
-0.434443 1.7299 5.85944
-0.444404 1.73098 5.86449
-0.464388 1.73202 5.86663
-0.48341 1.73199 5.86377
-0.50334 1.73514 5.87288
-0.522454 1.73093 5.85808
-0.542392 1.73407 5.86619
-0.571414 1.73404 5.86341
-0.591367 1.73615 5.86953
-0.667533 1.73188 5.84816
-0.686547 1.73186 5.8463
-0.717468 1.73603 5.85648
-0.823555 1.73693 5.84526
-1.00674 1.73769 5.82163
-2.05063 1.73966 5.57343
-2.07064 1.74166 5.57255
-2.09674 1.74049 5.55976
-2.11284 1.73829 5.54591
-2.13287 1.73925 5.54205
-2.14995 1.73811 5.53219
-2.16604 1.73595 5.52034
-2.17311 1.73382 5.51143
-2.19214 1.73477 5.50756
-2.21314 1.73677 5.50668
-2.22629 1.73249 5.48684
-2.24826 1.73556 5.49097
-2.26731 1.73649 5.48509
-2.28241 1.73429 5.47124
-2.28948 1.73216 5.46232
-2.30853 1.73309 5.45645
-2.32854 1.73407 5.45459
-2.34661 1.73395 5.44572
-2.35974 1.7297 5.42788
-2.3778 1.72959 5.42002
-2.39782 1.73158 5.41814
-2.40783 1.73255 5.4162
-2.42982 1.73458 5.41734
-2.44395 1.73234 5.40047
-2.46003 1.73019 5.38963
-2.47809 1.73009 5.38176
-2.49614 1.73101 5.37588
-2.5142 1.73091 5.36802
-2.52716 1.73399 5.37307
-2.54325 1.73282 5.36121
-2.56229 1.73376 5.35634
-2.58329 1.73576 5.35547
-2.59939 1.73358 5.34262
-2.61548 1.73242 5.33076
-2.63452 1.73336 5.32588
-2.65355 1.7353 5.321
-2.66061 1.73318 5.31308
-2.68556 1.7393 5.32018
-2.69967 1.73609 5.30533
-2.71971 1.73703 5.30047
-2.73974 1.73899 5.29659
-2.75188 1.73572 5.27773
-2.77191 1.73667 5.27386
-2.78487 1.73975 5.27892
-2.80293 1.74065 5.27104
-2.81902 1.73948 5.25918
-2.84003 1.74147 5.2573
-2.86006 1.74342 5.25343
-2.88518 1.7422 5.23763
-2.90718 1.74522 5.23775
-2.95939 1.74484 5.21015
-2.99566 1.74034 5.17448
-3.01471 1.74126 5.16861
-3.02784 1.73801 5.15075
-3.04788 1.73995 5.14588
-3.06495 1.73982 5.13701
-3.08793 1.74387 5.13912
-3.09416 1.73643 5.10927
-3.10319 1.73738 5.10533
-3.11137 1.73203 5.08146
-3.13536 1.73606 5.08258
-3.14848 1.73284 5.06673
-3.16655 1.73371 5.05785
-3.18165 1.73253 5.04498
-3.20364 1.73555 5.0451
-3.21283 1.7312 5.02123
-3.22481 1.73324 5.02329
-3.24386 1.73415 5.01642
-3.25501 1.73088 4.99755
-3.27307 1.73177 4.98967
-3.28421 1.7285 4.9708
-3.31116 1.73461 4.97692
-3.33036 1.73023 4.95112
-3.34545 1.73007 4.93924
-3.3635 1.73098 4.93236
-3.39568 1.72965 4.90862
-3.42685 1.72933 4.88585
-3.44281 1.73343 4.89191
-3.45593 1.7312 4.87604
-3.47102 1.73003 4.86417
-3.4871 1.72988 4.85329
-3.54438 1.73036 4.81571
-3.57854 1.73008 4.79497
-3.62679 1.73062 4.76232
-3.80668 1.73198 4.64364
-4.27947 1.73481 4.27511
-4.41026 1.73734 4.17004
-4.44442 1.74003 4.14826
-4.46469 1.73653 4.11346
-4.47968 1.73956 4.11453
-4.49081 1.73831 4.09763
-4.5069 1.73913 4.08473
-4.51506 1.73584 4.06484
-4.54107 1.74183 4.06295
-4.55319 1.7406 4.04706
-4.5653 1.73939 4.03216
-4.57534 1.74132 4.02721
-4.59759 1.73885 3.99441
-4.62261 1.74281 3.99054
-4.64267 1.74571 3.98265
-4.64089 1.73928 3.95372
-4.66394 1.7432 3.94784
-4.67099 1.7431 3.94089
-4.68807 1.74495 3.92999
-4.70317 1.74476 3.91611
-4.70337 1.73937 3.89018
-4.72245 1.74124 3.8803
-4.74251 1.74412 3.87141
-4.75661 1.74494 3.8585
-4.76069 1.74379 3.84854
-4.7738 1.74358 3.83364
-4.78989 1.7444 3.82075
-4.80102 1.74317 3.80485
-4.82407 1.74708 3.79797
-4.83718 1.74687 3.78307
-4.8493 1.74664 3.76716
-4.87234 1.75057 3.76127
-4.88039 1.75147 3.75432
-4.89748 1.75231 3.74243
-4.90762 1.75105 3.72453
-4.91973 1.75083 3.70962
-4.93583 1.75165 3.69673
-4.95689 1.75553 3.68783
-4.97597 1.75739 3.67694
-5.22425 1.75808 3.37576
-5.23229 1.759 3.36981
-5.24442 1.75875 3.3529
-5.25753 1.75954 3.33798
-5.28277 1.76008 3.30616
-5.28694 1.75676 3.28424
-5.30104 1.75756 3.27033
-5.30312 1.7564 3.25936
-5.31325 1.75616 3.24244
-5.32936 1.75696 3.22855
-5.33352 1.75466 3.20761
-5.3526 1.75749 3.19571
-5.35876 1.7552 3.17579
-5.37088 1.75597 3.15987
-5.37694 1.75586 3.15191
-5.40199 1.76076 3.14403
-5.39521 1.75434 3.11607
-5.40932 1.75513 3.10116
-5.42442 1.75693 3.08725
-5.43356 1.75567 3.06933
-5.45265 1.75851 3.05743
-5.46269 1.76042 3.05148
-5.46784 1.75813 3.03155
-5.47699 1.75686 3.01263
-5.49209 1.75866 2.99872
-5.49923 1.75738 2.97979
-5.50937 1.75713 2.96187
-5.52248 1.75791 2.94695
-5.52962 1.75664 2.92802
-5.53768 1.75754 2.92107
-5.55976 1.76139 2.91017
-5.57188 1.76215 2.89325
-5.583 1.76192 2.87734
-5.59115 1.76164 2.8584
-5.60127 1.7614 2.84148
-5.61439 1.76217 2.82556
-5.98423 1.75195 2.05239
-5.9824 1.74861 2.02943
3.29983 1.72215 4.95129
3.21417 1.72088 4.99696
3.19637 1.72529 5.02403
3.17742 1.72439 5.03019
3.13343 1.71845 5.03261
3.12258 1.72174 5.05165
3.1016 1.7198 5.05483
3.09669 1.72198 5.06684
3.07367 1.71797 5.06507
3.06283 1.72229 5.08609
3.03475 1.71615 5.07539
3.02288 1.71842 5.09345
3.00291 1.7175 5.09762
2.98903 1.71873 5.11271
2.97702 1.71772 5.11181
2.96414 1.71997 5.12788
2.94113 1.71596 5.12611
2.92927 1.71925 5.14515
2.91234 1.71939 5.15428
2.89745 1.72161 5.16836
2.87545 1.71863 5.16857
2.86562 1.72397 5.19157
2.85056 1.71987 5.18374
2.83161 1.71897 5.1899
2.82481 1.72537 5.21686
2.7947 1.71717 5.2022
2.78487 1.72252 5.2252
2.76084 1.71848 5.22144
2.75 1.7228 5.24246
2.73087 1.71556 5.22571
2.72816 1.72513 5.2636
2.70311 1.72004 5.25686
2.69025 1.72433 5.2759
2.66824 1.72133 5.27511
2.65537 1.72459 5.29216
2.63337 1.72161 5.29237
2.60442 1.71973 5.29961
2.5946 1.72508 5.32261
2.57361 1.72311 5.3238
2.53773 1.72338 5.34007
2.50979 1.72251 5.34829
2.48471 1.71639 5.33857
2.47288 1.72172 5.36058
2.45596 1.72188 5.37071
2.43904 1.72305 5.38182
2.40416 1.72432 5.39807
2.39519 1.72438 5.40214
2.37317 1.72135 5.39935
2.3542 1.71943 5.40352
2.34033 1.72369 5.42056
2.30139 1.72184 5.42888
2.28548 1.72303 5.44099
2.2816 1.72726 5.45696
2.25957 1.72422 5.45317
2.24571 1.7275 5.47123
2.22676 1.72762 5.47837
2.20065 1.72041 5.46367
2.1827 1.72053 5.4708
2.1617 1.71855 5.47099
2.15476 1.72067 5.47901
2.13885 1.72286 5.4911
2.12195 1.72405 5.50321
2.09991 1.721 5.49942
2.08094 1.72006 5.50258
2.06505 1.7233 5.51766
2.04404 1.72028 5.51586
2.02996 1.71614 5.50602
2.01304 1.71731 5.51614
1.99304 1.71533 5.51731
1.97202 1.71231 5.51452
1.95817 1.71761 5.53455
1.93511 1.71251 5.52679
1.91614 1.71258 5.53094
1.91433 1.71994 5.55485
1.89435 1.719 5.55801
1.87435 1.71701 5.55819
1.85433 1.715 5.55637
1.83538 1.7151 5.56251
1.81742 1.7152 5.56865
1.76538 1.70917 5.56413
1.75361 1.71661 5.59311
1.73771 1.71981 5.60618
1.72079 1.72098 5.6173
1.70696 1.72632 5.63933
1.68695 1.72532 5.63849
1.67696 1.72434 5.63958
1.66107 1.72756 5.65365
1.63798 1.72241 5.6429
1.61902 1.7225 5.64805
1.60211 1.72469 5.66014
1.58417 1.72581 5.66726
1.56624 1.72697 5.67738
1.55417 1.72283 5.66753
1.53623 1.72396 5.67565
1.5183 1.72611 5.68476
1.49727 1.72308 5.68196
1.47728 1.72211 5.68312
1.46034 1.72324 5.69124
1.44447 1.7275 5.70829
1.42829 1.71916 5.68454
1.4155 1.72657 5.71153
1.39241 1.72242 5.70076
1.37446 1.72252 5.7069
1.35343 1.7205 5.70408
1.33652 1.72269 5.71618
1.31757 1.72379 5.72231
1.30754 1.72174 5.71841
1.28859 1.72284 5.72454
1.26962 1.72291 5.72868
1.24962 1.72193 5.72885
1.2327 1.7241 5.73994
1.21476 1.72522 5.74706
1.1958 1.72532 5.75321
1.18579 1.7243 5.7513
1.16267 1.71909 5.73655
1.14577 1.7223 5.74963
1.12575 1.72027 5.74681
1.10678 1.72034 5.75095
1.08885 1.72249 5.76005
1.06989 1.72258 5.7652
1.05987 1.72155 5.76329
1.04299 1.7258 5.77935
1.02298 1.72379 5.77753
1.00609 1.72801 5.7916
0.986079 1.72601 5.79078
0.967102 1.72606 5.79392
0.94711 1.72609 5.79507
0.938148 1.72717 5.80013
0.918125 1.72514 5.79731
0.899164 1.72623 5.80243
0.881241 1.72839 5.81254
0.862249 1.72842 5.81368
0.84328 1.7285 5.81782
0.824334 1.72961 5.82495
0.815357 1.73066 5.828
0.793226 1.72443 5.81126
0.775334 1.72865 5.82533
0.755311 1.72662 5.82252
0.737381 1.72876 5.83162
0.717373 1.72776 5.83079
0.697312 1.72466 5.82298
0.687304 1.72465 5.82206
0.668335 1.72473 5.8262
0.649397 1.72686 5.83431
0.629366 1.72481 5.83049
0.609305 1.72171 5.82269
0.591413 1.72593 5.83676
0.573529 1.73017 5.85184
0.562444 1.72601 5.84098
0.54456 1.73025 5.85605
0.523453 1.72605 5.84227
0.505522 1.7282 5.85138
0.486577 1.73032 5.85849
0.466577 1.72933 5.85866
0.447585 1.72936 5.8598
0.4364 1.72201 5.83599
0.417524 1.72626 5.85207
0.397478 1.72419 5.84625
0.378517 1.72528 5.85138
0.35954 1.72634 5.85451
0.340564 1.72639 5.85765
0.321672 1.73062 5.87173
0.311557 1.7264 5.85687
0.29158 1.72646 5.86002
0.272588 1.72649 5.86116
0.253604 1.72753 5.86329
0.233582 1.7265 5.86045
0.214628 1.7276 5.86658
0.195652 1.72866 5.86971
0.185636 1.72764 5.8678
0.166614 1.72661 5.86496
0.146599 1.7266 5.86311
0.127677 1.72976 5.8732
0.108631 1.72768 5.86738
0.0887089 1.73084 5.87748
0.069609 1.72667 5.86469
0.0597097 1.73087 5.8777
-2.13669 1.74067 5.30002
-2.17277 1.74153 5.28928
-2.19179 1.7435 5.28639
-2.20789 1.74133 5.27455
-2.21592 1.74128 5.27061
-2.22906 1.73701 5.25177
-2.25397 1.7432 5.26386
-2.26613 1.7379 5.24303
-2.28514 1.73989 5.24114
-2.30417 1.74084 5.23727
-2.3232 1.74279 5.23339
-2.34633 1.73955 5.21561
-2.36241 1.73941 5.20573
-2.37948 1.73829 5.19687
-2.40341 1.74342 5.20498
-2.41555 1.74017 5.18712
-2.43851 1.74426 5.19223
-2.44459 1.7421 5.1813
-2.45869 1.73992 5.16844
-2.47575 1.73981 5.16057
-2.49775 1.74283 5.16069
-2.51382 1.7417 5.15183
-2.57107 1.73924 5.11829
-2.596 1.74539 5.12739
-2.60421 1.739 5.10054
-2.6403 1.74085 5.08878
-2.67131 1.74384 5.08697
-2.70445 1.74358 5.06822
-2.75759 1.74534 5.0496
-2.77171 1.74312 5.03373
-2.79877 1.74402 5.02592
-2.86702 1.74456 4.99242
-2.89508 1.74648 4.98561
-2.94332 1.74504 4.95399
-2.98956 1.74259 4.92137
-2.99266 1.7394 4.90844
-3.01565 1.74444 4.91053
-3.02186 1.73703 4.88269
-3.04089 1.73899 4.8788
-3.05598 1.73782 4.86693
-3.0681 1.73559 4.85105
-3.0911 1.73861 4.85118
-3.09518 1.73645 4.84024
-3.1083 1.73424 4.82537
-3.12832 1.73721 4.82248
-3.14341 1.73604 4.81061
-3.16343 1.73799 4.80673
-3.16962 1.73264 4.78285
-3.18569 1.73251 4.77297
-3.20882 1.73127 4.75616
-3.23181 1.7363 4.75726
-3.238 1.72994 4.7324
-3.25901 1.73292 4.73051
-3.27904 1.73588 4.72662
-3.28821 1.73056 4.70477
-3.30329 1.73042 4.69488
-3.3917 1.73167 4.64052
-3.50423 1.7327 4.57034
-3.5475 1.7312 4.53469
-3.56357 1.73107 4.52481
-3.59473 1.73178 4.50403
-3.60277 1.73169 4.49809
-3.63888 1.7345 4.48332
-3.70331 1.73272 4.42782
-3.71839 1.73255 4.41594
-3.73348 1.7324 4.40505
-3.75351 1.73534 4.40016
-3.76365 1.73208 4.38228
-3.77972 1.73294 4.37239
-3.79877 1.73487 4.3665
-3.80681 1.73478 4.36056
-3.81893 1.73357 4.34567
-3.83401 1.73442 4.33477
-3.8491 1.73425 4.32288
-3.86418 1.7341 4.312
-3.89138 1.73272 4.28522
-3.90846 1.73359 4.27533
-3.92046 1.73659 4.27538
-3.93851 1.73749 4.2675
-3.94766 1.73521 4.2486
-3.96175 1.73505 4.23671
-3.97683 1.73589 4.22581
-3.99193 1.73571 4.21292
-4.01406 1.73548 4.19609
-4.04225 1.73511 4.17031
-4.05733 1.73596 4.1594
-4.07441 1.73682 4.14952
-4.08454 1.73457 4.13163
-4.09456 1.73654 4.12967
-4.13367 1.74135 4.11489
-4.14577 1.74015 4.101
-4.16185 1.741 4.09011
-4.17297 1.73977 4.07421
-4.19104 1.74165 4.06531
-4.20107 1.7426 4.06138
-4.2102 1.74035 4.04448
-4.23322 1.74531 4.04058
-4.24534 1.7441 4.02568
-4.2644 1.74599 4.0178
-4.27552 1.74476 4.0019
-4.29259 1.74663 3.992
-4.30063 1.74656 3.98706
-4.3187 1.74842 3.97716
-4.32386 1.74512 3.95625
-4.33994 1.74597 3.94536
-4.35603 1.74682 3.93446
-4.36913 1.74662 3.92056
-4.38124 1.7454 3.90567
-4.39931 1.74828 3.89676
-4.40934 1.74923 3.89282
-4.42344 1.75005 3.87992
-4.43158 1.74677 3.86102
-4.44568 1.74759 3.84811
-4.46275 1.74946 3.83821
-4.47884 1.75029 3.82632
-4.47705 1.74389 3.7994
-4.50197 1.75205 3.80947
-4.51507 1.75186 3.79557
-4.52422 1.74958 3.77667
-4.54625 1.75352 3.77177
-4.55042 1.7492 3.74987
-4.56651 1.75104 3.73796
-4.58955 1.75496 3.73207
-4.58368 1.74971 3.71511
-4.58785 1.74539 3.6932
-4.63492 1.75427 3.68342
-4.64405 1.75301 3.6655
-4.68128 1.75458 3.63476
-5.08988 1.75977 3.15769
-5.11311 1.76032 3.12686
-5.12224 1.75908 3.10994
-5.15063 1.75735 3.05917
-5.16365 1.76031 3.05623
-5.17078 1.75905 3.0383
-5.17991 1.7578 3.02138
-5.19004 1.75756 3.00446
-5.19917 1.75731 2.98753
-5.21625 1.75915 2.97563
-5.23235 1.76097 2.96272
-5.24356 1.75956 2.93482
-5.27293 1.75886 2.88605
-5.29202 1.76169 2.87415
-5.31932 1.76212 2.83434
-5.36181 1.76217 2.76865
-5.74764 1.75498 1.99656
-5.74979 1.75268 1.97661
-5.76092 1.75344 1.95968
-5.78324 1.75482 1.91682
-5.79637 1.75558 1.8999
-5.8025 1.75532 1.88195
-5.81662 1.75809 1.86601
-5.80781 1.75273 1.84202
-5.80497 1.74941 1.82105
-5.81908 1.75119 1.80513
6.00378 1.72616 1.08033
3.05895 1.72659 4.83602
3.02507 1.72584 4.85129
2.86872 1.72623 4.93848
2.73624 1.72734 5.00847
2.66646 1.72681 5.03701
2.65053 1.72697 5.04712
2.34135 1.71979 5.15758
2.32237 1.71885 5.16073
2.31154 1.72319 5.18275
2.30665 1.7274 5.19673
2.28665 1.72441 5.19692
2.26562 1.72137 5.19313
2.25481 1.72774 5.21812
2.19094 1.72504 5.23564
2.17603 1.72723 5.24772
2.15909 1.72836 5.25584
2.14011 1.72742 5.25899
2.12215 1.72651 5.26414
2.03927 1.72281 5.28082
2.02336 1.72499 5.29291
2.00541 1.7251 5.29905
1.9905 1.72628 5.31114
1.97458 1.72846 5.32223
1.94356 1.72444 5.31953
1.92662 1.72557 5.32764
1.89174 1.72682 5.34288
1.87068 1.72273 5.3361
1.85066 1.71971 5.3343
1.8376 1.7166 5.32644
1.81963 1.71568 5.33059
1.79859 1.71262 5.32579
1.78679 1.719 5.35079
1.77292 1.72326 5.36784
1.757 1.72443 5.37894
1.62538 1.72927 5.42987
1.52558 1.72973 5.45662
1.12425 1.73031 5.54664
-2.2344 1.74438 5.07367
-2.25046 1.74425 5.06479
-2.38703 1.73824 4.9909
-2.41096 1.74438 4.99899
-2.43507 1.74319 4.98519
-2.48622 1.74493 4.96555
-2.5013 1.74278 4.95469
-2.51934 1.74472 4.9498
-2.52639 1.74262 4.94288
-2.54639 1.74563 4.94299
-3.0343 1.7462 4.69062
-3.0484 1.74501 4.67774
-3.06855 1.74273 4.65792
-3.09252 1.74779 4.66103
-3.10759 1.74767 4.65214
-3.11774 1.74338 4.63228
-3.13479 1.74429 4.6254
-3.15185 1.74519 4.61751
-3.15987 1.74615 4.61456
-3.171 1.7429 4.59768
-3.18313 1.74068 4.58181
-3.20611 1.74572 4.58391
-3.21723 1.74249 4.56804
-3.22934 1.74028 4.55316
-3.25036 1.74325 4.55027
-3.25345 1.74109 4.53932
-3.27248 1.74305 4.53544
-3.28856 1.74289 4.52456
-3.30363 1.74276 4.51467
-3.31574 1.74156 4.50078
-3.33478 1.74348 4.4949
-3.35085 1.74436 4.486
-3.35393 1.7412 4.47507
-3.3611 1.73688 4.45319
-3.38706 1.74297 4.45829
-3.40313 1.74385 4.4494
-3.42216 1.74579 4.44451
-3.42538 1.73838 4.41664
-3.45529 1.74756 4.42773
-3.45541 1.74333 4.4118
-3.46653 1.7411 4.39591
-3.48953 1.74512 4.39602
-3.50263 1.74393 4.38314
-3.52166 1.74687 4.37824
-3.52883 1.74255 4.35635
-3.54291 1.7424 4.34546
-3.5669 1.74643 4.34658
-3.57791 1.74842 4.34563
-3.59101 1.74824 4.33273
-3.60213 1.74601 4.31685
-3.61721 1.74586 4.30596
-3.6313 1.74569 4.29407
-3.64836 1.74659 4.28618
-3.66245 1.74642 4.27429
-3.67345 1.74841 4.27334
-3.68952 1.74929 4.26445
-3.7056 1.75015 4.25456
-3.71374 1.74688 4.23566
-3.73278 1.7488 4.22978
-3.74885 1.74968 4.22089
-3.75789 1.75061 4.21594
-3.76899 1.74942 4.20204
-3.78804 1.75133 4.19515
-3.79717 1.74908 4.17825
-3.81821 1.75202 4.17337
-3.82536 1.74873 4.15347
-3.85145 1.75057 4.14163
-3.86752 1.75145 4.13274
-3.91376 1.753 4.10006
-3.94899 1.75358 4.07032
-3.97617 1.75323 4.04552
-4.00336 1.75288 4.02073
-5.65465 1.75696 1.72879
-5.66699 1.7553 1.6839
-5.67113 1.75402 1.66495
-5.69252 1.75427 1.6131
-5.69567 1.75299 1.59414
-5.70479 1.75374 1.5772
-5.70894 1.75346 1.55823
-5.70103 1.74928 1.54623
-5.71215 1.75105 1.53029
-5.71644 1.74848 1.49135
5.87507 1.71396 0.588409
2.70776 1.72745 4.81165
2.69182 1.72758 4.81977
2.53435 1.72673 4.89098
1.76763 1.72973 5.19676
1.62893 1.73041 5.2368
1.57089 1.72338 5.23234
1.519 1.72362 5.24673
1.51516 1.72993 5.26766
1.48023 1.73009 5.27693
1.46225 1.72915 5.28008
1.42322 1.72512 5.27643
1.40215 1.721 5.26765
1.38136 1.72842 5.2947
1.36441 1.72852 5.30083
1.32947 1.72866 5.30909
1.31253 1.72979 5.3172
1.2835 1.72676 5.31346
1.2316 1.728 5.32784
1.21469 1.73018 5.33893
1.17769 1.7282 5.33924
1.16971 1.72925 5.34229
1.11472 1.72631 5.34375
1.05594 1.73178 5.37311
1.01997 1.73086 5.3774
0.984035 1.73201 5.38565
0.964997 1.72995 5.38083
0.903119 1.73123 5.39727
0.0368723 1.71938 5.23595
0.0279887 1.7246 5.25095
0.0108109 1.71628 5.2282
-0.00702603 1.7236 5.24922
-0.0239948 1.72467 5.25334
-0.0411179 1.71945 5.23754
-0.0589856 1.72571 5.25458
-0.0761012 1.7205 5.23979
-0.0851631 1.71739 5.2319
-0.120138 1.71946 5.23514
-0.137084 1.72158 5.24223
-0.172137 1.7195 5.23553
-0.198128 1.72053 5.23671
-0.215135 1.72053 5.23584
-0.232188 1.71844 5.22899
-0.250103 1.72261 5.24007
-0.268079 1.72367 5.24319
-0.286055 1.72473 5.24631
-0.302154 1.72155 5.23348
-0.312038 1.72678 5.24847
-0.330022 1.72782 5.2506
-0.347099 1.72468 5.24077
-0.364098 1.7247 5.2409
-0.381159 1.72259 5.23306
-0.399081 1.72675 5.24313
-0.41708 1.72676 5.24327
-0.425088 1.72676 5.24233
-0.444025 1.72989 5.25042
-0.461032 1.72988 5.24955
-0.478101 1.72776 5.24071
-0.496045 1.73088 5.2478
-0.513083 1.72982 5.24294
-0.530113 1.72877 5.23909
-0.538175 1.72666 5.23118
-0.555221 1.72458 5.22534
-0.573204 1.72663 5.22744
-0.588366 1.71933 5.20666
-0.609133 1.73079 5.23665
-0.625279 1.72452 5.21786
-0.644131 1.73181 5.2369
-0.651254 1.72658 5.22103
-0.671145 1.7328 5.23509
-0.68626 1.72859 5.22026
-0.705189 1.73174 5.22936
-0.721281 1.72857 5.21753
-0.737373 1.72541 5.20569
-0.756325 1.72851 5.21179
-0.764356 1.72745 5.20787
-0.781401 1.72638 5.20201
-0.800331 1.72952 5.21111
-0.819268 1.73366 5.21919
-0.838213 1.73677 5.22629
-0.853305 1.73361 5.21445
-0.870342 1.73355 5.20958
-0.881279 1.73667 5.21761
-0.896371 1.73351 5.20577
-0.912471 1.72932 5.19295
-0.930462 1.73135 5.19406
-0.947469 1.73135 5.19319
-0.965475 1.73235 5.19231
-0.981544 1.73023 5.18346
-0.993427 1.73646 5.19846
-1.00663 1.72808 5.17268
-1.02558 1.73118 5.17878
-1.0455 1.73635 5.18885
-1.0606 1.73317 5.17601
-1.07668 1.73003 5.16618
-1.09465 1.73309 5.16927
-1.10365 1.73309 5.16933
-1.11974 1.73094 5.15849
-1.1387 1.73302 5.1626
-1.15379 1.73086 5.15174
-1.17372 1.73501 5.16083
-1.18978 1.73289 5.15198
-1.20584 1.73178 5.14412
-1.21388 1.73071 5.1392
-1.23091 1.73067 5.13532
-1.246 1.7275 5.12348
-1.26595 1.73162 5.13057
-1.28296 1.7326 5.12869
-1.29806 1.72842 5.11586
-1.31898 1.73358 5.12594
-1.32798 1.73459 5.126
-1.34211 1.73036 5.11016
-1.35717 1.72824 5.10131
-1.37615 1.7313 5.1044
-1.39514 1.73333 5.10552
-1.41119 1.73224 5.09865
-1.43114 1.73635 5.10574
-1.43723 1.73318 5.09384
-1.45817 1.73731 5.10193
-1.47617 1.73831 5.10105
-1.49515 1.74137 5.10415
-1.74773 1.7404 5.02806
-1.78786 1.73916 5.01038
-1.81999 1.73693 4.99365
-1.838 1.73893 4.99276
-1.85503 1.73889 4.98888
-1.86716 1.73463 4.97104
-1.87324 1.73148 4.96113
-1.89419 1.73659 4.96721
-1.90339 1.72921 4.94139
-1.92337 1.73227 4.94449
-1.94236 1.7353 4.94559
-1.95156 1.72792 4.91976
-1.97349 1.73305 4.92785
-1.98759 1.72987 4.91501
-1.99366 1.72774 4.90608
-2.00774 1.72661 4.8962
-2.02674 1.7286 4.89532
-2.03986 1.72539 4.88046
-2.05589 1.72533 4.87558
-2.07588 1.72836 4.87669
-2.09801 1.72614 4.86089
-2.11405 1.72606 4.85501
-2.16515 1.72889 4.84135
-2.20233 1.72556 4.81767
-2.29654 1.72922 4.79033
-2.42906 1.72729 4.72234
-2.47623 1.72699 4.6997
-2.51637 1.72673 4.681
-2.56353 1.72744 4.65935
-2.68395 1.7287 4.60423
-2.72606 1.73151 4.5895
-2.73817 1.72931 4.57562
-2.75817 1.73232 4.57573
-2.77225 1.73117 4.56485
-2.78436 1.72896 4.54997
-2.80239 1.73091 4.54608
-2.81238 1.73293 4.54712
-2.84352 1.73269 4.52936
-2.85958 1.73258 4.52148
-2.86971 1.72934 4.5046
-2.89563 1.73649 4.51369
-2.90478 1.73222 4.49482
-2.90984 1.7311 4.48688
-2.93577 1.73824 4.49497
-2.94294 1.73292 4.4731
-2.95307 1.72967 4.45622
-2.97407 1.73369 4.45632
-2.98914 1.73355 4.44643
-2.99829 1.72928 4.42756
-3.01323 1.73441 4.4356
-3.02829 1.73428 4.42671
-3.03941 1.73106 4.41084
-3.06042 1.73506 4.40994
-3.07646 1.73598 4.40405
-3.09968 1.73257 4.37527
-3.13687 1.73222 4.35055
-3.15392 1.73313 4.34367
-3.18406 1.73389 4.32588
-3.19715 1.73272 4.31399
-3.22124 1.73356 4.30216
-3.23531 1.73342 4.29227
-3.2484 1.73325 4.28037
-3.26348 1.7331 4.26948
-3.3429 1.73233 4.21408
-3.35698 1.73219 4.20419
-3.39713 1.73491 4.18345
-3.42035 1.73151 4.15567
-3.4364 1.73241 4.14778
-3.45742 1.73639 4.14588
-3.47051 1.73622 4.13398
-3.48756 1.73713 4.12709
-3.49559 1.73808 4.12314
-3.49976 1.73274 4.10024
-3.52375 1.73777 4.10135
-3.54674 1.7428 4.10245
-3.55686 1.74057 4.08656
-3.56897 1.73938 4.07266
-3.58602 1.74128 4.06576
-3.59911 1.74112 4.05386
-3.59823 1.73589 4.03893
-3.61627 1.73882 4.03302
-3.63036 1.73865 4.02113
-3.65335 1.74367 4.02123
-3.66347 1.74145 4.00633
-3.66963 1.73715 3.98544
-3.68173 1.73696 3.97253
-3.69868 1.74206 3.97859
-3.70285 1.73674 3.95669
-3.71594 1.73657 3.94479
-3.73696 1.74054 3.94189
-3.74013 1.7352 3.91899
-3.75719 1.7371 3.91109
-3.78218 1.74313 3.91219
-3.78625 1.741 3.90325
-3.79636 1.73979 3.88834
-3.81341 1.74169 3.88144
-3.82056 1.73842 3.86254
-3.83762 1.74031 3.85464
-3.85666 1.74324 3.84874
-3.88463 1.7503 3.85185
-3.87877 1.74403 3.83389
-3.8998 1.74799 3.82999
-3.9119 1.74679 3.8161
-3.92003 1.74454 3.79919
-3.93808 1.74745 3.79229
-3.94126 1.74211 3.76939
-3.96129 1.74607 3.76548
-3.96238 1.74289 3.75353
-3.98242 1.74582 3.74764
-4.00047 1.74873 3.74073
-4.02348 1.75371 3.73883
-4.03459 1.75251 3.72493
-4.03379 1.74613 3.69901
-4.05879 1.75213 3.69811
-4.06186 1.75 3.68917
-4.06404 1.74465 3.66526
-4.09302 1.75271 3.66836
-4.10213 1.7515 3.65344
-4.11225 1.74927 3.63755
-4.14241 1.75198 3.61673
-4.14944 1.75191 3.61179
-4.15956 1.75068 3.59588
-4.18159 1.75564 3.59197
-4.18773 1.75238 3.57406
-4.21193 1.75199 3.54725
-4.22999 1.75489 3.53934
-4.23902 1.75583 3.53539
-4.26123 1.75444 3.50758
-4.2773 1.7563 3.49767
-4.28842 1.75509 3.48277
-4.29853 1.75487 3.46785
-4.2987 1.74953 3.44492
-4.30873 1.75149 3.44197
-4.33175 1.75645 3.43807
-4.35596 1.75605 3.41025
-4.3611 1.75279 3.39234
-4.37717 1.75465 3.38243
-4.37238 1.74725 3.3555
-4.38738 1.75126 3.35555
-4.40444 1.75314 3.34665
-4.41158 1.75188 3.32872
-4.42566 1.75273 3.31782
-4.44374 1.75459 3.30792
-4.44887 1.75233 3.28999
-4.46595 1.75419 3.28009
-4.47904 1.75501 3.26718
-4.47416 1.75079 3.2522
-4.49819 1.75574 3.24831
-4.50035 1.75143 3.22738
-4.51046 1.75122 3.21246
-4.52753 1.75308 3.20256
-4.54062 1.75492 3.19063
-4.55073 1.7537 3.17572
-4.55579 1.75359 3.16776
-4.56988 1.75442 3.15585
-4.56806 1.74908 3.13292
-4.59806 1.75708 3.13202
-4.60121 1.75379 3.11209
-4.61332 1.75359 3.09819
-4.62243 1.75338 3.08326
-4.63843 1.75739 3.08332
-4.64457 1.75513 3.06539
-4.65965 1.75697 3.05448
-4.69894 1.75942 3.01573
-4.70607 1.75818 2.9988
-4.70914 1.75705 2.98984
-4.72422 1.75889 2.97893
-4.74843 1.7595 2.9511
-4.75655 1.75927 2.93516
-4.77578 1.75782 2.90432
-4.78482 1.75975 2.89936
-4.88687 1.76075 2.76009
-4.89598 1.76054 2.74516
-5.39305 1.75497 1.80786
-5.40715 1.75777 1.79392
-5.41029 1.7565 1.77596
-5.40545 1.75219 1.75499
-5.41756 1.75398 1.74005
-5.41863 1.75284 1.73108
-5.42376 1.75158 1.71313
-5.42292 1.74928 1.69315
-5.447 1.75514 1.68225
-5.43517 1.74879 1.65925
-5.43931 1.74753 1.6413
-5.4564 1.75135 1.62837
-5.45249 1.74918 1.61737
-5.45662 1.74792 1.59942
-5.47173 1.75072 1.58549
-5.48314 1.74793 1.53161
5.60121 1.71436 0.874506
5.61037 1.71865 0.894376
5.59749 1.7159 0.910516
3.26555 1.72479 4.25041
3.21986 1.72743 4.29172
3.18901 1.72774 4.31096
3.16901 1.72375 4.31116
3.15712 1.72598 4.32622
3.14914 1.72503 4.3293
3.1322 1.72415 4.33644
3.11828 1.72432 4.34754
3.10334 1.72445 4.35566
3.08538 1.72254 4.36082
3.07552 1.72581 4.37885
3.05552 1.72284 4.38004
3.04957 1.72393 4.38607
3.03667 1.72514 4.39915
3.01971 1.72424 4.4053
3.00275 1.72232 4.41045
2.98275 1.71935 4.41165
2.96478 1.71743 4.41581
2.96998 1.72581 4.44165
2.94695 1.72076 4.4379
2.92797 1.71782 4.44109
2.91709 1.72105 4.45612
2.90925 1.72537 4.47712
2.8852 1.7203 4.47138
2.87432 1.72254 4.48743
2.85939 1.72269 4.49654
2.84736 1.71964 4.49267
2.83447 1.72185 4.50674
2.8104 1.71575 4.49901
2.80055 1.71904 4.51804
2.7846 1.71916 4.52516
2.77372 1.72139 4.54021
2.7527 1.71737 4.53843
2.74778 1.71952 4.54843
2.72676 1.71651 4.54664
2.71893 1.72184 4.56862
2.70298 1.72096 4.57575
2.68703 1.72006 4.58189
2.67008 1.72017 4.58902
2.65514 1.7203 4.59713
2.64311 1.71725 4.59326
2.62717 1.71738 4.60138
2.60818 1.71443 4.60357
2.5902 1.71247 4.60573
2.58135 1.71777 4.62572
2.56845 1.71897 4.63881
2.55353 1.72013 4.6489
2.54353 1.71915 4.64999
2.52859 1.71927 4.6571
2.51163 1.71835 4.66225
2.49873 1.72057 4.67631
2.47873 1.71759 4.67651
2.46684 1.7198 4.69057
2.44988 1.7199 4.69669
2.43785 1.71684 4.69183
2.42391 1.71698 4.70093
2.41001 1.71918 4.71401
2.39102 1.71721 4.71518
2.37609 1.71736 4.72429
2.36421 1.7206 4.74033
2.35029 1.72276 4.75041
2.34028 1.72075 4.74951
2.32433 1.72087 4.75663
2.30839 1.72098 4.76375
2.28938 1.718 4.76394
2.27243 1.7181 4.77007
2.25954 1.72031 4.78413
2.24154 1.71834 4.7853
2.23357 1.71841 4.78936
2.21764 1.71955 4.79846
2.20169 1.71965 4.80458
2.18269 1.71667 4.80477
2.1698 1.71988 4.81882
2.15487 1.72104 4.82892
2.13892 1.72116 4.83604
2.12789 1.71911 4.83215
2.11297 1.72027 4.84225
2.09396 1.71726 4.84143
2.078 1.71735 4.84655
2.06309 1.71954 4.85863
2.04817 1.7207 4.86873
2.04221 1.72179 4.87476
2.02424 1.72085 4.87791
2.00727 1.71993 4.88305
1.99134 1.72106 4.89116
1.97538 1.72117 4.89728
1.9533 1.71503 4.88753
1.94042 1.71826 4.90258
1.92837 1.71519 4.89672
1.91242 1.7163 4.90382
1.89545 1.71536 4.90697
1.8836 1.72066 4.92698
1.86253 1.71554 4.91821
1.84966 1.7188 4.93526
1.83473 1.72095 4.94435
1.81469 1.71689 4.93956
1.80671 1.71694 4.94262
1.79181 1.71913 4.9547
1.7728 1.71713 4.95387
1.75275 1.71305 4.94808
1.74089 1.71833 4.96609
1.7188 1.71218 4.95535
1.70387 1.71333 4.96445
1.70309 1.72274 4.99232
1.67895 1.71449 4.97462
1.66299 1.71458 4.97974
1.65114 1.71988 4.99975
1.63316 1.71894 5.0029
1.6131 1.71484 4.99511
1.59716 1.71495 5.00223
1.58816 1.71496 5.0023
1.57324 1.71713 5.01338
1.55526 1.71619 5.01653
1.53725 1.71419 5.0157
1.52132 1.71532 5.0238
1.50741 1.71851 5.03586
1.48531 1.71234 5.02412
1.47734 1.71239 5.02718
1.46345 1.71663 5.04222
1.44443 1.7136 5.03941
1.42848 1.7147 5.04551
1.41561 1.71997 5.06353
1.39556 1.71588 5.05675
1.37859 1.71596 5.06087
1.37269 1.72015 5.07386
1.33461 1.71303 5.06425
1.31971 1.71622 5.07631
1.30274 1.71629 5.08044
1.28474 1.7143 5.08061
1.26777 1.71438 5.08473
1.26084 1.71751 5.09374
1.2428 1.71447 5.08992
1.22687 1.7166 5.09801
1.20785 1.71458 5.09618
1.17492 1.71474 5.10543
1.13197 1.71488 5.11275
1.11397 1.71389 5.1129
1.097 1.71395 5.11603
1.08003 1.71403 5.12116
1.06303 1.71304 5.1213
1.04814 1.71726 5.13535
1.03813 1.71524 5.13346
0.987212 1.71644 5.14483
0.969165 1.71336 5.13901
0.935219 1.71449 5.14625
0.92725 1.71456 5.15031
0.911327 1.71772 5.16038
0.894358 1.71779 5.16451
0.875327 1.71574 5.16068
0.859374 1.71684 5.16679
0.841366 1.71584 5.16594
0.825428 1.71797 5.17403
0.816436 1.71799 5.17509
0.798397 1.71493 5.17027
0.781459 1.71706 5.17837
0.764459 1.71608 5.17851
0.747497 1.71716 5.18363
0.713575 1.71933 5.19385
0.70349 1.71518 5.18299
0.686521 1.71625 5.1871
0.669521 1.71526 5.18724
0.652567 1.71636 5.19335
0.635629 1.7185 5.20145
0.618684 1.72061 5.20855
0.600653 1.71856 5.20471
0.59163 1.71753 5.2018
0.57463 1.71654 5.20194
0.5577 1.71968 5.21102
0.539615 1.71554 5.20022
0.522715 1.71874 5.2133
0.506785 1.72188 5.22237
0.488739 1.71881 5.21656
0.4797 1.71674 5.21165
0.462825 1.72299 5.22769
0.445778 1.71991 5.22186
0.427817 1.721 5.22698
0.409756 1.7179 5.21916
0.375841 1.72108 5.23037
0.367865 1.72213 5.23342
0.34978 1.71798 5.22262
0.332865 1.72116 5.2337
0.315912 1.72326 5.23979
0.29785 1.72016 5.23198
0.280882 1.72123 5.23609
0.26289 1.72125 5.23722
0.253851 1.71919 5.23232
0.236898 1.72129 5.23842
0.219875 1.72026 5.23556
0.201837 1.7182 5.23073
0.184884 1.7203 5.23683
0.166869 1.71928 5.23498
0.149892 1.72034 5.23809
0.140947 1.72345 5.24511
0.124025 1.72661 5.25519
0.106909 1.7214 5.2404
0.0888244 1.71725 5.22959
0.0719717 1.72354 5.24863
0.0539415 1.7225 5.24478
-0.626509 1.7191 5.05493
-0.770578 1.72206 5.04597
-0.828691 1.71988 5.03144
-0.920793 1.72074 5.01812
-1.01292 1.72056 5.00181
-1.24721 1.72313 4.96353
-1.29535 1.7219 4.94591
-1.31335 1.7229 4.94503
-1.33133 1.72496 4.94814
-1.33934 1.72493 4.9462
-1.37145 1.72275 4.93247
-1.38747 1.72372 4.92958
-1.4045 1.72367 4.92571
-1.42152 1.72464 4.92282
-1.43951 1.72667 4.92393
-1.44947 1.72875 4.92897
-1.46648 1.73074 4.92807
-1.48253 1.72965 4.92121
-1.49759 1.72855 4.91333
-1.51267 1.72641 4.90348
-1.53261 1.73053 4.91057
-1.54866 1.73045 4.90469
-1.55863 1.7325 4.90773
-1.58151 1.73975 4.9238
-1.59267 1.73345 4.90298
-1.61262 1.73755 4.90907
-1.64374 1.73534 4.89333
-1.66272 1.7394 4.89641
-1.68678 1.7393 4.8886
-1.70087 1.73613 4.87675
-1.72277 1.74232 4.88882
-1.73198 1.73493 4.862
-1.74901 1.73488 4.85813
-1.76408 1.73376 4.84926
-1.76917 1.73059 4.83734
-1.7862 1.73154 4.83345
-1.80224 1.73148 4.82857
-1.81632 1.72933 4.81771
-1.83041 1.72716 4.80585
-1.84841 1.72917 4.80595
-1.86151 1.72599 4.7931
-1.86953 1.72595 4.79016
-1.88754 1.72795 4.78926
-1.9167 1.72466 4.76853
-1.93666 1.72875 4.77362
-2.00884 1.72943 4.74915
-2.02293 1.72726 4.73729
-2.05207 1.72502 4.71954
-2.07009 1.72599 4.71666
-2.08514 1.72589 4.70977
-2.40015 1.72812 4.57709
-2.51556 1.72839 4.52295
-2.66406 1.73149 4.45602
-2.68519 1.72927 4.4402
-2.70024 1.73018 4.4333
-2.71827 1.73213 4.42941
-2.73333 1.73201 4.42052
-2.74937 1.73295 4.41563
-2.76542 1.73386 4.40874
-2.78443 1.73584 4.40685
-2.7985 1.73572 4.39796
-2.80061 1.73251 4.38402
-2.82357 1.7376 4.38912
-2.83863 1.73748 4.38023
-2.85074 1.73528 4.36635
-2.87271 1.74136 4.37043
-2.89074 1.74331 4.36654
-2.89888 1.73903 4.34766
-2.90889 1.74003 4.34672
-2.91802 1.73677 4.32883
-2.93211 1.73561 4.31795
-2.94716 1.73652 4.31105
-2.9642 1.73846 4.30615
-2.97532 1.73523 4.29028
-2.98432 1.73622 4.28933
-2.99247 1.73295 4.27044
-3.00358 1.73073 4.25556
-3.02458 1.73375 4.25567
-3.04162 1.73569 4.25077
-3.05075 1.73244 4.23388
-3.07076 1.73543 4.23199
-3.07878 1.73639 4.22904
-3.08593 1.73211 4.21015
-3.10594 1.7351 4.20826
-3.11309 1.73181 4.18836
-3.13113 1.73275 4.18348
-3.14816 1.73468 4.17858
-3.15531 1.73141 4.15968
-3.1673 1.73343 4.16074
-3.18434 1.73535 4.15484
-3.19346 1.73212 4.13895
-3.21052 1.73403 4.13205
-3.22657 1.73494 4.12516
-3.25471 1.73568 4.10635
-3.26879 1.73553 4.09546
-3.27286 1.7334 4.08652
-3.28693 1.73327 4.07763
-3.30695 1.73724 4.07472
-3.31805 1.73504 4.06083
-3.33312 1.73592 4.05193
-3.34323 1.73371 4.03704
-3.3583 1.73459 4.02814
-3.37028 1.73762 4.03019
-3.3804 1.73541 4.01529
-3.39448 1.73526 4.0044
-3.41252 1.7382 3.99949
-3.42064 1.73496 3.9836
-3.44264 1.73897 3.9827
-3.4478 1.73466 3.9618
-3.46079 1.7377 3.96386
-3.46595 1.73339 3.94296
-3.48597 1.73736 3.94005
-3.49211 1.73308 3.92116
-3.50619 1.73295 3.91126
-3.52224 1.73484 3.90335
-3.54127 1.73779 3.89945
-3.54039 1.73357 3.88451
-3.55645 1.73446 3.87661
-3.59768 1.73603 3.8459
-3.62683 1.73676 3.8261
-3.6309 1.73563 3.81715
-3.64199 1.73445 3.80425
-3.66003 1.73638 3.79936
-3.68303 1.74239 3.79844
-3.70008 1.74429 3.79154
-3.70325 1.73897 3.76964
-3.71535 1.73779 3.75675
-3.72635 1.7408 3.75678
-3.7315 1.7365 3.73688
-3.75451 1.7415 3.73598
-3.7676 1.74134 3.72408
-3.77771 1.74012 3.70917
-3.78881 1.73894 3.69627
-3.80487 1.74083 3.68837
-3.81687 1.74382 3.68741
-3.82201 1.74056 3.6695
-3.83511 1.74038 3.6566
-3.84323 1.73815 3.64069
-3.86722 1.74416 3.64078
-3.87832 1.74298 3.62788
-3.8934 1.74384 3.61798
-3.90143 1.74477 3.61302
-3.91451 1.74462 3.60212
-3.92463 1.74341 3.58722
-3.93771 1.74425 3.5763
-3.94981 1.74407 3.56339
-3.96983 1.74802 3.55948
-3.98094 1.74683 3.54558
-3.98401 1.74569 3.53662
-4.00603 1.74967 3.53373
-4.01613 1.74947 3.51981
-4.02526 1.74724 3.50391
-4.04033 1.7491 3.49399
-4.05937 1.75202 3.48809
-4.06849 1.75079 3.47217
-4.06858 1.74763 3.46122
-4.09457 1.75365 3.46133
-4.10071 1.75139 3.4434
-4.1239 1.75102 3.41758
-4.13899 1.75187 3.40668
-4.15604 1.75476 3.39877
-4.16317 1.75251 3.38185
-4.1722 1.75346 3.3779
-4.17635 1.75018 3.35898
-4.19043 1.75103 3.34807
-4.2065 1.75289 3.33816
-4.2176 1.75271 3.32525
-4.23764 1.75663 3.31934
-4.2408 1.75233 3.29843
-4.24486 1.75121 3.29047
-4.25199 1.74896 3.27356
-4.26309 1.74878 3.26064
-4.28412 1.75372 3.25573
-4.27933 1.74632 3.2288
-4.30037 1.75026 3.22389
-4.30849 1.74903 3.20797
-4.31454 1.74893 3.20102
-4.32762 1.74978 3.1901
-4.33774 1.74956 3.17518
-4.34685 1.74835 3.16026
-4.36192 1.75021 3.15035
-4.37998 1.7531 3.14244
-4.3722 1.74467 3.1135
-4.38421 1.74766 3.11255
-4.39531 1.74746 3.09863
-4.41636 1.75239 3.09272
-4.41056 1.745 3.06678
-4.42862 1.74788 3.05787
-4.43774 1.74666 3.04296
-4.44486 1.74543 3.02703
-4.45787 1.74841 3.02508
-4.46797 1.74821 3.01116
-4.4741 1.74597 2.99424
-4.48719 1.7468 2.98232
-4.50526 1.75068 2.9734
-4.5084 1.7464 2.95448
-4.53641 1.7544 2.95357
-4.52854 1.74815 2.93661
-4.54859 1.75306 2.92968
-4.54875 1.74773 2.90776
-4.5708 1.75266 2.90185
-4.57494 1.75038 2.88291
-4.58902 1.75223 2.87199
-4.59317 1.74895 2.85307
-4.61818 1.75592 2.85015
-4.61728 1.75274 2.83819
-4.62838 1.75354 2.82426
-4.64445 1.75541 2.81435
-4.65258 1.75518 2.79842
-4.66766 1.75702 2.7875
-4.67876 1.75683 2.77359
-4.69086 1.75864 2.76065
-4.71 1.76037 2.74176
-4.72011 1.76016 2.72684
-4.72425 1.7579 2.7089
-4.75343 1.76056 2.68508
-5.27896 1.75509 1.68598
-5.28309 1.75484 1.66902
-5.28437 1.7503 1.63209
-5.29449 1.75107 1.61615
-5.29356 1.74993 1.60716
-5.29071 1.74663 1.58718
-5.31279 1.75249 1.57626
-5.30795 1.74817 1.55529
-5.32533 1.74744 1.50542
-5.34762 1.74988 1.46655
-5.35688 1.74839 1.43263
3.44033 1.7273 3.95402
3.41045 1.72555 3.97027
3.39755 1.72676 3.98335
3.38957 1.72581 3.98643
3.37564 1.72595 3.99553
3.36172 1.72612 4.00664
3.3478 1.72628 4.01674
3.33286 1.72541 4.02487
3.30703 1.72677 4.04804
3.28997 1.72066 4.04026
3.27806 1.72185 4.05234
3.2611 1.71994 4.05749
3.2492 1.72114 4.07057
3.23931 1.72337 4.08561
3.22136 1.72147 4.09177
3.20541 1.72058 4.09891
3.19945 1.72068 4.10495
3.18755 1.72186 4.11703
3.16554 1.71787 4.11625
3.14958 1.71597 4.1224
3.14274 1.72128 4.14338
3.11769 1.71421 4.13767
3.11679 1.7184 4.15062
3.10287 1.71856 4.16072
3.08691 1.71666 4.16687
3.074 1.71784 4.17795
3.05502 1.71489 4.18114
3.04211 1.71608 4.19322
3.02919 1.71725 4.2043
3.01122 1.71533 4.20846
3.00122 1.71333 4.20857
2.98932 1.71453 4.22164
2.97235 1.71261 4.2258
2.95742 1.71275 4.23491
2.94653 1.71497 4.24896
2.93259 1.71511 4.25807
2.91868 1.71628 4.26916
2.90868 1.71429 4.26926
2.89373 1.7134 4.27639
2.87779 1.71253 4.28452
2.86386 1.71268 4.29362
2.8469 1.71176 4.29877
2.83499 1.71295 4.31084
2.81904 1.71307 4.31796
2.81309 1.71316 4.324
2.79815 1.7133 4.33312
2.78422 1.71345 4.34222
2.76624 1.7115 4.34539
2.75131 1.71165 4.3545
2.73738 1.71179 4.3636
2.72244 1.71192 4.37171
2.71853 1.71509 4.3827
2.70256 1.71417 4.38783
2.68662 1.71329 4.39497
2.66762 1.71132 4.39614
2.65877 1.7146 4.41516
2.63978 1.71263 4.41633
2.62787 1.71483 4.42939
2.588 1.7131 4.44572
2.5571 1.71233 4.45996
2.53911 1.71036 4.46113
2.52722 1.71259 4.47619
2.52025 1.71265 4.48024
2.50632 1.7138 4.48933
2.48834 1.71185 4.49249
2.47137 1.71093 4.49664
2.45847 1.71313 4.5097
2.4425 1.7112 4.51385
2.42553 1.71027 4.51799
2.41858 1.71136 4.52403
2.40871 1.71462 4.54106
2.38972 1.71265 4.54223
2.37782 1.71487 4.55629
2.35883 1.7129 4.55746
2.34694 1.71511 4.57152
2.333 1.71626 4.58061
2.30298 1.71123 4.57791
2.29006 1.71239 4.58799
2.27411 1.71251 4.59511
2.25916 1.71262 4.60222
2.24625 1.71481 4.61429
2.23525 1.7128 4.6134
2.22232 1.71496 4.62347
2.20638 1.71507 4.63059
2.18738 1.71209 4.63078
2.17344 1.71322 4.63887
2.15646 1.71127 4.64202
2.14154 1.71345 4.65311
2.13559 1.71454 4.65913
2.11963 1.71363 4.66427
2.10265 1.71268 4.66741
2.08773 1.71384 4.67751
2.07075 1.7129 4.68065
2.05784 1.71508 4.69272
2.04087 1.71416 4.69686
1.95106 1.71159 4.72258
1.47928 1.7153 4.8861
1.46436 1.71746 4.89618
1.30763 1.71711 4.93337
1.29066 1.71718 4.9375
1.28369 1.71825 4.94154
1.26672 1.71832 4.94566
0.957105 1.71428 4.99806
0.598515 1.71633 5.05374
-0.469529 1.71899 4.91873
-0.503528 1.72001 4.91897
-0.519519 1.72104 4.92008
-0.626614 1.72093 4.90788
-0.634637 1.71989 4.90496
-0.651589 1.72299 4.91104
-0.66762 1.72194 4.90718
-0.805789 1.7217 4.88522
-0.863847 1.72163 4.87766
-0.878877 1.72158 4.87377
-0.895899 1.72154 4.8709
-0.968972 1.72245 4.86143
-0.984994 1.72242 4.85856
-1.019 1.72443 4.85778
-1.03407 1.7223 4.84893
-1.05202 1.72541 4.85502
-1.05908 1.72329 4.8471
-1.09115 1.72318 4.83834
-1.10719 1.72212 4.83348
-1.13924 1.72204 4.82672
-1.16425 1.72303 4.82489
-1.18027 1.72401 4.823
-1.1992 1.72816 4.83208
-1.23127 1.72803 4.82232
-1.24732 1.72696 4.81646
-1.26333 1.72794 4.81456
-1.28544 1.72373 4.79979
-1.3005 1.72263 4.79192
-1.33838 1.73187 4.80707
-1.35053 1.7256 4.78825
-1.37458 1.72553 4.78243
-1.38965 1.72339 4.77258
-1.40567 1.72436 4.76968
-1.42754 1.73263 4.78673
-1.43969 1.72736 4.7679
-1.45475 1.72525 4.76004
-1.47271 1.72932 4.76411
-1.47977 1.72721 4.7562
-1.49384 1.7251 4.74833
-1.51377 1.73023 4.75641
-1.52591 1.72497 4.73858
-1.54195 1.72491 4.7337
-1.56383 1.73315 4.74874
-1.57692 1.72998 4.73689
-1.58495 1.72893 4.73296
-1.60879 1.73924 4.75299
-1.61896 1.73292 4.73116
-1.635 1.73286 4.72628
-1.65397 1.73593 4.73038
-1.66805 1.73378 4.71951
-1.68408 1.73473 4.71562
-1.69816 1.7326 4.70576
-1.70911 1.73569 4.71179
-1.72318 1.73457 4.70292
-1.74312 1.73869 4.71001
-1.75231 1.73132 4.68518
-1.7703 1.73435 4.68627
-1.78928 1.73741 4.68937
-1.79846 1.73008 4.66654
-1.80844 1.73211 4.66859
-1.82643 1.73514 4.66968
-1.8405 1.73402 4.6608
-1.85457 1.73189 4.65194
-1.87257 1.73389 4.65104
-1.88665 1.73276 4.64117
-1.90072 1.73163 4.63229
-1.91659 1.73888 4.6483
-1.92281 1.72946 4.61948
-1.93787 1.72935 4.6116
-1.9539 1.7293 4.60772
-1.96798 1.72816 4.59784
-1.98106 1.72703 4.58795
-1.99105 1.72805 4.58901
-2.01296 1.73523 4.60007
-2.02017 1.72682 4.57225
-2.0421 1.73297 4.58133
-2.0542 1.72978 4.56846
-2.07122 1.73176 4.56656
-2.08922 1.73376 4.56567
-2.0933 1.73062 4.55574
-2.10344 1.72634 4.53688
-2.12735 1.73354 4.54895
-2.14044 1.73137 4.53708
-2.15155 1.72816 4.52221
-2.17349 1.73429 4.53029
-2.18854 1.7342 4.5234
-2.1936 1.73208 4.51547
-2.21359 1.73511 4.51658
-2.22076 1.72879 4.49472
-2.24074 1.73285 4.49781
-2.26367 1.73899 4.50589
-2.27183 1.73368 4.48503
-2.28787 1.73362 4.48015
-2.29588 1.73459 4.4782
-2.30897 1.73344 4.46731
-2.32107 1.73024 4.45345
-2.34105 1.7343 4.45654
-2.35119 1.73004 4.43868
-2.36625 1.72994 4.43079
-2.38622 1.73399 4.43388
-2.39929 1.73287 4.425
-2.40141 1.72864 4.40907
-2.42236 1.73374 4.41516
-2.43841 1.73466 4.40926
-2.45149 1.73251 4.39839
-2.47147 1.73655 4.40048
-2.47865 1.73022 4.37763
-2.49863 1.73426 4.37972
-2.5106 1.73833 4.38375
-2.51678 1.73199 4.36089
-2.5338 1.73396 4.35798
-2.54392 1.72973 4.34212
-2.56489 1.73479 4.3452
-2.57896 1.73367 4.33633
-2.58501 1.73358 4.33037
-2.604 1.7366 4.33047
-2.61413 1.73335 4.31359
-2.63313 1.73637 4.31369
-2.65017 1.73731 4.3088
-2.66324 1.73717 4.2989
-2.68323 1.7412 4.29999
-2.6883 1.73907 4.29106
-2.70335 1.73897 4.28418
-2.72038 1.74093 4.28028
-2.73347 1.73976 4.26839
-2.74852 1.74067 4.26149
-2.77049 1.74574 4.26558
-2.77665 1.74043 4.2447
-2.78863 1.74349 4.24775
-2.80172 1.74232 4.23586
-2.81381 1.74015 4.22398
-2.83281 1.74415 4.22307
-2.84984 1.7461 4.21917
-2.90206 1.74671 4.19055
-2.94525 1.74736 4.16486
-2.96327 1.74933 4.16196
-2.99845 1.749 4.13823
-3.00955 1.74781 4.12533
-3.02263 1.74666 4.11445
-3.03868 1.74858 4.10854
-3.05275 1.74844 4.09864
-3.0599 1.74417 4.07976
-3.07595 1.74507 4.07286
-3.08595 1.74708 4.07291
-3.09605 1.74488 4.05902
-3.11507 1.74787 4.05712
-3.1353 1.74342 4.02633
-3.15234 1.74536 4.02143
-3.17147 1.74412 4.00459
-3.18158 1.74191 3.9897
-3.19961 1.74486 3.98579
-3.20378 1.73854 3.96391
-3.22674 1.74461 3.96799
-3.24973 1.75065 3.96908
-3.24895 1.74223 3.94119
-3.26193 1.74527 3.94324
-3.28491 1.75032 3.94534
-3.28413 1.7419 3.91746
-3.28929 1.73759 3.89656
-3.3182 1.74676 3.90664
-3.32337 1.74146 3.88576
-3.34139 1.74441 3.88185
-3.34447 1.74226 3.8719
-3.35161 1.739 3.854
-3.37063 1.74197 3.8511
-3.39163 1.74697 3.85018
-3.40471 1.74682 3.83928
-3.41086 1.74254 3.82039
-3.43682 1.74963 3.82548
-3.428 1.74027 3.80155
-3.4391 1.74009 3.78863
-3.45812 1.74306 3.78573
-3.46327 1.73877 3.76583
-3.47734 1.73964 3.75693
-3.49439 1.74155 3.75002
-3.50549 1.74037 3.73712
-3.51153 1.7403 3.73217
-3.53849 1.74738 3.73627
-3.53968 1.74102 3.71237
-3.55474 1.74291 3.70445
-3.57377 1.74585 3.69955
-3.58486 1.74468 3.68765
-3.58704 1.73935 3.66474
-3.60101 1.7434 3.66779
-3.61608 1.74428 3.65889
-3.62816 1.74412 3.64798
-3.64323 1.746 3.63906
-3.65829 1.74688 3.63016
-3.6684 1.74568 3.61626
-3.68049 1.74551 3.60435
-3.68654 1.74543 3.59839
-3.70557 1.74837 3.59349
-3.72578 1.74598 3.56668
-3.73886 1.74683 3.55576
-3.76186 1.75183 3.55486
-3.77395 1.75166 3.54295
-3.78505 1.75048 3.53005
-3.78713 1.74833 3.5201
-3.80418 1.75124 3.51318
-3.81824 1.75211 3.50427
-3.83629 1.75502 3.49737
-3.84341 1.75279 3.48145
-3.8907 1.75426 3.44378
-3.8998 1.75306 3.42986
-4.11039 1.75508 3.21939
-4.11255 1.75078 3.19947
-4.12762 1.75264 3.18955
-4.14468 1.75554 3.18164
-4.14683 1.75124 3.16171
-4.15793 1.75106 3.1488
-4.17002 1.75189 3.13688
-4.18302 1.75488 3.13593
-4.18318 1.74957 3.11501
-4.20124 1.75347 3.10708
-4.20737 1.75122 3.09016
-4.22145 1.75207 3.07925
-4.23155 1.75188 3.06633
-4.24066 1.75068 3.05242
-4.25772 1.75356 3.0435
-4.25979 1.75243 3.03453
-4.2689 1.75122 3.01962
-4.27999 1.75205 3.00768
-4.30617 1.75371 2.98385
-4.31628 1.75351 2.96993
-4.33035 1.75537 2.96001
-4.32844 1.75119 2.94805
-4.34153 1.75302 2.93612
-4.34268 1.74873 2.91619
-4.36173 1.75264 2.90928
-4.37184 1.75244 2.89536
-4.38194 1.75224 2.88143
-4.39006 1.75102 2.86651
-4.3981 1.75195 2.86156
-4.41317 1.75382 2.85164
-4.42227 1.75362 2.83771
-4.43238 1.75342 2.82379
-4.44049 1.7532 2.80885
-4.45358 1.75403 2.79693
-4.45871 1.75178 2.78
-4.46874 1.75373 2.77605
-4.48083 1.75456 2.76413
-4.49392 1.75639 2.7522
-4.50502 1.7562 2.73828
-4.51314 1.75598 2.72334
-4.52522 1.75681 2.71142
-4.53632 1.75763 2.69849
