-4.86713 1.75374 3.78183
-4.89514 1.75971 3.77895
-4.89832 1.75538 3.75604
-4.91541 1.75721 3.74414
-4.92345 1.75813 3.73818
-4.93757 1.75791 3.72329
-4.96261 1.76284 3.7174
-4.98267 1.76572 3.70851
-4.99181 1.76347 3.69061
-4.994 1.7591 3.66569
-5.024 1.7661 3.66481
-5.03106 1.76599 3.65687
-5.0402 1.76473 3.63895
-5.06126 1.76861 3.63005
-5.06643 1.76529 3.60814
-5.0875 1.76817 3.59925
-5.10459 1.76999 3.58635
-5.11472 1.76875 3.56944
-5.12078 1.76863 3.56149
-5.27529 1.76877 3.36162
-5.2884 1.76856 3.34672
-5.28551 1.76535 3.33275
-5.30062 1.76614 3.31785
-5.30876 1.76486 3.29893
-5.31988 1.76463 3.28301
-5.34096 1.76848 3.27211
-5.34911 1.76721 3.25319
-5.36123 1.76698 3.23728
-5.35435 1.76274 3.22129
-5.37443 1.76559 3.2104
-5.38257 1.76432 3.19147
-5.39569 1.76409 3.17557
-5.39786 1.76176 3.15362
-5.42193 1.76565 3.14474
-5.4231 1.76231 3.1218
-5.43115 1.76321 3.11485
-5.44726 1.76501 3.10094
-5.45938 1.76479 3.08503
-5.47349 1.76557 3.07012
-5.48064 1.76428 3.05019
-5.48778 1.76301 3.03126
-5.49791 1.76276 3.01434
-5.51492 1.76675 3.01241
-5.52506 1.76649 2.99449
-5.53718 1.76726 2.97857
-5.54134 1.76395 2.95764
-5.55744 1.76675 2.94372
-5.56459 1.76448 2.92481
-5.5797 1.76627 2.90989
-5.60187 1.76794 2.88703
-5.61 1.76768 2.86909
4.62145 1.75943 4.0883
4.57576 1.75905 4.12866
4.53901 1.75858 4.16295
4.49532 1.75922 4.20427
4.48041 1.75841 4.2164
4.47146 1.7575 4.22248
4.45454 1.75668 4.23362
4.44065 1.7569 4.24772
4.41084 1.7573 4.27395
4.39696 1.75754 4.28905
4.38206 1.75774 4.30216
4.37209 1.75681 4.30625
4.35416 1.75497 4.31641
4.34833 1.7593 4.3384
4.3294 1.75746 4.34857
4.30542 1.75352 4.35181
4.30364 1.75994 4.37973
4.28066 1.756 4.38296
4.27372 1.75612 4.39101
4.26185 1.75838 4.40807
4.2419 1.7555 4.41527
4.23002 1.75675 4.43134
4.2121 1.75591 4.44149
4.19518 1.75508 4.45263
4.17726 1.75424 4.46278
4.17839 1.75849 4.47971
4.15238 1.7535 4.47898
4.14454 1.75683 4.50099
4.12964 1.75703 4.5141
4.10869 1.75414 4.5203
4.09479 1.75536 4.53439
4.07788 1.75453 4.54553
4.06689 1.75357 4.54763
4.04897 1.75273 4.55778
4.04012 1.75503 4.57782
4.02421 1.75522 4.58993
4.00124 1.7523 4.59415
3.98835 1.75353 4.60923
3.96336 1.74956 4.61048
3.96146 1.75276 4.62345
3.94353 1.75092 4.63361
3.92761 1.75108 4.64373
3.91171 1.75128 4.65685
3.90084 1.75356 4.6749
3.88089 1.75166 4.68108
3.86801 1.75391 4.69714
3.85601 1.75091 4.69728
3.8492 1.75629 4.72225
3.83126 1.75542 4.7304
3.80828 1.75148 4.73364
3.79641 1.75374 4.75069
3.77342 1.75079 4.75291
3.75852 1.75099 4.76602
3.76169 1.75732 4.78791
3.72657 1.74712 4.77332
3.7228 1.75355 4.80226
3.7079 1.75475 4.81535
3.68793 1.75284 4.82053
3.67303 1.75305 4.83365
3.65611 1.75322 4.84477
3.64715 1.7533 4.84984
3.63528 1.75556 4.8669
3.6123 1.75261 4.86911
3.59739 1.75281 4.88223
3.58552 1.75507 4.89928
3.56051 1.75108 4.89853
3.54358 1.75022 4.90767
3.54069 1.75343 4.92165
3.51668 1.74943 4.92089
3.50583 1.75272 4.93992
3.4879 1.75188 4.95007
3.46997 1.75203 4.95921
3.46012 1.75533 4.97924
3.44422 1.75654 4.99234
3.42108 1.74829 4.97463
3.40314 1.74742 4.98278
3.38825 1.74864 4.99688
3.37841 1.75296 5.01789
3.36148 1.7521 5.02703
3.34152 1.75121 5.0332
3.33169 1.75554 5.05521
3.31767 1.7525 5.05236
3.2987 1.75059 5.05753
3.28279 1.75178 5.06964
3.25878 1.74777 5.06788
3.24186 1.74795 5.079
3.22898 1.75019 5.09507
3.21105 1.74934 5.10422
3.20614 1.7525 5.11521
3.18313 1.74852 5.11544
3.16419 1.74764 5.1226
3.14321 1.7457 5.12579
3.12729 1.74587 5.1369
3.09445 1.74721 5.15814
3.08751 1.74833 5.16617
3.06959 1.74849 5.17631
3.04962 1.74657 5.18049
3.04689 1.75609 5.21537
3.01678 1.7479 5.20172
3.00594 1.75222 5.22274
2.98293 1.74822 5.22197
2.97801 1.75139 5.23296
2.95704 1.74845 5.23616
2.94113 1.75064 5.24825
2.9232 1.7508 5.25839
2.91135 1.75409 5.27743
2.89036 1.75213 5.27962
2.87547 1.75335 5.29371
2.86752 1.75445 5.29976
2.85364 1.75669 5.31583
2.82554 1.74954 5.30415
2.81878 1.758 5.33508
2.79069 1.75084 5.32339
2.77885 1.75516 5.34442
2.75786 1.75321 5.34661
2.74786 1.75221 5.3467
2.73196 1.7534 5.3588
2.71606 1.75462 5.37291
2.69303 1.75058 5.36914
2.67612 1.75277 5.38124
2.66122 1.75397 5.39433
2.64024 1.75202 5.39652
2.62822 1.75 5.39464
2.61334 1.75324 5.41071
2.58826 1.74712 5.40098
2.57339 1.75038 5.41805
2.56256 1.75471 5.44007
2.53752 1.75064 5.43432
2.5106 1.75082 5.44552
2.48757 1.74678 5.44175
2.47981 1.75526 5.47369
2.46391 1.75646 5.48679
2.4358 1.74926 5.47211
2.41581 1.74731 5.47429
2.39584 1.74638 5.47846
2.39196 1.75062 5.49442
2.373 1.75071 5.49957
2.35201 1.74774 5.50077
2.3412 1.75412 5.52576
2.32428 1.75528 5.53587
2.30736 1.75645 5.54698
2.28025 1.74927 5.53329
2.27434 1.75245 5.54529
2.24926 1.7473 5.53455
2.2303 1.74639 5.53971
2.21237 1.74754 5.54883
2.1985 1.75081 5.56689
2.13856 1.74696 5.5744
2.01786 1.74664 5.61532
2.01198 1.75088 5.6313
1.99198 1.7499 5.63147
1.97507 1.75109 5.64358
1.95509 1.75013 5.64574
1.93305 1.74707 5.64095
1.91614 1.74926 5.65305
1.90512 1.74723 5.65016
1.88925 1.75049 5.66724
1.81443 1.75088 5.6908
1.79136 1.74678 5.68303
1.76547 1.74901 5.6972
1.72549 1.74708 5.70053
1.64068 1.7475 5.72516
1.62171 1.74759 5.7303
1.60481 1.74978 5.7424
1.56381 1.74681 5.74275
1.54588 1.74795 5.75187
1.49796 1.74815 5.76323
1.45899 1.74724 5.76754
1.44208 1.74943 5.77964
1.4252 1.75266 5.79472
1.41107 1.74744 5.7789
1.39624 1.75276 5.79994
1.35727 1.75186 5.80524
1.31834 1.75201 5.81354
1.2873 1.74897 5.80981
1.25145 1.75228 5.82904
1.22937 1.74813 5.81826
1.21353 1.75345 5.83931
1.1725 1.75044 5.83666
1.16353 1.75051 5.84073
1.1456 1.75265 5.84983
1.12353 1.74852 5.84006
1.10667 1.75381 5.85911
1.08771 1.7539 5.86425
1.06768 1.75186 5.86043
1.04872 1.75294 5.86556
1.03664 1.74881 5.85571
1.01976 1.75304 5.87078
0.979758 1.75107 5.87111
0.95872 1.74901 5.8663
0.939758 1.7491 5.87144
0.921867 1.75332 5.88551
0.91182 1.75024 5.87963
0.893943 1.75449 5.89571
0.871813 1.74925 5.87895
0.852867 1.75037 5.88608
0.834975 1.75359 5.90017
0.813906 1.75047 5.89137
0.796037 1.75474 5.90844
0.783906 1.74949 5.89161
0.745968 1.75064 5.89988
0.725968 1.74965 5.90004
0.70806 1.75284 5.91213
0.686984 1.74971 5.90234
0.668015 1.74979 5.90648
0.638023 1.74982 5.90771
0.619069 1.75092 5.91383
0.6001 1.751 5.91798
0.580108 1.75103 5.91913
0.511094 1.74905 5.91768
0.492194 1.75225 5.93077
0.473234 1.75434 5.93588
0.453234 1.75336 5.93605
0.434257 1.75441 5.93918
0.41318 1.75028 5.9294
0.40418 1.75029 5.92946
0.384235 1.75241 5.93658
0.365289 1.75452 5.9437
0.346343 1.75564 5.95082
0.325182 1.74935 5.93007
0.30619 1.74937 5.93122
0.286299 1.7536 5.94531
0.277291 1.75259 5.94439
0.257338 1.75469 5.95051
0.237331 1.75469 5.94966
0.217215 1.74948 5.93489
0.198324 1.7537 5.94897
0.159302 1.75269 5.94628
0.139233 1.74957 5.93747
0.129264 1.75064 5.94153
0.110341 1.7538 5.95163
0.0714196 1.75697 5.96188
0.0513273 1.75281 5.95009
0.0278379 1.76488 5.75106
0.0178225 1.76386 5.74915
-0.00113048 1.76596 5.75526
-0.0201375 1.76596 5.7544
-0.0391834 1.76388 5.74858
-0.0581213 1.76602 5.75669
-0.0771515 1.76497 5.75285
-0.0961585 1.76497 5.75199
-0.105158 1.76498 5.75206
-0.12425 1.76181 5.74025
-0.181132 1.76708 5.7556
-0.200193 1.76497 5.74777
-0.220123 1.76812 5.75688
-0.266245 1.76292 5.7413
-0.353164 1.76813 5.75188
-0.391193 1.7681 5.74817
-0.4102 1.7681 5.74731
-0.447268 1.76599 5.73862
-0.51425 1.76807 5.74109
-0.723387 1.76894 5.72365
-0.977666 1.76856 5.68757
-1.04472 1.76949 5.68006
-2.06876 1.76818 5.41376
-2.09994 1.76485 5.39004
-2.11799 1.76476 5.38318
-2.13898 1.76679 5.3843
-2.17213 1.76453 5.36558
-2.18605 1.76867 5.37463
-2.19725 1.76331 5.34979
-2.21823 1.76535 5.35192
-2.23627 1.76628 5.34604
-2.25236 1.76411 5.33419
-2.27236 1.76713 5.3343
-2.2855 1.76287 5.31646
-2.31063 1.76064 5.29968
-2.3375 1.76889 5.31576
-2.34671 1.7625 5.28892
-2.37164 1.76764 5.29703
-2.38378 1.76338 5.27918
-2.40281 1.76433 5.27531
-2.40693 1.7601 5.2594
-2.43382 1.76834 5.27449
-2.44302 1.76195 5.24765
-2.46697 1.76605 5.25377
-2.4801 1.76281 5.23691
-2.50012 1.7648 5.23503
-2.51522 1.76262 5.22218
-2.5321 1.76985 5.2372
-2.54228 1.7635 5.21337
-2.58035 1.76638 5.20361
-2.60136 1.76838 5.20274
-2.6135 1.76511 5.18388
-2.63861 1.76392 5.17008
-2.67667 1.76683 5.16232
-2.71573 1.76973 5.15357
-2.74493 1.76636 5.12784
-2.90642 1.7705 5.06299
-2.93561 1.76815 5.03824
-2.94774 1.7649 5.02037
-2.96975 1.7679 5.0195
-2.9689 1.76261 5.00057
-2.98893 1.76356 4.9957
-3.00895 1.76653 4.99281
-3.02207 1.7633 4.97695
-3.03223 1.75899 4.95609
-3.04633 1.75781 4.94321
-3.05239 1.7567 4.93527
-3.07243 1.75864 4.93039
-3.09147 1.75958 4.92552
-3.0947 1.75212 4.89465
-3.1177 1.75514 4.89478
-3.14266 1.76123 4.89988
-3.14491 1.75174 4.86703
-3.16296 1.75365 4.86014
-3.17989 1.75881 4.87019
-3.20414 1.75334 4.83745
-3.21923 1.75318 4.82557
-3.27241 1.75485 4.80094
-3.29158 1.75253 4.77911
-3.31161 1.75449 4.77524
-3.35688 1.75199 4.73961
-3.42724 1.75131 4.69114
-3.53076 1.75137 4.62291
-3.71478 1.75049 4.48829
-3.76401 1.75206 4.45764
-3.83141 1.75133 4.40515
-3.86456 1.75306 4.38537
-3.87667 1.75184 4.37048
-3.8857 1.75179 4.36654
-3.89782 1.75056 4.35065
-3.91093 1.75036 4.33675
-3.95817 1.75091 4.3041
-3.97723 1.75281 4.29621
-3.97932 1.75063 4.28426
-4.01148 1.75234 4.26347
-4.02756 1.75219 4.25259
-4.05674 1.75286 4.2288
-4.06985 1.75164 4.21391
-4.07789 1.75258 4.20896
-4.09199 1.75239 4.19607
-4.10212 1.75015 4.17917
-4.12316 1.75308 4.17329
-4.15136 1.75271 4.1475
-4.16347 1.7515 4.13261
-4.17647 1.75449 4.13166
-4.19552 1.7564 4.12478
-4.21061 1.75724 4.11288
-4.22472 1.75704 4.09898
-4.22889 1.7527 4.07608
-4.25093 1.75564 4.0712
-4.26105 1.75441 4.05529
-4.27505 1.75742 4.05535
-4.28319 1.75515 4.03644
-4.30225 1.75704 4.02856
-4.3223 1.75995 4.02167
-4.33441 1.75874 4.00677
-4.34852 1.75854 3.99288
-4.3646 1.75939 3.98199
-4.37562 1.76136 3.97904
-4.3917 1.7622 3.96815
-4.40183 1.76096 3.95124
-4.41991 1.76283 3.94135
-4.43202 1.76161 3.92645
-4.44612 1.76243 3.91355
-4.45525 1.76017 3.89565
-4.46231 1.76007 3.8887
-4.48534 1.76401 3.88382
-4.51036 1.76999 3.88091
-4.51353 1.76565 3.858
-4.52267 1.76339 3.8401
-4.5467 1.76835 3.83621
-4.55187 1.76403 3.81431
-4.55097 1.76082 3.80035
-4.575 1.76578 3.79645
-4.57321 1.75937 3.76953
-4.5883 1.75919 3.75664
-4.62227 1.76828 3.76077
-4.62147 1.76289 3.73484
-4.63556 1.76371 3.72193
-4.65652 1.7688 3.72701
-4.65672 1.76341 3.70109
-4.68373 1.7694 3.6992
-4.71212 1.76565 3.64747
-4.74222 1.76948 3.63463
-5.14407 1.76818 3.12461
-5.15917 1.769 3.11171
-5.17743 1.76749 3.07687
-5.29976 1.76796 2.90076
-5.31287 1.76875 2.88584
-5.35943 1.76867 2.81118
-5.3898 1.76797 2.76242
-5.76585 1.75533 1.96133
-5.77298 1.75507 1.94338
-5.7871 1.75685 1.92746
-5.79025 1.75557 1.9085
-5.79938 1.75531 1.89057
-5.81142 1.75823 1.88462
-5.82055 1.75898 1.86767
-5.81772 1.75565 1.8457
-5.82286 1.75438 1.82675
-5.83498 1.75615 1.81081
-5.83315 1.75282 1.78885
-5.83928 1.75256 1.77089
-5.84244 1.75127 1.75093
-5.83952 1.7491 1.73994
-5.84266 1.74782 1.72098
-5.8508 1.74856 1.70303
-5.88234 1.74952 1.63124
3.92364 1.7602 4.38159
3.83116 1.75927 4.45031
3.8232 1.75937 4.45637
3.78631 1.75662 4.47169
3.76154 1.75908 4.50184
3.74966 1.76133 4.5179
3.73274 1.76049 4.52804
3.72376 1.75954 4.53113
3.70886 1.76074 4.54422
3.69394 1.76091 4.55533
3.66009 1.75922 4.57462
3.64922 1.76148 4.59167
3.6213 1.75966 4.60291
3.56848 1.75606 4.62736
3.56065 1.76039 4.64936
3.52779 1.75969 4.66862
3.51882 1.75976 4.67269
3.50088 1.75789 4.68085
3.46601 1.75717 4.69813
3.44023 1.76062 4.72727
3.42431 1.76079 4.73839
3.41737 1.7609 4.74544
3.39942 1.76002 4.75259
3.38147 1.75913 4.75974
3.35847 1.75515 4.75997
3.34154 1.7543 4.76911
3.33067 1.75757 4.78715
3.29972 1.75368 4.79344
3.28379 1.75384 4.80356
3.27496 1.75916 4.82455
3.24891 1.75309 4.81884
3.23704 1.75535 4.8359
3.22213 1.75654 4.84799
3.19507 1.75045 4.84129
3.19015 1.75261 4.85129
3.17828 1.75487 4.86835
3.15729 1.7519 4.86955
3.13631 1.74996 4.87274
3.12848 1.7543 4.89574
3.10446 1.75028 4.89298
3.08956 1.75148 4.90607
3.08666 1.75467 4.91905
3.06364 1.75066 4.91728
3.04671 1.75081 4.92641
3.03281 1.75201 4.9395
3.01487 1.75114 4.94765
2.99894 1.75129 4.95677
2.98302 1.75246 4.96787
2.971 1.74944 4.96601
2.95711 1.75166 4.98008
2.94525 1.75493 4.99812
2.91919 1.74883 4.99041
2.90935 1.75315 5.01142
2.89648 1.75641 5.02847
2.87345 1.75238 5.02571
2.86144 1.75036 5.02383
2.85261 1.75569 5.04582
2.82756 1.74962 5.04009
2.8157 1.75391 5.05912
2.80181 1.75613 5.0732
2.78285 1.75422 5.07837
2.76185 1.75124 5.07857
2.75895 1.75544 5.09253
2.73695 1.75246 5.09274
2.72002 1.75261 5.10187
2.70817 1.7569 5.1209
2.6892 1.75498 5.12607
2.67429 1.75716 5.13715
2.65329 1.75417 5.13735
2.65041 1.75841 5.15331
2.62839 1.7544 5.15154
2.61858 1.75976 5.17554
2.59046 1.75256 5.16085
2.57148 1.75062 5.16403
2.55658 1.75282 5.17711
2.54678 1.7592 5.20209
2.53271 1.75509 5.19426
2.5229 1.76047 5.21925
2.49273 1.75016 5.19763
2.48293 1.75656 5.22361
2.4721 1.76187 5.24462
2.44803 1.75677 5.23687
2.42601 1.75275 5.2341
2.42112 1.75696 5.24808
2.40011 1.75396 5.24728
2.38725 1.75723 5.26533
2.36215 1.75107 5.25361
2.35642 1.76059 5.28852
2.33033 1.75444 5.2768
2.31747 1.75771 5.29485
2.30544 1.75568 5.29197
2.29055 1.75789 5.30605
2.2685 1.75382 5.30028
2.25157 1.75497 5.30939
2.23464 1.75511 5.31852
2.21566 1.75417 5.32168
2.19772 1.75429 5.32881
2.19689 1.76163 5.35171
2.17078 1.75443 5.33701
2.15895 1.75978 5.36002
2.13284 1.75257 5.34533
2.12101 1.75792 5.36834
2.09692 1.75176 5.35661
2.07796 1.75185 5.36175
2.06387 1.7467 5.35093
2.04897 1.7489 5.36402
2.00999 1.74596 5.36635
2.0033 1.75757 5.40724
1.98226 1.75351 5.40245
1.95919 1.7494 5.39369
1.95021 1.74843 5.39577
1.92919 1.74642 5.39396
1.91225 1.74655 5.40209
1.87531 1.74569 5.41038
1.85068 1.75842 5.45838
1.84172 1.7595 5.46343
1.82169 1.75646 5.45963
1.8017 1.7545 5.46181
1.78477 1.75665 5.47091
1.76887 1.75885 5.48399
1.75193 1.75997 5.49111
1.73297 1.76006 5.49625
1.72706 1.76324 5.50825
1.7081 1.76334 5.51439
1.68603 1.75821 5.50463
1.66808 1.75832 5.51177
1.6491 1.75838 5.51491
1.62909 1.75537 5.5131
1.61524 1.76067 5.53313
1.60319 1.75758 5.52627
1.58524 1.7587 5.53339
1.56935 1.76191 5.54746
1.54932 1.75889 5.54466
1.52932 1.75788 5.54382
1.51342 1.7611 5.5579
1.49548 1.76122 5.56503
1.48443 1.75914 5.55914
1.4665 1.76029 5.56826
1.44853 1.76036 5.5724
1.42748 1.75627 5.56562
1.40848 1.7553 5.56677
1.38848 1.75431 5.56694
1.37362 1.75859 5.58499
1.36777 1.76488 5.60394
1.34567 1.7587 5.5912
1.32667 1.75771 5.59136
1.31081 1.76301 5.6104
1.28766 1.75473 5.5907
1.27283 1.76106 5.61272
1.25284 1.76009 5.61388
1.23969 1.75282 5.59509
1.22382 1.75708 5.61214
1.20796 1.76236 5.63019
1.18792 1.7593 5.62538
1.16893 1.75933 5.62653
1.15306 1.76359 5.64359
1.132 1.75949 5.6358
1.12304 1.76059 5.64186
1.1051 1.7627 5.64896
1.08609 1.7607 5.64813
1.06608 1.75969 5.6463
1.04916 1.76186 5.6574
1.03124 1.76402 5.6675
1.01225 1.76407 5.66964
1.00432 1.76621 5.67867
0.983237 1.76206 5.66789
0.964245 1.76109 5.66905
0.947376 1.76635 5.6861
0.927323 1.76326 5.6793
0.908361 1.76335 5.68444
0.879345 1.76134 5.68269
0.863484 1.76662 5.70073
0.843446 1.76456 5.69591
0.822376 1.76044 5.68713
0.804423 1.76154 5.69325
0.7865 1.76471 5.70334
0.76747 1.76266 5.69951
0.757485 1.7627 5.70159
0.739555 1.76484 5.71069
0.719516 1.76278 5.70587
0.699462 1.7597 5.69907
0.68364 1.76705 5.72208
0.662502 1.7608 5.70433
0.64464 1.76508 5.7224
0.635648 1.7651 5.72347
0.616672 1.76616 5.7266
0.598718 1.76726 5.73272
0.578719 1.76727 5.73287
0.55858 1.76102 5.71511
0.539626 1.76212 5.72124
0.522765 1.7674 5.73929
0.502704 1.7643 5.73149
0.492681 1.76326 5.72858
0.455751 1.76542 5.73782
0.435697 1.76233 5.73102
0.416721 1.76339 5.73415
0.39769 1.76134 5.73032
0.378683 1.76134 5.72947
0.369745 1.76347 5.7375
0.350814 1.76562 5.74661
0.331807 1.76561 5.74576
0.313869 1.76775 5.75386
0.293777 1.76358 5.74207
0.274808 1.76466 5.7462
0.246863 1.76678 5.75338
0.207771 1.76263 5.74173
0.18988 1.76685 5.75581
0.17088 1.76686 5.75595
0.151842 1.7648 5.75113
0.122804 1.76275 5.74637
0.084906 1.76797 5.75958
0.0658369 1.76485 5.75077
0.0468525 1.7649 5.75292
-0.00754483 1.76618 5.56728
-0.0256058 1.76408 5.55945
-0.0355748 1.76514 5.56351
-0.071597 1.76412 5.56079
-0.0906887 1.76096 5.54898
-0.127548 1.76725 5.56717
-0.145579 1.76621 5.56332
-0.17357 1.76624 5.56453
-0.191592 1.76621 5.56167
-0.228553 1.76731 5.56693
-0.247606 1.76622 5.56009
-0.274613 1.76623 5.55929
-0.293566 1.76833 5.5654
-0.311619 1.76624 5.55857
-0.348587 1.76833 5.56282
-0.384724 1.76309 5.54517
-0.44966 1.76725 5.55359
-0.706856 1.76704 5.52853
-2.04618 1.76936 5.22455
-2.07225 1.76923 5.21474
-2.18065 1.76553 5.16261
-2.19967 1.76751 5.16072
-2.23673 1.76941 5.15197
-2.2528 1.76828 5.14311
-2.2779 1.76811 5.1303
-2.33005 1.76785 5.11069
-2.34709 1.76878 5.1048
-2.38219 1.76961 5.09205
-2.39022 1.76956 5.08811
-2.42138 1.76625 5.0664
-2.44139 1.76925 5.0655
-2.47452 1.76802 5.04877
-2.49157 1.76893 5.04188
-2.53174 1.76662 5.01922
-2.55076 1.76859 5.01633
-2.56684 1.76845 5.00645
-2.66114 1.76992 4.96613
-2.67524 1.76773 4.95327
-2.70131 1.7686 4.94345
-2.9081 1.76919 4.83899
-2.95025 1.76992 4.81929
-2.97845 1.76756 4.79354
-3.0096 1.76628 4.77379
-3.02172 1.76305 4.75792
-3.03371 1.76608 4.75897
-3.04977 1.76697 4.75108
-3.05992 1.7627 4.73221
-3.07994 1.76467 4.72933
-3.097 1.76555 4.72045
-3.1101 1.76436 4.70756
-3.1242 1.76218 4.6947
-3.13322 1.76314 4.69175
-3.14435 1.7609 4.67487
-3.16635 1.76392 4.67499
-3.16859 1.75546 4.64413
-3.19651 1.76361 4.65322
-3.20863 1.7614 4.63834
-3.22569 1.76129 4.63047
-3.23273 1.76122 4.62552
-3.24782 1.76106 4.61364
-3.25697 1.75677 4.59377
-3.276 1.75972 4.58987
-3.29405 1.76063 4.58299
-3.31308 1.76257 4.5781
-3.33114 1.76448 4.57121
-3.33521 1.76234 4.56127
-3.35128 1.76221 4.55239
-3.35945 1.75789 4.53051
-3.37947 1.76086 4.52762
-3.39257 1.75968 4.51473
-3.40271 1.75641 4.49586
-3.42768 1.76147 4.49897
-3.43571 1.76242 4.49502
-3.44882 1.76122 4.48113
-3.46093 1.75901 4.46625
-3.4681 1.75469 4.44437
-3.49109 1.75872 4.44548
-3.49924 1.75543 4.42559
-3.52323 1.76046 4.42669
-3.52731 1.75831 4.41676
-3.54536 1.76022 4.40986
-3.56143 1.76009 4.39998
-3.58542 1.76512 4.40109
-3.59357 1.76183 4.3812
-3.61559 1.7648 4.37832
-3.62275 1.76151 4.35842
-3.64068 1.76664 4.36648
-3.64784 1.76233 4.34559
-3.66589 1.76424 4.3387
-3.67702 1.76202 4.32282
-3.703 1.76806 4.32492
-3.71115 1.76477 4.30503
-3.72523 1.76462 4.29414
-3.73624 1.7666 4.29219
-3.74638 1.76334 4.27431
-3.76245 1.76422 4.26542
-3.77852 1.76508 4.25553
-3.79658 1.76698 4.24763
-3.81463 1.76889 4.24074
-3.82971 1.76873 4.22985
-3.82586 1.76345 4.2109
-3.85085 1.76848 4.21201
-3.88201 1.76918 4.19024
-3.89213 1.76795 4.17433
-3.91119 1.76986 4.16744
-3.92429 1.76866 4.15356
-3.92737 1.76752 4.1436
-3.95455 1.76717 4.1188
-3.9637 1.76389 4.09992
-4.02492 1.76949 4.07029
-5.72828 1.75255 1.50502
-5.71938 1.74936 1.492
-5.73649 1.75216 1.47808
-5.73065 1.74883 1.45609
-5.7308 1.74655 1.43712
3.79153 1.7591 4.23458
3.66726 1.75962 4.33152
3.66031 1.75972 4.33857
3.63249 1.7611 4.36277
3.61151 1.75716 4.36598
3.58472 1.75958 4.39315
3.57181 1.76077 4.40523
3.54692 1.75899 4.41945
3.53603 1.76122 4.4345
3.51607 1.75931 4.43968
3.49306 1.75433 4.43993
3.48826 1.7607 4.46487
3.4703 1.7588 4.47104
3.45728 1.75578 4.46918
3.43251 1.75923 4.49832
3.41657 1.75938 4.50744
3.39357 1.75439 4.50769
3.38675 1.75974 4.53066
3.36879 1.75784 4.53683
3.35982 1.75791 4.54089
3.35097 1.76119 4.55991
3.32493 1.75514 4.5552
3.31304 1.75737 4.57026
3.29609 1.75649 4.5774
3.28119 1.75667 4.58951
3.25413 1.75059 4.5828
3.25729 1.7569 4.60369
3.23327 1.75187 4.60094
3.22037 1.75307 4.61403
3.21052 1.75738 4.63404
3.19154 1.75444 4.63722
3.17157 1.75251 4.6414
3.16172 1.7568 4.66042
3.14665 1.75169 4.65261
3.12971 1.75082 4.66075
3.11784 1.75408 4.67779
3.09685 1.75111 4.67899
3.08091 1.75024 4.68713
3.07511 1.75663 4.71308
3.05209 1.75262 4.71131
3.04818 1.75478 4.72231
3.03023 1.7539 4.72946
3.0072 1.74886 4.72571
2.99734 1.75315 4.74472
2.98445 1.75536 4.75879
2.95738 1.74825 4.7501
2.95056 1.75361 4.77407
2.94362 1.75472 4.78111
2.92363 1.75276 4.78329
2.9077 1.75291 4.79241
2.89381 1.75413 4.8065
2.86773 1.74801 4.79778
2.86498 1.75649 4.82968
2.84094 1.75143 4.82494
2.82587 1.74631 4.81612
2.82109 1.75474 4.84504
2.80212 1.75281 4.84921
2.78416 1.7519 4.85436
2.77128 1.75415 4.87043
2.75637 1.75534 4.88252
2.73942 1.75544 4.88865
2.72637 1.75136 4.88281
2.70943 1.75047 4.88995
2.69959 1.75581 4.91195
2.67961 1.75385 4.91413
2.66672 1.75608 4.92919
2.64673 1.75411 4.93037
2.63688 1.75841 4.95039
2.62181 1.75329 4.94158
2.60791 1.7555 4.95465
2.593 1.75667 4.96575
2.5791 1.75889 4.97982
2.55606 1.75483 4.97505
2.54522 1.75913 4.99507
2.52522 1.75716 4.99625
2.51827 1.75726 5.00231
2.49218 1.75111 4.99159
2.47931 1.75436 5.00764
2.4532 1.74619 4.99496
2.43321 1.74422 4.99614
2.41558 1.75694 5.04409
2.4066 1.75699 5.04716
2.39272 1.75922 5.06223
2.36864 1.75309 5.0525
2.35373 1.75528 5.06458
2.32798 1.76177 5.09669
2.29679 1.75044 5.07308
2.29187 1.75259 5.08309
2.27594 1.75374 5.0922
2.26408 1.75803 5.11122
2.24408 1.75604 5.1114
2.22715 1.75619 5.12053
2.2102 1.7563 5.12766
2.19324 1.75639 5.13279
2.17917 1.75127 5.12397
2.16528 1.75448 5.13802
2.14629 1.75251 5.1392
2.13036 1.75367 5.1493
2.11444 1.75483 5.15941
2.09545 1.75386 5.16056
2.0734 1.74879 5.1548
2.06749 1.75197 5.1668
2.05257 1.75413 5.17688
2.03462 1.75425 5.18402
2.01971 1.75542 5.19512
2.00889 1.76278 5.21909
1.98377 1.75458 5.2044
1.96375 1.75155 5.2016
1.94966 1.7464 5.19078
1.93578 1.74963 5.20584
1.89781 1.74772 5.21015
1.84695 1.74903 5.22952
1.84411 1.75433 5.24946
1.82513 1.75339 5.25262
1.81433 1.76078 5.27859
1.79226 1.75567 5.26984
1.78045 1.76203 5.29383
1.75938 1.75793 5.28605
1.74552 1.7622 5.3041
1.73653 1.76222 5.30516
1.71958 1.76234 5.31229
1.70265 1.76449 5.32139
1.67853 1.75627 5.30569
1.64567 1.75957 5.32489
1.6277 1.75963 5.32802
1.60178 1.76081 5.3392
1.58585 1.76196 5.34831
1.56994 1.76514 5.36038
1.54992 1.76212 5.35758
1.53092 1.76013 5.35775
1.51193 1.75916 5.35891
1.505 1.7623 5.36792
1.486 1.76032 5.36909
1.47215 1.76562 5.38812
1.45316 1.76464 5.38927
1.43415 1.76264 5.38845
1.41618 1.76272 5.39258
1.39719 1.76174 5.39374
1.3882 1.76178 5.39581
1.34915 1.75672 5.39018
1.33634 1.76408 5.41417
1.31839 1.76419 5.4203
1.2973 1.75904 5.40953
1.27936 1.76117 5.41764
1.2714 1.76225 5.42268
1.25445 1.76335 5.4288
1.23443 1.76134 5.42698
1.21646 1.76141 5.43111
1.20053 1.76355 5.4402
1.18049 1.75949 5.43541
1.16358 1.76267 5.44649
1.15563 1.76478 5.45352
1.13765 1.76484 5.45666
1.09859 1.75975 5.44903
1.08375 1.76505 5.46906
1.06473 1.76404 5.46722
1.04677 1.76412 5.47235
1.03675 1.7631 5.47045
1.00185 1.76531 5.48268
0.982823 1.76328 5.47985
0.94587 1.76339 5.48613
0.926831 1.76033 5.48132
0.899877 1.76144 5.4875
0.880839 1.75938 5.48268
0.845986 1.76369 5.50188
0.828032 1.76479 5.508
0.792056 1.76486 5.51127
0.783109 1.76597 5.51832
0.764094 1.76495 5.51648
0.727086 1.76296 5.51579
0.690087 1.76199 5.51608
0.645203 1.76525 5.53137
0.590211 1.7643 5.5328
0.542041 1.75501 5.5113
0.507274 1.76448 5.54142
0.489298 1.76554 5.54454
0.424275 1.76254 5.54208
0.388322 1.76366 5.54833
0.369315 1.76365 5.54748
0.332269 1.76059 5.5418
0.32323 1.75853 5.5369
0.287409 1.76589 5.56006
0.268371 1.76383 5.55523
0.231411 1.76593 5.56048
0.213403 1.76493 5.55963
0.185404 1.76495 5.55984
0.167396 1.76395 5.55899
0.13039 1.76396 5.55827
0.112375 1.76295 5.55642
0.0844375 1.76608 5.56459
0.066438 1.7661 5.56472
0.0473532 1.76195 5.55393
0.0367777 1.75686 5.34505
0.0197938 1.7579 5.34717
0.00173223 1.7548 5.33935
-0.00722108 1.75689 5.34539
-0.0252356 1.75688 5.34352
-0.0422665 1.75483 5.33968
-0.0603124 1.75276 5.33384
-0.0781801 1.75902 5.35089
-0.0962568 1.75588 5.34107
-0.113295 1.75482 5.33621
-0.122202 1.75801 5.34824
-0.140279 1.75487 5.33842
-0.158224 1.75799 5.34551
-0.176231 1.75799 5.34464
-0.193339 1.75279 5.33085
-0.211314 1.75485 5.33395
-0.229205 1.76007 5.34801
-0.246328 1.75485 5.33221
-0.255313 1.75488 5.33428
-0.274188 1.76113 5.35033
-0.291258 1.75801 5.34151
-0.309164 1.7632 5.35357
-0.327209 1.76113 5.34773
-0.344279 1.75801 5.33891
-0.354185 1.76319 5.35091
-0.37213 1.76531 5.35801
-0.388284 1.75902 5.33822
-0.406268 1.76007 5.34034
-0.425159 1.76529 5.35441
-0.443228 1.76317 5.34558
-0.460242 1.76315 5.3437
-0.470188 1.76526 5.35075
-0.487241 1.76317 5.34391
-0.504317 1.76103 5.33407
-0.523239 1.76519 5.34415
-0.541207 1.76727 5.34825
-0.558253 1.76519 5.34241
-0.602343 1.76305 5.33078
-0.621288 1.76616 5.33787
-0.637373 1.76301 5.32704
-0.655364 1.76404 5.32816
-0.674293 1.76819 5.33724
-0.690424 1.76295 5.32044
-0.7094 1.765 5.32355
-0.735406 1.76501 5.32275
-0.753443 1.76495 5.31788
-0.770489 1.76287 5.31204
-0.787535 1.7618 5.30619
-0.806471 1.76593 5.31427
-0.823532 1.76382 5.30643
-0.830601 1.76169 5.29751
-0.848608 1.76169 5.29665
-0.867553 1.76481 5.30374
-0.884637 1.76266 5.2929
-0.901667 1.76161 5.28905
-0.929642 1.76468 5.29221
-0.946656 1.76466 5.29034
-0.961795 1.7594 5.27253
-0.980747 1.76251 5.27863
-0.999723 1.76456 5.28174
-1.01775 1.76452 5.27788
-1.03286 1.76132 5.26404
-1.06276 1.76754 5.27717
-1.07788 1.76231 5.26136
-1.09489 1.76329 5.25947
-1.11483 1.76743 5.26756
-1.12803 1.75905 5.24178
-1.14891 1.76629 5.25683
-1.16694 1.76624 5.25297
-1.17497 1.76519 5.24905
-1.192 1.76514 5.24517
-1.22803 1.76611 5.24143
-1.24313 1.76293 5.22859
-1.26309 1.76602 5.2337
-1.28109 1.76803 5.2338
-1.28815 1.76592 5.22589
-1.30714 1.76794 5.227
-1.75506 1.76743 5.10636
-1.77211 1.76736 5.10049
-1.8013 1.76199 5.07479
-1.8203 1.76401 5.0749
-1.83636 1.7629 5.06704
-1.84244 1.75976 5.05713
-1.86044 1.76177 5.05723
-1.87455 1.75856 5.04239
-1.8916 1.75848 5.03652
-1.90177 1.75316 5.01467
-1.92566 1.75937 5.02776
-1.9339 1.75092 4.99694
-1.94487 1.75299 5.00099
-1.96288 1.75499 5.0001
-1.99108 1.74961 4.97339
-2.01009 1.75161 4.9725
-2.04924 1.75034 4.95281
-2.09937 1.75011 4.93519
-2.59502 1.7502 4.71789
-2.73052 1.7513 4.65189
-2.74559 1.75118 4.643
-2.76363 1.75211 4.63712
-2.77573 1.74992 4.62425
-2.78969 1.75401 4.62929
-2.79884 1.74973 4.61042
-2.81589 1.75064 4.60353
-2.83589 1.75364 4.60264
-2.848 1.75144 4.58876
-2.86209 1.75027 4.57688
-2.88506 1.75535 4.58098
-2.88716 1.75216 4.56804
-2.9383 1.7549 4.54839
-2.96449 1.75155 4.52363
-2.97956 1.75143 4.51474
-3.00069 1.75018 4.49692
-3.13126 1.75114 4.42188
-3.17253 1.74966 4.38721
-3.39057 1.75174 4.2488
-3.49003 1.7549 4.18749
-3.49719 1.75061 4.16761
-3.56749 1.75405 4.12708
-3.57564 1.75077 4.10819
-3.58773 1.74959 4.0953
-3.61689 1.7503 4.0745
-3.63493 1.75222 4.06861
-3.64803 1.75204 4.05571
-3.66816 1.7518 4.03886
-3.69017 1.75579 4.03697
-3.72131 1.75753 4.01817
-3.73243 1.75632 4.00327
-3.74859 1.754 3.98143
-3.77755 1.7611 3.98654
-3.78172 1.75678 3.96463
-3.79581 1.75661 3.95274
-3.81782 1.76059 3.95085
-3.81703 1.75319 3.92395
-3.82714 1.75198 3.90904
-3.84212 1.75602 3.91109
-3.85521 1.75585 3.89919
-3.86136 1.75258 3.88028
-3.89032 1.75965 3.8844
-3.8935 1.75432 3.8615
-3.91254 1.75724 3.8556
-3.93754 1.76326 3.8557
-3.94161 1.76213 3.84674
-3.94775 1.75885 3.82783
-3.96779 1.76178 3.82194
-3.97295 1.75747 3.80104
-3.98405 1.75629 3.78814
-4.016 1.7654 3.79425
-4.0152 1.75901 3.76833
-4.02919 1.76304 3.76938
-4.04724 1.76495 3.76248
-4.05141 1.76062 3.74058
-4.05557 1.75632 3.71967
-4.08454 1.76338 3.72278
-4.10061 1.76526 3.71387
-4.09981 1.75888 3.68796
-4.11579 1.76292 3.69002
-4.13781 1.76789 3.68711
-4.14197 1.76358 3.6662
-4.15904 1.76544 3.6563
-4.16618 1.76218 3.6384
-4.17927 1.76301 3.62649
-4.19137 1.76283 3.61358
-4.20645 1.76368 3.60268
-4.21845 1.76667 3.60173
-4.23354 1.76752 3.59083
-4.25278 1.76506 3.559
-4.26885 1.76692 3.54909
-4.27698 1.76468 3.53219
-4.29603 1.76759 3.52529
-4.30208 1.76749 3.51833
-4.30623 1.7642 3.49841
-4.32231 1.76606 3.4885
-4.33838 1.76692 3.47861
-4.55215 1.76858 3.24416
-4.5825 1.76692 3.19841
-4.70668 1.76769 3.04231
-4.74099 1.76809 3.00056
-4.79562 1.76589 2.91699
-4.80872 1.76771 2.90406
-4.82389 1.76738 2.88118
-4.83301 1.76615 2.86526
-4.8471 1.76798 2.85334
-4.85722 1.76775 2.83742
-4.86236 1.76549 2.81949
-4.88856 1.76711 2.79266
-4.89966 1.76791 2.77873
-5.42847 1.7569 1.74373
-5.44074 1.7564 1.70883
-5.44081 1.75526 1.69984
-5.45107 1.75475 1.66492
-5.4592 1.75451 1.64798
-5.46532 1.75426 1.63103
-5.45749 1.74893 1.60905
-5.46861 1.7507 1.5931
-5.47466 1.7516 1.58613
-5.46783 1.74728 1.56514
-5.48094 1.74907 1.55021
-5.49206 1.75084 1.53427
-5.49534 1.7473 1.49734
5.65923 1.73209 0.867445
5.65737 1.73236 0.885457
5.66653 1.73766 0.906313
5.66266 1.73793 0.92434
4.12235 1.75766 3.67803
4.09554 1.75805 3.70323
4.018 1.75501 3.76487
3.98725 1.75652 3.79808
3.96829 1.75361 3.80327
3.94348 1.75401 3.82945
3.94067 1.75937 3.8534
3.91475 1.75655 3.86464
3.89882 1.75569 3.87377
3.88995 1.75795 3.89081
3.87099 1.75506 3.897
3.8591 1.75627 3.91107
3.84921 1.7575 3.92613
3.83529 1.75767 3.93723
3.83136 1.75881 3.94624
3.80556 1.76021 3.97242
3.78659 1.75729 3.97661
3.77369 1.75749 3.9897
3.75675 1.75662 3.99785
3.74485 1.75682 4.01093
3.73991 1.75796 4.01996
3.72801 1.75916 4.03303
3.70906 1.75726 4.0392
3.69716 1.75746 4.05229
3.68223 1.75762 4.0624
3.66428 1.75574 4.06957
3.65541 1.758 4.0866
3.63533 1.75085 4.07586
3.62545 1.75309 4.0919
3.61457 1.75534 4.10795
3.58853 1.74828 4.10325
3.58573 1.75467 4.12918
3.57181 1.75484 4.14029
3.55487 1.75396 4.14743
3.54185 1.74994 4.14558
3.53198 1.7532 4.16261
3.51401 1.75028 4.16779
3.49606 1.74939 4.17394
3.48921 1.75269 4.19395
3.46419 1.74766 4.19121
3.44825 1.74579 4.19936
3.44331 1.74791 4.20737
3.42737 1.74604 4.21551
3.42154 1.75139 4.23848
3.40459 1.75049 4.24462
3.37956 1.74446 4.2419
3.37171 1.74875 4.2609
3.35577 1.74688 4.26905
3.3387 1.74176 4.26025
3.31997 1.74729 4.29532
3.30302 1.74641 4.30246
3.28303 1.74345 4.30465
3.26811 1.74361 4.31476
3.25318 1.74276 4.32389
3.23534 1.74608 4.34498
3.19056 1.74554 4.37433
3.17057 1.74259 4.37652
3.15565 1.74275 4.38663
3.10187 1.74223 4.41705
3.0352 1.74291 4.46055
2.68665 1.74301 4.6552
2.46549 1.7438 4.76687
2.42665 1.74516 4.78915
2.39275 1.74436 4.80141
2.34491 1.74472 4.82377
2.30302 1.74396 4.8381
1.93311 1.74536 4.98489
1.80743 1.74506 5.02685
1.76759 1.7474 5.04811
1.04587 1.74641 5.22159
1.00295 1.74759 5.2319
0.951016 1.74776 5.24129
0.890078 1.74692 5.24976
0.820155 1.74712 5.26028
0.794194 1.74822 5.26546
0.760333 1.75251 5.28366
0.741248 1.74836 5.27286
0.724295 1.74946 5.27898
0.70731 1.7495 5.2811
0.690372 1.75163 5.2892
0.681395 1.75168 5.29227
0.664442 1.75378 5.29836
0.628411 1.75075 5.29468
0.611442 1.75182 5.29879
0.593427 1.75081 5.29694
0.575427 1.74982 5.29709
0.567504 1.75297 5.30711
0.548412 1.74881 5.29531
0.532528 1.75304 5.31037
0.514544 1.75308 5.31251
0.496521 1.75205 5.30966
0.479575 1.75417 5.31675
0.461606 1.75424 5.32089
0.452506 1.75006 5.30802
0.434575 1.7522 5.31712
0.417646 1.75535 5.3262
0.399561 1.7512 5.3154
0.381585 1.75226 5.31852
0.364685 1.75646 5.33159
0.346562 1.75024 5.31581
0.337623 1.75236 5.32385
0.319601 1.75133 5.321
0.301547 1.74924 5.31417
0.284586 1.75033 5.31928
0.267679 1.75452 5.33135
0.249703 1.75457 5.33448
0.231688 1.75456 5.33262
0.222719 1.75562 5.33667
0.205773 1.75774 5.34377
0.187712 1.75463 5.33595
0.169635 1.7515 5.32613
0.15269 1.75361 5.33323
0.134636 1.75152 5.32639
0.116745 1.75574 5.34047
0.107745 1.75575 5.34054
0.0906989 1.75367 5.33469
0.0727923 1.75787 5.34677
0.0547075 1.75372 5.33596
-0.593744 1.7493 5.14589
-0.703877 1.74811 5.12873
-0.721861 1.74916 5.13085
-0.73083 1.75122 5.13489
-0.781873 1.75217 5.12926
-0.797965 1.74901 5.11743
-0.833916 1.75312 5.12364
-0.875006 1.75097 5.11198
-0.891075 1.74885 5.10313
-0.910012 1.75298 5.11121
-0.944056 1.75292 5.10547
-0.969101 1.75185 5.09967
-0.986139 1.75079 5.09482
-1.00221 1.74867 5.08597
-1.01824 1.7486 5.08109
-1.03623 1.75065 5.08319
-1.07928 1.75057 5.07652
-1.09533 1.74948 5.06965
-1.11138 1.7484 5.06379
-1.13033 1.75251 5.06987
-1.18044 1.75032 5.05528
-1.20549 1.75024 5.04847
-1.22152 1.75019 5.04459
-1.24145 1.75434 5.05368
-1.27261 1.75006 5.03398
-1.2906 1.75208 5.03408
-1.29863 1.75102 5.03016
-1.31661 1.75308 5.03326
-1.3346 1.75511 5.03437
-1.3526 1.75712 5.03447
-1.36671 1.75292 5.02064
-1.38664 1.75806 5.02872
-1.4027 1.75695 5.02085
-1.41363 1.76109 5.02988
-1.42969 1.75898 5.02203
-1.45061 1.76415 5.03211
-1.46862 1.76614 5.03121
-1.4837 1.76399 5.02036
-1.49975 1.76292 5.01449
-1.51968 1.76805 5.02257
-1.5248 1.76283 5.00768
-1.54573 1.76798 5.01677
-1.57782 1.76782 5.00501
-1.62891 1.76868 4.99338
-1.63597 1.76657 4.98546
-1.67003 1.76748 4.9777
-1.68217 1.76222 4.95987
-1.69823 1.76211 4.95199
-1.71526 1.76205 4.94712
-1.73229 1.762 4.94325
-1.7403 1.76299 4.9423
-1.75148 1.75566 4.91949
-1.76849 1.75765 4.91758
-1.78748 1.75967 4.9187
-1.80352 1.7596 4.91282
-1.81861 1.75744 4.90196
-1.83172 1.75423 4.88711
-1.83975 1.75419 4.88417
-1.87283 1.75404 4.87242
-1.91901 1.75173 4.8498
-2.63644 1.74943 4.52919
-2.67558 1.75019 4.51147
-2.69163 1.7511 4.50458
-2.7257 1.75397 4.49479
-2.73485 1.7497 4.47592
-2.76188 1.75265 4.47108
-2.773 1.74943 4.45621
-2.78708 1.74928 4.44532
-2.80708 1.75229 4.44542
-2.82313 1.75319 4.43753
-2.8382 1.75306 4.42864
-2.86411 1.76025 4.43973
-2.85931 1.75186 4.41382
-2.87142 1.74966 4.39994
-2.96785 1.74989 4.34366
-3.01107 1.74947 4.31398
-3.02515 1.74933 4.30409
-3.18691 1.74994 4.20329
-3.26631 1.75121 4.15086
-3.31744 1.75597 4.13217
-3.34572 1.75146 4.09644
-3.35781 1.75029 4.08455
-3.37386 1.7512 4.07766
-3.40301 1.75192 4.05786
-3.42116 1.75064 4.03802
-3.44117 1.75462 4.03611
-3.46734 1.7533 4.01332
-3.47746 1.75109 3.99843
-3.50562 1.7518 3.97763
-3.51761 1.75381 3.97769
-3.52377 1.74951 3.9578
-3.53685 1.74936 3.9469
-3.55984 1.75539 3.94798
-3.59909 1.75492 3.91428
-3.60515 1.7538 3.90634
-3.61229 1.75054 3.88844
-3.63231 1.75451 3.88553
-3.63946 1.75024 3.86664
-3.68862 1.75593 3.84393
-3.70082 1.75156 3.81808
-3.71886 1.75348 3.81219
-3.726 1.75122 3.79427
-3.74801 1.7552 3.79238
-3.76011 1.75502 3.77947
-3.76626 1.75074 3.76058
-3.77627 1.75272 3.75862
-3.78936 1.75255 3.74672
-3.79748 1.75032 3.73081
-3.81552 1.75325 3.72491
-3.83258 1.75514 3.71701
-3.84071 1.75289 3.7001
-3.85578 1.75377 3.6912
-3.87481 1.75671 3.6863
-3.87095 1.75146 3.66934
-3.88701 1.75334 3.66043
-3.90506 1.75624 3.65353
-3.91715 1.75608 3.64162
-3.92429 1.75282 3.62372
-3.93936 1.75369 3.61482
-3.9584 1.75762 3.6089
-3.96147 1.75549 3.59996
-3.97654 1.75735 3.59004
-3.97971 1.75203 3.56814
-3.99974 1.75597 3.56323
-4.00787 1.75374 3.54732
-4.02592 1.75663 3.53942
-4.04199 1.75851 3.53051
-4.06987 1.76875 3.54557
-4.077 1.7665 3.52865
-4.0752 1.76012 3.50273
-4.08333 1.75787 3.48582
-4.09641 1.75772 3.47492
-4.12142 1.76371 3.47302
-4.18993 1.76475 3.40551
-4.20203 1.76457 3.3926
-4.21313 1.76437 3.37869
-4.23922 1.76821 3.36683
-4.25033 1.76801 3.35291
-4.26757 1.76455 3.32109
-4.28066 1.76538 3.30917
-4.28878 1.76415 3.29325
-4.2988 1.76611 3.2903
-4.30891 1.7649 3.27539
-4.32399 1.76676 3.26547
-4.32217 1.7604 3.24155
-4.33527 1.76122 3.22864
-4.3414 1.75897 3.21171
-4.35548 1.75982 3.2008
-4.37147 1.76485 3.20185
-4.37959 1.76261 3.18594
-4.39565 1.76549 3.17702
-4.40378 1.76426 3.1611
-4.4119 1.76202 3.14419
-4.41803 1.75977 3.12727
-4.42715 1.75955 3.11234
-4.44214 1.76356 3.11239
-4.45722 1.76541 3.10147
-4.46435 1.76318 3.08556
-4.4675 1.75989 3.06563
-4.48854 1.76481 3.05971
-4.49965 1.7646 3.0448
-4.50677 1.76237 3.02888
-4.52177 1.76638 3.02894
-4.52095 1.76204 3.00599
-4.53404 1.76287 2.99408
-4.54613 1.76368 2.98115
-4.55922 1.76452 2.96924
-4.5864 1.76618 2.94541
-4.59452 1.76595 2.92948
-4.61666 1.7677 2.91162
-5.3331 1.75264 1.52704
-5.34322 1.75341 1.51111
-5.34137 1.75112 1.49212
-5.35248 1.75191 1.47719
-5.35554 1.75179 1.46922
-5.35568 1.75051 1.45024
-5.36281 1.75028 1.43429
-5.35896 1.74698 1.41431
-5.37534 1.74624 1.36344
4.05826 1.75854 3.53248
4.02942 1.75689 3.55473
4.00854 1.75614 3.5709
3.95992 1.75692 3.62126
3.95104 1.75916 3.6373
3.94206 1.75821 3.64038
3.91322 1.75654 3.66162
3.89728 1.75467 3.66977
3.86944 1.75401 3.69099
3.86863 1.75938 3.71592
3.85865 1.75841 3.71801
3.84977 1.75966 3.73406
3.82576 1.75466 3.73332
3.81689 1.75692 3.75035
3.80296 1.75608 3.76047
3.79005 1.75626 3.77257
3.77513 1.75542 3.7827
3.76817 1.7555 3.78775
3.75122 1.75362 3.7949
3.73428 1.75175 3.80306
3.72238 1.75195 3.81615
3.71148 1.75315 3.82922
3.7016 1.75539 3.84526
3.67758 1.74938 3.84353
3.66759 1.74742 3.84563
3.66175 1.75172 3.86562
3.6448 1.74984 3.87277
3.63087 1.74999 3.88288
3.62099 1.75222 3.89792
3.60303 1.74933 3.9041
3.59214 1.75054 3.91817
3.58719 1.75165 3.92519
3.56722 1.74872 3.92938
3.54926 1.74581 3.93456
3.53836 1.74702 3.94863
3.52242 1.74615 3.95676
3.50548 1.74427 3.96392
3.49559 1.7465 3.97896
3.46786 1.75004 4.01412
3.43676 1.74088 4.00249
3.42385 1.74107 4.01459
3.41498 1.74433 4.03161
3.39309 1.74355 4.04579
3.34828 1.74197 4.07215
-0.327776 1.74809 5.00788
-0.343783 1.74809 5.007
-0.368797 1.74808 5.00519
-0.402773 1.75015 5.00842
-0.436779 1.75016 5.00767
-0.543882 1.74903 4.9945
-0.561866 1.75007 4.99662
-0.635962 1.74893 4.98419
-0.652961 1.74994 4.9843
-0.668983 1.74991 4.98142
-0.685983 1.74992 4.98155
-0.694959 1.75197 4.98459
-0.712919 1.75406 4.98969
-0.74501 1.75191 4.97797
-0.802092 1.75079 4.96741
-0.820068 1.75284 4.97052
-0.868173 1.75067 4.95691
-0.885179 1.75167 4.95602
-0.908271 1.74851 4.94424
-0.925277 1.74951 4.94336
-0.942276 1.75052 4.94347
-0.962182 1.75571 4.95554
-0.992343 1.75042 4.93485
-1.01126 1.75558 4.94491
-1.0164 1.74934 4.92804
-1.03245 1.74824 4.92118
-1.06548 1.74919 4.91641
-1.08248 1.75021 4.91653
-1.09947 1.75123 4.91764
-1.12449 1.75322 4.9158
-1.14053 1.75214 4.90993
-1.15853 1.75316 4.91005
-1.1736 1.75104 4.9012
-1.1906 1.75305 4.9013
-1.2047 1.74887 4.88846
-1.22654 1.75818 4.90849
-1.2307 1.75087 4.88763
-1.24769 1.75291 4.88973
-1.26373 1.75283 4.88385
-1.27782 1.74968 4.873
-1.29872 1.75587 4.88507
-1.31671 1.7579 4.88617
-1.33079 1.75576 4.87631
-1.33883 1.7547 4.87138
-1.35679 1.75777 4.87547
-1.36991 1.75356 4.86063
-1.38694 1.75351 4.85676
-1.40881 1.76178 4.87381
-1.42291 1.75858 4.85996
-1.4438 1.7648 4.87403
-1.4489 1.76061 4.86112
-1.46592 1.76158 4.85824
-1.48392 1.76359 4.85834
-1.50091 1.76562 4.85944
-1.51599 1.76348 4.84959
-1.53496 1.76656 4.85368
-1.55802 1.76644 4.84486
-1.62513 1.76828 4.83133
-1.65427 1.76502 4.8126
-1.66229 1.76498 4.80966
-1.68126 1.76806 4.81376
-1.69144 1.76171 4.78993
-1.7075 1.76062 4.78306
-1.72353 1.76157 4.77917
-1.73858 1.76048 4.7723
-1.74973 1.75519 4.75246
-1.76069 1.75828 4.75849
-1.77478 1.75512 4.74664
-1.7918 1.75709 4.74374
-1.8088 1.7591 4.74384
-1.81799 1.75073 4.71903
-1.83501 1.7527 4.71613
-1.84908 1.75058 4.70727
-1.8571 1.75054 4.70433
-1.88918 1.75142 4.69455
-1.92027 1.75126 4.68279
-1.93533 1.75015 4.67492
-1.9494 1.74902 4.66504
-1.95841 1.75001 4.66409
-1.97444 1.74995 4.65921
-1.99047 1.7509 4.65532
-2.01044 1.75497 4.65941
-2.02551 1.75385 4.65054
-2.03861 1.75167 4.63767
-2.05464 1.7516 4.63279
-2.0607 1.7505 4.62585
-2.07576 1.7494 4.61798
-2.15497 1.75103 4.58955
-2.15905 1.74888 4.57961
-2.20718 1.74966 4.56296
-2.29146 1.75016 4.52558
-2.30651 1.75007 4.51869
-2.32157 1.74996 4.51081
-2.35971 1.74972 4.4931
-2.39081 1.74954 4.47933
-2.41176 1.75564 4.4854
-2.43498 1.74923 4.45667
-2.4741 1.75102 4.44093
-2.48718 1.74887 4.43006
-2.51013 1.75499 4.43714
-2.52026 1.75174 4.42027
-2.53926 1.75474 4.41936
-2.55038 1.75153 4.40449
-2.55543 1.75043 4.39755
-2.57444 1.75241 4.39566
-2.58753 1.75126 4.38478
-2.60356 1.7522 4.37988
-2.62159 1.75415 4.37599
-2.63861 1.75612 4.37309
-2.64578 1.7508 4.35122
-2.66465 1.75905 4.36724
-2.68168 1.761 4.36334
-2.68884 1.7557 4.34247
-2.71179 1.7618 4.34855
-2.72291 1.75859 4.33368
-2.73895 1.75951 4.32779
-2.75599 1.76145 4.32289
-2.76796 1.7645 4.32593
-2.78797 1.7675 4.32504
-2.79512 1.76221 4.30517
-2.8082 1.76207 4.29527
-2.82524 1.763 4.28938
-2.83536 1.76078 4.27449
-2.8514 1.7617 4.26859
-2.86635 1.7658 4.27465
-2.87943 1.76566 4.26474
-2.88955 1.76243 4.24887
-2.8967 1.75814 4.22898
-2.91571 1.76114 4.22808
-2.93078 1.76101 4.21819
-2.94287 1.75984 4.2063
-2.95189 1.76081 4.20435
-2.95902 1.75655 4.18647
-2.97608 1.75746 4.17958
-2.99805 1.76252 4.18267
-3.00223 1.75718 4.15978
-3.02026 1.75912 4.15489
-3.03928 1.76211 4.15299
-3.03247 1.75273 4.12807
-3.05247 1.75675 4.12816
-3.07643 1.76282 4.13225
-3.08655 1.76061 4.11736
-3.0927 1.75632 4.09747
-3.1137 1.75932 4.09658
-3.12778 1.75918 4.08669
-3.12986 1.75702 4.07573
-3.15383 1.76309 4.07982
-3.15306 1.75365 4.04995
-3.17207 1.75763 4.04804
-3.19109 1.7606 4.04514
-3.19626 1.75528 4.02325
-3.21528 1.75825 4.02035
-3.22726 1.7613 4.0234
-3.23539 1.75804 4.0055
-3.24649 1.75686 3.9926
-3.27244 1.76397 3.99869
-3.2885 1.76486 3.9908
-3.2897 1.75748 3.96492
-3.30872 1.76045 3.96201
-3.30487 1.75416 3.94308
-3.32586 1.75918 3.94316
-3.34984 1.76524 3.94625
-3.35401 1.7589 3.92337
-3.37006 1.76081 3.91646
-3.3871 1.76275 3.91156
-3.3893 1.75636 3.88567
-3.39534 1.75629 3.88072
-3.41535 1.76028 3.87881
-3.41952 1.75496 3.85692
-3.43855 1.75791 3.85301
-3.45262 1.75777 3.84312
-3.45678 1.75347 3.82221
-3.46986 1.75331 3.81131
-3.49385 1.75936 3.8134
-3.48602 1.75103 3.79147
-3.50009 1.75189 3.78156
-3.52704 1.759 3.78766
-3.52922 1.75365 3.76375
-3.54428 1.75454 3.75585
-3.55935 1.75542 3.74695
-3.57937 1.75938 3.74404
-3.58145 1.75622 3.7331
-3.60147 1.76019 3.73019
-3.60364 1.75487 3.70828
-3.61376 1.75366 3.69338
-3.63278 1.75661 3.68947
-3.6419 1.75438 3.67357
-3.66589 1.76041 3.67467
-3.66995 1.75931 3.66771
-3.68501 1.76119 3.6588
-3.69513 1.75897 3.6439
-3.70226 1.75673 3.62699
-3.71633 1.75659 3.61709
-3.73537 1.76053 3.61218
-3.75737 1.76553 3.61127
-3.74854 1.7572 3.58932
-3.76857 1.76115 3.58542
-3.78562 1.76406 3.5785
-3.79869 1.76392 3.5686
-3.80681 1.76169 3.55269
-3.8189 1.76152 3.54078
-3.831 1.76134 3.52788
-3.84995 1.76744 3.53393
-3.8551 1.76416 3.51501
-3.88522 1.76693 3.4982
-3.89732 1.76675 3.48529
-3.9104 1.7676 3.47437
-3.92348 1.76844 3.46346
-3.95372 1.76801 3.43269
-3.9779 1.76767 3.40887
-4.01823 1.76705 3.36518
-4.03132 1.76788 3.35326
-4.13012 1.76737 3.247
-4.15431 1.76801 3.22217
-4.16747 1.7667 3.20029
-4.21783 1.76802 3.15264
-4.2522 1.76632 3.10392
-4.28549 1.76677 3.06516
-4.29759 1.76658 3.05225
-4.30173 1.76432 3.03431
-4.31374 1.7663 3.03237
-4.325 1.76181 2.99852
-4.32914 1.75953 2.97958
-4.34422 1.76139 2.96966
-4.35929 1.76325 2.95975
-4.37039 1.76307 2.94683
-4.38042 1.76502 2.94288
-4.39251 1.76585 2.93096
-4.40559 1.76668 2.91904
-4.42282 1.76525 2.88919
-4.43093 1.76403 2.87427
-4.43316 1.75859 2.84436
-4.4562 1.76353 2.83946
-4.47326 1.76741 2.83053
-4.47839 1.76516 2.8136
-4.50457 1.76683 2.78977
-4.56925 1.76753 2.69923
-5.26256 1.74776 1.20054
-5.2637 1.74549 1.18258
3.49439 1.75713 3.81879
3.48248 1.75832 3.83086
3.43465 1.75368 3.8533
3.43778 1.75993 3.87018
3.41376 1.75391 3.86845
3.4069 1.75719 3.88646
3.40004 1.76046 3.90446
3.38409 1.75957 3.9116
3.36613 1.75666 3.91678
3.34715 1.75372 3.91996
3.34321 1.75484 3.92798
3.31818 1.7488 3.92426
3.31738 1.75618 3.95016
3.29133 1.74911 3.94446
3.2875 1.75446 3.96741
3.26145 1.74737 3.96071
3.25763 1.75373 3.98465
3.24258 1.74864 3.97784
3.22966 1.74881 3.98893
3.21674 1.74897 3.99903
3.2018 1.74911 4.00814
3.19191 1.75133 4.02218
3.17496 1.74943 4.02834
3.16204 1.7496 4.03944
3.15204 1.74761 4.03954
3.14115 1.74984 4.05459
3.12217 1.74688 4.05678
3.10419 1.74394 4.05996
3.09128 1.74513 4.07204
3.08139 1.74734 4.08608
3.06745 1.74748 4.09519
3.06049 1.74756 4.10024
3.04454 1.74666 4.10637
3.03365 1.74889 4.12143
3.01972 1.74904 4.13053
3.0068 1.74921 4.14163
2.99085 1.74831 4.14776
2.97085 1.74433 4.14797
2.96084 1.74233 4.14807
2.954 1.74763 4.16805
2.93906 1.74676 4.17618
2.92209 1.74483 4.18033
2.91222 1.74809 4.19736
2.89626 1.74719 4.2035
2.87929 1.74527 4.20765
2.87536 1.7474 4.21665
2.8384 1.7425 4.222
2.82851 1.74473 4.23705
2.8166 1.74692 4.24911
2.79863 1.74499 4.25327
2.78673 1.74618 4.26535
2.77571 1.74316 4.26347
2.7628 1.74534 4.27554
2.74785 1.74446 4.28267
2.73494 1.74564 4.29475
2.70506 1.74589 4.30997
2.69011 1.745 4.3171
2.65326 1.74533 4.33737
2.63933 1.74547 4.34648
2.6064 1.74263 4.35577
2.5855 1.74385 4.36991
2.56955 1.74295 4.37605
2.55563 1.74411 4.38613
2.53967 1.74321 4.39227
2.52472 1.74331 4.39838
2.4989 1.74668 4.42253
2.48991 1.7457 4.42361
2.47294 1.74378 4.42777
2.46205 1.74701 4.4428
2.44609 1.74609 4.44794
2.42129 1.75049 4.47406
2.4043 1.74854 4.47622
2.39024 1.74443 4.46839
2.37833 1.74661 4.48045
2.34947 1.7479 4.49865
2.33453 1.74803 4.50676
2.30057 1.74513 4.51206
2.29767 1.74934 4.52602
2.27868 1.74637 4.52721
2.26373 1.74648 4.53432
2.23079 1.74463 4.5426
2.20497 1.74798 4.56574
2.16405 1.74618 4.57708
2.11618 1.74546 4.59445
2.02941 1.74397 4.62513
1.63648 1.74635 4.76908
0.357211 1.74661 5.00374
0.106286 1.74693 5.01463
-0.553777 1.74927 4.87555
-0.602806 1.74925 4.87192
-0.870091 1.74987 4.83492
-0.937103 1.75289 4.83338
-0.991269 1.7486 4.81185
-1.00631 1.74854 4.80696
-1.02331 1.74955 4.80707
-1.03836 1.74846 4.8002
-1.1265 1.74824 4.78187
-1.15248 1.75029 4.78403
-1.18258 1.74812 4.77129
-1.19861 1.74807 4.76741
-1.24351 1.75628 4.77963
-1.27172 1.7499 4.75293
-1.29063 1.75508 4.764
-1.31977 1.75183 4.74627
-1.35183 1.75174 4.73851
-1.35984 1.75173 4.73757
-1.37976 1.75789 4.74763
-1.39287 1.75368 4.73279
-1.40598 1.74948 4.71895
-1.42492 1.7536 4.72603
-1.439 1.75146 4.71617
-1.45797 1.75553 4.72025
-1.46889 1.75969 4.73027
-1.48492 1.75964 4.72639
-1.4951 1.75331 4.70356
-1.51502 1.75845 4.71263
-1.533 1.76151 4.71572
-1.54514 1.75625 4.69789
-1.56507 1.76139 4.70597
-1.57405 1.76344 4.709
-1.58619 1.75818 4.69117
-1.60514 1.76228 4.69725
-1.62021 1.76116 4.68838
-1.65129 1.76102 4.67762
-1.6683 1.76202 4.67673
-1.67729 1.76304 4.67778
-1.68942 1.7588 4.66094
-1.70347 1.7587 4.65404
-1.7205 1.75866 4.65017
-1.74141 1.76583 4.66122
-1.75353 1.76162 4.64637
-1.76563 1.75842 4.63251
-1.77562 1.76046 4.63456
-1.79263 1.76144 4.63267
-1.80278 1.75615 4.61282
-1.82371 1.7613 4.6219
-1.83092 1.75291 4.59508
-1.85382 1.76012 4.60815
-1.86494 1.75589 4.59229
-1.87198 1.75582 4.58735
-1.89095 1.75888 4.59044
-1.90307 1.75566 4.57558
-1.91714 1.75353 4.56572
-1.93317 1.75448 4.56182
-1.94821 1.75542 4.55692
-1.9672 1.75744 4.55803
-1.97128 1.7553 4.5481
-1.98634 1.75419 4.54022
-1.99941 1.75305 4.53034
-2.02233 1.75923 4.54142
-2.03049 1.75291 4.51957
-2.04752 1.75488 4.51667
-2.06355 1.75482 4.51179
-2.06961 1.75372 4.50485
-2.07974 1.74948 4.48799
-2.10559 1.75876 4.50605
-2.1177 1.75656 4.49217
-2.12785 1.75129 4.47332
-2.14189 1.75121 4.46743
-2.16285 1.7563 4.47251
-2.16988 1.75624 4.46857
-2.18394 1.75514 4.46069
-2.20293 1.75816 4.46179
-2.21602 1.756 4.44992
-2.23205 1.75795 4.44601
-2.2471 1.75786 4.43912
-2.26314 1.75779 4.43424
-2.26329 1.75151 4.41533
-2.27932 1.75346 4.41142
-2.29929 1.75752 4.41452
-2.31533 1.75745 4.40864
-2.33628 1.76355 4.4147
-2.34247 1.7562 4.39086
-2.35457 1.75402 4.37798
-2.36653 1.7571 4.38302
-2.38157 1.75802 4.37712
-2.39762 1.75894 4.37123
-2.41463 1.76093 4.36933
-2.42673 1.75874 4.35645
-2.4408 1.7576 4.34657
-2.45486 1.75751 4.33968
-2.4619 1.75643 4.33375
-2.48187 1.7615 4.33782
-2.49693 1.76139 4.32994
-2.50705 1.75816 4.31406
-2.52111 1.75806 4.30616
-2.54307 1.76315 4.31125
-2.55517 1.76096 4.29838
-2.57527 1.76077 4.28453
-2.59526 1.7648 4.28562
-2.60933 1.76368 4.27674
-2.62734 1.76666 4.27483
-2.63746 1.76344 4.25995
-2.65547 1.76643 4.25805
-2.66054 1.7643 4.24911
-2.68669 1.76202 4.22934
-2.71877 1.76488 4.21854
-2.73778 1.76788 4.21764
-2.87548 1.76459 4.12471
-2.93273 1.76614 4.09211
-2.94989 1.76284 4.07129
-2.97186 1.7679 4.07438
-2.98493 1.76778 4.06548
-2.9891 1.76144 4.0426
-3.00416 1.76233 4.0347
-3.02824 1.7642 4.02485
-3.04725 1.76719 4.02295
-3.05835 1.766 4.01005
-3.06549 1.76173 3.99117
-3.08451 1.76471 3.98927
-3.09956 1.76662 3.98235
-3.10373 1.76028 3.95947
-3.11175 1.76126 3.95752
-3.13769 1.76838 3.96461
