-3.05652 1.78655 5.03598
-3.07261 1.7854 5.02512
-3.09263 1.78737 5.02224
-3.1018 1.78304 4.99937
-3.11492 1.78082 4.9845
-3.13791 1.78484 4.98461
-3.13509 1.7775 4.96169
-3.15809 1.78152 4.96181
-3.17515 1.78139 4.95294
-3.18728 1.77917 4.93706
-3.20633 1.78008 4.93019
-3.22438 1.78099 4.92331
-3.23453 1.7777 4.90343
-3.24456 1.77765 4.89951
-3.26557 1.78063 4.89762
-3.27079 1.77422 4.86975
-3.2918 1.77721 4.86787
-3.30887 1.77709 4.859
-3.32793 1.77798 4.85113
-3.33906 1.77574 4.83424
-3.34908 1.7767 4.8313
-3.3612 1.77447 4.81542
-3.37135 1.77018 4.79556
-3.40127 1.77835 4.80567
-3.40648 1.77196 4.7788
-3.42552 1.77388 4.77291
-3.44555 1.77584 4.76903
-3.44668 1.77159 4.7521
-3.46474 1.77248 4.74422
-3.48674 1.77648 4.74333
-3.48997 1.76906 4.71446
-3.50605 1.7689 4.70358
-3.53202 1.77497 4.70669
-3.5491 1.77483 4.69682
-3.54724 1.76956 4.67888
-3.57222 1.7746 4.67999
-3.58138 1.77131 4.66011
-3.60141 1.77325 4.65523
-3.61255 1.77099 4.63734
-3.63259 1.77293 4.63247
-3.65064 1.77484 4.62557
-3.64482 1.76748 4.60163
-3.66982 1.7715 4.60176
-3.68392 1.77132 4.58887
-3.69108 1.767 4.56698
-3.71608 1.77101 4.56711
-3.72622 1.76875 4.54922
-3.75121 1.77377 4.54934
-3.74836 1.76749 4.5304
-3.77236 1.77251 4.53051
-3.78249 1.77025 4.51262
-3.79363 1.76699 4.49475
-3.80475 1.76576 4.47885
-3.83074 1.77079 4.47997
-3.84781 1.77167 4.47108
-3.84496 1.76638 4.45114
-3.86797 1.77036 4.44925
-3.88009 1.76915 4.43436
-3.89914 1.77104 4.42647
-3.9063 1.76674 4.40559
-3.93131 1.77174 4.4047
-3.94243 1.76951 4.38882
-3.96347 1.77244 4.38293
-3.96259 1.76822 4.36798
-3.98165 1.77011 4.3601
-3.99574 1.76993 4.34721
-4.01083 1.76976 4.33532
-4.0289 1.77164 4.32643
-4.04003 1.7694 4.30954
-4.04818 1.76611 4.28965
-4.06514 1.7712 4.2947
-4.07924 1.77101 4.28181
-4.08739 1.76772 4.26192
-4.10843 1.77065 4.25603
-4.13046 1.77461 4.25214
-4.13663 1.77028 4.23025
-4.14367 1.7702 4.2243
-4.16075 1.77105 4.21341
-4.16592 1.76673 4.19151
-4.18895 1.77069 4.18763
-4.20206 1.77047 4.17273
-4.22508 1.77445 4.16984
-4.22827 1.76908 4.14494
-4.24425 1.77313 4.148
-4.26529 1.77606 4.14212
-4.26848 1.77069 4.11722
-4.28655 1.77257 4.10832
-4.30263 1.77342 4.09743
-4.3207 1.77529 4.08754
-4.32786 1.772 4.06764
-4.34185 1.77501 4.0677
-4.3631 1.77253 4.03489
-5.90831 1.7159 1.22698
-5.91245 1.71564 1.20902
-5.92173 1.7151 1.17209
-5.92081 1.71393 1.1611
-5.93508 1.71541 1.12518
-5.92824 1.71109 1.10419
-5.94037 1.71385 1.08724
-5.92954 1.70852 1.06523
-5.92469 1.70522 1.04524
-5.93275 1.70711 1.03727
-5.92392 1.70277 1.01527
-5.93704 1.70553 0.998322
-5.94817 1.70729 0.981378
-5.92636 1.69892 0.957334
-5.93049 1.69865 0.939367
-5.94861 1.70243 0.923445
-5.9397 1.69925 0.911424
-5.93585 1.69695 0.891426
-5.95497 1.70072 0.875512
-5.94313 1.6964 0.854484
-5.93728 1.6931 0.834486
-5.9584 1.69788 0.818572
-5.94579 1.69012 0.767585
3.50252 1.7783 4.75165
3.41497 1.77923 4.8113
3.37806 1.77645 4.82462
3.36518 1.77868 4.83969
3.35129 1.77992 4.85478
3.33335 1.77905 4.86293
3.32336 1.77807 4.86402
3.29254 1.77945 4.88823
3.27561 1.77959 4.89736
3.2597 1.77978 4.90948
3.23466 1.77473 4.90474
3.22076 1.77593 4.91783
3.21889 1.78018 4.93478
3.19689 1.7772 4.93499
3.18097 1.77737 4.94611
3.17013 1.78168 4.96613
3.14306 1.77458 4.95844
3.12816 1.77578 4.97154
3.12238 1.7832 4.99947
3.10428 1.77704 4.9877
3.08734 1.77617 4.99584
3.07548 1.77944 5.01388
3.05349 1.77647 5.01509
3.03859 1.77868 5.02818
3.03179 1.78407 5.05415
3.00471 1.77795 5.04544
3.00385 1.78322 5.06337
2.98591 1.78235 5.07152
2.96391 1.77937 5.07173
2.95104 1.78261 5.08779
2.91718 1.78292 5.10704
2.89516 1.77891 5.10526
2.87738 1.78435 5.13432
2.85843 1.78345 5.14048
2.84353 1.78565 5.15356
2.82254 1.78269 5.15476
2.81068 1.78597 5.1738
2.78868 1.78399 5.174
2.77666 1.78096 5.17113
2.75769 1.78004 5.17629
2.75092 1.78749 5.20624
2.73399 1.78762 5.21436
2.69776 1.77422 5.18583
2.68082 1.77435 5.19396
2.65577 1.76927 5.18722
2.66 1.77872 5.21805
2.64002 1.77677 5.22023
2.6241 1.77794 5.23134
2.60514 1.77703 5.23649
2.58922 1.7782 5.2476
2.5723 1.77936 5.25771
2.56758 1.7889 5.29361
2.54131 1.77542 5.26
2.52336 1.77452 5.26615
2.51762 1.78402 5.30006
2.50577 1.78833 5.32009
2.48477 1.78634 5.32027
2.45869 1.7802 5.30956
2.44584 1.78451 5.3296
2.42362 1.77311 5.30193
2.41586 1.78156 5.33187
2.3979 1.78066 5.33802
2.38811 1.78807 5.36498
2.35283 1.77356 5.32946
2.33796 1.77582 5.34654
2.32611 1.78111 5.36555
2.32631 1.78851 5.39245
2.31245 1.79279 5.41049
2.27614 1.77622 5.371
2.2582 1.77634 5.37814
2.2423 1.77854 5.39123
2.0887 1.77844 5.44539
2.08484 1.78371 5.46335
2.06281 1.78068 5.46056
2.04894 1.78394 5.47762
2.02485 1.77778 5.46589
2.01407 1.7862 5.49385
1.98488 1.77587 5.47022
1.97512 1.78434 5.50117
1.95896 1.77604 5.48041
1.9451 1.78033 5.49945
1.92615 1.78043 5.5056
1.91025 1.78364 5.51867
1.89024 1.78064 5.51787
1.87025 1.77968 5.52003
1.85232 1.78081 5.52815
1.84128 1.77775 5.52328
1.82435 1.77889 5.53239
1.78948 1.78117 5.54962
1.77051 1.78126 5.55476
1.75258 1.78239 5.56288
1.7336 1.78145 5.56604
1.72462 1.7815 5.56911
1.70462 1.77951 5.56929
1.68974 1.78376 5.58534
1.66667 1.77863 5.57559
1.65079 1.78288 5.59165
1.6318 1.78192 5.5938
1.61488 1.78308 5.60392
1.60696 1.78623 5.61393
1.58693 1.7832 5.61113
1.56489 1.78013 5.60534
1.54796 1.78128 5.61445
1.53209 1.78554 5.63151
1.51208 1.78354 5.63069
1.49412 1.78363 5.63582
1.48723 1.78885 5.6508
1.4662 1.78581 5.647
1.44823 1.78588 5.65114
1.40823 1.7829 5.65048
1.39027 1.783 5.65662
1.37646 1.79038 5.68161
1.36338 1.78623 5.67077
1.34542 1.78633 5.67691
1.32956 1.79059 5.69397
1.30437 1.78125 5.67029
1.28852 1.78655 5.68933
1.27161 1.78974 5.70142
1.25055 1.78563 5.69364
1.23055 1.78465 5.6938
1.22468 1.7899 5.71077
1.20468 1.78792 5.71095
1.18673 1.79004 5.71805
1.16985 1.79327 5.73314
1.14672 1.78704 5.7164
1.1267 1.78502 5.71458
1.11189 1.79139 5.7386
1.09977 1.78617 5.72377
1.08184 1.78832 5.73287
1.06393 1.79151 5.74496
1.04077 1.78322 5.72426
1.02703 1.79371 5.75721
1.00698 1.79064 5.7514
0.984855 1.78442 5.73566
0.975894 1.7855 5.74071
0.956948 1.78662 5.74784
0.940056 1.79084 5.76191
0.918994 1.78673 5.75413
0.903156 1.79306 5.77515
0.881033 1.78684 5.75941
0.862064 1.78791 5.76354
0.855226 1.79422 5.7845
0.833079 1.78696 5.76577
0.815118 1.78805 5.77089
0.795118 1.78706 5.77106
0.776134 1.7871 5.7732
0.757126 1.7861 5.77236
0.739234 1.78932 5.78645
0.728164 1.7862 5.77757
0.710226 1.78833 5.78568
0.691289 1.79046 5.79379
0.671227 1.78736 5.78599
0.652258 1.78843 5.79011
0.634344 1.79161 5.8012
0.613258 1.78646 5.79044
0.604251 1.78645 5.78951
0.58532 1.7886 5.79862
0.547367 1.78972 5.80489
0.528422 1.79183 5.812
0.509399 1.7898 5.80917
0.488314 1.78566 5.79839
0.47933 1.78669 5.80044
0.462593 1.79721 5.83442
0.441369 1.78679 5.80573
0.423508 1.79307 5.82377
0.402339 1.78576 5.80204
0.384525 1.79313 5.82607
0.364447 1.789 5.81628
0.356656 1.7974 5.84322
0.335417 1.78696 5.81253
0.317557 1.79324 5.83057
0.297472 1.78909 5.81978
0.277434 1.78703 5.81496
0.259558 1.79228 5.83102
0.239519 1.79022 5.8262
0.229466 1.78812 5.81931
0.21169 1.79757 5.84831
0.172521 1.79027 5.82671
0.153583 1.7924 5.83482
0.13353 1.79031 5.828
0.114561 1.79139 5.83213
0.104546 1.79036 5.83022
0.0855313 1.79035 5.82836
0.0665161 1.78933 5.82652
0.0475324 1.79038 5.82865
0.0302815 1.79891 5.66163
0.0111352 1.79265 5.64286
-0.00670242 1.79897 5.66391
-0.0257483 1.7969 5.65808
-0.0447628 1.79688 5.65622
-0.0628395 1.79375 5.6464
-0.0728857 1.79166 5.64051
-0.0917383 1.79796 5.65956
-0.109784 1.79588 5.65373
-0.128938 1.7896 5.63396
-0.147705 1.80006 5.66395
-0.166728 1.79903 5.66111
-0.18482 1.79586 5.64929
-0.194735 1.79903 5.66032
-0.212826 1.79587 5.6485
-0.231849 1.79484 5.64566
-0.250733 1.80007 5.66073
-0.268832 1.7959 5.64792
-0.287839 1.79589 5.64707
-0.305885 1.79382 5.64123
-0.335721 1.80215 5.66234
-0.353821 1.79797 5.64953
-0.390812 1.79901 5.6508
-0.409773 1.8011 5.65591
-0.428756 1.80214 5.65804
-0.437818 1.80003 5.65014
-0.455887 1.79691 5.64132
-0.4948 1.8021 5.65253
-0.512822 1.80207 5.64967
-0.549866 1.80101 5.64396
-0.595988 1.79681 5.62837
-0.671007 1.79882 5.62591
-0.717989 1.80188 5.62822
-0.756011 1.80186 5.6255
-1.99527 1.79826 5.33085
-2.07254 1.79579 5.29546
-2.15077 1.79539 5.26506
-2.16686 1.79322 5.25321
-2.18586 1.79522 5.25232
-2.22901 1.79395 5.23266
-2.35745 1.79219 5.17565
-2.45472 1.79373 5.14035
-2.9235 1.79053 4.9049
-2.93858 1.79038 4.89401
-2.9668 1.78698 4.86627
-2.99485 1.7889 4.85946
-3.01289 1.78982 4.85358
-3.02304 1.78654 4.8337
-3.05223 1.7842 4.80995
-3.07028 1.78511 4.80307
-3.0893 1.78707 4.79919
-3.0934 1.78489 4.78725
-3.15966 1.78542 4.75273
-3.17672 1.78631 4.74485
-3.18391 1.78095 4.71998
-3.21097 1.78284 4.71115
-3.24016 1.78049 4.6864
-3.26513 1.78656 4.6905
-3.2723 1.78123 4.66763
-3.28442 1.77902 4.65275
-3.30036 1.78413 4.6598
-3.31743 1.78401 4.65093
-3.3335 1.78489 4.64204
-3.34363 1.78163 4.62416
-3.36268 1.78355 4.61827
-3.37578 1.78236 4.60439
-3.38889 1.78016 4.59052
-3.39 1.77695 4.57657
-3.41597 1.78202 4.57969
-3.42116 1.77665 4.55481
-3.44811 1.78276 4.56092
-3.45826 1.77948 4.54204
-3.48644 1.77814 4.51727
-3.5014 1.78223 4.52332
-3.51154 1.77896 4.50445
-3.53157 1.78192 4.50055
-3.57781 1.78248 4.46889
-3.62615 1.77983 4.42329
-5.76836 1.71279 0.954938
-5.77356 1.71239 0.92798
-5.76872 1.70809 0.908004
-5.76601 1.70451 0.869031
-5.77414 1.70626 0.852064
-5.78626 1.70904 0.836112
-5.76237 1.69981 0.822067
-5.78048 1.70459 0.80613
-5.77464 1.70129 0.786133
-5.77078 1.699 0.767135
-5.76993 1.69672 0.748159
-5.78904 1.7015 0.73223
-5.77321 1.69518 0.711202
-5.77235 1.6939 0.692212
-5.76843 1.69174 0.682213
-5.77555 1.6925 0.665253
-5.76871 1.6892 0.645247
-5.78282 1.69297 0.629296
-5.77298 1.68865 0.608283
-5.7851 1.69142 0.592331
-5.78225 1.68914 0.57334
5.78918 1.65147 -0.340404
5.79832 1.65473 -0.322519
5.79846 1.65501 -0.303522
5.80053 1.65514 -0.294538
5.81167 1.6594 -0.276682
5.8058 1.65767 -0.25861
5.79994 1.65594 -0.240538
5.82108 1.66321 -0.221802
5.81322 1.66148 -0.203715
5.81035 1.66075 -0.18568
5.82543 1.66589 -0.175868
5.82757 1.66715 -0.1579
5.82871 1.66743 -0.138911
5.83985 1.67169 -0.121055
5.82998 1.66896 -0.102938
5.83612 1.67124 -0.0840153
5.83426 1.67151 -0.0660027
5.83934 1.67265 -0.0560566
5.84247 1.67492 -0.0381112
5.84162 1.6752 -0.0191063
5.83875 1.67447 -0.00107143
3.3972 1.77478 4.57747
3.37622 1.77183 4.57967
3.35738 1.77517 4.60177
3.33639 1.7712 4.60298
3.3096 1.77362 4.63015
3.29266 1.77376 4.63928
3.26271 1.76987 4.64557
3.24981 1.77107 4.65865
3.24299 1.77743 4.68261
3.21796 1.77139 4.67888
3.2081 1.77467 4.69691
3.18813 1.77274 4.70109
3.17422 1.77394 4.71418
3.16626 1.77402 4.71924
3.15337 1.77624 4.73331
3.1344 1.77331 4.73749
3.11847 1.77346 4.74661
3.10457 1.77566 4.75969
3.08661 1.77376 4.76585
3.06765 1.77285 4.77101
3.06373 1.77502 4.78201
3.04275 1.77206 4.78421
3.02479 1.77116 4.79036
3.01089 1.77237 4.80345
2.99902 1.77563 4.82049
2.97701 1.77163 4.81972
2.96413 1.77386 4.83478
2.96223 1.77807 4.84874
2.94022 1.77407 4.84796
2.92229 1.7742 4.85609
2.90939 1.77542 4.87018
2.89042 1.77449 4.87433
2.87551 1.77568 4.88643
2.86466 1.77997 4.90545
2.8506 1.77487 4.89863
2.83975 1.77916 4.91765
2.82788 1.78242 4.93469
2.80992 1.78151 4.93984
2.79501 1.7827 4.95194
2.76895 1.7766 4.94423
2.75809 1.78089 4.96325
2.75216 1.78203 4.97228
2.73623 1.78217 4.9814
2.7071 1.77396 4.96573
2.6993 1.78035 4.9917
2.68135 1.77945 4.99785
2.66948 1.78271 5.01489
2.64239 1.77555 5.0032
2.62561 1.78199 5.03224
2.59275 1.78328 5.05047
2.55885 1.78251 5.06474
2.53886 1.78054 5.06592
2.52886 1.77857 5.06702
2.51091 1.77867 5.07316
2.49906 1.78297 5.09319
2.48008 1.78102 5.09536
2.45703 1.77594 5.08961
2.44822 1.78332 5.11457
2.4262 1.77929 5.11179
2.42332 1.78353 5.12775
2.40332 1.78155 5.12793
2.3864 1.78171 5.13806
2.36436 1.77765 5.13329
2.34843 1.77881 5.14339
2.33556 1.78205 5.15944
2.31353 1.77903 5.15665
2.30557 1.77911 5.16171
2.29067 1.78131 5.17479
2.27168 1.77935 5.17696
2.25678 1.78154 5.18905
2.23169 1.7754 5.17832
2.20965 1.77134 5.17355
2.19577 1.77457 5.18861
2.19086 1.77775 5.2006
2.1678 1.77267 5.19385
2.1529 1.77485 5.20593
2.13392 1.77391 5.20909
2.1231 1.78028 5.23308
2.10719 1.78145 5.24418
2.09329 1.78365 5.25726
2.07819 1.77847 5.24444
2.05615 1.77443 5.24067
2.03613 1.7714 5.23786
2.02532 1.77776 5.26186
1.96347 1.7781 5.28232
1.94653 1.77823 5.29045
1.93266 1.7825 5.30749
1.91674 1.78467 5.31858
1.90186 1.7879 5.33365
1.88185 1.7849 5.33284
1.86287 1.78395 5.335
1.859 1.7892 5.35195
1.84001 1.78824 5.35411
1.82 1.78523 5.3523
1.80513 1.78949 5.36936
1.78511 1.78748 5.36754
1.76407 1.78342 5.36275
1.75328 1.79082 5.38973
1.74123 1.78774 5.38386
1.72531 1.7899 5.39395
1.70222 1.78376 5.38322
1.68836 1.78903 5.40125
1.6704 1.78912 5.40638
1.65142 1.78817 5.40854
1.63652 1.79138 5.42261
1.62345 1.78726 5.41376
1.60652 1.78841 5.42287
1.59165 1.79265 5.43893
1.57162 1.78962 5.43612
1.55262 1.78864 5.43628
1.53568 1.78977 5.44439
1.51671 1.78883 5.44755
1.49564 1.78472 5.43977
1.48976 1.78895 5.45475
1.47077 1.78798 5.45591
1.44971 1.78389 5.44913
1.43589 1.79024 5.47214
1.41585 1.78718 5.46734
1.39686 1.78621 5.46849
1.37993 1.78836 5.47759
1.37093 1.78738 5.47867
1.35298 1.78848 5.48479
1.33501 1.78855 5.48893
1.31808 1.7907 5.49802
1.2991 1.78974 5.50018
1.28527 1.79609 5.5232
1.26213 1.78884 5.50547
1.25314 1.78886 5.50654
1.23729 1.79415 5.52559
1.21309 1.78379 5.49992
1.19826 1.79012 5.52194
1.18443 1.79647 5.54495
1.16234 1.79131 5.53319
1.14541 1.79346 5.54229
1.13851 1.79766 5.55528
1.11537 1.79039 5.53656
1.0974 1.79046 5.5407
1.07839 1.78846 5.53987
1.06149 1.79167 5.55295
1.0435 1.7917 5.55409
1.02558 1.79387 5.56519
1.01762 1.79495 5.57024
0.998642 1.79501 5.57338
0.979635 1.79401 5.57254
0.961673 1.7951 5.57766
0.941619 1.79201 5.57085
0.923658 1.79209 5.57599
0.905712 1.79421 5.58309
0.896704 1.7932 5.58217
0.876681 1.79117 5.57935
0.858727 1.79227 5.58547
0.838681 1.7892 5.57967
0.822797 1.79443 5.59471
0.803805 1.79346 5.59587
0.785851 1.79456 5.60199
0.774743 1.78937 5.58815
0.75789 1.79566 5.60719
0.737805 1.79151 5.5964
0.720929 1.79576 5.61246
0.701898 1.79371 5.60864
0.682883 1.7927 5.6068
0.664929 1.7938 5.61292
0.652805 1.78757 5.5971
0.636937 1.79284 5.61414
0.617922 1.79182 5.6123
0.598907 1.7908 5.61046
0.582053 1.7961 5.62951
0.561961 1.79194 5.61772
0.544023 1.79407 5.62582
0.534 1.79303 5.62291
0.517139 1.79831 5.64097
0.495993 1.79204 5.62222
0.476955 1.78998 5.61739
0.460148 1.79736 5.64241
0.439994 1.79008 5.62267
0.422033 1.79217 5.62777
0.414203 1.7985 5.64974
0.394033 1.79119 5.628
0.374995 1.78913 5.62317
0.358297 1.80172 5.66211
0.338127 1.79441 5.64037
0.320104 1.79338 5.63752
0.30229 1.80075 5.66155
0.291004 1.78821 5.62482
0.27202 1.78825 5.62696
0.25526 1.79872 5.65793
0.23509 1.79141 5.63619
0.216036 1.78832 5.62938
0.198115 1.79248 5.63945
0.180254 1.79776 5.65751
0.170123 1.79252 5.64067
0.151139 1.79256 5.64281
0.133232 1.79675 5.65488
0.114186 1.79468 5.64906
0.0962482 1.79681 5.65716
0.0773109 1.79994 5.66526
0.0580635 1.78848 5.63357
0.0491799 1.79371 5.64856
0.0373421 1.77812 5.40585
0.0194436 1.78332 5.41891
0.00149056 1.78543 5.42501
-0.0165867 1.78129 5.41521
-0.0345398 1.78339 5.42131
-0.043547 1.78339 5.42038
-0.0615309 1.78443 5.4225
-0.0795611 1.78338 5.41865
-0.0966535 1.77922 5.40684
-0.115614 1.7813 5.41195
-0.13356 1.78342 5.41906
-0.15159 1.78238 5.41521
-0.16052 1.78551 5.42423
-0.17855 1.78447 5.42038
-0.196557 1.78447 5.41952
-0.214533 1.78552 5.42264
-0.23254 1.78552 5.42177
-0.249617 1.78239 5.41195
-0.267608 1.78342 5.41307
-0.286569 1.7855 5.41818
-0.295592 1.78447 5.41526
-0.312615 1.78343 5.41241
-0.331536 1.78759 5.42249
-0.348613 1.78446 5.41266
-0.366628 1.78444 5.4108
-0.386456 1.79278 5.43283
-0.39551 1.79069 5.42592
-0.411633 1.78546 5.41012
-0.431501 1.79173 5.42718
-0.448554 1.78964 5.42034
-0.465669 1.78543 5.40553
-0.483646 1.78648 5.40865
-0.501691 1.78541 5.4028
-0.511621 1.78855 5.41183
-0.529636 1.78853 5.40996
-0.54765 1.78852 5.4081
-0.565634 1.78956 5.41022
-0.584602 1.79163 5.41433
-0.599763 1.78533 5.39354
-0.619678 1.78951 5.40463
-0.628669 1.79053 5.40568
-0.645746 1.78739 5.39585
-0.66376 1.78738 5.39399
-0.681736 1.78943 5.3971
-0.700735 1.79045 5.39722
-0.716827 1.78628 5.38541
-0.734857 1.78624 5.38154
-0.754755 1.79144 5.39462
-0.762809 1.78935 5.38771
-0.781746 1.79348 5.39579
-0.799776 1.79243 5.39194
-0.817782 1.79343 5.39106
-0.835789 1.79343 5.3902
-0.852866 1.79129 5.38035
-0.870857 1.79232 5.38148
-0.877957 1.78813 5.36859
-0.896948 1.79016 5.3697
-0.915908 1.79225 5.37481
-0.932977 1.79013 5.36597
-0.949069 1.78696 5.35414
-0.969005 1.7911 5.36223
-0.987019 1.79208 5.36035
-0.995042 1.79104 5.35743
-1.01306 1.79202 5.35555
-1.03302 1.7941 5.35967
-1.05008 1.79301 5.35281
-1.0671 1.79297 5.34994
-1.0861 1.79399 5.35007
-1.1022 1.79081 5.33723
-1.10927 1.78768 5.32833
-1.1292 1.79283 5.33741
-1.14528 1.78968 5.32657
-1.16715 1.79694 5.34363
-1.20222 1.79682 5.3339
-1.26531 1.79669 5.32237
-1.6832 1.79323 5.20656
-1.70219 1.79525 5.20667
-1.71925 1.79514 5.1988
-1.73336 1.79094 5.18497
-1.75139 1.7919 5.18109
-1.76745 1.79079 5.17322
-1.77961 1.78549 5.15239
-1.78862 1.78548 5.15146
-1.80665 1.78643 5.14758
-1.82271 1.78533 5.13972
-1.83975 1.78525 5.13385
-1.8568 1.78517 5.12797
-1.87091 1.78196 5.11313
-1.88697 1.78186 5.10525
-1.89599 1.78182 5.10232
-1.91108 1.77967 5.09146
-1.92812 1.77959 5.08559
-1.94614 1.78056 5.08271
-1.96026 1.77735 5.06786
-1.97828 1.77832 5.06498
-1.99531 1.77927 5.0611
-1.99845 1.774 5.04319
-2.01549 1.77393 5.03732
-2.0345 1.77593 5.03644
-2.04761 1.77273 5.02258
-2.0676 1.77576 5.02369
-2.08759 1.77777 5.02381
-2.10678 1.77243 5.00003
-2.12774 1.77651 5.00413
-2.15593 1.77216 4.9794
-2.17692 1.7752 4.98151
-2.19199 1.77406 4.97164
-2.22002 1.77603 4.96782
-2.24623 1.77063 4.9401
-2.26721 1.77469 4.9432
-2.28033 1.77146 4.92734
-2.31933 1.77648 4.92656
-2.32146 1.77123 4.90965
-2.34047 1.77422 4.90875
-2.36146 1.77725 4.90986
-2.36964 1.76991 4.88603
-2.38767 1.77186 4.88214
-2.40569 1.77383 4.87924
-2.42979 1.77265 4.86644
-2.44783 1.77359 4.86156
-2.46289 1.77347 4.85268
-2.48486 1.77754 4.85678
-2.49896 1.77536 4.84392
-2.51107 1.77315 4.82904
-2.5301 1.77412 4.82617
-2.54009 1.77613 4.82621
-2.55024 1.77185 4.80735
-2.57025 1.77385 4.80647
-2.58926 1.77684 4.80457
-2.60237 1.77362 4.78972
-2.61942 1.77455 4.78383
-2.63843 1.77753 4.78193
-2.64154 1.77333 4.76801
-2.65759 1.77323 4.76113
-2.67957 1.77728 4.76324
-2.69562 1.77819 4.75635
-2.70874 1.77496 4.74049
-2.72973 1.779 4.74259
-2.74677 1.77993 4.7367
-2.74988 1.77672 4.72277
-2.76199 1.77351 4.70791
-2.77904 1.77443 4.70202
-2.80103 1.77846 4.70313
-2.81214 1.77625 4.68824
-2.82525 1.77405 4.67437
-2.84723 1.7781 4.67648
-2.84145 1.76867 4.64757
-2.86442 1.77374 4.65167
-2.87259 1.76842 4.62981
-2.88568 1.76625 4.61793
-2.90964 1.77234 4.62303
-2.92077 1.7691 4.60616
-2.93189 1.76587 4.59028
-2.94387 1.76891 4.59233
-2.96289 1.77088 4.58944
-2.97303 1.76762 4.57157
-2.98415 1.76539 4.55568
-3.00713 1.76944 4.55779
-3.0143 1.76412 4.53592
-3.03234 1.76606 4.53103
-3.0374 1.76494 4.52308
-3.06953 1.7647 4.50533
-3.08261 1.76455 4.49443
-3.11672 1.76635 4.47966
-3.13378 1.76726 4.47277
-3.14094 1.76295 4.45188
-3.15293 1.76498 4.45294
-3.16998 1.76588 4.44606
-3.19221 1.76144 4.41529
-3.21223 1.76443 4.41339
-3.22433 1.76324 4.4005
-3.24039 1.76312 4.39162
-3.24447 1.76198 4.38167
-3.27561 1.76172 4.3629
-3.30057 1.76781 4.368
-3.30773 1.7635 4.34712
-3.32577 1.76543 4.34122
-3.33479 1.7664 4.33928
-3.34492 1.76416 4.32238
-3.36791 1.76818 4.3225
-3.382 1.76802 4.31161
-3.38916 1.76372 4.29072
-3.41115 1.76773 4.29083
-3.42227 1.76551 4.27494
-3.42931 1.76544 4.26999
-3.44439 1.7663 4.26009
-3.4664 1.77029 4.2582
-3.4775 1.76809 4.24432
-3.49059 1.76792 4.23241
-3.50667 1.76778 4.22254
-3.5158 1.76554 4.20564
-3.53373 1.77067 4.2137
-3.54188 1.76739 4.1948
-3.55596 1.76724 4.18391
-3.57202 1.76913 4.176
-3.58314 1.7669 4.16012
-3.60218 1.76884 4.15523
-3.6123 1.76662 4.13934
-3.62727 1.77168 4.14338
-3.64234 1.77155 4.13349
-3.64949 1.76826 4.11359
-3.66159 1.76707 4.1007
-3.68956 1.77415 4.1048
-3.69076 1.76777 4.0789
-3.70781 1.76868 4.07202
-3.73082 1.77366 4.07012
-3.73092 1.77047 4.05716
-3.74402 1.76929 4.04428
-3.76603 1.77427 4.04237
-3.78925 1.77186 4.01358
-3.7954 1.76757 3.99368
-3.81741 1.77156 3.99179
-3.82347 1.77144 3.98384
-3.84768 1.76906 3.95705
-3.87287 1.76869 3.93124
-3.90501 1.77044 3.91246
-3.93526 1.76897 3.8797
-5.55622 1.71291 0.972341
-5.55636 1.71165 0.954358
-5.5545 1.70936 0.935375
-5.55065 1.70708 0.916377
-5.55671 1.70797 0.908409
-5.54885 1.70368 0.88941
-5.55498 1.70443 0.872443
-5.54913 1.70013 0.85246
-5.54528 1.69785 0.833462
-5.54341 1.69558 0.815479
-5.54854 1.69633 0.798504
-5.53564 1.69115 0.786482
-5.53676 1.68989 0.769507
5.58803 1.65625 -0.0939257
5.58917 1.65751 -0.0759505
5.60231 1.66177 -0.05811
5.59043 1.65803 -0.0409628
5.60058 1.6623 -0.0220999
5.59571 1.66156 -0.00504981
5.59884 1.66282 0.0129103
5.60991 1.66695 0.0217671
5.60305 1.66522 0.0398469
5.61318 1.66948 0.0577099
5.61732 1.67174 0.0756478
5.61245 1.671 0.0926978
5.61859 1.67327 0.11162
5.61772 1.67352 0.128626
5.62079 1.67466 0.137587
5.63293 1.67993 0.15642
5.63307 1.68019 0.174418
5.63121 1.68046 0.19243
3.64574 1.7648 4.11668
3.60197 1.7643 4.14802
3.55731 1.76699 4.19333
3.5434 1.76717 4.20443
3.49155 1.76252 4.22589
3.48269 1.76579 4.24391
3.4598 1.76603 4.25908
3.44185 1.76413 4.26525
3.43298 1.76639 4.28228
3.41099 1.76243 4.28451
3.38595 1.75638 4.27979
3.38215 1.76277 4.30572
3.36419 1.76187 4.31187
3.36228 1.76403 4.32286
3.34735 1.76419 4.33297
3.32131 1.75814 4.32825
3.30638 1.75728 4.33738
3.28943 1.7564 4.34452
3.28159 1.7607 4.36452
3.27071 1.76294 4.38057
3.26274 1.76301 4.38463
3.24275 1.75905 4.38684
3.23087 1.76128 4.4019
3.21897 1.7635 4.41596
3.19596 1.75849 4.4142
3.17901 1.7576 4.42135
3.16611 1.7588 4.43443
3.13512 1.75386 4.43673
3.12424 1.7571 4.45277
3.10931 1.75725 4.46188
3.09743 1.75948 4.47694
3.08553 1.76069 4.49101
3.06251 1.75566 4.48826
3.05959 1.75883 4.49924
3.04772 1.76107 4.5153
3.02671 1.75809 4.5155
3.01077 1.75722 4.52363
3.00495 1.76356 4.54659
2.98599 1.76165 4.55176
2.97207 1.76183 4.56286
2.96107 1.76083 4.56296
2.94715 1.76099 4.57306
2.93831 1.76631 4.59405
2.92034 1.76438 4.59822
2.89528 1.7573 4.59151
2.8834 1.76053 4.60656
2.86543 1.7586 4.61072
2.86557 1.76387 4.62864
2.84556 1.76088 4.62884
2.83065 1.76205 4.63993
2.8137 1.76117 4.64708
2.80181 1.76339 4.66114
2.78384 1.76247 4.66628
2.76384 1.75849 4.66649
2.76094 1.76268 4.67946
2.74298 1.76077 4.68462
2.73415 1.7661 4.70661
2.71211 1.76104 4.70185
2.6982 1.76323 4.71393
2.6843 1.76443 4.72701
2.66938 1.76559 4.73711
2.66344 1.76672 4.74514
2.64851 1.76787 4.75524
2.63156 1.76698 4.76138
2.61257 1.765 4.76255
2.5946 1.76409 4.7677
2.57866 1.76422 4.77582
2.55272 1.76234 4.78304
2.52288 1.76468 4.80424
2.48998 1.76391 4.8185
2.47505 1.76505 4.8276
2.4581 1.76415 4.83374
2.43114 1.76226 4.83997
2.42843 1.77381 4.87682
2.40538 1.76874 4.87107
2.38332 1.76365 4.86431
2.35451 1.76703 4.88848
2.34755 1.76711 4.89353
2.31567 1.76837 4.90976
2.29974 1.76951 4.91886
2.22599 1.77006 4.95241
2.20596 1.76701 4.94861
2.17308 1.76727 4.96486
2.11321 1.76558 4.98334
2.08849 1.77413 5.0194
1.9228 1.76886 5.06173
1.87989 1.76907 5.07405
1.847 1.7693 5.0883
1.83209 1.77249 5.10037
1.79612 1.76957 5.10468
1.79226 1.77484 5.12263
1.77223 1.7718 5.11883
1.75835 1.77605 5.13487
1.73728 1.77093 5.12611
1.72135 1.77207 5.13521
1.70236 1.77112 5.13737
1.69052 1.77642 5.15738
1.67846 1.77333 5.15052
1.65943 1.77028 5.14671
1.64557 1.77456 5.16475
1.62554 1.77151 5.16095
1.60755 1.77054 5.1621
1.59779 1.77901 5.19305
1.57465 1.77177 5.17633
1.56567 1.77181 5.17839
1.55283 1.77713 5.19942
1.53177 1.77303 5.19163
1.51378 1.77205 5.19278
1.49887 1.77424 5.20487
1.45393 1.77339 5.21322
1.43491 1.77136 5.21039
1.40097 1.77151 5.21865
1.34111 1.77283 5.23808
1.30721 1.77505 5.2513
1.28821 1.77305 5.25048
1.25532 1.77529 5.26569
1.2273 1.77328 5.26393
1.21242 1.77752 5.27899
1.19546 1.7776 5.28411
1.15742 1.77356 5.27946
1.14254 1.7778 5.29551
1.11557 1.77787 5.29871
1.09652 1.77379 5.29292
1.07857 1.7749 5.29904
1.06369 1.77914 5.31509
1.04464 1.77607 5.30928
1.02562 1.77404 5.30645
1.00866 1.77512 5.31156
1.00073 1.77826 5.32058
0.983782 1.77938 5.32769
0.966844 1.78151 5.33578
0.929774 1.7764 5.32714
0.913898 1.78065 5.3432
0.893789 1.77446 5.32944
0.88589 1.77866 5.34244
0.868952 1.78079 5.35053
0.850928 1.77876 5.3477
0.832913 1.77774 5.34585
0.815983 1.77989 5.35495
0.796936 1.77681 5.34914
0.777913 1.77478 5.34631
0.771029 1.78001 5.36129
0.754099 1.78215 5.37038
0.735045 1.77906 5.36357
0.718122 1.78222 5.37365
0.681022 1.77606 5.36102
0.663053 1.77713 5.36514
0.6551 1.77923 5.37117
0.638177 1.78139 5.38127
0.620208 1.78246 5.38539
0.601161 1.77938 5.37958
0.585262 1.78359 5.39264
0.567278 1.78363 5.39477
0.547154 1.77741 5.37901
0.539193 1.77949 5.38404
0.521216 1.77955 5.38718
0.503248 1.78062 5.3913
0.486317 1.78276 5.40039
0.467256 1.77966 5.39258
0.450333 1.78282 5.40267
0.432349 1.78286 5.4048
0.42331 1.78079 5.3999
0.405389 1.78495 5.40997
0.387265 1.77873 5.3942
0.370466 1.78713 5.42021
0.351327 1.78088 5.40244
0.33332 1.77987 5.40159
0.315297 1.77884 5.39874
0.306344 1.78094 5.40478
0.289468 1.78619 5.42083
0.271414 1.7831 5.41401
0.252368 1.78102 5.40818
0.235415 1.78312 5.41428
0.217376 1.78106 5.40945
0.199377 1.78108 5.40958
0.190439 1.7832 5.41762
0.172471 1.78527 5.42172
0.154363 1.78008 5.40794
0.136409 1.78118 5.41406
0.118464 1.7843 5.42115
0.10041 1.78121 5.41433
0.0823954 1.78119 5.41246
0.0734107 1.78123 5.41453
0.0554733 1.78436 5.42262
-0.0527378 1.78005 5.26248
-0.0698684 1.77481 5.24568
-0.0876822 1.78318 5.2697
-0.0967284 1.7811 5.26379
-0.114627 1.7853 5.27687
-0.131719 1.78214 5.26504
-0.148711 1.78217 5.26617
-0.166641 1.78531 5.27526
-0.183671 1.78427 5.2714
-0.20174 1.78215 5.26257
-0.210639 1.78634 5.27558
-0.227646 1.78634 5.2747
-0.245661 1.78533 5.27285
-0.262699 1.78426 5.268
-0.280675 1.78532 5.27112
-0.297728 1.78423 5.26426
-0.316604 1.78948 5.28033
-0.322844 1.77903 5.24953
-0.340866 1.778 5.24668
-0.359687 1.78735 5.26968
-0.376694 1.78735 5.26881
-0.394701 1.78735 5.26795
-0.409917 1.77794 5.2402
-0.429692 1.78839 5.26919
-0.446722 1.78734 5.26534
-0.453962 1.77689 5.23454
-0.47369 1.78942 5.26951
-0.490751 1.78731 5.26167
-0.508703 1.79041 5.26776
-0.52395 1.77995 5.23602
-0.540989 1.77789 5.23118
-0.558933 1.78201 5.23826
-0.566995 1.77889 5.23036
-0.584994 1.77991 5.23048
-0.618101 1.77572 5.21679
-0.636115 1.77571 5.21493
-0.652161 1.77463 5.20907
-0.671106 1.77775 5.21616
-0.679136 1.77669 5.21224
-0.69898 1.785 5.23227
-0.715103 1.77978 5.21646
-0.731179 1.77764 5.20662
-0.749147 1.77972 5.21072
-0.767154 1.77971 5.20986
-0.783215 1.77761 5.20201
-0.792223 1.7776 5.20108
-0.810213 1.77963 5.20218
-0.827235 1.77959 5.19931
-0.84618 1.78271 5.20641
-0.860334 1.77643 5.1866
-0.878326 1.77745 5.18772
-0.896309 1.7795 5.18983
-0.905316 1.77949 5.1889
-0.922323 1.78049 5.18801
-0.939391 1.77837 5.17917
-0.957382 1.77939 5.18029
-0.973435 1.7783 5.17343
-0.990473 1.77724 5.16857
-1.00942 1.78134 5.17465
-1.01648 1.77924 5.16774
-1.03546 1.78129 5.16985
-1.05055 1.77814 5.15901
-1.07143 1.78437 5.17408
-1.08845 1.78434 5.1712
-1.10645 1.78635 5.17131
-1.12158 1.78111 5.1545
-1.12959 1.78109 5.15256
-1.14758 1.78313 5.15466
-1.16753 1.78623 5.16077
-1.18166 1.78199 5.14394
-1.20352 1.79028 5.16198
-1.2186 1.78712 5.15114
-1.23759 1.78917 5.15325
-1.2456 1.78914 5.15131
-1.26166 1.78804 5.14345
-1.27967 1.78903 5.14257
-1.29768 1.79002 5.14069
-1.31471 1.78997 5.13682
-1.37675 1.79293 5.13124
-1.64735 1.79094 5.0533
-1.66437 1.79191 5.05041
-1.68044 1.79079 5.04155
-1.68456 1.78555 5.02566
-1.70354 1.7886 5.02775
-1.7347 1.78432 5.00805
-1.75075 1.78423 5.00117
-1.77071 1.78832 5.00626
-1.77602 1.77473 4.9665
-1.78795 1.77886 4.97453
-1.80302 1.77774 4.96566
-1.82007 1.77766 4.95979
-1.83221 1.77239 4.94095
-1.85314 1.77854 4.95002
-1.87116 1.7795 4.94714
-1.88429 1.77528 4.9313
-1.88839 1.77107 4.91739
-1.90541 1.77204 4.91451
-1.9205 1.77089 4.90363
-1.93949 1.77292 4.90475
-1.97061 1.7717 4.889
-1.9847 1.76954 4.87713
-2.01074 1.77047 4.87132
-2.07396 1.76908 4.84281
-2.09804 1.76895 4.83299
-2.11703 1.77097 4.8331
-2.14915 1.77075 4.81735
-2.2204 1.76932 4.7849
-2.28264 1.76789 4.75339
-2.29967 1.76884 4.7495
-2.35192 1.76639 4.71693
-2.41006 1.76815 4.69833
-2.4271 1.76907 4.69245
-2.43922 1.76586 4.67759
-2.47328 1.76875 4.6688
-2.50736 1.77061 4.65803
-2.50849 1.76536 4.64111
-2.5275 1.76736 4.64022
-2.54157 1.76723 4.63033
-2.55467 1.76504 4.61746
-2.57369 1.76703 4.61557
-2.59467 1.77107 4.61767
-2.61875 1.77193 4.60684
-2.62987 1.7677 4.59098
-2.64494 1.76757 4.5821
-2.66395 1.77056 4.5802
-2.68296 1.77356 4.57929
-2.69605 1.77139 4.56742
-2.70916 1.76919 4.55355
-2.72014 1.77223 4.55559
-2.72929 1.76694 4.53574
-2.7552 1.77512 4.54681
-2.78012 1.78229 4.55689
-2.77745 1.76866 4.51507
-2.79251 1.76854 4.50618
-2.81054 1.7705 4.50229
-2.81573 1.76413 4.47742
-2.83462 1.77236 4.49244
-2.84179 1.76604 4.47059
-2.85488 1.76488 4.4587
-2.87192 1.7658 4.45282
-2.89192 1.7698 4.45191
-2.89613 1.7624 4.42504
-2.91613 1.76542 4.42515
-2.92417 1.76535 4.42021
-2.93528 1.76314 4.40533
-2.95034 1.76403 4.39742
-2.96245 1.76183 4.38355
-2.97949 1.76275 4.37766
-2.99455 1.76365 4.36976
-2.99961 1.76153 4.36183
-3.03075 1.76229 4.34405
-3.04778 1.76423 4.33915
-3.05593 1.75995 4.32027
-3.08705 1.76074 4.30449
-3.0941 1.76064 4.29754
-3.11509 1.76467 4.29864
-3.12917 1.76351 4.28776
-3.13929 1.76129 4.27187
-3.15337 1.76115 4.26198
-3.16646 1.75998 4.25009
-3.17856 1.7588 4.2372
-3.19351 1.7629 4.24325
-3.20758 1.76276 4.23336
-3.21969 1.76156 4.21947
-3.23475 1.76245 4.21157
-3.24883 1.7623 4.20067
-3.26389 1.76219 4.19279
-3.28293 1.76513 4.18789
-3.28303 1.76092 4.17395
-3.30404 1.76492 4.17304
-3.31515 1.76271 4.15816
-3.32626 1.76151 4.14426
-3.35023 1.76757 4.14735
-3.36332 1.7664 4.13546
-3.37344 1.76419 4.12057
-3.39445 1.76817 4.11867
-3.39159 1.76189 4.09974
-3.41061 1.76486 4.09684
-3.43163 1.76885 4.09494
-3.43976 1.76559 4.07704
-3.45582 1.76648 4.06915
-3.46099 1.76216 4.04725
-3.47606 1.76204 4.03837
-3.48013 1.76091 4.02941
-3.50609 1.76798 4.0335
-3.51224 1.76369 4.01361
-3.53127 1.76665 4.00971
-3.55031 1.76859 4.00482
-3.55745 1.76531 3.98592
-3.57351 1.7672 3.97801
-3.56966 1.76092 3.95908
-3.59265 1.76594 3.95917
-3.60177 1.76372 3.94427
-3.61288 1.76251 3.92937
-3.62696 1.76237 3.91948
-3.64798 1.76634 3.91658
-3.669 1.77031 3.91368
-3.65423 1.75886 3.88373
-3.67821 1.7649 3.88582
-3.69527 1.7668 3.87792
-3.70934 1.76666 3.86803
-3.75159 1.7682 3.83532
-3.75566 1.76607 3.82638
-3.7737 1.76899 3.82047
-3.77985 1.76572 3.80157
-3.79888 1.76866 3.79667
-3.8201 1.76524 3.76787
-3.83616 1.76714 3.75996
-3.83725 1.76496 3.748
-3.88247 1.76755 3.7183
-3.90468 1.76616 3.69149
-3.91678 1.76598 3.67858
-5.40243 1.7124 0.944186
-5.40263 1.71 0.917219
-5.40077 1.70773 0.899236
-5.4019 1.70648 0.882261
-5.40404 1.70522 0.864293
-5.39818 1.70193 0.845295
-5.41129 1.70472 0.830351
-5.40045 1.69942 0.810345
-5.4095 1.70232 0.803369
-5.40763 1.70005 0.785386
-5.41076 1.6998 0.768411
-5.39492 1.69249 0.748397
-5.40803 1.69627 0.732437
-5.40217 1.692 0.714454
-5.40331 1.69173 0.696464
-5.39738 1.68859 0.687465
-5.39651 1.68733 0.669474
5.43853 1.65932 -0.0278357
5.43366 1.65857 -0.0107856
5.44078 1.66082 0.0061298
5.45092 1.66508 0.0239929
5.45205 1.66633 0.0409682
5.4712 1.67359 0.0597189
5.44425 1.66472 0.0670544
5.46639 1.67297 0.0847679
5.45951 1.67123 0.101848
5.47866 1.67849 0.120599
5.46778 1.67574 0.136724
5.47392 1.678 0.154646
5.47605 1.67926 0.172614
3.80406 1.75745 3.76155
3.73456 1.75847 3.82807
3.72165 1.75866 3.84016
3.68877 1.75592 3.85645
3.6809 1.75918 3.87347
3.67697 1.76032 3.88248
3.65195 1.75431 3.88076
3.63803 1.75346 3.89088
3.63117 1.75775 3.90987
3.6112 1.75382 3.91408
3.5993 1.75503 3.92715
3.58537 1.75417 3.93627
3.57942 1.75528 3.9433
3.56349 1.75442 3.95243
3.56167 1.76078 3.97635
3.52959 1.75064 3.96575
3.52475 1.75495 3.98672
3.50678 1.75304 3.99188
3.4858 1.74909 3.9941
3.48792 1.75432 4.01001
3.47198 1.75245 4.01816
3.45099 1.7485 4.02038
3.4391 1.75071 4.03444
3.43022 1.75296 4.05047
3.41024 1.749 4.05268
3.40237 1.75327 4.07068
3.39037 1.75027 4.06981
3.37645 1.75044 4.08092
3.35747 1.7475 4.0841
3.34759 1.74974 4.10015
3.33368 1.74991 4.11125
3.3157 1.74799 4.11542
3.30178 1.74815 4.12552
3.28595 1.75048 4.14761
3.27102 1.75064 4.15772
3.25103 1.74767 4.15891
3.23711 1.74783 4.16902
3.20927 1.74818 4.19123
3.2013 1.74823 4.19429
3.18838 1.7484 4.20538
3.14662 1.7499 4.23768
3.11574 1.74916 4.25392
2.6848 1.7555 4.52912
2.4927 1.76239 4.64848
2.46285 1.76469 4.66767
2.35919 1.76343 4.71348
2.33629 1.76464 4.72663
1.97236 1.764 4.8704
1.96151 1.7693 4.89041
1.94149 1.76627 4.88761
0.51408 1.77931 5.23621
0.496049 1.77727 5.23238
0.479049 1.77628 5.23252
0.471142 1.78046 5.24452
0.436158 1.78052 5.24678
0.418065 1.77535 5.235
0.401166 1.77956 5.24806
0.287068 1.77345 5.23601
0.156133 1.77466 5.24498
0.0611736 1.77581 5.25068
0.0319464 1.77341 5.08791
0.0149858 1.7755 5.09301
-0.00193651 1.77866 5.10309
-0.019044 1.77447 5.08928
-0.0360899 1.77239 5.08344
-0.0530041 1.77657 5.09451
-0.0699264 1.77973 5.10459
-0.0779569 1.77867 5.10067
-0.0959489 1.7787 5.1018
-0.112041 1.77453 5.08998
-0.128971 1.77868 5.09905
-0.146001 1.77663 5.09521
-0.162962 1.77872 5.1003
-0.180907 1.78184 5.10739
-0.189852 1.78495 5.11442
-0.205914 1.78184 5.10658
-0.22289 1.7829 5.1097
-0.239897 1.78289 5.10882
-0.257873 1.78495 5.11193
-0.274849 1.78601 5.11504
-0.290949 1.78183 5.10222
-0.299918 1.78289 5.10628
-0.316901 1.78493 5.10837
-0.333924 1.7839 5.10552
-0.349993 1.78078 5.09668
-0.367899 1.78597 5.10874
-0.384953 1.78388 5.1019
-0.402859 1.78907 5.11396
-0.40999 1.78282 5.0971
-0.427889 1.78803 5.11016
-0.44488 1.78906 5.11128
-0.460996 1.78385 5.09647
-0.477995 1.78486 5.09659
-0.495002 1.78486 5.09572
-0.512001 1.78487 5.09584
-0.521008 1.78486 5.09491
-0.538007 1.78587 5.09502
-0.554061 1.78378 5.08817
-0.571075 1.78376 5.0863
-0.589989 1.78894 5.09737
-0.606066 1.7858 5.08754
-0.623065 1.78682 5.08765
-0.631087 1.78578 5.08472
-0.64904 1.78888 5.09082
-0.665117 1.78574 5.08098
-0.681162 1.78467 5.07512
-0.698208 1.78259 5.06928
-0.715214 1.78359 5.06839
-0.731229 1.78357 5.06651
-0.741167 1.7867 5.07454
-0.758181 1.78668 5.07267
-0.776157 1.78874 5.07577
-0.792218 1.78663 5.06792
-0.80924 1.7866 5.06505
-0.827184 1.79071 5.07213
-0.841338 1.78443 5.05232
-0.848408 1.7813 5.04342
-0.867337 1.78545 5.05251
-0.884343 1.78644 5.05162
-0.90135 1.78644 5.05075
-0.917434 1.78429 5.0399
-0.935371 1.78842 5.04797
-0.952393 1.78839 5.0451
-0.959462 1.78526 5.0362
-0.9765 1.7842 5.03134
-0.995421 1.78936 5.04141
-1.01051 1.78621 5.03057
-1.04453 1.78819 5.0278
-1.06155 1.78816 5.02492
-1.06958 1.7871 5.021
-1.08563 1.78601 5.01414
-1.10266 1.78597 5.01026
-1.11967 1.78596 5.00939
-1.13763 1.79005 5.01447
-1.15271 1.7869 5.00363
-1.17168 1.78997 5.00772
-1.17968 1.78998 5.00779
-1.19574 1.78887 4.99992
-1.21277 1.78882 4.99605
-1.22882 1.78773 4.98919
-1.26286 1.78868 4.98443
-1.27986 1.78969 4.98454
-1.3049 1.78962 4.97873
-1.71482 1.78809 4.85782
-1.72989 1.78596 4.84897
-1.74593 1.7859 4.84409
-1.75903 1.78372 4.83122
-1.77214 1.77951 4.81638
-1.79112 1.78356 4.81946
-1.80424 1.77934 4.80362
-1.81226 1.7793 4.80068
-1.82831 1.77922 4.7948
-1.84238 1.7771 4.78594
-1.85646 1.77495 4.77507
-1.87545 1.77798 4.77617
-1.8856 1.77269 4.75632
-1.90263 1.77366 4.75344
-1.91458 1.77675 4.75948
-1.92767 1.77458 4.74761
-1.94567 1.7766 4.74772
-1.95388 1.76819 4.7199
-1.97383 1.77329 4.72598
-1.99086 1.77425 4.72209
-2.00395 1.77208 4.71022
-2.01101 1.76998 4.7033
-2.02704 1.77093 4.69941
-2.04309 1.77084 4.69253
-2.06011 1.77181 4.68964
-2.07419 1.77067 4.67976
-2.08728 1.7685 4.66789
-2.1043 1.76947 4.66501
-2.11037 1.76734 4.65608
-2.12837 1.76934 4.65519
-2.1395 1.76611 4.63932
-2.15555 1.76602 4.63244
-2.17061 1.76591 4.62455
-2.19353 1.77208 4.63464
-2.20465 1.76885 4.61877
-2.21267 1.76881 4.61583
-2.23559 1.77497 4.62591
-2.23886 1.76446 4.59108
-2.26474 1.7727 4.60616
-2.27685 1.7705 4.59228
-2.28994 1.76833 4.58041
-2.30795 1.77033 4.57952
-2.31597 1.77029 4.57658
-2.32905 1.76914 4.56569
-2.35199 1.77527 4.57377
-2.35918 1.76791 4.54893
-2.37916 1.77197 4.55203
-2.39422 1.77186 4.54414
-2.40928 1.77174 4.53525
-2.42631 1.77269 4.53137
-2.43826 1.77679 4.5374
-2.44939 1.77356 4.52153
-2.46741 1.77553 4.51863
-2.47852 1.77231 4.50376
-2.49358 1.77221 4.49588
-2.51259 1.7752 4.49497
-2.52371 1.77098 4.47912
-2.53469 1.77401 4.48116
-2.55368 1.77704 4.48226
-2.56776 1.7769 4.47236
-2.58282 1.7768 4.46448
-2.59689 1.77566 4.4546
-2.62393 1.7786 4.44976
-2.63405 1.77537 4.43388
-2.65405 1.77839 4.43399
-2.67108 1.78034 4.43008
-2.68614 1.78023 4.4222
-2.69923 1.77907 4.41031
-2.71232 1.7779 4.39843
-2.76749 1.77958 4.37481
-2.78058 1.77841 4.36293
-2.79367 1.77726 4.35204
-2.81873 1.77916 4.3442
-2.83082 1.77799 4.33231
-2.8881 1.77647 4.29476
-2.90318 1.77633 4.28487
-2.9112 1.7773 4.28192
-2.92131 1.77408 4.26704
-2.93933 1.77705 4.26413
-2.94649 1.77176 4.24426
-2.96848 1.77679 4.24535
-2.99464 1.77548 4.22356
-3.00674 1.7733 4.21069
-3.0318 1.7762 4.20283
-3.0429 1.774 4.18895
-3.07105 1.77374 4.17016
-3.08512 1.7736 4.16027
-3.10623 1.77339 4.14543
-3.11734 1.77119 4.13154
-3.14747 1.77197 4.11475
-3.15758 1.76975 4.09986
-3.17659 1.77373 4.09794
-3.19078 1.76939 4.07411
-3.23894 1.7731 4.05242
-3.26412 1.77076 4.02864
-3.2993 1.77143 4.00489
-3.37175 1.7696 3.94545
-3.5217 1.76782 3.81959
-5.2701 1.70403 0.722282
-5.27522 1.7048 0.706307
-5.27043 1.7014 0.679318
-5.27156 1.70015 0.662342
-5.26968 1.69789 0.645359
-5.2738 1.69866 0.629377
-5.28292 1.70043 0.613417
-5.28205 1.69818 0.596441
-5.26621 1.69187 0.576413
-5.26727 1.69175 0.568421
-5.27339 1.69252 0.552454
-5.26853 1.68925 0.534463
-5.27165 1.68901 0.518488
-5.27177 1.68876 0.50149
-5.2729 1.68751 0.484515
-5.27003 1.68526 0.467524
5.28553 1.65846 -0.159689
5.28878 1.65994 -0.12673
5.28791 1.6602 -0.109725
5.29304 1.66245 -0.0927948
5.29811 1.66457 -0.0838633
5.30524 1.66782 -0.0669627
5.29735 1.66506 -0.0508603
5.30548 1.66831 -0.0339673
5.30661 1.66956 -0.016992
5.30774 1.67081 -1.66441e-05
5.32788 1.67806 0.0177268
5.319 1.67531 0.0338367
5.31506 1.67443 0.0418805
5.31632 1.67593 0.0758535
5.31845 1.67818 0.0928064
5.3217 1.68068 0.12675
3.30961 1.75981 3.96827
3.25896 1.76253 4.01462
3.254 1.76362 4.02064
3.1983 1.76324 4.06007
3.17831 1.76029 4.06226
3.16943 1.76353 4.07828
3.14855 1.76377 4.09344
3.13563 1.76394 4.10454
3.11968 1.76305 4.11167
3.10474 1.76218 4.1198
3.08879 1.7613 4.12693
3.07385 1.76043 4.13506
3.06588 1.76048 4.13812
3.04992 1.75858 4.14427
3.04105 1.76284 4.16127
3.02814 1.76302 4.17337
3.02028 1.7673 4.19137
2.9813 1.76137 4.19475
2.97332 1.76042 4.19782
2.96243 1.76263 4.21187
2.94243 1.75865 4.21208
2.92345 1.75671 4.21526
2.91863 1.76205 4.23822
2.89761 1.75804 4.23643
2.89279 1.76438 4.25938
2.88077 1.76136 4.25751
2.86786 1.76253 4.2686
2.85291 1.76165 4.27572
2.83696 1.76076 4.28286
2.82202 1.76089 4.29097
2.80303 1.75794 4.29316
2.79823 1.76531 4.31809
2.78923 1.76333 4.31918
2.77429 1.76345 4.3263
2.7553 1.76049 4.32848
2.7434 1.76269 4.34154
2.73149 1.76388 4.35362
2.71656 1.76402 4.36273
2.70162 1.76415 4.37084
2.69364 1.7642 4.3739
2.67668 1.76229 4.37906
2.66478 1.76449 4.39211
2.64476 1.76047 4.39032
2.63186 1.76266 4.40239
2.61792 1.7628 4.41149
2.59994 1.76085 4.41366
2.59501 1.76298 4.42267
2.58312 1.76521 4.43772
2.57021 1.76739 4.44879
2.55932 1.76962 4.46384
2.53525 1.7635 4.45511
2.52233 1.76467 4.46619
2.50739 1.7648 4.47431
2.49841 1.76384 4.47639
2.48549 1.76601 4.48746
2.47158 1.76718 4.49854
2.45257 1.76418 4.49773
2.44271 1.76846 4.51575
2.42472 1.7665 4.51791
2.40571 1.7625 4.51711
2.40586 1.76878 4.53602
2.3899 1.76888 4.54214
2.37396 1.76901 4.55026
2.35698 1.76705 4.55242
2.33392 1.76095 4.54468
2.33016 1.77041 4.57557
2.31725 1.7726 4.58764
2.29315 1.76544 4.57593
2.28314 1.76343 4.57503
2.27431 1.76875 4.59602
2.25733 1.7678 4.59916
2.24341 1.76898 4.61025
2.22441 1.76599 4.61044
2.20946 1.76609 4.61655
2.19249 1.76516 4.62069
2.19062 1.77042 4.63763
2.16753 1.76427 4.6269
2.15565 1.76752 4.64294
2.14276 1.77072 4.65599
2.1217 1.76463 4.64924
2.10676 1.76576 4.65734
2.09591 1.77105 4.67634
2.08588 1.768 4.67246
2.06382 1.76291 4.6657
2.056 1.76927 4.68967
2.03291 1.76311 4.67793
2.02002 1.76533 4.692
2.01017 1.77163 4.71198
1.99014 1.76758 4.70819
1.97909 1.7645 4.70232
1.96621 1.76773 4.71737
1.94615 1.76265 4.7106
1.9302 1.76275 4.71672
1.91935 1.76804 4.73572
1.90236 1.76608 4.73788
1.88335 1.76408 4.73705
1.88251 1.77037 4.75697
1.86144 1.76527 4.7492
1.8455 1.76639 4.75631
1.83157 1.76754 4.7664
1.81052 1.76346 4.75962
1.79863 1.76667 4.77366
1.78267 1.76677 4.77978
1.77163 1.76371 4.77491
1.75363 1.76172 4.77507
1.74176 1.76598 4.7921
1.72784 1.76814 4.80218
1.70679 1.76405 4.79539
1.69081 1.76311 4.79853
1.67485 1.76321 4.80465
1.66892 1.76634 4.81365
1.65399 1.76749 4.82274
1.63805 1.7676 4.82986
1.56314 1.76485 4.84347
1.49829 1.76518 4.86296
1.46534 1.76531 4.8702
1.45942 1.76746 4.88022
1.44141 1.76546 4.87938
1.42443 1.7655 4.88151
1.31863 1.76598 4.9093
1.30373 1.76816 4.92139
1.2857 1.76612 4.91755
1.24683 1.7684 4.93481
1.22882 1.7664 4.93398
1.17889 1.76657 4.94335
1.13798 1.76777 4.95565
1.12306 1.76995 4.96673
1.105 1.76684 4.95891
1.09012 1.77007 4.97397
1.05716 1.77019 4.98022
1.03913 1.76814 4.97639
1.03219 1.77025 4.98341
1.01519 1.76928 4.98455
0.999248 1.77039 4.99166
0.981201 1.76732 4.98584
0.965263 1.76945 4.99393
0.947232 1.7674 4.99009
0.93234 1.77062 5.00416
0.924379 1.7727 5.00919
0.90634 1.76964 5.00437
0.892479 1.77491 5.0224
0.873402 1.77078 5.0126
0.857448 1.77188 5.01871
0.83941 1.76982 5.01387
0.823456 1.77092 5.01998
0.814441 1.7699 5.01806
0.798456 1.76994 5.02018
0.782564 1.77316 5.03425
0.765526 1.7711 5.02941
0.732611 1.77328 5.04063
0.715603 1.77228 5.03977
0.707641 1.77336 5.04482
0.691727 1.77753 5.05588
0.673688 1.77447 5.05106
0.639704 1.77353 5.05333
0.623758 1.77564 5.06042
0.606759 1.77566 5.06055
0.597735 1.77362 5.05764
0.581782 1.77572 5.06373
0.563751 1.77367 5.0599
0.548852 1.77788 5.07295
0.530759 1.77271 5.06116
0.513829 1.77586 5.07024
0.496845 1.7759 5.07237
0.488891 1.77799 5.0784
0.471875 1.77598 5.07656
0.454798 1.77184 5.06675
0.436775 1.77081 5.0639
0.403784 1.77085 5.06515
0.387954 1.77818 5.08716
0.370947 1.77718 5.0863
0.344916 1.77514 5.08253
0.327932 1.77618 5.08464
0.312087 1.78249 5.10467
0.293917 1.77418 5.08293
0.276879 1.77212 5.07809
0.268957 1.77627 5.08809
0.251965 1.7763 5.08921
0.234957 1.7753 5.08836
0.217919 1.77323 5.08351
0.200996 1.7764 5.0936
0.185043 1.7785 5.09969
0.16809 1.7806 5.10578
0.159021 1.77747 5.0969
0.142068 1.77957 5.10299
0.124998 1.77645 5.09417
0.108038 1.77854 5.09927
0.0910144 1.7765 5.09642
0.0739684 1.77443 5.09058
0.0570775 1.77965 5.10463
0.0490313 1.77756 5.09872
-0.123029 1.7706 4.9591
-0.147059 1.76956 4.9553
-0.164036 1.77062 4.95841
-0.180058 1.76959 4.95555
-0.19705 1.77061 4.95666
-0.213096 1.76854 4.95081
-0.230056 1.77062 4.95591
-0.238072 1.7696 4.95399
-0.255008 1.77373 4.96205
-0.271101 1.76956 4.95023
-0.288077 1.77062 4.95335
-0.304131 1.76853 4.9465
-0.32199 1.77581 4.96453
-0.33709 1.77163 4.9517
-0.345106 1.7706 4.94978
-0.37905 1.77373 4.95699
-0.395088 1.77267 4.95212
-0.428094 1.77368 4.95136
-0.445124 1.77263 4.9475
-0.454085 1.77471 4.95254
-0.469169 1.77156 4.9417
-0.487037 1.77782 4.95874
-0.502191 1.77154 4.93894
-0.520089 1.77674 4.952
-0.534275 1.7684 4.92823
-0.553142 1.77566 4.94527
-0.560227 1.77151 4.93438
-0.576249 1.77147 4.9315
-0.595109 1.77875 4.94954
-0.609294 1.77041 4.92577
-0.627161 1.77767 4.9428
-0.645106 1.78079 4.94989
-0.660214 1.77659 4.93606
-0.66919 1.77764 4.93911
-0.685235 1.77657 4.93325
-0.70125 1.77655 4.93137
-0.719195 1.77967 4.93846
-0.73524 1.77859 4.9326
-0.752232 1.77962 4.93371
-0.766378 1.77335 4.9149
-0.775331 1.77644 4.92093
-0.791353 1.77641 4.91805
-0.807398 1.77533 4.91218
-0.825359 1.77742 4.91729
-0.84235 1.77944 4.91839
-0.855504 1.77316 4.89858
-0.87344 1.77729 4.90665
-0.880502 1.77418 4.89875
-0.899416 1.77935 4.90982
-0.913562 1.77308 4.89101
-0.928599 1.77302 4.88613
-0.94849 1.77924 4.90019
-0.964528 1.77818 4.89532
-0.975744 1.76877 4.86754
-0.989534 1.77918 4.8945
-1.0046 1.77706 4.88564
-1.02066 1.77597 4.87878
-1.03762 1.77904 4.88286
-1.05272 1.77486 4.87003
-1.07069 1.77793 4.87412
-1.08864 1.78103 4.88021
-1.0957 1.77892 4.8723
-1.11077 1.7768 4.86344
-1.12969 1.78297 4.87449
-1.13994 1.77149 4.84174
-1.15981 1.77876 4.85878
-1.17587 1.77765 4.85092
-1.19189 1.77762 4.84804
-1.19992 1.77656 4.84411
-1.22076 1.78587 4.86414
-1.23005 1.77334 4.82739
-1.25284 1.78475 4.85439
-1.28105 1.77736 4.82671
-1.29709 1.77729 4.82183
-1.30993 1.7856 4.84181
-1.32405 1.78139 4.82697
-1.34201 1.78447 4.83207
-1.35902 1.78647 4.83116
-1.37505 1.78642 4.82728
-1.67171 1.78532 4.74052
-1.69986 1.78205 4.72078
-1.72196 1.77987 4.70798
-1.73799 1.78082 4.70408
-1.75011 1.7766 4.68824
-1.77103 1.78276 4.6983
-1.78022 1.7744 4.67349
-1.79627 1.77432 4.66761
-1.81523 1.77841 4.6727
-1.82423 1.78041 4.67274
-1.83732 1.77723 4.65988
-1.85924 1.78339 4.66996
-1.86744 1.77603 4.64512
-1.8864 1.78012 4.65021
-1.89951 1.7759 4.63537
-1.91456 1.77583 4.62948
-1.91866 1.77162 4.61557
-1.93958 1.77779 4.62564
-1.95366 1.77665 4.61576
-1.96674 1.77449 4.60489
-1.98378 1.77543 4.6
-1.9949 1.77122 4.58515
-2.01192 1.77319 4.58224
-2.01994 1.77315 4.57931
-2.03892 1.77619 4.5814
-2.04711 1.76884 4.55757
-2.06805 1.77496 4.56464
-2.0772 1.76867 4.5448
-2.10307 1.77894 4.56184
-2.11026 1.77058 4.53702
-2.12826 1.77359 4.53711
-2.13627 1.77457 4.53515
-2.15329 1.77655 4.53325
-2.16736 1.77441 4.52339
-2.18438 1.77639 4.52149
-2.19058 1.768 4.49466
-2.21056 1.77206 4.49775
-2.2266 1.773 4.49285
-2.24051 1.77917 4.50387
-2.24966 1.77388 4.48401
-2.26373 1.77276 4.47513
-2.27878 1.77266 4.46825
-2.29483 1.77359 4.46235
-2.31086 1.77454 4.45846
-2.31593 1.77139 4.44854
-2.33984 1.77959 4.4606
-2.34801 1.77327 4.43876
-2.37615 1.77201 4.41998
-2.40328 1.77076 4.4022
-2.42214 1.77904 4.42023
-2.42341 1.76853 4.38539
-2.45844 1.77249 4.38159
-2.49447 1.77746 4.37779
-2.50951 1.77838 4.37189
-2.51754 1.77833 4.36795
-2.52962 1.77617 4.35707
-3.05716 1.76955 4.0231
-5.17909 1.70503 0.590563
-5.17023 1.70074 0.571558
-5.17535 1.70151 0.555583
-5.17947 1.70229 0.5406
-5.1746 1.69902 0.522609
-5.17373 1.69776 0.505619
-5.17985 1.69855 0.490651
-5.17192 1.69539 0.480637
-5.17604 1.69516 0.464669
-5.17816 1.69492 0.448686
-5.1713 1.69165 0.430681
-5.17043 1.6904 0.41369
-5.16855 1.68816 0.397707
-5.17467 1.68993 0.381725
-5.16275 1.68477 0.37171
-5.16088 1.68352 0.354712
-5.16599 1.6843 0.339737
-5.16512 1.68305 0.322747
-5.16325 1.6808 0.305763
-5.16137 1.67956 0.289765
-5.17654 1.68423 0.266807
-5.17267 1.68197 0.249809
-5.1668 1.67872 0.232811
5.1612 1.65393 -0.335709
5.15732 1.65217 -0.319652
5.16645 1.65641 -0.302781
5.16657 1.65665 -0.286783
5.16469 1.65589 -0.270755
5.18381 1.66311 -0.255004
5.16994 1.65837 -0.237827
5.16099 1.65548 -0.230716
5.17712 1.66172 -0.213928
5.17524 1.66096 -0.1979
5.17837 1.66321 -0.180954
5.1965 1.66943 -0.165181
5.17761 1.66368 -0.148951
5.18868 1.66781 -0.140095
5.20881 1.67505 -0.123351
5.19293 1.6703 -0.107159
5.18905 1.66853 -0.0911013
5.19217 1.67077 -0.0751557
5.16728 1.66201 -0.0598364
5.18341 1.66825 -0.043048
5.17647 1.66637 -0.0349668
5.1856 1.66962 -0.0180813
5.20186 1.67711 0.01569
5.18997 1.67334 0.0308374
5.20211 1.6786 0.0486706
5.20323 1.67883 0.0646609
5.18834 1.67507 0.0798309
5.19141 1.6762 0.0887923
5.19754 1.67945 0.1057
5.19378 1.67892 0.137741
5.1879 1.67816 0.153799
5.18903 1.67841 0.170789
5.17814 1.67564 0.185914
3.37001 1.75564 3.75684
3.3482 1.75803 3.78198
