2.23459 1.79079 5.68778
2.21564 1.79091 5.69492
2.20872 1.79306 5.70494
2.18977 1.79318 5.71209
2.16878 1.79121 5.71327
2.15392 1.79548 5.73132
2.13496 1.79559 5.73747
2.10988 1.78944 5.72675
2.09298 1.79165 5.73984
2.07992 1.78855 5.73299
2.06507 1.79284 5.75204
2.04201 1.78876 5.74527
2.02204 1.78782 5.74843
2.00821 1.79317 5.77146
1.98824 1.79224 5.77563
1.97543 1.7986 5.79963
1.95827 1.79032 5.77988
1.94137 1.79353 5.79296
1.91832 1.78944 5.7862
1.90039 1.7906 5.79632
1.88042 1.78967 5.80048
1.86249 1.79082 5.8096
1.84458 1.793 5.8207
1.83664 1.79512 5.82873
1.81565 1.79315 5.82992
1.79565 1.79218 5.83109
1.77673 1.79334 5.84121
1.75982 1.79553 5.85331
1.73882 1.79455 5.85348
1.72295 1.79781 5.87056
1.71193 1.79577 5.86767
1.6899 1.79373 5.86386
1.66788 1.7907 5.86107
1.65201 1.79498 5.87913
1.63511 1.79819 5.89222
1.61514 1.79724 5.89538
1.59516 1.7963 5.89854
1.58621 1.7984 5.90458
1.56623 1.79746 5.90775
1.54317 1.79336 5.89998
1.52937 1.80077 5.92698
1.50938 1.7998 5.92814
1.49044 1.80093 5.93627
1.47254 1.80312 5.94838
1.45944 1.79894 5.93553
1.44049 1.79905 5.94268
1.4205 1.7991 5.94483
1.4016 1.80129 5.95694
1.38158 1.79927 5.95512
1.3637 1.80352 5.97119
1.34165 1.79944 5.96442
1.3327 1.80155 5.97145
1.31477 1.80268 5.97957
1.29894 1.80903 6.0026
1.27276 1.79969 5.97893
1.25381 1.80081 5.98606
1.23487 1.80194 5.99419
1.21489 1.80199 5.99634
1.20697 1.80516 6.00735
1.18493 1.80208 6.00156
1.16496 1.80216 6.00571
1.14704 1.80433 6.01682
1.12705 1.80436 6.01797
1.10605 1.80238 6.01816
1.08609 1.80347 6.02329
1.07606 1.80141 6.0194
1.05716 1.80462 6.03249
1.03715 1.80362 6.03166
1.0172 1.80474 6.03879
0.997227 1.8048 6.04194
0.978266 1.80588 6.04707
0.956212 1.8028 6.04028
0.947281 1.80494 6.04932
0.929374 1.80813 6.06141
0.908343 1.80608 6.0576
0.888359 1.80613 6.05975
0.867336 1.8041 6.05693
0.848398 1.80623 6.06505
0.82739 1.80523 6.06422
0.806351 1.80217 6.05942
0.797405 1.80428 6.06646
0.777405 1.8033 6.06663
0.758529 1.80755 6.08271
0.73856 1.80862 6.08684
0.71856 1.80764 6.08701
0.697507 1.80555 6.0802
0.679654 1.81084 6.09926
0.666437 1.80144 6.07149
0.646484 1.80254 6.07762
0.627585 1.80675 6.09071
0.608662 1.80891 6.10082
0.5876 1.80581 6.09302
0.567639 1.80689 6.09816
0.548732 1.81009 6.11025
0.537693 1.80802 6.10537
0.517717 1.80908 6.1085
0.497756 1.81017 6.11364
0.477772 1.81021 6.11579
0.457796 1.81127 6.11892
0.437865 1.81342 6.12804
0.417812 1.81133 6.12122
0.406773 1.80926 6.11634
0.387889 1.8135 6.13142
0.366805 1.81035 6.12062
0.346859 1.81147 6.12776
0.326913 1.81359 6.13488
0.306875 1.81153 6.13006
0.286953 1.81469 6.14016
0.275869 1.81154 6.12929
0.255877 1.81156 6.13044
0.235838 1.80951 6.12562
0.215931 1.8127 6.13773
0.194901 1.81165 6.1339
0.174925 1.81271 6.13703
0.154925 1.81273 6.13719
0.144872 1.81063 6.13029
0.124934 1.81276 6.13841
0.103888 1.81069 6.1326
0.0839041 1.81173 6.13473
0.063997 1.81493 6.14684
0.0380533 1.81012 5.88907
0.0281151 1.81225 5.89711
-0.0108994 1.81125 5.89542
-0.0499134 1.81125 5.89372
-0.0889355 1.81023 5.89103
-0.137887 1.81336 5.89735
-0.341934 1.8134 5.89188
-3.12431 1.80274 5.05589
-3.15139 1.80359 5.04508
-3.18652 1.80437 5.02833
-3.21672 1.80199 5.00159
-3.25792 1.80163 4.9759
-3.27895 1.80359 4.97203
-3.29502 1.80345 4.96215
-3.30024 1.79704 4.93428
-3.31929 1.79794 4.92641
-3.34228 1.80197 4.92752
-3.3554 1.79974 4.91165
-3.3684 1.80177 4.91272
-3.37953 1.79851 4.89485
-3.39265 1.79728 4.87897
-3.4117 1.79821 4.8731
-3.42876 1.79909 4.86421
-3.4498 1.80103 4.85934
-3.46193 1.79878 4.84246
-3.47194 1.79976 4.84052
-3.48209 1.79649 4.82164
-3.50214 1.7984 4.81477
-3.51723 1.79723 4.8029
-3.53628 1.79914 4.79601
-3.54543 1.79585 4.77612
-3.56646 1.79881 4.77224
-3.57253 1.79668 4.76332
-3.58267 1.79441 4.74442
-3.59777 1.79322 4.73155
-3.61485 1.79409 4.72167
-3.63389 1.79501 4.7158
-3.65393 1.79794 4.7099
-3.6621 1.79362 4.68802
-3.6741 1.79563 4.68809
-3.69216 1.79652 4.68021
-3.70132 1.79322 4.65932
-3.71838 1.7941 4.65044
-3.73348 1.79292 4.63757
-3.7466 1.7917 4.62268
-3.76664 1.79363 4.6168
-3.76973 1.79145 4.60486
-3.79572 1.79649 4.60598
-3.80883 1.79528 4.59109
-3.81897 1.79302 4.5732
-3.83802 1.79393 4.56633
-3.84717 1.79164 4.54643
-3.86226 1.79147 4.53454
-3.87526 1.79348 4.53461
-3.89332 1.79537 4.52672
-3.89752 1.78899 4.50084
-3.92252 1.794 4.49995
-3.93167 1.79072 4.48107
-3.94874 1.79159 4.47118
-3.95294 1.7862 4.44529
-3.97188 1.79132 4.45236
-3.984 1.79011 4.43747
-4.00504 1.79303 4.43158
-4.02013 1.79287 4.4197
-4.03225 1.79164 4.4038
-4.04735 1.79146 4.39092
-4.06045 1.79026 4.37703
-4.06861 1.78697 4.35714
-4.06773 1.78273 4.34119
-4.08877 1.78566 4.33531
-4.09989 1.78443 4.31941
-4.13283 1.79256 4.32654
-4.13603 1.78718 4.30064
-4.16004 1.79216 4.29874
-4.16225 1.78577 4.27185
-4.1822 1.79188 4.27891
-4.18737 1.78755 4.25601
-4.21337 1.79255 4.25513
-4.22846 1.79238 4.24325
-4.24157 1.79219 4.22935
-4.25777 1.78881 4.20352
-4.27583 1.79069 4.19462
-4.28895 1.79048 4.17972
-4.30702 1.79134 4.16985
-4.32112 1.79116 4.15695
-4.34635 1.78972 4.12616
-4.41079 1.78989 4.06763
-5.94628 1.75263 1.4874
-5.94834 1.7525 1.47841
-5.94351 1.74917 1.45642
-5.94266 1.74687 1.43645
-5.95579 1.74863 1.41952
-5.95195 1.74632 1.39852
-5.95709 1.74604 1.37956
-5.96124 1.74476 1.36061
-5.96837 1.7455 1.34265
-5.96446 1.74333 1.33165
-5.95662 1.739 1.30965
2.74116 1.7927 5.22987
2.68631 1.79203 5.2503
2.63044 1.78932 5.26776
2.62654 1.79252 5.28075
2.60656 1.79058 5.28393
2.58862 1.79071 5.29206
2.57372 1.79291 5.30514
2.55376 1.792 5.31031
2.53987 1.79423 5.32538
2.5199 1.79331 5.32954
2.50296 1.79344 5.33767
2.48992 1.79037 5.33281
2.47809 1.79569 5.35383
2.45912 1.79478 5.35898
2.43507 1.7897 5.35224
2.42221 1.79397 5.37028
2.40121 1.79099 5.37048
2.38734 1.79425 5.38754
2.36817 1.78595 5.3668
2.36246 1.7965 5.40369
2.34249 1.79558 5.40786
2.31229 1.78423 5.38325
2.27333 1.78133 5.38859
2.25335 1.77938 5.39077
2.25254 1.78775 5.41565
2.23459 1.78786 5.42279
2.18848 1.77869 5.40927
2.17055 1.77884 5.4184
2.16587 1.79045 5.45927
2.15405 1.79681 5.48327
2.13793 1.79059 5.46748
2.11896 1.78967 5.47264
2.10204 1.79083 5.48275
2.0841 1.79196 5.49087
2.06819 1.79415 5.50296
2.05026 1.79429 5.51109
2.03128 1.79334 5.51425
2.01822 1.79024 5.50639
2.00026 1.79034 5.51253
1.98131 1.79044 5.51867
1.96027 1.78638 5.51389
1.94746 1.79276 5.53889
1.93258 1.79701 5.55494
1.91361 1.79507 5.55812
1.89953 1.79093 5.54828
1.88466 1.79519 5.56533
1.86773 1.79634 5.57445
1.8498 1.79748 5.58357
1.82877 1.79445 5.58077
1.81081 1.79454 5.5859
1.7939 1.79673 5.598
1.7839 1.79574 5.59809
1.7629 1.79374 5.59728
1.74597 1.7959 5.60737
1.73007 1.7981 5.62046
1.71317 1.80131 5.63355
1.69523 1.80142 5.64068
1.67318 1.79835 5.63489
1.66627 1.80153 5.6469
1.64832 1.80165 5.65403
1.62626 1.79755 5.64626
1.60935 1.79974 5.65835
1.58834 1.79772 5.65654
1.57243 1.79991 5.66863
1.55347 1.8 5.67377
1.54552 1.80211 5.6808
1.52555 1.80217 5.68395
1.50758 1.80226 5.68909
1.48761 1.80132 5.69225
1.47068 1.80348 5.70235
1.44863 1.79939 5.69558
1.43174 1.80261 5.70966
1.42275 1.80264 5.71172
1.40481 1.80378 5.71984
1.38481 1.80279 5.72001
1.36479 1.80076 5.71719
1.34895 1.80608 5.73823
1.32687 1.80094 5.72747
1.30893 1.80307 5.73558
1.28101 1.80424 5.74577
1.26098 1.80119 5.74197
1.22304 1.80235 5.75124
1.20306 1.8014 5.7534
1.16616 1.80362 5.76665
1.15511 1.80154 5.76076
1.13718 1.80368 5.76987
1.11925 1.80483 5.77899
1.09821 1.80175 5.77319
1.08237 1.80808 5.79422
1.06234 1.80605 5.7914
1.04128 1.80194 5.78362
1.01439 1.80517 5.79778
0.993344 1.8021 5.79198
0.976468 1.80735 5.80803
0.956445 1.80532 5.80521
0.936438 1.80432 5.80438
0.917445 1.80334 5.80553
0.908499 1.80545 5.81257
0.888492 1.80445 5.81174
0.85053 1.80456 5.81702
0.830554 1.80462 5.82017
0.7926 1.80473 5.82646
0.782569 1.80268 5.82256
0.7647 1.80794 5.83962
0.724608 1.8028 5.828
0.70777 1.80912 5.84903
0.685577 1.79977 5.82434
0.667755 1.80712 5.84736
0.657748 1.80611 5.84645
0.639848 1.81032 5.85953
0.619779 1.8062 5.85074
0.600849 1.80934 5.85984
0.580787 1.80624 5.85203
0.561803 1.80628 5.85418
0.541788 1.80527 5.85234
0.512819 1.80535 5.85656
0.493889 1.8085 5.86566
0.473827 1.80539 5.85785
0.45482 1.80439 5.85701
0.435952 1.80966 5.87408
0.415905 1.80658 5.86827
0.406921 1.80762 5.87033
0.367968 1.80874 5.8766
0.348976 1.80877 5.87775
0.328907 1.80565 5.86894
0.29 1.80885 5.88119
0.280986 1.80883 5.87926
0.260962 1.8068 5.87644
0.24204 1.80996 5.88654
0.221987 1.80787 5.87972
0.203049 1.81 5.88783
0.164057 1.81005 5.88912
0.0960667 1.81011 5.89063
0.0770522 1.8101 5.88878
0.0570986 1.8112 5.89491
0.00257892 1.80925 5.69332
-0.0254203 1.80927 5.69353
-0.119472 1.80723 5.68727
-0.16747 1.80827 5.68762
-0.223452 1.80934 5.69002
-0.411522 1.81033 5.68143
-3.21547 1.79955 4.76958
-5.80319 1.74777 1.23236
-5.80335 1.74647 1.21237
-5.81447 1.74824 1.19643
-5.81362 1.74594 1.17645
-5.79979 1.73959 1.15344
-5.80194 1.73831 1.13447
-5.82104 1.74312 1.12054
-5.80323 1.73575 1.09652
-5.81128 1.73764 1.08855
-5.81043 1.73536 1.06957
-5.81472 1.7338 1.03162
3.28893 1.78002 4.66686
3.26213 1.78342 4.69301
3.05611 1.7855 4.82455
2.61293 1.79137 5.06784
2.58804 1.7916 5.08202
2.54908 1.78872 5.08836
2.51723 1.79002 5.10758
2.50029 1.79015 5.11571
2.48538 1.79234 5.12779
2.46624 1.78409 5.11005
2.45947 1.79254 5.13998
2.43643 1.78747 5.13423
2.40763 1.79189 5.16139
2.39172 1.79306 5.17249
2.3758 1.79424 5.1836
2.30988 1.79045 5.19515
2.29804 1.79477 5.21618
2.2811 1.79488 5.22331
2.25397 1.78767 5.20761
2.2399 1.78253 5.19779
2.22397 1.78369 5.2079
2.17926 1.79028 5.24614
2.08866 1.79612 5.29875
2.06866 1.79413 5.29893
2.03171 1.79226 5.30623
2.02273 1.79231 5.3093
1.93908 1.79804 5.35485
1.87519 1.79631 5.37036
1.85621 1.79535 5.37252
1.79541 1.7978 5.39995
1.74255 1.7991 5.41833
1.6897 1.80042 5.43771
1.62582 1.80071 5.45419
1.47215 1.80145 5.49834
1.39031 1.80282 5.51994
1.13272 1.80381 5.57587
1.11473 1.80284 5.57702
1.0129 1.80524 5.59976
0.975916 1.8033 5.60207
0.957978 1.80543 5.61017
0.92897 1.80343 5.60942
0.909978 1.80346 5.61056
0.873032 1.80359 5.61784
0.854008 1.80156 5.61501
0.827094 1.80474 5.62617
0.77114 1.80387 5.6326
0.752171 1.80495 5.63673
0.687242 1.80613 5.6462
0.650273 1.80621 5.65048
0.630211 1.80211 5.64269
0.59432 1.80634 5.6569
0.528328 1.80441 5.65843
0.490367 1.80551 5.6637
0.472422 1.80762 5.6708
0.444438 1.80767 5.67302
0.425461 1.80773 5.67616
0.406384 1.8046 5.66635
0.369477 1.8078 5.67858
0.349369 1.80261 5.6648
0.322509 1.8079 5.68293
0.302401 1.8027 5.66916
0.246503 1.80694 5.68252
0.143513 1.80703 5.68429
0.0289025 1.80094 5.47122
0.0108183 1.79779 5.4604
0.000980538 1.80411 5.48138
-0.0169951 1.80617 5.48449
-0.0351728 1.79784 5.46174
-0.0530405 1.80411 5.47879
-0.0710557 1.80309 5.47694
-0.089047 1.80412 5.47806
-0.107116 1.801 5.46924
-0.126046 1.80414 5.47834
-0.135084 1.80308 5.47342
-0.153083 1.80309 5.47356
-0.189052 1.80417 5.47781
-0.208027 1.80623 5.48093
-0.226034 1.80623 5.48006
-0.290024 1.80729 5.48153
-0.308031 1.80729 5.48066
-0.344092 1.8052 5.47296
-0.362083 1.80623 5.47408
-0.37106 1.80728 5.47714
-0.389113 1.80519 5.4703
-0.48014 1.80619 5.46697
-0.743312 1.80803 5.44493
-0.760388 1.80589 5.43509
-1.76502 1.80635 5.22162
-1.78011 1.8052 5.21075
-1.79814 1.80515 5.20688
-1.8142 1.80403 5.19802
-1.83223 1.80499 5.19414
-1.84732 1.80284 5.18328
-1.86729 1.80589 5.18639
-1.88045 1.80059 5.16557
-1.88749 1.79952 5.16063
-1.9065 1.80051 5.15876
-1.91865 1.79624 5.13991
-1.93569 1.79616 5.13404
-1.95667 1.79922 5.13716
-1.96587 1.79184 5.11133
-1.98879 1.79801 5.12141
-2.00272 1.80215 5.13046
-2.01486 1.79788 5.11161
-2.02995 1.79571 5.09975
-2.05191 1.79981 5.10586
-2.06502 1.7966 5.091
-2.0811 1.79545 5.08014
-2.10108 1.79851 5.08325
-2.10422 1.79325 5.06535
-2.12027 1.79315 5.05847
-2.14321 1.79829 5.06657
-2.15534 1.79403 5.04872
-2.17338 1.79497 5.04384
-2.19435 1.79904 5.04794
-2.2065 1.79376 5.0281
-2.21747 1.79683 5.03214
-2.2355 1.79778 5.02826
-2.24763 1.79354 5.01141
-2.26567 1.79446 5.00554
-2.28468 1.79644 5.00365
-2.29682 1.79219 4.9858
-2.31484 1.79417 4.98391
-2.32582 1.79621 4.98596
-2.34189 1.79507 4.9761
-2.36188 1.79812 4.9782
-2.37992 1.79904 4.97232
-2.39402 1.79686 4.95946
-2.41106 1.79778 4.95357
-2.43107 1.79978 4.9527
-2.43516 1.79661 4.94077
-2.45024 1.79545 4.9299
-2.47417 1.8016 4.93899
-2.48138 1.79421 4.91215
-2.50433 1.79932 4.91825
-2.52335 1.80129 4.91536
-2.53844 1.80012 4.90349
-2.54647 1.80006 4.89955
-2.56253 1.79996 4.89167
-2.61467 1.80173 4.87404
-2.66794 1.79924 4.83847
-2.68696 1.8012 4.83559
-2.7463 1.79658 4.7911
-2.75532 1.79754 4.78815
-2.77236 1.79848 4.78326
-2.7904 1.79941 4.77738
-2.80251 1.79719 4.76251
-2.81858 1.79707 4.75363
-2.82478 1.78969 4.72778
-2.85072 1.79683 4.73587
-2.85776 1.79574 4.72994
-2.86495 1.7894 4.70608
-2.8889 1.79549 4.71118
-2.90201 1.79329 4.6973
-2.91116 1.789 4.67743
-2.93018 1.79097 4.67455
-2.94527 1.79082 4.66366
-2.94737 1.78763 4.65072
-2.96343 1.7875 4.64185
-2.97752 1.78635 4.63097
-2.98964 1.78312 4.6151
-3.00669 1.78503 4.6082
-3.02572 1.78699 4.60432
-3.03684 1.78376 4.58845
-3.05081 1.78783 4.59249
-3.06687 1.78772 4.58461
-3.09701 1.78746 4.56584
-3.10912 1.78625 4.55095
-3.14126 1.78601 4.53319
-3.15522 1.79007 4.53724
-3.15942 1.78369 4.51136
-3.17647 1.7846 4.50447
-3.1876 1.78137 4.4886
-3.21874 1.78211 4.46982
-3.23282 1.78096 4.45895
-3.26187 1.78488 4.45211
-3.27298 1.78267 4.43722
-3.29697 1.78771 4.43933
-3.30709 1.78548 4.42343
-3.32217 1.78533 4.41255
-3.34737 1.78195 4.38578
-3.35936 1.78497 4.38683
-3.36454 1.77964 4.36395
-3.38358 1.78158 4.35906
-3.40558 1.78558 4.35817
-3.4167 1.78335 4.34228
-3.42782 1.78113 4.32739
-3.43981 1.78414 4.32744
-3.45983 1.78711 4.32455
-3.46699 1.78282 4.30466
-3.47909 1.78162 4.29077
-3.49615 1.78252 4.28288
-3.51321 1.78341 4.275
-3.53422 1.7874 4.2731
-3.52939 1.78108 4.25215
-3.55239 1.78508 4.25126
-3.56549 1.7849 4.23836
-3.58055 1.78478 4.22948
-3.60455 1.7898 4.22958
-3.62161 1.79169 4.22168
-3.63669 1.79154 4.2108
-3.64075 1.79042 4.20284
-3.6588 1.79233 4.19595
-3.6719 1.79115 4.18306
-3.68202 1.78892 4.16717
-3.69909 1.7908 4.15827
-3.71417 1.79065 4.14739
-3.7233 1.7884 4.13049
-3.74036 1.7903 4.12259
-3.76248 1.79007 4.10675
-3.83401 1.78709 4.03733
-3.84512 1.78588 4.02243
-3.87132 1.78451 3.99664
-3.89037 1.78742 3.98974
-3.92855 1.78908 3.965
-3.95276 1.78768 3.9372
-3.96884 1.78854 3.92731
-3.99502 1.78819 3.9025
-4.08065 1.78703 3.82016
-5.56646 1.75104 1.32854
-5.5686 1.74978 1.31057
-5.56882 1.74735 1.2816
-5.57495 1.7471 1.26465
-5.58207 1.74786 1.24769
-5.57223 1.74254 1.22669
-5.57338 1.74126 1.20772
-5.5835 1.74303 1.19177
-5.58157 1.74088 1.18178
-5.57773 1.73758 1.1618
-5.58585 1.73835 1.14585
-5.58214 1.73378 1.10788
-5.59325 1.73655 1.09192
3.75833 1.77166 4.05436
3.66688 1.77181 4.12806
3.59922 1.77052 4.17359
3.59339 1.77485 4.19557
3.5595 1.7721 4.21087
3.54558 1.77227 4.22198
3.5227 1.77251 4.23715
3.50776 1.77166 4.24627
3.49487 1.77287 4.26035
3.48399 1.77512 4.2764
3.46098 1.7701 4.27465
3.45111 1.77336 4.29168
3.42608 1.76734 4.28896
3.42126 1.77268 4.31192
3.40925 1.76968 4.31105
3.39938 1.77293 4.32808
3.38041 1.77001 4.33227
3.36852 1.77224 4.34733
3.3455 1.76723 4.34557
3.33462 1.76946 4.36063
3.32476 1.77274 4.37965
3.30668 1.76659 4.36888
3.29681 1.76885 4.38592
3.28695 1.77313 4.40394
3.26696 1.76917 4.40615
3.249 1.76826 4.4113
3.23306 1.7674 4.42043
3.21712 1.76653 4.42856
3.20815 1.7666 4.43263
3.20739 1.77504 4.46252
3.18437 1.77003 4.46076
3.16944 1.77017 4.46987
3.16261 1.77552 4.49285
3.13758 1.76948 4.48913
3.13365 1.77162 4.49813
3.11872 1.77177 4.50824
3.09672 1.76779 4.50846
3.08483 1.77001 4.52252
3.06687 1.76809 4.52769
3.0489 1.76618 4.53285
3.04209 1.77254 4.55681
3.03512 1.77261 4.56086
3.01616 1.77069 4.56603
3.01034 1.77705 4.58999
2.99137 1.77513 4.59416
2.97037 1.77114 4.59438
2.95746 1.77233 4.60646
2.9466 1.7766 4.62448
2.92559 1.7726 4.6237
2.91863 1.7727 4.62975
2.90776 1.77696 4.64677
2.89082 1.77609 4.65491
2.87994 1.77932 4.66995
2.86502 1.77949 4.68106
2.85111 1.78068 4.69315
2.83316 1.77978 4.6993
2.82214 1.77774 4.69641
2.80013 1.77375 4.69564
2.79128 1.77805 4.71564
2.77027 1.77405 4.71486
2.75636 1.77624 4.72693
2.74346 1.77844 4.74
2.73362 1.78276 4.76101
2.72058 1.77868 4.75517
2.69856 1.77466 4.75339
2.68567 1.77688 4.76746
2.67278 1.78011 4.78251
2.6619 1.78336 4.79855
2.63785 1.77727 4.79182
2.61293 1.77745 4.80301
2.59294 1.77448 4.8042
2.57294 1.7715 4.8044
2.55801 1.77264 4.81349
2.54308 1.7728 4.8236
2.53122 1.77707 4.84163
2.51223 1.7751 4.8428
2.50122 1.7731 4.84192
2.48732 1.7753 4.85499
2.47036 1.77439 4.86013
2.45442 1.77452 4.86825
2.43746 1.77362 4.87439
2.42153 1.77476 4.8835
2.4005 1.77072 4.87972
2.39254 1.7708 4.88478
2.38066 1.77404 4.90082
2.35862 1.76999 4.89604
2.3437 1.77116 4.90714
2.33083 1.7744 4.92319
2.29895 1.77566 4.93942
2.28689 1.77157 4.93257
2.22112 1.77306 4.96304
2.20925 1.77732 4.98007
2.20351 1.78681 5.01298
2.18944 1.78269 5.00415
2.16738 1.7776 4.99739
2.1345 1.77785 5.01263
2.11652 1.77691 5.01578
2.07464 1.77718 5.0321
2.05565 1.7752 5.03327
2.0489 1.7857 5.06617
2.02682 1.77957 5.05642
2.01804 1.78699 5.08438
1.99906 1.78604 5.08754
1.98005 1.78404 5.08671
1.97924 1.7914 5.11062
1.9623 1.79253 5.11873
1.93921 1.78637 5.10699
1.92634 1.78963 5.12404
1.91144 1.79283 5.13711
1.89141 1.7898 5.1343
1.8714 1.78679 5.1325
1.86343 1.78787 5.13754
1.84648 1.78797 5.14367
1.82952 1.78806 5.1488
1.81462 1.79026 5.16188
1.79561 1.78826 5.16105
1.77865 1.78834 5.16618
1.76477 1.79259 5.18222
1.74373 1.78853 5.17744
1.73678 1.78963 5.18348
1.71983 1.79074 5.19059
1.70288 1.79084 5.19672
1.68081 1.78574 5.18896
1.66797 1.79105 5.20898
1.64587 1.78487 5.19624
1.632 1.78913 5.21328
1.62301 1.78915 5.21435
1.60194 1.78405 5.20658
1.58705 1.78827 5.22063
1.57011 1.78839 5.22776
1.55007 1.78534 5.22395
1.53415 1.7875 5.23404
1.52027 1.79173 5.24909
1.50614 1.78451 5.2333
1.49021 1.78665 5.24239
1.47739 1.793 5.26539
1.45527 1.78578 5.24966
1.43833 1.78691 5.25778
1.42446 1.79217 5.27481
1.40236 1.78601 5.26306
1.39647 1.79021 5.27605
1.38158 1.79444 5.2911
1.36154 1.79038 5.28631
1.34459 1.79148 5.29242
1.32868 1.79467 5.30449
1.31071 1.79474 5.30863
1.29168 1.7917 5.30482
1.28269 1.79072 5.3059
1.26264 1.78765 5.3001
1.24673 1.79082 5.31117
1.23186 1.79508 5.32822
1.21179 1.79096 5.31943
1.19277 1.78895 5.31761
1.17893 1.79525 5.33762
1.16787 1.79116 5.33076
1.15091 1.79225 5.33587
1.13396 1.79336 5.34299
1.11392 1.79029 5.33718
1.09803 1.79452 5.35224
1.0821 1.79666 5.36133
1.05894 1.78837 5.34063
1.05408 1.79364 5.35859
1.03612 1.79473 5.36371
1.0171 1.79271 5.36188
1.00016 1.79383 5.36899
0.983187 1.7949 5.3731
0.966272 1.79708 5.3842
0.947218 1.79399 5.37739
0.940349 1.79924 5.39437
0.919225 1.79302 5.37861
0.902272 1.79412 5.38473
0.884311 1.79521 5.38985
0.866326 1.79525 5.39198
0.848349 1.79531 5.39512
0.83138 1.79638 5.39923
0.821349 1.79433 5.39533
0.805457 1.79755 5.40941
0.787504 1.79965 5.41551
0.768465 1.79659 5.4107
0.750466 1.7966 5.41084
0.732512 1.7977 5.41696
0.713458 1.79461 5.41015
0.705497 1.79569 5.41519
0.688597 1.7999 5.42826
0.667404 1.79055 5.40355
0.651582 1.7979 5.42656
0.633598 1.79794 5.4287
0.614528 1.79382 5.4199
0.597629 1.79802 5.43297
0.589676 1.80012 5.439
0.570645 1.79807 5.43517
0.552675 1.79815 5.43931
0.535746 1.80129 5.44839
0.518815 1.80344 5.45749
0.498684 1.7972 5.44073
0.481793 1.80242 5.45478
0.471723 1.79829 5.44592
0.454793 1.80144 5.455
0.435685 1.79625 5.44122
0.417801 1.80048 5.45629
0.399809 1.80051 5.45743
0.381817 1.80054 5.45856
0.363825 1.80057 5.4597
0.354818 1.80056 5.45877
0.336826 1.80058 5.4599
0.318834 1.80061 5.46104
0.299826 1.79961 5.46019
0.282873 1.80171 5.46629
0.263781 1.79755 5.4545
0.245874 1.80074 5.46659
0.23692 1.80283 5.47262
0.21879 1.7976 5.45583
0.200898 1.80182 5.46991
0.18286 1.79976 5.46507
0.164845 1.79874 5.46322
0.145822 1.79771 5.46038
0.127915 1.8019 5.47246
0.118869 1.79982 5.46656
0.10097 1.80402 5.47963
0.082901 1.8009 5.47081
0.0648319 1.79778 5.46199
0.046887 1.8009 5.46908
0.0264719 1.78715 5.28241
0.00848812 1.78819 5.28453
-0.00846496 1.79029 5.29063
-0.0264952 1.78924 5.28678
-0.0435104 1.78823 5.28493
-0.061471 1.79031 5.29003
-0.0705015 1.78926 5.28611
-0.0875167 1.78824 5.28426
-0.105493 1.7893 5.28738
-0.123345 1.79659 5.30641
-0.140422 1.79346 5.29658
-0.158514 1.7893 5.28478
-0.17549 1.79035 5.28789
-0.184521 1.7893 5.28397
-0.202497 1.79036 5.28709
-0.219504 1.79035 5.28622
-0.237465 1.79244 5.29133
-0.254534 1.78932 5.2825
-0.272525 1.79035 5.28362
-0.290486 1.79244 5.28872
-0.298493 1.79243 5.28778
-0.316438 1.79554 5.29487
-0.334445 1.79554 5.29401
-0.351468 1.79451 5.29115
-0.369482 1.79449 5.28929
-0.387443 1.79658 5.29439
-0.404466 1.79555 5.29154
-0.413473 1.79554 5.29061
-0.431495 1.79551 5.28774
-0.448525 1.79446 5.28388
-0.466478 1.79656 5.28999
-0.4845 1.79653 5.28713
-0.501531 1.79549 5.28327
-0.518599 1.79336 5.27443
-0.526607 1.79336 5.27349
-0.545536 1.7965 5.28258
-0.563543 1.7965 5.28172
-0.580604 1.7954 5.27386
-0.598534 1.79854 5.28295
-0.616548 1.79852 5.28109
-0.634547 1.79954 5.28121
-0.64257 1.7985 5.27829
-0.659646 1.79636 5.26844
-0.67763 1.79741 5.27056
-0.694644 1.79739 5.26869
-0.714535 1.80361 5.28275
-0.729712 1.79628 5.25997
-0.746742 1.79523 5.25612
-0.75478 1.79417 5.25119
-0.772787 1.79516 5.25031
-0.791701 1.79934 5.26139
-0.809676 1.8014 5.2645
-0.827698 1.80137 5.26164
-0.843759 1.79926 5.25379
-0.859882 1.79504 5.23797
-0.868866 1.79607 5.24002
-0.885919 1.79498 5.23316
-0.906748 1.80332 5.2552
-0.920948 1.79495 5.22943
-0.939869 1.80011 5.2395
-0.956915 1.79803 5.23365
-0.975867 1.80213 5.23974
-0.983921 1.80004 5.23283
-1.00382 1.80524 5.2459
-1.02184 1.80521 5.24304
-1.03696 1.802 5.2282
-1.05494 1.80404 5.2303
-1.66508 1.80221 5.08091
-1.69016 1.80208 5.0711
-1.70816 1.80309 5.07122
-1.74126 1.80191 5.05748
-1.75437 1.79869 5.04263
-1.78337 1.80172 5.0428
-1.79551 1.79746 5.02495
-1.8145 1.79949 5.02607
-1.82566 1.79318 5.00524
-1.84465 1.79621 5.00634
-1.85778 1.79197 4.9895
-1.87677 1.795 4.9906
-1.87992 1.78872 4.97171
-1.89989 1.79178 4.97482
-1.91691 1.79276 4.97293
-1.93102 1.78955 4.95808
-1.94804 1.79152 4.95518
-1.96608 1.79146 4.95032
-1.97722 1.7872 4.93246
-1.99015 1.79134 4.9415
-1.99935 1.78396 4.91567
-2.02421 1.79223 4.93274
-2.03735 1.78898 4.91488
-2.05241 1.78787 4.90701
-2.07142 1.78987 4.90613
-2.08747 1.78978 4.89925
-2.09745 1.79181 4.90129
-2.10762 1.7855 4.87946
-2.12957 1.79061 4.88655
-2.14267 1.78842 4.87268
-2.15874 1.7873 4.86382
-2.17676 1.78826 4.86094
-2.18985 1.7861 4.84907
-2.2028 1.79021 4.8561
-2.2169 1.78803 4.84324
-2.23196 1.78792 4.83535
-2.25097 1.7899 4.83347
-2.26505 1.78775 4.82261
-2.28504 1.79078 4.82371
-2.30011 1.79066 4.81483
-2.31011 1.79166 4.81489
-2.32027 1.78636 4.79404
-2.34024 1.79042 4.79713
-2.35531 1.7893 4.78826
-2.36941 1.78712 4.77539
-2.38644 1.78907 4.77149
-2.41037 1.79522 4.78058
-2.41151 1.78894 4.76168
-2.42953 1.79091 4.75879
-2.44954 1.79391 4.75789
-2.46855 1.79591 4.75701
-2.47672 1.78957 4.73416
-2.48883 1.78737 4.72028
-2.51572 1.7956 4.73437
-2.51883 1.79138 4.71945
-2.53488 1.7923 4.71356
-2.55586 1.79635 4.71565
-2.57192 1.79624 4.70778
-2.58403 1.79303 4.69291
-2.60502 1.79707 4.69501
-2.62304 1.79904 4.69212
-2.62714 1.79585 4.67919
-2.64023 1.79468 4.66731
-2.65925 1.79665 4.66442
-2.67135 1.79445 4.65054
-2.68643 1.79332 4.64067
-2.69756 1.79007 4.6238
-2.72052 1.79516 4.6289
-2.72362 1.79197 4.61597
-2.73868 1.79187 4.60808
-2.74685 1.78655 4.58622
-2.76093 1.78539 4.57534
-2.78389 1.79049 4.58044
-2.79206 1.78517 4.55858
-2.80614 1.78401 4.5477
-2.81516 1.78498 4.54475
-2.83319 1.78693 4.54086
-2.84332 1.78368 4.52398
-2.85641 1.78152 4.51211
-2.8905 1.78436 4.50032
-2.90557 1.78424 4.49144
-2.92571 1.78198 4.47262
-2.94077 1.78287 4.46472
-2.984 1.78044 4.43408
-3.01316 1.78015 4.4133
-3.0192 1.77907 4.40736
-3.05428 1.78294 4.39756
-3.06342 1.77867 4.37869
-3.09849 1.78255 4.3689
-3.10851 1.78352 4.36696
-3.13173 1.77911 4.3382
-3.14778 1.78102 4.33129
-3.1579 1.77779 4.31541
-3.17891 1.78179 4.31451
-3.19398 1.78165 4.30462
-3.19607 1.77849 4.29368
-3.21213 1.77937 4.28479
-3.24129 1.77908 4.26401
-3.25734 1.77999 4.25712
-3.26846 1.77777 4.24223
-3.28748 1.78073 4.23833
-3.29551 1.78168 4.23438
-3.31652 1.78468 4.23349
-3.32565 1.78243 4.21659
-3.33774 1.78125 4.2037
-3.3538 1.78214 4.1958
-3.36788 1.782 4.18591
-3.37998 1.7808 4.17202
-3.39407 1.78065 4.16112
-3.40705 1.78369 4.16318
-3.42014 1.78252 4.15129
-3.43223 1.78135 4.1394
-3.44631 1.7812 4.12851
-3.45446 1.77793 4.10961
-3.4715 1.77985 4.10371
-3.49549 1.78488 4.10482
-3.50054 1.78478 4.09786
-3.50967 1.78154 4.08097
-3.53168 1.78654 4.08006
-3.54081 1.78329 4.06318
-3.55192 1.78208 4.04828
-3.57591 1.78711 4.04938
-3.59197 1.78799 4.04049
-3.59108 1.78378 4.02654
-3.61111 1.78774 4.02264
-3.60933 1.77931 3.99374
-3.63431 1.78535 3.99584
-3.6494 1.7852 3.98496
-3.65356 1.78089 3.96405
-3.67061 1.7828 3.95715
-3.68657 1.78687 3.96121
-3.6957 1.78464 3.94531
-3.70681 1.78343 3.93041
-3.72386 1.78534 3.92351
-3.72902 1.78103 3.90261
-3.7431 1.78088 3.89171
-3.77215 1.78579 3.88486
-3.78327 1.78458 3.86996
-3.80032 1.78647 3.86206
-3.81043 1.78527 3.84815
-3.81956 1.78303 3.83125
-3.8376 1.78495 3.82536
-3.85168 1.7858 3.81445
-3.85178 1.78261 3.80149
-3.86884 1.7845 3.79359
-3.88392 1.78536 3.78369
-3.89006 1.78209 3.76479
-3.9212 1.78383 3.74599
-3.93528 1.78468 3.73508
-3.9564 1.78545 3.71923
-3.96553 1.78321 3.70233
-5.43232 1.74827 1.21455
-5.42854 1.74484 1.18557
-5.42968 1.74258 1.16761
-5.43979 1.74436 1.15266
-5.44392 1.7441 1.13469
-5.45004 1.74486 1.11872
-5.44919 1.74258 1.09975
-5.45032 1.74132 1.08177
-5.45039 1.74018 1.07279
-5.45253 1.73892 1.05482
-5.45507 1.73286 0.982921
3.86695 1.76592 3.73858
3.75267 1.76441 3.83448
3.73674 1.76355 3.84361
3.73886 1.76779 3.85954
3.71888 1.76385 3.86275
3.71303 1.76815 3.88273
3.69508 1.76625 3.88889
3.67813 1.76436 3.89605
3.6632 1.76352 3.90618
3.64727 1.76267 3.91531
3.63829 1.7617 3.91739
3.62538 1.76189 3.92949
3.61448 1.76311 3.94355
3.60258 1.76331 3.95664
3.59371 1.76657 3.97366
3.57474 1.76364 3.97785
3.55679 1.76174 3.98401
3.54488 1.76294 3.99709
3.53691 1.76201 4.00116
3.51895 1.75909 4.00634
3.50301 1.75822 4.01448
3.50424 1.76667 4.04435
3.4782 1.75961 4.03965
3.46428 1.75977 4.04975
3.45036 1.75994 4.06085
3.44239 1.76001 4.06491
3.4315 1.76122 4.07898
3.42061 1.76345 4.09403
3.40163 1.76051 4.09722
3.37963 1.75553 4.09746
3.37379 1.76084 4.11842
3.35584 1.75895 4.12459
3.34786 1.75801 4.12866
3.33394 1.75817 4.13877
3.32002 1.75834 4.14987
3.30004 1.75539 4.15207
3.29117 1.75764 4.1691
3.27825 1.75882 4.18018
3.26523 1.7558 4.17833
3.25637 1.75907 4.19635
3.23941 1.75716 4.2015
3.22448 1.7573 4.21061
3.21258 1.7585 4.22369
3.18474 1.75883 4.2449
3.1798 1.76095 4.2529
3.1679 1.76216 4.26598
3.14993 1.76024 4.27114
3.13803 1.76144 4.28421
3.12209 1.76157 4.29233
3.10716 1.76072 4.30146
3.0673 1.75903 4.32079
3.05339 1.7602 4.33188
3.02757 1.76258 4.35604
2.99871 1.76286 4.37426
2.97872 1.75991 4.37645
2.97175 1.75997 4.3805
2.95783 1.76015 4.39161
2.94696 1.76339 4.40764
2.93 1.76149 4.4138
2.91912 1.76472 4.42884
2.90317 1.76384 4.43597
2.88521 1.76192 4.44113
2.88229 1.76509 4.45211
2.86432 1.76316 4.45627
2.85343 1.76639 4.47131
2.83546 1.76446 4.47548
2.82459 1.76772 4.49251
2.80561 1.76477 4.4947
2.7927 1.76695 4.50677
2.79182 1.77119 4.52271
2.77486 1.77028 4.52785
2.76094 1.77143 4.53794
2.75311 1.77677 4.55993
2.74325 1.78105 4.57894
2.72123 1.77603 4.57618
2.6992 1.77198 4.5724
2.6902 1.77 4.5735
2.66614 1.7639 4.56577
2.61554 1.77273 4.61903
2.59757 1.7708 4.62319
2.5896 1.77085 4.62625
2.55873 1.77112 4.64349
2.5509 1.77747 4.66645
2.538 1.77967 4.67952
2.51191 1.77151 4.66784
2.48986 1.76644 4.66208
2.48291 1.76753 4.66811
2.45608 1.77089 4.69127
2.43913 1.76999 4.69741
2.42317 1.77009 4.70353
2.41739 1.77751 4.73147
2.40246 1.77866 4.74056
2.38026 1.7673 4.7159
2.3755 1.77677 4.7468
2.34938 1.76856 4.73211
2.3175 1.76881 4.74735
2.2498 1.77245 4.78781
2.23182 1.77049 4.78998
2.223 1.77685 4.81395
2.20604 1.77694 4.81908
2.17601 1.7719 4.81538
2.07031 1.77057 4.8562
2.05538 1.77272 4.86528
2.03166 1.78127 4.90134
2.01469 1.78034 4.90548
2.00487 1.78669 4.92847
1.97974 1.77847 4.91278
1.96278 1.77855 4.9179
1.95482 1.77863 4.92296
1.93375 1.77352 4.9142
1.92088 1.77778 4.93123
1.90084 1.77372 4.92644
1.88591 1.77588 4.93652
1.86794 1.77495 4.94067
1.85198 1.77503 4.94579
1.84911 1.78029 4.96274
1.83727 1.78559 4.98275
1.82234 1.78775 4.99284
1.7972 1.7785 4.97516
1.77615 1.77442 4.96838
1.76122 1.77556 4.97747
1.74938 1.78188 4.99847
1.71829 1.77474 4.98781
1.70236 1.77587 4.99592
1.66942 1.77503 5.00518
1.65349 1.77717 5.01427
1.62649 1.77419 5.01451
1.61057 1.77635 5.0246
1.59358 1.77539 5.02675
1.57561 1.77445 5.0299
1.55965 1.77555 5.036
1.52674 1.77575 5.04825
1.52186 1.78098 5.06321
1.50282 1.77792 5.0584
1.4509 1.7761 5.06882
1.43494 1.7772 5.07492
1.418 1.77832 5.08203
1.41001 1.77836 5.08409
1.37609 1.77853 5.09435
1.35912 1.7786 5.09847
1.3442 1.78076 5.10856
1.32621 1.7808 5.11069
1.30822 1.77883 5.11186
1.29819 1.77678 5.10796
1.28223 1.77788 5.11407
1.26837 1.78214 5.13111
1.25038 1.78218 5.13325
1.2334 1.78224 5.13637
1.2154 1.78125 5.13652
1.19845 1.78135 5.14265
1.18945 1.78136 5.14272
1.17247 1.78142 5.14585
1.15549 1.78046 5.14799
1.13854 1.78157 5.1551
1.12156 1.78162 5.15723
1.10356 1.77963 5.15739
1.0897 1.78491 5.17542
1.07758 1.77969 5.16059
1.06062 1.77978 5.16572
1.02878 1.78511 5.18688
1.00972 1.78201 5.17907
0.99378 1.78314 5.18717
0.97578 1.78215 5.18732
0.968873 1.78633 5.19931
0.949796 1.7822 5.18952
0.93285 1.78332 5.19663
0.914842 1.78232 5.19578
0.895803 1.77926 5.19097
0.879865 1.78139 5.19906
0.862904 1.78247 5.20417
0.855981 1.78562 5.21418
0.836935 1.78255 5.20837
0.820996 1.78368 5.21647
0.804058 1.78581 5.22457
0.786058 1.78582 5.2247
0.769082 1.78588 5.22783
0.751051 1.78383 5.224
0.742074 1.78389 5.22706
0.725105 1.78496 5.23118
0.707081 1.78293 5.22834
0.689035 1.78085 5.22251
0.673182 1.78614 5.24155
0.656183 1.78615 5.24168
0.638159 1.78412 5.23884
0.630206 1.78622 5.24487
0.611167 1.78316 5.24006
0.594206 1.78424 5.24517
0.577221 1.78429 5.2473
0.560261 1.78637 5.2524
0.54223 1.78433 5.24857
0.525284 1.78644 5.25566
0.516276 1.78543 5.25475
0.498261 1.78442 5.2529
0.482346 1.78759 5.26397
0.464316 1.78555 5.26014
0.446339 1.7866 5.26326
0.428285 1.78351 5.25644
0.411301 1.78356 5.25856
0.403363 1.78668 5.26658
0.385402 1.78777 5.2717
0.36841 1.78779 5.27283
0.350418 1.78782 5.27396
0.332333 1.78367 5.26316
0.315388 1.78579 5.27026
0.297349 1.78373 5.26542
0.28838 1.78479 5.26947
0.271459 1.78895 5.27954
0.253381 1.78482 5.26974
0.236428 1.78692 5.27583
0.218405 1.78489 5.273
0.201483 1.78905 5.28307
0.183352 1.78281 5.26629
0.166399 1.78491 5.27239
0.157476 1.78807 5.28241
0.140407 1.78495 5.27359
0.122377 1.7839 5.26974
0.105455 1.78706 5.27982
0.087548 1.79125 5.29189
0.070502 1.78917 5.28605
0.0524636 1.78711 5.28122
0.0434482 1.78609 5.2793
-1.73256 1.79935 4.88543
-1.75057 1.80034 4.88355
-1.76563 1.80023 4.87567
-1.78168 1.79914 4.8688
-1.79969 1.80114 4.86791
-1.80577 1.79799 4.858
-1.82082 1.7979 4.85111
-1.84079 1.80096 4.85422
-1.85292 1.79672 4.83737
-1.86701 1.79456 4.82651
-1.88501 1.79656 4.82561
-1.89812 1.79336 4.81176
-1.9081 1.7954 4.8138
-1.92415 1.79532 4.80792
-1.93724 1.79316 4.79605
-1.95721 1.79621 4.79916
-1.97424 1.79718 4.79627
-1.98733 1.795 4.7834
-2.00144 1.7918 4.76955
-2.00846 1.79176 4.7666
-2.0255 1.7927 4.76172
-2.04056 1.79159 4.75385
-2.0576 1.79253 4.74896
-2.07559 1.79456 4.75007
-2.09067 1.79341 4.7392
-2.10475 1.79227 4.72932
-2.11473 1.79431 4.73136
-2.12685 1.79009 4.71651
-2.14976 1.79726 4.72658
-2.16287 1.79406 4.71273
-2.17793 1.79395 4.70484
-2.193 1.79283 4.69597
-2.20904 1.79377 4.69108
-2.21511 1.79164 4.68215
-2.23114 1.79158 4.67727
-2.25408 1.79771 4.68536
-2.28224 1.79542 4.6646
-2.2973 1.79532 4.65671
-2.31236 1.79419 4.64784
-2.33841 1.79612 4.64201
-2.3515 1.79395 4.63014
-2.36557 1.79282 4.62026
-2.38359 1.7948 4.61837
-2.39473 1.79054 4.60051
-2.41569 1.79562 4.60459
-2.42273 1.79455 4.59966
-2.44173 1.79755 4.59876
-2.45679 1.79744 4.59087
-2.46891 1.79423 4.57601
-2.5321 1.79589 4.55046
-2.71384 1.79555 4.45282
-2.80929 1.79373 4.39356
-2.84546 1.79342 4.37083
-2.86251 1.79434 4.36495
-2.88671 1.79098 4.33917
-2.89781 1.78878 4.32529
-2.90979 1.79082 4.32735
-2.91992 1.78859 4.31146
-2.94091 1.79262 4.31255
-2.98313 1.7912 4.28289
-2.99819 1.79209 4.27499
-3.00831 1.78887 4.25911
-3.0114 1.7857 4.24818
-3.02942 1.78867 4.24527
-3.05042 1.79267 4.24437
-3.06054 1.78944 4.22849
-3.08573 1.78711 4.20471
-3.10672 1.79112 4.20481
-3.11277 1.79102 4.19786
-3.1219 1.78779 4.18197
-3.14092 1.79075 4.17807
-3.16511 1.78841 4.15428
-3.20029 1.78807 4.12955
-3.33301 1.78774 4.03454
-3.4698 1.78728 3.93056
-3.52313 1.78667 3.88697
-5.32331 1.74228 0.949784
-5.32737 1.74317 0.9418
-5.32351 1.7399 0.923817
-5.32165 1.73763 0.905834
-5.32178 1.73637 0.887851
-5.3299 1.73713 0.871899
-5.32404 1.73386 0.853901
-5.32617 1.73261 0.836933
-5.31625 1.72844 0.825918
-5.32038 1.7282 0.808951
3.52068 1.76857 3.83616
3.47496 1.76917 3.87451
3.44812 1.7695 3.89571
3.43723 1.77072 3.90977
3.4013 1.76589 3.92012
3.39939 1.76905 3.93108
3.37455 1.7694 3.95327
3.36165 1.77059 3.96535
3.34873 1.77076 3.97645
3.33278 1.76987 3.98358
3.3138 1.76593 3.98678
3.30796 1.77125 4.00775
3.29898 1.77028 4.00983
3.28808 1.77148 4.0229
3.27415 1.77164 4.033
3.24024 1.76784 4.04532
3.22429 1.76696 4.05245
3.21239 1.76816 4.06552
3.20442 1.76721 4.0686
3.18847 1.76633 4.07573
3.17555 1.7675 4.08682
3.16263 1.76766 4.09691
3.15377 1.77093 4.11493
3.14085 1.7721 4.12601
3.12389 1.77019 4.13117
3.11895 1.77131 4.13919
3.103 1.77042 4.14633
3.09211 1.77264 4.16038
3.0721 1.76865 4.16059
3.05818 1.76881 4.17069
3.03819 1.76486 4.1729
3.03135 1.77016 4.19288
3.02641 1.77128 4.2009
3.00944 1.76935 4.20506
3.00158 1.77364 4.22405
2.97856 1.76861 4.2213
2.96665 1.7698 4.23338
2.95373 1.77097 4.24446
2.93982 1.77214 4.25555
2.93386 1.77224 4.26159
2.92297 1.77445 4.27564
2.90095 1.77044 4.27387
2.88905 1.77162 4.28594
2.8731 1.77074 4.29307
2.86119 1.77293 4.30513
2.85132 1.77618 4.32216
2.84436 1.77626 4.32721
2.82131 1.77019 4.32148
2.81853 1.77861 4.34938
2.80157 1.77771 4.35552
2.78055 1.77268 4.35275
2.76966 1.77591 4.36779
2.75473 1.77605 4.3769
2.74878 1.77716 4.38393
2.73689 1.77938 4.39799
2.72093 1.77846 4.40312
2.69106 1.77874 4.42034
2.67713 1.7789 4.43045
2.66219 1.77902 4.43856
2.65726 1.78116 4.44757
2.64028 1.77922 4.45072
2.62536 1.78038 4.46082
2.6094 1.77946 4.46596
2.59548 1.78064 4.47704
2.58257 1.78182 4.48913
2.56358 1.77985 4.4903
2.55966 1.78202 4.5013
2.54269 1.78007 4.50445
2.52673 1.78017 4.51057
2.51079 1.7803 4.51869
2.49382 1.77838 4.52285
2.47583 1.7764 4.52401
2.46394 1.77862 4.53807
2.45291 1.77658 4.53519
2.43899 1.77674 4.54529
2.43015 1.78306 4.56627
2.40709 1.77696 4.55853
2.38401 1.76983 4.54881
2.37315 1.7741 4.56683
2.35211 1.76904 4.56206
2.34515 1.77014 4.5681
2.33223 1.77129 4.57818
2.3112 1.76727 4.5754
2.29626 1.76738 4.58251
2.28538 1.77163 4.59853
2.25042 1.76773 4.60385
2.24465 1.77717 4.63376
2.23158 1.77205 4.62493
2.21256 1.76903 4.62312
2.20068 1.77228 4.63916
2.18371 1.77134 4.64231
2.16877 1.77248 4.6514
2.163 1.78091 4.68033
2.14705 1.78103 4.68745
2.13704 1.77901 4.68555
2.12515 1.78324 4.70058
2.1041 1.77816 4.69481
2.08814 1.77725 4.69995
2.07322 1.77941 4.71003
2.05929 1.78057 4.72012
2.0413 1.77859 4.72128
2.03943 1.78385 4.73822
2.01942 1.78083 4.73642
2.00549 1.78198 4.74551
1.99565 1.78831 4.76749
1.97053 1.78009 4.7518
1.95864 1.78331 4.76584
1.94475 1.78652 4.7799
1.9296 1.77825 4.76114
1.91568 1.78043 4.77221
1.90484 1.78574 4.79322
1.88377 1.78063 4.78445
1.8668 1.7797 4.78859
1.8529 1.7829 4.80165
1.83489 1.7799 4.80083
1.82487 1.77786 4.79794
1.81097 1.78106 4.81099
1.79297 1.77908 4.81116
1.77599 1.77712 4.81332
1.76209 1.78032 4.82638
1.74509 1.77935 4.82752
1.72608 1.77633 4.82571
1.72424 1.78365 4.84661
1.70622 1.78063 4.84479
1.68822 1.77864 4.84496
1.67431 1.78183 4.85702
1.6594 1.784 4.8681
1.64035 1.77993 4.8623
1.62644 1.78212 4.87438
1.61747 1.78217 4.87745
1.60151 1.78225 4.88257
1.58658 1.78441 4.89265
1.5696 1.78447 4.89577
1.55057 1.78042 4.89198
1.53667 1.78361 4.90404
1.51763 1.78055 4.89922
1.5117 1.7827 4.90924
1.49883 1.78695 4.92527
1.47979 1.78389 4.92046
1.46281 1.78295 4.92361
1.44891 1.78715 4.93665
1.42989 1.78412 4.93384
1.41599 1.78734 4.9479
1.40801 1.78737 4.94996
1.39002 1.7864 4.95111
1.37509 1.78854 4.96019
1.35501 1.78341 4.95041
1.34216 1.7887 4.96944
1.32312 1.78564 4.96462
1.30922 1.78884 4.97768
1.30332 1.79304 4.99067
1.28425 1.78792 4.98189
1.26832 1.79007 4.99097
1.25238 1.7922 4.99906
1.23641 1.79227 5.00318
1.21945 1.79235 5.00831
1.19552 1.7945 5.01746
1.17956 1.7946 5.02358
1.16155 1.79259 5.02175
1.14562 1.79473 5.03084
1.01982 1.79621 5.05777
0.960901 1.79641 5.06921
0.816016 1.79374 5.08534
0.741172 1.79809 5.10584
0.631288 1.79839 5.12167
0.579304 1.79746 5.12407
0.562343 1.79855 5.12919
0.417422 1.7988 5.14028
0.374461 1.79891 5.1456
0.245425 1.79493 5.14163
0.186542 1.80019 5.157
0.16952 1.79916 5.15414
0.134497 1.79714 5.15143
0.100529 1.79922 5.15566
0.0745142 1.79821 5.15387
0.0265738 1.7964 5.02924
0.0185898 1.79743 5.03129
-0.0154714 1.79434 5.02359
-0.0313856 1.79851 5.03465
-0.0484159 1.79747 5.03079
-0.0824149 1.79749 5.03105
-0.140367 1.79962 5.03745
-0.216402 1.7996 5.03302
-0.283431 1.79959 5.02953
-0.517536 1.80054 5.01628
-1.73052 1.79846 4.75741
-1.80971 1.79913 4.73199
-1.81382 1.79493 4.71808
-1.8328 1.79798 4.72118
-1.86096 1.79368 4.69946
-1.87994 1.79774 4.70254
-1.89107 1.79349 4.68568
-1.91006 1.79552 4.6868
-1.91514 1.79338 4.67687
-1.9302 1.79227 4.66899
-1.94916 1.79634 4.67308
-1.95932 1.79105 4.65323
-1.99238 1.79195 4.64446
-2.01233 1.79705 4.65054
-2.01251 1.78871 4.62766
-2.03639 1.79695 4.64272
-2.04754 1.79267 4.62387
-2.07567 1.79043 4.60611
-2.09859 1.79659 4.61619
-2.10579 1.78923 4.59135
-2.11971 1.79439 4.60138
-2.13084 1.79014 4.58453
-2.14589 1.79005 4.57764
-2.16291 1.79202 4.57474
-2.1819 1.79505 4.57584
-2.19007 1.78873 4.55399
-2.20807 1.79174 4.55408
-2.22411 1.79166 4.5482
-2.24719 1.79153 4.53838
-2.26029 1.78935 4.5255
-2.28026 1.79341 4.5286
-2.29826 1.79642 4.52869
-2.30742 1.79112 4.50783
-2.33345 1.79308 4.504
-2.36651 1.79597 4.4952
-2.39367 1.79268 4.47445
-2.41872 1.79459 4.46761
-2.5061 1.79291 4.41829
-2.82354 1.7883 4.22872
-2.87684 1.78573 4.18816
-2.90288 1.78868 4.18331
-2.9209 1.79165 4.1804
-2.96213 1.79023 4.15073
-2.99125 1.791 4.13393
-3.02445 1.78964 4.1082
-3.09986 1.78888 4.05377
-3.11491 1.78979 4.04687
-3.23055 1.78861 3.96275
-3.25671 1.78832 3.94195
-5.2251 1.74267 0.845024
-5.23022 1.74344 0.829049
-5.22436 1.74015 0.810051
-5.22948 1.73992 0.79409
-5.23161 1.73967 0.777108
-5.23972 1.74145 0.76214
-5.22887 1.73517 0.743149
-5.22894 1.73503 0.73415
-5.23006 1.73378 0.717175
-5.22021 1.72849 0.698176
-5.22047 1.72599 0.664211
-5.2327 1.72754 0.633276
3.5979 1.76502 3.5996
3.5223 1.76186 3.65323
3.50654 1.76635 3.68528
3.49362 1.76651 3.69538
3.47464 1.76358 3.69957
3.45082 1.76494 3.72273
3.44193 1.76717 3.73777
3.43194 1.76519 3.73887
3.40408 1.76349 3.75811
3.39418 1.76569 3.77115
3.37824 1.76382 3.7793
3.36936 1.76605 3.79434
3.35542 1.76619 3.80344
3.33937 1.7601 3.79665
3.33251 1.76437 3.81464
3.31555 1.76247 3.8208
3.2996 1.76057 3.82695
3.29374 1.76486 3.84593
3.27982 1.76502 3.85603
3.26487 1.76313 3.86318
3.26093 1.76525 3.87118
3.24902 1.76544 3.88326
3.23307 1.76455 3.8904
3.21914 1.7637 3.89952
3.19713 1.7597 3.89874
3.1933 1.76503 3.92069
3.17835 1.76414 3.92782
3.17544 1.76631 3.93881
3.15544 1.76234 3.94002
3.14454 1.76454 3.95307
3.13263 1.76471 3.96416
3.12173 1.76691 3.97721
3.10476 1.765 3.98237
3.0878 1.76308 3.98753
3.07982 1.76213 3.9906
3.07601 1.76849 4.01454
3.056 1.7645 4.01475
3.04106 1.76363 4.02288
3.03016 1.76582 4.03493
3.02533 1.77115 4.05689
2.99926 1.76405 4.04919
2.98825 1.76104 4.04832
2.97534 1.76222 4.0594
2.9705 1.76753 4.08036
2.96062 1.77077 4.09639
2.94062 1.76679 4.0966
2.92061 1.76279 4.09581
2.91376 1.76709 4.1158
2.90882 1.76921 4.1238
2.89287 1.76731 4.12995
2.87792 1.76743 4.13707
2.86197 1.76553 4.14321
2.84702 1.76564 4.15033
2.83714 1.76789 4.16637
2.82422 1.76904 4.17645
2.8213 1.77221 4.18743
2.80028 1.76718 4.18466
2.78736 1.76835 4.19574
2.77038 1.76641 4.1989
2.7676 1.77482 4.2268
2.7324 1.76048 4.20227
2.7286 1.76685 4.22721
2.72061 1.76689 4.22927
2.70972 1.76912 4.24432
2.69478 1.76923 4.25143
2.6778 1.76729 4.25459
2.67097 1.77262 4.27657
2.65603 1.77275 4.28468
2.64817 1.77702 4.30268
2.62904 1.7688 4.28694
2.61816 1.77203 4.30198
2.60726 1.77423 4.31503
2.58218 1.7661 4.30534
2.56724 1.76623 4.31345
2.56344 1.77462 4.33936
2.5485 1.77475 4.34747
2.53443 1.76862 4.33866
2.50455 1.76888 4.35489
2.50076 1.77728 4.38179
2.4848 1.77738 4.38791
2.4658 1.7734 4.38812
2.44374 1.7673 4.38037
2.43692 1.77364 4.40333
2.42488 1.77058 4.39847
2.41399 1.77379 4.4125
2.40311 1.77704 4.42854
2.38918 1.77818 4.43763
2.3712 1.77624 4.44079
2.35929 1.77842 4.45285
2.35044 1.78271 4.47186
2.3262 1.76929 4.44224
2.32346 1.77977 4.47511
2.29633 1.77054 4.45845
2.28949 1.77687 4.48041
2.27354 1.77597 4.48654
2.25452 1.77296 4.48473
2.25076 1.78242 4.51562
2.23161 1.77314 4.4959
2.21463 1.7712 4.49906
2.1956 1.76717 4.49626
2.18677 1.7735 4.51824
2.16064 1.76427 4.50157
2.15587 1.7737 4.53047
2.14498 1.77693 4.5455
2.13191 1.7718 4.53668
2.11799 1.77396 4.54675
2.10508 1.77615 4.55882
2.08606 1.77213 4.55702
2.07416 1.77533 4.57006
2.05515 1.77233 4.56925
2.04326 1.77555 4.58329
2.03425 1.77454 4.58238
2.01831 1.77466 4.5895
1.99928 1.77063 4.5867
1.98332 1.77071 4.59182
1.97143 1.77393 4.60586
1.95647 1.77403 4.61198
1.93848 1.77206 4.61314
1.93049 1.77108 4.61421
1.91453 1.77116 4.61933
1.89652 1.76918 4.6195
1.8826 1.77033 4.62959
1.86562 1.76938 4.63173
1.85066 1.76948 4.63784
1.83675 1.77165 4.64892
1.82775 1.77067 4.65
1.81281 1.77178 4.6571
1.79888 1.77293 4.66619
1.78291 1.772 4.67032
1.73501 1.77224 4.68468
1.7131 1.77343 4.69683
1.69918 1.77559 4.7069
1.66418 1.77162 4.70723
1.64618 1.76963 4.70739
1.63226 1.77179 4.71747
1.62632 1.77391 4.72548
1.59541 1.77511 4.7377
1.57636 1.77104 4.7319
1.54853 1.77538 4.75405
1.53052 1.77338 4.75321
1.52048 1.77131 4.74832
1.50658 1.7735 4.76039
1.4947 1.77775 4.77642
1.47258 1.77053 4.76069
1.46072 1.77582 4.77971
1.44578 1.77795 4.78779
1.4247 1.7718 4.77704
1.42081 1.77601 4.79101
1.40178 1.77296 4.78719
1.38784 1.77511 4.79627
1.35695 1.77734 4.81047
1.34097 1.77639 4.8136
1.32296 1.77438 4.81177
1.31703 1.77751 4.82077
1.30414 1.78174 4.83581
1.28407 1.77661 4.82603
1.27017 1.77981 4.83909
1.25937 1.78821 4.86505
1.23513 1.77578 4.83541
1.22227 1.78104 4.85244
1.20914 1.77381 4.83664
1.17927 1.77707 4.85282
1.16642 1.78338 4.87283
1.14733 1.77823 4.86204
1.13552 1.78559 4.88603
1.11232 1.77523 4.86035
1.11157 1.78671 4.89319
1.09044 1.77948 4.87646
1.07652 1.78164 4.88653
1.05745 1.77752 4.87773
1.04669 1.78798 4.90866
1.02657 1.78076 4.89292
1.01165 1.78393 4.90399
0.999518 1.77669 4.88718
0.986681 1.78401 4.90817
0.968603 1.77888 4.89839
0.951627 1.77893 4.90151
0.939851 1.78837 4.93047
0.922828 1.78634 4.92762
0.904765 1.78224 4.91982
0.897858 1.78642 4.93181
0.881881 1.78647 4.93493
0.863858 1.78444 4.9321
0.846804 1.78135 4.92527
0.834013 1.79076 4.95223
0.813873 1.78251 4.9345
0.802106 1.79396 4.96443
0.779866 1.78052 4.93379
0.775036 1.78885 4.9557
0.758021 1.78683 4.95386
0.743145 1.79208 4.9699
0.723974 1.78277 4.94818
0.709129 1.79007 4.96818
0.689974 1.78179 4.94845
0.678253 1.79433 4.98436
0.66606 1.78497 4.95958
0.651184 1.79022 4.97562
0.6363 1.79545 4.99066
0.618176 1.78823 4.9749
0.600083 1.78306 4.96311
0.584199 1.7883 4.97815
0.567153 1.78522 4.97233
0.561324 1.79355 4.99425
0.542161 1.78525 4.97351
0.527316 1.79156 4.99354
0.511363 1.79366 4.99963
0.493286 1.78953 4.98982
0.476239 1.78645 4.98399
0.460348 1.79167 4.99804
0.452371 1.79172 5.0011
0.436433 1.79485 5.00917
0.419356 1.79071 4.99936
0.402411 1.79283 5.00646
0.384287 1.78661 4.99069
0.368357 1.78975 4.99976
0.352349 1.78875 4.9989
0.344474 1.79499 5.01486
0.328521 1.79709 5.02095
0.311474 1.79401 5.01513
0.294505 1.79508 5.01924
0.276351 1.7878 4.99948
0.244452 1.79202 5.01266
0.235467 1.79205 5.01473
0.219576 1.79727 5.02877
0.202554 1.79624 5.02592
0.186585 1.79731 5.03002
0.169562 1.79628 5.02717
0.152609 1.79838 5.03326
0.135555 1.79529 5.02644
0.12754 1.79527 5.0245
0.110525 1.79425 5.02264
0.0934552 1.79013 5.01383
0.076526 1.79427 5.02289
0.0605572 1.79534 5.027
0.0435501 1.79534 5.02613
-0.0928113 1.77778 4.84739
-0.140817 1.7778 4.84675
-0.1738 1.77985 4.84897
-0.1898 1.77986 4.84909
-0.261874 1.77777 4.83966
-0.278788 1.78194 4.85073
-0.302888 1.77777 4.83797
-0.318895 1.77776 4.83709
-0.334902 1.77776 4.83621
-0.350902 1.77777 4.83633
-0.367854 1.78087 4.84242
-0.384799 1.78399 4.8495
-0.439952 1.77773 4.83
-0.456866 1.78291 4.84106
-0.472934 1.78079 4.83221
-0.489841 1.78498 4.84428
-0.505871 1.78493 4.8404
-0.513917 1.78285 4.83449
-0.530862 1.78596 4.84157
-0.545931 1.78284 4.83273
-0.562883 1.78594 4.83881
-0.577975 1.78277 4.82697
-0.594943 1.78485 4.83107
-0.610004 1.78274 4.82321
-0.621794 1.79315 4.85015
-0.634026 1.78271 4.82039
-0.650041 1.78269 4.81851
-0.66704 1.78271 4.81864
-0.683055 1.78269 4.81676
-0.6981 1.78161 4.81089
-0.714138 1.78055 4.80603
-0.72213 1.78157 4.80707
-0.738175 1.78049 4.80121
-0.756089 1.78467 4.81228
-0.787188 1.7825 4.79955
-0.804163 1.78455 4.80264
-0.821124 1.78664 4.80774
-0.8362 1.7845 4.79788
-0.843254 1.78241 4.79097
-0.858323 1.78028 4.78211
-0.876244 1.78444 4.79219
-0.89129 1.78337 4.78632
-0.909257 1.78644 4.79041
-0.923349 1.78227 4.77857
-0.946394 1.7822 4.77275
-0.964347 1.7853 4.77884
-0.98133 1.78734 4.78093
-0.993492 1.78004 4.76013
-1.01051 1.78102 4.75824
-1.02749 1.78307 4.76034
-1.04251 1.78303 4.75746
-1.05054 1.78198 4.75353
-1.08549 1.78709 4.75972
-1.09858 1.78392 4.74786
-1.11656 1.78598 4.75097
-1.13064 1.78383 4.74011
-1.15054 1.79004 4.75317
-1.15563 1.78588 4.74226
-1.17359 1.78895 4.74635
-1.18671 1.78474 4.73151
-1.20661 1.79093 4.74357
-1.2207 1.78878 4.73271
-1.24061 1.79395 4.74378
-1.25856 1.79807 4.75086
-1.26562 1.79596 4.74294
-1.27873 1.79174 4.7281
-1.29473 1.79276 4.72821
-1.31271 1.79581 4.7313
-1.32873 1.79678 4.7284
-1.36879 1.79768 4.71969
-1.43291 1.79748 4.70418
-1.44503 1.79327 4.68933
-1.46008 1.79218 4.68246
-1.47004 1.79526 4.68749
-1.48802 1.7983 4.68958
-1.49917 1.79203 4.67075
-1.51812 1.79713 4.67682
-1.5283 1.7898 4.654
-1.54432 1.78977 4.65112
-1.5662 1.798 4.66617
-1.56935 1.79173 4.64728
-1.57853 1.78439 4.62446
-1.60139 1.79266 4.64151
-1.61057 1.78533 4.61868
-1.62757 1.78734 4.61878
-1.63872 1.78205 4.59894
-1.65867 1.78717 4.60602
-1.65884 1.77884 4.58414
-1.68171 1.7871 4.60019
-1.6909 1.77973 4.57536
-1.71182 1.78591 4.58643
-1.72294 1.78168 4.57058
-1.75107 1.77844 4.55283
-1.75908 1.77943 4.55188
-1.79016 1.7793 4.54211
-1.85427 1.78211 4.52655
-1.8564 1.77686 4.50964
-1.90546 1.78078 4.50196
-1.93753 1.78167 4.49318
-1.94668 1.77638 4.47333
-1.96465 1.77944 4.47642
-1.98771 1.78034 4.46858
-2.04693 1.77795 4.44005
-2.06901 1.77782 4.43022
-2.15226 1.77938 4.39682
-2.16337 1.77618 4.38295
-2.17841 1.7761 4.37706
-2.21441 1.78111 4.37626
-2.22552 1.77891 4.36237
-2.23957 1.77882 4.35548
-2.2476 1.77878 4.35254
-2.27151 1.78596 4.36362
-2.27768 1.77964 4.34175
-2.34997 1.77811 4.30332
-2.357 1.77806 4.29937
-2.37697 1.78312 4.30244
-2.3871 1.77889 4.28658
-2.40805 1.78498 4.29165
-2.41226 1.77558 4.26482
-2.44013 1.78685 4.28186
-2.44926 1.78259 4.26399
-2.45924 1.78464 4.26704
-2.4664 1.77934 4.24617
-2.48934 1.78546 4.25325
-2.49453 1.77811 4.22939
-2.51944 1.78629 4.24046
-2.52364 1.77891 4.2146
-2.54758 1.78604 4.22268
-2.55164 1.78391 4.21374
-2.57064 1.78692 4.21384
-2.57285 1.77853 4.18697
