-0.0335404 1.87567 11.6621
-0.0714477 1.87787 11.6744
-0.109423 1.87894 11.6777
-0.146338 1.88113 11.6889
-0.184238 1.88335 11.7022
-0.223153 1.88555 11.7134
-0.261022 1.88882 11.7307
-0.279907 1.89106 11.7458
-0.317898 1.8921 11.747
-0.356805 1.89431 11.7593
-0.394705 1.89653 11.7726
-0.432704 1.89656 11.7729
-0.47158 1.89982 11.7891
-0.509563 1.90088 11.7914
-0.567478 1.90308 11.8028
1.83225 1.82317 11.2338
1.79102 1.81776 11.2042
1.29218 1.83335 11.3587
1.25948 1.83995 11.3979
1.22467 1.84435 11.4231
1.18873 1.84448 11.4304
1.17082 1.84667 11.4425
1.13494 1.84892 11.4577
1.09691 1.84689 11.454
0.786507 1.85727 11.5342
0.749569 1.85841 11.5425
0.712631 1.85956 11.5507
0.694708 1.86172 11.5608
0.657739 1.8618 11.5651
0.620847 1.86404 11.5794
0.583856 1.86408 11.5806
0.546948 1.86528 11.5929
0.508987 1.86638 11.5982
0.472072 1.86857 11.6094
0.453019 1.86648 11.6026
0.416119 1.8687 11.6158
0.379158 1.8698 11.6211
0.341228 1.87097 11.6304
0.304168 1.86987 11.6227
0.266146 1.86886 11.62
0.229269 1.87212 11.6362
0.210338 1.87327 11.6453
0.173294 1.87221 11.6396
0.135249 1.87115 11.6339
0.0983874 1.87444 11.6522
0.058885 1.85766 10.9226
0.0229701 1.85985 10.9338
-0.0120132 1.8609 10.9361
-0.0469663 1.86202 10.9423
-0.0829729 1.86203 10.9416
-0.117972 1.86205 10.9419
-0.135933 1.86314 10.947
-0.170902 1.86322 10.9513
-0.206863 1.86432 10.9565
-0.242785 1.8665 10.9668
-0.277822 1.86645 10.962
-0.313676 1.86976 10.9812
-0.349636 1.87086 10.9865
-0.367506 1.87412 11.0036
-0.403413 1.87633 11.0158
-0.439366 1.87844 11.0221
-0.47535 1.8785 11.0243
-0.510341 1.87954 11.0256
-0.546279 1.88068 11.0338
-0.583209 1.88284 11.0431
-0.601216 1.88284 11.0422
-0.638046 1.88719 11.0644
-0.674022 1.88826 11.0677
-0.709944 1.89044 11.0779
0.339641 1.853 10.8896
0.322748 1.85521 10.9037
0.286696 1.85414 10.8969
0.251765 1.8553 10.9062
0.216797 1.85638 10.9104
0.181714 1.85424 10.8997
0.146852 1.85753 10.9179
0.110914 1.85868 10.9262
0.0939913 1.86084 10.9363
0.0593603 1.84177 10.3228
0.0253845 1.84284 10.326
-0.00758443 1.84293 10.3302
-0.0415678 1.84398 10.3325
-0.0745285 1.84508 10.3377
-0.107573 1.84401 10.332
-0.141412 1.84835 10.3532
-0.259416 1.84842 10.3531
-0.360245 1.85282 10.3758
-0.377205 1.8549 10.3809
-0.411204 1.85493 10.3811
-0.445165 1.85603 10.3864
-0.479088 1.8582 10.3966
-0.513025 1.86034 10.4048
-0.546963 1.86249 10.413
-0.581901 1.86363 10.4213
-0.598854 1.86573 10.4274
-0.631899 1.86467 10.4216
-0.666852 1.86578 10.4279
-0.700782 1.86794 10.4371
-0.735735 1.87005 10.4433
-0.769725 1.87109 10.4446
-0.803732 1.8711 10.4438
-0.820724 1.87113 10.445
-0.854715 1.87217 10.4462
-0.889591 1.87543 10.4624
-0.924536 1.87756 10.4697
-0.958573 1.87751 10.4649
-0.993496 1.87968 10.4751
-1.02656 1.87857 10.4664
-1.04546 1.8818 10.4805
-1.08041 1.88391 10.4867
-1.11349 1.88177 10.476
2.45959 1.74693 9.55597
2.43587 1.75249 9.59307
0.490997 1.83378 10.2736
0.458067 1.83594 10.2828
0.425152 1.83812 10.294
0.392206 1.83925 10.3013
0.359184 1.83823 10.2985
0.326254 1.83939 10.3078
0.309162 1.83722 10.2959
0.275217 1.83835 10.3032
0.242325 1.84158 10.3174
0.209272 1.8395 10.3107
0.175243 1.83947 10.3069
0.142381 1.84276 10.3251
0.109298 1.84062 10.3144
0.0923901 1.84281 10.3265
0.0582118 1.83658 9.90478
0.0261825 1.83655 9.90102
-0.0057632 1.83768 9.90825
-0.0217477 1.83772 9.91037
-0.0537769 1.83768 9.90661
-0.0858218 1.83662 9.90087
-0.117722 1.83883 9.91407
-0.149743 1.83881 9.91131
-0.18175 1.83882 9.91056
-0.215466 1.84639 9.9477
-0.230557 1.84422 9.93585
-0.262717 1.83994 9.91515
-0.29541 1.84755 9.95529
-0.328417 1.84756 9.95454
-0.359622 1.84318 9.92783
-0.392484 1.84647 9.94604
-0.424429 1.8486 9.95325
-0.44139 1.84969 9.95836
-0.473343 1.8508 9.96458
-0.506281 1.85294 9.9728
-0.539264 1.854 9.97503
-0.572202 1.85614 9.98325
-0.604201 1.85616 9.98349
-0.637161 1.85826 9.98871
-0.654061 1.86046 10.0018
-0.687915 1.86477 10.021
-0.720837 1.86694 10.0312
-0.753843 1.86795 10.0305
-0.786789 1.86908 10.0377
-0.819764 1.87115 10.0409
-0.852771 1.87115 10.0402
-0.869671 1.87336 10.0532
-0.902693 1.87334 10.0505
-0.931943 1.86787 10.0178
-0.968667 1.87543 10.054
-0.998811 1.87217 10.0352
-1.03185 1.87212 10.0305
-1.06485 1.87315 10.0307
-1.08085 1.87316 10.0308
-1.11474 1.87639 10.045
-1.14684 1.87522 10.0323
-1.1798 1.87632 10.0375
2.42362 1.74311 9.16124
0.568763 1.82737 9.84406
0.536817 1.8285 9.85129
0.504825 1.82853 9.85253
0.473857 1.82862 9.85676
0.44185 1.82862 9.856
0.409843 1.82863 9.85524
0.39279 1.82654 9.8484
0.362051 1.83307 9.88254
0.330044 1.83308 9.88178
0.298007 1.83203 9.87704
0.266023 1.83208 9.87928
0.234092 1.83423 9.88849
0.202078 1.83323 9.88674
0.186155 1.83539 9.89683
0.154163 1.83543 9.89807
0.122118 1.83436 9.89233
0.0901958 1.83653 9.90254
0.0596551 1.82859 9.43282
0.0447013 1.82969 9.43892
0.0137022 1.82972 9.43915
-0.0172969 1.82974 9.43939
-0.0473036 1.82975 9.43861
-0.0782719 1.83083 9.44283
-0.109264 1.83087 9.44406
-0.139194 1.83302 9.45326
-0.155239 1.83194 9.44739
-0.186154 1.83413 9.4586
-0.216161 1.83414 9.45782
-0.246359 1.82877 9.43213
-0.277289 1.83093 9.44133
-0.308226 1.83307 9.44953
-0.339217 1.83411 9.45075
-0.354194 1.83416 9.45386
-0.385155 1.83626 9.45906
-0.416123 1.83734 9.46328
-0.447091 1.83842 9.4675
-0.478937 1.84274 9.48768
-0.509005 1.84063 9.47894
-0.539989 1.84168 9.48115
-0.55685 1.84596 9.49922
-0.587803 1.84807 9.50542
-0.618817 1.84806 9.50366
-0.649816 1.84809 9.50389
-0.681701 1.85133 9.51908
-0.71273 1.85129 9.51532
-0.743767 1.85124 9.51055
-0.758744 1.8513 9.51366
-0.78978 1.85125 9.5089
-0.821695 1.85443 9.52009
-0.852747 1.85335 9.51334
-0.884677 1.85551 9.52255
-0.915637 1.8576 9.52775
-0.947583 1.85973 9.53496
-0.963551 1.8608 9.53907
-0.998321 1.86727 9.56924
-1.0303 1.86832 9.57147
2.43435 1.71573 8.59649
2.397 1.73102 8.68155
0.28845 1.82404 9.40516
0.258504 1.82517 9.41237
0.212582 1.82735 9.42269
0.151576 1.82638 9.42216
0.120638 1.82852 9.43036
0.0906849 1.82963 9.43657
0.0487924 1.80107 8.78922
0.0207091 1.79893 8.77847
-0.00826747 1.79899 8.78168
-1.27245 1.84239 8.89058
-1.36143 1.84548 8.8932
-1.40735 1.84868 8.9045
-1.43828 1.85182 8.91269
-1.46636 1.85069 8.90292
-1.49729 1.85385 8.91211
-1.52729 1.85487 8.91232
-1.55629 1.85587 8.91152
-1.58727 1.85694 8.91474
-1.63224 1.86002 8.91803
2.33569 1.71561 8.11117
0.911976 1.7859 8.67893
0.842084 1.78716 8.69344
0.786169 1.78836 8.70484
0.758155 1.78835 8.70306
0.731324 1.7927 8.7252
0.702278 1.79063 8.71945
0.687195 1.78848 8.70859
0.660348 1.79179 8.72874
0.632387 1.79289 8.73394
0.604525 1.79618 8.7521
0.575419 1.79299 8.73837
0.546427 1.79303 8.73959
0.518428 1.79305 8.7398
0.504551 1.79629 8.75586
0.475475 1.79417 8.74611
0.447514 1.79426 8.75132
0.419583 1.79641 8.7605
0.391607 1.79648 8.76371
0.3626 1.79648 8.76292
0.334624 1.79655 8.76613
0.319578 1.79547 8.76026
0.291663 1.79765 8.77144
0.262687 1.79872 8.77464
0.234749 1.79986 8.78284
0.20678 1.80094 8.78703
0.177636 1.79668 8.76832
0.14882 1.80205 8.79246
0.134744 1.79992 8.78259
0.106837 1.80211 8.79477
0.0777765 1.80102 8.78701
0.0411393 1.80585 8.43616
0.0141784 1.80694 8.44135
-0.0138667 1.80587 8.43558
-0.0277897 1.80803 8.44565
-0.0547738 1.80808 8.44785
-0.0826733 1.81129 8.46102
-0.109741 1.81018 8.45224
-0.137618 1.81343 8.4684
-0.165686 1.81132 8.45964
-0.192708 1.8113 8.45685
-0.206707 1.81131 8.45695
-0.234653 1.81343 8.46413
-0.262583 1.81558 8.47331
-0.289566 1.81663 8.4755
-0.317527 1.81773 8.48069
-0.34458 1.81664 8.47391
-0.37171 1.81241 8.45718
-0.385701 1.81344 8.45827
-0.412723 1.81241 8.45549
-0.44163 1.81561 8.46766
-0.469583 1.81772 8.47384
-0.497575 1.81775 8.47505
-0.525489 1.82094 8.48621
-0.553427 1.82308 8.49439
-0.566518 1.82091 8.48252
-0.594509 1.82194 8.48372
-0.623417 1.82414 8.49591
-0.651431 1.82413 8.49412
-0.679346 1.82732 8.50528
-0.707375 1.82728 8.50149
-0.735351 1.82834 8.50469
-0.750281 1.83049 8.51377
-0.777318 1.83043 8.50897
-0.806248 1.83258 8.51816
-0.835209 1.83468 8.52335
-0.862292 1.83254 8.51258
-0.890222 1.83569 8.52175
-0.919198 1.83676 8.52495
-0.947189 1.83779 8.52615
-0.962142 1.83989 8.53223
-0.989194 1.83881 8.52545
-1.0191 1.84201 8.53763
-1.04617 1.84089 8.52885
-1.07512 1.843 8.53504
-1.10314 1.84399 8.53323
-1.12922 1.84185 8.52246
-1.14516 1.84396 8.52955
-1.17313 1.84604 8.53373
-1.20116 1.846 8.52994
-1.22822 1.84491 8.52216
-1.25817 1.84702 8.52835
-1.28712 1.84914 8.53554
-1.31421 1.84798 8.52376
-1.33107 1.85226 8.54183
-1.35717 1.85009 8.52905
-1.3871 1.85324 8.53823
-1.41606 1.85534 8.54342
-1.44312 1.85424 8.53564
2.37918 1.69769 7.64604
2.3604 1.70312 7.6741
2.33137 1.70008 7.67037
2.32248 1.70331 7.68539
2.3037 1.70774 7.71347
0.050506 1.79467 8.08721
0.024491 1.79366 8.08542
-0.00253079 1.79364 8.08262
-0.0285608 1.7926 8.07883
-0.0545293 1.79367 8.08301
-0.0814902 1.79477 8.0882
-0.0945206 1.79372 8.08432
-0.120504 1.79477 8.0865
-0.147419 1.79695 8.09767
-0.173456 1.79689 8.09286
-0.200433 1.79696 8.09607
-0.226462 1.79692 8.09226
-0.252531 1.7948 8.08349
-0.265476 1.79692 8.09056
-0.292483 1.79692 8.08976
-0.319429 1.79804 8.09695
-0.345397 1.80012 8.10111
-0.371465 1.79801 8.09234
-0.398441 1.79907 8.09553
-0.451362 1.80226 8.10588
-0.4635 1.798 8.08803
-0.491361 1.80229 8.10618
-0.518345 1.80334 8.10837
-0.544343 1.80435 8.10855
-0.570388 1.80329 8.10276
-0.59651 1.80007 8.087
-0.626133 1.81181 8.13606
-0.637363 1.80438 8.10625
-0.665201 1.81071 8.12737
-0.692192 1.81174 8.12856
-0.718268 1.80961 8.11878
-0.747075 1.816 8.14391
-0.772181 1.81282 8.13014
-0.798234 1.81173 8.12336
-0.814987 1.82022 8.15536
-0.839171 1.81488 8.13162
-0.866192 1.81485 8.12882
-0.895007 1.82123 8.15295
-0.92109 1.81909 8.14217
-0.948051 1.82118 8.14735
-0.975973 1.82435 8.15751
-0.990911 1.82648 8.16559
-1.0179 1.82751 8.16678
-1.04584 1.83065 8.17495
-1.07192 1.82851 8.16417
-1.09986 1.83164 8.17234
-1.12594 1.82952 8.16257
-1.15195 1.83051 8.16075
-1.16692 1.83158 8.16484
-1.19103 1.82937 8.15006
-1.21806 1.82933 8.14626
-1.24602 1.83143 8.15144
-1.273 1.83247 8.15363
-1.3029 1.83669 8.16679
-1.3299 1.83771 8.16698
-1.34199 1.83554 8.1551
-1.369 1.83554 8.15431
-1.39411 1.83336 8.14053
-1.42302 1.83754 8.15168
-1.44907 1.83645 8.1449
-1.47703 1.83955 8.15006
-1.50215 1.83634 8.1353
-1.51901 1.84161 8.15235
-1.54604 1.84158 8.14955
-1.57398 1.84471 8.15672
-1.60006 1.84256 8.14594
-1.62805 1.84461 8.14812
-1.65505 1.84562 8.14731
-1.68498 1.84977 8.15648
-1.698 1.84975 8.15458
2.37046 1.68335 7.28527
2.35779 1.69201 7.32924
2.34992 1.69527 7.34625
2.32596 1.69536 7.35143
2.30101 1.69447 7.35764
2.28323 1.70091 7.38668
0.456074 1.78356 8.02931
0.430059 1.78255 8.02752
0.391129 1.78471 8.03678
0.365183 1.78584 8.04396
0.339191 1.78587 8.04516
0.313254 1.78801 8.05332
0.286216 1.78595 8.04856
0.260301 1.78913 8.05971
0.247347 1.79023 8.06579
0.221379 1.79131 8.06997
0.195341 1.79026 8.06518
0.168357 1.7903 8.06738
0.142419 1.79244 8.07555
0.116428 1.79248 8.07674
0.0903818 1.79041 8.07097
0.0763521 1.79036 8.06707
0.0567416 1.77825 7.72135
0.030758 1.7793 7.72354
0.00579703 1.78039 7.72871
-0.0192023 1.78041 7.7289
-0.0441865 1.78045 7.73108
-0.0701776 1.78149 7.73226
-0.0951154 1.78362 7.74042
-0.108192 1.78049 7.73056
-0.133214 1.78046 7.72775
-0.158198 1.78051 7.72994
-0.18322 1.78048 7.72713
-0.209212 1.78052 7.72832
-0.234203 1.78155 7.7295
-0.259241 1.78049 7.7247
-0.272225 1.78053 7.7268
-0.297216 1.78156 7.72797
-0.322216 1.78158 7.72816
-0.348176 1.78368 7.73333
-0.39912 1.78582 7.74068
-0.424142 1.78579 7.73787
-0.437134 1.78581 7.73897
-0.488132 1.78685 7.73933
-0.513085 1.78896 7.74549
-0.539038 1.79107 7.75166
-0.564976 1.7932 7.75982
-0.590052 1.79107 7.75004
-0.603059 1.79107 7.74914
-0.628997 1.7932 7.7573
-0.654965 1.79528 7.76147
-0.679033 1.79317 7.75268
-0.705924 1.79739 7.76682
-0.756945 1.79739 7.76421
-0.770898 1.79949 7.77028
-0.84788 1.80157 7.77283
-0.871948 1.80045 7.76403
-0.89887 1.80362 7.77419
-0.925784 1.8068 7.78534
-0.938799 1.80678 7.78344
-0.966683 1.81103 7.79859
-0.992666 1.81307 7.80076
-1.01867 1.81308 7.79995
-1.0437 1.81304 7.79614
-1.06874 1.81298 7.79133
-1.09568 1.81512 7.7995
-1.10871 1.81507 7.7956
-1.13658 1.82033 7.81173
-1.16067 1.81817 7.79995
-1.18477 1.81499 7.78717
-1.21364 1.82026 7.80431
-1.23773 1.8191 7.79251
-1.26374 1.81909 7.79071
-1.27867 1.82224 7.79977
-1.30179 1.81903 7.78499
-1.32589 1.81684 7.77121
-1.35574 1.82316 7.79134
-1.37886 1.81994 7.77556
-1.40197 1.81775 7.76177
-1.42896 1.81878 7.76295
-1.44097 1.81876 7.76104
-1.46699 1.81974 7.75822
-1.49397 1.8208 7.76141
-1.54501 1.82175 7.75578
-1.598 1.8248 7.75714
-1.61005 1.82372 7.75124
-1.63992 1.829 7.76839
-1.66592 1.83 7.76757
-1.69001 1.82884 7.75577
-1.72087 1.83413 7.77393
-1.74205 1.8298 7.75115
-1.77002 1.83288 7.75531
-1.78882 1.83927 7.78036
-1.81291 1.83812 7.76956
-1.83893 1.83808 7.76576
-1.86883 1.84329 7.77891
-1.89388 1.84322 7.77309
2.33309 1.67673 6.9716
2.32243 1.68639 7.01555
2.30461 1.69076 7.03962
2.28477 1.69407 7.05972
2.26285 1.69525 7.07087
2.24367 1.68892 7.04811
2.22793 1.69542 7.08113
0.583338 1.77011 7.6665
0.545362 1.77018 7.66979
0.5204 1.77027 7.67497
0.49647 1.77242 7.68412
0.470455 1.77141 7.68233
0.445432 1.77039 7.67954
0.420441 1.77042 7.68072
0.407418 1.77039 7.67782
0.382457 1.77048 7.68301
0.357496 1.77157 7.68818
0.332489 1.77157 7.68737
0.307613 1.77583 7.7035
0.282667 1.77695 7.71067
0.257568 1.77378 7.6979
0.244568 1.77379 7.698
0.219707 1.77807 7.71613
0.194684 1.77704 7.71333
0.169731 1.77815 7.7195
0.14487 1.78244 7.73763
0.119648 1.77602 7.70891
0.0937098 1.77716 7.71709
0.0686954 1.77715 7.71528
0.0527163 1.77627 7.45238
0.0286862 1.77523 7.44857
0.00380996 1.77948 7.4647
-0.0083127 1.77525 7.44885
-0.0322969 1.7753 7.45103
-0.0571042 1.78169 7.47613
-0.0812723 1.77638 7.45438
-0.105256 1.77743 7.45655
-0.13014 1.78067 7.47169
-0.154177 1.78061 7.46687
-0.167108 1.78275 7.47594
-0.191245 1.7785 7.45818
-0.215176 1.78065 7.46733
-0.24009 1.78384 7.47847
-0.265051 1.78493 7.48365
-0.288242 1.77957 7.4589
-0.314057 1.78595 7.483
-0.325195 1.78069 7.46516
-0.350094 1.7849 7.47829
-0.374209 1.7807 7.46353
-0.400939 1.79023 7.49859
-0.424107 1.78492 7.47684
-0.449029 1.78809 7.48699
-0.474013 1.78914 7.48916
-0.485989 1.79019 7.49223
-0.510065 1.78806 7.48245
-0.535941 1.79232 7.49858
-0.559986 1.79124 7.49278
-0.584985 1.79226 7.49295
-0.61083 1.79758 7.51307
-0.633091 1.78909 7.47936
-0.647814 1.79863 7.51533
-0.671905 1.79647 7.50354
-0.696888 1.79752 7.50572
-0.720964 1.79539 7.49593
-0.747732 1.80385 7.52601
-0.771808 1.80172 7.51622
-0.795876 1.80061 7.50742
-0.810676 1.807 7.53344
-0.835698 1.80698 7.53063
-0.859774 1.80485 7.52084
-0.886573 1.81225 7.54693
-0.910641 1.81114 7.53813
-0.935678 1.81008 7.53333
-0.961585 1.81428 7.54547
-1.00051 1.81744 7.55472
-1.05052 1.81946 7.55406
-1.07176 1.81202 7.52333
-1.12269 1.81617 7.53165
-1.13473 1.81511 7.52676
-1.16357 1.82144 7.54788
-1.18283 1.81393 7.51314
-1.20883 1.81495 7.51332
-1.23382 1.816 7.51549
-1.2588 1.81705 7.51766
-1.28289 1.81589 7.50586
-1.29587 1.81694 7.50894
-1.3199 1.8169 7.50512
-1.34587 1.81896 7.50829
-1.37282 1.82107 7.51446
-1.39976 1.82421 7.52262
-1.42474 1.82626 7.52478
-1.44977 1.82623 7.52197
-1.45893 1.82191 7.5001
-1.48393 1.82294 7.50127
-1.50993 1.82395 7.50045
-1.533 1.82283 7.49164
-1.55611 1.82064 7.47784
-1.58498 1.8259 7.49399
-1.60614 1.8216 7.47321
-1.62921 1.82049 7.4644
-1.64799 1.82891 7.49242
-1.66819 1.82354 7.46664
-1.69416 1.82562 7.47081
-1.72017 1.82661 7.46899
-1.74423 1.82551 7.46119
-1.77117 1.82965 7.46933
-1.78708 1.83284 7.4814
-1.80822 1.82957 7.46261
-1.83613 1.83376 7.47376
-1.86019 1.83367 7.46694
-1.88329 1.83148 7.45315
-1.91027 1.83354 7.45632
-1.93915 1.83879 7.47146
-1.94924 1.83663 7.46057
-1.97719 1.83972 7.46573
2.37576 1.66813 6.66237
2.35689 1.67039 6.67948
2.33596 1.67054 6.68864
2.32016 1.67593 6.71468
2.30641 1.68343 6.74767
2.28755 1.68571 6.76579
2.2697 1.69002 6.78586
2.2618 1.69222 6.79889
0.368485 1.76961 7.42109
0.344493 1.76964 7.42227
0.307518 1.77071 7.42554
0.28351 1.76971 7.42473
0.235635 1.77399 7.44103
0.210643 1.77402 7.44222
0.18672 1.77618 7.45237
0.16259 1.77195 7.43561
0.150759 1.77728 7.45762
0.126806 1.77939 7.46377
0.101668 1.77414 7.44604
0.0298071 1.75558 7.0678
0.0177303 1.75245 7.05794
-0.00522261 1.75455 7.06408
-0.028222 1.75457 7.06425
-2.03132 1.82163 7.05235
-2.05146 1.81838 7.03455
-2.07742 1.82148 7.0397
-2.10244 1.82245 7.03687
-2.12352 1.8213 7.02605
-2.14951 1.82333 7.02721
-2.16249 1.82437 7.02929
-2.18652 1.82533 7.02546
-2.20958 1.82525 7.01864
-2.2414 1.83361 7.04175
-2.26153 1.83037 7.02495
-2.28459 1.83025 7.01613
-2.34563 1.83322 7.01154
2.24582 1.6694 6.40529
2.22591 1.67058 6.41643
2.21213 1.67701 6.44544
2.18504 1.67186 6.43372
2.18021 1.67719 6.45568
0.698408 1.74836 7.01286
0.674308 1.74418 7.00011
0.65247 1.74951 7.02119
0.628339 1.74428 7.00445
0.617432 1.74746 7.01649
0.594417 1.74645 7.01468
0.572548 1.75072 7.03178
0.548502 1.74864 7.02599
0.526588 1.75182 7.03711
0.50248 1.74763 7.02335
0.480596 1.75087 7.03847
0.467527 1.74875 7.0296
0.444489 1.74669 7.0248
0.421428 1.74459 7.01701
0.398574 1.74889 7.03612
0.375475 1.74571 7.02334
0.352614 1.74999 7.04145
0.329537 1.74686 7.03167
0.318584 1.74896 7.03772
0.295638 1.75008 7.04488
0.271554 1.74694 7.0341
0.248601 1.74904 7.04025
0.225532 1.74592 7.03147
0.202625 1.74912 7.04359
0.168765 1.75441 7.06177
0.144619 1.74915 7.04303
0.121712 1.75234 7.05516
0.098728 1.75239 7.05733
0.0757901 1.75452 7.06547
-2.13302 1.81241 6.6952
-2.15701 1.81442 6.69536
-2.18004 1.8154 6.69251
-2.2011 1.81528 6.68367
-2.22316 1.81519 6.67684
-2.25108 1.81934 6.68599
-2.27314 1.81926 6.67916
-2.2822 1.81813 6.67024
-2.31108 1.82439 6.68637
-2.33509 1.82638 6.68452
-2.35226 1.82206 6.66271
-2.37626 1.82408 6.66286
-2.40126 1.8261 6.66302
-2.42233 1.82496 6.65319
-2.43531 1.827 6.65526
2.20056 1.65999 6.10573
2.18267 1.66221 6.11983
2.16272 1.66233 6.12698
2.15481 1.6645 6.13801
2.14508 1.67304 6.17396
0.843836 1.73422 6.67193
0.821883 1.73532 6.67808
0.768999 1.73858 6.69343
0.747022 1.73864 6.6966
0.722899 1.73343 6.68086
0.703108 1.74084 6.7079
0.669077 1.7388 6.70418
0.648108 1.73888 6.70834
0.626193 1.74206 6.71946
0.603117 1.73893 6.70968
0.58004 1.7358 6.6999
0.559102 1.73693 6.70804
0.536087 1.73592 6.70623
0.526118 1.73698 6.71029
0.504188 1.73913 6.71942
0.482157 1.73809 6.71561
0.460166 1.73812 6.71677
0.43822 1.73924 6.72392
0.416189 1.7382 6.7201
0.39312 1.73508 6.71132
0.383275 1.74038 6.73132
0.360106 1.73407 6.70958
0.337083 1.73305 6.70677
0.316192 1.73727 6.72087
0.294169 1.73624 6.71805
0.272239 1.73839 6.72718
0.250393 1.7437 6.74727
0.239232 1.7374 6.72645
0.19531 1.74058 6.73673
0.173333 1.74064 6.7399
0.15138 1.74274 6.74603
0.129396 1.74279 6.7482
0.106382 1.74278 6.74637
0.0734284 1.74389 6.7526
0.0294293 1.74598 6.48687
0.0083684 1.74388 6.47906
-0.0126925 1.74178 6.47124
-0.0237073 1.74175 6.46933
-0.0446301 1.74392 6.47945
-0.0657676 1.73967 6.46167
-0.0876364 1.74393 6.47878
-0.108712 1.7418 6.46897
-0.129719 1.7418 6.46813
-0.151603 1.74604 6.48323
-0.161664 1.74393 6.47534
-0.183625 1.74502 6.48049
-0.204602 1.74608 6.48363
-0.226632 1.74503 6.47981
-0.269584 1.74715 6.4861
-0.290536 1.75026 6.49222
-0.322559 1.74924 6.48947
-0.765455 1.76372 6.5036
-1.0695 1.77282 6.49775
-1.09149 1.77385 6.4989
-1.11351 1.77484 6.49705
-1.13644 1.77798 6.50518
-1.16752 1.77685 6.49543
-1.19146 1.77999 6.50356
-1.21152 1.77888 6.49573
-1.25843 1.78408 6.50701
-1.29761 1.77975 6.48336
-1.33159 1.78181 6.48559
-1.35457 1.78387 6.48873
-1.3976 1.78482 6.48404
-1.42154 1.78896 6.49216
-1.44162 1.78683 6.48234
-1.45071 1.78466 6.47044
-1.47561 1.78885 6.48257
-1.49665 1.78879 6.47773
-1.51868 1.78875 6.4739
-1.54359 1.79394 6.48601
-1.56077 1.7886 6.46221
-1.58567 1.79381 6.47533
-1.59378 1.7896 6.46045
-1.61967 1.79584 6.47555
-1.63683 1.79052 6.45376
-1.6637 1.79779 6.47085
-1.68282 1.79459 6.45604
-1.70484 1.79556 6.45319
-1.7288 1.79865 6.45833
-1.74173 1.80179 6.46738
-1.76181 1.79964 6.45656
-1.7848 1.80167 6.45771
-1.80782 1.80266 6.45587
-1.83274 1.80781 6.46498
-1.84891 1.8025 6.44318
-1.87096 1.80243 6.43734
-1.88294 1.80446 6.4394
-1.90594 1.80548 6.43956
-1.92699 1.80539 6.43272
-1.94707 1.80426 6.42289
-1.96809 1.80522 6.41903
-1.9911 1.80622 6.41819
-2.01215 1.80614 6.41235
-2.02316 1.80712 6.41042
-2.04714 1.80918 6.41357
-2.07111 1.81225 6.4167
-2.09511 1.81426 6.41685
-2.11518 1.81313 6.40702
-2.13427 1.81198 6.39618
-2.15923 1.81506 6.40032
-2.16633 1.81188 6.38842
-2.19228 1.81599 6.39456
-2.21039 1.81378 6.37972
-2.23926 1.82106 6.39684
-2.25641 1.81677 6.37703
-2.27942 1.81876 6.37517
-2.30341 1.82081 6.37732
-2.3154 1.82283 6.37838
-2.35359 1.81949 6.35371
-2.38052 1.82362 6.36186
-2.42264 1.82343 6.34718
2.26692 1.64677 5.75638
2.23108 1.6491 5.77662
2.22031 1.65655 5.80659
2.21849 1.6629 5.83051
2.20058 1.66409 5.84263
2.18164 1.66421 5.84978
2.15092 1.67178 5.8869
2.13096 1.67087 5.89206
0.486149 1.74013 6.44851
0.444166 1.74019 6.45082
0.423189 1.74025 6.45398
0.401112 1.73712 6.44419
0.391221 1.74133 6.45821
0.370244 1.74139 6.46136
0.348237 1.74139 6.46053
0.327137 1.73722 6.44775
0.306253 1.74145 6.46285
0.285231 1.74043 6.46002
0.263277 1.74153 6.46617
0.252178 1.73835 6.4533
0.23127 1.74154 6.46541
0.210263 1.74054 6.46458
0.189279 1.74158 6.46673
0.168341 1.74372 6.47485
0.146288 1.74163 6.46805
0.125381 1.74482 6.48016
0.114289 1.74165 6.46829
0.0933509 1.74379 6.47642
0.0723283 1.74276 6.47359
0.051344 1.7428 6.47575
0.0285704 1.73334 6.24103
0.00755596 1.73333 6.23919
-0.013397 1.73543 6.24531
-0.0334197 1.7344 6.24248
-0.0543883 1.73547 6.24662
-0.0743877 1.73549 6.24677
-0.0854025 1.73547 6.24485
-0.105394 1.7355 6.24601
-2.59025 1.80842 6.00161
-2.61229 1.80936 5.99676
-2.67541 1.81115 5.98021
-2.6874 1.81318 5.98127
-2.71039 1.81621 5.9824
-2.73145 1.81612 5.97556
-2.79359 1.81787 5.956
2.17353 1.64409 5.5711
2.14071 1.64747 5.5953
2.12379 1.64863 5.60541
2.08713 1.65832 5.65055
0.912754 1.71816 6.13058
0.851801 1.71829 6.13703
0.84287 1.72043 6.14607
0.822901 1.7215 6.15021
0.802901 1.72052 6.15037
0.780863 1.71846 6.14557
0.761956 1.72165 6.15766
0.740925 1.71961 6.15385
0.720948 1.71967 6.157
0.712026 1.72282 6.16702
0.689972 1.71973 6.16023
0.669987 1.71978 6.16238
0.650026 1.72087 6.16752
0.629003 1.71884 6.16471
0.609027 1.7199 6.16784
0.590135 1.72312 6.18194
0.580196 1.72524 6.18998
0.559105 1.72208 6.17819
0.539166 1.72321 6.18632
0.519205 1.7243 6.19146
0.49819 1.72329 6.18963
0.477198 1.72332 6.19079
0.457175 1.72229 6.18795
0.44723 1.7244 6.195
0.427238 1.72443 6.19615
0.407369 1.72869 6.21324
0.386269 1.72452 6.20046
0.365239 1.72347 6.19663
0.345332 1.72667 6.20873
0.324263 1.72355 6.19994
0.314286 1.7246 6.203
0.294287 1.72461 6.20315
0.274403 1.72885 6.21824
0.253287 1.72364 6.20347
0.233365 1.72681 6.21358
0.191358 1.72582 6.21291
0.18132 1.72476 6.208
0.161483 1.73108 6.22906
0.141529 1.73218 6.23519
0.120476 1.7301 6.22838
0.100615 1.73538 6.24645
0.0796003 1.73536 6.24461
0.0585237 1.73223 6.23482
0.0485855 1.73436 6.24286
0.0328984 1.73105 6.019
0.0128989 1.73106 6.01915
-0.00608544 1.73111 6.02129
-0.0260924 1.73111 6.02044
-0.0461069 1.73109 6.01859
-0.0661377 1.72905 6.01477
-0.076091 1.73114 6.02082
-0.0961368 1.72907 6.015
-0.135135 1.7301 6.01528
-0.195087 1.73223 6.0217
-0.205071 1.73327 6.02376
-0.225063 1.7333 6.02491
-0.305029 1.73641 6.02947
-2.6594 1.80325 5.71717
-2.75255 1.808 5.6968
-2.76867 1.80578 5.68095
-2.79068 1.80777 5.67909
-2.81073 1.80869 5.67322
-2.83471 1.81274 5.67534
-2.86478 1.81361 5.66556
2.15187 1.63985 5.35129
2.13493 1.64098 5.3594
2.13004 1.64419 5.37339
2.11516 1.64743 5.38946
2.0962 1.64752 5.3946
2.07721 1.64557 5.39678
2.06232 1.64878 5.41084
2.0495 1.65413 5.43386
0.973873 1.71043 5.88119
0.944919 1.71054 5.88741
0.905997 1.71171 5.89769
0.848082 1.71392 5.90909
0.839121 1.715 5.91415
0.80016 1.7151 5.91944
0.77909 1.71098 5.91066
0.760168 1.71414 5.92076
0.741245 1.71631 5.93087
0.721199 1.71423 5.92505
0.712283 1.7164 5.93608
0.691214 1.71328 5.92729
0.673284 1.71543 5.93639
0.653284 1.71544 5.93654
0.633269 1.71443 5.93471
0.615416 1.71972 5.95377
0.595432 1.71977 5.95592
0.585424 1.71876 5.95501
0.566486 1.72089 5.96312
0.54654 1.72201 5.97025
0.525417 1.71679 5.95449
0.506471 1.71891 5.9616
0.487548 1.72107 5.97171
0.468657 1.72529 5.9858
0.456426 1.71585 5.95602
0.438572 1.72115 5.97508
0.418611 1.72224 5.98022
0.398573 1.72118 5.97538
0.379674 1.72438 5.98848
0.359605 1.72127 5.97968
0.339659 1.72338 5.9868
0.329621 1.72132 5.9819
0.310668 1.72342 5.98801
0.290676 1.72345 5.98916
0.270745 1.7256 5.99828
0.250746 1.72561 5.99843
0.230693 1.72352 5.99161
0.211755 1.72565 5.99973
0.201747 1.72565 5.9988
0.181763 1.72569 6.00095
0.161825 1.72782 6.00907
0.142856 1.7289 6.0132
0.122788 1.72678 6.00438
0.102773 1.72576 6.00255
0.0828198 1.72787 6.00867
0.0728972 1.73102 6.0187
0.0528821 1.73001 6.01686
0.0406683 1.72563 5.856
0.0206839 1.72567 5.85815
0.00166938 1.72566 5.85629
-0.00829958 1.72673 5.86035
-0.0273298 1.72568 5.85651
-0.046306 1.72674 5.85964
-0.0663055 1.72675 5.85979
-0.0852202 1.72993 5.87088
-0.105235 1.72991 5.86903
-0.192301 1.72784 5.86072
-0.211277 1.7289 5.86385
-0.231238 1.73099 5.86897
-0.250268 1.72995 5.86513
-0.26023 1.73103 5.87019
-0.279237 1.73103 5.86933
-0.299213 1.73208 5.87246
-0.338188 1.73416 5.87573
-0.358195 1.73416 5.87488
-2.62867 1.79772 5.548
-2.69584 1.80043 5.52546
-2.71489 1.80034 5.5186
-2.73592 1.80231 5.51573
-2.75497 1.80322 5.50886
-2.775 1.80416 5.504
-2.79307 1.80404 5.49514
-2.82001 1.80918 5.50326
-2.82509 1.80702 5.49233
-2.84906 1.81108 5.49545
-2.88521 1.81081 5.47573
-2.9023 1.80966 5.46487
2.1387 1.63756 5.1964
2.09992 1.64202 5.22563
2.07891 1.639 5.22384
2.06298 1.64016 5.23394
2.0491 1.6434 5.249
2.03523 1.64666 5.26606
2.03951 1.6582 5.30286
0.926667 1.70409 5.72162
0.909767 1.7073 5.7347
0.881852 1.70948 5.74588
0.862859 1.70851 5.74704
0.840744 1.7033 5.73228
0.824914 1.70964 5.75431
0.804891 1.70761 5.75149
0.786953 1.70974 5.7596
0.767999 1.71084 5.76572
0.757976 1.70981 5.76281
0.738992 1.70985 5.76496
0.720023 1.71092 5.76908
0.702115 1.71311 5.78119
0.682062 1.71102 5.77437
0.663085 1.71108 5.77751
0.645162 1.71324 5.78762
0.63517 1.71327 5.78869
0.615124 1.71119 5.78287
0.597225 1.7154 5.79595
0.578209 1.71338 5.79412
0.55924 1.71445 5.79825
0.540249 1.71448 5.79939
0.521326 1.71664 5.8095
0.512372 1.71874 5.81554
0.492326 1.71667 5.80972
0.47445 1.72092 5.82579
0.454358 1.71675 5.81401
0.434343 1.71574 5.81217
0.415336 1.71574 5.81131
0.397482 1.72103 5.83037
0.386351 1.71579 5.81353
0.367405 1.7169 5.82066
0.347352 1.71482 5.81384
0.329538 1.72218 5.83787
0.310499 1.72012 5.83304
0.291507 1.72015 5.83419
0.271539 1.72123 5.83832
0.252446 1.71706 5.82652
0.242547 1.72126 5.83954
0.223509 1.7202 5.8347
0.204548 1.72129 5.83982
0.185594 1.72239 5.84595
0.165657 1.72552 5.85406
0.146603 1.72244 5.84724
0.127604 1.72245 5.84739
0.117604 1.72246 5.84746
0.0975355 1.72034 5.83864
0.07859 1.72246 5.84576
0.0596213 1.72353 5.84988
0.0181312 1.73361 5.65102
-0.00982153 1.73572 5.6572
-0.0468826 1.73263 5.64952
-0.0848577 1.7347 5.65278
-0.103772 1.73788 5.66388
-0.112819 1.73579 5.65798
-0.131733 1.73997 5.66906
-0.149887 1.73369 5.64928
-0.187832 1.73582 5.65654
-0.205869 1.73476 5.65169
-0.22483 1.73685 5.6568
-0.23486 1.73579 5.65289
-0.253783 1.73896 5.66299
-0.271874 1.73579 5.65117
-0.291719 1.7421 5.67123
-0.308935 1.7337 5.64348
-0.327856 1.73786 5.65356
-0.346863 1.73786 5.65271
-0.356778 1.74103 5.66374
-0.373979 1.73266 5.63799
-0.394784 1.74204 5.66301
-0.412892 1.73785 5.6492
-0.43186 1.73892 5.65333
-0.449875 1.73891 5.65147
-0.469843 1.74098 5.65559
-0.47792 1.73784 5.64569
-0.498757 1.74516 5.66675
-0.515887 1.74092 5.64994
-0.535809 1.74409 5.66004
-0.553893 1.74094 5.64922
-0.574745 1.74823 5.66827
-0.591899 1.74195 5.64849
-0.602744 1.74925 5.66847
-0.618959 1.74085 5.64071
-0.638858 1.74506 5.6538
-0.657904 1.74398 5.64796
-0.675918 1.74397 5.6461
-0.694924 1.74497 5.64522
-0.718661 1.75648 5.67924
-0.722978 1.74288 5.63846
-0.744821 1.75119 5.65851
-0.760945 1.74597 5.64271
-0.779036 1.7428 5.63089
-0.797097 1.7417 5.62304
-0.818941 1.74901 5.6431
-0.835048 1.74482 5.62928
-0.846017 1.74688 5.63333
-0.865023 1.74788 5.63246
-0.884968 1.751 5.63956
-0.902045 1.74786 5.62974
-0.921059 1.74885 5.62787
-0.941034 1.75091 5.63099
-0.958103 1.74879 5.62215
-0.970025 1.75194 5.63219
-0.988078 1.75085 5.62534
-1.00708 1.75187 5.62547
-1.02608 1.75287 5.6246
-1.04699 1.75806 5.63668
-1.06217 1.75071 5.6129
-1.08406 1.75695 5.62798
-1.0931 1.75587 5.62206
-1.1121 1.75688 5.62219
-1.13112 1.75685 5.61933
-1.15014 1.75784 5.61746
-1.16527 1.7536 5.60063
-1.18622 1.7557 5.60676
-1.20425 1.75565 5.6029
-1.21233 1.75351 5.59299
-1.23326 1.75766 5.60208
-1.24937 1.75445 5.58725
-1.27128 1.75863 5.59836
-1.28933 1.75855 5.59249
-1.34929 1.76365 5.59687
-1.37735 1.76357 5.59008
-1.39248 1.75933 5.57326
-1.41438 1.76452 5.58535
-1.4305 1.7613 5.56951
-1.48049 1.76535 5.57083
-1.49754 1.76427 5.56497
-1.55363 1.76512 5.55238
-1.59265 1.76711 5.54965
-1.61874 1.76596 5.53886
-1.71385 1.76979 5.52352
-1.72384 1.77082 5.52458
-1.75996 1.76962 5.50986
-1.77899 1.76957 5.50601
-1.81799 1.77359 5.50524
-1.83702 1.77354 5.50138
-1.84703 1.77454 5.50044
-1.86802 1.77657 5.50157
-1.88313 1.77335 5.48673
-1.90019 1.77325 5.47886
-1.92606 1.7805 5.49495
-1.94019 1.77626 5.47812
-1.95727 1.77513 5.46826
-1.9751 1.78346 5.49028
-1.98924 1.77919 5.47144
-2.00727 1.78015 5.46756
-2.02435 1.77901 5.45771
-2.08046 1.77983 5.44312
-2.0895 1.77976 5.43819
-2.10852 1.78073 5.43531
-2.12853 1.78272 5.43344
-2.14363 1.77954 5.42059
-2.16366 1.78149 5.41672
-2.18071 1.7814 5.40984
-2.20073 1.78237 5.40698
-2.23074 1.78536 5.40516
-2.24488 1.78111 5.38733
-2.26881 1.78726 5.39642
-2.28097 1.78195 5.37559
-2.30296 1.78499 5.37671
-2.32001 1.78489 5.36984
-2.33297 1.78798 5.37489
-2.36613 1.78569 5.35417
-2.38811 1.78874 5.35629
-2.40224 1.78549 5.33944
-2.44226 1.78948 5.33669
-2.47034 1.79035 5.32688
-2.48347 1.78711 5.31003
-2.50447 1.78911 5.30916
-2.52646 1.79214 5.31028
-2.53959 1.7889 5.29342
-2.55862 1.78985 5.28955
-2.5657 1.78871 5.27962
-2.58473 1.78966 5.27575
-2.61262 1.79689 5.28985
-2.64184 1.79248 5.26113
-2.65891 1.79235 5.25126
-2.67892 1.79433 5.24938
-2.706 1.79519 5.23857
-2.72504 1.79613 5.2337
-2.74409 1.79705 5.22783
-2.77101 1.80322 5.23795
-2.77625 1.79475 5.20611
-2.80614 1.80298 5.22021
-2.80828 1.79872 5.20229
-2.85424 1.80581 5.20653
-2.86835 1.80461 5.19265
-2.88443 1.80346 5.18179
2.21836 1.62491 4.88595
2.19464 1.63248 4.92302
2.1787 1.63361 4.93112
2.17276 1.63472 4.93815
2.15478 1.63377 4.9413
2.13885 1.63492 4.95041
2.12496 1.63713 4.96448
2.11411 1.64244 4.98449
2.10022 1.64466 4.99856
2.08632 1.64687 5.01263
2.07121 1.64066 4.99784
2.06038 1.647 5.01983
2.04547 1.64918 5.03191
2.02339 1.64305 5.02217
0.0561145 1.73255 5.64875
-0.0982724 1.73393 5.46487
-0.153255 1.735 5.46727
-0.253251 1.73707 5.46799
-0.280204 1.73918 5.47416
-0.29918 1.74023 5.47729
-0.316234 1.73814 5.47045
-0.335241 1.73814 5.46959
-0.353248 1.73814 5.46873
-0.371216 1.74021 5.47283
-0.389207 1.74124 5.47395
-0.398261 1.73914 5.46705
-0.417152 1.74436 5.48112
-0.454158 1.74438 5.4804
-0.472141 1.74642 5.4825
-0.490195 1.74433 5.47567
-0.507264 1.74121 5.46684
-0.51817 1.74639 5.47885
-0.536216 1.74432 5.47301
-0.554223 1.74432 5.47215
-0.573168 1.74743 5.47925
-0.591167 1.74845 5.47937
-0.608297 1.74321 5.46257
-0.62818 1.74944 5.47763
-0.638134 1.75154 5.48368
-0.654233 1.74736 5.47086
-0.710207 1.75144 5.47422
-0.729198 1.75247 5.47535
-0.746275 1.74934 5.46552
-0.755266 1.75036 5.46657
-0.774242 1.75242 5.46969
-0.793218 1.75447 5.4728
-0.810271 1.75238 5.46596
-0.829262 1.75441 5.46707
-0.848222 1.7565 5.47218
-0.867198 1.75856 5.4753
-0.876252 1.75646 5.4684
-0.895227 1.75852 5.47151
-0.910366 1.75326 5.4537
-0.932233 1.76053 5.47076
-0.950224 1.76156 5.47188
-0.969231 1.76156 5.47102
-0.986284 1.76047 5.46416
-1.00431 1.76043 5.4613
-1.01335 1.75935 5.45538
-1.03234 1.76038 5.45651
-1.06741 1.76027 5.44778
-1.08545 1.7592 5.44193
-1.10636 1.76439 5.45401
-1.12343 1.76227 5.44517
-1.13341 1.76331 5.44723
-1.15144 1.76326 5.44336
-1.1685 1.76215 5.43551
-1.18556 1.76106 5.42865
-1.20456 1.76208 5.42878
-1.22257 1.76306 5.4269
-1.2406 1.76301 5.42304
-1.25156 1.7651 5.42809
-1.27247 1.77027 5.43917
-1.2876 1.76603 5.42235
-1.30466 1.76493 5.41449
-1.32176 1.76176 5.40266
-1.34558 1.7711 5.42471
-1.36362 1.77104 5.41984
-1.3697 1.76789 5.40894
-1.38677 1.76578 5.40109
-1.40676 1.76781 5.40221
-1.42283 1.76567 5.39237
-1.44184 1.76767 5.39148
-1.46084 1.76868 5.39161
-1.47595 1.76547 5.37677
-1.48304 1.7623 5.36487
-1.50592 1.76855 5.38095
-1.52103 1.76534 5.36611
-1.54004 1.76734 5.36522
-1.5571 1.76524 5.35738
-1.57317 1.76412 5.34852
-1.59414 1.76719 5.35263
-1.60316 1.76715 5.3497
-1.62118 1.76812 5.34682
-1.63922 1.76806 5.34195
-1.65918 1.77113 5.34606
-1.67624 1.77003 5.3382
-1.69427 1.771 5.33532
-1.71328 1.77198 5.33345
-1.72034 1.76987 5.32554
-1.74228 1.77499 5.33263
-1.76228 1.77701 5.33375
-1.77737 1.77485 5.32189
-1.79346 1.77268 5.31004
-1.81149 1.77264 5.30618
-1.82855 1.77152 5.29732
-1.84245 1.77772 5.31034
-1.8595 1.77764 5.30447
-1.87657 1.77552 5.29562
-1.89167 1.77332 5.28177
-1.91556 1.78055 5.29584
-1.93359 1.7805 5.29198
-1.95065 1.7804 5.28411
-1.95967 1.78036 5.28118
-1.97966 1.78239 5.2823
-1.99673 1.78127 5.27344
-2.01476 1.78222 5.26956
-2.02888 1.77899 5.25372
-2.04691 1.77995 5.24984
-2.07083 1.78613 5.26093
-2.07495 1.78089 5.24503
-2.09692 1.78497 5.24914
-2.11299 1.78383 5.23927
-2.12613 1.77958 5.22144
-2.15006 1.78573 5.23053
-2.1671 1.78565 5.22465
-2.1822 1.78347 5.2118
-2.1922 1.78448 5.21186
-2.2122 1.78749 5.21196
-2.23025 1.7874 5.2051
-2.2473 1.78731 5.19823
-2.27221 1.7935 5.21033
-2.27945 1.78504 5.1785
-2.29847 1.78702 5.17662
-2.31632 1.7943 5.19465
-2.32651 1.78795 5.17081
-2.34848 1.79203 5.17492
-2.36751 1.79297 5.17005
-2.38063 1.78974 5.15419
-2.40162 1.79277 5.15531
-2.42261 1.7958 5.15642
-2.42574 1.79156 5.1405
-2.44182 1.79041 5.12964
-2.46772 1.79762 5.14273
-2.4779 1.79228 5.11888
-2.49495 1.79218 5.11201
-2.51595 1.7952 5.11213
-2.53007 1.79199 5.09728
-2.54711 1.79291 5.09139
-2.56106 1.79601 5.09745
-2.57418 1.7938 5.08258
-2.59714 1.79787 5.08669
-2.61616 1.79984 5.08381
-2.62831 1.79557 5.06496
-2.64734 1.79751 5.06007
-2.65735 1.7985 5.05913
-2.66752 1.79318 5.03729
-2.6895 1.79723 5.03939
-2.70951 1.79921 5.03751
-2.72461 1.79805 5.02564
-2.74462 1.80003 5.02376
-2.76661 1.80406 5.02487
-2.7707 1.80089 5.01295
-2.78973 1.80284 5.00906
-2.82385 1.80263 4.99332
-2.84092 1.80251 4.98445
2.21485 1.62195 4.68599
2.19891 1.62207 4.69311
2.186 1.62426 4.70518
2.1731 1.62647 4.71924
2.16326 1.63178 4.73924
2.15527 1.63081 4.74132
2.14646 1.63717 4.76529
2.12643 1.63413 4.76149
2.12067 1.6426 4.79341
2.10676 1.64478 4.80448
2.09183 1.64592 4.81358
2.0769 1.64708 4.82368
0.0277528 1.70999 5.20424
0.010769 1.71103 5.20635
-0.00615336 1.71419 5.21643
-0.0151845 1.71214 5.21253
-0.032184 1.71215 5.21266
-0.0501753 1.71318 5.21378
-0.0671905 1.71216 5.21192
-0.0841743 1.7132 5.21403
-0.102104 1.71635 5.22312
-0.119158 1.71426 5.21628
-0.128111 1.71635 5.22232
-0.145172 1.71424 5.21448
-0.162225 1.71215 5.20764
-0.180109 1.71739 5.22269
-0.198101 1.71742 5.22383
-0.215162 1.71531 5.21599
-0.232099 1.71844 5.22407
-0.241068 1.71951 5.22812
-0.258176 1.71531 5.21431
-0.276067 1.72053 5.22837
-0.294074 1.72053 5.22751
-0.311026 1.72363 5.23359
-0.328088 1.72053 5.22576
-0.347009 1.72469 5.23585
-0.354133 1.71946 5.21997
-0.371171 1.71739 5.21513
-0.390031 1.72467 5.23317
-0.407076 1.7236 5.22731
-0.425052 1.72465 5.23043
-0.442083 1.72361 5.22658
-0.460035 1.72671 5.23267
-0.46905 1.72569 5.23075
-0.486034 1.72673 5.23286
-0.504049 1.72671 5.231
-0.521048 1.72772 5.23111
-0.539055 1.72772 5.23025
-0.555162 1.72353 5.21643
-0.572161 1.72454 5.21654
-0.590145 1.72558 5.21866
-0.618066 1.72975 5.22881
-0.635065 1.73076 5.22892
-0.652111 1.72969 5.22307
-0.670094 1.73073 5.22519
-0.688086 1.73176 5.22631
-0.715053 1.73484 5.23047
-0.732098 1.73376 5.22461
-0.749098 1.73377 5.22474
-0.767135 1.73371 5.21988
-0.78508 1.73683 5.22697
-0.800226 1.73056 5.20817
-0.819179 1.73366 5.21427
-0.827217 1.73259 5.20934
-0.844223 1.73359 5.20846
-0.861253 1.73254 5.2046
-0.881159 1.73773 5.21667
-0.899181 1.7377 5.21381
-0.915234 1.73661 5.20695
-0.933226 1.73764 5.20807
-0.978223 1.73967 5.20838
-0.994307 1.73752 5.19753
-1.01324 1.74165 5.20561
-1.03223 1.74369 5.20772
-1.04731 1.74054 5.19688
-1.05726 1.74364 5.20291
-1.07626 1.74465 5.20304
-1.09328 1.74462 5.20017
-1.11226 1.74668 5.20328
-1.12737 1.74348 5.18944
-1.14535 1.74553 5.19155
-1.16335 1.74654 5.19167
-1.17236 1.74653 5.19073
-1.18939 1.74647 5.18586
-1.20644 1.74539 5.18001
-1.22538 1.74951 5.18709
-1.24147 1.74636 5.17626
-1.25946 1.74839 5.17736
-1.27846 1.7504 5.17747
-1.28552 1.74829 5.16956
-1.30158 1.74618 5.16171
-1.31861 1.74613 5.15784
-1.33565 1.74606 5.15197
-1.38968 1.74904 5.14833
-1.46681 1.74984 5.1319
-1.54592 1.75166 5.11646
-1.65909 1.7554 5.09426
-1.6771 1.75639 5.09238
-1.75426 1.75713 5.07194
-1.78933 1.75801 5.06219
-1.80735 1.75899 5.06032
-1.8514 1.76192 5.0536
-1.88549 1.76177 5.04186
-1.91957 1.76163 5.03112
-1.95756 1.76666 5.03133
-1.96362 1.76454 5.02341
-2.00164 1.76854 5.02163
-2.01671 1.7664 5.01178
-2.05179 1.76828 5.00201
-2.23729 1.76941 4.93538
-2.55014 1.77793 4.8226
-2.61834 1.77958 4.79608
-2.63243 1.77843 4.78521
-2.64341 1.78047 4.78726
-2.65947 1.78036 4.77938
-2.67454 1.78022 4.76949
-2.69357 1.78218 4.76561
-2.71259 1.78416 4.76372
-2.7457 1.78495 4.74796
-2.7567 1.78697 4.74901
-2.77374 1.78789 4.74312
-2.7898 1.78779 4.73525
-2.80488 1.78664 4.72438
-2.8239 1.78962 4.72247
-2.84194 1.79054 4.7166
-2.84306 1.78631 4.70066
-2.86407 1.78931 4.69978
-2.88802 1.79441 4.70588
-2.89323 1.788 4.67801
-2.91521 1.79206 4.68112
-2.9372 1.79608 4.68123
-2.94933 1.79285 4.66536
-2.96439 1.79273 4.65648
-2.98131 1.79889 4.66651
-2.9875 1.79254 4.64265
-3.01049 1.79757 4.64375
-3.02753 1.79849 4.63787
-3.03965 1.79527 4.622
-3.05769 1.7972 4.61711
-3.07882 1.79595 4.59928
2.13153 1.61741 4.51066
2.09975 1.62286 4.53982
2.0838 1.62296 4.54594
2.07293 1.62722 4.56296
2.06307 1.63151 4.58198
2.05016 1.6337 4.59404
2.03523 1.63482 4.60214
2.02129 1.63597 4.61123
2.01638 1.63813 4.62224
2.00144 1.63926 4.63033
1.98854 1.64146 4.6434
0.23581 1.71395 5.21061
0.218818 1.71398 5.21174
0.209802 1.71296 5.20982
0.192865 1.71609 5.2179
0.175772 1.71092 5.20611
0.157788 1.71197 5.20823
0.14085 1.7141 5.21632
0.123781 1.71098 5.2075
0.105812 1.71205 5.21162
0.0978512 1.71413 5.21665
0.0797513 1.70995 5.20384
0.0627982 1.71205 5.20994
0.0457987 1.71206 5.21007
0.0235682 1.70466 5.04732
-0.00936116 1.70782 5.05653
-0.0264918 1.70258 5.03973
-0.043507 1.70157 5.03787
-0.0602894 1.71199 5.06585
-0.0692817 1.71201 5.06692
-0.0853276 1.70994 5.06107
-0.102273 1.71305 5.06815
-0.119241 1.71412 5.07226
-0.136248 1.71412 5.07139
-0.153263 1.7141 5.06952
-0.170255 1.71413 5.07065
-0.195231 1.71519 5.07382
-0.212308 1.71206 5.06399
-0.229229 1.71622 5.07406
-0.280235 1.71724 5.07343
-0.297258 1.71621 5.07057
-0.323225 1.71829 5.07474
-0.34014 1.72246 5.08581
-0.355356 1.71306 5.05806
-0.432298 1.71722 5.06558
-0.449297 1.71823 5.06569
-0.857429 1.72923 5.0486
-0.873475 1.72815 5.04273
-0.913248 1.74061 5.07185
-0.944393 1.73535 5.05316
-0.961446 1.73426 5.04631
-0.969453 1.73425 5.04537
-0.986467 1.73523 5.04348
-1.00446 1.73626 5.0446
-1.01956 1.73308 5.03176
-1.03749 1.73721 5.03984
-1.05645 1.74031 5.04593
-1.07057 1.73509 5.03011
-1.07959 1.73506 5.02818
-1.09851 1.74021 5.03725
-1.11361 1.73703 5.02441
-1.13255 1.74116 5.03249
-1.16562 1.74004 5.02276
-1.18362 1.74105 5.02288
-1.20769 1.73994 5.01407
-1.22469 1.74095 5.01419
-1.24074 1.74087 5.00831
-1.38493 1.74358 4.98235
-1.41193 1.74559 4.98252
-2.52445 1.77135 4.64948
-2.57458 1.77412 4.63181
-2.60669 1.77392 4.61706
-2.61373 1.77385 4.61211
-2.71808 1.77623 4.56585
-2.76427 1.7759 4.5412
-2.80229 1.78186 4.5374
-2.91482 1.77991 4.46827
-2.92483 1.78089 4.46633
-2.97496 1.78466 4.44865
-2.9851 1.7814 4.43077
-3.00609 1.78543 4.43187
-3.02116 1.78529 4.42198
-3.03018 1.78627 4.42004
-3.04426 1.78512 4.40916
-3.06131 1.78704 4.40326
-3.07044 1.78378 4.38537
-3.09539 1.78989 4.39147
-3.10751 1.78767 4.37659
-3.1295 1.7927 4.37768
-3.13258 1.78954 4.36675
-3.14864 1.79044 4.35886
-3.16667 1.79239 4.35496
-3.18174 1.79225 4.34508
-3.19978 1.79419 4.34019
2.06957 1.61656 4.38312
2.06173 1.62289 4.40509
2.04781 1.62405 4.41518
2.03489 1.6252 4.42526
2.02095 1.62633 4.43335
2.00905 1.62853 4.44641
2.00413 1.63169 4.4564
1.98917 1.63178 4.46251
1.98033 1.63709 4.48251
1.9664 1.63825 4.49259
0.699062 1.69523 4.97837
0.691054 1.69522 4.97743
0.674085 1.69529 4.98155
0.657054 1.69324 4.97771
0.641109 1.69536 4.9848
0.607101 1.69337 4.98409
0.59114 1.69545 4.98918
0.583132 1.69444 4.98825
0.566117 1.69343 4.98639
0.549172 1.69554 4.99349
0.516171 1.69357 4.99377
0.481087 1.68943 4.98309
0.460397 1.70304 5.02305
0.440173 1.69262 4.99436
0.427474 1.70521 5.03327
0.408281 1.69585 5.00855
0.39132 1.69794 5.01365
0.375344 1.69799 5.01677
0.368506 1.70531 5.03771
0.35153 1.70637 5.04083
0.334507 1.70533 5.03797
0.316368 1.69808 5.02021
0.29929 1.69395 5.0104
0.282307 1.69499 5.01251
0.267563 1.70649 5.04546
0.257307 1.69401 5.01272
0.241339 1.69608 5.01681
0.224401 1.69821 5.0249
0.207409 1.69824 5.02603
0.191572 1.70556 5.04705
0.17434 1.69513 5.01733
0.158626 1.70768 5.05426
0.149395 1.69725 5.02448
0.133612 1.70767 5.05245
0.116628 1.70771 5.05458
0.0983879 1.69627 5.02388
0.0824122 1.69833 5.02697
0.0656059 1.70671 5.05198
0.0236571 1.71586 4.92514
0.00665759 1.71587 4.92527
-0.0093112 1.71694 4.92937
-0.0263879 1.7138 4.91955
-0.0673792 1.71385 4.92086
-0.0833085 1.71799 4.92992
-0.100293 1.71804 4.93204
-0.116323 1.71699 4.92818
-0.15826 1.72014 4.93645
-0.174236 1.72219 4.93954
-0.191212 1.72325 4.94265
-0.20732 1.71805 4.92885
-0.223327 1.71805 4.92797
-0.240288 1.72014 4.93307
-0.256326 1.71907 4.9282
-0.265294 1.72014 4.93226
-0.281278 1.72218 4.93435
-0.298293 1.72116 4.93249
-0.314331 1.7201 4.92763
-0.329416 1.71595 4.9168
-0.347352 1.72008 4.92487
-0.362445 1.71592 4.91305
-0.37232 1.72216 4.92903
-0.387444 1.71593 4.91324
-0.40435 1.72112 4.92529
-0.421349 1.72214 4.9254
-0.437356 1.72213 4.92452
-0.45434 1.72317 4.92663
-0.470424 1.72002 4.9158
-0.478432 1.72001 4.91486
-0.494431 1.72003 4.91498
-0.510469 1.71896 4.91012
-0.527484 1.71895 4.90825
-0.544467 1.71999 4.91036
-0.560466 1.721 4.91046
-0.577419 1.7241 4.91655
-0.584504 1.71994 4.90566
-0.602456 1.72304 4.91175
-0.61944 1.72409 4.91386
-0.634548 1.71989 4.90004
-0.650547 1.7209 4.90014
-0.667522 1.72296 4.90324
-0.684521 1.72397 4.90335
-0.69156 1.7219 4.89844
-0.709505 1.72502 4.90553
-0.742549 1.72495 4.89978
-0.757626 1.72182 4.88993
-0.775578 1.72492 4.89602
-0.793507 1.72907 4.9051
-0.7996 1.72489 4.89321
-0.816607 1.72589 4.89232
-0.833598 1.72692 4.89343
-0.85155 1.73102 4.89951
-0.869479 1.73516 4.90858
-0.885501 1.73513 4.9057
-0.901539 1.73407 4.90084
-0.911476 1.73719 4.90887
-0.930413 1.74133 4.91695
-0.945482 1.7392 4.90809
-0.958628 1.73293 4.88928
-0.975611 1.73497 4.89138
-0.994533 1.74014 4.90145
-1.00865 1.73592 4.88662
-1.01763 1.73696 4.88867
-1.03465 1.73693 4.8858
-1.05165 1.73894 4.8859
-1.06669 1.73788 4.88102
-1.08466 1.74095 4.88511
-1.10263 1.74302 4.88922
-1.11966 1.74298 4.88535
-1.12379 1.73671 4.86747
-1.14274 1.74083 4.87455
-1.16264 1.74704 4.88761
-1.17479 1.74075 4.86779
-1.19278 1.74278 4.8689
-1.20976 1.74482 4.871
-1.22581 1.74474 4.86512
-1.23575 1.74785 4.87215
-1.24889 1.7426 4.85432
-1.26591 1.74256 4.85145
-1.28583 1.74874 4.86251
-1.29893 1.74456 4.84967
-1.31595 1.74553 4.84678
-1.33394 1.74755 4.84789
-1.34705 1.74334 4.83305
-1.35312 1.74021 4.82414
-1.37208 1.74431 4.83022
-1.38715 1.74218 4.82037
-1.4022 1.7421 4.81448
-1.42019 1.74413 4.81559
-1.43623 1.74407 4.81071
-1.44521 1.7451 4.81276
-1.46125 1.74504 4.80788
-1.4763 1.74395 4.80101
-1.49039 1.74178 4.78915
-1.50935 1.74487 4.79424
-1.52343 1.74271 4.78338
-1.54142 1.74474 4.78449
-1.55238 1.74784 4.79052
-1.56743 1.74775 4.78364
-1.58638 1.75185 4.78972
-1.60732 1.75598 4.79782
-1.61457 1.74551 4.76602
-1.63156 1.74753 4.76612
-1.65152 1.75161 4.77121
-1.65954 1.75159 4.76927
-1.67361 1.75047 4.76039
-1.69162 1.75145 4.75851
-1.70472 1.74927 4.74564
-1.72565 1.75442 4.75473
-1.74168 1.75537 4.75083
-1.75478 1.75117 4.73699
-1.7718 1.75315 4.73509
-1.78374 1.75727 4.74212
-1.79586 1.75304 4.72627
-1.80993 1.75091 4.71741
-1.82988 1.75602 4.72348
-1.84398 1.75284 4.71063
-1.86294 1.75692 4.71572
-1.88193 1.75995 4.71682
-1.88994 1.76094 4.71586
-1.905 1.75984 4.70799
-1.91811 1.75662 4.69313
-1.93514 1.75759 4.69025
-1.95214 1.75959 4.68935
-1.96916 1.76057 4.68746
-1.98423 1.75943 4.67759
-1.99714 1.76461 4.68861
-2.0132 1.76451 4.68173
-2.02531 1.7613 4.66687
-2.04528 1.76537 4.67096
-2.05445 1.75906 4.64912
-2.07048 1.75999 4.64423
-2.07851 1.75995 4.64129
-2.10437 1.76922 4.65835
-2.11353 1.76393 4.63849
-2.12958 1.76384 4.63161
-2.14463 1.76375 4.62473
-2.16067 1.76369 4.61985
-2.1767 1.76463 4.61495
-2.19375 1.76555 4.60907
-2.20373 1.76659 4.61113
-2.22076 1.76854 4.60723
-2.23188 1.76532 4.59236
-2.25875 1.77458 4.60842
-2.26494 1.76622 4.58359
-2.28492 1.77026 4.58568
-2.30098 1.77017 4.5788
-2.30997 1.77217 4.57884
-2.32896 1.7752 4.57994
-2.34403 1.77408 4.57107
-2.35417 1.76982 4.55321
-2.37612 1.77593 4.55928
-2.38823 1.77273 4.54542
-2.4023 1.7716 4.53654
-2.41033 1.77155 4.5326
-2.43129 1.77662 4.53668
-2.44635 1.77652 4.5288
-2.4624 1.77744 4.5229
-2.4814 1.77944 4.52202
-2.48955 1.77515 4.50214
-2.50955 1.77816 4.50224
-2.51855 1.77917 4.5023
-2.5277 1.77488 4.48243
-2.55163 1.78103 4.49152
-2.56374 1.77883 4.47764
-2.58373 1.78286 4.47873
-2.59879 1.78274 4.46985
-2.61682 1.78471 4.46695
-2.61792 1.7805 4.45302
-2.63298 1.78039 4.44513
-2.65299 1.78339 4.44424
-2.66607 1.78224 4.43335
-2.68408 1.78422 4.43146
-2.69421 1.78098 4.41458
-2.71619 1.78604 4.41767
-2.72323 1.78597 4.41273
-2.7373 1.78483 4.40285
-2.75434 1.78577 4.39796
-2.77236 1.78874 4.39505
-2.78841 1.78965 4.38816
-2.80052 1.78745 4.37428
-2.81359 1.78631 4.3644
-2.82755 1.79039 4.36944
-2.83866 1.7882 4.35556
-2.85076 1.786 4.34168
-2.87273 1.79107 4.34577
-2.88484 1.78887 4.33189
-2.8999 1.78977 4.32399
-2.91101 1.78655 4.30912
-2.92298 1.7906 4.31215
-2.94003 1.79153 4.30626
-2.95607 1.79245 4.30037
-2.98225 1.79011 4.2766
-2.99731 1.79101 4.2687
3.16692 1.55785 3.36858
2.28527 1.60092 4.07869
2.2286 1.60659 4.12204
2.19285 1.61111 4.15524
2.1789 1.61121 4.16135
2.16596 1.61235 4.17043
2.1561 1.61661 4.18744
2.14506 1.61354 4.18257
2.13414 1.61571 4.19362
2.12631 1.62204 4.21559
2.10727 1.61698 4.21081
2.09435 1.61814 4.22089
2.08549 1.62341 4.23888
2.07256 1.62457 4.24896
2.06456 1.62358 4.24904
2.05775 1.62994 4.273
2.03291 1.63426 4.29412
0.203513 1.70946 4.90588
0.18649 1.70843 4.90302
0.162529 1.70952 4.90819
0.146576 1.71162 4.91428
0.113562 1.71161 4.91252
0.0806241 1.71376 4.92074
-0.104235 1.71519 4.8071
-0.200201 1.71732 4.81179
-0.224254 1.71523 4.805
-0.241145 1.72145 4.81904
-0.256276 1.71521 4.80224
-0.289205 1.71937 4.81143
-0.305173 1.72144 4.81552
-0.313204 1.71938 4.81161
-0.33018 1.72144 4.81471
-0.36221 1.7204 4.81097
-0.378162 1.7235 4.81704
-0.393332 1.71519 4.79527
-0.411137 1.72557 4.82026
-0.417308 1.71725 4.79843
-0.435167 1.72453 4.81645
-0.450213 1.72345 4.81058
-0.466266 1.72136 4.80373
-0.482273 1.72136 4.80285
-0.497405 1.71512 4.78606
-0.514272 1.72238 4.80308
-0.52231 1.72131 4.79816
-0.537418 1.71612 4.78435
-0.555301 1.72235 4.79939
-0.568463 1.71505 4.77859
-0.587314 1.72335 4.79762
-0.603321 1.72334 4.79674
-0.619359 1.72228 4.79187
-0.626413 1.72018 4.78496
-0.642397 1.72122 4.78706
-0.656543 1.71495 4.76826
-0.674457 1.72013 4.77932
-0.689518 1.71802 4.77146
