0.171414 1.80284 5.67394
0.134524 1.80807 5.68814
0.0964393 1.80394 5.67749
0.0685023 1.80707 5.68565
0.0496183 1.81131 5.70073
0.0377968 1.79775 5.45999
0.019828 1.79882 5.46411
0.000898227 1.80197 5.47321
-0.00814795 1.79989 5.4673
-0.0261631 1.79887 5.46546
-0.0440616 1.80408 5.47851
-0.0621383 1.80094 5.4687
-0.0801691 1.7989 5.46486
-0.0981372 1.80097 5.46897
-0.117052 1.80414 5.48006
-0.12519 1.79888 5.4622
-0.144059 1.80415 5.47927
-0.16212 1.80204 5.47143
-0.180041 1.8062 5.48151
-0.198103 1.8031 5.47369
-0.216164 1.80099 5.46585
-0.235101 1.80413 5.47395
-0.253132 1.80308 5.4701
-0.26117 1.80101 5.46519
-0.280115 1.80413 5.47229
-0.299052 1.80726 5.48039
-0.315222 1.79995 5.45862
-0.334198 1.80101 5.46174
-0.353058 1.80829 5.47978
-0.36215 1.80411 5.46791
-0.380134 1.80516 5.47003
-0.399056 1.80932 5.48011
-0.416164 1.80412 5.46632
-0.435062 1.80933 5.47938
-0.471169 1.80615 5.4657
-0.517128 1.80926 5.471
-0.553149 1.80924 5.46827
-0.571149 1.80925 5.46841
-0.589209 1.80815 5.46056
-0.6172 1.80918 5.46175
-0.635215 1.80917 5.45989
-0.671236 1.80915 5.45716
-0.707266 1.80911 5.45343
-1.61572 1.80586 5.2633
-1.63375 1.80681 5.25942
-1.66687 1.8046 5.2437
-1.6749 1.80355 5.23978
-1.69489 1.80659 5.24188
-1.70802 1.80235 5.22504
-1.72898 1.80542 5.22915
-1.74407 1.80327 5.2183
-1.75721 1.79901 5.20046
-1.77524 1.79997 5.19658
-1.78424 1.79996 5.19565
-1.79837 1.79572 5.17881
-1.81933 1.79981 5.18391
-1.8354 1.79869 5.17505
-1.84951 1.79547 5.1602
-1.86949 1.79853 5.16331
-1.88653 1.79846 5.15743
-1.89164 1.79425 5.14353
-1.90772 1.79312 5.13367
-1.92965 1.79827 5.14276
-1.94377 1.79504 5.12691
-1.95983 1.79393 5.11905
-1.97784 1.79492 5.11717
-1.99293 1.79375 5.1053
-2.0039 1.79582 5.10935
-2.02488 1.79886 5.11146
-2.03604 1.79357 5.09162
-2.05113 1.79141 5.07977
-2.07308 1.79651 5.08586
-2.08719 1.79332 5.07201
-2.10521 1.79428 5.06913
-2.12519 1.79833 5.07122
-2.12833 1.79306 5.05332
-2.14637 1.793 5.04846
-2.16536 1.79602 5.04856
-2.17947 1.79282 5.03471
-2.19749 1.79379 5.03183
-2.21847 1.79783 5.03393
-2.22258 1.79363 5.02002
-2.23766 1.79248 5.00915
-2.26158 1.79864 5.01924
-2.27471 1.79541 5.00338
-2.29274 1.79637 4.9995
-2.31076 1.79734 4.99662
-2.32387 1.79512 4.98175
-2.33683 1.79821 4.98681
-2.35486 1.79916 4.98293
-2.36698 1.79593 4.96706
-2.38896 1.79999 4.97017
-2.40699 1.80093 4.96529
-2.42404 1.80186 4.95941
-2.44108 1.80178 4.95353
-2.51633 1.80235 4.92109
-2.62174 1.80061 4.8669
-2.65288 1.80035 4.84814
-2.66993 1.80026 4.84127
-2.69108 1.79799 4.82246
-2.70714 1.79787 4.81358
-2.72518 1.79881 4.8087
-2.73829 1.79661 4.79483
-2.75238 1.79545 4.78295
-2.77141 1.7974 4.77906
-2.7745 1.79422 4.76713
-2.78563 1.78998 4.75028
-2.80662 1.79401 4.75138
-2.82466 1.79493 4.7455
-2.83678 1.79271 4.72962
-2.84298 1.78634 4.70476
-2.86596 1.79039 4.70687
-2.87398 1.79135 4.70392
-2.88116 1.78501 4.68106
-2.90611 1.79111 4.68616
-2.91724 1.78788 4.67029
-2.92837 1.78463 4.65342
-2.94837 1.78763 4.65252
-2.96642 1.78854 4.64565
-2.96557 1.78326 4.62671
-2.98953 1.78835 4.63182
-3.00163 1.78715 4.61793
-3.01178 1.78288 4.59906
-3.02981 1.78482 4.59417
-3.04785 1.78676 4.58928
-3.05899 1.7825 4.57142
-3.07195 1.78658 4.57646
-3.07912 1.78126 4.55459
-3.08728 1.77696 4.53371
-3.11224 1.78204 4.53783
-3.12436 1.78082 4.52293
-3.13646 1.77862 4.50905
-3.15549 1.78058 4.50517
-3.17846 1.78564 4.50827
-3.20677 1.78007 4.46856
-3.21591 1.77579 4.44969
-3.23396 1.77772 4.44379
-3.25299 1.77967 4.43991
-3.26212 1.77641 4.42202
-3.27115 1.77736 4.41808
-3.29512 1.78244 4.42218
-3.30525 1.77918 4.4043
-3.31934 1.77902 4.39341
-3.33244 1.77783 4.37953
-3.34751 1.7787 4.37062
-3.36358 1.77858 4.36175
-3.36963 1.77848 4.35479
-3.38074 1.77627 4.33991
-3.40276 1.77926 4.33803
-3.41782 1.78013 4.32913
-3.43191 1.77897 4.31725
-3.44699 1.77983 4.30735
-3.45403 1.77976 4.3024
-3.46613 1.77856 4.28851
-3.48517 1.7805 4.28362
-3.50322 1.78241 4.27673
-3.51335 1.78017 4.25984
-3.52644 1.779 4.24795
-3.5425 1.77988 4.23906
-3.55956 1.78177 4.23116
-3.56661 1.78169 4.22521
-3.58961 1.78569 4.22432
-3.59874 1.78244 4.20744
-3.61184 1.78226 4.19454
-3.6279 1.78315 4.18665
-3.64001 1.78194 4.17175
-3.65013 1.77971 4.15586
-3.65816 1.78066 4.15191
-3.68315 1.78569 4.15302
-3.69327 1.78346 4.13713
-3.71232 1.78639 4.13123
-3.73136 1.78831 4.12534
-3.73256 1.78193 4.09944
-3.7516 1.78485 4.09354
-3.76558 1.78791 4.0966
-3.78186 1.78237 4.0598
-3.82907 1.78497 4.03111
-3.85329 1.78256 4.00233
-3.86231 1.78353 3.99938
-3.8764 1.78437 3.98847
-3.88751 1.78316 3.97357
-3.90854 1.78611 3.96969
-3.91965 1.7849 3.95479
-3.93176 1.7837 3.94089
-3.93592 1.77938 3.91898
-4.01936 1.78358 3.86154
3.77412 1.76927 4.03006
3.73643 1.77089 4.07033
3.71051 1.76907 4.08155
3.70063 1.77132 4.0976
3.68672 1.7715 4.1097
3.6589 1.77186 4.13291
3.63791 1.76791 4.13513
3.62209 1.77126 4.1582
3.60514 1.76939 4.16635
3.5983 1.77369 4.18635
3.57126 1.76664 4.18165
3.56441 1.77094 4.20164
3.55252 1.77216 4.21572
3.5395 1.76914 4.21386
3.52963 1.77239 4.23089
3.52278 1.7757 4.25089
3.49675 1.76966 4.24718
3.47475 1.76567 4.2474
3.47296 1.77309 4.27531
3.44389 1.76398 4.26666
3.42998 1.76516 4.27875
3.43111 1.7694 4.29468
3.41315 1.7675 4.30085
3.39823 1.76768 4.31196
3.38633 1.76988 4.32502
3.36635 1.76694 4.32821
3.34941 1.76505 4.33537
3.34358 1.7704 4.35834
3.3346 1.76943 4.36042
3.31867 1.76858 4.36955
3.30577 1.77079 4.38362
3.28579 1.76784 4.38581
3.27086 1.768 4.39593
3.262 1.77127 4.41395
3.23292 1.76314 4.40428
3.229 1.76429 4.4143
3.21508 1.76547 4.42539
3.19915 1.76461 4.43452
3.18523 1.76579 4.44561
3.18347 1.77424 4.4765
3.15639 1.76712 4.46681
3.14552 1.76938 4.48386
3.14665 1.77463 4.50078
3.12971 1.77476 4.5089
3.11074 1.77183 4.51309
3.10189 1.77612 4.5321
3.08291 1.77318 4.53528
3.06901 1.77538 4.54836
3.05611 1.77658 4.56144
3.04409 1.77356 4.55957
3.03119 1.77576 4.57264
3.01727 1.77594 4.58374
3.00236 1.77711 4.59484
2.9773 1.77102 4.58812
2.95528 1.766 4.58536
2.95251 1.77446 4.61626
2.94556 1.77555 4.6223
2.91544 1.76635 4.60766
2.90558 1.76962 4.62568
2.91194 1.78531 4.67241
2.85602 1.77952 4.68392
2.84603 1.77754 4.68502
2.82299 1.77248 4.68027
2.82024 1.78196 4.71216
2.79517 1.77586 4.70443
2.77518 1.77289 4.70563
2.75924 1.77302 4.71375
2.74229 1.77214 4.72089
2.73736 1.77427 4.7299
2.71736 1.77129 4.73009
2.69941 1.76939 4.73626
2.68448 1.77055 4.74635
2.66854 1.77068 4.75447
2.65362 1.77184 4.76457
2.63566 1.76992 4.76973
2.4505 1.77769 4.88103
2.3876 1.77394 4.89556
2.33977 1.77432 4.91892
2.283 1.77679 4.94831
2.26502 1.77484 4.95148
2.25009 1.77599 4.96058
2.23416 1.77713 4.96968
2.21619 1.77622 4.97483
2.2033 1.77844 4.9889
2.19942 1.78366 5.00385
2.18245 1.78275 5.00899
2.16449 1.78284 5.01413
2.14855 1.78295 5.02125
2.13262 1.78411 5.03135
2.11261 1.7811 5.02954
2.09667 1.78123 5.03766
2.0887 1.78231 5.04271
2.07176 1.78242 5.04984
2.05276 1.78045 5.05101
2.03581 1.78055 5.05714
2.02191 1.78375 5.07019
2.00189 1.77974 5.0684
1.98799 1.78294 5.08146
1.97799 1.78193 5.08055
1.95798 1.77893 5.07975
1.94101 1.77901 5.08388
1.92918 1.78435 5.10689
1.91118 1.78237 5.10705
1.8963 1.7866 5.12211
1.8783 1.78461 5.12227
1.87137 1.78675 5.13129
1.8493 1.78063 5.12255
1.83849 1.78801 5.14752
1.81744 1.78392 5.14074
1.80252 1.7861 5.15182
1.78352 1.78411 5.152
1.76657 1.78421 5.15812
1.75759 1.78426 5.16119
1.74166 1.78541 5.1703
1.72266 1.78342 5.17047
1.70673 1.78558 5.18056
1.68873 1.7836 5.18072
1.65177 1.7817 5.18603
1.64302 1.79218 5.21794
1.62685 1.78388 5.19719
1.61193 1.78604 5.20727
1.59499 1.78615 5.2144
1.56313 1.78946 5.23359
1.5431 1.78641 5.22978
1.52306 1.78335 5.22498
1.51511 1.78445 5.23102
1.50433 1.79388 5.25997
1.48636 1.79396 5.2641
1.46425 1.78677 5.25038
1.44934 1.78995 5.26244
1.42828 1.78485 5.25468
1.40928 1.78387 5.25483
1.40338 1.78806 5.26782
1.38642 1.78815 5.27294
1.36844 1.78719 5.27509
1.35357 1.79245 5.29213
1.33144 1.78523 5.2764
1.31657 1.78949 5.29345
1.30064 1.79164 5.30254
1.29061 1.78957 5.29765
1.2716 1.78759 5.29782
1.25672 1.79182 5.31287
1.23565 1.7877 5.30409
1.2187 1.7878 5.31022
1.20382 1.79305 5.32626
1.18274 1.7879 5.31549
1.17579 1.79001 5.32251
1.16092 1.79427 5.33956
1.14087 1.7912 5.33376
1.12183 1.78813 5.32795
1.10594 1.79136 5.34302
1.08588 1.78826 5.33522
1.06999 1.79147 5.34929
1.061 1.79151 5.35136
1.0409 1.78632 5.33758
1.025 1.78952 5.35066
1.00807 1.79168 5.36075
0.989058 1.79067 5.35891
0.973135 1.79283 5.369
0.95412 1.79081 5.36718
0.93405 1.78669 5.35839
0.927135 1.79086 5.36938
0.909174 1.79095 5.37451
0.893251 1.79411 5.38459
0.872127 1.78689 5.36885
0.85729 1.79421 5.38986
0.838236 1.79112 5.38305
0.829244 1.79114 5.38411
0.811267 1.7912 5.38725
0.792251 1.78918 5.38542
0.776344 1.79237 5.3975
0.757321 1.79134 5.39465
0.740367 1.79244 5.40077
0.722383 1.79248 5.4029
0.714507 1.79772 5.41889
0.696483 1.79569 5.41605
0.677453 1.79365 5.41222
0.660499 1.79475 5.41834
0.641484 1.79373 5.41649
0.624515 1.7948 5.42061
0.605484 1.79276 5.41678
0.596476 1.79175 5.41586
0.579593 1.79699 5.43091
0.561585 1.79598 5.43006
0.542539 1.79291 5.42425
0.524554 1.79295 5.42639
0.506578 1.79401 5.42951
0.488547 1.79196 5.42567
0.470617 1.79511 5.43476
0.46161 1.7941 5.43385
0.443648 1.79519 5.43897
0.426688 1.79727 5.44406
0.408696 1.7973 5.4452
0.390704 1.79733 5.44633
0.371673 1.79529 5.44251
0.353681 1.79531 5.44364
0.344728 1.79741 5.44968
0.326704 1.79538 5.44685
0.309813 1.8006 5.4609
0.290705 1.7954 5.44712
0.272682 1.79337 5.44428
0.254683 1.79339 5.44442
0.236737 1.7955 5.45152
0.227784 1.7976 5.45756
0.209784 1.79761 5.4577
0.190731 1.79552 5.45087
0.173839 1.79974 5.46494
0.155917 1.8029 5.47502
0.136848 1.79978 5.46621
0.118802 1.79771 5.46038
0.109833 1.79877 5.46443
0.0917952 1.79771 5.45958
0.0738415 1.79881 5.4657
0.0558967 1.80193 5.47279
-0.0175012 1.78924 5.28851
-0.0355471 1.78717 5.28267
-0.0525466 1.78718 5.2828
-0.0614918 1.79029 5.28982
-0.0964826 1.79133 5.29107
-0.13228 1.80074 5.31721
-0.149489 1.79135 5.29047
-0.166581 1.78719 5.27866
-0.175542 1.78927 5.2837
-0.193502 1.79136 5.2888
-0.21058 1.78722 5.27899
-0.229308 1.80075 5.31394
-0.247299 1.80078 5.31507
-0.263508 1.79139 5.28833
-0.280561 1.7893 5.28149
-0.300305 1.8018 5.31446
-0.308335 1.80075 5.31053
-0.326304 1.80282 5.31464
-0.344326 1.80179 5.31179
-0.362264 1.80492 5.31988
-0.378464 1.79655 5.29412
-0.397324 1.80283 5.31217
-0.413463 1.79658 5.29438
-0.422516 1.79548 5.28747
-0.439539 1.79445 5.28461
-0.457492 1.79655 5.29071
-0.475506 1.79653 5.28885
-0.492591 1.79338 5.27802
-0.509598 1.79338 5.27715
-0.527573 1.79544 5.28026
-0.536588 1.79541 5.27833
-0.554572 1.79646 5.28045
-0.572517 1.79957 5.28754
-0.589601 1.79642 5.27671
-0.606601 1.79644 5.27684
-0.624615 1.79642 5.27497
-0.641637 1.79639 5.2721
-0.649729 1.79322 5.26021
-0.667674 1.79633 5.2673
-0.686627 1.79843 5.27341
-0.702719 1.79527 5.26158
-0.720725 1.79627 5.2607
-0.73964 1.80044 5.27178
-0.753832 1.79308 5.24699
-0.763785 1.79518 5.25304
-0.7818 1.79516 5.25117
-0.799791 1.79619 5.25229
-0.816797 1.79719 5.25141
-0.833828 1.79614 5.24755
-0.853764 1.80027 5.25564
-0.870802 1.80021 5.25077
-0.878809 1.8002 5.24983
-0.896816 1.8002 5.24896
-0.915783 1.80327 5.25306
-0.951781 1.8053 5.2533
-0.96688 1.80212 5.24046
-0.985825 1.80524 5.24756
-1.00384 1.80522 5.2457
-1.51273 1.80381 5.12953
-1.54486 1.80159 5.11281
-1.56386 1.8036 5.11292
-1.56994 1.80044 5.10201
-1.58794 1.80245 5.10212
-1.60206 1.79823 5.08628
-1.62104 1.80027 5.0884
-1.63321 1.79395 5.06658
-1.64927 1.79386 5.0597
-1.66729 1.79383 5.05684
-1.67629 1.79482 5.05589
-1.69429 1.79684 5.056
-1.70449 1.78947 5.03118
-1.72739 1.79567 5.04326
-1.73954 1.79038 5.02343
-1.75658 1.79032 5.01856
-1.77166 1.78918 5.00869
-1.79357 1.79536 5.01976
-1.79573 1.78805 4.99888
-1.81572 1.79108 4.99999
-1.83079 1.78996 4.99112
-1.84294 1.78469 4.97228
-1.8629 1.78877 4.97737
-1.88092 1.78973 4.9735
-1.88699 1.78761 4.96557
-1.90108 1.78443 4.95272
-1.92204 1.78954 4.95881
-1.93711 1.7874 4.94895
-1.95414 1.78835 4.94506
-1.96823 1.78619 4.9332
-1.98627 1.78712 4.92832
-2.00741 1.78287 4.91054
-2.02443 1.78484 4.90764
-2.04245 1.78581 4.90476
-2.05752 1.78467 4.89489
-2.07357 1.7846 4.88901
-2.08964 1.78347 4.88015
-2.10667 1.78441 4.87526
-2.11273 1.7823 4.86734
-2.13172 1.78533 4.86844
-2.1468 1.78419 4.85856
-2.16973 1.79034 4.86765
-2.18087 1.78507 4.84881
-2.19889 1.78705 4.84691
-2.21199 1.78385 4.83306
-2.22592 1.789 4.84209
-2.24394 1.79098 4.84019
-2.259 1.78986 4.83132
-2.27213 1.78663 4.81547
-2.28916 1.78758 4.81158
-2.30521 1.78749 4.8047
-2.32814 1.79363 4.81279
-2.32832 1.78629 4.78989
-2.34928 1.79037 4.79499
-2.36632 1.7913 4.7891
-2.38041 1.79015 4.77822
-2.4004 1.79317 4.77933
-2.4145 1.79099 4.76647
-2.43447 1.79505 4.76956
-2.43659 1.78982 4.75365
-2.45856 1.79489 4.75774
-2.47659 1.79584 4.75386
-2.48772 1.7926 4.73699
-2.50969 1.79768 4.74108
-2.51688 1.79031 4.71624
-2.54278 1.79851 4.72832
-2.54391 1.79326 4.7114
-2.55899 1.79212 4.70153
-2.57209 1.78994 4.68866
-2.59011 1.79191 4.68577
-2.59435 1.78345 4.65492
-2.6173 1.78856 4.66102
-2.63237 1.78742 4.65115
-2.6335 1.78318 4.63522
-2.65251 1.78517 4.63333
-2.6666 1.784 4.62145
-2.67771 1.78079 4.60658
-2.69279 1.78065 4.59669
-2.70588 1.77848 4.58482
-2.72193 1.77939 4.57793
-2.73194 1.78038 4.57699
-2.74503 1.77921 4.5651
-2.78011 1.78208 4.55433
-2.79222 1.77988 4.54045
-2.80827 1.77979 4.53357
-2.82037 1.77759 4.51969
-2.83346 1.77642 4.5078
-2.86051 1.77933 4.50096
-2.87164 1.77611 4.48509
-2.90177 1.77586 4.46732
-2.93388 1.77768 4.45353
-2.94191 1.77761 4.4486
-2.956 1.77646 4.43772
-2.9671 1.77426 4.42383
-2.98415 1.77618 4.41793
-3.00613 1.78023 4.42004
-3.02539 1.77372 4.38527
-3.03343 1.77365 4.38033
-3.07146 1.77961 4.37553
-3.11273 1.77712 4.34087
-3.14694 1.77473 4.31316
-3.16298 1.77665 4.30726
-3.17905 1.77653 4.29838
-3.19016 1.77432 4.28349
-3.20424 1.77418 4.2736
-3.22129 1.77609 4.2667
-3.22734 1.77499 4.25976
-3.2434 1.7759 4.25287
-3.25648 1.77573 4.24096
-3.26661 1.7725 4.22509
-3.28663 1.77547 4.22219
-3.30665 1.77944 4.21928
-3.31379 1.77516 4.2004
-3.31886 1.77303 4.19147
-3.32601 1.76976 4.17257
-3.35097 1.77583 4.17667
-3.36702 1.77674 4.16977
-3.38705 1.7807 4.16586
-3.39321 1.77539 4.14499
-3.40828 1.77627 4.13609
-3.41729 1.77725 4.13414
-3.43534 1.77916 4.12725
-3.4415 1.77486 4.10735
-3.46349 1.77988 4.10744
-3.47065 1.77559 4.08756
-3.4877 1.7775 4.08066
-3.51068 1.78253 4.08176
-3.51784 1.77824 4.06187
-3.53082 1.78128 4.06393
-3.54094 1.77905 4.04803
-3.55997 1.782 4.04413
-3.56118 1.7746 4.01725
-3.57525 1.77547 4.00734
-3.59825 1.78048 4.00744
-3.60935 1.77928 3.99354
-3.61738 1.77923 3.9896
-3.63345 1.78111 3.98069
-3.64753 1.78095 3.9698
-3.6517 1.77563 3.9479
-3.67371 1.78062 3.94599
-3.6759 1.77427 3.9221
-3.69295 1.77617 3.9152
-3.70693 1.78021 3.91725
-3.71804 1.77801 3.90336
-3.73212 1.77886 3.89245
-3.74124 1.77663 3.87655
-3.75433 1.77646 3.86465
-3.7704 1.77734 3.85576
-3.77952 1.77611 3.83984
-3.78953 1.77709 3.8379
-3.80757 1.78001 3.832
-3.81869 1.7788 3.8171
-3.83674 1.78071 3.8102
-3.84189 1.77642 3.7903
-3.85696 1.77829 3.78139
-3.87402 1.78017 3.77249
-3.97774 1.77983 3.67726
-3.98984 1.77964 3.66435
4.04941 1.75778 3.53609
4.03146 1.7559 3.54326
4.02762 1.75921 3.56424
4.00463 1.75426 3.56649
3.99272 1.75445 3.57857
3.99685 1.7597 3.59547
3.97184 1.7537 3.59475
3.97002 1.75904 3.61768
3.95309 1.75719 3.62684
3.94521 1.75943 3.64287
3.93532 1.76066 3.65793
3.91938 1.75879 3.66607
3.90638 1.7558 3.66622
3.90456 1.76114 3.68916
3.88559 1.75823 3.69434
3.87773 1.7615 3.71236
3.86482 1.76169 3.72445
3.8509 1.76085 3.73457
3.83496 1.75898 3.74272
3.81994 1.75496 3.74089
3.81005 1.75717 3.75494
3.79613 1.75635 3.76605
3.78826 1.7596 3.78307
3.77434 1.75878 3.79419
3.75941 1.75792 3.80331
3.73944 1.75399 3.80752
3.73853 1.75717 3.81948
3.72561 1.75734 3.83058
3.70867 1.75548 3.83874
3.69979 1.75772 3.85477
3.67982 1.75479 3.85897
3.66792 1.75499 3.87205
3.6651 1.76134 3.89498
3.65107 1.7573 3.89215
3.6301 1.75336 3.89537
3.6192 1.75458 3.90943
3.60023 1.75165 3.91362
3.59337 1.75492 3.93163
3.5734 1.752 3.93582
3.56048 1.75217 3.94692
3.54656 1.75234 3.95802
3.54768 1.75656 3.97295
3.53679 1.75778 3.98702
3.51176 1.75175 3.98429
3.50389 1.75501 4.00131
3.47201 1.75227 4.01759
3.46516 1.75657 4.03758
3.44911 1.75148 4.03078
3.43137 1.75699 4.06483
3.38152 1.75334 4.08627
3.15283 1.75806 4.25994
3.07323 1.7589 4.31354
3.0464 1.76026 4.33672
3.00059 1.75966 4.36208
2.93516 1.7698 4.43643
2.91922 1.76993 4.44455
2.84444 1.76542 4.47419
2.81153 1.76362 4.48646
2.73903 1.77165 4.5529
2.39823 1.76924 4.71352
2.33154 1.77289 4.75498
2.18803 1.77496 4.82104
2.1731 1.77609 4.82914
2.15206 1.77205 4.82535
2.10322 1.77238 4.84572
2.07929 1.77254 4.8559
2.06639 1.77475 4.86896
1.94272 1.77447 4.91291
0.889906 1.78447 5.20673
0.829975 1.78465 5.21618
0.438396 1.78973 5.27306
0.421466 1.79288 5.28215
0.289375 1.7858 5.27124
0.113464 1.78809 5.28354
0.0434506 1.78711 5.28208
0.0315103 1.79925 5.15597
0.0146187 1.80347 5.17004
-0.00245796 1.80034 5.16021
-0.0194882 1.79929 5.15636
-0.036457 1.80036 5.16047
-0.0454567 1.80037 5.16054
-0.0624481 1.80139 5.16165
-0.0794633 1.80038 5.15979
-0.0964082 1.80349 5.16687
-0.114408 1.80351 5.16701
-0.156569 1.79623 5.14643
-0.17353 1.79831 5.15153
-0.208474 1.80144 5.15875
-0.225466 1.80147 5.15988
-0.242457 1.8025 5.16099
-0.268425 1.80457 5.16515
-0.302486 1.80248 5.15744
-0.319509 1.80145 5.15458
-0.337469 1.80354 5.15969
-0.380475 1.80455 5.159
-0.490632 1.80032 5.13889
-0.508562 1.80447 5.14796
-0.54263 1.80236 5.13925
-0.55966 1.80131 5.13539
-0.594627 1.8044 5.13961
-0.610672 1.80332 5.13375
-0.670755 1.8012 5.12323
-0.68773 1.80326 5.12633
-0.703815 1.80011 5.11549
-0.729813 1.80113 5.11567
-1.65334 1.80175 4.91659
-1.71361 1.79626 4.88113
-1.7226 1.79728 4.88218
-1.73571 1.79408 4.86832
-1.75372 1.79507 4.86644
-1.77466 1.8002 4.87453
-1.7868 1.79594 4.85668
-1.7999 1.79276 4.84382
-1.81789 1.79477 4.84393
-1.82495 1.79266 4.83601
-1.83805 1.78948 4.82316
-1.85703 1.79353 4.82624
-1.86916 1.78929 4.80939
-1.88619 1.78924 4.80552
-1.90812 1.79538 4.81359
-1.92221 1.79321 4.80173
-1.92631 1.78904 4.78982
-1.9453 1.79207 4.79092
-1.95937 1.79094 4.78204
-1.9764 1.79088 4.77717
-1.99344 1.79182 4.77228
-2.0134 1.79591 4.77738
-2.02453 1.79166 4.76052
-2.03257 1.7906 4.75559
-2.05058 1.79258 4.7537
-2.06564 1.79247 4.74582
-2.08069 1.79238 4.73893
-2.09674 1.7923 4.73305
-2.11181 1.79118 4.72418
-2.12883 1.79215 4.72129
-2.13588 1.79105 4.71436
-2.15093 1.79096 4.70747
-2.16797 1.79189 4.70259
-2.18499 1.79286 4.6997
-2.19613 1.7886 4.68185
-2.21807 1.79372 4.68894
-2.23707 1.79674 4.68904
-2.23625 1.7894 4.66614
-2.26114 1.79762 4.6802
-2.27324 1.79442 4.66634
-2.2893 1.79432 4.65846
-2.30534 1.79525 4.65357
-2.32041 1.79413 4.6447
-2.33744 1.79508 4.64081
-2.36053 1.79492 4.62898
-2.37657 1.79585 4.62309
-2.42373 1.79555 4.60145
-2.43879 1.79545 4.59356
-2.45287 1.79431 4.58368
-2.60547 1.79324 4.50484
-2.64671 1.79079 4.47318
-2.65572 1.79077 4.47125
-2.66981 1.79062 4.46035
-2.68782 1.7926 4.45846
-2.69794 1.78937 4.44258
-2.70907 1.78613 4.42571
-2.7261 1.78808 4.42181
-2.73807 1.79115 4.42586
-2.74622 1.78586 4.40599
-2.76425 1.78781 4.4021
-2.78129 1.78974 4.3962
-2.79931 1.79172 4.39431
-2.81339 1.79157 4.38341
-2.81957 1.78523 4.36055
-2.84055 1.78928 4.36265
-2.84066 1.78505 4.34771
-2.8587 1.78699 4.34282
-2.87179 1.78482 4.33094
-2.88783 1.78675 4.32504
-2.89696 1.7825 4.30817
-2.91005 1.78133 4.29628
-2.93301 1.78742 4.30136
-2.94204 1.78837 4.29742
-2.95117 1.78413 4.28055
-2.96129 1.78191 4.26565
-2.98525 1.78799 4.26974
-2.99141 1.7827 4.24987
-3.02154 1.78345 4.23208
-3.02759 1.78237 4.22614
-3.0466 1.78535 4.22424
-3.06068 1.7852 4.21335
-3.0698 1.78197 4.19746
-3.10093 1.78274 4.18068
-3.11301 1.78259 4.16977
-3.13105 1.78453 4.16488
-3.13313 1.78136 4.15394
-3.15414 1.78536 4.15304
-3.1724 1.77887 4.11927
-3.19338 1.7839 4.12035
-3.20845 1.78378 4.11147
-3.22253 1.78364 4.10157
-3.22461 1.78148 4.09062
-3.26882 1.7821 4.06294
-3.29895 1.78387 4.04614
-3.31401 1.78475 4.03724
-3.33711 1.78557 4.0244
-3.40659 1.78168 3.96097
-3.42067 1.78254 3.95106
-3.4619 1.78311 3.92036
3.56031 1.76486 3.79071
3.52358 1.7664 3.82597
3.49472 1.7657 3.8452
3.48978 1.76581 3.85223
3.43609 1.76646 3.89363
3.42519 1.76767 3.9077
3.41328 1.76886 3.91977
3.37039 1.76311 3.93518
3.36354 1.7674 3.95417
3.35062 1.76757 3.96527
3.33972 1.76977 3.97832
3.31974 1.76583 3.98153
3.31076 1.76487 3.98361
3.29683 1.76401 3.99273
3.28795 1.76725 4.00875
3.27605 1.76845 4.02183
3.26313 1.76863 4.03292
3.25224 1.77084 4.04698
3.22821 1.76482 4.04424
3.2172 1.76279 4.04236
3.21338 1.76915 4.0663
3.20248 1.77035 4.07936
3.18047 1.76535 4.0786
3.1716 1.76861 4.09562
3.16375 1.7729 4.11462
3.14274 1.7679 4.11385
3.13577 1.76796 4.11791
3.12488 1.77019 4.13296
3.11096 1.77035 4.14306
3.095 1.76945 4.14919
3.08411 1.77167 4.16325
3.06715 1.76975 4.1684
3.05929 1.77404 4.1874
3.03335 1.77118 4.19564
3.0174 1.77028 4.20177
2.99942 1.76734 4.20495
2.99562 1.77472 4.23088
2.98271 1.77591 4.24296
2.95967 1.76985 4.23822
2.95181 1.77414 4.25722
2.92991 1.77435 4.27038
2.86814 1.77284 4.30087
2.86131 1.77817 4.32285
2.8394 1.77736 4.33503
2.80649 1.77556 4.3473
2.79458 1.77775 4.35936
2.76749 1.76961 4.34869
2.75255 1.76872 4.35581
2.74457 1.76777 4.35889
2.73064 1.76893 4.36898
2.70887 1.77439 4.39907
2.69293 1.77451 4.40618
2.67495 1.77256 4.40935
2.64419 1.77706 4.44152
2.62215 1.772 4.43676
2.61837 1.78042 4.46467
2.60039 1.77848 4.46783
2.58748 1.77966 4.47991
2.56543 1.77459 4.47415
2.55644 1.77361 4.47524
2.54354 1.77581 4.4883
2.52759 1.77491 4.49444
2.51671 1.77816 4.51047
2.49771 1.77517 4.51066
2.47668 1.77013 4.50689
2.46071 1.77022 4.51201
2.4558 1.77238 4.52302
2.44796 1.7787 4.54399
2.42389 1.77158 4.53527
2.41504 1.77687 4.55426
2.40925 1.78529 4.58219
2.39127 1.78333 4.58435
2.3692 1.77723 4.57661
2.35341 1.78364 4.60363
2.33035 1.77754 4.5959
2.31133 1.77352 4.5941
2.29537 1.77362 4.60022
2.28349 1.77685 4.61526
2.26143 1.77075 4.60752
2.25447 1.77183 4.61256
2.23342 1.76677 4.60779
2.1859 1.78073 4.66995
2.16587 1.77668 4.66616
2.14889 1.77574 4.6693
2.14804 1.78202 4.68822
2.13106 1.78108 4.69136
2.11918 1.78432 4.7074
2.0832 1.78038 4.70973
2.06826 1.78151 4.71783
2.05946 1.7889 4.74379
2.04332 1.78064 4.72603
2.02941 1.78283 4.73811
2.0206 1.79019 4.76207
1.99852 1.78406 4.75232
1.98665 1.78832 4.76935
1.97171 1.78845 4.77746
1.94758 1.78022 4.76076
1.94165 1.78237 4.77078
1.92876 1.78659 4.78481
1.91077 1.78461 4.78598
1.89072 1.77954 4.78021
1.88088 1.78586 4.80119
1.86597 1.78803 4.81227
1.84796 1.78503 4.81145
1.84511 1.79131 4.83038
1.82507 1.78725 4.82559
1.80501 1.78316 4.8188
1.7911 1.78534 4.82988
1.77208 1.78232 4.82806
1.75511 1.78139 4.83221
1.74325 1.78667 4.85022
1.73628 1.78773 4.85426
1.71624 1.78367 4.84947
1.70028 1.78376 4.85459
1.68637 1.78595 4.86666
1.66735 1.78292 4.86385
1.65241 1.78405 4.87195
1.63852 1.78826 4.88599
1.62951 1.78625 4.88509
1.60844 1.78114 4.87632
1.59352 1.7833 4.8864
1.58062 1.78651 4.90045
1.56161 1.7845 4.89863
1.54565 1.7846 4.90475
1.53173 1.78676 4.91482
1.51477 1.78684 4.91995
1.50885 1.79101 4.93093
1.48877 1.78488 4.92117
1.47284 1.78702 4.93026
1.45584 1.78502 4.92942
1.43885 1.78406 4.93156
1.42497 1.78831 4.94761
1.41904 1.79144 4.95661
1.40207 1.79152 4.96073
1.38612 1.79162 4.96685
1.36707 1.78754 4.96106
1.3501 1.78761 4.96518
1.33417 1.78974 4.97327
1.32027 1.79295 4.98633
1.30815 1.78673 4.97151
1.29325 1.78994 4.98458
1.27938 1.7952 5.00161
1.25826 1.78798 4.98587
1.24439 1.79224 5.00292
1.22947 1.79541 5.01398
1.21247 1.79442 5.01413
1.20139 1.78927 5.00328
1.18647 1.79244 5.01435
1.16951 1.79253 5.01948
1.15254 1.7926 5.02361
1.13658 1.79369 5.02871
1.1196 1.79374 5.03184
1.10365 1.79484 5.03794
1.08563 1.79281 5.03511
1.07976 1.79807 5.05208
1.06068 1.79293 5.0423
1.04576 1.79611 5.05336
1.02567 1.79094 5.04159
1.01286 1.79831 5.06558
0.994834 1.79628 5.06275
0.975741 1.79111 5.05096
0.966741 1.79012 5.05105
0.951865 1.79537 5.06708
0.935927 1.7975 5.07517
0.915779 1.78923 5.05644
0.898795 1.78927 5.05857
0.884965 1.79561 5.08059
0.867996 1.79668 5.0847
0.858996 1.79569 5.08478
0.843027 1.79676 5.08889
0.823942 1.79161 5.0781
0.808019 1.79477 5.08818
0.792097 1.79793 5.09825
0.774042 1.79384 5.09145
0.757089 1.79594 5.09755
0.748042 1.79286 5.09166
0.732127 1.79603 5.10273
0.714058 1.79191 5.09393
0.69919 1.79817 5.11095
0.680104 1.79303 5.10017
0.666298 1.8014 5.12515
0.646105 1.79205 5.10044
0.639244 1.79832 5.1184
0.622229 1.7963 5.11656
0.605244 1.79635 5.11869
0.588275 1.79742 5.1228
0.570275 1.79643 5.12295
0.55326 1.79541 5.12109
0.536284 1.79647 5.12421
0.529408 1.80171 5.14018
0.510276 1.79447 5.12343
0.49433 1.79659 5.13052
0.476292 1.79453 5.12569
0.459346 1.79665 5.13278
0.443386 1.79873 5.13787
0.425355 1.79668 5.13404
0.408409 1.7988 5.14114
0.399308 1.79361 5.12828
0.382347 1.7947 5.13339
0.365371 1.79576 5.13651
0.348363 1.79476 5.13565
0.331387 1.79581 5.13876
0.314395 1.79584 5.13989
0.305411 1.79688 5.14194
0.28948 1.79902 5.15103
0.271442 1.79696 5.1462
0.254435 1.79696 5.14532
0.237513 1.80012 5.15541
0.220443 1.797 5.14658
0.203444 1.79701 5.14671
0.194537 1.80119 5.15872
0.177467 1.79707 5.1499
0.160398 1.79395 5.14108
0.143429 1.79502 5.14519
0.126608 1.80338 5.1682
0.109492 1.79817 5.1534
0.0914383 1.79508 5.14658
0.0665865 1.80237 5.16566
0.049486 1.7972 5.15287
0.0184987 1.79328 5.02214
-0.00639959 1.79849 5.03525
-0.0233991 1.7985 5.03538
-0.0404451 1.79642 5.02954
-0.0905522 1.79125 5.01599
-0.115504 1.79436 5.02213
-0.149379 1.80062 5.0383
-0.166379 1.80063 5.03843
-0.199478 1.79647 5.02574
-0.224516 1.79541 5.02094
-0.241376 1.80169 5.03898
-0.257499 1.79646 5.02317
-0.308451 1.79959 5.02951
-0.332543 1.79543 5.01775
-0.366549 1.79644 5.01699
-0.400493 1.79957 5.0242
-0.434499 1.80058 5.02344
-0.442537 1.79951 5.01852
-0.475528 1.80055 5.01975
-0.509565 1.7995 5.01503
-0.526549 1.80154 5.01712
-0.541641 1.79737 5.0053
-0.551555 1.80154 5.01631
-0.584585 1.80151 5.01256
-0.601599 1.80149 5.01069
-0.617645 1.80041 5.00482
-0.634643 1.80143 5.00494
-0.691787 1.79719 4.98643
-0.709702 1.80136 4.9975
-0.741824 1.79715 4.9818
-0.799858 1.79912 4.97721
-1.54609 1.7992 4.81681
-1.62433 1.79677 4.78443
-1.64838 1.7967 4.77861
-1.6654 1.79767 4.77573
-1.68047 1.79655 4.76686
-1.7096 1.7933 4.74912
-1.72662 1.79428 4.74723
-1.73562 1.79629 4.74727
-1.74969 1.79415 4.73741
-1.76768 1.79618 4.73851
-1.77884 1.79089 4.71867
-1.79878 1.79601 4.72575
-1.80992 1.79075 4.70791
-1.83087 1.79586 4.71399
-1.83203 1.78856 4.69411
-1.85492 1.79577 4.70717
-1.86606 1.79151 4.68932
-1.88798 1.79768 4.69939
-1.89717 1.79033 4.67557
-1.91417 1.79232 4.67467
-1.92433 1.78604 4.65483
-1.9402 1.79428 4.67083
-1.94838 1.78694 4.647
-1.97227 1.79517 4.66206
-1.98144 1.78886 4.64022
-2.00043 1.79188 4.64132
-2.01352 1.78972 4.62945
-2.02955 1.79065 4.62455
-2.04345 1.79686 4.63757
-2.05361 1.79055 4.61673
-2.07259 1.7946 4.61882
-2.08568 1.79244 4.60795
-2.10172 1.79238 4.60307
-2.11384 1.78915 4.58721
-2.14688 1.79209 4.58141
-2.16996 1.79194 4.57058
-2.18698 1.79291 4.5677
-2.19909 1.78971 4.55383
-2.23413 1.79365 4.54804
-2.25425 1.79142 4.53222
-2.27029 1.79136 4.52734
-2.27944 1.78609 4.50849
-2.29843 1.79012 4.50957
-2.31448 1.79002 4.50269
-2.36963 1.79175 4.48208
-2.43183 1.79341 4.45652
-2.682 1.78629 4.30249
-2.69902 1.78825 4.29959
-2.72716 1.78699 4.28082
-2.73913 1.79006 4.28486
-2.76826 1.78982 4.26708
-2.78035 1.78865 4.25519
-2.7964 1.78957 4.2493
-2.80651 1.78735 4.2344
-2.81664 1.78311 4.21754
-2.83861 1.78919 4.22161
-2.83873 1.78395 4.20569
-2.84885 1.78073 4.19081
-2.88093 1.78358 4.17901
-2.89204 1.78138 4.16512
-2.91698 1.78852 4.17321
-2.92611 1.78527 4.15632
-2.93017 1.78314 4.14738
-2.96424 1.78703 4.13858
-3.00446 1.78562 4.1089
-3.01755 1.78545 4.097
-3.02558 1.78541 4.09406
-3.03766 1.78526 4.08315
-3.05272 1.78515 4.07527
-3.07789 1.78383 4.05247
-3.08998 1.78266 4.04058
-3.11109 1.78247 4.02674
-3.12714 1.78437 4.01983
-3.22375 1.78025 3.93961
-3.29716 1.78049 3.88515
-3.33046 1.77593 3.84646
3.60364 1.75754 3.56846
3.5778 1.75687 3.58967
3.56387 1.75703 3.59977
3.54206 1.75841 3.62492
3.53116 1.75961 3.63798
3.50118 1.75368 3.6413
3.49229 1.75591 3.65633
3.46848 1.75628 3.68051
3.4616 1.75952 3.69652
3.44767 1.75867 3.70564
3.4397 1.75873 3.7097
3.42678 1.7589 3.72079
3.41689 1.76012 3.73485
3.40699 1.76132 3.74791
3.39305 1.76146 3.75701
3.38518 1.76372 3.77404
3.36519 1.75975 3.77525
3.36227 1.7619 3.78524
3.34531 1.76 3.7914
3.32028 1.75396 3.78768
3.32249 1.76237 3.81554
3.30957 1.76253 3.82564
3.29059 1.75859 3.82884
3.27969 1.76079 3.84189
3.2707 1.75882 3.84399
3.2598 1.76102 3.85704
3.24284 1.75811 3.86221
3.23194 1.75931 3.87528
3.22204 1.76153 3.88932
3.21216 1.76375 3.90436
3.19216 1.75978 3.90557
3.18116 1.75778 3.90468
3.17025 1.75898 3.91775
3.16137 1.76221 3.93277
3.14138 1.75824 3.93398
3.13047 1.75944 3.94705
3.1125 1.75651 3.95123
3.1097 1.76388 3.97614
3.08868 1.75887 3.97437
3.08575 1.76102 3.98437
3.08092 1.76735 4.00631
3.05385 1.75923 3.99763
3.047 1.76352 4.01663
3.028 1.75955 4.01783
3.0171 1.76175 4.03088
3.00924 1.76602 4.04888
3.00228 1.7661 4.05393
2.9843 1.76316 4.05711
2.97745 1.76744 4.0761
2.96149 1.76654 4.08223
2.95262 1.7698 4.09926
2.93262 1.76582 4.09946
2.9197 1.76697 4.10955
2.9097 1.76498 4.10965
2.90285 1.76928 4.12964
2.88082 1.76425 4.12688
2.87498 1.76957 4.14785
2.86612 1.77383 4.16486
2.84308 1.76777 4.16012
2.83319 1.77 4.17516
2.82724 1.77109 4.18119
2.81127 1.77018 4.18633
2.79532 1.76828 4.19248
2.78847 1.77358 4.21245
2.77657 1.77578 4.22551
2.75555 1.77077 4.22374
2.73959 1.76985 4.22888
2.72376 1.77419 4.25094
2.71185 1.77537 4.26301
2.6769 1.7715 4.27033
2.66196 1.77162 4.27744
2.64396 1.76865 4.27862
2.63599 1.76871 4.28268
2.62408 1.7699 4.29476
2.60712 1.76898 4.2999
2.59014 1.76704 4.30305
2.56836 1.77249 4.33214
2.54226 1.7643 4.31846
2.54239 1.76956 4.33638
2.50438 1.76258 4.33577
2.48741 1.76165 4.33991
2.47754 1.76489 4.35594
2.44068 1.7652 4.37522
2.42574 1.76533 4.38333
2.33301 1.76293 4.42007
2.33111 1.76713 4.43302
2.31821 1.76933 4.44609
2.30936 1.77461 4.46508
2.29645 1.7768 4.47715
2.28048 1.77487 4.4813
2.26045 1.77083 4.47751
2.25263 1.77717 4.50047
2.24872 1.78135 4.51244
2.22055 1.76905 4.49084
2.21476 1.77745 4.51776
2.19066 1.77029 4.50604
2.17775 1.77248 4.51811
2.16281 1.7726 4.52522
2.15091 1.7758 4.53827
2.13683 1.76966 4.52846
2.13002 1.77803 4.55339
2.10693 1.76987 4.54169
2.093 1.77203 4.55176
2.08112 1.77526 4.5668
2.057 1.76706 4.55211
2.04511 1.77027 4.56615
2.04119 1.77344 4.57713
2.02523 1.77253 4.58227
2.00621 1.76951 4.58046
1.99332 1.77271 4.59351
1.97735 1.77178 4.59764
1.96037 1.77084 4.60078
1.94949 1.77508 4.61681
1.9364 1.76893 4.60599
1.92249 1.7711 4.61707
1.90959 1.77431 4.63012
1.89362 1.77338 4.63425
1.87663 1.7714 4.63541
1.86168 1.77252 4.64251
1.8488 1.77575 4.65756
1.83468 1.76954 4.64276
1.8228 1.77378 4.65878
1.80582 1.77184 4.66194
1.77796 1.77513 4.68011
1.76404 1.77728 4.69018
1.74502 1.77425 4.68737
1.73211 1.77644 4.69943
1.72004 1.77233 4.69159
1.70409 1.77243 4.6977
1.69221 1.77668 4.71373
1.67522 1.7757 4.71488
1.65824 1.77475 4.71702
1.64534 1.77796 4.73107
1.6353 1.7749 4.72619
1.62138 1.77705 4.73627
1.59928 1.77088 4.72352
1.59457 1.78344 4.76138
1.56939 1.77211 4.73773
1.5565 1.77634 4.75277
1.53849 1.77332 4.75095
1.53664 1.78062 4.77086
1.51864 1.77863 4.77102
1.5078 1.78495 4.79201
1.48671 1.77879 4.78026
1.47383 1.78302 4.7953
1.45273 1.77686 4.78355
1.44087 1.78213 4.80156
1.43393 1.78424 4.80858
1.41589 1.78018 4.80378
1.39994 1.7813 4.81088
1.38909 1.7876 4.83087
1.37212 1.78666 4.83401
1.35615 1.78673 4.83813
1.32011 1.78268 4.83346
1.29822 1.78592 4.84858
1.28432 1.78912 4.86164
1.2663 1.78709 4.85881
1.25446 1.79339 4.87881
1.23746 1.79241 4.87895
1.21146 1.78944 4.88019
1.19859 1.79469 4.89621
1.18056 1.79264 4.89238
1.1445 1.78656 4.88574
1.13268 1.79491 4.90871
1.11156 1.78771 4.89397
1.10358 1.78774 4.89603
1.07165 1.78891 4.90625
1.05775 1.79311 4.9193
1.03973 1.79008 4.91648
1.02585 1.79532 4.93151
1.00675 1.78915 4.91974
0.999823 1.79229 4.92875
0.9818 1.79026 4.92591
0.949877 1.79143 4.93614
0.933916 1.79252 4.94124
0.914846 1.7884 4.93245
0.900985 1.79367 4.95048
0.890892 1.7885 4.93863
0.857946 1.78963 4.94586
0.843039 1.79382 4.95791
0.828101 1.79595 4.96599
0.811124 1.796 4.96912
0.795171 1.7971 4.97523
0.784031 1.78985 4.95741
0.769139 1.79406 4.97147
0.751085 1.79097 4.96465
0.737263 1.79832 4.98765
0.720217 1.79625 4.9818
0.685163 1.79117 4.97514
0.670295 1.79743 4.99216
0.661233 1.79432 4.98428
0.644201 1.79127 4.98045
0.611264 1.79342 4.98867
0.593171 1.78825 4.97688
0.579373 1.79765 5.00285
0.568225 1.78937 4.98405
0.554396 1.79771 5.00603
0.535287 1.79152 4.99227
0.52042 1.79778 5.00929
0.502303 1.79157 4.99452
0.486358 1.79369 5.00161
0.469382 1.79474 5.00472
0.461374 1.79373 5.00379
0.443311 1.78963 4.99599
0.427374 1.79276 5.00406
0.410343 1.79071 5.00022
0.39332 1.78968 4.99737
0.37846 1.79596 5.01539
0.360383 1.79182 5.00558
0.345538 1.79913 5.02559
0.336437 1.79394 5.01273
0.320546 1.79916 5.02678
0.303516 1.79711 5.02294
0.286462 1.79402 5.01611
0.269454 1.79302 5.01525
0.252486 1.79509 5.01935
0.226362 1.78788 5.00365
0.193416 1.79 5.01087
0.177525 1.79522 5.02491
0.161627 1.80042 5.03796
0.143511 1.79522 5.02317
0.127519 1.79524 5.02429
0.101466 1.79216 5.01753
0.0685983 1.79843 5.03469
0.0516144 1.79948 5.0368
0.0293972 1.78911 4.8761
0.0212656 1.78286 4.85925
0.00425042 1.78185 4.85739
-0.011633 1.78708 4.87244
-0.0276476 1.78706 4.87056
-0.0445775 1.79021 4.87964
-0.0606781 1.78503 4.86684
-0.0766851 1.78502 4.86596
-0.0847238 1.78296 4.86105
-0.10163 1.78814 4.8731
-0.117598 1.79022 4.87719
-0.132753 1.78293 4.85741
-0.149682 1.78608 4.86649
-0.165791 1.78088 4.85269
-0.18265 1.78816 4.87071
-0.190634 1.78919 4.87276
-0.206712 1.78506 4.86294
-0.222672 1.78714 4.86803
-0.238795 1.78192 4.85222
-0.255717 1.78608 4.86229
-0.270779 1.78297 4.85445
-0.2877 1.78713 4.86452
-0.304653 1.79023 4.8706
-0.312699 1.78815 4.86469
-0.328722 1.78712 4.86182
-0.344768 1.78504 4.85598
-0.360798 1.78499 4.8521
-0.377689 1.79021 4.86615
-0.393742 1.78812 4.8593
-0.40978 1.78706 4.85443
-0.416811 1.785 4.85052
-0.431911 1.78082 4.83769
-0.448879 1.78289 4.84179
-0.466746 1.79016 4.85882
-0.484668 1.79432 4.86889
-0.496931 1.78283 4.83515
-0.513899 1.7849 4.83925
-0.522844 1.78701 4.84629
-0.538843 1.78802 4.84639
-0.554889 1.78694 4.84053
-0.569997 1.78175 4.82672
-0.586957 1.78483 4.8318
-0.602987 1.78378 4.82794
-0.61994 1.78689 4.83402
-0.626978 1.78482 4.8291
-0.643977 1.78583 4.82921
-0.659984 1.78683 4.82832
-0.67603 1.78475 4.82247
-0.692029 1.78576 4.82258
-0.70712 1.78259 4.81074
-0.72312 1.78261 4.81086
-0.732057 1.78673 4.81886
-0.747134 1.78359 4.80902
-0.763179 1.78252 4.80316
-0.780155 1.78457 4.80626
-0.7971 1.78769 4.81334
-0.815982 1.79492 4.82838
-0.829144 1.78762 4.80758
-0.83812 1.78967 4.81062
-0.853189 1.78655 4.80178
-0.87018 1.78858 4.80287
-0.884257 1.78544 4.79303
-0.900279 1.78541 4.79015
-0.917285 1.78641 4.78926
-0.935222 1.79054 4.79733
-0.952205 1.79258 4.79943
-0.957329 1.78635 4.78356
-0.977211 1.79358 4.79861
-0.991287 1.79144 4.78874
-1.00443 1.78519 4.77093
-1.02528 1.79348 4.78997
-1.04033 1.79239 4.7831
-1.04931 1.79444 4.78613
-1.06533 1.79441 4.78326
-1.0804 1.79229 4.7744
-1.12942 1.79526 4.77072
-1.16851 1.79311 4.75905
-1.21755 1.79608 4.75437
-1.30473 1.79478 4.73105
-1.35084 1.7946 4.71639
-1.36883 1.79662 4.7175
-1.3749 1.79349 4.70859
-1.40498 1.79235 4.69783
-1.42394 1.79644 4.70292
-1.43216 1.78703 4.67511
-1.46812 1.79213 4.68031
-1.47419 1.78999 4.67039
-1.48631 1.78478 4.65555
-1.50721 1.79198 4.6686
-1.5164 1.78462 4.64378
-1.53926 1.79289 4.66083
-1.5504 1.78763 4.64299
-1.56642 1.7886 4.6401
-1.57249 1.78648 4.63217
-1.58461 1.78226 4.61632
-1.61176 1.77798 4.59659
-1.62779 1.77793 4.59271
-1.64186 1.77681 4.58383
-1.6579 1.77675 4.57895
-1.66493 1.77569 4.57502
-1.68192 1.77771 4.57512
-1.69893 1.7797 4.57422
-1.71398 1.77961 4.56733
-1.74603 1.78154 4.56154
-1.75519 1.77424 4.54072
-1.76517 1.77728 4.54275
-1.78021 1.77721 4.53786
-1.79917 1.7813 4.54294
-1.82633 1.77701 4.52221
-1.8574 1.77789 4.51243
-1.88243 1.77984 4.50859
-1.91349 1.78075 4.50081
-1.93573 1.77329 4.46908
-1.97074 1.77729 4.46729
-2.13525 1.7774 4.40051
-2.18152 1.7719 4.36494
-2.20051 1.77593 4.36602
-2.24369 1.77462 4.34336
-2.2538 1.77141 4.32849
-2.26773 1.77655 4.33752
-2.28079 1.77644 4.32962
-2.3047 1.78362 4.34069
-2.30893 1.77419 4.31186
-2.32889 1.77927 4.31593
-2.33508 1.77192 4.29209
-2.35506 1.77596 4.29418
-2.36701 1.78006 4.30021
-2.38698 1.78512 4.30328
-2.38824 1.77363 4.27046
-2.41018 1.77976 4.27853
-2.41931 1.7755 4.26066
-2.44126 1.78262 4.26772
-2.46025 1.78565 4.26882
-2.46433 1.78249 4.2579
-2.46951 1.77514 4.23404
-2.50035 1.78847 4.25508
-2.50158 1.77803 4.22524
-2.52255 1.78309 4.22832
-2.53661 1.78298 4.22043
-2.55167 1.78389 4.21353
-2.55093 1.77239 4.17969
-2.56584 1.77856 4.19071
-2.57892 1.77742 4.18083
-2.58904 1.77419 4.16495
-2.59718 1.76893 4.14709
-2.6211 1.77708 4.15615
-2.62629 1.76973 4.13229
-2.64219 1.77692 4.14431
-2.64835 1.77161 4.12343
-2.66934 1.77566 4.12553
-2.67648 1.77138 4.10664
-2.69253 1.7723 4.10075
-2.70263 1.77012 4.08785
-2.71965 1.77207 4.08395
-2.73779 1.76982 4.06612
-2.75678 1.77385 4.0672
-2.76294 1.76754 4.04634
-2.77206 1.76533 4.03144
-2.78908 1.76728 4.02754
-2.82017 1.77012 4.01573
-2.83215 1.77318 4.01877
-2.83928 1.76892 4.00089
-2.85039 1.76672 3.987
-2.8684 1.76971 3.98609
-2.90268 1.76519 3.94941
-2.91959 1.77237 3.96044
-2.92278 1.765 3.93557
-2.93387 1.76383 3.92367
-2.94991 1.76577 3.91876
-2.97903 1.76655 3.90296
-2.99407 1.76847 3.89705
-2.99616 1.76531 3.88611
-3.01714 1.77034 3.88719
-3.02823 1.76817 3.87531
-3.04032 1.76802 3.8644
-3.06032 1.77202 3.86349
-3.0734 1.77188 3.85359
-3.07162 1.76245 3.82471
-3.08557 1.76755 3.83074
-3.09964 1.76742 3.82185
-3.10876 1.76419 3.80596
-3.12282 1.76509 3.79805
-3.12895 1.76184 3.78115
-3.14797 1.76481 3.77825
-3.16203 1.7657 3.77034
-3.17204 1.76769 3.76938
-3.18313 1.76652 3.75748
-3.18927 1.76226 3.73959
-3.20728 1.76623 3.73667
-3.21938 1.76506 3.72477
-3.23145 1.76492 3.71486
-3.24552 1.7658 3.70596
-3.25056 1.76471 3.70001
-3.25472 1.75941 3.67912
-3.2787 1.76547 3.68221
-3.29078 1.76531 3.6713
-3.31375 1.77137 3.67438
-3.32386 1.77017 3.66047
-3.33198 1.76694 3.64458
-3.34496 1.771 3.64762
-3.35505 1.76981 3.63471
-3.36614 1.76864 3.62281
-3.37526 1.76643 3.60791
-3.39131 1.76833 3.601
-3.40338 1.7682 3.59109
-3.41249 1.76699 3.57718
-3.43647 1.77304 3.57927
-3.42963 1.76574 3.55932
-3.45063 1.77074 3.55841
-3.45874 1.76852 3.5435
-3.47479 1.77043 3.53659
-3.48589 1.76926 3.52469
-3.49797 1.76911 3.51378
-3.51203 1.771 3.50586
-3.52204 1.77298 3.5039
-3.52619 1.7687 3.485
-3.54025 1.76958 3.47609
-3.55433 1.77044 3.46618
-3.55946 1.76618 3.44828
-3.59553 1.77307 3.43945
-3.60769 1.77075 3.41757
-3.6168 1.76855 3.40367
-3.63483 1.77249 3.39875
-3.65702 1.77114 3.37393
3.69449 1.75225 3.28281
3.64388 1.75306 3.33519
3.62206 1.75443 3.35934
3.59822 1.75376 3.38053
3.59227 1.75385 3.38657
3.56641 1.75315 3.40578
3.54945 1.75025 3.41195
3.5456 1.75454 3.43092
3.52763 1.75161 3.4351
3.51673 1.75281 3.44817
3.51984 1.75803 3.46307
3.50086 1.75307 3.46529
3.48491 1.75119 3.47243
3.47198 1.75135 3.48253
3.46006 1.7515 3.49262
3.44309 1.74859 3.49779
3.43623 1.75185 3.5148
3.43128 1.75195 3.52183
3.40927 1.74696 3.52107
3.40038 1.74918 3.53611
3.38644 1.74831 3.54423
3.38159 1.7526 3.5632
3.36361 1.74865 3.5664
3.35068 1.74881 3.57649
3.33674 1.74794 3.58461
3.34088 1.7542 3.60249
3.32291 1.75126 3.60567
3.30493 1.74732 3.60887
3.30109 1.75263 3.62982
3.28211 1.74969 3.63301
3.26918 1.74883 3.64212
3.25524 1.74796 3.65024
3.25029 1.74907 3.65726
3.23433 1.74717 3.66341
3.23453 1.75455 3.6893
3.21857 1.75264 3.69445
3.20362 1.75176 3.70158
3.19474 1.75398 3.71661
3.18373 1.75098 3.71574
3.15383 1.74821 3.73001
3.14899 1.75351 3.74997
3.131 1.75055 3.75215
3.11909 1.75172 3.76322
3.10616 1.75188 3.77332
3.09222 1.75101 3.78144
3.07637 1.7533 3.80053
3.05536 1.7483 3.79976
3.0495 1.75259 3.81874
3.03657 1.75273 3.82784
3.02162 1.75184 3.83496
3.01678 1.75716 3.85593
3.00981 1.75721 3.85898
2.9888 1.75221 3.85821
2.97283 1.75029 3.86336
2.96496 1.75355 3.88037
2.95304 1.75471 3.89045
2.93708 1.75381 3.89658
2.93023 1.75809 3.91557
2.91517 1.75199 3.90777
2.91134 1.75833 3.93071
2.8893 1.75227 3.92597
2.86446 1.7546 3.94712
2.84952 1.75372 3.95425
2.83063 1.75495 3.96938
2.82174 1.75718 3.98441
2.80174 1.75319 3.98462
2.79083 1.75537 3.99567
2.78196 1.75862 4.01269
2.76092 1.75258 4.00894
2.74598 1.75269 4.01605
2.72126 1.76026 4.05313
2.71035 1.76144 4.0652
2.68629 1.75434 4.05748
2.66348 1.75873 4.08259
2.65549 1.75675 4.08368
2.64053 1.75685 4.0898
2.62761 1.75701 4.09989
2.60682 1.76244 4.12797
2.57388 1.75958 4.13626
2.573 1.7638 4.15121
2.53599 1.75782 4.15058
2.47921 1.7573 4.18102
2.46528 1.75743 4.18912
2.45045 1.76278 4.21216
2.43144 1.75878 4.21136
2.41853 1.76095 4.22243
2.4056 1.7611 4.23152
2.39165 1.76121 4.23863
2.37671 1.76134 4.24674
2.26316 1.7633 4.30657
2.23223 1.76247 4.31682
1.01538 1.77347 4.73888
0.983412 1.77255 4.74314
0.977513 1.77675 4.75612
0.874667 1.77812 4.77688
0.841659 1.77613 4.77616
0.792674 1.77419 4.77856
0.778782 1.77841 4.7926
0.753774 1.77641 4.79182
0.706899 1.78068 4.80811
0.68879 1.77449 4.79434
0.672806 1.77453 4.79646
0.656836 1.7746 4.80058
0.649899 1.77772 4.80858
0.617914 1.77678 4.81084
0.600868 1.7747 4.805
0.585985 1.77993 4.82003
0.569984 1.77895 4.82017
0.528969 1.77695 4.81851
0.496977 1.77598 4.81976
0.441063 1.77819 4.83115
0.409079 1.77824 4.83339
0.392064 1.77722 4.83154
0.376072 1.77725 4.83266
0.344157 1.78044 4.84385
0.337189 1.7825 4.84787
0.271127 1.77743 4.84045
0.255167 1.77952 4.84554
0.239229 1.78265 4.85361
0.215136 1.77749 4.84187
0.19923 1.78167 4.85393
0.150168 1.77759 4.84636
0.134169 1.7776 4.84648
0.118154 1.77759 4.8446
0.110317 1.7849 4.86555
0.0932322 1.78075 4.85474
0.0772019 1.7797 4.85087
0.0613498 1.787 4.86989
0.0452336 1.78079 4.8551
-0.0318856 1.78064 4.70666
-0.0549935 1.77545 4.69291
-0.0869768 1.7765 4.69514
-0.102015 1.77444 4.69028
-0.134029 1.77443 4.68852
-0.14899 1.77651 4.6936
-0.156967 1.77756 4.69665
-0.173043 1.77443 4.68682
-0.220042 1.77446 4.68717
-0.251909 1.78174 4.7043
-0.274993 1.77859 4.69352
-0.291031 1.77653 4.68867
-0.306092 1.77442 4.68082
-0.321099 1.77442 4.67993
-0.35309 1.77546 4.68116
-0.361082 1.77648 4.6822
-0.377043 1.77856 4.68729
-0.393042 1.77957 4.6874
-0.409049 1.77957 4.68652
-0.425033 1.78061 4.68862
-0.439156 1.77439 4.67282
-0.455109 1.77749 4.67889
-0.4631 1.77851 4.67994
-0.478146 1.77643 4.67408
-0.494169 1.7764 4.6712
-0.511082 1.78157 4.68226
-0.526136 1.77948 4.6754
-0.540221 1.77533 4.66457
-0.558103 1.78156 4.67961
-0.580211 1.77737 4.66584
-0.595241 1.77632 4.66196
-0.611224 1.77836 4.66406
-0.628154 1.78251 4.67312
-0.6423 1.77624 4.65432
-0.6583 1.77625 4.65444
-0.674275 1.7793 4.65752
-0.681329 1.77621 4.65061
-0.697297 1.77928 4.65469
-0.713334 1.77821 4.64983
-0.727404 1.77509 4.64098
-0.743395 1.77612 4.64208
-0.75937 1.77917 4.64516
-0.767377 1.77917 4.64422
-0.782454 1.77603 4.63438
-0.7965 1.77395 4.62851
-0.814421 1.77911 4.63857
-0.829482 1.777 4.63072
-0.844489 1.778 4.62981
-0.861472 1.78004 4.63191
-0.884486 1.78103 4.63007
-0.9146 1.77683 4.61536
-0.947544 1.78196 4.62253
-0.979549 1.78396 4.62174
-0.984658 1.77876 4.60785
-0.999687 1.77871 4.60397
-1.01472 1.77865 4.59908
-1.03363 1.78384 4.61115
-1.04675 1.77963 4.59631
-1.06274 1.78064 4.59641
-1.0778 1.77955 4.58954
-1.08868 1.78578 4.60453
-1.10566 1.78782 4.60663
-1.12262 1.7919 4.6117
-1.13669 1.78978 4.60284
-1.15271 1.78975 4.59996
-1.18279 1.78862 4.5902
-1.19174 1.79172 4.59622
-1.22279 1.79265 4.59044
-1.28588 1.7935 4.5779
-1.30794 1.7924 4.57008
-1.32103 1.79023 4.55821
-1.33901 1.79229 4.56132
-1.39115 1.79105 4.54273
-1.40814 1.79308 4.54382
-1.42024 1.78989 4.53096
-1.43236 1.78466 4.51513
-1.44838 1.78565 4.51323
-1.46438 1.78664 4.51234
-1.47748 1.78447 4.50047
-1.48257 1.7803 4.48857
-1.49759 1.78127 4.48567
-1.51067 1.77913 4.47579
-1.52377 1.77493 4.46195
-1.53976 1.77696 4.46304
-1.5548 1.7769 4.45816
-1.56691 1.7737 4.44429
-1.58486 1.7778 4.45037
-1.58995 1.77363 4.43847
-1.60596 1.77562 4.43756
-1.621 1.77554 4.43167
-1.63212 1.77133 4.41682
-1.64716 1.77125 4.41093
-1.66317 1.77225 4.41004
-1.67723 1.77114 4.40216
-1.70124 1.77313 4.40031
-1.71823 1.77616 4.40139
-1.75747 1.77073 4.37076
-1.77953 1.77062 4.36293
-1.82365 1.77042 4.34726
-1.86877 1.77121 4.33159
-1.91795 1.76989 4.30798
-1.94801 1.77078 4.29919
-1.96811 1.76961 4.28636
-1.98609 1.77265 4.28845
-1.99916 1.77152 4.27956
-2.0263 1.76928 4.2618
-2.05636 1.77118 4.25399
-2.06439 1.77113 4.25005
-2.08039 1.77312 4.24914
-2.09445 1.77202 4.24127
-2.1085 1.77192 4.23437
-2.12058 1.77078 4.22448
-2.14153 1.77589 4.23056
-2.15853 1.7789 4.23064
-2.15671 1.77056 4.20775
-2.17175 1.77048 4.20186
-2.19072 1.77555 4.20593
-2.20477 1.77546 4.19904
-2.21391 1.7702 4.18118
-2.22992 1.77318 4.17926
-2.24201 1.77001 4.1674
-2.25607 1.76992 4.1605
-2.27097 1.77711 4.17251
-2.27419 1.7677 4.14467
-2.29022 1.76965 4.14076
-2.31313 1.77783 4.15181
-2.3193 1.77051 4.12997
-2.33533 1.77246 4.12606
-2.34728 1.77656 4.13209
-2.3574 1.77233 4.11622
-2.37637 1.77738 4.11929
-2.39141 1.77832 4.11439
-2.40054 1.77408 4.09752
-2.4146 1.77397 4.08963
-2.43555 1.77907 4.09571
-2.43864 1.77691 4.08476
-2.4517 1.7768 4.07686
-2.46871 1.77878 4.07496
-2.47586 1.77349 4.05509
-2.49484 1.77754 4.05717
-2.52591 1.78043 4.04836
-2.53997 1.78032 4.04047
-2.55094 1.78339 4.04451
-2.5502 1.77188 4.01067
-2.56425 1.77279 4.00376
-2.58226 1.77577 4.00185
-2.5894 1.77053 3.98498
-2.60445 1.77143 3.97808
-2.61948 1.77237 3.97318
-2.62257 1.77021 3.96223
-2.63958 1.77219 3.96033
-2.65659 1.77517 3.95841
-2.66274 1.7699 3.93954
-2.67878 1.77182 3.93363
-2.69284 1.77173 3.92673
-2.69997 1.76747 3.90885
-2.71293 1.77156 3.91489
-2.72106 1.76832 3.89799
-2.73708 1.77027 3.89408
-2.75015 1.77015 3.88518
-2.76618 1.7721 3.88128
-2.77134 1.76579 3.8604
-2.79033 1.77082 3.86147
-2.79342 1.76766 3.85054
-2.80747 1.76857 3.84363
-2.83239 1.77672 3.8527
-2.83162 1.76729 3.82383
-2.84865 1.76924 3.81993
-2.86071 1.76912 3.81102
-2.8728 1.76796 3.80013
-2.87784 1.76788 3.79417
-2.89289 1.7688 3.78827
-2.90398 1.76763 3.77637
-2.91804 1.76752 3.76847
-2.93703 1.77254 3.76854
-2.94219 1.76724 3.74865
-2.95921 1.76921 3.74575
-2.97317 1.7743 3.75078
-2.98128 1.77208 3.73588
-2.98841 1.76783 3.71899
-3.00445 1.76977 3.71408
-3.01653 1.76862 3.70319
-3.0286 1.76848 3.69328
-3.04069 1.76832 3.68237
-3.04771 1.76828 3.67942
-3.06276 1.77019 3.67251
-3.0778 1.77213 3.66759
-3.08988 1.77097 3.6567
-3.09899 1.76876 3.6418
-3.118 1.77276 3.64088
-3.12413 1.76951 3.62397
-3.13918 1.77042 3.61707
-3.14324 1.7693 3.60912
-3.15729 1.77021 3.60221
-3.1664 1.76801 3.58831
-3.18541 1.77199 3.58639
-3.19055 1.76773 3.56849
-3.20857 1.7717 3.56557
-3.21569 1.76847 3.54967
-3.23362 1.77561 3.5587
-3.23777 1.77032 3.53881
-3.25084 1.7712 3.52989
-3.2659 1.77209 3.52199
-3.26905 1.76679 3.50209
-3.29302 1.77387 3.50617
-3.30211 1.77268 3.49325
-3.30816 1.7726 3.4873
-3.32023 1.77246 3.47739
-3.33232 1.77231 3.46648
-3.34538 1.77218 3.45758
-3.35845 1.77306 3.44866
-3.36557 1.76983 3.43276
-3.38567 1.77165 3.41989
-3.40883 1.77134 3.39806
-3.44307 1.77089 3.36632
3.60354 1.75145 3.15749
3.56584 1.75206 3.19677
3.54199 1.75139 3.21797
3.52604 1.74849 3.22413
3.52016 1.75173 3.24013
3.50815 1.74772 3.23928
3.49925 1.74992 3.25231
3.49338 1.75318 3.26931
3.47339 1.74821 3.27054
3.45945 1.74633 3.27867
3.45661 1.75165 3.29962
3.44165 1.74975 3.30576
3.42771 1.74888 3.31388
3.42376 1.74898 3.32091
3.41185 1.74915 3.332
3.3979 1.74827 3.33911
3.39606 1.75358 3.36005
3.37405 1.74758 3.35931
3.36213 1.74775 3.3704
