2.93663 1.75961 4.21746
2.9379 1.77013 4.2523
2.91789 1.76613 4.25151
2.87903 1.76442 4.26983
2.86509 1.76457 4.27894
2.84915 1.76468 4.28606
2.83926 1.76691 4.3011
2.81421 1.76083 4.29438
2.81331 1.76504 4.30832
2.80041 1.76622 4.3204
2.78444 1.76531 4.32554
2.76951 1.76545 4.33465
2.75254 1.76352 4.33881
2.74166 1.76575 4.35386
2.72571 1.76587 4.36098
2.72076 1.76698 4.368
2.69874 1.76195 4.36524
2.6848 1.76208 4.37334
2.67087 1.76324 4.38343
2.65695 1.76439 4.39352
2.63999 1.76248 4.39868
2.62301 1.76054 4.40184
2.61808 1.76267 4.41084
2.60011 1.76075 4.41501
2.58515 1.76085 4.42112
2.57225 1.76305 4.43419
2.55528 1.7611 4.43734
2.52946 1.76448 4.46149
2.51234 1.75727 4.44672
2.50552 1.76361 4.46969
2.49465 1.76687 4.48672
2.47665 1.76389 4.4869
2.46172 1.76505 4.497
2.42982 1.76425 4.50925
2.42387 1.76535 4.51628
2.39978 1.75821 4.50557
2.34204 1.76076 4.53997
2.34032 1.77229 4.57582
2.31929 1.76725 4.57205
2.31131 1.7673 4.57511
2.30247 1.77361 4.59608
2.28549 1.77165 4.59824
2.27055 1.7718 4.60735
2.2607 1.77709 4.62635
2.23763 1.77097 4.61761
2.22167 1.77006 4.62275
2.22183 1.77737 4.64364
2.20281 1.77435 4.64183
2.18484 1.77242 4.646
2.17294 1.77562 4.65904
2.15394 1.77264 4.65923
2.13595 1.77067 4.66039
2.12916 1.77909 4.68832
2.11099 1.76876 4.66561
2.10115 1.77508 4.68659
2.08519 1.77518 4.69271
2.07129 1.77736 4.70479
2.05022 1.77126 4.69703
2.04039 1.77759 4.71902
2.02136 1.77355 4.71522
2.00726 1.76737 4.70242
2.0005 1.77783 4.73332
1.98454 1.77793 4.73944
1.96043 1.76973 4.72474
1.95058 1.77503 4.74473
1.93361 1.7741 4.74888
1.91562 1.77213 4.75004
1.9107 1.77528 4.76003
1.89167 1.77225 4.75722
1.87163 1.76819 4.75243
1.86079 1.7735 4.77244
1.8438 1.77254 4.77458
1.82683 1.77161 4.77872
1.81088 1.77171 4.78484
1.79797 1.7749 4.79689
1.78897 1.7729 4.79699
1.77813 1.77922 4.81798
1.75809 1.77516 4.81319
1.74213 1.77525 4.81831
1.73334 1.78365 4.84526
1.70918 1.77438 4.82557
1.69017 1.77136 4.82376
1.68834 1.7797 4.84666
1.67033 1.77669 4.84484
1.65131 1.77367 4.84302
1.64046 1.77996 4.86201
1.62143 1.77591 4.85822
1.60445 1.77597 4.86135
1.5844 1.7719 4.85556
1.57951 1.77611 4.86953
1.5625 1.77411 4.86869
1.55068 1.78045 4.89169
1.53266 1.77842 4.88885
1.51772 1.77957 4.89795
1.50074 1.77861 4.90009
1.48686 1.78286 4.91614
1.47784 1.78082 4.91323
1.45882 1.77879 4.91041
1.44285 1.77886 4.91453
1.4269 1.77897 4.92165
1.41199 1.78215 4.93271
1.39191 1.77701 4.92294
1.378 1.7792 4.93501
1.37208 1.78337 4.946
1.3551 1.78241 4.94814
1.33709 1.78041 4.94731
1.32216 1.78255 4.95639
1.30415 1.78055 4.95555
1.28718 1.78062 4.95968
1.27328 1.78383 4.97274
1.26634 1.78593 4.97976
1.24833 1.78393 4.97893
1.23343 1.78814 4.99198
1.21541 1.78612 4.99014
1.19737 1.78204 4.98434
1.18452 1.78835 5.00434
1.16445 1.78423 4.99556
1.15544 1.78221 4.99365
1.13949 1.78432 5.00074
1.12354 1.78442 5.00686
1.10758 1.78551 5.01197
1.08854 1.78246 5.00816
1.07361 1.78461 5.01724
1.05769 1.78777 5.02731
1.04866 1.78571 5.02341
1.03064 1.7837 5.02158
1.01364 1.7827 5.02072
0.99769 1.78381 5.02782
0.980729 1.7849 5.03294
0.964767 1.78498 5.03806
0.949899 1.79124 5.05508
0.940868 1.78919 5.05117
0.92179 1.78406 5.04139
0.906914 1.78931 5.05743
0.889922 1.78833 5.05857
0.872929 1.78736 5.05971
0.853813 1.78115 5.04495
0.838953 1.78743 5.06297
0.82889 1.78332 5.05511
0.813976 1.78749 5.06616
0.797014 1.78758 5.07129
0.778976 1.78552 5.06645
0.763038 1.78765 5.07454
0.747092 1.78976 5.08163
0.729053 1.7867 5.07681
0.713099 1.7878 5.08292
0.706239 1.79407 5.10088
0.687138 1.7889 5.0881
0.671216 1.79205 5.09817
0.6542 1.79004 5.09633
0.636123 1.7859 5.08652
0.618108 1.78489 5.08467
0.602201 1.78808 5.09675
0.595309 1.79329 5.11073
0.576162 1.78602 5.09197
0.560217 1.78814 5.09906
0.542155 1.78403 5.09126
0.52624 1.78821 5.10232
0.508225 1.78619 5.10049
0.492264 1.78827 5.10558
0.48321 1.78518 5.09869
0.466295 1.78835 5.10977
0.449303 1.78838 5.1109
0.432288 1.78736 5.10904
0.415342 1.78948 5.11614
0.39828 1.78637 5.10831
0.382389 1.79059 5.12237
0.373366 1.78955 5.11945
0.356397 1.79062 5.12357
0.339452 1.79274 5.13066
0.322374 1.78861 5.12085
0.304367 1.7886 5.11999
0.288445 1.79176 5.13006
0.270376 1.78864 5.12124
0.262383 1.78866 5.1223
0.245477 1.79285 5.13437
0.228438 1.79079 5.12953
0.211454 1.79083 5.13166
0.194447 1.79083 5.13078
0.177548 1.79504 5.14385
0.160463 1.79089 5.13304
0.151603 1.79716 5.15102
0.134441 1.78986 5.13025
0.117518 1.79302 5.14033
0.100534 1.79406 5.14245
0.0835192 1.79305 5.14059
0.066551 1.79512 5.14469
0.0495666 1.79516 5.14681
0.0266412 1.79435 5.02398
0.0105331 1.78916 5.01018
-0.00642002 1.79126 5.01628
-0.0234503 1.79021 5.01242
-0.0485274 1.78608 5.00267
-0.0653794 1.79338 5.02169
-0.0815026 1.78815 5.00589
-0.115416 1.79234 5.01708
-0.140493 1.78821 5.00733
-0.173476 1.79026 5.00955
-0.207367 1.79549 5.02373
-0.224404 1.79443 5.01887
-0.240396 1.79546 5.01998
-0.282379 1.79652 5.02228
-0.299432 1.79443 5.01544
-0.316424 1.79546 5.01655
-0.332447 1.79442 5.01369
-0.349454 1.79442 5.01281
-0.374429 1.79648 5.01597
-0.390553 1.79026 5.00018
-0.441465 1.79646 5.01148
-0.456596 1.79022 4.99468
-0.474517 1.79538 5.00474
-0.482524 1.79537 5.0038
-0.500493 1.79744 5.00791
-0.532576 1.7943 4.99719
-0.549607 1.79326 4.99334
-0.566543 1.79739 5.0014
-0.58262 1.79425 4.99157
-0.590651 1.7922 4.98766
-0.608565 1.79737 4.99872
-0.67467 1.79521 4.98525
-1.42374 1.79761 4.84584
-1.45387 1.79437 4.82811
-1.49591 1.79732 4.82338
-1.5411 1.79299 4.79878
-1.55908 1.79503 4.80089
-1.56611 1.79497 4.79694
-1.57825 1.78972 4.77911
-1.59918 1.79487 4.78819
-1.61327 1.7927 4.77633
-1.63028 1.79368 4.77444
-1.64436 1.79154 4.76458
-1.66136 1.79356 4.76468
-1.66352 1.78625 4.7438
-1.68542 1.79345 4.75686
-1.69853 1.78924 4.74202
-1.7136 1.78812 4.73314
-1.72669 1.78495 4.72129
-1.75054 1.79525 4.74032
-1.75975 1.78686 4.71351
-1.77362 1.79412 4.73051
-1.78379 1.7878 4.70867
-1.80472 1.79395 4.71774
-1.81685 1.78871 4.70091
-1.83093 1.78655 4.69005
-1.845 1.78543 4.68117
-1.86593 1.79156 4.68924
-1.87297 1.7905 4.6843
-1.89098 1.79249 4.68341
-1.90015 1.78617 4.66157
-1.92305 1.79337 4.67364
-1.93124 1.78602 4.6498
-1.95219 1.79112 4.65589
-1.96723 1.79105 4.65
-1.97722 1.79308 4.65205
-1.99031 1.79091 4.64018
-2.01126 1.79502 4.64627
-2.01847 1.78662 4.61945
-2.03842 1.79173 4.62552
-2.05151 1.78956 4.61365
-2.07148 1.79363 4.61774
-2.08555 1.79249 4.60786
-2.0975 1.79661 4.61489
-2.10667 1.79027 4.59205
-2.13777 1.7901 4.57929
-2.15871 1.79522 4.58637
-2.16886 1.78995 4.56752
-2.18883 1.79401 4.57062
-2.19193 1.79083 4.55868
-2.25707 1.79358 4.53913
-2.28817 1.79441 4.52635
-2.3132 1.79636 4.52151
-2.4718 1.79529 4.44271
-2.48193 1.79204 4.42583
-2.49093 1.79305 4.42589
-2.49712 1.78568 4.40104
-2.52007 1.7918 4.40812
-2.53513 1.7917 4.40024
-2.55017 1.79262 4.39433
-2.56425 1.79148 4.38446
-2.56945 1.7841 4.3586
-2.57943 1.78714 4.36063
-2.59449 1.78703 4.35275
-2.61054 1.78694 4.34587
-2.62756 1.78891 4.34296
-2.64163 1.78878 4.33407
-2.65077 1.78452 4.3162
-2.6678 1.78646 4.3113
-2.6868 1.78947 4.3114
-2.69088 1.78733 4.30146
-2.70298 1.78515 4.28858
-2.72395 1.79021 4.29166
-2.72716 1.78181 4.26481
-2.74123 1.78067 4.25493
-2.76122 1.7857 4.25601
-2.77431 1.78455 4.24512
-2.78035 1.78346 4.23918
-2.80429 1.7906 4.24726
-2.7996 1.777 4.20742
-2.81762 1.77896 4.20353
-2.85046 1.79229 4.22458
-2.84774 1.77976 4.18874
-2.87069 1.78686 4.19481
-2.88266 1.78991 4.19785
-2.88093 1.7784 4.163
-2.90487 1.78552 4.17008
-2.92585 1.79056 4.17216
-2.92609 1.7801 4.14132
-2.93917 1.77996 4.13142
-2.95917 1.78396 4.13051
-2.97016 1.78599 4.13156
-2.98027 1.78379 4.11767
-2.9894 1.78054 4.10078
-3.00644 1.78248 4.09588
-3.01852 1.78133 4.08499
-3.04149 1.78739 4.08807
-3.04469 1.78002 4.0632
-3.05568 1.78304 4.06424
-3.07173 1.78395 4.05734
-3.0749 1.77761 4.03446
-3.09392 1.7806 4.03256
-3.11096 1.78252 4.02666
-3.11811 1.77824 4.00777
-3.13909 1.78327 4.00886
-3.15207 1.78633 4.01191
-3.15625 1.78099 3.98902
-3.17328 1.78293 3.98412
-3.1923 1.7859 3.98121
-3.18559 1.77335 3.94434
-3.21252 1.78148 3.95243
-3.22659 1.78236 3.94352
-3.23867 1.78121 3.93263
-3.24373 1.78009 3.92468
-3.2677 1.78717 3.92876
-3.28375 1.78807 3.92186
-3.2899 1.78378 3.90197
-3.32299 1.78763 3.89016
-3.33508 1.78646 3.87827
-3.33914 1.78535 3.87031
-3.34529 1.78107 3.85142
-3.35639 1.77987 3.83752
-3.37244 1.78179 3.83161
-3.39047 1.78373 3.82672
-3.39761 1.78047 3.80882
-3.42169 1.78332 3.79795
-3.43873 1.78526 3.79305
-3.43496 1.7758 3.76216
-3.46291 1.78393 3.76925
-3.46806 1.77963 3.74935
-3.49818 1.78242 3.73354
-3.5072 1.78338 3.73059
-3.51928 1.78323 3.71968
-3.53336 1.78409 3.70977
-3.54445 1.78292 3.69787
-3.59281 1.78124 3.65025
3.81408 1.75015 3.34487
3.78531 1.75062 3.37509
3.75845 1.74892 3.39432
3.72766 1.74835 3.42256
3.72079 1.75161 3.43957
3.70788 1.75078 3.45068
3.68689 1.74683 3.45289
3.68002 1.74908 3.46991
3.67617 1.75337 3.48888
3.65417 1.7484 3.49012
3.65829 1.75363 3.50602
3.64638 1.75382 3.5181
3.62438 1.74884 3.51834
3.61247 1.74901 3.52943
3.61165 1.75536 3.55335
3.58662 1.74834 3.55064
3.56463 1.74337 3.55188
3.57078 1.75064 3.57073
3.54978 1.74568 3.57196
3.53888 1.74688 3.58503
3.52595 1.74602 3.59414
3.509 1.74413 3.60129
3.50717 1.74946 3.62323
3.49627 1.75066 3.6363
3.49334 1.7528 3.64529
3.47032 1.74678 3.64355
3.45639 1.74594 3.65367
3.45256 1.75126 3.67462
3.43358 1.74831 3.67781
3.42267 1.7485 3.68989
3.4148 1.75176 3.70691
3.40278 1.74874 3.70504
3.38885 1.74788 3.71416
3.38097 1.75112 3.73017
3.37108 1.75234 3.74423
3.35008 1.74735 3.74446
3.33715 1.74751 3.75456
3.32727 1.74974 3.7696
3.31131 1.74784 3.77575
3.30132 1.74586 3.77686
3.29647 1.75116 3.79682
3.28658 1.75238 3.81088
3.26759 1.74942 3.81306
3.25366 1.74856 3.82218
3.24882 1.75388 3.84314
3.2258 1.74787 3.84141
3.22287 1.751 3.85038
3.21096 1.75119 3.86247
3.20207 1.7534 3.87651
3.19521 1.75769 3.8955
3.18128 1.75783 3.9046
3.1633 1.75489 3.90778
3.15443 1.75813 3.9238
3.14443 1.75615 3.92491
3.1315 1.7563 3.934
3.13172 1.76471 3.96188
3.10263 1.75457 3.95125
3.09881 1.76091 3.97419
3.07375 1.75383 3.96748
3.0669 1.75811 3.98647
3.05588 1.75509 3.9846
3.04802 1.75938 4.0036
3.02904 1.75642 4.00578
3.01915 1.75864 4.01983
3.00016 1.75568 4.02201
2.99734 1.76204 4.04594
2.98544 1.76424 4.059
2.97139 1.75914 4.05218
2.96149 1.76136 4.06623
2.92958 1.75856 4.07851
2.91869 1.76078 4.09256
2.90274 1.75988 4.0987
2.87868 1.75279 4.09198
2.86969 1.75183 4.09406
2.84082 1.75108 4.1103
2.84713 1.76567 4.15004
2.81498 1.75241 4.13147
2.80104 1.75254 4.13958
2.78812 1.75372 4.15066
2.79127 1.76101 4.17053
2.77025 1.75598 4.16776
2.76138 1.76024 4.18477
2.74238 1.75625 4.18497
2.73555 1.76258 4.20693
2.72161 1.76271 4.21504
2.70464 1.76078 4.21919
2.70375 1.765 4.23414
2.67664 1.75582 4.22048
2.67082 1.76216 4.24343
2.65486 1.76125 4.24857
2.64498 1.76449 4.26459
2.61888 1.75532 4.25192
2.61813 1.76581 4.28478
2.61218 1.7669 4.29081
2.58406 1.7577 4.27615
2.57621 1.76199 4.29515
2.57038 1.76833 4.31811
2.54023 1.75706 4.2985
2.54252 1.76962 4.3363
2.53061 1.7718 4.34836
2.49639 1.75642 4.32084
2.49654 1.7627 4.33975
2.48259 1.76281 4.34685
2.43269 1.75904 4.36029
2.39582 1.75932 4.37756
2.36289 1.75649 4.38785
2.35708 1.76385 4.41179
2.34009 1.76189 4.41395
2.33126 1.76821 4.43493
2.30717 1.76006 4.42423
2.30223 1.76218 4.43223
2.28728 1.76228 4.43834
2.28147 1.76966 4.46328
2.26348 1.7677 4.46545
2.24753 1.7668 4.47158
2.23461 1.76896 4.48165
2.21864 1.76804 4.48678
2.20456 1.76291 4.47696
2.19571 1.7672 4.49597
2.18179 1.76935 4.50604
2.16379 1.76637 4.50622
2.15393 1.77164 4.52422
2.13594 1.76968 4.52639
2.11996 1.76774 4.52954
2.113 1.76882 4.53457
2.09908 1.76998 4.54466
2.08108 1.76799 4.54483
2.06307 1.76499 4.54401
2.05017 1.76819 4.55706
2.03113 1.76414 4.55326
2.02537 1.77361 4.58417
2.00533 1.76853 4.5784
1.99735 1.76858 4.58146
1.98546 1.77281 4.59648
1.96643 1.76875 4.59169
1.9525 1.76991 4.60178
1.94063 1.77416 4.61781
1.92058 1.76908 4.61203
1.90275 1.77544 4.63507
1.87965 1.76726 4.62237
1.86267 1.7663 4.62451
1.85282 1.77161 4.64451
1.83582 1.76962 4.64467
1.81885 1.76969 4.64879
1.80185 1.7677 4.64895
1.77791 1.76784 4.65713
1.76296 1.76794 4.66324
1.75005 1.77013 4.67531
1.73205 1.76814 4.67547
1.72017 1.77238 4.6915
1.69909 1.76625 4.68175
1.69418 1.77042 4.69273
1.67514 1.76636 4.68793
1.67043 1.77891 4.72479
1.64217 1.76444 4.69221
1.63441 1.77391 4.72313
1.61333 1.76877 4.71336
1.60145 1.77302 4.72939
1.59141 1.76995 4.72451
1.57647 1.77107 4.73161
1.56155 1.77323 4.74169
1.54967 1.77747 4.75772
1.52652 1.76821 4.73903
1.51465 1.77347 4.75604
1.50076 1.77668 4.7701
1.49379 1.77775 4.77414
1.4768 1.77578 4.7753
1.4639 1.77998 4.78833
1.4418 1.7728 4.77561
1.42993 1.77806 4.79262
1.40882 1.77087 4.77888
1.398 1.77822 4.80186
1.38487 1.77098 4.78506
1.372 1.77624 4.80208
1.35706 1.77737 4.81018
1.34109 1.77744 4.8143
1.3241 1.77646 4.81544
1.3102 1.77967 4.8285
1.29114 1.77558 4.82171
1.28623 1.77874 4.8327
1.26719 1.77568 4.82789
1.25122 1.77575 4.83201
1.23733 1.77997 4.84605
1.2203 1.77694 4.84322
1.20436 1.77905 4.85031
1.18942 1.78018 4.85841
1.17939 1.77813 4.85451
1.16549 1.78133 4.86757
1.14848 1.78033 4.86672
1.13044 1.77727 4.8619
1.11967 1.78671 4.89084
1.09852 1.77844 4.87212
1.0836 1.78162 4.88319
1.07354 1.77751 4.87532
1.06066 1.78275 4.89135
1.04159 1.77763 4.88256
1.02563 1.77872 4.88767
1.00968 1.77982 4.89377
0.99578 1.78402 4.90682
0.975655 1.7768 4.89107
0.962826 1.78413 4.91307
0.952748 1.77999 4.9032
0.936825 1.78215 4.91329
0.917732 1.77699 4.90151
0.908011 1.78953 4.9374
0.888903 1.78334 4.92364
0.870895 1.78233 4.92279
0.852833 1.77823 4.91498
0.849042 1.78763 4.94187
0.828887 1.77935 4.92215
0.815011 1.7846 4.93818
0.798027 1.78464 4.9403
0.784158 1.7899 4.95733
0.764003 1.78162 4.9376
0.75015 1.78791 4.95662
0.739003 1.78064 4.93781
0.724119 1.78487 4.95286
0.706019 1.77969 4.94007
0.692181 1.78701 4.96107
0.673041 1.77876 4.94333
0.658158 1.78399 4.95837
0.640073 1.77884 4.94758
0.63422 1.78613 4.96652
0.616189 1.78408 4.96268
0.599174 1.78306 4.96083
0.58322 1.78416 4.96693
0.567236 1.78421 4.96905
0.55026 1.78526 4.97216
0.534314 1.78738 4.97925
0.525236 1.78324 4.96938
0.510376 1.78951 4.9874
0.491182 1.77916 4.9627
0.475283 1.78336 4.97576
0.458268 1.78234 4.9739
0.442346 1.7855 4.98398
0.425268 1.78137 4.97416
0.417346 1.78552 4.98416
0.400315 1.78348 4.98032
0.38437 1.78559 4.98741
0.367331 1.78353 4.98257
0.351386 1.78564 4.98966
0.334394 1.78567 4.99079
0.317293 1.78049 4.97799
0.301449 1.7878 4.99801
0.29341 1.78573 4.9931
0.276387 1.7837 4.99025
0.25941 1.78476 4.99337
0.242356 1.78167 4.98654
0.209365 1.7817 4.98779
0.19359 1.79214 5.01676
0.184342 1.78068 4.98499
0.168552 1.79009 5.01197
0.151537 1.79007 5.0101
0.135483 1.78698 5.00327
0.118546 1.79011 5.01135
0.10153 1.78909 5.00949
0.0854763 1.786 5.00266
0.0765469 1.79014 5.01167
0.0606245 1.7933 5.02174
0.0436407 1.79434 5.02385
0.0213224 1.77878 4.85023
0.00524565 1.77565 4.84039
-0.019785 1.77361 4.83661
-0.0356992 1.77778 4.84767
-0.0517295 1.77673 4.84381
-0.0677447 1.77571 4.84194
-0.0837593 1.7757 4.84006
-0.0997746 1.77468 4.8382
-0.116797 1.77365 4.83534
-0.124781 1.77468 4.83739
-0.140758 1.77574 4.84049
-0.157671 1.78091 4.85155
-0.172779 1.77572 4.83773
-0.189725 1.77783 4.84483
-0.20567 1.78095 4.85191
-0.222638 1.78302 4.856
-0.228824 1.77367 4.83219
-0.245746 1.77783 4.84225
-0.261737 1.77886 4.84336
-0.29565 1.78404 4.85454
-0.311673 1.78301 4.85168
-0.326812 1.77675 4.83388
-0.334757 1.77986 4.84089
-0.351734 1.78092 4.84401
-0.382871 1.77568 4.82632
-0.398848 1.77673 4.82942
-0.414862 1.77672 4.82754
-0.430869 1.77671 4.82666
-0.438907 1.77564 4.82174
-0.455845 1.77877 4.82982
-0.472813 1.78085 4.83392
-0.487897 1.77769 4.82308
-0.502951 1.7756 4.81622
-0.521803 1.7829 4.83526
-0.536864 1.78079 4.8274
-0.543926 1.77768 4.8195
-0.560878 1.78078 4.82558
-0.593892 1.78177 4.82382
-0.609906 1.78175 4.82194
-0.625913 1.78275 4.82104
-0.641927 1.78273 4.81916
-0.659872 1.78585 4.82625
-0.66505 1.77751 4.80341
-0.682925 1.78476 4.81944
-0.698955 1.78371 4.81558
-0.715001 1.78264 4.80971
-0.729086 1.77849 4.79888
-0.747022 1.78262 4.80695
-0.763967 1.78673 4.81402
-0.77199 1.78569 4.8111
-0.788035 1.78462 4.80523
-0.805925 1.79084 4.81928
-0.821033 1.78664 4.80545
-0.838009 1.7887 4.80855
-0.855945 1.79283 4.81663
-0.872921 1.79488 4.81972
-0.896942 1.79586 4.81689
-0.911988 1.79378 4.81103
-0.929002 1.79476 4.80915
-0.961031 1.79573 4.80537
-1.15237 1.7932 4.76185
-1.18538 1.79519 4.76006
-1.20749 1.79199 4.74528
-1.22448 1.79403 4.74737
-1.24048 1.79503 4.74648
-1.25264 1.78874 4.72666
-1.26865 1.78972 4.72477
-1.28663 1.79278 4.72786
-1.29877 1.78651 4.70904
-1.30872 1.79062 4.71605
-1.32183 1.78541 4.70123
-1.34175 1.79157 4.71129
-1.34804 1.77903 4.67452
-1.37086 1.78938 4.69754
-1.38007 1.77997 4.66974
-1.39708 1.78097 4.66886
-1.40412 1.7799 4.66393
-1.42014 1.78087 4.66103
-1.43323 1.7777 4.64918
-1.45218 1.7818 4.65526
-1.48228 1.78063 4.6425
-1.49539 1.77644 4.62866
-1.50925 1.78471 4.64664
-1.56455 1.77616 4.60718
-1.58154 1.77819 4.60828
-1.60656 1.78016 4.60544
-1.6177 1.77492 4.5886
-1.63568 1.77796 4.59069
-1.72089 1.77861 4.56332
-1.75 1.77741 4.54855
-1.80706 1.78132 4.53992
-1.83422 1.77702 4.51919
-1.86528 1.77893 4.51139
-1.89539 1.77774 4.49764
-1.91647 1.7766 4.48681
-1.97862 1.77833 4.46625
-2.00578 1.77505 4.4465
-2.04387 1.77589 4.43377
-2.06384 1.77996 4.43786
-2.09098 1.77772 4.4201
-2.14708 1.78153 4.40546
-2.1873 1.77815 4.37781
-2.20445 1.77387 4.358
-2.22541 1.77894 4.36209
-2.23849 1.7768 4.35221
-2.27153 1.78074 4.3464
-2.28068 1.77546 4.32755
-2.29867 1.77849 4.32864
-2.3126 1.78362 4.33667
-2.33061 1.78662 4.33576
-2.33482 1.77822 4.30891
-2.35972 1.78641 4.32098
-2.35899 1.7739 4.28616
-2.38094 1.78002 4.29323
-2.40782 1.79026 4.30828
-2.39907 1.77776 4.2754
-2.42399 1.78493 4.28548
-2.43115 1.77962 4.26461
-2.44028 1.77539 4.24874
-2.45632 1.77632 4.24285
-2.46939 1.77519 4.23396
-2.49455 1.7729 4.21318
-2.50158 1.77285 4.20924
-2.53267 1.77468 4.19644
-3.0904 1.76969 3.83667
-3.18498 1.76761 3.7594
-3.2041 1.7674 3.74454
-3.28451 1.76963 3.68911
-3.29055 1.76956 3.68415
-3.32067 1.77134 3.66835
-3.33491 1.76588 3.63654
-3.36602 1.76869 3.62273
-3.38414 1.76847 3.60687
-3.39325 1.76625 3.59196
-3.40434 1.76609 3.58005
-3.46159 1.76962 3.54642
-3.46961 1.77158 3.54345
-3.47575 1.76732 3.52556
-3.49279 1.77026 3.52065
-3.5138 1.77525 3.51873
-3.512 1.76686 3.49284
-3.52606 1.76875 3.48491
-3.5431 1.77168 3.479
-3.55509 1.7747 3.48004
-3.56123 1.77144 3.46214
-3.57231 1.77128 3.45122
-3.58341 1.7701 3.43832
-3.60442 1.77508 3.4364
-3.6175 1.77494 3.4265
-3.62759 1.77476 3.41358
-3.62768 1.7716 3.40263
-3.65068 1.7766 3.40173
-3.65284 1.7723 3.3818
-3.67087 1.77524 3.37689
-3.68196 1.77507 3.36498
-3.69901 1.77798 3.35806
-3.70116 1.77269 3.33815
-3.71515 1.77673 3.3402
-3.72823 1.77757 3.32928
-3.7423 1.77845 3.32038
-3.76348 1.7781 3.29554
-3.79369 1.77872 3.26875
-3.79982 1.77546 3.25084
-3.81488 1.77735 3.24293
-3.82796 1.77819 3.23201
3.91165 1.74331 3.02219
3.88797 1.74695 3.06432
3.83536 1.74574 3.11574
3.82343 1.7459 3.12583
3.81656 1.74814 3.14185
3.80565 1.74833 3.15394
3.78769 1.74443 3.16013
3.78273 1.74451 3.16517
3.76981 1.74468 3.17626
3.76091 1.74488 3.18933
3.75 1.74506 3.20141
3.74111 1.74728 3.21545
3.71709 1.74028 3.21473
3.71223 1.74355 3.23272
3.70022 1.74055 3.23186
3.6873 1.7397 3.24197
3.68042 1.74195 3.25799
3.66648 1.74107 3.26611
3.65658 1.74127 3.27918
3.64465 1.74143 3.28927
3.63072 1.73957 3.2984
3.61569 1.73553 3.29458
3.61587 1.74188 3.31848
3.59405 1.74224 3.34165
3.57406 1.73828 3.34385
3.56013 1.73643 3.35299
3.53638 1.73993 3.38612
3.52345 1.73907 3.39523
3.51556 1.7413 3.41026
3.49961 1.73942 3.41741
3.4877 1.73959 3.4285
3.47275 1.7377 3.43564
3.46578 1.73777 3.43969
3.45789 1.74 3.45472
3.45101 1.74224 3.47074
3.41709 1.73741 3.48107
3.41022 1.74067 3.49808
3.39527 1.73878 3.50522
3.34667 1.7426 3.55853
3.31578 1.73983 3.57281
3.30789 1.74206 3.58784
3.21739 1.7411 3.65454
3.20749 1.7423 3.6676
3.16972 1.74277 3.69788
3.15477 1.74189 3.70501
3.14093 1.74421 3.72608
3.12901 1.74538 3.73716
3.07831 1.746 3.77654
3.06639 1.74717 3.78761
3.06042 1.74723 3.79165
2.98488 1.74917 3.8522
2.93407 1.7466 3.87863
2.90922 1.74791 3.8988
2.89832 1.7491 3.91086
2.89135 1.74916 3.91492
2.87841 1.7493 3.92401
2.8637 1.75886 3.96099
2.83357 1.74765 3.94538
2.80276 1.74904 3.97059
2.78882 1.74917 3.9787
2.77791 1.75035 3.99076
2.76398 1.7505 3.99987
2.66348 1.75253 4.0656
2.39064 1.755 4.22064
1.51349 1.76719 4.60212
1.49546 1.76414 4.5983
1.4805 1.76524 4.6044
1.46451 1.76327 4.60555
1.42764 1.76555 4.6228
1.38178 1.76785 4.64111
1.34182 1.76595 4.64644
1.32582 1.76496 4.64658
1.29696 1.76926 4.66573
1.26499 1.76733 4.669
1.25597 1.76631 4.66709
1.24619 1.77574 4.69602
1.22506 1.76749 4.6783
1.21527 1.77691 4.70624
1.17917 1.76875 4.69363
1.16319 1.7688 4.69675
1.14128 1.77098 4.70789
1.12736 1.77416 4.71895
1.10828 1.76902 4.70916
1.09747 1.77738 4.73313
1.06135 1.76919 4.71852
1.05339 1.77027 4.72356
1.03635 1.76719 4.71773
1.00646 1.77044 4.73291
0.957461 1.76747 4.73333
0.942508 1.76857 4.73942
0.933492 1.76755 4.73751
0.918569 1.76971 4.74759
0.871631 1.76986 4.75594
0.855669 1.77095 4.76105
0.815732 1.77209 4.76933
0.786902 1.77844 4.79146
0.76777 1.7712 4.77471
0.735778 1.77024 4.77596
0.695817 1.77034 4.78126
0.521049 1.77392 4.81253
0.503988 1.77081 4.8047
0.472097 1.77504 4.81888
0.440058 1.77199 4.81417
0.424097 1.77308 4.81927
0.409206 1.77829 4.83331
0.367098 1.77212 4.81972
0.335129 1.7732 4.82394
0.231255 1.77751 4.84066
0.198225 1.77548 4.83694
0.158234 1.77552 4.83824
0.126211 1.7735 4.83551
0.0932274 1.77455 4.83775
0.0692438 1.7756 4.83991
0.0533453 1.7808 4.85296
0.0372058 1.77355 4.83518
0.031123 1.77442 4.6912
0.0232556 1.78168 4.70815
0.00817006 1.77653 4.69734
-0.00778996 1.77961 4.70242
-0.023829 1.77655 4.69758
-0.039673 1.78486 4.71758
-0.0548507 1.77653 4.69481
-0.0708352 1.77657 4.69693
-0.0787183 1.7828 4.7119
-0.094795 1.77966 4.70207
-0.109756 1.78175 4.70715
-0.125833 1.77761 4.69733
-0.141833 1.77762 4.69745
-0.15684 1.77762 4.69657
-0.173699 1.7849 4.71459
-0.180916 1.77449 4.68679
-0.196753 1.78281 4.70779
-0.211837 1.77866 4.69697
-0.227821 1.7797 4.69907
-0.243867 1.77762 4.69322
-0.259789 1.78178 4.70328
-0.274951 1.77448 4.6825
-0.282857 1.77966 4.69449
-0.298888 1.77762 4.69064
-0.314794 1.78281 4.70268
-0.329019 1.77139 4.67395
-0.345901 1.77862 4.68898
-0.360994 1.77446 4.67715
-0.376931 1.77758 4.68522
-0.392946 1.77757 4.68334
-0.40093 1.7786 4.68539
-0.415999 1.77548 4.67655
-0.431014 1.77546 4.67466
-0.446052 1.7744 4.66979
-0.462059 1.7744 4.66891
-0.478027 1.77647 4.673
-0.494027 1.77648 4.67312
-0.50108 1.77438 4.6662
-0.518001 1.77954 4.67626
-0.532102 1.77436 4.66344
-0.54907 1.77643 4.66754
-0.564085 1.77641 4.66565
-0.580084 1.77742 4.66575
-0.595114 1.77637 4.66188
-0.60409 1.77842 4.66492
-0.618182 1.77426 4.65309
-0.634181 1.77527 4.65319
-0.651111 1.77941 4.66226
-0.666172 1.77731 4.6544
-0.682171 1.77832 4.65451
-0.698131 1.7814 4.65958
-0.706138 1.78139 4.65864
-0.720215 1.77826 4.6488
-0.73719 1.78031 4.65189
-0.753159 1.78238 4.65598
-0.767282 1.77716 4.64016
-0.784226 1.78127 4.64723
-0.801179 1.78437 4.65332
-0.808225 1.78229 4.6474
-0.825162 1.78642 4.65547
-0.840223 1.78431 4.64761
-0.85526 1.78425 4.64272
-0.889172 1.79044 4.65389
-0.903233 1.78833 4.64602
-0.925325 1.78517 4.63424
-0.941339 1.78615 4.63234
-0.9583 1.78824 4.63744
-0.973337 1.78817 4.63255
-0.991266 1.79332 4.64161
-1.00632 1.79123 4.63476
-1.01941 1.78806 4.6229
-1.03031 1.79326 4.63591
-1.04633 1.79323 4.63303
-1.07641 1.79209 4.62227
-1.12152 1.79091 4.60863
-1.17658 1.79283 4.60101
-1.19261 1.79279 4.59713
-1.20376 1.7855 4.57732
-1.22073 1.78857 4.5814
-1.27579 1.79048 4.57279
-1.28889 1.78729 4.55993
-1.30393 1.78723 4.55505
-1.31798 1.78514 4.54818
-1.32699 1.78613 4.54724
-1.34299 1.78714 4.54734
-1.35122 1.7777 4.51754
-1.36334 1.77249 4.50271
-1.38323 1.7797 4.51575
-1.39536 1.77445 4.49892
-1.41232 1.77854 4.50399
-1.41839 1.77643 4.49606
-1.43245 1.77432 4.4882
-1.44845 1.77631 4.48729
-1.4635 1.77524 4.48142
-1.55975 1.7738 4.44816
-1.71518 1.77307 4.39233
-1.75325 1.77395 4.3826
-1.83251 1.77249 4.34822
-2.0793 1.77112 4.24508
-2.11738 1.77398 4.23433
-2.15658 1.77061 4.20767
-2.20267 1.77345 4.19497
-2.24174 1.77735 4.18621
-2.26494 1.77198 4.16046
-2.2849 1.77705 4.16453
-2.31905 1.77578 4.14481
-2.32916 1.77258 4.13093
-2.34124 1.77144 4.12104
-2.36712 1.78168 4.13608
-2.37033 1.77228 4.10924
-2.3813 1.77534 4.11228
-2.39734 1.77727 4.10737
-2.40349 1.77098 4.08751
-2.41853 1.7719 4.08161
-2.43259 1.77181 4.07471
-2.44368 1.76964 4.06283
-2.46266 1.77369 4.06491
-2.47474 1.77253 4.05402
-2.49287 1.77029 4.03718
-2.50593 1.77018 4.02928
-2.71083 1.77056 3.9108
-2.95008 1.76726 3.74563
-2.96116 1.7671 3.73472
-2.9873 1.76685 3.71692
-3.0064 1.76666 3.70306
-3.01947 1.76654 3.69416
-3.03155 1.7664 3.68425
-3.04462 1.76626 3.67435
-3.08282 1.76689 3.64762
-3.08886 1.76682 3.64267
-3.10192 1.76771 3.63475
-3.11401 1.76654 3.62286
-3.12905 1.76848 3.61795
-3.13816 1.76626 3.60304
-3.15617 1.77024 3.60112
-3.17816 1.77528 3.60221
-3.18241 1.76681 3.57037
-3.20043 1.76977 3.56746
-3.21547 1.7717 3.56154
-3.21765 1.76536 3.53865
-3.23962 1.77142 3.54172
-3.24477 1.76714 3.52282
-3.26072 1.77324 3.52885
-3.26289 1.76692 3.50696
-3.28487 1.77295 3.50804
-3.28902 1.76867 3.48913
-3.30803 1.77265 3.48721
-3.31515 1.76942 3.47131
-3.32822 1.7703 3.4624
-3.32931 1.76714 3.45145
-3.35823 1.77729 3.46052
-3.36039 1.77098 3.43963
-3.37744 1.7739 3.43371
-3.38753 1.77273 3.4218
-3.39564 1.77052 3.40689
-3.41068 1.77244 3.40098
-3.41771 1.77338 3.39702
-3.43574 1.77634 3.39311
-3.45296 1.77292 3.36428
-3.47396 1.77894 3.36435
-3.48306 1.77674 3.35045
-3.49315 1.77557 3.33854
-3.50614 1.77959 3.33958
-3.50631 1.77326 3.31768
-3.52335 1.7762 3.31276
-3.53444 1.77603 3.30084
-3.55147 1.77897 3.29593
-3.62304 1.7769 3.22049
3.8287 1.74449 2.89578
3.81879 1.74468 2.90786
3.79696 1.74402 2.93003
3.76312 1.74037 2.95235
3.75422 1.74157 2.9654
3.74935 1.74382 2.9824
3.7334 1.74194 2.98955
3.73256 1.74723 3.00948
3.71559 1.74332 3.01467
3.70367 1.74249 3.02577
3.69369 1.74053 3.02788
3.68881 1.74377 3.04387
3.66782 1.73782 3.04611
3.65993 1.74003 3.06014
3.64599 1.73816 3.06828
3.63004 1.73627 3.07543
3.62113 1.73646 3.08749
3.62021 1.73861 3.09747
3.60325 1.73671 3.10363
3.59837 1.73895 3.11963
3.58041 1.73603 3.12481
3.57049 1.7362 3.13588
3.55958 1.73638 3.14697
3.55371 1.73963 3.16396
3.54271 1.73664 3.16409
3.54589 1.74399 3.18796
3.52288 1.73799 3.18722
3.50492 1.73408 3.19242
3.49601 1.73528 3.20547
3.48711 1.73648 3.21852
3.48124 1.73972 3.23452
3.46721 1.73569 3.23168
3.4573 1.73587 3.24376
3.44538 1.73603 3.25385
3.43648 1.73723 3.2669
3.42254 1.73636 3.27502
3.4086 1.73448 3.28315
3.4007 1.73668 3.29618
3.38878 1.73685 3.30727
3.38181 1.73592 3.31133
3.36787 1.73505 3.31945
3.35897 1.73625 3.3325
3.35007 1.73745 3.34556
3.32622 1.73776 3.36573
3.31924 1.73681 3.3688
3.2964 1.73714 3.38997
3.28347 1.73628 3.39908
3.28768 1.74569 3.42691
3.23778 1.73793 3.44141
3.23182 1.73801 3.44645
3.19403 1.73744 3.47375
3.18513 1.73965 3.48778
3.16542 1.74521 3.52486
3.09772 1.74186 3.56542
3.0669 1.74223 3.58965
2.99727 1.74201 3.63919
2.96149 1.74247 3.66845
2.92673 1.74597 3.70067
2.82932 1.74919 3.77936
2.75767 1.74992 3.8259
2.72775 1.74711 3.83717
2.68996 1.74854 3.86444
2.674 1.74662 3.86958
2.6452 1.75004 3.89675
2.61528 1.74721 3.90702
2.60234 1.74734 3.91512
2.57254 1.75075 3.9413
2.5317 1.7501 3.96362
1.32765 1.76366 4.49156
1.21489 1.76521 4.52339
1.18393 1.76432 4.52964
1.11606 1.76562 4.54713
1.04718 1.76589 4.56265
1.01622 1.76499 4.5679
0.957394 1.76937 4.59128
0.917386 1.76738 4.59061
0.901394 1.76641 4.59175
0.871455 1.76755 4.59996
0.832486 1.76664 4.60426
0.80154 1.76777 4.61148
0.747617 1.76795 4.62189
0.716633 1.768 4.62412
0.655772 1.77132 4.64253
0.632796 1.77138 4.6457
0.615734 1.76827 4.63788
0.601811 1.77043 4.64795
0.570882 1.77358 4.65714
0.515889 1.77164 4.65858
0.483843 1.76857 4.65287
0.453952 1.7728 4.66703
0.431037 1.77598 4.67816
0.398968 1.77187 4.66946
0.368 1.77295 4.67368
0.351937 1.76885 4.66586
0.335945 1.76887 4.66698
0.313062 1.77411 4.68208
0.282071 1.77415 4.68331
0.266009 1.77104 4.67548
0.250056 1.77314 4.68157
0.228235 1.7815 4.70461
0.196103 1.77427 4.68796
0.180034 1.77115 4.67912
0.165166 1.77741 4.69614
0.148058 1.77122 4.68236
0.13319 1.77848 4.69937
0.125175 1.77746 4.69744
0.10909 1.77331 4.68663
0.0941757 1.77748 4.69768
0.0781373 1.77542 4.69283
0.0631685 1.77649 4.69693
0.0471846 1.77753 4.69903
0.0310751 1.77136 4.55222
0.0160605 1.77134 4.55034
0.00106092 1.77136 4.55045
-0.01397 1.76931 4.54659
-0.0289853 1.76829 4.54472
-0.0449227 1.77142 4.5528
-0.0519533 1.77036 4.54886
-0.0679446 1.77139 4.54997
-0.0979595 1.77038 4.54821
-0.112936 1.77144 4.55131
-0.128881 1.77455 4.55838
-0.151903 1.77453 4.55556
-0.196987 1.7704 4.54496
-0.212916 1.77454 4.55402
-0.22797 1.77145 4.54717
-0.243016 1.76937 4.54132
-0.25093 1.77454 4.5523
-0.281921 1.77558 4.55352
-0.297796 1.78282 4.56953
-0.311974 1.77349 4.54678
-0.326997 1.77246 4.5439
-0.342919 1.77662 4.55396
-0.350011 1.77245 4.54208
-0.364995 1.77449 4.54416
-0.379072 1.77035 4.53433
-0.394095 1.76932 4.53145
-0.410094 1.77033 4.53156
-0.426046 1.77343 4.53764
-0.441069 1.7724 4.53476
-0.449014 1.7755 4.54178
-0.464029 1.77549 4.53989
-0.479082 1.77339 4.53303
-0.494097 1.77338 4.53115
-0.511011 1.77855 4.5422
-0.540133 1.77333 4.52649
-0.54811 1.77438 4.52954
-0.56314 1.77434 4.52565
-0.595037 1.78055 4.5388
-0.608184 1.77428 4.51999
-0.623214 1.77323 4.51612
-0.638198 1.77427 4.51822
-0.655158 1.77736 4.5233
-0.661235 1.77422 4.51339
-0.675312 1.77108 4.50354
-0.691295 1.77212 4.50565
-0.705341 1.77104 4.49977
-0.722286 1.77416 4.50685
-0.737277 1.77618 4.50794
-0.752307 1.77513 4.50406
-0.760322 1.77511 4.50212
-0.772437 1.7699 4.48729
-0.790328 1.77612 4.50133
-0.805373 1.77504 4.49546
-0.820395 1.77501 4.49258
-0.835418 1.77497 4.48969
-0.851393 1.77703 4.49278
-0.858416 1.77599 4.48985
-0.875352 1.78112 4.4979
-0.889413 1.77901 4.49004
-0.905421 1.77901 4.48916
-0.921403 1.78205 4.49123
-0.935441 1.78098 4.48635
-0.949533 1.77682 4.47452
-0.960401 1.78408 4.4915
-0.974454 1.78298 4.48462
-0.992367 1.78916 4.49566
-1.00546 1.78499 4.48382
-1.02244 1.78703 4.48592
-1.03648 1.78697 4.48103
-1.05053 1.78488 4.47416
-1.05952 1.78691 4.4762
-1.07552 1.78792 4.47631
-1.0915 1.78996 4.4784
-1.15668 1.78666 4.45493
-1.17073 1.78556 4.44805
-1.19886 1.78133 4.43133
-1.21874 1.78958 4.44736
-1.2318 1.78746 4.43848
-1.24685 1.78638 4.43261
-1.25992 1.78426 4.42374
-1.26791 1.78628 4.42477
-1.27905 1.78002 4.40695
-1.29407 1.78099 4.40404
-1.31201 1.7851 4.41112
-1.3251 1.78195 4.40026
-1.33915 1.78086 4.39338
-1.35613 1.78391 4.39647
-1.35925 1.77768 4.38058
-1.37429 1.77762 4.37569
-1.39126 1.78067 4.37878
-1.40336 1.7775 4.36691
-1.42031 1.78159 4.37198
-1.42948 1.77427 4.35016
-1.44648 1.77628 4.35025
-1.4535 1.77626 4.34831
-1.46754 1.7762 4.34341
-1.48063 1.77303 4.33156
-1.49369 1.77192 4.32367
-1.51164 1.77602 4.32975
-1.52472 1.77388 4.31988
-1.5417 1.77692 4.32196
-1.54676 1.77381 4.31404
-1.55885 1.77164 4.30216
-1.57387 1.77161 4.29928
-1.58987 1.77362 4.29937
-1.617 1.77139 4.2826
-1.63398 1.77444 4.28569
-1.64101 1.77339 4.28175
-1.66909 1.77325 4.27097
-1.71123 1.772 4.2523
-1.74733 1.77283 4.23956
-1.75942 1.76966 4.22769
-1.79045 1.77261 4.22288
-1.81855 1.77144 4.21011
-1.87065 1.77427 4.19646
-1.91489 1.76984 4.16585
-1.94298 1.76968 4.15407
-1.97108 1.76951 4.14128
-1.99103 1.77462 4.14735
-2.02418 1.77234 4.12763
-2.03526 1.77019 4.11675
-2.05227 1.77217 4.11485
-2.06435 1.77103 4.10495
-2.07741 1.76992 4.09707
-2.09047 1.76881 4.08918
-2.10747 1.77183 4.08926
-2.12854 1.77271 4.08041
-2.13865 1.76849 4.06555
-2.1517 1.7684 4.05864
-2.16968 1.77244 4.06072
-2.18668 1.77545 4.0608
-2.19681 1.77123 4.04494
-2.20382 1.7722 4.04298
-2.22575 1.77833 4.05105
-2.23289 1.77307 4.03318
-2.24792 1.77503 4.02927
-2.26395 1.77598 4.02537
-2.28194 1.78 4.02645
-2.28513 1.77164 4.00159
-2.29906 1.77778 4.01061
-2.30523 1.77046 3.98876
-2.32617 1.77758 3.99581
-2.33529 1.77336 3.98094
-2.35822 1.7805 3.98901
-2.36832 1.77833 3.97712
-2.38336 1.77925 3.97122
-2.38545 1.77507 3.95929
-2.40542 1.78015 3.96337
-2.41354 1.77692 3.94748
-2.42069 1.77164 3.9286
-2.44263 1.77776 3.93568
-2.45371 1.77661 3.92478
-2.46282 1.7734 3.91089
-2.4738 1.77644 3.91293
-2.49301 1.77106 3.88615
-2.50903 1.77302 3.88324
-2.52824 1.76764 3.85646
-2.54327 1.76858 3.85156
-2.5503 1.76852 3.84762
-2.57126 1.77461 3.85268
-2.5784 1.77035 3.8348
-2.5875 1.76715 3.82091
-2.61758 1.77001 3.8101
-2.63767 1.76986 3.79925
-2.64777 1.76767 3.78635
-2.66279 1.76963 3.78244
-2.67289 1.76744 3.76955
-2.68695 1.76835 3.76264
-2.69901 1.76824 3.75473
-2.7281 1.77007 3.74192
-2.73215 1.76897 3.73496
-2.74225 1.76578 3.72209
-2.75827 1.76875 3.71916
-2.76739 1.76553 3.70428
-2.78143 1.76745 3.69835
-2.79746 1.76941 3.69444
-2.80558 1.76619 3.67955
-2.80963 1.76509 3.6726
-2.83556 1.77324 3.68167
-2.84565 1.77207 3.66976
-2.85278 1.76782 3.65288
-2.8698 1.77079 3.64996
-2.8789 1.76859 3.63606
-2.88899 1.76742 3.62415
-2.89602 1.76738 3.62121
-2.91006 1.7693 3.61528
-2.9261 1.77124 3.61037
-2.93816 1.77112 3.60147
-2.9542 1.77305 3.59656
-2.96528 1.7719 3.58566
-2.97834 1.77279 3.57774
-2.97547 1.76655 3.56181
-3.00239 1.7767 3.57086
-3.00753 1.77144 3.55298
-3.02951 1.77749 3.55505
-3.03167 1.77118 3.53416
-3.04969 1.77514 3.53124
-3.06275 1.77604 3.52332
-3.06284 1.77186 3.51138
-3.07393 1.7707 3.50048
-3.08798 1.77261 3.49356
-3.10104 1.7735 3.48564
-3.10914 1.7703 3.47175
-3.12519 1.77322 3.46582
-3.14518 1.77824 3.4659
-3.14131 1.772 3.44996
-3.16032 1.77598 3.44805
-3.16843 1.77378 3.43414
-3.18248 1.77569 3.42721
-3.20149 1.77967 3.4253
-3.21456 1.78055 3.41638
-3.22069 1.7763 3.39949
-3.23672 1.77924 3.39457
-3.22987 1.77195 3.37562
-3.24293 1.77184 3.36772
-3.25997 1.77478 3.3628
-3.27402 1.77667 3.35488
-3.28907 1.77859 3.34896
-3.29618 1.77638 3.33405
-3.29734 1.77007 3.31315
-3.33844 1.7769 3.30035
-3.36556 1.77867 3.28353
-3.36772 1.77338 3.26362
-3.38276 1.7753 3.25771
-3.39177 1.77828 3.25573
-3.41195 1.77594 3.23191
-3.44917 1.77753 3.20317
-3.4734 1.77611 3.17337
-3.56809 1.77581 3.08207
3.68623 1.73866 2.83393
3.68136 1.74192 2.85092
3.65448 1.73917 2.86717
3.63868 1.74159 2.89426
3.63078 1.74178 2.90732
3.6228 1.74083 2.91039
3.61389 1.74202 2.92244
3.59995 1.74015 2.93058
3.60011 1.74546 2.9515
3.58617 1.74359 2.95963
3.57223 1.7417 2.96677
3.56433 1.74291 2.98081
3.55342 1.74308 2.99189
3.54644 1.74213 2.99496
3.52847 1.73821 2.99915
3.51754 1.73836 3.00923
3.51066 1.74059 3.02425
3.49873 1.73975 3.03436
3.49385 1.74299 3.05035
3.48688 1.74205 3.05442
3.47294 1.74016 3.06155
3.46604 1.74238 3.07557
3.44908 1.73946 3.08074
3.43917 1.73965 3.09282
3.43832 1.74494 3.11275
3.41833 1.73997 3.11397
3.4064 1.74012 3.12306
3.40548 1.74328 3.13402
3.3986 1.74551 3.14904
3.37658 1.73849 3.14731
3.37675 1.74583 3.17021
3.35575 1.73985 3.17045
3.33877 1.73591 3.17364
3.33895 1.74325 3.19653
3.32996 1.74127 3.19763
3.32306 1.74348 3.21165
3.30912 1.74161 3.21978
3.2982 1.74176 3.22987
3.28023 1.73884 3.23405
3.27233 1.74004 3.24709
3.26342 1.74223 3.26013
3.25947 1.74233 3.26615
3.24755 1.74248 3.27624
3.22856 1.73853 3.27845
3.21561 1.73764 3.28556
3.21277 1.74294 3.3055
3.19378 1.73798 3.30772
3.18386 1.73915 3.31878
3.18395 1.74333 3.33072
3.16798 1.7404 3.33488
3.15606 1.74056 3.34497
3.14413 1.7397 3.35407
3.13825 1.74394 3.37006
3.12127 1.74 3.37324
3.11238 1.74221 3.38728
3.10842 1.7433 3.3933
3.0965 1.74346 3.40338
3.08255 1.74157 3.41052
3.07163 1.74274 3.42158
3.05768 1.74184 3.4277
3.04675 1.742 3.43779
3.02098 1.74545 3.46693
3.00197 1.74045 3.46615
2.98923 1.74796 3.50014
2.96618 1.74089 3.49442
2.95335 1.74422 3.51647
2.93838 1.74229 3.52061
2.92644 1.74243 3.5297
2.9135 1.74156 3.53781
2.88966 1.74288 3.55797
2.87671 1.74199 3.56508
2.86579 1.74316 3.57615
2.857 1.75056 3.60311
2.83192 1.74144 3.59343
2.8121 1.7448 3.61754
2.79816 1.74392 3.62466
2.78632 1.74825 3.64668
2.7465 1.74762 3.67
2.70666 1.74598 3.69232
2.64691 1.74451 3.7258
1.61091 1.76005 4.25945
0.463804 1.76555 4.51505
0.365921 1.76784 4.53075
0.169017 1.76916 4.54422
0.14601 1.76816 4.5434
0.100011 1.76819 4.54375
0.0700351 1.76926 4.54696
0.0470201 1.76825 4.54515
-0.832337 1.78515 4.3665
-0.85949 1.77887 4.34679
-0.885356 1.78814 4.36385
-0.896503 1.78087 4.34504
-0.912494 1.78289 4.34613
-0.924594 1.77871 4.33328
-0.942499 1.7849 4.34533
-0.955576 1.78176 4.33547
-0.967676 1.77758 4.32262
-0.985582 1.78377 4.33467
-1.00858 1.78579 4.33481
-1.02262 1.78572 4.32992
-1.16281 1.78744 4.30495
-1.17685 1.78736 4.29905
-1.18095 1.78219 4.28716
-1.19692 1.78524 4.29023
-1.21097 1.78415 4.28336
-1.22307 1.78098 4.27149
-1.23515 1.77783 4.26063
-1.25211 1.78191 4.2657
-1.26518 1.77879 4.25684
-1.27415 1.78184 4.25986
-1.28525 1.77766 4.24701
-1.29639 1.7714 4.22918
-1.31333 1.77653 4.23723
-1.32641 1.77439 4.22736
-1.34045 1.77331 4.22148
-1.35447 1.77429 4.21957
-1.36248 1.77427 4.21763
-1.39054 1.77517 4.20983
-1.40262 1.77202 4.19897
-1.41472 1.76885 4.1871
-1.43169 1.7719 4.19019
-1.44474 1.77081 4.1833
-1.45274 1.77182 4.18334
-1.46676 1.77178 4.18045
-1.47984 1.76964 4.17058
-1.4919 1.76853 4.16269
-1.50792 1.76952 4.16079
-1.51998 1.76841 4.1529
-1.53498 1.7694 4.152
-1.55196 1.77244 4.15408
-1.58803 1.77434 4.14532
-1.62623 1.76898 4.11969
-1.64532 1.76782 4.10784
-1.77768 1.7682 4.06083
-1.81782 1.76695 4.04215
-1.85291 1.76778 4.0294
-1.87903 1.76658 4.01461
-1.89503 1.76959 4.01469
-1.91412 1.76743 4.00286
-1.92619 1.76629 3.99297
-1.94022 1.76624 3.98907
-1.95328 1.76613 3.98117
-1.97222 1.77225 3.98823
-1.99835 1.77003 3.97245
-2.00338 1.76896 3.96751
-2.02654 1.76567 3.94673
-2.04353 1.76871 3.94881
-2.05855 1.77067 3.94589
-2.07161 1.76956 3.93801
-2.08466 1.76947 3.93111
-2.08774 1.76632 3.92117
-2.10276 1.76829 3.91826
-2.1168 1.76823 3.91336
-2.13182 1.77018 3.90945
-2.14192 1.76699 3.89657
-2.15498 1.7669 3.88967
-2.17493 1.773 3.89573
-2.178 1.76986 3.8858
-2.19008 1.76772 3.87592
-2.21001 1.77485 3.88396
-2.22012 1.77165 3.87009
-2.2312 1.77051 3.86018
-2.2482 1.77351 3.85927
-2.26125 1.77341 3.85237
-2.26925 1.77442 3.85241
-2.28527 1.77639 3.8495
-2.29438 1.77319 3.83562
-2.30743 1.77309 3.82872
-2.32444 1.77609 3.8278
-2.33651 1.77596 3.81889
-2.34561 1.77276 3.80501
-2.35954 1.77891 3.81402
-2.36865 1.77571 3.80013
-2.38269 1.77563 3.79424
-2.39968 1.77965 3.79531
-2.41077 1.7785 3.78441
-2.42383 1.77839 3.77651
-2.43687 1.77831 3.77061
-2.45388 1.78131 3.76969
-2.45498 1.7771 3.75576
-2.47593 1.78322 3.76283
-2.48899 1.78311 3.75493
-2.50105 1.783 3.74702
-2.51115 1.78082 3.73412
-2.52124 1.77865 3.72223
-2.53824 1.78264 3.7213
-2.5413 1.77953 3.71337
-2.55733 1.78248 3.70944
-2.56743 1.7793 3.69656
-2.57455 1.77608 3.68166
-2.58957 1.77803 3.67775
-2.59967 1.77585 3.66485
-2.6147 1.7778 3.66094
-2.62073 1.77774 3.65698
-2.64071 1.7828 3.66006
-2.64882 1.77959 3.64517
-2.65892 1.7774 3.63227
-2.669 1.77624 3.62137
-2.68502 1.77821 3.61846
-2.70204 1.78119 3.61654
-2.69917 1.77594 3.59959
-2.71618 1.77792 3.59769
-2.72726 1.77778 3.58778
-2.73141 1.77249 3.56788
-2.75337 1.77858 3.57296
-2.76345 1.77742 3.56205
-2.77749 1.77835 3.55614
-2.78353 1.77828 3.55119
-2.80054 1.78126 3.54927
-2.80965 1.77906 3.53537
-2.83675 1.78089 3.52255
-2.84188 1.77662 3.50465
-2.877 1.77943 3.48987
-2.95048 1.77652 3.42545
-2.96255 1.77639 3.41655
-2.97956 1.78038 3.41461
-2.99065 1.77922 3.40371
-3.00073 1.77807 3.39281
-3.08133 1.77394 3.31346
-3.11645 1.77773 3.29767
-3.14671 1.77525 3.26393
3.38224 1.74784 2.96811
3.37333 1.74802 2.98017
3.35248 1.74835 3.00133
3.34451 1.7474 3.0044
3.31862 1.74464 3.01964
3.31576 1.74892 3.0386
3.2919 1.74821 3.05679
3.27997 1.74735 3.0659
3.27097 1.74537 3.067
3.26609 1.7486 3.08199
3.25013 1.74568 3.08715
3.2392 1.74584 3.09723
3.22222 1.74189 3.10042
3.22038 1.74719 3.12036
3.21054 1.75152 3.14237
3.18163 1.74772 3.15465
3.16768 1.74584 3.16178
3.13087 1.74423 3.18708
3.12692 1.74533 3.1931
3.10507 1.74564 3.21326
3.09718 1.74785 3.22729
3.0733 1.74611 3.2435
3.06338 1.74728 3.25456
3.05944 1.7494 3.26256
3.04649 1.7475 3.26868
3.03355 1.74662 3.27679
3.02766 1.74985 3.29179
3.01775 1.75102 3.30285
3.00582 1.75118 3.31294
3.00094 1.75542 3.32892
2.98397 1.75249 3.33309
2.97598 1.75051 3.33418
2.96606 1.75168 3.34524
2.95615 1.75285 3.3563
2.93109 1.74476 3.3496
2.92521 1.74801 3.3656
2.90924 1.74508 3.36977
2.90033 1.74726 3.3818
2.89538 1.74835 3.38782
2.8895 1.75159 3.40382
2.8715 1.74761 3.40402
2.86562 1.75185 3.42
2.84561 1.74585 3.41924
2.83166 1.74495 3.42536
2.83185 1.75332 3.45024
2.81477 1.74618 3.44047
2.8099 1.75044 3.45745
2.79392 1.74749 3.46061
2.78402 1.74968 3.47266
2.7741 1.75085 3.48371
2.76519 1.75303 3.49575
2.74315 1.74597 3.49102
2.74325 1.75017 3.50396
2.73233 1.75132 3.51403
2.71331 1.74631 3.51224
2.70542 1.74953 3.52726
2.69551 1.7507 3.53832
2.67649 1.74569 3.53653
2.66759 1.74789 3.54957
2.66465 1.75101 3.55755
2.64463 1.74499 3.55579
2.63573 1.74819 3.56881
2.62582 1.74936 3.57987
2.60782 1.74538 3.58006
2.60499 1.7527 3.60198
2.59305 1.75285 3.61107
2.57797 1.74571 3.60128
2.56604 1.74685 3.61036
2.5531 1.74596 3.61747
2.53812 1.74402 3.62061
2.52923 1.74723 3.63463
2.51526 1.74632 3.63975
2.49827 1.74334 3.64093
2.49736 1.74652 3.65289
2.48238 1.74458 3.65603
2.47147 1.74675 3.66708
2.46054 1.74689 3.67616
2.44253 1.7439 3.67634
2.43769 1.7502 3.69629
2.42169 1.74723 3.69745
2.36698 1.74882 3.73485
2.32116 1.74821 3.7592
2.28028 1.74647 3.77554
2.22252 1.74699 3.80797
2.07921 1.75443 3.89895
2.06917 1.75137 3.89507
2.0542 1.75043 3.8982
2.04227 1.75159 3.90828
2.01434 1.75074 3.9175
1.99149 1.75404 3.93663
1.95556 1.75121 3.94694
1.92764 1.75139 3.95815
1.90581 1.75574 3.98025
1.88283 1.75278 3.98247
1.87091 1.75495 3.99353
1.85593 1.75399 3.99566
1.84398 1.75511 4.00273
1.82799 1.75213 4.0039
1.81504 1.75325 4.01098
1.81112 1.7564 4.02096
1.78319 1.75555 4.03019
1.7682 1.75459 4.03231
1.73926 1.75273 4.04056
1.73038 1.75796 4.05555
1.71932 1.75286 4.04871
1.68048 1.7562 4.06996
1.64165 1.75956 4.0922
1.60674 1.75976 4.10446
1.56382 1.75694 4.11483
1.54782 1.75597 4.11596
1.52687 1.75507 4.12214
1.44409 1.75656 4.15174
1.4143 1.76398 4.17886
1.25556 1.7596 4.21413
1.18369 1.7589 4.23168
1.12083 1.76123 4.25112
1.06395 1.76249 4.26653
1.05803 1.76566 4.27753
1.04095 1.75951 4.26675
1.01303 1.76269 4.27792
1.0032 1.77003 4.29989
0.983039 1.75973 4.27919
-1.17791 1.77829 4.15918
-1.19193 1.77827 4.15728
-1.20692 1.78028 4.15736
-1.21201 1.77612 4.14646
-1.22604 1.77607 4.14257
-1.24007 1.77602 4.13867
-1.25019 1.77081 4.12383
-1.26324 1.76972 4.11694
-1.27921 1.77277 4.12002
-1.29929 1.77064 4.1102
-1.31137 1.7685 4.10032
-1.32736 1.77053 4.10141
-1.33941 1.76943 4.09451
-1.35539 1.77247 4.09659
-1.37351 1.76826 4.08179
-1.39046 1.77336 4.08784
-1.40059 1.76712 4.07101
-1.41754 1.77222 4.07706
-1.42668 1.76596 4.05922
-1.44266 1.769 4.06129
-1.4567 1.76894 4.0564
-1.46876 1.76683 4.04852
-1.49078 1.7688 4.04566
-1.50285 1.76668 4.03678
-1.52993 1.76653 4.02598
-1.55602 1.76537 4.01419
-1.56403 1.76637 4.01324
-1.57805 1.76633 4.01035
-1.59109 1.76627 4.00545
-1.62012 1.76921 4.00062
-1.63219 1.76709 3.99174
-1.64427 1.76495 3.98186
-1.65521 1.76908 3.98988
-1.66531 1.76588 3.97601
-1.67933 1.76686 3.9741
-1.70837 1.76879 3.96829
-1.75257 1.76544 3.94266
-1.81878 1.76506 3.91417
-1.82679 1.76605 3.91321
-1.86789 1.76787 3.89949
-1.89497 1.76774 3.8897
-1.90506 1.76557 3.8778
-1.93005 1.7706 3.87892
-1.94211 1.76949 3.87102
-1.95024 1.76425 3.85416
-1.96525 1.76623 3.85224
-1.97928 1.76718 3.84833
-2.00229 1.77018 3.84746
-2.01338 1.76801 3.83558
-2.0215 1.76378 3.8197
-2.03552 1.76475 3.81679
-2.06039 1.776 3.83281
-2.06063 1.76354 3.80199
-2.07763 1.76656 3.80208
-2.09265 1.76954 3.80015
-2.10064 1.77054 3.80019
-2.11172 1.7694 3.79029
-2.12773 1.77138 3.78838
-2.13387 1.76612 3.7705
-2.15481 1.77326 3.77856
-2.16982 1.77524 3.77664
-2.17499 1.76791 3.75478
-2.18793 1.77304 3.76281
-2.20096 1.77398 3.75789
-2.20909 1.76873 3.74103
-2.22806 1.7748 3.74508
-2.23714 1.77265 3.73418
-2.24823 1.77049 3.72329
-2.26424 1.77248 3.72139
-2.27225 1.77447 3.72042
-2.28036 1.77025 3.70554
-2.30031 1.77635 3.7116
-2.31336 1.77727 3.70568
-2.31851 1.77098 3.68581
-2.33649 1.77502 3.68789
-2.35447 1.78007 3.68995
-2.35657 1.77589 3.67802
-2.37455 1.78093 3.68009
-2.39867 1.77971 3.66428
-2.43387 1.77734 3.63758
-2.46699 1.77913 3.6218
-2.50713 1.78087 3.60307
-2.52324 1.77966 3.58821
-2.54836 1.77946 3.5734
-2.5705 1.7782 3.55458
-2.5966 1.77902 3.54177
-2.61164 1.78094 3.53585
-2.61568 1.77987 3.5309
-2.62775 1.77975 3.52199
-2.63783 1.77859 3.51108
-2.64693 1.77541 3.49819
-2.66196 1.77836 3.49426
-2.67501 1.77826 3.48736
-2.68707 1.77815 3.47945
-2.70021 1.77488 3.4606
-2.71327 1.77579 3.45368
-2.7184 1.77153 3.43578
-2.74945 1.77645 3.42894
-2.76053 1.77531 3.41904
-2.76953 1.77731 3.41908
-2.78258 1.77822 3.41216
-2.78474 1.77191 3.39127
-2.80787 1.77167 3.37444
-2.81597 1.76947 3.36054
-2.83397 1.77349 3.36061
-2.84595 1.77754 3.36364
-2.85207 1.77331 3.34775
-2.8661 1.77624 3.34281
-2.87124 1.77098 3.32493
-2.88132 1.76984 3.31502
-2.89537 1.77175 3.30809
-2.90644 1.77162 3.29918
-2.91346 1.77258 3.29622
-2.9356 1.77232 3.27738
-2.94072 1.76808 3.26148
-2.95179 1.76796 3.25257
-2.96782 1.77091 3.24864
-2.98088 1.7718 3.24073
-2.98988 1.77379 3.23977
-3.00194 1.77468 3.23184
-3.00707 1.77045 3.21594
-3.01913 1.77134 3.20802
-3.03218 1.77225 3.2011
-3.04127 1.77107 3.18919
-3.05531 1.773 3.18326
-3.06936 1.7739 3.17635
-3.06846 1.77072 3.16439
-3.08151 1.77163 3.15748
-3.09357 1.77252 3.14955
-3.09968 1.7693 3.13465
-3.11472 1.77122 3.12873
-3.12877 1.77315 3.12281
-3.13785 1.77299 3.11188
-3.13694 1.76881 3.09993
-3.15694 1.77383 3.1
-3.16802 1.77369 3.09009
-3.16917 1.76839 3.07017
-3.18718 1.77237 3.06825
-3.19726 1.77222 3.05733
-3.20635 1.77105 3.04541
-3.21437 1.77202 3.04346
-3.22444 1.77188 3.03353
3.22817 1.74782 2.96027
3.21422 1.74592 2.9664
3.20832 1.74813 2.98041
3.18747 1.74844 3.00057
3.14872 1.74794 3.03287
3.1388 1.74911 3.04393
3.12484 1.74619 3.04908
3.11896 1.74944 3.06508
3.10399 1.74651 3.06924
3.08213 1.7468 3.0884
3.08222 1.74997 3.09935
3.06523 1.74701 3.10153
3.05934 1.75023 3.11652
3.04539 1.74733 3.12267
3.03446 1.74747 3.13175
3.02454 1.74864 3.14281
3.01159 1.74776 3.14993
3.00461 1.74681 3.15299
2.99267 1.74594 3.1611
2.98377 1.74812 3.17313
2.97283 1.74826 3.18221
2.95484 1.74329 3.18342
2.95199 1.74857 3.20237
2.93802 1.74666 3.2075
2.94014 1.75188 3.22241
2.92516 1.74893 3.22557
2.91625 1.75112 3.23761
2.90027 1.74817 3.24077
2.88833 1.7473 3.24887
2.87336 1.74537 3.25302
2.86648 1.7486 3.26802
2.85849 1.74663 3.27011
2.84857 1.74779 3.28017
2.83561 1.74689 3.28628
2.82771 1.74908 3.29931
2.81376 1.74718 3.30545
2.80586 1.75038 3.31846
2.79392 1.75052 3.32755
2.78795 1.74957 3.33061
2.775 1.74868 3.33772
2.76811 1.75191 3.35273
2.75314 1.74998 3.35687
2.73513 1.74498 3.35608
2.72623 1.74716 3.36811
2.71328 1.74628 3.37523
2.68646 1.74865 3.3994
2.6725 1.74674 3.40453
2.65449 1.74174 3.40374
2.6567 1.75215 3.43157
2.63667 1.7461 3.42781
2.6217 1.74417 3.43195
2.61978 1.74732 3.44192
2.60885 1.74848 3.45199
2.59287 1.74552 3.45416
2.58598 1.74873 3.46816
2.57504 1.74987 3.47723
2.56412 1.75003 3.48731
2.54813 1.74707 3.48947
2.54419 1.74918 3.49647
2.51929 1.7484 3.51067
2.50735 1.74853 3.51876
2.49035 1.74454 3.51895
2.48246 1.74776 3.53296
2.4685 1.74686 3.53908
2.45261 1.74907 3.55317
2.43966 1.74819 3.56028
2.42468 1.74623 3.56243
2.4097 1.74428 3.56557
2.40081 1.7475 3.57959
2.38188 1.74664 3.58875
2.35597 1.74484 3.60097
2.3491 1.7501 3.61795
2.33614 1.7492 3.62406
2.31125 1.74942 3.63824
2.2992 1.74534 3.63239
2.28725 1.74545 3.63948
2.28951 1.75794 3.67229
