4.31722 1.75701 3.76178
4.29525 1.75309 3.766
4.27752 1.75762 3.80107
4.25151 1.75164 3.80136
4.24677 1.75814 3.8353
4.23489 1.75937 3.85037
4.20586 1.75235 3.8477
4.21413 1.76186 3.8825
4.19215 1.75792 3.88572
4.17623 1.7571 3.89686
4.16827 1.75618 3.90193
4.14832 1.75328 3.90812
4.1455 1.75864 3.93207
4.13361 1.75985 3.94614
4.11365 1.75696 3.95234
4.10982 1.76129 3.97431
4.09693 1.76152 3.9894
4.08695 1.76055 3.99149
4.08111 1.76387 4.01249
4.0541 1.75788 4.01178
4.04826 1.76219 4.03276
4.03132 1.76032 4.04092
4.02145 1.76258 4.05796
4.00664 1.76598 4.08403
3.9897 1.76411 4.09218
3.97277 1.76325 4.10133
3.96693 1.76757 4.12231
3.93991 1.76056 4.12062
3.93407 1.76487 4.1416
3.91613 1.763 4.14976
3.9112 1.76414 4.15878
3.90436 1.76844 4.17878
3.87632 1.7614 4.17509
3.86342 1.76161 4.18819
3.86061 1.76798 4.21312
3.83864 1.76405 4.21734
3.82776 1.7663 4.23339
3.82081 1.76639 4.23944
3.81498 1.77072 4.26143
3.79199 1.76677 4.26366
3.77707 1.76593 4.27379
3.7672 1.7692 4.29181
3.7543 1.7704 4.30489
3.73333 1.76648 4.30911
3.72952 1.77285 4.33405
3.71651 1.76983 4.33219
3.69755 1.76693 4.33838
3.69173 1.77228 4.36135
3.66671 1.76727 4.35961
3.65482 1.7685 4.37468
3.64495 1.77175 4.39171
3.63004 1.77194 4.40382
3.614 1.76688 4.39902
3.60413 1.77014 4.41604
3.58719 1.76827 4.4242
3.57329 1.76947 4.43729
3.55736 1.76862 4.44642
3.54649 1.77188 4.46346
3.52854 1.76999 4.47062
3.52462 1.77215 4.48062
3.50566 1.77025 4.48679
3.49176 1.77145 4.49988
3.4819 1.77472 4.51791
3.46091 1.77077 4.52013
3.44196 1.76887 4.5263
3.43816 1.77526 4.55224
3.41402 1.76601 4.53455
3.40821 1.77239 4.55951
3.3943 1.77257 4.57161
3.37838 1.77273 4.58173
3.36042 1.77084 4.58789
3.35056 1.77511 4.60591
3.32149 1.76701 4.59825
3.32364 1.77329 4.61714
3.30771 1.77244 4.62627
3.28976 1.77155 4.63342
3.26777 1.76758 4.63465
3.26094 1.77293 4.65762
3.244 1.77206 4.66576
3.22606 1.77118 4.67291
3.22416 1.77437 4.68588
3.19912 1.76933 4.68214
3.18522 1.77053 4.69523
3.17436 1.77381 4.71327
3.15438 1.77187 4.71645
3.13643 1.76998 4.72361
3.1205 1.77011 4.73173
3.10356 1.76924 4.73987
3.08749 1.76412 4.73107
3.08574 1.77361 4.76395
3.06374 1.76963 4.76417
3.04679 1.76974 4.7713
3.03593 1.77302 4.78933
3.00987 1.76693 4.78262
2.99597 1.76814 4.79571
2.99003 1.76926 4.80374
2.97005 1.7673 4.80592
2.94631 1.77282 4.84002
2.89346 1.77116 4.86045
2.88244 1.76814 4.85857
2.86753 1.76933 4.87067
2.79976 1.76882 4.90119
2.764 1.77232 4.93341
2.5617 1.77183 5.02696
2.45209 1.77266 5.07878
2.35145 1.77445 5.12752
2.29164 1.77486 5.15296
2.24081 1.77622 5.17533
2.19999 1.77759 5.19862
2.14711 1.77687 5.21503
2.11425 1.77918 5.23425
2.07343 1.78155 5.25752
2.02057 1.78187 5.27692
1.99364 1.782 5.28512
1.97361 1.77897 5.28232
1.94077 1.78231 5.30352
1.92382 1.78241 5.30965
1.90893 1.78564 5.32471
1.88585 1.7795 5.31398
1.87687 1.77955 5.31704
1.86402 1.78485 5.33706
1.84402 1.78285 5.33624
1.82605 1.78294 5.34138
1.81422 1.78827 5.36339
1.78808 1.78003 5.34571
1.77421 1.78429 5.36275
1.77138 1.7906 5.38368
1.74829 1.78546 5.37293
1.73134 1.78557 5.38006
1.71545 1.78879 5.39413
1.6944 1.7847 5.38735
1.67644 1.78479 5.39249
1.6636 1.79111 5.41349
1.64848 1.7839 5.39871
1.63359 1.78812 5.41276
1.62077 1.79447 5.43577
1.59972 1.79039 5.42999
1.58176 1.79048 5.43512
1.5638 1.79057 5.44026
1.5448 1.7896 5.44141
1.52683 1.78967 5.44555
1.52198 1.79495 5.46451
1.49783 1.78669 5.44581
1.47783 1.78469 5.44499
1.46706 1.79414 5.47494
1.42599 1.78804 5.46633
1.40805 1.78917 5.47445
1.397 1.78709 5.46857
1.37801 1.78512 5.46974
1.36106 1.78622 5.47585
1.3462 1.79151 5.49489
1.32619 1.78949 5.49307
1.30923 1.7906 5.49918
1.28716 1.78548 5.49042
1.28128 1.79071 5.50539
1.26437 1.7929 5.51749
1.24328 1.78773 5.50572
1.22949 1.79614 5.5327
1.20946 1.7931 5.5289
1.18734 1.78689 5.51416
1.17248 1.79217 5.53219
1.16452 1.79326 5.53824
1.14138 1.786 5.51952
1.12656 1.79337 5.54352
1.10756 1.79138 5.54369
1.09062 1.7935 5.55079
1.07164 1.79355 5.55393
1.05575 1.79677 5.56801
1.04155 1.7874 5.54225
1.02569 1.79268 5.56029
1.00878 1.79587 5.57238
0.986663 1.78966 5.55763
0.971809 1.79495 5.57667
0.953879 1.7971 5.58577
0.932771 1.79191 5.57201
0.914833 1.79404 5.58011
0.907949 1.79826 5.5951
0.887895 1.79518 5.5883
0.868871 1.79315 5.58547
0.849864 1.79214 5.58463
0.832987 1.79639 5.6007
0.814003 1.79644 5.60284
0.797065 1.79857 5.61094
0.783871 1.78921 5.58617
0.768034 1.79553 5.6072
0.749049 1.79557 5.60934
0.72898 1.79245 5.60054
0.712088 1.79567 5.61462
0.693089 1.79569 5.61476
0.675135 1.79679 5.62088
0.666166 1.79786 5.62494
0.648244 1.80102 5.63503
0.628128 1.79481 5.62027
0.610198 1.79796 5.62936
0.590136 1.79485 5.62155
0.57112 1.79284 5.61973
0.554252 1.7981 5.63678
0.545275 1.79915 5.63983
0.525183 1.79499 5.62804
0.507237 1.7961 5.63516
0.489291 1.79822 5.64226
0.470338 1.79932 5.64839
0.4513 1.79826 5.64355
0.433339 1.79935 5.64867
0.423316 1.79831 5.64576
0.405339 1.79837 5.6489
0.386394 1.80049 5.65601
0.368402 1.80052 5.65714
0.348263 1.79427 5.63939
0.330433 1.8016 5.66141
0.310295 1.79535 5.64366
0.30241 1.79958 5.65865
0.284504 1.80377 5.67073
0.265465 1.80171 5.6659
0.245358 1.79652 5.65213
0.227404 1.79862 5.65823
0.208467 1.80175 5.66633
0.18946 1.80075 5.66549
0.171584 1.806 5.68155
0.161491 1.80183 5.66968
0.143499 1.80186 5.67082
0.124515 1.8029 5.67295
0.105384 1.79666 5.65618
0.0865008 1.8019 5.67125
0.0684166 1.79875 5.66043
0.0494786 1.80088 5.66854
0.0287421 1.79049 5.43882
0.0107269 1.78948 5.43697
-0.0072569 1.79052 5.43909
-0.0252564 1.79053 5.43923
-0.052186 1.79368 5.44838
-0.0702319 1.79161 5.44255
-0.0891924 1.7937 5.44766
-0.107153 1.79578 5.45277
-0.125215 1.79268 5.44495
-0.143198 1.79372 5.44707
-0.16112 1.79788 5.45714
-0.179267 1.79061 5.43839
-0.188181 1.79478 5.44939
-0.206204 1.79375 5.44654
-0.225149 1.79687 5.45364
-0.242203 1.79478 5.4468
-0.261102 1.79898 5.45988
-0.279186 1.79583 5.44906
-0.298045 1.80311 5.4671
-0.306177 1.79687 5.45025
-0.323277 1.79269 5.43744
-0.342168 1.79791 5.45151
-0.361128 1.8 5.45662
-0.378212 1.79685 5.44579
-0.397165 1.79895 5.45191
-0.414203 1.79789 5.44705
-0.42418 1.79894 5.45011
-0.442179 1.79995 5.45023
-0.4611 1.80411 5.46031
-0.4782 1.79993 5.4475
-0.497138 1.80307 5.4556
-0.516106 1.80514 5.45971
-0.533206 1.80096 5.4469
-0.542174 1.80302 5.45094
-0.560212 1.80196 5.44609
-0.577273 1.79986 5.43825
-0.598094 1.80821 5.46128
-0.616124 1.80817 5.45742
-0.632254 1.80293 5.44062
-0.651215 1.80501 5.44573
-0.662137 1.80917 5.45575
-0.680167 1.80812 5.4519
-1.13774 1.8073 5.37735
-1.14576 1.80626 5.37443
-1.16476 1.80829 5.37554
-1.18184 1.80514 5.36471
-1.19695 1.80193 5.34987
-1.21495 1.80294 5.34999
-1.23397 1.80293 5.34814
-1.25198 1.80391 5.34626
-1.26001 1.80286 5.34233
-1.27612 1.79966 5.3285
-1.29412 1.80168 5.32861
-1.31116 1.8006 5.32275
-1.32727 1.79741 5.30892
-1.34528 1.79739 5.30705
-1.36137 1.79522 5.2952
-1.37745 1.79309 5.28536
-1.38838 1.79723 5.29438
-1.40446 1.79509 5.28453
-1.42152 1.79399 5.27667
-1.44148 1.79706 5.28078
-1.45853 1.79598 5.27492
-1.47558 1.79589 5.26805
-1.49263 1.79481 5.26219
-1.5026 1.79687 5.26524
-1.51771 1.79367 5.2514
-1.53671 1.79568 5.25151
-1.5557 1.79671 5.25264
-1.56982 1.79349 5.23679
-1.58882 1.7955 5.23691
-1.60683 1.7965 5.23603
-1.61488 1.7954 5.2291
-1.63485 1.79847 5.23321
-1.65384 1.80049 5.23332
-1.66699 1.79522 5.2145
-1.68405 1.79411 5.20664
-1.70303 1.79615 5.20875
-1.72009 1.79606 5.20188
-1.72715 1.79395 5.19396
-1.74712 1.79701 5.19707
-1.75928 1.79172 5.17724
-1.77827 1.79373 5.17735
-1.79827 1.79576 5.17847
-1.81139 1.79254 5.16262
-1.83529 1.79873 5.17471
-1.83942 1.7945 5.1588
-1.85547 1.79341 5.15193
-1.87644 1.79647 5.15505
-1.89348 1.7974 5.15016
-1.90858 1.79422 5.13732
-1.92758 1.79622 5.13643
-1.94463 1.79614 5.13056
-1.95463 1.79715 5.13062
-1.97264 1.79914 5.12873
-1.9887 1.79803 5.12086
-2.00183 1.79379 5.10402
-2.02085 1.79577 5.10214
-2.04378 1.80091 5.11024
-2.05887 1.79874 5.09838
-2.07395 1.7976 5.08851
-2.08982 1.80485 5.10452
-2.10198 1.79955 5.08369
-2.11803 1.79947 5.07781
-2.13901 1.80252 5.07993
-2.15312 1.79932 5.06608
-2.1731 1.80336 5.06817
-2.18211 1.80334 5.06624
-2.21622 1.80316 5.05249
-2.34163 1.80243 4.99844
-2.39279 1.80316 4.97781
-2.40785 1.80204 4.96894
-2.45 1.80179 4.95026
-2.48015 1.7995 4.92952
-2.49425 1.79732 4.91666
-2.51524 1.80136 4.91875
-2.52524 1.80235 4.91781
-2.53836 1.80014 4.90294
-2.5554 1.80106 4.89706
-2.57049 1.7989 4.8852
-2.58556 1.79878 4.87632
-2.60656 1.80179 4.87643
-2.61769 1.79855 4.85956
-2.62967 1.80059 4.86162
-2.6549 1.79516 4.83189
-2.67589 1.79817 4.832
-2.69097 1.79804 4.82211
-2.70506 1.79587 4.81025
-2.72211 1.79678 4.80336
-2.73014 1.79673 4.79943
-2.74621 1.7966 4.79055
-2.76129 1.79547 4.78068
-2.77933 1.79739 4.77478
-2.79342 1.79522 4.76292
-2.80455 1.79198 4.74605
-2.82258 1.79393 4.74215
-2.83062 1.79387 4.73722
-2.84569 1.79373 4.72733
-2.86275 1.79362 4.71946
-2.865 1.78415 4.68761
-2.8929 1.79335 4.69969
-2.90205 1.78806 4.67983
-2.92404 1.79311 4.68192
-2.93603 1.79513 4.68298
-2.9432 1.78879 4.66013
-2.96124 1.79073 4.65523
-2.97632 1.79058 4.64435
-2.98251 1.78423 4.62049
-3.00845 1.79035 4.62759
-3.01957 1.78812 4.61171
-3.03464 1.78799 4.60182
-3.04367 1.78795 4.59889
-3.05973 1.78884 4.591
-3.0669 1.78351 4.56813
-3.09285 1.78961 4.57423
-3.10299 1.78636 4.55635
-3.11411 1.78413 4.54047
-3.13215 1.78607 4.53558
-3.14611 1.78915 4.54064
-3.15724 1.78691 4.52375
-3.17429 1.78781 4.51686
-3.18343 1.78354 4.49799
-3.19257 1.78028 4.48011
-3.21754 1.78636 4.48421
-3.22867 1.78311 4.46734
-3.23077 1.77992 4.4544
-3.26166 1.79014 4.46748
-3.28069 1.79209 4.4636
-3.28094 1.78262 4.43173
-3.30292 1.78765 4.43282
-3.31505 1.78542 4.41695
-3.32616 1.78321 4.40206
-3.33815 1.78523 4.40312
-3.36015 1.79025 4.40321
-3.36928 1.78699 4.38533
-3.3814 1.78477 4.37045
-3.40043 1.78671 4.36556
-3.41155 1.7845 4.35068
-3.43554 1.78953 4.35178
-3.44258 1.78945 4.34584
-3.45469 1.78825 4.33194
-3.47075 1.78913 4.32305
-3.48187 1.7869 4.30717
-3.49694 1.78778 4.29826
-3.51598 1.78972 4.29338
-3.53304 1.79061 4.28549
-3.53811 1.78948 4.27655
-3.5512 1.7883 4.26366
-3.57024 1.79124 4.25876
-3.57343 1.78487 4.23388
-3.58653 1.78469 4.22097
-3.61646 1.79283 4.22908
-3.62064 1.78749 4.20619
-3.63671 1.78735 4.19631
-3.64177 1.78725 4.18935
-3.65586 1.78709 4.17746
-3.67193 1.78695 4.16758
-3.68205 1.78572 4.15167
-3.70208 1.78867 4.14778
-3.71022 1.7854 4.12888
-3.72827 1.78732 4.12299
-3.74423 1.79139 4.12705
-3.74842 1.78604 4.10316
-3.76547 1.78795 4.09626
-3.80873 1.78846 4.06157
-3.83184 1.78926 4.04673
-3.837 1.78495 4.02583
-3.86001 1.78994 4.02393
-3.86815 1.78668 4.00604
-3.91537 1.78927 3.97635
4.7278 1.74111 2.9078
4.69889 1.73631 2.92009
4.69101 1.73757 2.93713
4.69219 1.74191 2.96006
4.67526 1.74007 2.97022
4.66235 1.73925 2.98233
4.64744 1.73744 2.99447
4.63747 1.7355 2.99758
4.63663 1.73982 3.01952
4.62172 1.738 3.03066
4.6058 1.73617 3.04181
4.60194 1.73845 3.06081
4.59306 1.73968 3.07586
4.57412 1.73683 3.08505
4.57018 1.73795 3.09306
4.56432 1.73922 3.11109
4.54739 1.73737 3.12024
4.53046 1.73453 3.13042
4.52962 1.73884 3.15136
4.51873 1.73905 3.16544
4.49979 1.7362 3.17463
4.49586 1.73732 3.18264
4.48295 1.73653 3.19575
4.46904 1.7357 3.20687
4.46619 1.739 3.22685
4.44725 1.73613 3.23503
4.43334 1.73532 3.24715
4.42747 1.73759 3.26517
4.42957 1.74078 3.2781
4.42472 1.74406 3.29709
4.40578 1.74119 3.30528
4.38884 1.73833 3.31345
4.38298 1.74161 3.33245
4.37109 1.74183 3.34654
4.35415 1.73896 3.35471
4.35534 1.74533 3.37961
4.34838 1.74442 3.38568
4.32641 1.7405 3.3899
4.32257 1.7438 3.40988
4.30765 1.74297 3.42101
4.29273 1.74114 3.43215
4.28688 1.74443 3.45115
4.27295 1.74359 3.46127
4.26096 1.74063 3.4634
4.2551 1.7439 3.4814
4.24321 1.74411 3.49549
4.22527 1.74124 3.50367
4.21336 1.74145 3.51676
4.21254 1.74679 3.53969
4.19863 1.74597 3.5518
4.18764 1.74401 3.55392
4.17776 1.74524 3.56897
4.15982 1.74337 3.57714
4.14288 1.7405 3.58531
4.13401 1.74276 3.60235
4.12512 1.74399 3.6174
4.11625 1.74625 3.63443
4.09922 1.7412 3.63064
4.08449 1.74673 3.66567
4.06251 1.74179 3.66891
4.05161 1.74301 3.68297
4.03569 1.74217 3.69311
4.02378 1.74235 3.7052
4.01683 1.74246 3.71225
3.99605 1.74391 3.74139
3.98012 1.74305 3.75052
3.96722 1.74325 3.76362
3.96035 1.74652 3.78162
3.94039 1.74361 3.78682
3.93545 1.74373 3.79485
3.92254 1.74392 3.80695
3.89672 1.7443 3.83114
3.88483 1.74551 3.84522
3.84207 1.74402 3.87756
3.83229 1.74945 3.90656
3.81636 1.7486 3.9157
3.7984 1.7457 3.92187
3.78651 1.74692 3.93595
3.77259 1.74709 3.94705
3.714 1.74793 4.00149
3.70009 1.74812 4.01359
3.69022 1.75036 4.02964
3.67327 1.74848 4.03679
3.66732 1.74959 4.04382
3.6415 1.75096 4.068
3.63365 1.75425 4.08701
3.61771 1.75338 4.09515
3.59976 1.7515 4.10231
3.59594 1.75684 4.12526
3.58393 1.75385 4.1254
3.5561 1.75419 4.14761
3.51234 1.7547 4.17993
3.4477 1.75444 4.22743
3.39596 1.75398 4.26183
3.36712 1.75432 4.28305
3.3522 1.75449 4.29416
3.30943 1.75498 4.32548
3.27566 1.75745 4.3557
0.397563 1.7859 5.41411
0.298673 1.78918 5.42881
0.280666 1.78818 5.42796
0.244682 1.78823 5.43023
0.208706 1.7893 5.43348
0.190722 1.79034 5.4356
0.181699 1.78831 5.4327
0.163715 1.78935 5.43482
0.0917403 1.79045 5.43835
0.0646789 1.78735 5.4306
0.0467566 1.79051 5.44069
-0.0615003 1.78511 5.27456
-0.158373 1.79142 5.2912
-0.176334 1.79351 5.2963
-0.194248 1.79768 5.30738
-0.211371 1.79246 5.29158
-0.228394 1.79143 5.28872
-0.237323 1.79557 5.29773
-0.255253 1.79871 5.30682
-0.271493 1.78727 5.27611
-0.290314 1.79662 5.29911
-0.30836 1.79455 5.29328
-0.325328 1.79662 5.29738
-0.343288 1.7987 5.30248
-0.353226 1.80183 5.31051
-0.370288 1.79872 5.30269
-0.385519 1.78929 5.27294
-0.405309 1.7987 5.29995
-0.423292 1.80075 5.30206
-0.441269 1.8018 5.30518
-0.45833 1.7997 5.29733
-0.476282 1.8028 5.30342
-0.485297 1.80178 5.30151
-0.503296 1.80279 5.30163
-0.519366 1.79967 5.29279
-0.537364 1.80068 5.29291
-0.555333 1.80275 5.29702
-0.571495 1.79546 5.27625
-0.588509 1.79544 5.27438
-0.600299 1.80585 5.30131
-0.618314 1.80583 5.29945
-0.633507 1.79747 5.27468
-0.686511 1.79949 5.27405
-0.705449 1.80263 5.28215
-1.06484 1.8051 5.23181
-1.07286 1.80406 5.22889
-1.14101 1.80182 5.20943
-1.15805 1.80174 5.20356
-1.17701 1.80484 5.20966
-1.18408 1.8017 5.19976
-1.20112 1.80164 5.19489
-1.21815 1.80159 5.19102
-1.23616 1.80158 5.18915
-1.25419 1.80254 5.18627
-1.26927 1.79939 5.17543
-1.2863 1.79935 5.17156
-1.29338 1.79619 5.16066
-1.30946 1.79405 5.15081
-1.32745 1.79608 5.15192
-1.34254 1.79391 5.14006
-1.36249 1.79703 5.14717
-1.37953 1.79696 5.14129
-1.39461 1.79482 5.13144
-1.40167 1.79271 5.12352
-1.42163 1.79579 5.12863
-1.43671 1.79366 5.11877
-1.45569 1.7967 5.12087
-1.47272 1.79665 5.117
-1.48491 1.78929 5.09219
-1.50486 1.7934 5.09828
-1.51094 1.79025 5.08838
-1.52896 1.79122 5.0855
-1.54695 1.79325 5.0866
-1.56302 1.79113 5.07775
-1.57616 1.78687 5.05991
-1.59709 1.791 5.06801
-1.61412 1.79196 5.06412
-1.62117 1.79087 5.05819
-1.63528 1.78668 5.04436
-1.65524 1.79075 5.04845
-1.67326 1.79173 5.04657
-1.68736 1.78855 5.03372
-1.7083 1.79367 5.04081
-1.71851 1.78528 5.014
-1.73944 1.79043 5.02309
-1.74454 1.78624 5.01018
-1.76058 1.78616 5.00431
-1.77957 1.78919 5.0054
-1.80052 1.79331 5.0125
-1.81169 1.78698 4.98968
-1.82971 1.78794 4.9868
-1.83967 1.79103 4.99183
-1.85282 1.78575 4.973
-1.86886 1.78568 4.96712
-1.8908 1.79181 4.9752
-1.90392 1.7876 4.96036
-1.92389 1.79166 4.96345
-1.93797 1.7895 4.95258
-1.947 1.78947 4.94965
-1.965 1.79146 4.94876
-1.98302 1.79243 4.94588
-1.99613 1.78924 4.93202
-2.01709 1.79332 4.93712
-2.03316 1.7922 4.92826
-2.04823 1.79107 4.91839
-2.06525 1.79203 4.9155
-2.07622 1.7951 4.91954
-2.0962 1.79814 4.92165
-2.10835 1.79387 4.9028
-2.13028 1.80002 4.91187
-2.14241 1.79578 4.89502
-2.15944 1.79572 4.89015
-2.22351 1.80163 4.88155
-2.32689 1.79995 4.83134
-2.37408 1.7986 4.80572
-2.38718 1.79642 4.79285
-2.39817 1.79845 4.7949
-2.41126 1.79627 4.78203
-2.42633 1.79515 4.77316
-2.44239 1.79504 4.76528
-2.45452 1.7918 4.74841
-2.47451 1.79483 4.74952
-2.48367 1.78953 4.72867
-2.49072 1.78844 4.72273
-2.50678 1.78833 4.71486
-2.52678 1.79135 4.71496
-2.53988 1.78917 4.70209
-2.5569 1.79112 4.69819
-2.56213 1.78269 4.66935
-2.58607 1.78881 4.67644
-2.59015 1.78566 4.66552
-2.60227 1.78344 4.65064
-2.62127 1.78544 4.64975
-2.63635 1.7853 4.63987
-2.64748 1.78106 4.62301
-2.66748 1.78507 4.6231
-2.68254 1.78495 4.61421
-2.69466 1.78174 4.59935
-2.70268 1.7827 4.5964
-2.7138 1.77847 4.58054
-2.73282 1.78146 4.57864
-2.74394 1.77823 4.56277
-2.76986 1.78639 4.57285
-2.77506 1.778 4.54601
-2.79309 1.77995 4.54211
-2.80605 1.78404 4.54715
-2.81618 1.78079 4.53027
-2.8283 1.77758 4.51541
-2.8483 1.78158 4.5145
-2.85942 1.77835 4.49863
-2.87547 1.77926 4.49174
-2.89857 1.77908 4.47891
-2.92055 1.78413 4.481
-2.92969 1.77987 4.46313
-2.94081 1.77664 4.44726
-2.96181 1.78065 4.44736
-2.97096 1.77638 4.42849
-2.987 1.7783 4.42258
-2.998 1.78031 4.42263
-3.01801 1.78329 4.42074
-3.02319 1.77694 4.39687
-3.04419 1.78096 4.39697
-3.05827 1.77981 4.38609
-3.06642 1.77553 4.36721
-3.08939 1.78159 4.3703
-3.10138 1.78361 4.37136
-3.11151 1.78139 4.35546
-3.13251 1.78439 4.35458
-3.13572 1.77699 4.32771
-3.15473 1.78097 4.32579
-3.16585 1.77774 4.30992
-3.18586 1.78174 4.30901
-3.19587 1.78272 4.30707
-3.20402 1.77845 4.2882
-3.22205 1.78138 4.28329
-3.23713 1.78125 4.2734
-3.25515 1.7832 4.26951
-3.2633 1.77993 4.25061
-3.27837 1.7798 4.24173
-3.30036 1.78482 4.24182
-3.30246 1.78163 4.22888
-3.32248 1.7846 4.22599
-3.3326 1.78238 4.21109
-3.34569 1.78122 4.19921
-3.35779 1.78002 4.18532
-3.38275 1.78611 4.19041
-3.38793 1.78077 4.16753
-3.39596 1.78172 4.16358
-3.41004 1.78157 4.15268
-3.42313 1.7804 4.1408
-3.44414 1.78438 4.1389
-3.4602 1.78528 4.131
-3.46141 1.77788 4.10412
-3.48539 1.78393 4.10621
-3.4855 1.77972 4.09227
-3.49958 1.77957 4.08138
-3.51961 1.78252 4.07748
-3.52576 1.77923 4.05758
-3.53984 1.77908 4.04668
-3.56382 1.78412 4.04879
-3.57197 1.78085 4.0299
-3.58197 1.78284 4.02894
-3.59705 1.7837 4.01904
-3.60915 1.78252 4.00615
-3.62422 1.78338 3.99625
-3.64722 1.7884 3.99635
-3.64941 1.78203 3.97145
-3.66547 1.78292 3.96356
-3.66756 1.78075 3.95161
-3.69551 1.78786 3.95771
-3.70167 1.78455 3.93681
-3.7207 1.7875 3.9329
-3.7328 1.78632 3.92001
-3.73499 1.77995 3.89512
-3.75997 1.787 3.8972
-3.76513 1.78169 3.87632
-3.77613 1.78469 3.87536
-3.79121 1.78555 3.86546
-3.80034 1.7833 3.84856
-3.81343 1.78314 3.83665
-3.82652 1.78297 3.82475
-3.85964 1.78575 3.80896
-3.8637 1.78462 3.80001
-3.88492 1.78223 3.7722
4.71468 1.73396 2.62697
4.65239 1.7354 2.72143
4.64853 1.73768 2.74043
4.62774 1.73811 2.76858
4.6238 1.73822 2.77561
4.61492 1.73846 2.79167
4.5762 1.73604 2.82901
4.57635 1.73933 2.84896
4.54837 1.7324 2.85227
4.55951 1.73966 2.87009
4.53353 1.73272 2.87338
4.52262 1.73292 2.88647
4.51877 1.7352 2.90546
4.50184 1.73335 2.91462
4.49194 1.73356 2.92869
4.4911 1.73788 2.94964
4.4771 1.73389 2.9498
4.47325 1.73617 2.9688
4.46235 1.73639 2.98288
4.44642 1.73453 2.99203
4.43452 1.73373 3.00513
4.42261 1.73293 3.01824
4.40769 1.73109 3.02838
4.42396 1.7436 3.06307
4.39587 1.73346 3.05244
4.37894 1.7316 3.06159
4.37508 1.73389 3.08059
4.36418 1.73409 3.09367
4.34624 1.73122 3.10185
4.33635 1.73245 3.11691
4.32746 1.73266 3.13097
4.32554 1.73481 3.14096
4.3096 1.73296 3.15011
4.29468 1.73111 3.16025
4.29083 1.73441 3.18023
4.27993 1.73461 3.19331
4.26601 1.73379 3.20443
4.24806 1.7309 3.21161
4.24815 1.73308 3.22358
4.23725 1.73328 3.23666
4.22434 1.73347 3.24875
4.21948 1.73574 3.26676
4.21765 1.74107 3.2887
4.19265 1.7341 3.28999
4.17782 1.73544 3.31208
4.16088 1.73357 3.32024
4.14797 1.73275 3.33235
4.14211 1.73602 3.35035
4.13221 1.73624 3.36442
4.1193 1.73641 3.37552
4.11242 1.73867 3.39254
4.09742 1.73466 3.39171
4.08651 1.73486 3.40479
4.07159 1.73402 3.41492
4.06673 1.73731 3.43391
4.0508 1.73545 3.44306
4.04795 1.73975 3.46302
3.96068 1.74224 3.55965
3.93275 1.73841 3.56992
0.446349 1.78348 5.25275
0.376373 1.78257 5.25629
0.0324623 1.791 5.13574
0.0234318 1.78995 5.13183
0.00648683 1.79306 5.13891
-0.0105284 1.79205 5.13705
-0.0275122 1.79309 5.13916
-0.0445274 1.79207 5.13731
-0.0615426 1.79106 5.13545
-0.0785496 1.79105 5.13458
-0.0965178 1.79313 5.13868
-0.104479 1.7952 5.14371
-0.122393 1.79938 5.15479
-0.139439 1.7973 5.14895
-0.1565 1.7942 5.14112
-0.173477 1.79525 5.14423
-0.190437 1.79734 5.14933
-0.207444 1.79734 5.14846
-0.21649 1.79526 5.14256
-0.233498 1.79525 5.14169
-0.250412 1.79943 5.15275
-0.285394 1.80148 5.15499
-0.302417 1.80045 5.15213
-0.319486 1.79733 5.1433
-0.328401 1.8015 5.15431
-0.345423 1.80147 5.15144
-0.362407 1.80251 5.15355
-0.378515 1.79732 5.13975
-0.396436 1.80148 5.14982
-0.41349 1.79938 5.14298
-0.430535 1.79831 5.13712
-0.438519 1.79934 5.13917
-0.542553 1.80135 5.13492
-1.38571 1.79963 4.98428
-1.40178 1.79751 4.97543
-1.42072 1.80163 4.98251
-1.43289 1.79533 4.96169
-1.44385 1.79841 4.96673
-1.47401 1.79412 4.94602
-1.49297 1.79721 4.95112
-1.50999 1.79818 4.94823
-1.52311 1.79395 4.93239
-1.53916 1.79286 4.92553
-1.54815 1.79488 4.92657
-1.56321 1.79277 4.91871
-1.57927 1.79268 4.91183
-1.59727 1.79469 4.91194
-1.61429 1.79466 4.90906
-1.62937 1.79251 4.89821
-1.6503 1.79866 4.90728
-1.66145 1.79238 4.88845
-1.66948 1.79232 4.88351
-1.68747 1.79436 4.88562
-1.70253 1.79324 4.87675
-1.71467 1.78798 4.85891
-1.73267 1.78999 4.85902
-1.75361 1.79613 4.86709
-1.76574 1.79087 4.84925
-1.77865 1.79605 4.86128
-1.79178 1.79181 4.84443
-1.80978 1.79383 4.84454
-1.82582 1.79375 4.83866
-1.83894 1.79054 4.82381
-1.85497 1.79149 4.81991
-1.87004 1.78937 4.81106
-1.87904 1.79036 4.81011
-1.89803 1.7934 4.81221
-1.91505 1.79435 4.80832
-1.93013 1.79322 4.79845
-1.9442 1.79109 4.78959
-1.96515 1.7962 4.79567
-1.97726 1.79299 4.78081
-1.98725 1.79502 4.78285
-2.00134 1.79285 4.77099
-2.02327 1.79799 4.77908
-2.03737 1.79582 4.76721
-2.05733 1.79989 4.77131
-2.08944 1.79971 4.75755
-2.43165 1.79656 4.59815
-2.44868 1.79751 4.59426
-2.46375 1.79638 4.58439
-2.50796 1.79501 4.55774
-2.51399 1.79394 4.5528
-2.53005 1.79383 4.54493
-2.54413 1.7937 4.53503
-2.55722 1.79153 4.52316
-2.57228 1.79142 4.51528
-2.58932 1.79336 4.51037
-2.59846 1.78808 4.49152
-2.61043 1.79115 4.49556
-2.63957 1.79089 4.47678
-2.65365 1.78975 4.46691
-2.66575 1.78757 4.45403
-2.68377 1.78952 4.45013
-2.70573 1.79461 4.45522
-2.70982 1.79245 4.44429
-2.72587 1.79236 4.43741
-2.73994 1.79224 4.42851
-2.7471 1.78693 4.40764
-2.76217 1.78681 4.39876
-2.77822 1.78772 4.39186
-2.79624 1.78969 4.38897
-2.8134 1.78639 4.36815
-2.83242 1.78936 4.36524
-2.84847 1.78927 4.35837
-2.86254 1.78914 4.34947
-2.8707 1.78484 4.3286
-2.88773 1.78679 4.32469
-2.90872 1.79081 4.32479
-2.91378 1.78871 4.31786
-2.92192 1.78443 4.29898
-2.94292 1.78845 4.29908
-2.96292 1.79246 4.29917
-2.98712 1.78908 4.2724
-2.99823 1.78688 4.25852
-3.0102 1.78993 4.26156
-3.03439 1.78758 4.23677
-3.0554 1.79158 4.23587
-3.06848 1.79043 4.22499
-3.09168 1.78705 4.19821
-3.11082 1.78479 4.18038
-3.12588 1.78569 4.17248
-3.14588 1.78968 4.17157
-3.157 1.78747 4.15669
-3.17008 1.78632 4.1458
-3.19614 1.79022 4.13794
-3.20922 1.78906 4.12706
-3.23738 1.78877 4.10627
-3.24452 1.7845 4.08738
-3.26256 1.78744 4.08247
-3.27267 1.78524 4.06858
-3.28267 1.78723 4.06763
-3.30071 1.78915 4.06173
-3.30785 1.78489 4.04385
-3.32292 1.78577 4.03495
-3.35008 1.78548 4.01415
-3.39934 1.786 3.97951
-3.51006 1.78366 3.88437
-3.55228 1.78424 3.85467
4.33682 1.74242 2.91273
4.24567 1.74315 3.02542
4.23586 1.74553 3.05046
4.19812 1.74406 3.08477
4.19124 1.7453 3.10081
4.18335 1.74653 3.11585
4.1764 1.74662 3.1219
4.15946 1.74375 3.13007
4.15157 1.74498 3.14512
4.14268 1.74619 3.15917
4.13177 1.74639 3.17225
4.11182 1.7425 3.17846
4.09303 1.74393 3.20658
4.09614 1.74813 3.2205
4.0802 1.74628 3.22965
4.06829 1.74645 3.24074
4.05436 1.74461 3.25087
4.0344 1.7417 3.25606
4.03558 1.74705 3.27998
4.02267 1.74724 3.29208
4.00765 1.7422 3.28926
3.99372 1.74136 3.29938
3.98887 1.74465 3.31837
3.97091 1.74175 3.32455
3.96606 1.74503 3.34354
3.94911 1.74315 3.3507
3.93921 1.74336 3.36477
3.9393 1.74653 3.37573
3.93948 1.75288 3.39963
3.90037 1.7397 3.38612
3.89047 1.7399 3.39919
3.89267 1.74729 3.42507
3.86968 1.74232 3.42632
3.84769 1.73636 3.42857
3.85887 1.7457 3.45135
3.82881 1.73661 3.44471
3.83102 1.74401 3.47159
3.83321 1.75038 3.49648
3.79812 1.73924 3.48591
3.78016 1.73633 3.49109
3.79043 1.74784 3.52585
3.77339 1.74278 3.52105
3.75945 1.74192 3.53017
3.75057 1.74417 3.54621
3.72657 1.73818 3.54648
3.71869 1.74041 3.5615
3.71182 1.74267 3.57852
3.69285 1.73976 3.58371
3.68791 1.74086 3.59073
3.67397 1.73901 3.59987
3.64429 1.74365 3.64203
3.61341 1.74091 3.6583
3.61059 1.74625 3.68125
3.59656 1.74222 3.67841
3.56971 1.74152 3.69763
3.55781 1.74272 3.7107
3.535 1.74411 3.73586
3.50723 1.74659 3.76703
3.46343 1.74402 3.79441
3.43366 1.74648 3.8246
3.41771 1.74459 3.83075
3.39288 1.74494 3.85393
3.38198 1.74714 3.86698
3.3612 1.75059 3.89609
3.34918 1.74757 3.89423
3.33728 1.74775 3.90632
3.33042 1.75204 3.92531
3.31144 1.7491 3.92849
3.30156 1.75133 3.94354
3.28459 1.74941 3.94869
3.27066 1.74856 3.95781
3.26775 1.75172 3.96879
3.25482 1.75188 3.97889
3.18315 1.74958 4.02347
3.14149 1.75427 4.06772
3.12959 1.75547 4.08079
3.10756 1.75044 4.07803
3.08668 1.75068 4.09319
3.07578 1.75289 4.10724
3.0578 1.75095 4.1104
3.03601 1.75436 4.13752
3.00412 1.7526 4.15179
2.99018 1.75274 4.16089
2.94244 1.75428 4.19523
2.71163 1.76075 4.3529
2.69973 1.76297 4.36696
2.67769 1.75791 4.3622
2.52436 1.76033 4.45133
2.4865 1.76062 4.46961
2.47258 1.76179 4.4807
2.42486 1.76636 4.517
2.38888 1.76143 4.52034
2.37699 1.76466 4.53539
2.34609 1.76388 4.54863
2.32911 1.76294 4.55178
2.31418 1.76308 4.56089
2.30721 1.76314 4.56494
2.2495 1.76773 4.60231
2.11793 1.76867 4.6603
2.08008 1.77 4.68057
2.03017 1.76721 4.69298
1.94545 1.76982 4.73059
1.90353 1.768 4.74093
1.79386 1.76972 4.78474
1.76789 1.76881 4.78995
1.75296 1.76995 4.79905
1.72205 1.77115 4.81126
1.68114 1.77035 4.82259
1.65025 1.77158 4.8368
1.63533 1.77375 4.84788
1.60134 1.7718 4.85017
1.58848 1.77608 4.86821
1.54756 1.77626 4.87851
1.51464 1.77643 4.88876
1.44182 1.77784 4.91329
1.39187 1.77598 4.92069
1.36588 1.77401 4.92192
1.34788 1.77302 4.92207
1.29898 1.77325 4.93544
1.2851 1.7775 4.95148
1.24315 1.77662 4.95781
1.22616 1.77566 4.95995
1.06841 1.77625 4.99314
1.02645 1.77537 4.99947
1.01156 1.77959 5.01352
0.926616 1.77675 5.0212
0.885708 1.77896 5.03348
0.868716 1.77899 5.03461
0.851708 1.77699 5.03376
0.819809 1.7802 5.04696
0.809755 1.7771 5.04008
0.759824 1.77827 5.04944
0.726886 1.77942 5.05767
0.709894 1.77944 5.0588
0.700917 1.77949 5.06187
0.684972 1.78161 5.06896
0.616987 1.77969 5.0715
0.575011 1.77976 5.07481
0.541096 1.78195 5.08604
0.524089 1.78195 5.08517
0.508144 1.78406 5.09226
0.490089 1.77997 5.08545
0.474214 1.78622 5.10148
0.465113 1.78104 5.08862
0.449198 1.78421 5.0997
0.431167 1.78216 5.09587
0.414191 1.78322 5.09898
0.397199 1.78325 5.10011
0.381238 1.78433 5.10521
0.364246 1.78436 5.10634
0.354161 1.78021 5.09547
0.3382 1.78229 5.10056
0.321247 1.78439 5.10666
0.304231 1.78238 5.10482
0.287278 1.78448 5.11092
0.270271 1.78447 5.11004
0.253349 1.78763 5.12013
0.24538 1.7887 5.12417
0.228419 1.79078 5.12927
0.210303 1.78458 5.1145
0.194396 1.78877 5.12655
0.177373 1.78773 5.1237
0.160358 1.78672 5.12184
0.142359 1.78673 5.12198
0.134452 1.79091 5.13398
0.117398 1.78882 5.12713
0.100453 1.79094 5.13423
0.08343 1.78991 5.13138
0.0665002 1.79305 5.14046
0.0494003 1.78887 5.12765
0.026606 1.79332 5.02174
0.0105444 1.79021 5.0139
-0.00647023 1.79019 5.01203
-0.023338 1.79646 5.02907
-0.039485 1.78919 5.01029
-0.0484458 1.79127 5.01533
-0.065461 1.79025 5.01348
-0.0823595 1.79546 5.02653
-0.0984908 1.78922 5.00974
-0.115451 1.7913 5.01484
-0.131459 1.7913 5.01396
-0.156458 1.79132 5.01415
-0.174333 1.79757 5.03019
-0.191294 1.79965 5.03529
-0.207433 1.7934 5.0175
-0.223478 1.79132 5.01165
-0.241322 1.79963 5.03166
-0.257376 1.79754 5.02481
-0.265422 1.79546 5.01891
-0.282398 1.79651 5.02202
-0.299452 1.79442 5.01518
-0.316428 1.79548 5.01829
-0.349504 1.79235 5.00858
-0.366395 1.79857 5.02262
-0.383379 1.79962 5.02473
-0.408439 1.79752 5.01695
-0.425446 1.79751 5.01608
-0.441461 1.79749 5.0142
-0.45753 1.79537 5.00535
-0.499528 1.7964 5.00565
-0.550525 1.79844 5.00601
-0.583577 1.79736 4.99927
-1.37271 1.79567 4.85222
-1.42374 1.79863 4.84756
-1.43979 1.79756 4.8417
-1.45486 1.79542 4.83184
-1.46992 1.79533 4.82496
-1.47795 1.79427 4.82103
-1.493 1.79318 4.81416
-1.51099 1.79521 4.81526
-1.52508 1.79304 4.8034
-1.54598 1.79925 4.81647
-1.5552 1.78983 4.78767
-1.57222 1.79079 4.78479
-1.57925 1.78974 4.78086
-1.59528 1.79071 4.77796
-1.61329 1.79269 4.77607
-1.6264 1.78849 4.76223
-1.64633 1.79464 4.77129
-1.66335 1.79459 4.76742
-1.68035 1.79661 4.76751
-1.68348 1.79136 4.75061
-1.69756 1.78922 4.74075
-1.7136 1.78914 4.73487
-1.73062 1.79012 4.73298
-1.74569 1.789 4.72411
-1.76955 1.79829 4.74216
-1.77678 1.78783 4.71136
-1.79164 1.79611 4.72935
-1.79791 1.78461 4.69557
-1.81981 1.7918 4.70763
-1.83291 1.78862 4.69477
-1.8558 1.79685 4.70882
-1.86791 1.79363 4.69396
-1.88689 1.79669 4.69706
-1.89295 1.79458 4.68913
-1.92307 1.79336 4.67338
-1.94205 1.7964 4.67548
-1.95514 1.79425 4.6646
-1.98427 1.79201 4.64685
-2.01323 1.7971 4.652
-2.02928 1.79701 4.64512
-2.0404 1.7938 4.63025
-2.05938 1.79684 4.63235
-2.07444 1.79673 4.62446
-2.35545 1.79294 4.49162
-2.37248 1.79489 4.48771
-2.39865 1.79057 4.46497
-2.40865 1.79259 4.46602
-2.43679 1.79133 4.44725
-2.45282 1.79228 4.44335
-2.48294 1.79207 4.42758
-2.49701 1.79193 4.41769
-2.50305 1.79086 4.41275
-2.51515 1.78868 4.39987
-2.53416 1.79166 4.39797
-2.54723 1.79054 4.38908
-2.56229 1.79043 4.3812
-2.56946 1.78411 4.35934
-2.58946 1.78812 4.35943
-2.60253 1.78698 4.34955
-2.61647 1.79211 4.35758
-2.62857 1.78991 4.3437
-2.64362 1.79084 4.3378
-2.65967 1.79074 4.33092
-2.67176 1.78958 4.31902
-2.68977 1.79256 4.31712
-2.69793 1.78727 4.29725
-2.70496 1.78721 4.29331
-2.7331 1.78595 4.27453
-2.74815 1.78686 4.26763
-2.78222 1.78974 4.25785
-2.7953 1.7896 4.24795
-2.79838 1.78644 4.23701
-2.81837 1.79047 4.2381
-2.82554 1.78515 4.21624
-2.84652 1.78919 4.21833
-2.85861 1.78802 4.20644
-2.86774 1.78478 4.18955
-2.88885 1.78459 4.17571
-2.92291 1.78848 4.16691
-2.93303 1.78526 4.15203
-2.94315 1.78203 4.13616
-2.98325 1.78586 4.1224
-3.01239 1.78661 4.10461
-3.02645 1.78649 4.09571
-3.05261 1.7852 4.07493
-3.0558 1.77783 4.05006
-3.09988 1.7847 4.03928
-3.12802 1.78445 4.0215
-3.17132 1.78188 3.98086
-3.20045 1.78264 3.96406
-3.24464 1.78531 3.93935
-3.27586 1.7829 3.91062
-3.31706 1.78451 3.8829
-3.43984 1.78208 3.78085
4.22826 1.73939 2.83858
4.1848 1.74248 2.90987
4.17187 1.74163 2.91998
4.16894 1.74277 2.92899
4.15502 1.74093 2.93912
4.12516 1.73723 2.95841
4.12532 1.74254 2.97933
4.10938 1.73967 2.98749
4.09051 1.73894 3.00465
4.07557 1.73708 3.01379
4.07977 1.74445 3.03865
4.05476 1.73747 3.03894
4.04788 1.73869 3.05398
4.03093 1.73583 3.06215
4.0311 1.74114 3.08307
4.02716 1.74226 3.09109
4.02229 1.74551 3.10808
3.9983 1.73956 3.11035
3.98034 1.73566 3.11654
3.98655 1.74406 3.14337
3.96256 1.7381 3.14564
3.94963 1.73725 3.15475
3.95979 1.74453 3.17457
3.93681 1.7396 3.17782
3.92489 1.73877 3.18892
3.91902 1.74202 3.20592
3.89703 1.73607 3.20818
3.88311 1.73523 3.21829
3.88025 1.73951 3.23726
3.86825 1.73652 3.23739
3.85432 1.73468 3.24752
3.85249 1.73999 3.26846
3.82948 1.73401 3.26872
3.81958 1.73521 3.28178
3.81573 1.73951 3.30175
3.79273 1.73352 3.30201
3.79199 1.74203 3.3359
3.76396 1.73399 3.33223
3.75809 1.73624 3.34924
3.74214 1.73436 3.35639
3.71043 1.73695 3.39459
3.68769 1.74048 3.42972
3.62702 1.73718 3.47423
3.61914 1.7394 3.48926
3.45921 1.74061 3.63147
3.4493 1.74181 3.64452
3.40953 1.74128 3.67484
3.344 1.74425 3.73729
3.3331 1.74545 3.75036
3.31321 1.74467 3.76452
3.29726 1.74378 3.77166
3.28534 1.74396 3.78275
3.27545 1.74617 3.79679
3.22871 1.74571 3.83115
3.11836 1.74806 3.91796
3.09554 1.75043 3.9421
3.06868 1.75073 3.9613
3.06183 1.75502 3.98029
3.04879 1.75096 3.97545
3.047 1.75936 4.00235
2.99406 1.75053 4.01188
2.98317 1.75374 4.02591
2.96429 1.754 4.04205
2.9344 1.75324 4.05729
2.89361 1.75367 4.0846
2.87676 1.75698 4.10468
2.84282 1.75212 4.11301
2.76618 1.75289 4.16158
2.51641 1.76145 4.32436
2.48361 1.76486 4.35056
2.43369 1.76006 4.362
2.42077 1.76123 4.37309
2.40277 1.75925 4.37325
2.3958 1.75931 4.3773
2.35504 1.7628 4.40856
2.32209 1.75993 4.41585
2.31019 1.76213 4.42891
2.27333 1.76344 4.44817
2.22848 1.76275 4.46753
2.18858 1.76199 4.48184
2.10586 1.76258 4.51846
2.06001 1.76291 4.5388
1.97932 1.76657 4.58036
1.70113 1.76935 4.68843
1.6782 1.7705 4.69759
1.59939 1.77092 4.72318
1.59037 1.7689 4.72128
1.55946 1.76909 4.73251
1.51155 1.7693 4.74487
1.49662 1.77146 4.75495
1.48865 1.77151 4.75801
1.44075 1.77174 4.77137
1.42375 1.76976 4.77253
1.4088 1.77086 4.77862
1.39181 1.76989 4.77977
1.3689 1.77208 4.79191
1.35188 1.77007 4.79007
1.32201 1.77233 4.80626
1.29008 1.77348 4.81548
1.27411 1.77355 4.8196
1.26614 1.77462 4.82365
1.25017 1.77469 4.82777
1.21618 1.77274 4.83005
1.20124 1.77386 4.83715
1.18424 1.77287 4.83729
1.17032 1.77504 4.84837
1.14329 1.772 4.84462
1.12834 1.77312 4.85171
1.09953 1.77949 4.87584
1.06447 1.77542 4.86916
1.05754 1.77754 4.87718
1.03951 1.77551 4.87435
1.00655 1.77461 4.87961
0.976706 1.77992 4.89976
0.959675 1.77788 4.89592
0.917682 1.77592 4.89726
0.886829 1.78023 4.91644
0.867736 1.77506 4.90465
0.852813 1.77822 4.91472
0.842736 1.77408 4.90486
0.829898 1.7804 4.92586
0.810805 1.77524 4.91408
0.795906 1.77944 4.92713
0.762945 1.77954 4.93238
0.74696 1.77958 4.9345
0.729976 1.77962 4.93663
0.720929 1.77654 4.93074
0.706015 1.78071 4.94179
0.673046 1.7808 4.94604
0.640077 1.78088 4.95029
0.613999 1.77575 4.94056
0.598054 1.77787 4.94765
0.56617 1.78211 4.96283
0.549124 1.77904 4.957
0.532155 1.78011 4.96112
0.50714 1.7791 4.95932
0.491194 1.78121 4.96641
0.459303 1.78544 4.98059
0.442303 1.78445 4.98073
0.425241 1.78135 4.9729
0.409288 1.78345 4.97899
0.400265 1.78141 4.97609
0.383258 1.78141 4.97522
0.367242 1.77939 4.97337
0.351351 1.78461 4.98741
0.334343 1.78361 4.98656
0.317336 1.7836 4.98569
0.301398 1.78573 4.99378
0.293406 1.78575 4.99484
0.275306 1.78157 4.98203
0.259375 1.78372 4.99112
0.243438 1.78685 4.9992
0.226454 1.78789 5.00131
0.210446 1.78689 5.00044
0.193509 1.79002 5.00853
0.176486 1.78799 5.00569
0.168502 1.78902 5.00773
0.151502 1.78903 5.00786
0.135565 1.79216 5.01593
0.118495 1.78804 5.00712
0.101333 1.78075 4.98636
0.0856043 1.79327 5.02129
0.0684963 1.78808 5.0075
0.0606753 1.79743 5.03042
0.0435127 1.78913 5.00967
0.0212408 1.77566 4.84201
-0.0117733 1.77565 4.84026
-0.0196878 1.77982 4.85126
-0.0517646 1.7757 4.84156
-0.116739 1.77779 4.84502
-0.124754 1.77676 4.8431
-0.156722 1.77885 4.84731
-0.221759 1.77782 4.84281
-0.246718 1.78091 4.84796
-0.261772 1.77782 4.84111
-0.277795 1.77779 4.83824
-0.326831 1.77675 4.83362
-0.35083 1.77777 4.83379
-0.367775 1.78088 4.84087
-0.38379 1.78086 4.83899
-0.399844 1.77777 4.83215
-0.41582 1.77983 4.83524
-0.431818 1.78084 4.83535
-0.455849 1.7798 4.83155
-0.471871 1.77876 4.82868
-0.488831 1.78185 4.83376
-0.503916 1.7777 4.82294
-0.520884 1.78077 4.82702
-0.535953 1.77765 4.81818
-0.55382 1.78491 4.83521
-0.561874 1.78281 4.8283
-0.578842 1.78489 4.8324
-0.594872 1.78384 4.82853
-0.609918 1.78276 4.82266
-0.627839 1.78692 4.83274
-0.643846 1.78692 4.83186
-0.659845 1.78793 4.83196
-0.683898 1.78684 4.82516
-0.702742 1.79515 4.84518
-0.718787 1.79408 4.83932
-0.734818 1.79303 4.83545
-0.767815 1.79505 4.83567
-0.775838 1.79401 4.83275
-0.792798 1.7971 4.83783
-1.01715 1.79457 4.79255
-1.04918 1.79552 4.78778
-1.06424 1.79342 4.78092
-1.07834 1.78923 4.76709
-1.09534 1.79124 4.76719
-1.10526 1.79541 4.7782
-1.1184 1.79015 4.76037
-1.13732 1.7953 4.76944
-1.14849 1.78798 4.74763
-1.16454 1.78691 4.74177
-1.17668 1.78165 4.72393
-1.20047 1.79306 4.75095
-1.20751 1.79198 4.74502
-1.22158 1.78986 4.73615
-1.23277 1.78151 4.71236
-1.25364 1.78976 4.72839
-1.26383 1.78142 4.70459
-1.28179 1.7855 4.70967
-1.29295 1.7792 4.68884
-1.30679 1.78751 4.70883
-1.31699 1.77913 4.68302
-1.33981 1.78948 4.70605
-1.34903 1.78008 4.67825
-1.36407 1.779 4.67238
-1.41821 1.77776 4.6538
-1.43327 1.77667 4.64693
-1.4522 1.7818 4.655
-1.46237 1.77549 4.63417
-1.48034 1.77855 4.63726
-1.51846 1.77634 4.62157
-1.5335 1.77628 4.61669
-1.63277 1.77482 4.58145
-1.66285 1.77468 4.57068
-1.71895 1.77651 4.55707
-1.76603 1.77838 4.5464
-1.79516 1.77615 4.52965
-1.8192 1.7771 4.52482
-1.8532 1.78111 4.52401
-1.86235 1.77582 4.50416
-1.88329 1.78095 4.51224
-1.89541 1.77774 4.49738
-1.91142 1.77872 4.49548
-1.92451 1.77655 4.48361
-1.93645 1.78068 4.49164
-1.94561 1.77537 4.47079
-1.96556 1.78048 4.47686
-1.97766 1.77729 4.464
-1.9937 1.77823 4.4591
-2.00578 1.77608 4.44823
-2.02967 1.7843 4.46229
-2.03082 1.77802 4.44338
-2.04881 1.78005 4.44449
-2.06287 1.77992 4.4356
-2.0789 1.77988 4.43172
-2.09297 1.77975 4.42282
-2.11588 1.78695 4.43489
-2.12108 1.77855 4.40805
-2.13795 1.78682 4.42506
-2.15104 1.78465 4.41319
-2.16215 1.78145 4.39932
-2.17621 1.78134 4.39142
-2.19618 1.7854 4.39451
-2.20531 1.78115 4.37764
-2.23217 1.79144 4.3957
-2.23626 1.78827 4.38377
-2.24441 1.78299 4.36491
-2.27254 1.78074 4.34715
-2.28464 1.77858 4.33527
-2.29967 1.77951 4.33037
-2.31572 1.78044 4.32448
-2.31979 1.77831 4.31554
-2.33089 1.77511 4.30167
-2.34496 1.77398 4.29279
-2.36493 1.77906 4.29687
-2.37309 1.77375 4.276
-2.39108 1.77678 4.27709
-2.39824 1.77047 4.25624
-2.41514 1.77768 4.26926
-2.4334 1.77019 4.2355
-2.45634 1.77631 4.24259
-2.46842 1.77516 4.23169
-2.48051 1.773 4.22082
-2.50567 1.76969 4.19905
-2.5317 1.77365 4.19519
-2.69649 1.77022 4.09147
-2.72164 1.76794 4.07169
-2.76481 1.76963 4.04898
-2.77886 1.77054 4.04208
-2.82512 1.76805 4.00746
-2.95078 1.76584 3.92042
-2.96991 1.76562 3.90457
-3.01209 1.76628 3.87987
-3.02219 1.76509 3.86696
-3.04813 1.77222 3.87406
-3.04724 1.76801 3.86011
-3.06031 1.76789 3.85121
-3.0825 1.76452 3.82542
-3.09558 1.76438 3.81552
-3.11063 1.76629 3.80861
-3.13162 1.77131 3.80969
-3.13171 1.76714 3.79775
-3.14183 1.76492 3.78286
-3.15688 1.76683 3.77594
-3.17688 1.77083 3.77503
-3.18203 1.76655 3.75613
-3.19609 1.76643 3.74724
-3.20917 1.76629 3.73734
-3.21124 1.76416 3.72838
-3.23818 1.77228 3.73547
-3.24433 1.76801 3.71657
-3.26532 1.77302 3.71666
-3.26948 1.76771 3.69577
-3.27958 1.76653 3.68286
-3.29067 1.76536 3.67096
-3.30869 1.76933 3.66803
-3.31771 1.7703 3.66609
-3.32384 1.76704 3.64818
-3.33791 1.76692 3.63928
-3.35396 1.76883 3.63238
-3.36406 1.76764 3.61947
-3.38209 1.77059 3.61556
-3.39715 1.77249 3.60764
-3.39724 1.76831 3.59571
-3.42121 1.77537 3.59878
-3.43627 1.77726 3.59087
-3.43447 1.76888 3.56497
-3.45647 1.77489 3.56505
-3.46161 1.76962 3.54616
-3.48262 1.77462 3.54525
-3.48667 1.77452 3.53828
-3.5057 1.77747 3.53438
-3.53085 1.77818 3.51355
-3.53996 1.77598 3.49965
-3.55205 1.77581 3.48775
-3.56522 1.77349 3.46588
-3.6507 1.77659 3.40147
4.15018 1.73333 2.69624
4.14833 1.73762 2.71519
4.1344 1.73576 2.72433
4.11435 1.7287 2.71958
4.11351 1.733 2.73953
4.10863 1.73524 2.75553
4.08666 1.72931 2.75979
4.08782 1.73462 2.7807
4.08697 1.73892 2.80065
4.05995 1.73091 2.79897
4.06507 1.73613 2.81385
4.04611 1.73223 2.82006
4.03319 1.73039 2.83018
4.0434 1.73979 2.85797
4.02243 1.73487 2.8622
4.0085 1.73301 2.87134
3.99557 1.73217 2.88145
3.97855 1.72614 2.87866
3.96763 1.72631 2.88974
3.98088 1.73777 2.92148
3.95587 1.73079 2.92177
3.94899 1.73202 2.93681
3.93506 1.73118 2.94693
3.9181 1.72728 2.95311
3.91315 1.72737 2.95915
3.90828 1.73063 2.97614
3.87639 1.72587 2.99145
3.87454 1.73015 3.01041
3.8507 1.7285 3.03261
3.81704 1.73117 3.07683
3.78028 1.72968 3.10914
3.08919 1.74479 3.76321
-0.00789537 1.77444 4.69123
-0.0398399 1.77757 4.69843
-0.0549405 1.77239 4.68562
-0.070839 1.77759 4.69866
-0.0869157 1.77446 4.68883
-0.0948458 1.77759 4.69784
-0.125775 1.78175 4.70701
-0.17282 1.7797 4.7014
-0.211903 1.77656 4.69074
-0.258964 1.77448 4.68312
-0.274932 1.77655 4.68721
-0.289947 1.77553 4.68534
-0.298001 1.77343 4.67843
-0.345006 1.77445 4.67777
-0.360998 1.77448 4.67889
-0.376013 1.77446 4.677
-0.39202 1.77446 4.67612
-0.400012 1.77548 4.67717
-0.431041 1.77444 4.67342
-0.446071 1.77439 4.66953
-0.478046 1.77646 4.67274
-0.494046 1.77647 4.67286
-0.5011 1.77437 4.66594
-0.518951 1.78267 4.68496
-0.53309 1.77641 4.66716
-0.548136 1.77433 4.6613
-0.565073 1.77846 4.66937
-0.597978 1.78466 4.68152
-0.613 1.78463 4.67864
-0.621039 1.78256 4.67373
-0.6361 1.78046 4.66587
-0.651114 1.78044 4.66398
-0.669012 1.78664 4.67703
-0.683105 1.78247 4.6652
-0.701003 1.78868 4.67824
-0.716033 1.78763 4.67437
-0.725001 1.7897 4.67841
-0.757007 1.7917 4.67762
-0.990309 1.79127 4.63838
-1.02136 1.79119 4.63161
-1.0284 1.79012 4.62668
-1.04441 1.7911 4.62478
-1.0604 1.79213 4.62589
-1.07353 1.78688 4.60906
-1.09147 1.79102 4.61714
-1.10652 1.79094 4.61125
-1.12057 1.78884 4.60439
-1.13757 1.79086 4.60449
-1.14555 1.79189 4.60653
-1.15771 1.78561 4.58671
-1.17467 1.78869 4.5918
-1.18874 1.78657 4.58293
-1.19895 1.77716 4.55515
-1.22075 1.78856 4.58114
-1.23385 1.78536 4.56729
-1.23799 1.7781 4.54942
-1.25691 1.78428 4.56048
-1.27095 1.7832 4.5546
-1.28503 1.78106 4.54473
-1.30006 1.78101 4.54085
-1.31221 1.77474 4.52203
-1.32724 1.77469 4.51814
-1.33523 1.7757 4.51819
-1.34928 1.77462 4.51231
-1.36432 1.77454 4.50642
-1.38229 1.77761 4.51051
-1.4225 1.77223 4.48289
-1.64099 1.77341 4.41851
-1.67106 1.7733 4.40974
-1.71715 1.77516 4.39806
-1.75229 1.77291 4.38035
-1.79838 1.77476 4.36767
-1.83351 1.77353 4.35095
-1.86261 1.77236 4.33819
-1.88157 1.77743 4.34225
-1.8917 1.7722 4.32641
-1.90672 1.77315 4.3225
-1.92079 1.77205 4.31463
-1.92878 1.77405 4.31466
-1.94579 1.77605 4.31376
-1.95493 1.77079 4.2959
-1.98403 1.77062 4.28312
-2.00398 1.77572 4.2892
-2.01607 1.77355 4.27732
-2.03094 1.7818 4.29331
-2.04107 1.77655 4.27646
-2.05021 1.7713 4.2586
-2.07115 1.77843 4.26666
-2.08815 1.78043 4.26576
-2.09827 1.77621 4.25089
-2.1143 1.77816 4.24698
-2.12329 1.77917 4.24704
-2.13439 1.77599 4.23417
-2.15141 1.77897 4.23225
-2.16643 1.77993 4.22935
-2.17951 1.77878 4.21846
-2.19749 1.78182 4.22055
-2.21548 1.78585 4.22163
-2.21971 1.77543 4.19281
-2.23461 1.78263 4.20582
-2.24768 1.78149 4.19593
-2.25681 1.77725 4.17906
-2.27579 1.7813 4.18215
-2.28787 1.78015 4.17125
-2.29305 1.7728 4.1474
-2.30304 1.77482 4.14844
-2.32103 1.77785 4.14953
-2.32819 1.77256 4.12966
-2.34521 1.77453 4.12676
-2.35828 1.7734 4.11787
-2.37035 1.77228 4.10898
-2.38244 1.77009 4.0961
-2.39734 1.7773 4.10911
-2.42965 1.76871 4.06848
-2.44074 1.76756 4.05757
-2.46268 1.77368 4.06465
-2.46688 1.7663 4.03879
-2.48488 1.76931 4.03888
-2.48795 1.76616 4.02895
-2.50497 1.76915 4.02703
-2.52913 1.76584 4.00526
-2.55725 1.76664 3.99046
-2.5803 1.76855 3.9836
-2.58941 1.76533 3.96871
-2.61037 1.77142 3.97378
-2.63058 1.76602 3.94601
-2.65572 1.76478 3.92822
-2.7059 1.76644 3.90357
-2.71799 1.76629 3.89266
-2.73006 1.76515 3.88277
-2.74312 1.76504 3.87486
-2.74817 1.76395 3.86892
-2.76124 1.76383 3.86002
-2.77331 1.76369 3.85011
-2.79232 1.76668 3.84821
-2.79945 1.76344 3.83231
-2.81251 1.76332 3.82341
-2.83449 1.76838 3.8265
-2.8336 1.76316 3.81157
-2.85161 1.76716 3.81064
-2.86467 1.76703 3.80174
-2.87477 1.76485 3.78885
-2.88982 1.76677 3.78293
-2.91179 1.77283 3.78601
-2.91199 1.76444 3.76013
-2.92297 1.76748 3.76217
-2.93703 1.76737 3.75427
-2.9501 1.76725 3.74537
-2.96514 1.76919 3.74046
-2.97426 1.76696 3.72456
-2.9883 1.76788 3.71865
-3.00533 1.77083 3.71473
-3.00949 1.76452 3.69385
-3.02542 1.77167 3.70287
-3.03453 1.76847 3.68898
-3.0476 1.76833 3.67908
-3.06066 1.76922 3.67117
-3.07571 1.77113 3.66425
-3.09175 1.77306 3.65934
-3.10185 1.77088 3.64645
-3.09799 1.76461 3.62851
-3.11699 1.76861 3.62759
-3.13303 1.77053 3.62169
-3.13719 1.76524 3.60179
-3.16016 1.7723 3.60486
-3.16728 1.76907 3.58896
-3.18629 1.77307 3.58804
-3.19432 1.77401 3.58409
-3.20045 1.76977 3.5672
-3.21549 1.77169 3.56128
-3.22162 1.76844 3.54437
-3.24758 1.77653 3.54945
-3.25371 1.77229 3.53256
-3.27173 1.77626 3.52963
-3.27183 1.77206 3.51669
-3.29084 1.77605 3.51478
-3.29697 1.7728 3.49787
-3.3231 1.77355 3.48005
-3.34924 1.77529 3.46122
-3.37844 1.77493 3.43544
-3.40458 1.77566 3.41663
4.13348 1.73398 2.46932
4.11767 1.73438 2.49544
4.09886 1.73476 2.52058
4.08701 1.73507 2.54067
4.0751 1.73424 2.55177
4.04623 1.72953 2.57006
4.03833 1.73073 2.5831
4.04049 1.73604 2.60401
4.02648 1.73103 2.60319
4.02059 1.73326 2.61821
4.0127 1.73347 2.63226
4.0048 1.73468 2.64631
3.98785 1.73179 2.65248
3.95596 1.72503 2.66782
3.96006 1.73022 2.68072
3.95518 1.73246 2.69672
3.94728 1.73266 2.70978
3.92932 1.72876 2.71597
3.93249 1.73508 2.73786
3.90548 1.72709 2.73718
3.89155 1.72523 2.74631
3.89666 1.73044 2.7602
3.8797 1.72654 2.76639
3.87079 1.72672 2.77845
3.86692 1.72998 2.79544
3.84795 1.72606 2.80064
3.83805 1.72625 2.81271
3.83418 1.7295 2.82969
3.81823 1.72662 2.83686
3.81126 1.72468 2.84094
3.8094 1.72997 2.85988
3.78354 1.72727 2.87912
3.77262 1.72642 2.88921
3.74885 1.7279 2.92037
3.71409 1.72638 2.95166
3.61096 1.72818 3.06843
1.41045 1.76326 4.46768
1.04819 1.76694 4.56637
1.01725 1.76808 4.57459
0.958414 1.77244 4.59597
0.932351 1.76734 4.58824
0.748629 1.77 4.62559
0.70166 1.7691 4.62996
0.616745 1.76932 4.64159
0.312981 1.77099 4.67386
0.282036 1.77411 4.68105
0.250005 1.77108 4.67734
0.227045 1.77317 4.68248
0.164077 1.77427 4.68694
0.133139 1.77641 4.69514
0.109055 1.77227 4.68438
0.0781022 1.77438 4.69058
0.0310168 1.76928 4.54699
0.0161571 1.77656 4.565
0.00104147 1.77135 4.55019
-0.013896 1.77448 4.55826
-0.0299112 1.77346 4.55639
-0.0449265 1.77244 4.55452
-0.0679333 1.77244 4.55369
-0.0829091 1.7745 4.55678
-0.09794 1.77245 4.55292
-0.113908 1.77452 4.55701
-0.128931 1.77349 4.55414
-0.143946 1.77247 4.55227
-0.151922 1.77452 4.5553
-0.166883 1.7766 4.56038
-0.196944 1.77351 4.55265
-0.212967 1.77247 4.54979
-0.22799 1.77144 4.54691
-0.243896 1.77663 4.55896
-0.258887 1.77766 4.56006
-0.265988 1.77247 4.54718
-0.280964 1.77452 4.55027
-0.296948 1.77556 4.55237
-0.326962 1.77556 4.5506
-0.34207 1.77036 4.53679
-0.365014 1.77448 4.5439
-0.380975 1.77657 4.54899
-0.410981 1.77657 4.54822
-0.427894 1.78275 4.55925
-0.457018 1.77653 4.54356
-0.465002 1.77757 4.54561
-0.479086 1.77442 4.53476
-0.495969 1.78065 4.5498
-0.510984 1.78063 4.54791
-0.525099 1.77542 4.53309
-0.542021 1.77958 4.54316
-0.555121 1.7754 4.53032
-0.565027 1.78058 4.54232
-0.578174 1.77431 4.52351
-0.595056 1.78054 4.53854
-0.610087 1.7795 4.53467
-0.626054 1.78257 4.53875
-0.641085 1.78152 4.53487
-0.655161 1.77838 4.52503
-0.664099 1.78251 4.53303
-0.679113 1.78249 4.53115
-0.696042 1.78663 4.54021
-0.710135 1.78247 4.52838
-0.726095 1.78555 4.53346
-0.742078 1.78759 4.53555
-0.774045 1.79067 4.53974
-0.780099 1.78857 4.53282
-0.795129 1.78753 4.52895
-0.842149 1.79052 4.52626
-1.02341 1.79013 4.49262
-1.05444 1.79108 4.48784
-1.0685 1.78998 4.48096
-1.07554 1.78792 4.47605
-1.09056 1.78788 4.47316
-1.10557 1.78886 4.47126
-1.11962 1.78779 4.46538
-1.13465 1.78672 4.46051
-1.14677 1.78251 4.44566
-1.16665 1.78975 4.4607
-1.1727 1.78866 4.45476
-1.18677 1.78654 4.4459
-1.2018 1.78649 4.44201
-1.21388 1.78334 4.43115
-1.22794 1.78123 4.42329
-1.24687 1.78637 4.43235
-1.25701 1.78112 4.4145
-1.27107 1.77901 4.40664
-1.27714 1.77588 4.39773
-1.29409 1.78098 4.40378
-1.30816 1.77786 4.39494
-1.32026 1.77467 4.38207
-1.3343 1.77461 4.37718
-1.35226 1.7777 4.38227
-1.36825 1.78072 4.38334
-1.37235 1.77553 4.37045
-1.40045 1.77335 4.35669
-1.41547 1.77431 4.35379
-1.42854 1.77221 4.34592
-1.4465 1.77628 4.35
-1.45762 1.77206 4.33514
-1.46463 1.77204 4.33319
-1.48358 1.77716 4.34026
-1.49565 1.77402 4.3304
-1.5097 1.77394 4.3245
-1.52377 1.77182 4.31564
-1.56083 1.77371 4.30689
-1.58892 1.77255 4.29512
-1.618 1.77242 4.28534
-1.63399 1.77444 4.28543
-1.65408 1.77329 4.27459
-1.67205 1.77635 4.27768
-1.6812 1.77107 4.25883
-1.69524 1.77101 4.25393
-1.71224 1.773 4.25303
-1.72432 1.77087 4.24315
-1.75126 1.77699 4.25027
-1.75942 1.77068 4.22942
