1.87847 1.75786 4.59395
1.87066 1.76524 4.61891
1.85165 1.76324 4.61808
1.83364 1.76022 4.61626
1.81767 1.75929 4.62039
1.80784 1.76562 4.64238
1.79269 1.75735 4.62361
1.78184 1.76366 4.6436
1.76688 1.76374 4.64872
1.75091 1.76281 4.65285
1.73495 1.7629 4.65797
1.71796 1.76094 4.66013
1.69995 1.75893 4.65829
1.69504 1.76211 4.67028
1.67806 1.76115 4.67243
1.66616 1.76436 4.68647
1.64816 1.76236 4.68564
1.63321 1.76348 4.69273
1.61929 1.76565 4.70381
1.60025 1.76158 4.69801
1.59636 1.7668 4.71296
1.57732 1.76173 4.70718
1.56443 1.76696 4.7222
1.54745 1.765 4.72436
1.52737 1.75987 4.71459
1.51345 1.76202 4.72466
1.50259 1.76731 4.74367
1.49258 1.7663 4.74276
1.47866 1.76846 4.75283
1.46167 1.76749 4.75397
1.44467 1.7655 4.75413
1.42973 1.76763 4.76221
1.41068 1.76256 4.75643
1.39778 1.76676 4.76947
1.38981 1.76782 4.77351
1.37279 1.76479 4.77069
1.35788 1.76798 4.78275
1.34294 1.76909 4.78985
1.32593 1.76709 4.78901
1.30687 1.763 4.78221
1.29502 1.76829 4.80122
1.2739 1.76109 4.78649
1.27107 1.76941 4.80839
1.25303 1.76635 4.80357
1.23912 1.76853 4.81464
1.22419 1.77067 4.82373
1.2072 1.77071 4.82585
1.1902 1.76872 4.82601
1.17422 1.76877 4.82813
1.16727 1.77087 4.83515
1.14925 1.76784 4.83233
1.13329 1.76893 4.83744
1.11731 1.76898 4.84056
1.10134 1.76906 4.84468
1.08641 1.7712 4.85376
1.0694 1.7692 4.85292
1.06453 1.77544 4.86886
1.04648 1.77136 4.86306
1.02741 1.76724 4.85426
1.01352 1.77146 4.86831
0.997573 1.77257 4.87541
0.979518 1.76948 4.86859
0.965627 1.7737 4.88264
0.957657 1.77377 4.8867
0.940665 1.77379 4.88782
0.923642 1.77176 4.88498
0.908704 1.77389 4.89306
0.892742 1.77398 4.89818
0.874719 1.77195 4.89535
0.859765 1.77405 4.90143
0.849688 1.7699 4.89157
0.835858 1.77624 4.91358
0.817757 1.77106 4.90079
0.785866 1.77429 4.91499
0.77199 1.77954 4.93102
0.750804 1.7702 4.90731
0.737966 1.77652 4.92832
0.726858 1.77132 4.91448
0.714044 1.77968 4.93845
0.697021 1.77765 4.93561
0.682106 1.78083 4.94668
0.666168 1.78296 4.95477
0.646005 1.77466 4.93404
0.620998 1.77366 4.93324
0.607145 1.77995 4.95225
0.589044 1.77478 4.93947
0.575246 1.78317 4.96545
0.556068 1.77484 4.94271
0.542301 1.7853 4.97267
0.523122 1.77597 4.94995
0.499231 1.7802 4.96407
0.484355 1.78544 4.9801
0.465146 1.77506 4.9534
0.450278 1.78132 4.97042
0.432169 1.77513 4.95665
0.417371 1.78452 4.98262
0.408271 1.77934 4.96976
0.392349 1.7835 4.97982
0.358295 1.77942 4.97314
0.325311 1.77947 4.97539
0.29228 1.77744 4.97167
0.284459 1.78578 4.99461
0.267397 1.78268 4.98678
0.23439 1.78168 4.98604
0.201484 1.78589 4.99823
0.160539 1.78802 5.00551
0.0765487 1.78809 5.00714
0.0293553 1.77879 4.84961
0.0131776 1.77046 4.82685
-0.00375228 1.77361 4.83594
-0.0116899 1.77673 4.84395
-0.0277202 1.77568 4.84009
-0.0437047 1.77573 4.84221
-0.0597269 1.77569 4.83933
-0.07568 1.77779 4.84542
-0.092687 1.77779 4.84454
-0.108524 1.78511 4.86556
-0.116671 1.77784 4.84672
-0.132732 1.77573 4.83888
-0.149608 1.78198 4.85491
-0.164685 1.77784 4.84509
-0.180707 1.77781 4.84221
-0.19852 1.78718 4.86621
-0.213699 1.77785 4.84345
-0.221675 1.7799 4.84648
-0.237682 1.7799 4.84561
-0.254642 1.78198 4.8507
-0.270634 1.78301 4.85181
-0.287525 1.78823 4.86586
-0.303547 1.78719 4.863
-0.318772 1.77678 4.83426
-0.336561 1.78719 4.86124
-0.343638 1.78405 4.85134
-0.358824 1.7757 4.82758
-0.376583 1.78717 4.85855
-0.392683 1.78299 4.84573
-0.409573 1.78921 4.85976
-0.425627 1.78712 4.85292
-0.449649 1.78709 4.8501
-0.951061 1.79161 4.7968
-1.03726 1.78829 4.77149
-1.06835 1.78612 4.75876
-1.08629 1.79025 4.76683
-1.09044 1.78398 4.74796
-1.10841 1.78605 4.75206
-1.12539 1.78909 4.75414
-1.13947 1.78594 4.7433
-1.15842 1.79005 4.75038
-1.16861 1.78169 4.72558
-1.18659 1.78375 4.72868
-1.18974 1.77646 4.70881
-1.2106 1.78574 4.72683
-1.22275 1.77945 4.70701
-1.24264 1.78567 4.72107
-1.25091 1.77416 4.6863
-1.27373 1.78452 4.70932
-1.2849 1.7772 4.68751
-1.30382 1.78336 4.69757
-1.30796 1.7761 4.6797
-1.32884 1.78434 4.69474
-1.3361 1.77285 4.66196
-1.36185 1.78734 4.69394
-1.37203 1.779 4.67014
-1.38318 1.77372 4.6513
-1.40019 1.77472 4.65041
-1.41405 1.78298 4.6674
-1.43732 1.7725 4.63372
-1.45529 1.77555 4.63681
-1.47716 1.78381 4.65286
-1.50336 1.77746 4.62815
-1.50746 1.77327 4.61524
-1.54244 1.77832 4.61743
-1.57057 1.77509 4.60068
-1.58562 1.774 4.59381
-1.60067 1.77291 4.58694
-1.61258 1.77909 4.59894
-1.62763 1.778 4.59207
-1.63877 1.77274 4.57423
-1.65381 1.77268 4.56934
-1.67179 1.77572 4.57143
-1.68782 1.77667 4.56754
-1.71069 1.78492 4.58359
-1.71479 1.78074 4.57068
-1.72886 1.77961 4.5618
-1.7439 1.77954 4.55592
-1.76483 1.78468 4.565
-1.77204 1.77629 4.53818
-1.79198 1.78142 4.54625
-1.80998 1.78343 4.54636
-1.82698 1.78643 4.54544
-1.8301 1.78121 4.53054
-1.85396 1.79048 4.54758
-1.8592 1.78003 4.51677
-1.88209 1.78825 4.53083
-1.89615 1.78714 4.52295
-1.9112 1.78706 4.51706
-1.92724 1.78699 4.51118
-1.95128 1.78792 4.50535
-1.9974 1.78971 4.48967
-2.01148 1.78757 4.4798
-2.02848 1.78957 4.4789
-2.03552 1.7895 4.47396
-2.09865 1.79228 4.45639
-2.12581 1.78901 4.43664
-2.1348 1.79101 4.43668
-2.15309 1.78048 4.39997
-2.17208 1.78451 4.40105
-2.18417 1.78134 4.38919
-2.2002 1.78329 4.38528
-2.21525 1.7832 4.37839
-2.23114 1.79042 4.39241
-2.2393 1.78411 4.37156
-2.24942 1.7809 4.35668
-2.26348 1.77977 4.3478
-2.27754 1.77968 4.34091
-2.29752 1.78372 4.343
-2.30961 1.78156 4.33112
-2.31678 1.77524 4.30926
-2.32775 1.7783 4.3133
-2.34674 1.78233 4.31439
-2.3549 1.77603 4.29354
-2.37683 1.78316 4.3016
-2.3771 1.77066 4.26778
-2.39904 1.77778 4.27484
-2.42001 1.78285 4.27892
-2.42014 1.7766 4.26202
-2.43518 1.77752 4.25611
-2.4453 1.77329 4.24025
-2.46824 1.78043 4.24832
-2.4754 1.77512 4.22745
-2.49341 1.77712 4.22656
-2.50253 1.77389 4.21067
-2.51252 1.77591 4.21172
-2.52461 1.77474 4.19982
-2.53965 1.77467 4.19394
-2.5547 1.77559 4.18803
-2.57691 1.77019 4.16028
-2.59196 1.7711 4.15338
-2.60589 1.77624 4.16241
-2.61798 1.77509 4.15151
-2.64413 1.77381 4.13173
-2.67028 1.77152 4.11095
-2.68928 1.77553 4.11104
-2.69137 1.77135 4.09911
-2.70148 1.76915 4.08522
-2.73158 1.77097 4.07142
-2.76069 1.77178 4.05762
-2.79189 1.76941 4.03089
-2.82297 1.77227 4.02008
-2.87527 1.76971 3.98051
-2.87933 1.76861 3.97355
-2.90032 1.77364 3.97464
-2.91834 1.77561 3.97174
-2.93657 1.77016 3.94096
-2.9526 1.77212 3.93705
-2.95975 1.76784 3.91816
-2.96876 1.76882 3.91622
-2.97985 1.76765 3.90432
-2.99985 1.77166 3.90441
-3.01095 1.77048 3.89151
-3.02303 1.76932 3.88061
-3.03907 1.77126 3.8757
-3.05115 1.77011 3.86481
-3.05918 1.77105 3.86086
-3.06532 1.76679 3.84296
-3.09739 1.77065 3.83215
-3.10552 1.76741 3.81525
-3.12354 1.77037 3.81235
-3.14256 1.77336 3.81044
-3.1486 1.77329 3.80549
-3.15573 1.77003 3.78759
-3.17078 1.77093 3.78069
-3.17891 1.7687 3.76478
-3.19594 1.77064 3.75988
-3.21396 1.77361 3.75697
-3.22208 1.77038 3.74108
-3.22812 1.77031 3.73612
-3.23922 1.76913 3.72322
-3.25823 1.77311 3.72131
-3.27428 1.77503 3.7154
-3.28834 1.77591 3.70649
-3.29548 1.77165 3.6886
-3.31448 1.77665 3.68767
-3.32856 1.77651 3.67778
-3.33856 1.7785 3.67683
-3.34767 1.7763 3.66293
-3.3548 1.77405 3.64601
-3.3758 1.77807 3.64611
-3.37996 1.77376 3.6252
-3.39799 1.77672 3.62129
-3.40412 1.77345 3.60338
-3.42007 1.77855 3.60943
-3.42224 1.77323 3.58752
-3.4482 1.78032 3.59261
-3.45831 1.77912 3.57871
-3.47436 1.78103 3.5718
-3.47453 1.77469 3.54889
-3.48563 1.77351 3.53599
-3.50456 1.78065 3.54503
-3.51963 1.78153 3.53613
-3.5208 1.77621 3.51421
-3.53982 1.77916 3.51031
-3.54893 1.77796 3.49639
-3.55804 1.77576 3.48249
-3.5942 1.77946 3.46071
-3.67472 1.78048 3.39129
4.06736 1.71268 2.71487
4.01891 1.7158 2.7882
4.01001 1.717 2.80125
3.9981 1.71617 2.81236
3.98819 1.71635 2.82443
3.98625 1.71749 2.83343
3.97132 1.71563 2.84257
3.96141 1.71582 2.85464
3.94748 1.71396 2.86378
3.9416 1.7162 2.87979
3.92868 1.71536 2.8899
3.92581 1.71863 2.90788
3.92287 1.71973 2.91489
3.90189 1.71481 2.91912
3.88695 1.71192 2.92627
3.87016 1.71435 2.95437
3.86126 1.71555 2.96742
3.85538 1.71779 2.98343
3.84639 1.71583 2.98553
3.83146 1.71397 2.99467
3.83665 1.72234 3.01951
3.80762 1.7133 3.01586
3.79066 1.7094 3.02205
3.79284 1.71574 3.04494
3.7779 1.71387 3.05308
3.76497 1.71301 3.06219
3.76102 1.71412 3.06921
3.75817 1.71842 3.08917
3.73517 1.71143 3.08945
3.73432 1.71673 3.10938
3.71837 1.71485 3.11653
3.70747 1.71503 3.12861
3.69051 1.71213 3.13478
3.70167 1.72044 3.15557
3.67766 1.71344 3.15486
3.67581 1.71874 3.1748
3.66691 1.71993 3.18785
3.65097 1.71806 3.196
3.64206 1.71825 3.20806
3.63922 1.72255 3.22802
3.61411 1.71337 3.21535
3.60622 1.71459 3.22939
3.60437 1.71988 3.24933
3.58943 1.718 3.25647
3.57752 1.71818 3.26856
3.57063 1.72041 3.28358
3.56577 1.72368 3.30157
3.54871 1.71759 3.29479
3.5388 1.71878 3.30685
3.5269 1.71896 3.31894
3.51799 1.72016 3.33199
3.50305 1.71828 3.33913
3.48608 1.71536 3.3443
3.47618 1.71656 3.35736
3.46921 1.71563 3.36143
3.46434 1.71988 3.3784
3.45646 1.72211 3.39343
3.45261 1.72641 3.4134
3.43161 1.72144 3.41463
3.41969 1.72159 3.42472
3.41584 1.72588 3.44369
3.39989 1.72399 3.45084
3.40401 1.73023 3.46671
3.38604 1.7263 3.47091
3.36908 1.72439 3.47607
3.35311 1.72146 3.48023
3.35431 1.72986 3.5071
3.3323 1.72386 3.50635
3.33148 1.7302 3.52927
3.31341 1.72308 3.52051
3.30148 1.72324 3.5306
3.2926 1.72546 3.54564
3.29985 1.73695 3.57842
3.27683 1.73092 3.57568
3.25582 1.72592 3.57491
3.24188 1.72505 3.58303
3.23693 1.72616 3.59005
3.22198 1.72427 3.59719
3.2242 1.73368 3.62504
3.2143 1.73488 3.6381
3.18823 1.72678 3.63041
3.15338 1.72511 3.6507
3.13743 1.72321 3.65685
3.12349 1.72233 3.66497
3.11964 1.72763 3.68493
3.11277 1.73089 3.70193
3.10086 1.73206 3.71301
3.08287 1.7281 3.7152
3.07095 1.72928 3.72627
3.06095 1.72627 3.72539
3.07228 1.7429 3.76807
3.03813 1.72864 3.74953
3.03833 1.73702 3.77541
3.00619 1.7248 3.75883
2.97538 1.72619 3.78405
2.96651 1.72943 3.80007
2.95256 1.72855 3.80719
2.9366 1.72663 3.81234
2.93478 1.73399 3.83625
2.91377 1.72899 3.83548
2.90185 1.73015 3.84555
2.89285 1.72815 3.84565
2.887 1.73245 3.86563
2.83123 1.73095 3.89708
2.81931 1.73211 3.90715
2.80245 1.73439 3.92525
2.79964 1.74176 3.95016
2.77457 1.73365 3.94147
2.72273 1.73101 3.9639
2.71487 1.73528 3.9819
2.68395 1.73245 3.99218
2.67 1.73257 3.99928
2.64515 1.73388 4.01945
2.62525 1.73509 4.03259
2.61638 1.73834 4.04961
2.60345 1.73949 4.05869
2.58342 1.73446 4.05592
2.57963 1.74285 4.08182
2.56263 1.73987 4.083
2.54566 1.73794 4.08715
2.54375 1.74112 4.09912
2.52271 1.73605 4.09335
2.51282 1.73928 4.10838
2.49381 1.73528 4.10759
2.48189 1.73645 4.11866
2.46694 1.73655 4.12477
2.453 1.73668 4.13288
2.44805 1.73779 4.1399
2.4331 1.73689 4.14602
2.41916 1.73701 4.15413
2.37937 1.74044 4.18138
2.36745 1.74161 4.19246
2.35643 1.73858 4.18958
2.34248 1.73869 4.19669
2.30065 1.74006 4.21999
2.2658 1.74137 4.23923
2.25084 1.74047 4.24536
2.226 1.74378 4.2655
2.14323 1.7413 4.29716
2.10038 1.74162 4.31648
2.06451 1.74291 4.33474
2.04957 1.74302 4.34185
1.97186 1.74566 4.3814
1.94299 1.74691 4.3976
1.927 1.74596 4.39974
1.90013 1.74823 4.41691
1.88518 1.74833 4.42302
1.8602 1.74639 4.42624
1.84728 1.74856 4.43731
1.8194 1.7498 4.4525
1.8024 1.74782 4.45266
1.73459 1.74824 4.47817
1.72474 1.75454 4.49815
1.70467 1.74842 4.48939
1.67475 1.74859 4.49961
1.63888 1.75088 4.51785
1.5721 1.75335 4.54632
1.55611 1.75237 4.54746
1.5391 1.75037 4.54662
1.47233 1.75386 4.57707
1.44137 1.75296 4.58232
1.42539 1.75202 4.58545
1.38156 1.75637 4.60772
1.35655 1.75338 4.60695
1.2957 1.75472 4.6274
1.27379 1.7569 4.63853
1.22686 1.75708 4.64888
1.21503 1.76341 4.67088
1.15702 1.75842 4.66939
1.12711 1.76062 4.68159
1.11008 1.75758 4.67776
1.06315 1.75776 4.68811
1.05515 1.75777 4.68817
1.04024 1.75994 4.69925
1.02425 1.75997 4.70037
1.00929 1.76005 4.70549
0.992247 1.75799 4.70064
0.977316 1.76013 4.70973
0.960293 1.7581 4.70688
0.953339 1.75919 4.71292
0.937355 1.75924 4.71504
0.922408 1.76035 4.72214
0.890424 1.7594 4.72439
0.875501 1.76256 4.73446
0.859509 1.76159 4.7356
0.787547 1.75972 4.74117
0.771578 1.76079 4.74527
0.756601 1.76084 4.74838
0.740648 1.76194 4.75449
0.732625 1.7609 4.75156
0.702756 1.76518 4.76873
0.652717 1.76114 4.76416
0.637749 1.76221 4.76826
0.629811 1.76533 4.77628
0.613788 1.7633 4.77343
0.597826 1.76439 4.77853
0.56585 1.76445 4.78177
0.54985 1.76347 4.78191
0.53385 1.76348 4.78203
0.526974 1.76872 4.798
0.510927 1.76564 4.79217
0.461928 1.76468 4.79255
0.446983 1.76679 4.79963
0.431068 1.77097 4.81069
0.42306 1.76996 4.80977
0.405967 1.76479 4.79797
0.391014 1.76689 4.80406
0.375038 1.76795 4.80716
0.343085 1.76906 4.81339
0.327124 1.77114 4.81848
0.302031 1.76599 4.80674
0.286054 1.76604 4.80986
0.270117 1.76917 4.81793
0.254048 1.76605 4.8091
0.238187 1.77233 4.82713
0.22218 1.77133 4.82627
0.206212 1.7734 4.83036
0.198126 1.76924 4.81948
0.182173 1.77134 4.82557
0.167453 1.78488 4.86148
0.150251 1.77451 4.83576
0.134252 1.77452 4.83588
0.117175 1.77039 4.82607
0.101307 1.77665 4.8431
0.0932142 1.77248 4.83122
0.077354 1.77876 4.84925
0.0612383 1.77355 4.83445
0.0452231 1.77253 4.83258
0.0311016 1.77133 4.68369
0.0151566 1.77445 4.69076
0.000126275 1.7734 4.68689
-0.0159279 1.77031 4.68005
-0.0317875 1.77758 4.69807
-0.0468881 1.7724 4.68526
-0.0628876 1.77241 4.68538
-0.0789179 1.77137 4.68151
-0.0868631 1.77448 4.68853
-0.10194 1.77034 4.6787
-0.117808 1.7766 4.69573
-0.133846 1.77554 4.69087
-0.148892 1.77346 4.68501
-0.164767 1.77971 4.70104
-0.17993 1.77141 4.68027
-0.18886 1.77555 4.68928
-0.203851 1.77658 4.69038
-0.219897 1.7745 4.68453
-0.234904 1.7745 4.68364
-0.250865 1.77658 4.68873
-0.266887 1.77555 4.68587
-0.281925 1.77449 4.681
-0.290785 1.78176 4.69896
-0.305893 1.77656 4.68515
-0.321838 1.77968 4.69222
-0.337806 1.78175 4.69631
-0.352884 1.77761 4.68649
-0.368898 1.77759 4.68461
-0.384921 1.77656 4.68174
-0.392881 1.77964 4.68676
-0.408834 1.78174 4.69285
-0.423903 1.77962 4.68399
-0.440809 1.78481 4.69604
-0.456824 1.78479 4.69416
-0.4728 1.78585 4.69727
-0.48783 1.7848 4.6934
-0.495853 1.78476 4.69046
-0.542858 1.78578 4.6898
-0.981304 1.78819 4.63206
-1.01138 1.78707 4.6223
-1.02546 1.78391 4.61145
-1.03443 1.78598 4.61549
-1.04852 1.78281 4.60364
-1.06258 1.78071 4.59577
-1.07957 1.78375 4.59786
-1.09169 1.77852 4.58202
-1.11155 1.7868 4.60005
-1.12369 1.78054 4.58223
-1.1288 1.77534 4.56835
-1.14481 1.77632 4.56645
-1.16081 1.77833 4.56655
-1.17389 1.77518 4.55569
-1.18992 1.77513 4.55181
-1.20591 1.77716 4.5529
-1.22097 1.77507 4.54604
-1.22604 1.77294 4.53711
-1.24398 1.77705 4.54419
-1.25807 1.77389 4.53234
-1.27406 1.77593 4.53443
-1.28813 1.77379 4.52457
-1.30219 1.77268 4.51669
-1.31724 1.7716 4.51082
-1.32522 1.77264 4.51286
-1.34124 1.77361 4.50997
-1.35529 1.77253 4.50409
-1.3713 1.77351 4.50219
-1.38632 1.77448 4.49929
-1.39844 1.76926 4.48446
-1.41739 1.77436 4.49053
-1.42245 1.77225 4.48259
-1.43653 1.76911 4.47275
-1.45253 1.77111 4.47184
-1.46561 1.76897 4.46197
-1.48065 1.76891 4.45708
-1.49958 1.77404 4.46515
-1.51365 1.77193 4.45728
-1.52575 1.76873 4.44342
-1.53765 1.77493 4.45642
-1.55074 1.77177 4.44456
-1.56675 1.77376 4.44365
-1.58082 1.77164 4.43479
-1.59584 1.77261 4.43189
-1.60989 1.77151 4.42501
-1.62591 1.77248 4.42212
-1.63295 1.77141 4.41718
-1.64895 1.77342 4.41727
-1.66399 1.77336 4.41239
-1.67902 1.7733 4.4075
-1.69504 1.77528 4.40559
-1.71008 1.7752 4.39971
-1.72412 1.77514 4.39481
-1.73213 1.77613 4.39386
-1.74814 1.77711 4.39196
-1.76318 1.77703 4.38608
-1.77627 1.77488 4.37521
-1.79521 1.78 4.38227
-1.81024 1.78095 4.37837
-1.82333 1.77779 4.36752
-1.83231 1.78083 4.36954
-1.84441 1.77765 4.35668
-1.86141 1.77964 4.35577
-1.88036 1.78476 4.36284
-1.88951 1.77847 4.343
-1.90848 1.78254 4.34708
-1.92254 1.78244 4.33919
-1.92858 1.78137 4.33425
-1.94459 1.78235 4.33236
-1.96357 1.78639 4.33444
-1.97369 1.78218 4.31958
-1.98971 1.78414 4.31667
-2.00869 1.78719 4.31877
-2.02077 1.78503 4.30789
-2.03483 1.78494 4.30099
-2.08893 1.78877 4.28734
-2.11311 1.78343 4.2636
-2.13307 1.78852 4.26868
-2.12829 1.77811 4.24079
-2.14629 1.78112 4.24088
-2.16526 1.78518 4.24397
-2.17144 1.77783 4.22012
-2.1855 1.77773 4.21322
-2.20348 1.78078 4.21532
-2.21362 1.77652 4.19745
-2.21669 1.77337 4.18752
-2.23567 1.77843 4.19059
-2.24578 1.77421 4.17573
-2.2628 1.77618 4.17282
-2.2729 1.773 4.15995
-2.28303 1.76977 4.14407
-2.29609 1.76864 4.13518
-2.31494 1.77895 4.15517
-2.31816 1.76953 4.12633
-2.33517 1.77252 4.12542
-2.35217 1.77452 4.12452
-2.35736 1.76717 4.10066
-2.37634 1.77221 4.10273
-2.38841 1.77007 4.09285
-2.39544 1.77002 4.0889
-2.40557 1.76679 4.07303
-2.43145 1.77703 4.08807
-2.43662 1.76971 4.06622
-2.46768 1.7726 4.0574
-2.47878 1.77041 4.04452
-2.50085 1.7713 4.03567
-2.50997 1.76807 4.01979
-2.55289 1.77925 4.02994
-2.56816 1.77072 3.99418
-2.58024 1.76857 3.9833
-2.58924 1.77059 3.98434
-2.6033 1.77047 3.97545
-2.62228 1.77551 3.97752
-2.62548 1.76714 3.95266
-2.64349 1.77013 3.95075
-2.66445 1.77622 3.95582
-2.66566 1.7668 3.92796
-2.67171 1.76672 3.92201
-2.69168 1.77178 3.92509
-2.7008 1.76856 3.9102
-2.73088 1.77142 3.89938
-2.74395 1.77028 3.8895
-2.75504 1.76911 3.8776
-2.76305 1.7701 3.87664
-2.77414 1.76893 3.86474
-2.79732 1.76561 3.84196
-2.82542 1.76742 3.82815
-2.83453 1.76421 3.81326
-2.85046 1.77035 3.82229
-2.86055 1.76918 3.81038
-2.8677 1.76491 3.7915
-2.89559 1.77512 3.80456
-2.91777 1.77279 3.78175
-2.92887 1.77061 3.76887
-2.9349 1.77056 3.76491
-2.94797 1.77042 3.75501
-2.96201 1.77234 3.74909
-2.97311 1.77017 3.7372
-3.00002 1.77934 3.74727
-2.99726 1.76888 3.7164
-3.01428 1.77184 3.71349
-3.0323 1.77583 3.71156
-3.03438 1.77267 3.70062
-3.05042 1.7746 3.69572
-3.06547 1.77551 3.68881
-3.0716 1.77226 3.67191
-3.08863 1.77522 3.66799
-3.09477 1.77094 3.6491
-3.1118 1.77289 3.6452
-3.11189 1.76971 3.63324
-3.12991 1.77268 3.63033
-3.13902 1.77048 3.61643
-3.16495 1.77962 3.62449
-3.16615 1.77225 3.59961
-3.18119 1.77417 3.59369
-3.19426 1.77403 3.58379
-3.20723 1.7781 3.58783
-3.21535 1.77589 3.57292
-3.22445 1.77369 3.55902
-3.24346 1.77767 3.55711
-3.25356 1.77648 3.5442
-3.27455 1.78151 3.54528
-3.28068 1.77827 3.52837
-3.29276 1.77811 3.51746
-3.29483 1.77598 3.50851
-3.31584 1.78098 3.5076
-3.32395 1.77777 3.4927
-3.338 1.77967 3.48578
-3.34216 1.77436 3.46489
-3.36514 1.78041 3.46697
-3.40047 1.7768 3.42428
3.90516 1.71539 2.68805
3.89028 1.71465 2.70518
3.88038 1.71483 2.71725
3.85552 1.71215 2.73748
3.84476 1.71661 2.7685
3.81588 1.71187 2.78479
3.822 1.71809 2.79965
3.80102 1.71215 2.8029
3.79714 1.71539 2.81888
3.79126 1.71763 2.8349
3.7743 1.71472 2.84007
3.77446 1.72003 2.86099
3.74844 1.71202 2.85931
3.74851 1.71417 2.86927
3.73659 1.71332 2.87938
3.73272 1.71658 2.89636
3.71676 1.71368 2.90253
3.70685 1.71386 2.9146
3.70198 1.7171 2.93059
3.68603 1.71422 2.93775
3.67704 1.71226 2.93985
3.6782 1.71856 2.96075
3.65822 1.71362 2.96398
3.64732 1.71381 2.97606
3.64444 1.71706 2.99303
3.62648 1.71415 2.99821
3.61758 1.71535 3.01126
3.61866 1.71751 3.02222
3.6007 1.7146 3.0274
3.58776 1.71373 3.03552
3.58288 1.71597 3.05152
3.56895 1.71511 3.06064
3.56005 1.71631 3.07369
3.55215 1.71751 3.08673
3.54115 1.71453 3.08786
3.53628 1.71777 3.10385
3.52737 1.71896 3.1159
3.5094 1.71504 3.1211
3.51057 1.72237 3.14298
3.49059 1.71741 3.14521
3.48471 1.71965 3.16122
3.48386 1.72495 3.18115
3.46682 1.71989 3.17635
3.45388 1.71802 3.18448
3.44499 1.72023 3.19852
3.43003 1.71833 3.20466
3.41508 1.71644 3.2118
3.4082 1.71867 3.22682
3.41644 1.72912 3.25761
3.39333 1.71893 3.24393
3.39048 1.72423 3.26388
3.37754 1.72336 3.27199
3.37469 1.72866 3.29193
3.34864 1.71959 3.28626
3.3458 1.72489 3.30621
3.3258 1.71992 3.30743
3.33396 1.7282 3.32725
3.32002 1.72733 3.33537
3.30204 1.72339 3.33857
3.28708 1.72149 3.34471
3.28021 1.72473 3.36071
3.2703 1.72592 3.37277
3.25737 1.72506 3.38188
3.26754 1.73439 3.40467
3.24048 1.7253 3.39701
3.22351 1.72237 3.40118
3.21663 1.72561 3.41719
3.19966 1.72268 3.42136
3.1958 1.72696 3.44033
3.19296 1.73226 3.46027
3.14094 1.72027 3.45884
3.14718 1.73074 3.49065
3.12416 1.72471 3.48791
3.11122 1.72384 3.49602
3.09352 1.73143 3.53505
3.06139 1.71922 3.51947
3.05552 1.72347 3.53645
3.0446 1.72364 3.54753
3.03571 1.72586 3.56157
3.0258 1.72804 3.57361
3.0159 1.72924 3.58667
3.00185 1.72416 3.58085
2.98205 1.72755 3.60595
2.96507 1.72461 3.60912
2.95011 1.72371 3.61525
2.95132 1.7321 3.64212
2.92929 1.72606 3.63838
2.92433 1.72715 3.6444
2.91342 1.72834 3.65647
2.88148 1.72348 3.66478
2.87057 1.72567 3.67683
2.83873 1.72499 3.69708
2.81913 1.73778 3.75005
2.79407 1.72968 3.74236
2.78314 1.73084 3.75242
2.76413 1.72684 3.75162
2.72543 1.73145 3.79085
2.69956 1.73172 3.80805
2.66166 1.72794 3.82139
2.63579 1.72821 3.83858
2.62892 1.73346 3.85556
2.58909 1.73283 3.87887
2.57807 1.72981 3.877
2.56716 1.73098 3.88807
2.56537 1.74038 3.91494
2.53926 1.73121 3.90228
2.53747 1.7396 3.92817
2.52149 1.73665 3.93133
2.50957 1.73882 3.94239
2.4955 1.7327 3.93359
2.49371 1.7421 3.96047
2.46659 1.7319 3.94582
2.45974 1.73719 3.96479
2.44578 1.73628 3.97091
2.43487 1.73847 3.98297
2.42105 1.74382 4.00599
2.39796 1.73567 3.99529
2.37109 1.73695 4.01247
2.35029 1.74235 4.03855
2.33024 1.73627 4.03279
2.32428 1.73735 4.03782
2.29437 1.73654 4.04906
2.28447 1.73875 4.06311
2.2576 1.74001 4.07929
2.23857 1.73598 4.07649
2.22563 1.7371 4.08458
2.2217 1.73924 4.09358
2.16387 1.73761 4.11604
2.14104 1.74196 4.13915
2.1021 1.73811 4.1475
1.99851 1.74097 4.20125
1.89183 1.74169 4.24504
1.82806 1.74318 4.27551
1.81513 1.74532 4.28457
1.80218 1.74543 4.29167
1.7862 1.74447 4.29381
1.77531 1.74769 4.30784
1.73636 1.74582 4.31517
1.70847 1.74705 4.32936
1.69452 1.74816 4.33645
1.67752 1.74617 4.33661
1.66867 1.75146 4.3556
1.65558 1.74631 4.34477
1.64469 1.74952 4.35881
1.62666 1.74648 4.35499
1.61373 1.74864 4.36505
1.58788 1.75194 4.3842
1.56883 1.74786 4.37841
1.56593 1.75205 4.39137
1.54893 1.75007 4.39152
1.53089 1.74701 4.3867
1.51797 1.74916 4.39677
1.50299 1.74822 4.3999
1.49007 1.75038 4.40997
1.47306 1.74837 4.40912
1.46609 1.74944 4.41316
1.45317 1.7516 4.42323
1.43923 1.75272 4.43132
1.4222 1.74968 4.42749
1.40826 1.75081 4.43558
1.39226 1.74982 4.43571
1.37934 1.75198 4.44578
1.36233 1.74997 4.44494
1.35741 1.75314 4.45593
1.33056 1.75844 4.47506
1.29855 1.75445 4.47436
1.2836 1.75555 4.48045
1.26657 1.7525 4.47663
1.26165 1.75567 4.48762
1.24567 1.75571 4.48974
1.23068 1.75475 4.49187
1.21777 1.75792 4.50292
1.20076 1.75592 4.50208
1.1868 1.756 4.50718
1.17391 1.76123 4.5222
1.16178 1.75399 4.5054
1.1489 1.75822 4.52044
1.13597 1.76037 4.5295
1.11895 1.75835 4.52766
1.10293 1.75632 4.52481
1.09315 1.76675 4.55373
1.07196 1.75541 4.53006
1.06913 1.76374 4.55196
1.05313 1.76175 4.55211
1.03713 1.76075 4.55124
1.01137 1.77124 4.58329
0.98811 1.75676 4.54967
0.975203 1.75994 4.56172
0.959218 1.75998 4.56384
0.952257 1.76106 4.56888
0.935194 1.75696 4.56107
0.922326 1.76222 4.57809
0.905248 1.75708 4.56829
0.88924 1.75608 4.56743
0.876357 1.76131 4.58245
0.857256 1.75513 4.56968
0.850294 1.75621 4.57472
0.837395 1.76041 4.58776
0.806418 1.76048 4.59099
0.790426 1.75951 4.59213
0.760519 1.76271 4.60431
0.752472 1.75962 4.59841
0.737511 1.76071 4.60351
0.721487 1.75868 4.60066
0.707635 1.76497 4.61967
0.690518 1.75876 4.60489
0.67558 1.76089 4.61297
0.659549 1.75884 4.60913
0.651573 1.75989 4.61217
0.636619 1.76099 4.61827
0.621635 1.76103 4.62038
0.60879 1.76833 4.64037
0.589604 1.75799 4.61667
0.575728 1.76424 4.63268
0.558658 1.76012 4.62387
0.537775 1.76536 4.63895
0.522837 1.76749 4.64703
0.505728 1.76129 4.63325
0.490845 1.76652 4.64829
0.474798 1.76345 4.64245
0.459877 1.76761 4.65251
0.444861 1.76559 4.65065
0.435838 1.76455 4.64773
0.420815 1.76352 4.64486
0.405955 1.76979 4.66288
0.389908 1.76672 4.65705
0.376063 1.77402 4.67705
0.358986 1.76989 4.66723
0.342948 1.76782 4.66238
0.334878 1.7637 4.65351
0.318871 1.76369 4.65263
0.303948 1.76685 4.66269
0.290119 1.77519 4.68468
0.274019 1.77001 4.67187
0.259158 1.77628 4.68989
0.242004 1.769 4.67013
0.235136 1.77526 4.68709
0.219059 1.77112 4.67727
0.204129 1.77426 4.68634
0.188074 1.77117 4.6795
0.172168 1.77636 4.69155
0.156068 1.77118 4.67874
0.141192 1.77643 4.69478
0.133076 1.77121 4.67992
0.117162 1.77539 4.69098
0.102139 1.77435 4.68811
0.0861081 1.77231 4.68426
0.0701243 1.77335 4.68636
0.0551322 1.77337 4.68747
0.0391013 1.77133 4.68362
0.0241085 1.77138 4.55172
0.00818677 1.77554 4.56178
-0.00694519 1.7683 4.545
-0.0218199 1.77555 4.561
-0.0369669 1.76828 4.54222
-0.0447647 1.77867 4.56813
-0.0598345 1.77455 4.55931
-0.0748805 1.77247 4.55345
-0.0907947 1.77664 4.56451
-0.105942 1.76937 4.54573
-0.120832 1.77559 4.55975
-0.135925 1.77142 4.54792
-0.14394 1.7704 4.546
-0.158869 1.77454 4.55505
-0.174861 1.77457 4.55617
-0.189907 1.77249 4.55031
-0.204899 1.77352 4.55141
-0.219906 1.77351 4.55053
-0.234921 1.7725 4.54865
-0.250897 1.77455 4.55174
-0.258889 1.77457 4.5528
-0.27385 1.77666 4.55789
-0.287989 1.7704 4.54008
-0.30484 1.77869 4.55909
-0.320816 1.77975 4.56219
-0.334886 1.77663 4.55335
-0.349924 1.77556 4.54847
-0.357893 1.77663 4.55252
-0.373845 1.77973 4.55859
-0.404851 1.78074 4.55781
-0.419874 1.7797 4.55494
-0.434889 1.77969 4.55305
-0.450841 1.78279 4.55913
-0.457872 1.78173 4.5552
-0.503892 1.78272 4.55253
-0.885241 1.78529 4.50736
-0.900263 1.78525 4.50447
-0.929338 1.78413 4.49471
-1.01344 1.78498 4.48132
-1.02748 1.78392 4.47645
-1.04155 1.78179 4.46758
-1.05754 1.78382 4.46867
-1.06457 1.78277 4.46474
-1.07958 1.78375 4.46284
-1.09557 1.78477 4.46394
-1.10772 1.7785 4.44513
-1.12564 1.78366 4.45519
-1.1358 1.77737 4.43535
-1.15181 1.77836 4.43346
-1.1678 1.78038 4.43455
-1.17387 1.77725 4.42564
-1.18694 1.77513 4.41677
-1.20585 1.78131 4.42782
-1.21794 1.77814 4.41596
-1.23396 1.77812 4.41408
-1.248 1.77806 4.40918
-1.26302 1.77802 4.4063
-1.26909 1.77489 4.39739
-1.28312 1.77485 4.39349
-1.30009 1.7779 4.39658
-1.31707 1.78096 4.39966
-1.32528 1.77155 4.37186
-1.34419 1.77774 4.38391
-1.35922 1.77769 4.38002
-1.36528 1.77558 4.3721
-1.37931 1.77553 4.36821
-1.39823 1.78169 4.37826
-1.40449 1.76921 4.34549
-1.42733 1.78052 4.36549
-1.43844 1.77531 4.35065
-1.45054 1.77214 4.33879
-1.46244 1.77832 4.35079
-1.47257 1.77308 4.33394
-1.49152 1.77718 4.34002
-1.50458 1.77709 4.33312
-1.51864 1.77498 4.32526
-1.53269 1.77389 4.31838
-1.5477 1.77588 4.31746
-1.54887 1.76756 4.29559
-1.57072 1.77684 4.31362
-1.58478 1.77675 4.30673
-1.60275 1.7798 4.30982
-1.61484 1.77664 4.29795
-1.62888 1.77657 4.29306
-1.64684 1.78166 4.29812
-1.65403 1.77331 4.27429
-1.66694 1.77948 4.2853
-1.67902 1.77634 4.27544
-1.69503 1.77832 4.27353
-1.70713 1.77514 4.26067
-1.72803 1.78233 4.27272
-1.74207 1.78227 4.26782
-1.75417 1.77908 4.25496
-1.76314 1.78215 4.25898
-1.7713 1.77585 4.23814
-1.79616 1.78613 4.25617
-1.80137 1.77572 4.22836
-1.81835 1.77978 4.23143
-1.8383 1.78488 4.23751
-1.84546 1.77857 4.21665
-1.85741 1.78269 4.22368
-1.86949 1.78053 4.2128
-1.88157 1.77838 4.20192
-1.89954 1.78245 4.206
-1.91555 1.78343 4.20411
-1.93059 1.78437 4.1992
-1.94071 1.78015 4.18434
-1.97778 1.78303 4.17458
-2.00884 1.78494 4.16678
-2.03692 1.78579 4.15598
-2.04099 1.78265 4.14605
-2.05504 1.78257 4.14016
-2.08411 1.78344 4.13036
-2.0962 1.78128 4.11849
-2.12528 1.78215 4.10869
-2.13637 1.77998 4.09681
-2.14635 1.78202 4.09885
-2.15252 1.77569 4.07699
-2.1715 1.77975 4.08007
-2.18357 1.77861 4.07018
-2.1927 1.77438 4.05431
-2.20576 1.77327 4.04642
-2.22571 1.77938 4.05248
-2.21795 1.7669 4.0206
-2.24481 1.77818 4.03864
-2.2559 1.77601 4.02675
-2.26897 1.77489 4.01787
-2.28005 1.77274 4.00698
-2.29213 1.7716 3.99709
-2.30617 1.77252 3.99118
-2.31715 1.77557 3.99422
-2.32824 1.7724 3.98235
-2.34426 1.77537 3.97942
-2.35239 1.77012 3.96256
-2.36644 1.77104 3.95665
-2.37653 1.76887 3.94476
-2.39453 1.77189 3.94485
-2.40352 1.77389 3.94489
-2.41362 1.77171 3.93199
-2.42668 1.7716 3.92409
-2.4427 1.77358 3.92218
-2.44984 1.76831 3.90331
-2.46192 1.76717 3.89342
-2.47596 1.76809 3.88751
-2.48695 1.77113 3.88955
-2.49803 1.76897 3.87866
-2.5101 1.76785 3.86977
-2.52316 1.76774 3.86187
-2.53819 1.76967 3.85695
-2.54928 1.76752 3.84607
-2.57222 1.77564 3.85312
-2.56837 1.76734 3.83321
-2.58242 1.76826 3.8273
-2.59252 1.76608 3.81441
-2.60855 1.76803 3.8105
-2.62852 1.77309 3.81358
-2.63961 1.77192 3.80168
-2.6408 1.76355 3.7768
-2.65386 1.76344 3.7689
-2.67078 1.77062 3.77993
-2.68977 1.77464 3.78101
-2.69689 1.7714 3.76411
-2.70699 1.76921 3.75122
-2.72698 1.77426 3.75329
-2.73212 1.76898 3.73441
-2.74617 1.76889 3.72751
-2.75914 1.77395 3.73154
-2.76626 1.76972 3.71565
-2.77931 1.77063 3.70873
-2.79041 1.76846 3.69685
-2.80543 1.77141 3.69292
-2.81554 1.76821 3.67904
-2.83454 1.77322 3.67911
-2.83859 1.77112 3.67217
-2.86154 1.77923 3.67822
-2.86768 1.77397 3.66034
-2.88569 1.77795 3.65842
-2.88787 1.77061 3.63554
-2.90785 1.77565 3.63762
-2.91696 1.77345 3.62372
-2.93497 1.77744 3.62179
-2.94101 1.77737 3.61684
-2.95208 1.77623 3.60694
-2.97009 1.78021 3.60502
-2.97326 1.77389 3.58313
-2.99127 1.77787 3.58121
-3.01938 1.77968 3.56739
-3.03352 1.77741 3.54853
-3.04263 1.77421 3.53464
-3.06163 1.77921 3.53371
-3.06876 1.77598 3.51781
-3.07786 1.77378 3.50391
-3.09785 1.77881 3.50498
-3.10389 1.77874 3.50003
-3.12704 1.77846 3.48021
3.83121 1.71357 2.56262
3.77078 1.71374 2.63908
3.75599 1.71615 2.66616
3.73802 1.71224 2.67136
3.72818 1.71456 2.6924
3.71021 1.70963 2.69661
3.69542 1.71304 2.72367
3.68449 1.7122 2.73377
3.6817 1.7186 2.7607
3.66776 1.71673 2.76883
3.65784 1.7169 2.77991
3.65095 1.71811 2.79394
3.636 1.71523 2.8011
3.63212 1.71847 2.81708
3.60811 1.71147 2.81637
3.61531 1.71985 2.84219
3.60835 1.71993 2.84724
3.5944 1.71804 2.85438
3.57944 1.71514 2.86053
3.57558 1.71841 2.87852
3.56466 1.71857 2.8886
3.56179 1.72182 2.90557
3.55187 1.72199 2.91665
3.53986 1.71898 2.91578
3.52492 1.71611 2.92394
3.51903 1.71933 2.93794
3.51013 1.71952 2.951
3.49919 1.71967 2.96008
3.48626 1.71781 2.96921
3.4703 1.71489 2.97437
3.46635 1.716 2.98139
3.45845 1.7172 2.99443
3.45056 1.71941 3.00846
3.44366 1.72061 3.0215
3.43274 1.72078 3.03258
3.41678 1.71787 3.03774
3.41089 1.72109 3.05274
3.40694 1.7212 3.05977
3.38695 1.71623 3.06099
3.38611 1.72254 3.08191
3.3772 1.72372 3.09396
3.36124 1.72081 3.09913
3.34326 1.71587 3.10233
3.34544 1.72421 3.1252
3.33452 1.72438 3.13628
3.32653 1.72241 3.13837
3.31057 1.7195 3.14353
3.30167 1.7217 3.15657
3.29075 1.72187 3.16765
3.27881 1.72099 3.17575
3.26587 1.72012 3.18387
3.27109 1.72953 3.21169
3.25907 1.72551 3.20984
3.24815 1.72567 3.21992
3.23622 1.72581 3.22901
3.22328 1.72495 3.23812
3.21134 1.72408 3.24623
3.20346 1.72631 3.26126
3.19253 1.72646 3.27134
3.18353 1.72447 3.27143
3.17463 1.72667 3.28447
3.16271 1.72683 3.29456
3.15885 1.7311 3.31253
3.14389 1.7292 3.31867
3.12893 1.72728 3.32381
3.12103 1.72949 3.33784
3.12113 1.73367 3.34978
3.10617 1.73077 3.35594
3.09323 1.7309 3.36403
3.08331 1.73107 3.37511
3.06835 1.72915 3.38025
3.04247 1.72841 3.39646
3.0355 1.72747 3.40052
3.02054 1.72556 3.40566
3.0187 1.73187 3.42659
3.00981 1.73408 3.44062
2.9898 1.72908 3.43985
2.97382 1.72614 3.44301
2.96088 1.72527 3.45112
2.94987 1.72226 3.45025
2.93591 1.72136 3.45637
2.91305 1.72164 3.47454
2.90314 1.72283 3.4866
2.84541 1.7214 3.52306
2.82458 1.72375 3.54519
2.69435 1.72834 3.64711
2.67836 1.72538 3.64928
2.67655 1.73375 3.67417
2.66057 1.73079 3.67634
2.64257 1.72782 3.67752
2.62861 1.7259 3.68265
2.6267 1.73008 3.6946
2.61274 1.72817 3.69974
2.60081 1.72931 3.70881
2.59091 1.73151 3.72186
2.57391 1.72852 3.72203
2.56907 1.73383 3.74299
2.56828 1.74323 3.76986
2.54105 1.72782 3.74129
2.52912 1.72897 3.75036
2.5182 1.73014 3.76143
2.5083 1.73234 3.77447
2.49233 1.73039 3.77762
2.48343 1.73361 3.79165
2.46642 1.7296 3.79083
2.45247 1.7297 3.79694
2.44955 1.73287 3.80791
2.43965 1.73505 3.81996
2.41961 1.73001 3.81618
2.41072 1.73322 3.8302
2.39373 1.73025 3.83138
2.38179 1.73039 3.84047
2.36784 1.73049 3.84657
2.35096 1.73274 3.86267
2.3271 1.73402 3.88083
2.31213 1.73309 3.88496
2.30122 1.73528 3.89701
2.2903 1.73644 3.90707
2.28231 1.73647 3.90913
2.26531 1.73348 3.90931
2.25136 1.73258 3.91543
2.24146 1.73578 3.92846
2.22851 1.73589 3.93555
2.21862 1.73911 3.94958
2.18765 1.73521 3.95487
2.17965 1.73421 3.95495
2.16874 1.7364 3.967
2.15276 1.73444 3.96915
2.13982 1.73557 3.97723
2.12687 1.73568 3.98433
2.11597 1.73788 3.99738
2.09997 1.73589 3.99753
2.09707 1.74009 4.01049
2.06915 1.73825 4.02073
2.05214 1.73625 4.01989
2.04428 1.74152 4.03787
2.02829 1.73857 4.04003
2.02145 1.74588 4.06098
2.00938 1.74076 4.05215
1.99645 1.74188 4.06023
1.98249 1.74198 4.06633
1.96447 1.73797 4.06453
1.95254 1.73911 4.0736
1.9396 1.74024 4.08168
1.92563 1.73931 4.0858
1.92173 1.74349 4.09777
1.90573 1.74151 4.09892
1.8938 1.74266 4.108
1.87578 1.73962 4.10518
1.872 1.74906 4.13407
1.85398 1.74602 4.13125
1.84307 1.74821 4.1433
1.83405 1.74619 4.1414
1.82725 1.75456 4.16633
1.80614 1.74637 4.15261
1.79321 1.74851 4.16168
1.77517 1.74345 4.15689
1.76222 1.74457 4.16397
1.75339 1.7519 4.18593
1.74435 1.74883 4.18104
1.73857 1.75825 4.20895
1.71849 1.75211 4.19919
1.7035 1.75016 4.20133
1.69057 1.75228 4.2094
1.67253 1.74722 4.20461
1.66163 1.75144 4.21863
1.64359 1.74738 4.21383
1.63866 1.74951 4.22283
1.62573 1.75166 4.2319
1.61178 1.75276 4.23799
1.59679 1.7508 4.24013
1.5808 1.74982 4.24127
1.56582 1.74888 4.24439
1.54778 1.7448 4.23859
1.54795 1.75313 4.26047
1.5299 1.74805 4.25468
1.51799 1.75124 4.26672
1.50712 1.75548 4.28274
1.49009 1.75345 4.2799
1.47819 1.75665 4.29295
1.46321 1.75571 4.29607
1.45007 1.74744 4.27729
1.44124 1.75477 4.29925
1.42321 1.75072 4.29545
1.40617 1.74766 4.29062
1.39631 1.75395 4.30961
1.38851 1.76234 4.33554
1.36841 1.75515 4.3218
1.35938 1.75311 4.3189
1.34851 1.75835 4.3349
1.3165 1.75438 4.3352
1.30254 1.75546 4.34029
1.28448 1.75036 4.3325
1.2736 1.7556 4.34851
1.25553 1.75048 4.33972
1.24856 1.75155 4.34376
1.23565 1.75472 4.35481
1.21964 1.75171 4.35398
1.20773 1.7559 4.36601
1.19173 1.75491 4.36614
1.17882 1.75708 4.37721
1.16278 1.75402 4.37237
1.15892 1.76029 4.39031
1.14085 1.75517 4.38152
1.1269 1.75728 4.3886
1.10882 1.75114 4.37782
1.09691 1.75532 4.38985
1.07988 1.75228 4.38602
1.06488 1.75029 4.38617
1.05999 1.7555 4.40013
1.04606 1.75764 4.4092
1.03002 1.75559 4.40535
1.01814 1.76082 4.42037
1.00004 1.75364 4.40761
0.972171 1.75792 4.42476
0.964171 1.75792 4.42482
0.935224 1.75805 4.43204
0.918146 1.75291 4.42224
0.902139 1.75191 4.42137
0.889216 1.75507 4.43143
0.873224 1.75409 4.43256
0.858216 1.75309 4.43169
0.855426 1.76349 4.45856
0.837316 1.7563 4.4448
0.806316 1.75432 4.44506
0.792363 1.75642 4.45114
0.776347 1.7544 4.44929
0.76451 1.76172 4.47027
0.756463 1.75864 4.46438
0.741479 1.75868 4.46649
0.725455 1.75664 4.46364
0.710486 1.75771 4.46774
0.681564 1.75988 4.47793
0.664478 1.75473 4.46713
0.642525 1.75684 4.47326
0.627541 1.75688 4.47538
0.613626 1.76005 4.48644
0.599688 1.76218 4.49451
0.583673 1.76116 4.49265
0.569711 1.76225 4.49774
0.559603 1.75705 4.48389
0.545657 1.75916 4.49096
0.530657 1.75817 4.49109
0.514657 1.75718 4.49122
0.500751 1.76237 4.50325
0.484665 1.75722 4.49245
0.470774 1.76244 4.50648
0.463813 1.76351 4.51152
0.447736 1.75938 4.5017
0.433813 1.76254 4.51176
0.417767 1.75946 4.50592
0.402837 1.7626 4.51499
0.386744 1.75744 4.50319
0.373938 1.76782 4.52813
0.3659 1.76575 4.52322
0.352039 1.77202 4.54124
0.334845 1.76167 4.51652
0.320963 1.7679 4.53153
0.304916 1.76482 4.5257
0.291056 1.7711 4.54371
0.274986 1.76798 4.53488
0.260018 1.76905 4.53897
0.251963 1.76595 4.53208
0.23584 1.75973 4.51629
0.221964 1.76597 4.53231
0.207042 1.76913 4.54237
0.191027 1.76811 4.54051
0.176058 1.77018 4.54459
0.160981 1.76605 4.53476
0.152981 1.76605 4.53482
0.138083 1.77125 4.54786
0.123044 1.76819 4.54302
0.106928 1.76298 4.52822
0.0921222 1.77236 4.55319
0.0770217 1.76718 4.54038
0.0621388 1.77341 4.5554
0.0541698 1.77448 4.55945
0.0391394 1.77343 4.55558
-1.01366 1.7806 4.32037
-1.04173 1.77947 4.3106
-1.05674 1.77945 4.30871
-1.08481 1.77934 4.29992
-1.09088 1.77621 4.29101
-1.10782 1.78034 4.29908
-1.11894 1.77511 4.28324
-1.13588 1.78024 4.29129
-1.14799 1.77604 4.27744
-1.16107 1.77289 4.26659
-1.17605 1.77493 4.26867
-1.18404 1.77595 4.26971
-1.19906 1.77693 4.26781
-1.21311 1.77584 4.26093
-1.22617 1.77373 4.25306
-1.23924 1.77161 4.24419
-1.25327 1.77156 4.2403
-1.27023 1.77564 4.24536
-1.27432 1.77148 4.23446
-1.29227 1.77559 4.24053
-1.30337 1.7724 4.22766
-1.31644 1.76928 4.2188
-1.33144 1.77127 4.21789
-1.34743 1.7733 4.21898
-1.35952 1.77015 4.20811
-1.37355 1.77008 4.20322
-1.38154 1.77212 4.20525
-1.39558 1.77205 4.20036
-1.41058 1.77305 4.19945
-1.42657 1.77508 4.20054
-1.4367 1.76983 4.1837
-1.45075 1.76875 4.17782
-1.46968 1.7749 4.18687
-1.46986 1.76556 4.16401
-1.4878 1.77168 4.17105
-1.50378 1.77472 4.17313
-1.51294 1.76743 4.1533
-1.52793 1.76944 4.15339
-1.5449 1.77351 4.15745
-1.55895 1.77242 4.15057
-1.56498 1.77136 4.14663
-1.58293 1.77748 4.15368
-1.58914 1.76707 4.12588
-1.60613 1.77011 4.12796
-1.62113 1.77212 4.12804
-1.63419 1.77101 4.12016
-1.64823 1.77094 4.11426
-1.65719 1.77402 4.11929
-1.66733 1.76776 4.10145
-1.68429 1.77284 4.10651
-1.69833 1.77278 4.10161
-1.71334 1.77376 4.09971
-1.72738 1.77368 4.09382
-1.73946 1.77154 4.08394
-1.74257 1.76734 4.07002
-1.76051 1.77245 4.07708
-1.77652 1.77445 4.07617
-1.78564 1.77022 4.0603
-1.80362 1.77328 4.06339
-1.81961 1.7763 4.06447
-1.83169 1.77415 4.05359
-1.84474 1.77407 4.04769
-1.85175 1.77405 4.04574
-1.86383 1.77291 4.03585
-1.87983 1.7749 4.03494
-1.89878 1.78001 4.04101
-1.90594 1.7727 4.02017
-1.92095 1.7757 4.01924
-1.93893 1.77874 4.02133
-1.94201 1.77559 4.01139
-1.95408 1.77447 4.0025
-1.97009 1.77645 4.00059
-1.98412 1.7774 3.99668
-1.9962 1.77526 3.9868
-2.01122 1.77723 3.98389
-2.02329 1.77509 3.97401
-2.03129 1.7771 3.97404
-2.05026 1.78117 3.97812
-2.05937 1.77795 3.96324
-2.07341 1.77789 3.95834
-2.09139 1.78193 3.96042
-2.09657 1.7746 3.93756
-2.11554 1.77967 3.94163
-2.20284 1.78012 3.90128
-2.23598 1.77988 3.88353
-2.2712 1.77648 3.85484
-2.28425 1.77638 3.84794
-2.29423 1.77942 3.84997
-2.30531 1.77728 3.84008
-2.31738 1.77616 3.83119
-2.33142 1.77708 3.82528
-2.34447 1.77698 3.81838
-2.35951 1.77892 3.81346
-2.37058 1.77678 3.80358
-2.37969 1.77358 3.78969
-2.38967 1.77662 3.79172
-2.39977 1.77445 3.77983
-2.41183 1.77332 3.77093
-2.4409 1.77621 3.76211
-2.44902 1.77198 3.74623
-2.467 1.77702 3.74829
-2.47503 1.77798 3.74534
-2.47819 1.77066 3.72347
-2.50311 1.77984 3.73452
-2.51023 1.77561 3.71863
-2.52032 1.77344 3.70674
-2.53635 1.77539 3.70283
-2.54939 1.77631 3.69692
-2.55246 1.77418 3.68797
-2.57046 1.77719 3.68806
-2.58055 1.77602 3.67615
-2.59262 1.7749 3.66726
-2.60469 1.77477 3.65835
-2.6207 1.77776 3.65643
-2.63277 1.77662 3.64653
-2.66393 1.77633 3.62577
-2.67401 1.77517 3.61486
-2.70507 1.77908 3.60704
-2.72821 1.77781 3.58823
-2.73524 1.77877 3.58526
3.43023 1.72182 2.83255
3.41931 1.72198 2.84264
3.36173 1.72083 2.89809
3.28834 1.72408 2.97961
3.26153 1.72447 3.00481
3.22975 1.72393 3.03406
3.22285 1.72614 3.04808
3.20504 1.72851 3.07219
3.19403 1.7255 3.07131
3.17621 1.72787 3.09541
3.16427 1.727 3.10352
3.15535 1.72817 3.11457
3.14342 1.72731 3.12367
3.12552 1.72651 3.13682
3.11359 1.72666 3.14591
3.10468 1.72784 3.15796
3.09779 1.73005 3.17198
3.08585 1.73018 3.18007
3.07088 1.72726 3.18523
3.055 1.7275 3.20035
3.04206 1.72763 3.20844
3.03112 1.72777 3.21753
3.02726 1.73204 3.23549
3.01532 1.73116 3.2436
2.99247 1.73146 3.26277
2.9765 1.72853 3.26693
2.95253 1.72462 3.27217
2.94968 1.72991 3.29112
2.9448 1.73415 3.30709
2.92581 1.72918 3.30831
2.91084 1.72726 3.31345
2.909 1.73356 3.33338
2.89394 1.72747 3.32658
2.87898 1.72555 3.33172
2.87916 1.73289 3.35461
2.86116 1.72892 3.35581
2.84619 1.72699 3.35995
2.84234 1.73227 3.3789
2.82636 1.72933 3.38207
2.82645 1.73351 3.39401
2.8135 1.73262 3.40112
2.80056 1.73173 3.40823
2.77952 1.72469 3.40449
2.77062 1.72789 3.41751
2.76575 1.73214 3.43449
2.75382 1.73229 3.44358
2.74178 1.72822 3.43873
2.73288 1.73042 3.45177
2.72802 1.73469 3.46974
2.71709 1.73585 3.47981
2.69303 1.72775 3.47211
2.69018 1.73404 3.49204
2.6823 1.73727 3.50705
2.67026 1.73221 3.50222
2.65125 1.7282 3.50142
2.64638 1.73246 3.5184
2.62939 1.7295 3.52057
2.62959 1.73887 3.54543
2.60451 1.72974 3.53575
2.58852 1.72678 3.53792
2.58164 1.73003 3.55393
2.57972 1.73317 3.56389
2.56274 1.73022 3.56607
2.55787 1.73649 3.58401
2.54897 1.73869 3.59705
2.53501 1.73677 3.60218
2.5241 1.73894 3.61324
2.50608 1.73392 3.61144
2.49707 1.73192 3.61054
2.47804 1.72689 3.60776
2.4651 1.72701 3.61586
2.45924 1.73127 3.63284
2.44123 1.72828 3.63302
2.43536 1.73254 3.65
2.41937 1.72957 3.65117
2.41645 1.73272 3.66114
2.40754 1.7349 3.67318
2.38954 1.73191 3.67336
2.37963 1.7341 3.68541
2.36364 1.73112 3.68657
2.36081 1.73847 3.70949
2.33976 1.73238 3.70273
2.32681 1.73249 3.70983
2.31093 1.73474 3.72592
2.29698 1.73384 3.73204
2.27006 1.73302 3.74325
2.26319 1.73726 3.75925
2.25024 1.73738 3.76634
2.24123 1.73537 3.76544
2.23235 1.7396 3.78045
2.21432 1.73457 3.77766
2.20542 1.73776 3.79068
2.1874 1.73373 3.78787
2.17546 1.73388 3.79696
2.16049 1.73293 3.80009
2.15656 1.73507 3.80909
2.14868 1.74031 3.82507
2.13065 1.73528 3.82228
2.12278 1.74052 3.83827
2.10679 1.73756 3.84043
2.09587 1.73972 3.85048
2.08393 1.74084 3.85856
2.07391 1.73781 3.85568
2.07213 1.74824 3.88454
2.05307 1.74215 3.87777
2.03911 1.74123 3.88289
2.02516 1.74133 3.889
2.01118 1.74039 3.89212
2.00433 1.74669 3.91208
1.99228 1.74159 3.90524
1.98136 1.74476 3.91628
1.96536 1.74176 3.91544
1.95649 1.74602 3.93245
1.94557 1.74819 3.9435
1.93058 1.74621 3.94464
1.92069 1.75043 3.95866
1.91065 1.74738 3.95478
1.89464 1.74437 3.95394
1.88476 1.7486 3.96896
1.86774 1.74457 3.96615
1.85987 1.74984 3.98413
1.84489 1.74888 3.98626
1.83398 1.75207 3.99829
1.82001 1.75114 4.00241
1.81407 1.75225 4.00944
1.79908 1.75129 4.01157
1.78612 1.75137 4.01667
1.77522 1.75457 4.0297
1.75922 1.75258 4.02985
1.74933 1.7558 4.04388
1.73129 1.75174 4.03908
1.7134 1.75497 4.05417
1.69942 1.75403 4.05729
1.69056 1.7593 4.07528
1.67151 1.75421 4.0685
1.64866 1.75952 4.08859
1.63863 1.75647 4.08471
1.62263 1.75348 4.08488
1.61172 1.75667 4.09691
1.59978 1.75879 4.10497
1.57186 1.75896 4.11518
1.55193 1.76011 4.12432
1.52197 1.75822 4.13057
1.51003 1.76035 4.13863
1.4821 1.7605 4.14784
1.44618 1.75968 4.15812
1.43221 1.75975 4.16223
1.40633 1.763 4.17838
1.38929 1.75792 4.17258
1.36443 1.76322 4.19169
1.35542 1.7612 4.18979
1.32644 1.75927 4.19304
1.28456 1.76153 4.20932
1.27163 1.76368 4.21839
1.24759 1.75862 4.21364
1.23569 1.76282 4.22667
1.20879 1.76503 4.23984
1.19381 1.76507 4.24196
1.18084 1.76516 4.24705
1.16974 1.75897 4.23423
1.15579 1.76007 4.24032
1.14388 1.76426 4.25235
1.1289 1.7633 4.25447
1.10098 1.76547 4.26465
1.08701 1.76554 4.26876
1.07306 1.76665 4.27585
1.05211 1.76775 4.28199
1.03712 1.76679 4.28412
1.00711 1.7638 4.28339
0.993174 1.76593 4.29146
0.980228 1.76804 4.29853
0.97222 1.76703 4.29761
-1.16795 1.77316 4.14962
-1.18392 1.77622 4.15269
-1.19988 1.7803 4.15775
-1.21198 1.77614 4.14591
-1.21705 1.77301 4.13699
-1.23009 1.77193 4.1311
-1.24511 1.77291 4.1292
-1.2601 1.77493 4.13028
-1.27024 1.76868 4.11245
-1.28621 1.77173 4.11553
-1.29829 1.76959 4.10565
-1.30723 1.7737 4.11265
-1.32031 1.77056 4.1028
-1.33238 1.76844 4.09392
-1.3503 1.7746 4.10396
-1.36043 1.76936 4.08712
-1.3764 1.77241 4.09019
-1.39044 1.77235 4.0853
-1.39255 1.76714 4.07139
-1.40757 1.76711 4.0685
-1.42452 1.77221 4.07455
-1.43757 1.77113 4.06867
-1.45064 1.77001 4.05978
-1.46074 1.76582 4.04692
-1.4738 1.76371 4.03905
-1.48586 1.7626 4.03115
-1.49972 1.77188 4.04912
-1.51374 1.77285 4.04621
-1.52387 1.7666 4.02938
-1.53984 1.77067 4.03344
-1.54605 1.76026 4.00564
-1.56202 1.76433 4.0097
-1.57998 1.76942 4.01476
-1.58209 1.76321 4.00086
-1.59709 1.76623 4.00093
-1.61212 1.76618 3.99705
-1.62907 1.77128 4.0031
-1.64017 1.76809 3.99023
-1.65322 1.767 3.98334
-1.66724 1.76796 3.98043
-1.67523 1.76899 3.98148
-1.68239 1.76268 3.96062
-1.70231 1.76884 3.97068
-1.7134 1.76669 3.9598
-1.7284 1.7687 3.95988
-1.74244 1.76862 3.95399
-1.75352 1.76648 3.9441
-1.75659 1.76333 3.93417
-1.77653 1.76947 3.94223
-1.79154 1.77146 3.94131
-1.80457 1.7714 3.93641
-1.82058 1.77439 3.93549
-1.8356 1.77536 3.93259
-1.84176 1.76806 3.91174
-1.85369 1.7742 3.92074
-1.87066 1.77825 3.9238
-1.87586 1.76889 3.89898
-1.89479 1.77502 3.90703
-1.90784 1.77494 3.90113
-1.91598 1.76968 3.88327
-1.93492 1.7758 3.89032
-1.94096 1.77473 3.88538
-1.95204 1.77257 3.8745
-1.96902 1.77661 3.87656
-1.98207 1.77653 3.87066
-1.99019 1.7713 3.8548
-2.02416 1.77937 3.85794
-2.03327 1.77517 3.84406
-2.04127 1.77718 3.8441
-2.06442 1.7739 3.82432
-2.13766 1.77548 3.79284
-2.15269 1.77643 3.78894
-2.16671 1.7784 3.78601
-2.17385 1.77313 3.76814
-2.18888 1.77409 3.76424
-2.20291 1.77604 3.76032
-2.20401 1.77085 3.7474
-2.22495 1.77796 3.75446
-2.23603 1.77582 3.74457
-2.24316 1.77158 3.72768
-2.25915 1.77459 3.72776
-2.27418 1.77554 3.72386
-2.28033 1.77026 3.70498
-2.30127 1.77738 3.71203
-2.30137 1.77219 3.69911
-2.31442 1.7721 3.69221
-2.32944 1.77506 3.68928
-2.3425 1.77497 3.68238
-2.34764 1.76869 3.6635
-2.36661 1.77476 3.66756
-2.38263 1.77673 3.66465
-2.38768 1.77565 3.6587
-2.39973 1.77555 3.65179
-2.4118 1.77443 3.6429
-2.41793 1.77018 3.62601
-2.43592 1.77421 3.62708
-2.45094 1.77616 3.62317
-2.464 1.77706 3.61625
-2.46903 1.77599 3.6113
-2.48208 1.77691 3.60539
-2.48723 1.77064 3.58652
-2.54437 1.77638 3.56686
-2.56246 1.77622 3.555
-2.64087 1.77548 3.50159
-2.65293 1.77537 3.49368
-2.6982 1.77385 3.45704
-2.76552 1.77526 3.41452
3.18594 1.72536 2.92636
3.07772 1.72696 3.03016
3.0598 1.72614 3.04131
3.04197 1.72849 3.06441
3.02213 1.72982 3.08555
3.00421 1.72799 3.09671
2.98034 1.72725 3.1129
2.97143 1.72843 3.12495
2.93762 1.72784 3.15122
2.92173 1.72806 3.16534
2.91584 1.73229 3.18032
2.89583 1.72629 3.17956
2.89398 1.73257 3.19849
2.87397 1.72657 3.19773
2.8701 1.73182 3.21468
2.86412 1.73087 3.21774
2.85118 1.73 3.22585
2.84025 1.73014 3.23493
2.8273 1.72924 3.24104
2.81233 1.72631 3.2452
2.80342 1.7285 3.25724
2.79045 1.72658 3.26236
2.78964 1.73493 3.28625
2.77659 1.72986 3.28042
2.76162 1.72693 3.28458
2.74765 1.725 3.28871
2.73085 1.73039 3.31476
2.72194 1.73158 3.32681
2.70495 1.7276 3.328
2.70098 1.72868 3.33302
2.69511 1.73292 3.349
2.65929 1.7323 3.37328
2.64128 1.7283 3.37248
2.63036 1.72846 3.38256
2.62439 1.72852 3.3866
2.6185 1.73275 3.40159
2.60353 1.73082 3.40573
2.58957 1.7289 3.41086
2.57257 1.72591 3.41104
2.57276 1.73428 3.43591
2.55475 1.72928 3.43512
2.54382 1.73042 3.44419
2.5338 1.7274 3.44231
2.53096 1.7337 3.46224
2.51497 1.73074 3.4644
2.49493 1.72468 3.45964
2.48704 1.7279 3.47366
2.47914 1.73111 3.48767
2.47327 1.73636 3.50464
2.46224 1.73231 3.50078
2.4493 1.73143 3.5079
2.43937 1.73358 3.51794
2.43148 1.73679 3.53195
2.41245 1.73076 3.52919
2.40255 1.73395 3.54121
2.38959 1.73305 3.54733
2.38361 1.7331 3.55037
2.3737 1.73427 3.56143
2.35872 1.73232 3.56457
2.34272 1.72933 3.56474
2.33686 1.73462 3.58371
2.32593 1.73576 3.59277
2.31399 1.73587 3.59986
2.31208 1.74005 3.61182
2.28999 1.7319 3.6011
2.28008 1.73409 3.61315
2.27118 1.73729 3.62617
2.24324 1.73443 3.63442
2.23334 1.73661 3.64646
2.2233 1.73254 3.6416
2.21237 1.7347 3.65165
2.19943 1.73481 3.65875
2.19256 1.74007 3.67572
2.17959 1.73915 3.68084
2.16665 1.73927 3.68793
2.13374 1.73748 3.70121
2.1208 1.7376 3.70831
2.119 1.74698 3.73418
2.09488 1.73678 3.71952
2.08294 1.73791 3.72759
2.071 1.73903 3.73566
2.05703 1.73709 3.7388
2.05309 1.74021 3.74678
2.04216 1.74136 3.75685
2.0353 1.74764 3.77481
2.01626 1.74158 3.77004
2.00737 1.74579 3.78405
1.99238 1.74381 3.78519
1.97435 1.73878 3.7824
1.97345 1.74398 3.79533
1.96151 1.74509 3.80241
1.94857 1.74522 3.81051
1.93764 1.74737 3.82056
1.9196 1.7423 3.81477
1.90665 1.74241 3.82186
1.89369 1.74249 3.82696
1.88466 1.73946 3.82407
1.87578 1.74368 3.83908
1.86589 1.7479 3.85309
1.84784 1.74282 3.8473
1.83489 1.74292 3.8534
1.82498 1.74611 3.86543
1.80897 1.7431 3.8646
1.80403 1.74523 3.8726
1.79311 1.74738 3.88265
1.77608 1.74333 3.87884
1.76414 1.74448 3.88792
1.75118 1.74456 3.89301
1.74027 1.74775 3.90505
1.7263 1.74681 3.90917
