4.03471 1.72715 3.42671
4.02574 1.72621 3.43079
4.01485 1.72643 3.44487
4.00092 1.72559 3.45499
3.98498 1.72372 3.46314
3.97711 1.72597 3.48016
3.96016 1.72409 3.48732
3.95329 1.72635 3.50434
3.95842 1.73159 3.52123
3.93947 1.7287 3.52741
3.91647 1.72373 3.52866
3.91767 1.73011 3.55456
3.89871 1.7272 3.55975
3.88781 1.72842 3.57381
3.86683 1.72348 3.57704
3.85593 1.72468 3.59011
3.85401 1.72683 3.6001
3.83908 1.72597 3.60922
3.83121 1.72824 3.62725
3.81527 1.72637 3.6354
3.81244 1.73168 3.65634
3.79146 1.72776 3.66056
3.78449 1.72682 3.66463
3.77461 1.72905 3.67967
3.75564 1.72514 3.68487
3.74777 1.7284 3.70189
3.73183 1.72651 3.70904
3.71489 1.72464 3.71719
3.71407 1.731 3.74111
3.70115 1.73117 3.7522
3.68612 1.72612 3.74839
3.68431 1.7325 3.77331
3.6724 1.73267 3.7844
3.65243 1.72974 3.7886
3.63749 1.72889 3.79772
3.62962 1.73114 3.81475
3.61267 1.72926 3.82191
3.60773 1.73037 3.82893
3.59683 1.73158 3.843
3.57484 1.72761 3.84422
3.56697 1.72987 3.86125
3.55808 1.7321 3.87628
3.53024 1.73243 3.89749
3.52025 1.73045 3.8986
3.46557 1.73011 3.94102
3.44276 1.73251 3.96716
2.0202 1.75511 4.82566
1.99034 1.75739 4.84385
1.97949 1.7627 4.86386
1.96047 1.75967 4.86105
1.81386 1.76054 4.91415
1.73312 1.76309 4.94772
1.72412 1.76211 4.9488
1.60248 1.7659 4.99667
1.54951 1.762 5.00113
1.51763 1.76424 5.01634
1.50065 1.7643 5.01947
1.49677 1.76954 5.03542
1.45875 1.76452 5.03278
1.44381 1.76665 5.04086
1.42684 1.76672 5.04499
1.28519 1.77049 5.09101
1.26612 1.76639 5.08321
1.24327 1.77168 5.10231
1.17642 1.77303 5.12279
1.06559 1.77344 5.14563
1.04652 1.76932 5.13683
0.798917 1.77425 5.18963
0.763925 1.77329 5.19091
0.705103 1.77867 5.21427
0.688103 1.77769 5.21442
0.670088 1.77667 5.21257
0.653118 1.77674 5.21669
0.599034 1.77162 5.20618
0.575227 1.77901 5.23125
0.541267 1.7801 5.23649
0.521104 1.77181 5.21576
0.507345 1.78328 5.2467
0.393416 1.78349 5.25656
0.37754 1.78874 5.2726
0.359501 1.78668 5.26777
0.350447 1.78358 5.26088
0.330239 1.7742 5.23417
0.314316 1.77736 5.24424
0.297487 1.7847 5.26626
0.279386 1.77952 5.25347
0.263588 1.78891 5.27946
0.245519 1.78479 5.27065
0.236481 1.78373 5.26574
0.218426 1.78064 5.25892
0.200295 1.7744 5.24214
0.183451 1.78171 5.26217
0.166435 1.78069 5.26031
0.148467 1.78176 5.26443
0.131676 1.79117 5.29142
0.113522 1.78389 5.27166
0.105677 1.79119 5.29161
0.0873907 1.77766 5.25495
0.0706855 1.79123 5.29288
0.0527173 1.7933 5.29698
0.0325131 1.79195 5.13713
-0.0104775 1.79299 5.13844
-0.0614685 1.79305 5.13983
-0.0794831 1.79303 5.13796
-0.121505 1.79202 5.13529
-0.888947 1.79666 5.079
-0.896016 1.79453 5.07008
-0.948052 1.79549 5.06546
-0.964104 1.7944 5.05859
-0.998134 1.79437 5.05485
-1.00615 1.79434 5.05291
-1.02415 1.79635 5.05302
-1.0402 1.79426 5.04617
-1.05722 1.79423 5.0433
-1.07422 1.79624 5.04339
-1.08932 1.79206 5.03057
-1.10633 1.79306 5.02968
-1.12433 1.79407 5.0298
-1.13236 1.79402 5.02586
-1.14839 1.79397 5.02198
-1.16735 1.79604 5.0261
-1.18242 1.79392 5.01724
-1.19944 1.79491 5.01535
-1.21645 1.79589 5.01347
-1.2325 1.79481 5.0076
-1.26045 1.7989 5.01275
-1.27555 1.79572 4.99991
-1.31057 1.79772 4.99815
-1.32368 1.79351 4.98331
-1.3587 1.79549 4.98054
-1.36673 1.79543 4.9766
-1.39978 1.79535 4.96985
-1.41584 1.79425 4.96199
-1.45693 1.7941 4.9503
-1.49098 1.79504 4.94454
-1.52599 1.79803 4.94276
-1.544 1.79903 4.94188
-1.5571 1.79583 4.92802
-1.58215 1.79676 4.9222
-1.6342 1.7997 4.91554
-1.64927 1.79756 4.90569
-1.72441 1.79933 4.88723
-2.22187 1.79781 4.69597
-2.24692 1.79872 4.68914
-2.60829 1.79527 4.50889
-2.61842 1.79203 4.49201
-2.63545 1.79297 4.48713
-2.66051 1.79487 4.47929
-2.77102 1.79294 4.41214
-2.78905 1.7949 4.40825
-2.80114 1.79373 4.39635
-2.92769 1.79372 4.3233
4.36785 1.72235 2.77918
4.22927 1.72525 2.9692
4.22734 1.72739 2.97819
4.21242 1.72555 2.98833
4.19362 1.72596 3.01547
4.17685 1.72842 3.04556
4.16192 1.72656 3.0547
4.15495 1.72664 3.05976
4.14204 1.72481 3.07088
4.13818 1.72909 3.08985
4.12627 1.72828 3.10195
4.11235 1.72744 3.11207
4.09943 1.72561 3.1232
4.09456 1.72887 3.14019
4.08962 1.72999 3.14821
4.0777 1.72916 3.15931
4.05875 1.72526 3.16552
4.04986 1.72649 3.18057
4.04097 1.72771 3.19462
4.02805 1.72688 3.20573
4.02117 1.72912 3.22175
4.00221 1.72521 3.22695
3.99524 1.72529 3.232
3.99542 1.73063 3.25493
3.97546 1.72672 3.26013
3.97865 1.73408 3.28501
3.96573 1.73326 3.29612
3.95181 1.73241 3.30624
3.95089 1.73458 3.31721
3.92991 1.73064 3.32043
3.91616 1.73514 3.35347
3.90325 1.73431 3.36458
3.87842 1.73367 3.38778
3.86146 1.73177 3.39394
3.83874 1.73533 3.43106
3.80989 1.73264 3.45032
3.80906 1.73896 3.47224
3.78212 1.73411 3.48151
3.7682 1.73327 3.49163
3.75345 1.73877 3.52467
3.73952 1.73792 3.53378
3.71267 1.73623 3.55401
3.69159 1.72911 3.54528
3.70086 1.74061 3.57904
3.67685 1.73461 3.57831
3.66896 1.73684 3.59334
3.66614 1.74218 3.61629
3.64616 1.73824 3.61949
3.63424 1.73841 3.63058
3.63132 1.74056 3.64057
3.60125 1.73147 3.63293
3.59841 1.73578 3.6539
3.59458 1.74109 3.67485
3.5756 1.73817 3.67904
3.56773 1.74042 3.69606
3.54976 1.7375 3.70024
3.52574 1.73149 3.69851
3.51575 1.72951 3.69962
3.50687 1.73174 3.71465
3.49799 1.73398 3.73069
3.47498 1.72898 3.72994
3.48527 1.74154 3.76768
3.45923 1.73448 3.76298
3.43328 1.7306 3.77023
3.40542 1.72991 3.78946
3.38161 1.73128 3.81362
3.37979 1.73763 3.83754
3.3589 1.73686 3.85171
3.33386 1.73082 3.84799
3.33508 1.73923 3.87586
3.29813 1.73336 3.88323
3.28622 1.73355 3.89531
3.27027 1.73266 3.90245
3.26735 1.73481 3.91244
3.25443 1.73497 3.92254
3.2405 1.73513 3.93264
3.2296 1.73633 3.94571
3.22375 1.74061 3.96469
3.20275 1.73664 3.96591
3.00773 1.7367 4.09639
2.94605 1.73736 4.13885
2.90427 1.73782 4.16817
2.8973 1.73789 4.17222
2.81473 1.74079 4.2298
2.80282 1.74198 4.24188
2.79789 1.74411 4.25089
2.76496 1.74127 4.26018
2.74901 1.74039 4.26731
2.70924 1.74286 4.29758
2.70024 1.74188 4.29866
2.68531 1.74201 4.30677
2.67645 1.7463 4.32578
2.65846 1.74333 4.32696
2.64859 1.74659 4.34399
2.62756 1.74254 4.3402
2.61262 1.74269 4.34932
2.60869 1.74482 4.35831
2.59578 1.74599 4.3694
2.5778 1.74405 4.37256
2.56286 1.74418 4.38067
2.51904 1.74457 4.405
2.51309 1.74568 4.41203
2.50018 1.74785 4.4231
2.48422 1.74695 4.42923
2.47029 1.74809 4.43832
2.46042 1.75134 4.45435
2.44548 1.75147 4.46246
2.43765 1.75781 4.48543
2.41748 1.7475 4.46373
2.40153 1.7466 4.46986
2.39674 1.75502 4.49778
2.38384 1.75721 4.50985
2.36279 1.75213 4.50408
2.3509 1.75535 4.51812
2.32783 1.74925 4.51039
2.32494 1.75346 4.52435
2.31914 1.76085 4.55029
2.29098 1.74957 4.53066
2.28011 1.75383 4.54768
2.26517 1.75394 4.5548
2.2482 1.75302 4.55894
2.2302 1.75003 4.55912
2.21933 1.75429 4.57614
2.21135 1.75434 4.5792
2.18044 1.75454 4.59143
2.16346 1.7526 4.59459
2.1475 1.75268 4.59971
2.13665 1.75697 4.61873
2.11763 1.75396 4.61692
2.10965 1.75401 4.61998
2.10082 1.76034 4.64195
2.07875 1.75422 4.63321
2.06481 1.75535 4.6413
2.05192 1.75757 4.65536
2.03291 1.75556 4.65453
2.01899 1.75672 4.66462
2.00896 1.75367 4.66074
1.993 1.75377 4.66686
1.98113 1.75803 4.68389
1.96822 1.7602 4.69496
1.94717 1.75613 4.68918
1.93529 1.75936 4.70422
1.92036 1.76051 4.71332
1.89132 1.75545 4.70861
1.8774 1.75763 4.71968
1.86551 1.76084 4.73373
1.84751 1.75887 4.73489
1.8336 1.76104 4.74597
1.81968 1.76322 4.75704
1.79759 1.75705 4.7453
1.79371 1.76128 4.76027
1.7757 1.75929 4.76043
1.76076 1.76041 4.76753
1.7489 1.76568 4.78554
1.72987 1.76164 4.78175
1.7139 1.76171 4.78587
1.69999 1.76389 4.79794
1.68997 1.76187 4.79604
1.674 1.76193 4.79916
1.6601 1.76515 4.81322
1.64209 1.76213 4.8114
1.62716 1.76427 4.82049
1.61223 1.76643 4.83057
1.59626 1.76549 4.8337
1.57619 1.76038 4.82593
1.56823 1.76146 4.83097
1.55431 1.76362 4.84105
1.53426 1.75955 4.83526
1.51829 1.75962 4.83938
1.50745 1.76594 4.86037
1.48638 1.76081 4.8506
1.48044 1.76293 4.85862
1.46963 1.77031 4.88359
1.45162 1.7683 4.88276
1.43565 1.76837 4.88688
1.4166 1.76429 4.88008
1.39861 1.76331 4.88123
1.38677 1.76863 4.90224
1.36667 1.76347 4.89047
1.35974 1.76561 4.89949
1.34276 1.76565 4.90162
1.32987 1.76888 4.91667
1.30877 1.76269 4.90292
1.2959 1.76795 4.91994
1.27788 1.76593 4.91811
1.26297 1.76812 4.93019
1.25498 1.76814 4.93125
1.2411 1.77238 4.94629
1.22204 1.76829 4.93949
1.20713 1.77146 4.95056
1.1891 1.76841 4.94674
1.17627 1.77575 4.96873
1.15615 1.76854 4.95399
1.14818 1.76961 4.95803
1.13017 1.76759 4.9562
1.11317 1.7666 4.95634
1.10032 1.77191 4.97636
1.08127 1.76883 4.97055
1.06635 1.77199 4.98062
1.05039 1.77208 4.98574
1.04244 1.77417 4.99177
1.02647 1.77426 4.99689
1.00743 1.77118 4.99108
0.989389 1.76912 4.98624
0.974457 1.77027 4.99534
0.957465 1.77029 4.99647
0.941542 1.77245 5.00656
0.931466 1.76931 4.99668
0.917589 1.77356 5.01272
0.903744 1.77986 5.03273
0.88469 1.77677 5.02592
0.868752 1.7789 5.03401
0.850697 1.77481 5.02721
0.83372 1.77487 5.03034
0.825713 1.77486 5.0294
0.809767 1.77598 5.0365
0.793852 1.77915 5.04757
0.775798 1.77606 5.04076
0.757774 1.77403 5.03792
0.740751 1.772 5.03508
0.725898 1.77829 5.0541
0.708914 1.77833 5.05623
0.699836 1.77419 5.04636
0.684992 1.7815 5.06636
0.666906 1.77635 5.05557
0.649953 1.77745 5.06169
0.634053 1.78165 5.07475
0.617007 1.77958 5.0689
0.598953 1.77549 5.0621
0.592046 1.77967 5.07409
0.574 1.77759 5.06826
0.557 1.77661 5.0684
0.54107 1.77975 5.07747
0.524139 1.7819 5.08657
0.50714 1.78191 5.0867
0.491179 1.78299 5.0918
0.474178 1.78201 5.09195
0.465194 1.78304 5.094
0.448194 1.78205 5.09414
0.431141 1.77996 5.0873
0.414195 1.78208 5.0944
0.398319 1.78733 5.11044
0.380242 1.78319 5.10064
0.364327 1.78637 5.11171
0.355328 1.78637 5.11178
0.338289 1.78431 5.10694
0.321274 1.78329 5.10508
0.304274 1.78331 5.10521
0.287298 1.78436 5.10832
0.270306 1.78439 5.10945
0.253353 1.78649 5.11555
0.245368 1.78653 5.11761
0.228361 1.78653 5.11674
0.210307 1.78343 5.10992
0.194463 1.79074 5.12993
0.177417 1.78867 5.12409
0.134503 1.79186 5.13537
0.117487 1.79084 5.13351
0.100465 1.78981 5.13065
0.083496 1.79088 5.13476
0.0664814 1.79086 5.13289
0.0494662 1.78985 5.13104
-1.43781 1.79535 4.83312
-1.51094 1.79615 4.81665
-1.52698 1.79609 4.81178
-1.56103 1.79701 4.80502
-2.48586 1.79406 4.43198
-2.9409 1.79036 4.16342
-3.04247 1.78731 4.08822
-3.23548 1.78745 3.95466
4.27022 1.71919 2.69695
4.24066 1.72307 2.75512
4.22574 1.72123 2.76526
4.21676 1.7193 2.76936
4.21591 1.72358 2.7883
4.19696 1.7197 2.79551
4.19008 1.72193 2.81053
4.16926 1.72131 2.8357
4.16239 1.72255 2.85173
4.15038 1.71956 2.85187
4.13847 1.71875 2.86397
4.13461 1.72202 2.88195
4.12471 1.72222 2.89503
4.10676 1.71933 2.90221
4.10591 1.72362 2.92115
4.09098 1.72178 2.93129
4.08309 1.72199 2.94535
4.07009 1.719 2.94549
4.05717 1.71817 2.9566
4.04827 1.71837 2.96967
4.03233 1.7165 2.97782
4.03349 1.72182 2.99973
4.02259 1.72202 3.01281
4.02167 1.72417 3.02279
3.99465 1.71616 3.02111
3.99582 1.72149 3.04303
3.98089 1.71963 3.05217
3.96092 1.71572 3.05738
3.96813 1.72412 3.0842
3.95924 1.72533 3.09826
3.94229 1.72245 3.10543
3.94438 1.72662 3.11735
3.92341 1.7217 3.12158
3.9125 1.72188 3.13366
3.90864 1.72517 3.15265
3.8927 1.72328 3.1598
3.87676 1.72141 3.16794
3.87491 1.72571 3.1879
3.85988 1.72068 3.18508
3.86208 1.72804 3.20996
3.86124 1.73235 3.23091
3.83019 1.72329 3.22528
3.82935 1.7286 3.24621
3.81844 1.72879 3.25829
3.80653 1.72897 3.27038
3.8056 1.73111 3.27935
3.79772 1.73335 3.29538
3.77472 1.72737 3.29564
3.76885 1.72962 3.31266
3.76298 1.73288 3.32965
3.73999 1.72792 3.3319
3.73008 1.72811 3.34397
3.73319 1.73231 3.35789
3.71322 1.72839 3.3621
3.69727 1.7265 3.36925
3.69645 1.73284 3.39216
3.69158 1.73611 3.41016
3.67967 1.73629 3.42124
3.66573 1.73543 3.43036
3.65886 1.73769 3.44738
3.63778 1.72954 3.43666
3.6299 1.73178 3.45269
3.60488 1.72577 3.45097
3.61212 1.73622 3.48176
3.576 1.72303 3.46723
3.56913 1.72628 3.48423
3.5673 1.73161 3.50617
3.56538 1.73376 3.51616
3.55144 1.73289 3.52427
3.53549 1.73101 3.53142
3.52156 1.73016 3.54154
3.52376 1.73755 3.56742
3.49167 1.72741 3.55681
3.49187 1.73378 3.58172
3.48793 1.7359 3.58972
3.46996 1.73197 3.59391
3.45016 1.73538 3.62101
3.45036 1.74275 3.64591
3.42532 1.73571 3.6422
3.41552 1.74111 3.6682
3.40765 1.74336 3.68522
3.36546 1.72704 3.66178
3.35858 1.73028 3.67779
3.34163 1.72838 3.68394
3.33274 1.73061 3.69898
3.33597 1.74004 3.72782
3.32404 1.74019 3.73791
3.30194 1.73102 3.72521
3.288 1.73015 3.73333
3.27104 1.72825 3.73949
3.27024 1.73562 3.76439
3.25529 1.73473 3.77151
3.24943 1.73902 3.7905
3.2466 1.74435 3.81244
3.2255 1.73617 3.79972
3.20854 1.73326 3.80489
3.18955 1.7303 3.80708
3.1637 1.73062 3.82727
3.11615 1.73852 3.88652
3.10828 1.74178 3.90353
3.08829 1.73781 3.90474
3.08648 1.74518 3.92965
3.07456 1.74535 3.94074
3.06861 1.74644 3.94677
3.05568 1.74659 3.95587
3.03872 1.74467 3.96102
3.02377 1.74379 3.96815
3.00175 1.73878 3.96639
2.99186 1.74099 3.98043
2.97085 1.73599 3.97967
2.95994 1.73818 3.99172
2.95196 1.73723 3.99479
2.93398 1.73428 3.99797
2.9251 1.73751 4.01299
2.9132 1.73871 4.02607
2.88127 1.73589 4.03635
2.86734 1.73603 4.04545
2.86645 1.74024 4.0594
2.85049 1.73932 4.06453
2.83655 1.73845 4.07265
2.82666 1.74168 4.08768
2.79474 1.73887 4.09897
2.78587 1.74211 4.11499
2.77283 1.73805 4.11014
2.76396 1.7423 4.12715
2.74901 1.74142 4.13428
2.73811 1.74362 4.14733
2.7181 1.73962 4.14654
2.70922 1.74286 4.16256
2.69023 1.73989 4.16375
2.68427 1.74097 4.16878
2.6754 1.74423 4.1858
2.65741 1.74127 4.18798
2.65159 1.74761 4.21093
2.63157 1.7436 4.20914
2.62676 1.75096 4.23307
2.60675 1.74696 4.23228
2.58482 1.74612 4.24246
2.579 1.75247 4.26541
2.56 1.74948 4.2656
2.53896 1.74444 4.26183
2.53415 1.75179 4.28576
2.51515 1.74881 4.28595
2.50312 1.74476 4.2821
2.4902 1.74693 4.29317
2.47727 1.74707 4.30226
2.46233 1.7472 4.31038
2.45549 1.75352 4.33134
2.43751 1.75156 4.3335
2.42357 1.75169 4.34161
2.40964 1.75183 4.35071
2.3976 1.74877 4.34585
2.3857 1.75097 4.3589
2.36769 1.74798 4.35908
2.35579 1.75018 4.37214
2.34287 1.75234 4.38221
2.33402 1.75663 4.40122
2.31195 1.75053 4.39347
2.30906 1.75474 4.40743
2.29715 1.75692 4.41949
2.28018 1.75599 4.42363
2.26016 1.75196 4.42084
2.25434 1.75932 4.44478
2.23229 1.75324 4.43804
2.21936 1.75539 4.4481
2.21445 1.75756 4.45911
2.19746 1.75559 4.46027
2.18149 1.75466 4.4644
2.1696 1.75789 4.47945
2.14956 1.75383 4.47466
2.13665 1.75602 4.48672
2.12068 1.75509 4.49086
2.11168 1.75409 4.49094
2.09876 1.75525 4.50102
2.09094 1.76261 4.52498
2.06784 1.75444 4.51227
2.04884 1.75245 4.51244
2.04102 1.7588 4.53541
2.02607 1.75891 4.54252
2.00501 1.75381 4.53475
2.00416 1.76009 4.55367
1.98309 1.75499 4.5459
1.97018 1.75716 4.55697
1.95625 1.75832 4.56706
1.94028 1.75739 4.57119
1.92533 1.75749 4.57731
1.91345 1.76172 4.59234
1.90547 1.76177 4.5954
1.88337 1.75461 4.58367
1.87354 1.76094 4.60565
1.85247 1.75481 4.5959
1.84261 1.7601 4.6149
1.82257 1.75602 4.60911
1.81683 1.76753 4.64298
1.79063 1.75518 4.61836
1.78878 1.76146 4.63728
1.77076 1.75844 4.63546
1.75889 1.76369 4.65148
1.73679 1.75653 4.63975
1.72387 1.75869 4.64982
1.70893 1.75882 4.65793
1.703 1.76195 4.66693
1.68909 1.76413 4.678
1.67107 1.76111 4.67618
1.66022 1.7674 4.69517
1.63605 1.75711 4.6745
1.62317 1.76134 4.68954
1.60515 1.75832 4.68772
1.59328 1.76257 4.70375
1.57343 1.76788 4.72382
1.5513 1.75964 4.70711
1.53943 1.7649 4.72412
1.5204 1.76086 4.72033
1.51057 1.7682 4.7433
1.48743 1.75894 4.7246
1.48253 1.76313 4.73758
1.46449 1.76007 4.73276
1.45674 1.77055 4.76467
1.43564 1.76439 4.75292
1.42172 1.76655 4.76299
1.40678 1.76768 4.77109
1.38877 1.76568 4.77025
1.37974 1.76362 4.76635
1.36789 1.76991 4.78535
1.34986 1.76688 4.78253
1.33081 1.76279 4.77573
1.32205 1.77326 4.80665
1.30196 1.7671 4.79489
1.28909 1.77236 4.81191
1.27595 1.7641 4.79413
1.26412 1.77143 4.81611
1.24815 1.7715 4.82023
1.22906 1.76636 4.80945
1.21622 1.77266 4.82946
1.19712 1.76648 4.81669
1.18427 1.77279 4.8367
1.17422 1.76869 4.82983
1.1572 1.76667 4.82799
1.1423 1.77088 4.84104
1.12424 1.76677 4.83324
1.11139 1.77308 4.85325
1.09025 1.76381 4.83454
1.07843 1.77218 4.85851
1.0725 1.77531 4.86751
1.05757 1.77746 4.87659
1.03955 1.77543 4.87375
1.01836 1.76409 4.85008
1.01071 1.78076 4.8949
0.989547 1.77146 4.87419
0.97464 1.77565 4.88624
0.953462 1.76533 4.86355
0.952779 1.77993 4.90435
0.931585 1.76958 4.87966
0.917748 1.7769 4.90065
0.89864 1.77071 4.88689
0.886833 1.77908 4.91186
0.864624 1.7677 4.88519
0.853872 1.77918 4.9171
0.840686 1.76984 4.89334
0.829949 1.78135 4.92725
0.809794 1.77307 4.90753
0.797003 1.78248 4.93449
0.777871 1.77524 4.91774
0.764019 1.78153 4.93675
0.74805 1.7826 4.94085
0.72998 1.77848 4.93205
0.723034 1.78059 4.93907
0.706026 1.77859 4.93823
0.690065 1.78067 4.94332
0.674142 1.78283 4.95341
0.639058 1.77769 4.94275
0.615135 1.78086 4.95288
0.599182 1.78196 4.95899
0.564074 1.77578 4.94534
0.551306 1.78623 4.97529
0.53326 1.78316 4.96947
0.516182 1.77902 4.95966
0.509337 1.78632 4.9796
0.490098 1.77488 4.94891
0.47633 1.78533 4.97887
0.459385 1.78745 4.98596
0.442322 1.78334 4.97815
0.408284 1.78129 4.97344
0.384386 1.7855 4.98656
0.334378 1.78352 4.98596
0.300333 1.78146 4.98025
0.276457 1.78671 4.99635
0.243473 1.78677 4.9986
0.209451 1.78575 4.99587
0.176374 1.78162 4.98618
0.151498 1.78688 5.00229
0.118499 1.7869 5.00254
0.0435786 1.7901 5.01306
0.0212063 1.77244 4.83247
0.00446282 1.78494 4.86541
-0.0116917 1.77766 4.84564
-0.0197229 1.7756 4.84173
-0.0357839 1.7735 4.83388
-0.051737 1.7756 4.83997
-0.068643 1.78079 4.85202
-0.0846275 1.78083 4.85414
-0.100642 1.78081 4.85226
-0.116735 1.77565 4.84046
-0.125579 1.78395 4.8604
-0.141579 1.78396 4.86053
-0.156772 1.7746 4.83577
-0.173632 1.78188 4.8538
-0.189678 1.7798 4.84795
-0.205638 1.78189 4.85304
-0.221723 1.77774 4.84222
-0.230653 1.78188 4.85123
-0.246668 1.78086 4.84936
-0.262605 1.78499 4.85742
-0.279527 1.78915 4.86749
-0.294665 1.78289 4.84969
-0.31251 1.7902 4.86972
-0.336539 1.79016 4.8659
-0.385561 1.79015 4.86327
-0.596705 1.79001 4.84486
-0.669732 1.792 4.84138
-0.700823 1.78985 4.82965
-0.765881 1.78978 4.82214
-0.774842 1.79186 4.82717
-0.786081 1.78141 4.79641
-0.821017 1.78655 4.8046
-0.837024 1.78655 4.80372
-0.853031 1.78754 4.80282
-0.868122 1.78438 4.79098
-0.885098 1.78643 4.79408
-0.890214 1.78122 4.77919
-0.91105 1.79054 4.80022
-0.921297 1.77908 4.76846
-0.941179 1.78631 4.7835
-0.952388 1.77692 4.75672
-0.970325 1.78105 4.7648
-0.987292 1.78412 4.76888
-0.992401 1.77892 4.75499
-1.01131 1.7841 4.76606
-1.02541 1.78093 4.75421
-1.03952 1.77672 4.73938
-1.05649 1.77979 4.74346
-1.07154 1.7777 4.73661
-1.08949 1.7818 4.74268
-1.09461 1.77658 4.7278
-1.11159 1.77862 4.72989
-1.14172 1.77441 4.71418
-1.15771 1.77642 4.71427
-1.17471 1.77743 4.71438
-1.18977 1.77632 4.70651
-1.19776 1.77736 4.70856
-1.21283 1.77524 4.6997
-1.26379 1.78133 4.704
-1.29388 1.78018 4.69224
-1.315 1.77597 4.67746
-1.33006 1.77486 4.66959
-1.35385 1.78726 4.69559
-1.36015 1.77369 4.65683
-1.39221 1.77361 4.65007
-1.41015 1.77873 4.65713
-1.41818 1.77768 4.65321
-1.43516 1.78072 4.65529
-1.44729 1.77547 4.63846
-1.46623 1.78061 4.64652
-1.48031 1.77847 4.63666
-1.49438 1.77533 4.62681
-1.51333 1.78045 4.63388
-1.51744 1.77523 4.61899
-1.55047 1.77819 4.61519
-1.56551 1.77813 4.6103
-1.58054 1.77807 4.60542
-1.59561 1.77595 4.59656
-1.62238 1.78939 4.62557
-1.62062 1.77895 4.59571
-1.64446 1.78926 4.61574
-1.65658 1.78403 4.5999
-1.6726 1.78602 4.59799
-1.6857 1.78182 4.58415
-1.70661 1.78901 4.5962
-1.71481 1.78063 4.57039
-1.74472 1.78882 4.58149
-1.75586 1.78356 4.56365
-1.79281 1.79067 4.56983
-1.80393 1.78644 4.55397
-1.82683 1.79365 4.56704
-1.83793 1.79045 4.55317
-1.84693 1.79146 4.55322
-1.89209 1.79018 4.53258
-1.95932 1.78879 4.5031
-1.97238 1.78766 4.49421
-1.98941 1.78863 4.49133
-2.00543 1.7896 4.48843
-2.02441 1.79364 4.49052
-2.03651 1.79046 4.47765
-2.04452 1.79143 4.4757
-2.05271 1.78409 4.45186
-2.06774 1.78502 4.44696
-2.08279 1.78495 4.44108
-2.0949 1.78175 4.42721
-2.11388 1.78479 4.42931
-2.12695 1.78365 4.41943
-2.13005 1.77948 4.40751
-2.14903 1.78352 4.40959
-2.16114 1.78032 4.39573
-2.17716 1.78129 4.39284
-2.18925 1.77912 4.38096
-2.20528 1.78107 4.37705
-2.21246 1.77372 4.35321
-2.22736 1.78093 4.36622
-2.23947 1.77773 4.35235
-2.25156 1.77556 4.34047
-2.27349 1.78169 4.34855
-2.28262 1.77745 4.33168
-2.29373 1.77425 4.31781
-2.30977 1.77517 4.31191
-2.33073 1.78027 4.318
-2.33283 1.77607 4.30407
-2.36293 1.7769 4.29129
-2.39007 1.77565 4.27351
-2.40413 1.77554 4.26561
-2.42718 1.77644 4.25777
-2.44027 1.77529 4.24689
-2.48146 1.77395 4.22221
-2.49354 1.77279 4.21132
-2.50959 1.7727 4.20444
-2.54572 1.77346 4.1867
-2.62206 1.77285 4.14228
-2.73049 1.77507 4.08505
-2.78971 1.77668 4.05647
-2.85815 1.77188 3.99905
-2.89331 1.77258 3.9773
-2.92142 1.77337 3.9625
-2.93253 1.77118 3.94861
-2.98382 1.77064 3.91
-3.01283 1.77563 3.90815
-3.01996 1.77238 3.89125
-3.03601 1.77329 3.88435
-3.04413 1.77007 3.86946
-3.10346 1.76946 3.82591
-3.1306 1.7702 3.8071
-3.15575 1.76992 3.78729
-3.16279 1.76986 3.78235
-3.17685 1.77075 3.77444
-3.18892 1.77061 3.76453
-3.20497 1.77253 3.75862
-3.21507 1.77033 3.74473
-3.2531 1.77728 3.73991
-3.24726 1.76998 3.71997
-3.26628 1.77395 3.71706
-3.28331 1.77691 3.71314
-3.28648 1.77058 3.69125
-3.30946 1.77663 3.69334
-3.31857 1.77441 3.67844
-3.33165 1.77427 3.66854
-3.33471 1.77316 3.66058
-3.36562 1.78333 3.67066
-3.35888 1.77184 3.63777
-3.36699 1.76962 3.62287
-3.38601 1.77359 3.61995
-3.40206 1.7755 3.61304
-3.41811 1.7774 3.60613
-3.42921 1.77623 3.59423
-3.42731 1.77203 3.58028
-3.44832 1.77703 3.57936
-3.45544 1.77379 3.56346
-3.47447 1.77675 3.55956
-3.48258 1.77453 3.54465
-3.50855 1.78261 3.54873
-3.5127 1.77832 3.52882
-3.51378 1.77516 3.51788
-3.53677 1.78119 3.51896
-3.54389 1.77796 3.50306
-3.56293 1.78189 3.49814
-3.57302 1.78072 3.48623
-3.58511 1.78056 3.47433
-3.59818 1.78142 3.46441
-3.60025 1.77929 3.45546
-3.63452 1.77778 3.41973
4.12887 1.7166 2.65104
4.09986 1.70761 2.6504
4.08593 1.70575 2.65953
4.07199 1.7039 2.66866
4.06913 1.70716 2.68664
4.0552 1.70531 2.69577
4.0473 1.70552 2.70983
4.03042 1.70477 2.72597
3.99784 1.70861 2.78117
3.9819 1.70574 2.78933
3.96905 1.70704 2.80941
3.93933 1.70761 2.84663
3.91363 1.71022 2.88679
3.87593 1.70884 2.9271
3.83337 1.71273 2.98537
3.82347 1.71292 2.99745
3.79963 1.71126 3.01965
3.77393 1.71487 3.0598
3.71643 1.71689 3.12621
3.68562 1.71528 3.15147
3.65389 1.71583 3.18671
3.62711 1.71627 3.21591
3.61922 1.7185 3.23094
3.57254 1.71816 3.2733
3.53301 1.7251 3.3355
3.49908 1.71928 3.34585
3.48716 1.71945 3.35693
3.4127 1.72156 3.42847
3.30945 1.7251 3.52821
3.1962 1.72764 3.62804
2.23296 1.74363 4.26215
0.637747 1.76313 4.76995
0.589801 1.76327 4.77731
0.534934 1.76856 4.79465
0.502903 1.76553 4.79093
0.437942 1.76565 4.79642
0.414973 1.76573 4.80059
0.367067 1.76994 4.81289
0.351075 1.76996 4.81401
0.334029 1.76689 4.80819
0.319091 1.77002 4.81625
0.310021 1.76589 4.80738
0.295091 1.76904 4.81645
0.279138 1.77114 4.82254
0.262131 1.77113 4.82167
0.247193 1.77326 4.82975
0.214085 1.76808 4.81607
0.198209 1.77333 4.83212
0.174288 1.77749 4.84224
0.158086 1.76712 4.81651
0.142118 1.76919 4.8206
0.109212 1.77339 4.83279
0.101243 1.77446 4.83683
0.0853752 1.78072 4.85386
0.0691742 1.77135 4.82812
0.05326 1.77552 4.83918
0.0372216 1.77346 4.83433
0.0311387 1.77433 4.69034
0.0231389 1.77434 4.6904
0.00808476 1.77124 4.68356
-0.00791479 1.77126 4.68368
-0.0238597 1.77437 4.69076
-0.0398355 1.77643 4.69385
-0.0547886 1.77853 4.69993
-0.070881 1.77436 4.68811
-0.0788111 1.7775 4.69713
-0.0938414 1.77645 4.69325
-0.110693 1.78374 4.71228
-0.125848 1.77646 4.69249
-0.141793 1.77958 4.69957
-0.15684 1.7765 4.69373
-0.173668 1.78583 4.71572
-0.180799 1.77959 4.69886
-0.196745 1.7817 4.70595
-0.212783 1.78064 4.70109
-0.243805 1.77962 4.69834
-0.26068 1.78687 4.71436
-0.771048 1.78848 4.66717
-0.825146 1.78633 4.65461
-0.841137 1.78836 4.6557
-0.855244 1.78416 4.64187
-0.87029 1.78208 4.63601
-0.887242 1.78618 4.64208
-0.901311 1.78406 4.63322
-0.916372 1.78095 4.62537
-0.924371 1.78196 4.62542
-0.94323 1.79024 4.64344
-0.954432 1.78086 4.61766
-0.970422 1.78289 4.61875
-0.98453 1.77869 4.60492
-1.00148 1.78179 4.611
-1.01555 1.77967 4.60214
-1.02164 1.77551 4.59124
-1.03474 1.77132 4.5774
-1.05364 1.77852 4.59044
-1.06674 1.77434 4.5776
-1.08565 1.78051 4.58865
-1.09876 1.77532 4.57482
-1.13586 1.77415 4.56212
-1.14993 1.77203 4.55326
-1.16594 1.77301 4.55136
-1.18193 1.77505 4.55345
-1.19599 1.77293 4.54459
-1.21587 1.78018 4.56063
-1.22703 1.77388 4.53981
-1.23308 1.77178 4.53288
-1.24911 1.77173 4.529
-1.26609 1.77479 4.53209
-1.27917 1.77163 4.52123
-1.29518 1.77263 4.52034
-1.31215 1.77569 4.52342
-1.32622 1.77357 4.51456
-1.34731 1.77242 4.50373
-1.36622 1.77759 4.5148
-1.37737 1.77232 4.49596
-1.39242 1.77123 4.48909
-1.40939 1.77429 4.49217
-1.42442 1.77424 4.48828
-1.4334 1.77629 4.49132
-1.44942 1.77725 4.48843
-1.46446 1.77719 4.48354
-1.52264 1.77388 4.46002
-1.54158 1.779 4.46709
-1.54567 1.77584 4.45617
-1.5607 1.77577 4.45128
-1.57869 1.77882 4.45337
-1.59177 1.77666 4.4425
-1.60875 1.7787 4.4446
-1.62378 1.77967 4.4417
-1.63784 1.77855 4.43282
-1.64683 1.77957 4.43387
-1.6599 1.77845 4.42499
-1.67885 1.78255 4.43107
-1.69586 1.78454 4.43017
-1.71284 1.78759 4.43225
-1.72787 1.78854 4.42835
-1.74293 1.78745 4.42148
-1.74897 1.78536 4.41555
-1.76303 1.78525 4.40766
-1.78199 1.78934 4.41274
-1.798 1.79032 4.41085
-1.87727 1.78885 4.37546
-1.8933 1.78981 4.37257
-1.92044 1.78755 4.3538
-1.94445 1.78954 4.35195
-1.95557 1.78633 4.33708
-1.96767 1.78314 4.32422
-1.98859 1.78929 4.33329
-1.99479 1.78193 4.30844
-2.00885 1.78082 4.30056
-2.02781 1.78489 4.30465
-2.035 1.77754 4.2808
-2.04987 1.78579 4.2968
-2.06196 1.78362 4.28492
-2.07111 1.77835 4.26606
-2.08517 1.77724 4.25818
-2.09726 1.77507 4.24631
-2.11327 1.77707 4.2454
-2.12439 1.77384 4.22953
-2.13928 1.78105 4.24353
-2.14743 1.77476 4.22368
-2.16345 1.77675 4.22178
-2.17948 1.7787 4.21787
-2.18663 1.77241 4.19801
-2.21967 1.77534 4.19222
-2.23682 1.77207 4.17339
-2.25678 1.77716 4.17847
-2.27799 1.77076 4.15072
-2.29696 1.77482 4.1538
-2.30609 1.77159 4.13792
-2.31706 1.77464 4.14095
-2.33209 1.7756 4.13705
-2.36316 1.77747 4.12726
-2.39546 1.76992 4.08861
-2.40545 1.77194 4.08965
-2.42641 1.77803 4.09472
-2.44762 1.77264 4.06796
-2.48681 1.77129 4.04227
-2.57817 1.77264 3.99493
-2.59826 1.77248 3.98308
-2.63746 1.77111 3.95639
-2.64855 1.76995 3.94549
-2.66062 1.76881 3.9356
-2.73496 1.76919 3.89015
-2.75099 1.77114 3.88624
-2.76208 1.76897 3.87435
-2.7891 1.77396 3.87248
-2.82039 1.76841 3.83379
-2.8384 1.77139 3.83189
-2.88364 1.77096 3.80123
-2.89572 1.76981 3.79034
-2.90383 1.76759 3.77543
-2.91987 1.76953 3.77052
-2.94897 1.77134 3.75671
-2.95402 1.77026 3.75076
-2.96907 1.77217 3.74385
-2.98313 1.77206 3.73595
-2.99026 1.76881 3.71905
-3.00728 1.77178 3.71614
-3.02529 1.77476 3.71423
-3.03638 1.77361 3.70333
-3.04143 1.77351 3.69637
-3.05944 1.77649 3.69446
-3.06756 1.77327 3.67956
-3.07765 1.77209 3.66666
-3.10063 1.77815 3.66974
-3.09686 1.7677 3.63986
-3.11884 1.77375 3.64194
-3.13587 1.7767 3.63802
-3.133 1.77045 3.62109
-3.15993 1.7796 3.63016
-3.16309 1.77428 3.60826
-3.17815 1.77519 3.60136
-3.18724 1.774 3.58844
-3.20328 1.77594 3.58353
-3.20843 1.77166 3.56463
-3.2214 1.77571 3.56767
-3.2315 1.77353 3.55478
-3.25051 1.77851 3.55285
-3.26061 1.77633 3.53995
-3.27863 1.7803 3.53703
-3.28377 1.77602 3.51813
-3.30279 1.78 3.51621
-3.30387 1.77684 3.50527
-3.31694 1.77772 3.49635
-3.32604 1.77553 3.48345
-3.34406 1.77948 3.47953
-3.35515 1.77831 3.46763
-3.3702 1.78024 3.46171
4.30077 1.71042 2.10577
4.28182 1.70554 2.11298
4.28095 1.70879 2.12994
4.27707 1.71003 2.14596
4.26414 1.70819 2.15608
4.26127 1.71043 2.17207
4.25236 1.70963 2.18515
4.24138 1.70768 2.18827
4.23851 1.70992 2.20426
4.22558 1.70807 2.21438
4.2227 1.71031 2.23037
4.20175 1.70442 2.23662
4.20188 1.70868 2.25456
4.18896 1.70584 2.2647
4.183 1.70592 2.26974
4.18313 1.70919 2.2877
4.1672 1.70633 2.29686
4.16734 1.7096 2.31481
4.15341 1.70776 2.32495
4.13345 1.70285 2.33017
4.12454 1.70303 2.34224
4.13164 1.70723 2.35612
4.12475 1.70844 2.37016
4.11183 1.7066 2.38028
4.10795 1.70884 2.39628
4.08798 1.70393 2.40151
4.08109 1.70514 2.41554
4.09027 1.71349 2.43935
4.05523 1.70144 2.43479
4.05229 1.70156 2.44282
4.05746 1.70888 2.46467
4.0385 1.70397 2.46989
4.03362 1.70621 2.48589
4.0237 1.70538 2.49698
4.00575 1.7015 2.50418
4.00488 1.70575 2.52112
4.00797 1.70893 2.53305
3.98499 1.70299 2.53631
3.99132 1.71461 2.5781
3.96532 1.70664 2.57941
3.94936 1.70374 2.58558
3.95455 1.71109 2.60943
3.93551 1.70403 2.60468
3.92574 1.7085 2.63569
3.88897 1.70497 2.66603
3.89213 1.71028 2.68693
3.87711 1.70526 2.68511
3.87023 1.70749 2.70013
3.85357 1.71316 2.74518
3.80874 1.70654 2.76862
3.79387 1.70682 2.78673
3.78698 1.70803 2.80077
3.7516 1.71825 2.88189
3.70274 1.70957 2.90139
3.65829 1.71668 2.97463
3.61748 1.71208 3.00001
3.61957 1.71526 3.01195
3.60278 1.71767 3.03905
3.57288 1.7139 3.05333
3.54424 1.71862 3.10048
3.5214 1.71894 3.12165
3.50845 1.71707 3.12978
3.49351 1.71519 3.13692
3.48175 1.72167 3.16892
3.43715 1.72449 3.22222
3.41414 1.71847 3.22048
3.38433 1.71788 3.24672
3.37744 1.72009 3.26074
3.37962 1.72745 3.28462
3.35359 1.71941 3.28093
3.25826 1.72179 3.37063
2.79213 1.73273 3.75203
2.71946 1.73243 3.79659
2.65286 1.73525 3.84905
1.11194 1.75827 4.52842
1.07996 1.75633 4.53169
1.04202 1.75646 4.53897
0.944231 1.75995 4.56766
0.730532 1.76268 4.60823
0.698525 1.76069 4.60751
0.668609 1.76288 4.6187
0.645633 1.76294 4.62187
0.598649 1.762 4.62424
0.56768 1.76208 4.62847
0.551672 1.76108 4.62761
0.544695 1.76213 4.63065
0.513781 1.76531 4.64183
0.482773 1.76332 4.6411
0.428867 1.76654 4.65346
0.39786 1.76555 4.65271
0.381836 1.76351 4.64986
0.36693 1.7687 4.66189
0.350868 1.7646 4.65407
0.344015 1.77188 4.67302
0.327922 1.76672 4.66122
0.311861 1.76361 4.65338
0.295908 1.76571 4.65947
0.282086 1.77406 4.68246
0.265993 1.76889 4.67065
0.249986 1.76889 4.66977
0.233916 1.76477 4.66095
0.225994 1.76892 4.67095
0.21094 1.76583 4.66411
0.194987 1.76793 4.6702
0.178988 1.76794 4.67032
0.164097 1.77316 4.68436
0.148058 1.7711 4.67951
0.133059 1.77111 4.67962
0.125004 1.76801 4.67273
0.109074 1.77116 4.6818
0.0940359 1.76909 4.67694
0.0780828 1.77119 4.68303
0.062107 1.77325 4.68612
0.0471382 1.77432 4.69022
0.031153 1.77439 4.55932
0.0160367 1.76818 4.54453
0.00103712 1.76819 4.54464
-0.0139386 1.77025 4.54772
-0.0299074 1.77132 4.55183
-0.044922 1.7713 4.54994
-0.0528208 1.7765 4.56293
-0.0678517 1.77445 4.55907
-0.0829134 1.77134 4.55123
-0.0979205 1.77134 4.55034
-0.113819 1.77654 4.56338
-0.128865 1.77446 4.55753
-0.144794 1.77861 4.56659
-0.151856 1.77549 4.55869
-0.166863 1.77549 4.5578
-0.182808 1.77861 4.56487
-0.1978 1.77963 4.56597
-0.21373 1.78278 4.57505
-0.227892 1.77448 4.55427
-0.243845 1.77758 4.56035
-0.259774 1.78172 4.56941
-0.266781 1.78171 4.56846
-0.282711 1.78486 4.57754
-0.328755 1.7848 4.57188
-0.726044 1.7865 4.53485
-0.825154 1.78735 4.52058
-0.8402 1.78527 4.51472
-0.856175 1.78733 4.51781
-0.869283 1.78313 4.50397
-0.876321 1.78206 4.49904
-0.891343 1.78203 4.49615
-0.90635 1.78202 4.49526
-0.919442 1.77885 4.48341
-0.935441 1.77987 4.48351
-0.951432 1.78189 4.48461
-0.96547 1.78083 4.47973
-0.972523 1.77873 4.47281
-0.986561 1.77767 4.46793
-1.00061 1.77557 4.46107
-1.01757 1.77967 4.46713
-1.03164 1.77755 4.45827
-1.04764 1.77855 4.45738
-1.05878 1.77229 4.43955
-1.06869 1.77746 4.45055
-1.08083 1.77222 4.43372
-1.09876 1.77635 4.44179
-1.11086 1.77316 4.42893
-1.1259 1.7721 4.42406
-1.14187 1.77516 4.42713
-1.1569 1.77512 4.42424
-1.17 1.77094 4.4114
-1.17798 1.77298 4.41343
-1.19203 1.7719 4.40756
-1.21192 1.77912 4.4216
-1.22403 1.77491 4.40675
-1.24001 1.77695 4.40884
-1.2492 1.7686 4.38503
-1.26909 1.77582 4.39908
-1.2732 1.7706 4.38418
-1.28919 1.77264 4.38627
-1.30714 1.77774 4.39233
-1.32118 1.77667 4.38645
-1.33426 1.77453 4.37658
-1.35125 1.77655 4.37768
-1.36528 1.77651 4.37379
-1.37037 1.77235 4.36289
-1.38832 1.77745 4.36895
-1.4004 1.77429 4.35808
-1.41542 1.77426 4.3552
-1.42947 1.77418 4.3493
-1.44158 1.76998 4.33545
-1.4605 1.77615 4.34551
-1.4685 1.77714 4.34455
-1.48256 1.77604 4.33767
-1.49953 1.7791 4.34076
-1.51261 1.77696 4.33088
-1.52764 1.77691 4.327
-1.54461 1.77997 4.33008
-1.5567 1.7768 4.31822
-1.56177 1.77469 4.31029
-1.57972 1.77977 4.31535
-1.5928 1.77663 4.30549
-1.60782 1.7776 4.30259
-1.62382 1.77961 4.30268
-1.63787 1.77952 4.29579
-1.65583 1.78361 4.30086
-1.66597 1.77835 4.28301
-1.67691 1.78247 4.29104
-1.69195 1.78241 4.28615
-1.70305 1.77923 4.27328
-1.72101 1.7833 4.27735
-1.73507 1.78219 4.26947
-1.75206 1.78523 4.27156
-1.76808 1.7872 4.26865
-1.78914 1.78709 4.26081
-1.80319 1.786 4.25393
-1.83226 1.78687 4.24413
-1.84925 1.7889 4.24523
-1.87947 1.78349 4.21654
-1.89352 1.78342 4.21064
-1.9115 1.78646 4.21273
-1.92651 1.78844 4.21082
-1.93665 1.7832 4.19397
-1.94675 1.78 4.18009
-1.95575 1.781 4.18014
-1.97668 1.78815 4.1892
-1.98286 1.77982 4.16636
-1.99396 1.77763 4.15348
-2.00898 1.7786 4.15058
-2.01909 1.77438 4.13571
-2.03314 1.77429 4.12882
-2.04311 1.77736 4.13285
-2.04831 1.76899 4.10801
-2.07121 1.77718 4.12006
-2.08232 1.77398 4.10619
-2.09439 1.77285 4.0963
-2.11237 1.77689 4.09837
-2.11854 1.76957 4.07652
-2.13456 1.77155 4.07462
-2.14453 1.77462 4.07864
-2.17361 1.77647 4.06784
-2.18175 1.77021 4.04999
-2.1958 1.77012 4.04309
-2.21083 1.77207 4.03918
-2.22488 1.77198 4.03228
-2.242 1.76975 4.01644
-2.25605 1.76966 4.00955
-2.27896 1.77784 4.0206
-2.28316 1.76947 3.99575
-2.2972 1.76939 3.98986
-2.30928 1.76824 3.97897
-2.33134 1.76915 3.97212
-2.3434 1.76903 3.96321
-2.38654 1.77079 3.94551
-2.40058 1.77171 3.9396
-2.41364 1.7716 3.9317
-2.41672 1.76846 3.92177
-2.44185 1.76723 3.90497
-2.45591 1.76712 3.89708
-2.46995 1.76804 3.89117
-2.48301 1.76793 3.88327
-2.49607 1.76782 3.87537
-2.5292 1.76758 3.85762
-2.54424 1.76952 3.8527
-2.57036 1.7693 3.8369
-2.59232 1.77539 3.84197
-2.59144 1.77015 3.82604
-2.61855 1.76995 3.81125
-2.63259 1.77188 3.80633
-2.63973 1.76662 3.78845
-2.6528 1.7665 3.77955
-2.67979 1.77252 3.77967
-2.69187 1.77238 3.76976
-2.70296 1.77021 3.75787
-2.71008 1.76598 3.74199
-2.72809 1.76998 3.74106
-2.74411 1.77193 3.73715
-2.75321 1.76974 3.72425
-2.77419 1.7758 3.72732
-2.77924 1.7737 3.72039
-2.77845 1.7653 3.69351
-2.79349 1.76622 3.6876
-2.81347 1.77127 3.68968
-2.82456 1.77111 3.67877
-2.83762 1.77099 3.66986
-2.85364 1.77296 3.66695
-2.85671 1.77083 3.65801
-2.87274 1.77278 3.6541
-2.89471 1.77985 3.65816
-2.90184 1.77561 3.64128
-2.91688 1.77753 3.63536
-2.924 1.77431 3.62046
-2.93409 1.77214 3.60857
-2.94212 1.77309 3.60461
-2.96408 1.78016 3.60867
-2.96724 1.77385 3.58779
-2.98229 1.77478 3.58189
-3.00031 1.77874 3.57896
-3.01039 1.77759 3.56805
-3.01949 1.7754 3.55515
-3.03048 1.77843 3.55619
-3.04255 1.77829 3.54628
-3.05661 1.77919 3.53937
-3.06769 1.77904 3.52846
-3.08571 1.78201 3.52555
-3.09679 1.78185 3.51463
-3.10985 1.78174 3.50673
-3.13409 1.7783 3.47596
-3.15012 1.78124 3.47104
-3.16021 1.78007 3.45913
-3.21454 1.78046 3.41553
-3.28706 1.77749 3.34711
-3.33139 1.77587 3.30346
3.96389 1.71283 2.38931
3.96001 1.71605 2.40429
3.93703 1.70911 2.40757
3.92409 1.70726 2.41669
3.91015 1.70439 2.42484
3.91425 1.70857 2.43775
3.8983 1.70568 2.44391
3.90951 1.71507 2.4707
3.87545 1.70299 2.46413
3.88263 1.71134 2.48796
3.86367 1.70643 2.49317
3.85878 1.70865 2.50818
3.8488 1.70569 2.5103
3.85497 1.71302 2.53314
3.83098 1.70606 2.53443
3.82508 1.70727 2.54846
3.82322 1.71154 2.56641
3.80123 1.70557 2.56766
3.79332 1.70577 2.58072
3.80144 1.71198 2.59557
3.77544 1.704 2.59589
3.7786 1.71031 2.61677
3.76164 1.70641 2.62296
3.7477 1.70454 2.63109
3.74181 1.70675 2.64511
3.74095 1.71103 2.66405
3.72794 1.70701 2.66221
3.72607 1.71028 2.68018
3.71616 1.71047 2.69225
3.71732 1.71576 2.71217
3.69331 1.70876 2.71145
3.68641 1.70998 2.72549
3.67952 1.71219 2.73951
3.66759 1.71033 2.74863
3.65659 1.70835 2.74974
3.65574 1.71263 2.76868
3.63777 1.70871 2.77288
3.63691 1.71297 2.79082
3.62397 1.71112 2.79995
3.61406 1.7113 2.81202
3.60716 1.7135 2.82505
3.6012 1.71258 2.8301
3.58524 1.70968 2.83627
3.59144 1.71804 2.8611
3.5644 1.71 2.85742
3.55852 1.71223 2.87244
3.55263 1.71446 2.88745
3.53767 1.71156 2.89361
3.53171 1.71164 2.89865
3.53489 1.71897 2.92152
3.5149 1.71302 2.92376
3.51002 1.71626 2.93975
3.4981 1.71641 2.94984
3.49624 1.72068 2.96779
3.47927 1.71677 2.97298
3.47532 1.71786 2.97899
3.46239 1.717 2.98811
3.43566 1.71956 3.02427
3.42978 1.7228 3.04027
3.40777 1.7158 3.03954
3.40382 1.71689 3.04556
3.39894 1.72013 3.06155
3.39306 1.72337 3.07755
3.38113 1.72251 3.08665
3.37222 1.7237 3.0987
3.36131 1.72387 3.10978
3.34131 1.7189 3.11101
3.29669 1.72167 3.16131
3.28073 1.71876 3.16647
3.27687 1.72304 3.18544
3.27107 1.72943 3.21139
3.21427 1.72287 3.23892
3.20335 1.72303 3.249
3.19041 1.72216 3.25712
3.1537 1.72474 3.29536
3.1458 1.72696 3.30939
3.08605 1.72249 3.34291
2.99271 1.72685 3.43056
2.98078 1.72699 3.43965
2.92709 1.72763 3.48105
2.74508 1.72871 3.61342
2.73416 1.72986 3.62349
2.71425 1.72905 3.63565
2.69038 1.73034 3.65382
2.68047 1.73151 3.66488
2.66652 1.73062 3.67199
2.65358 1.73075 3.68009
2.16683 1.74049 3.97966
2.10403 1.73993 4.00714
1.9486 1.74216 4.08329
1.93668 1.74431 4.09335
1.88885 1.74567 4.11569
1.84595 1.74391 4.13004
1.79711 1.74526 4.15139
1.72137 1.74682 4.18595
1.65364 1.75138 4.22139
1.60273 1.7496 4.23381
1.5578 1.74777 4.24317
1.52701 1.7542 4.27131
1.48104 1.75028 4.27472
1.44512 1.75047 4.28599
1.3573 1.74989 4.31066
1.30846 1.75222 4.331
1.27852 1.75236 4.33922
1.25759 1.75451 4.34835
1.14985 1.75711 4.38413
1.03802 1.75651 4.40698
0.956122 1.75576 4.42061
0.927176 1.75589 4.42783
0.897237 1.75703 4.43604
0.869346 1.76126 4.45019
0.8314 1.76139 4.45747
0.785368 1.75636 4.45389
0.747399 1.75645 4.45818
0.703507 1.75869 4.47248
0.689547 1.76077 4.47755
0.674562 1.76081 4.47967
0.665515 1.75773 4.47378
0.621616 1.76096 4.48706
0.576671 1.76209 4.49439
0.561702 1.76216 4.4985
0.539733 1.76324 4.50265
0.523686 1.76016 4.49682
0.509803 1.76539 4.51184
0.492687 1.75918 4.49706
0.47878 1.76337 4.50911
0.46378 1.76238 4.50924
0.455757 1.76134 4.50631
0.424741 1.75934 4.50457
0.410796 1.76245 4.51163
0.394796 1.76146 4.51177
0.380889 1.76565 4.52381
0.365851 1.76359 4.51896
0.357859 1.76361 4.52002
0.344022 1.77193 4.541
0.327991 1.76988 4.53715
0.312968 1.76785 4.53429
0.296914 1.76575 4.52744
0.282992 1.76891 4.5375
0.266969 1.76788 4.53464
0.259992 1.76793 4.53769
0.245008 1.76897 4.53979
0.229 1.76797 4.53893
0.214001 1.76798 4.53904
0.19904 1.77006 4.54412
0.183986 1.76697 4.53728
0.169017 1.76804 4.54138
0.161002 1.76802 4.53944
0.146197 1.7774 4.56441
0.130011 1.76805 4.54067
0.115112 1.77326 4.55371
0.10012 1.77328 4.55482
0.0850585 1.77017 4.54698
0.0700747 1.77122 4.54908
0.0621056 1.77228 4.55312
0.0470672 1.77022 4.54826
-0.802339 1.78201 4.36346
-0.832352 1.783 4.36167
-0.846375 1.78296 4.35878
-0.876403 1.78393 4.35499
-0.890449 1.78285 4.34911
-0.904502 1.78075 4.34225
-0.910525 1.77971 4.33931
-0.923633 1.77552 4.32547
-0.940538 1.78171 4.33751
-0.954592 1.77961 4.33064
-0.968645 1.77852 4.32376
-0.978808 1.77022 4.30296
-0.997674 1.77948 4.31997
-1.00279 1.77326 4.30509
-1.01584 1.77217 4.29821
-1.03087 1.77214 4.29532
-1.04394 1.769 4.28547
-1.05992 1.77205 4.28854
-1.07201 1.76789 4.27669
-1.08991 1.77509 4.28972
-1.09499 1.77093 4.27882
-1.10999 1.77294 4.2789
-1.12404 1.77085 4.27204
-1.1371 1.76974 4.26415
-1.15018 1.7666 4.2543
-1.16517 1.76863 4.25538
-1.1802 1.76858 4.25149
-1.18622 1.76754 4.24855
-1.20416 1.77267 4.25661
-1.21432 1.76638 4.23678
-1.23128 1.76947 4.24186
-1.24627 1.77148 4.24195
-1.25837 1.7673 4.2291
-1.27239 1.76828 4.22719
-1.28136 1.77033 4.23023
-1.29443 1.7682 4.22136
-1.30942 1.77023 4.22244
-1.32541 1.77226 4.22353
-1.33944 1.77221 4.21964
-1.35155 1.76901 4.20577
-1.36851 1.77209 4.21085
-1.38059 1.76996 4.20098
-1.38663 1.76887 4.19504
-1.40358 1.77297 4.2011
-1.4147 1.76876 4.18625
-1.43265 1.77286 4.19232
-1.44667 1.77384 4.19041
-1.45973 1.77172 4.18154
-1.47279 1.77061 4.17366
-1.48175 1.77369 4.17868
-1.49482 1.77156 4.16981
-1.50984 1.77253 4.16691
-1.5278 1.77763 4.17297
-1.53693 1.77139 4.15613
-1.55194 1.77337 4.15421
-1.56991 1.77744 4.15829
-1.57904 1.7712 4.14144
-1.58801 1.77425 4.14447
-1.60303 1.77523 4.14257
-1.61121 1.76789 4.11973
-1.63209 1.77612 4.13377
-1.64905 1.78022 4.13984
-1.6582 1.77393 4.12
-1.66718 1.77698 4.12302
-1.68317 1.77899 4.12311
-1.69427 1.77581 4.11024
-1.70733 1.77471 4.10335
-1.72529 1.7798 4.10841
-1.73442 1.77355 4.09157
-1.74944 1.77552 4.08866
-1.76332 1.78275 4.10366
-1.77147 1.77646 4.08381
-1.78845 1.78052 4.08688
-1.80641 1.7846 4.09195
-1.81359 1.77727 4.06911
-1.83254 1.78237 4.07518
-1.84461 1.78125 4.06629
-1.8557 1.77806 4.05341
-1.8637 1.77908 4.05446
-1.88068 1.78313 4.05653
-1.89178 1.77994 4.04366
-1.90582 1.77986 4.03776
-1.92084 1.78183 4.03485
-1.93782 1.78489 4.03793
-1.94989 1.78375 4.02804
-1.95789 1.78475 4.02808
-1.96604 1.77848 4.00923
-1.98106 1.78044 4.00632
-1.99411 1.78035 3.99942
-2.00422 1.77615 3.98555
-2.02219 1.78121 3.98861
-2.03427 1.77907 3.97873
-2.04732 1.77899 3.97283
-2.05335 1.77792 3.96789
-2.06837 1.77989 3.96498
-2.08143 1.77979 3.95808
-2.09547 1.77971 3.95218
-2.10655 1.77757 3.9423
-2.11764 1.7754 3.93041
-2.13267 1.77736 3.92649
-2.13871 1.77629 3.92156
-2.14979 1.77413 3.91067
-2.16087 1.77198 3.89978
-2.17689 1.77396 3.89787
-2.18697 1.7718 3.88698
-2.20299 1.77377 3.88407
-2.20717 1.76643 3.86121
-2.22503 1.77671 3.87919
-2.23612 1.77354 3.86732
-2.25016 1.77446 3.86141
-2.26223 1.77334 3.85252
-2.26935 1.76911 3.83663
-2.28044 1.76695 3.82575
-2.3004 1.77303 3.82981
-2.30544 1.77196 3.82486
-2.32343 1.77598 3.82594
-2.33747 1.77692 3.82103
-2.34461 1.77166 3.80316
-2.35767 1.77155 3.79526
-2.37466 1.77558 3.79633
-2.38278 1.77135 3.78045
-2.39473 1.77544 3.78648
-2.40483 1.77326 3.77358
-2.4159 1.77212 3.76368
-2.42995 1.77204 3.75779
-2.44596 1.77502 3.75587
-2.45902 1.77491 3.74796
-2.47109 1.77479 3.73906
-2.48907 1.77883 3.74113
-2.49412 1.77775 3.73519
-2.4973 1.77039 3.71131
-2.51925 1.7775 3.71738
-2.52834 1.77433 3.70549
-2.53548 1.77007 3.6876
-2.56038 1.77928 3.70066
-2.56949 1.77706 3.68576
-2.57058 1.77288 3.67382
-2.59054 1.77897 3.67889
-2.60559 1.77989 3.67298
-2.61369 1.77669 3.65909
-2.62873 1.77863 3.65418
-2.64178 1.77853 3.64727
-2.65187 1.77736 3.63537
-2.6589 1.77731 3.63142
-2.67492 1.78029 3.62949
-2.68303 1.77708 3.6146
-2.69411 1.77594 3.6047
-2.71112 1.77892 3.60278
-2.72023 1.77672 3.58888
-2.74029 1.7776 3.58002
-2.75137 1.77744 3.5691
-2.78145 1.78032 3.55929
-2.79154 1.77915 3.54738
4.04389 1.70986 1.98969
3.99645 1.70999 2.06406
3.99751 1.71212 2.07302
3.95797 1.71205 2.13433
3.95208 1.71327 2.14836
3.93418 1.71049 2.16253
3.92628 1.71069 2.17559
3.92641 1.71494 2.19253
3.91146 1.71105 2.1997
3.90456 1.71225 2.21274
3.9047 1.71552 2.23069
3.88774 1.71162 2.23688
3.87676 1.70865 2.239
3.86898 1.71309 2.268
3.85604 1.71023 2.27714
3.84324 1.71263 2.30321
3.83634 1.71382 2.31624
3.83339 1.71393 2.32327
3.81443 1.70902 2.32848
3.81054 1.71124 2.34348
3.80867 1.71448 2.35945
3.79071 1.71058 2.36564
3.78582 1.71179 2.37966
3.78193 1.71502 2.39465
3.76993 1.71103 2.3948
3.76503 1.71224 2.40882
3.76216 1.71548 2.42479
3.74419 1.71156 2.42999
3.73628 1.71175 2.44205
3.72838 1.71295 2.45509
3.72148 1.71314 2.46814
3.71457 1.71433 2.48018
3.70358 1.71136 2.4823
3.70071 1.7146 2.49828
3.69078 1.71376 2.50837
3.68187 1.71394 2.52043
3.67496 1.71513 2.53247
3.66405 1.7143 2.54357
3.66016 1.71752 2.55855
3.65621 1.71761 2.56458
3.63019 1.7086 2.56291
3.62429 1.71081 2.57692
3.62645 1.71711 2.59681
3.61049 1.71321 2.60299
3.60661 1.71645 2.61898
3.58563 1.71049 2.62122
3.57966 1.70956 2.62528
3.58282 1.71587 2.64617
3.56283 1.71091 2.64839
3.55493 1.71211 2.66144
3.55608 1.71739 2.68035
3.54314 1.71653 2.68946
3.53724 1.71773 2.70249
3.53229 1.71782 2.70853
3.52136 1.71698 2.71863
3.51144 1.71715 2.7297
3.50757 1.72039 2.74568
3.48858 1.71543 2.7479
3.48067 1.71661 2.75994
3.46975 1.71577 2.77004
3.46579 1.71686 2.77605
3.45487 1.71602 2.78615
3.44393 1.71516 2.79525
3.43704 1.71737 2.80927
3.4382 1.72367 2.82917
3.4313 1.72488 2.8432
3.40426 1.71582 2.83854
3.39837 1.71905 2.85354
3.39341 1.71913 2.85858
3.3855 1.71931 2.87064
3.37961 1.72252 2.88463
3.37473 1.72576 2.90062
3.35272 1.71877 2.89989
3.33978 1.71689 2.90802
3.33389 1.7201 2.92202
3.32188 1.7161 2.92117
3.33413 1.72956 2.95288
3.32018 1.72668 2.96003
3.30219 1.72272 2.96222
3.29328 1.7239 2.97428
3.28437 1.72407 2.98534
3.26941 1.72217 2.99148
3.25437 1.71611 2.98669
3.2505 1.72036 3.00365
3.24663 1.72462 3.02062
3.23469 1.72375 3.02873
3.22175 1.72187 3.03685
3.20578 1.71895 3.04102
3.20594 1.72526 3.06193
3.19603 1.72643 3.07299
3.17393 1.71627 3.0613
3.16299 1.71639 3.06938
3.15409 1.71759 3.08243
3.14215 1.71672 3.09054
3.14736 1.72611 3.11736
3.13038 1.72317 3.12053
3.10541 1.71725 3.12481
2.97134 1.72217 3.24877
2.96638 1.72224 3.2538
2.82229 1.72614 3.37585
2.78951 1.72759 3.40508
2.7616 1.72479 3.41733
2.72791 1.73141 3.45749
2.70303 1.73066 3.47369
2.7012 1.73799 3.4956
2.66216 1.72695 3.49106
2.65923 1.72908 3.50005
2.64526 1.72816 3.50517
2.62138 1.72842 3.52135
2.6135 1.73165 3.53636
2.59671 1.73706 3.56341
2.56282 1.73531 3.57869
2.54278 1.72925 3.57393
2.53286 1.73042 3.58499
2.52801 1.7367 3.60394
2.51001 1.73271 3.60413
2.50303 1.73176 3.6072
2.4921 1.73291 3.61627
2.47916 1.73303 3.62436
2.45629 1.7343 3.64152
2.44334 1.73441 3.64862
2.43241 1.73456 3.6577
2.41947 1.73468 3.6658
2.41552 1.73679 3.67279
2.39954 1.73483 3.67494
2.39165 1.73804 3.68896
2.37364 1.73406 3.68915
2.33884 1.73647 3.71538
2.32196 1.7387 3.73048
2.30393 1.73367 3.72769
2.292 1.73481 3.73676
2.27804 1.7339 3.74188
2.27117 1.73915 3.75886
2.25314 1.73412 3.75607
2.23627 1.73637 3.77217
2.2223 1.73646 3.77727
2.21543 1.74071 3.79426
2.19639 1.73565 3.78948
2.18751 1.73988 3.80449
2.17355 1.73897 3.8096
2.17164 1.74314 3.82156
2.1526 1.73708 3.81679
2.14372 1.74131 3.8318
2.12568 1.73727 3.82799
2.12187 1.74462 3.85192
2.10893 1.74575 3.86
2.08099 1.74389 3.86824
2.07097 1.74087 3.86636
2.06005 1.74302 3.87641
2.04913 1.7452 3.88746
2.03416 1.74425 3.89059
2.02527 1.74748 3.90561
2.0052 1.74136 3.89685
2.0014 1.75075 3.92274
1.9934 1.74875 3.92283
1.97741 1.74678 3.92398
1.96649 1.74895 3.93503
1.9505 1.74698 3.93618
1.93754 1.74708 3.94228
1.92766 1.7513 3.95729
1.90961 1.74523 3.95152
1.90364 1.74629 3.95555
1.8958 1.75259 3.97552
1.8808 1.75062 3.97666
1.86074 1.74452 3.9689
1.85389 1.7508 3.98786
1.83688 1.7478 3.98703
1.82902 1.75307 4.00502
1.82001 1.75206 4.0041
1.80806 1.75218 4.01119
1.79308 1.75122 4.01332
1.77912 1.75132 4.01942
1.76414 1.74936 4.02156
1.75017 1.74943 4.02567
1.73722 1.74954 4.03277
1.73127 1.75163 4.03878
1.7173 1.7507 4.0429
1.71047 1.75903 4.06483
1.69039 1.7519 4.05509
1.67847 1.75406 4.06515
1.66348 1.7531 4.06727
1.64645 1.74905 4.06346
1.64253 1.7522 4.07345
1.63164 1.75642 4.08747
1.61663 1.75341 4.08662
1.6037 1.75555 4.09569
1.59279 1.75874 4.10773
1.57883 1.75882 4.11283
1.56383 1.75685 4.11398
1.54886 1.75691 4.11709
1.54086 1.75593 4.11816
1.52689 1.75498 4.12128
1.51496 1.75712 4.13034
1.50202 1.75926 4.13941
1.48703 1.75729 4.14055
1.47819 1.76459 4.16051
1.45296 1.75018 4.13191
1.4511 1.75745 4.14982
1.43816 1.75858 4.1579
1.4201 1.75347 4.15011
1.41023 1.75873 4.16711
1.39728 1.75983 4.17319
1.3782 1.7537 4.16343
1.36628 1.75687 4.17447
1.36338 1.76106 4.18743
1.34634 1.758 4.18261
1.32932 1.75497 4.17978
1.32048 1.76129 4.20075
1.30241 1.75617 4.19197
1.29151 1.76037 4.20499
1.27858 1.76251 4.21405
1.26956 1.76047 4.21115
1.25456 1.75848 4.21129
1.2406 1.75958 4.21738
1.22559 1.75756 4.21553
1.21266 1.7597 4.22459
1.19972 1.76183 4.23266
1.18267 1.75776 4.22685
1.16974 1.7599 4.23592
1.16793 1.76925 4.25979
1.14777 1.75897 4.2401
1.13483 1.76109 4.24716
1.11879 1.75804 4.24333
1.10382 1.7581 4.24644
1.09089 1.76024 4.25551
1.08001 1.76548 4.27151
1.07303 1.76552 4.27357
1.05391 1.75831 4.25881
1.04098 1.76045 4.26788
1.02907 1.76464 4.27991
1.01305 1.7626 4.27706
1.00115 1.76581 4.29011
