-3.40035 1.80145 4.89065
-3.41643 1.8013 4.87977
-3.43252 1.80113 4.8679
-3.44861 1.80098 4.85702
-3.48275 1.80173 4.83826
-3.49079 1.80164 4.83232
-3.58631 1.79969 4.76406
-3.63764 1.79808 4.72047
-3.65869 1.8 4.71459
-3.6849 1.79759 4.68582
-3.69691 1.79859 4.6849
-3.70805 1.79633 4.66701
-3.71621 1.79302 4.64612
-3.73031 1.79184 4.63324
-3.7464 1.79168 4.62137
-3.75951 1.79046 4.60648
-3.78252 1.79445 4.6046
-3.78561 1.79227 4.59265
-3.80368 1.79315 4.58377
-3.81877 1.79299 4.57189
-3.83386 1.79282 4.56
-3.844 1.78955 4.54112
-3.86305 1.79146 4.53424
-3.8732 1.78818 4.51536
-3.8863 1.78799 4.50146
-3.89732 1.78896 4.49953
-3.92255 1.78652 4.46875
-3.94459 1.78947 4.46387
-3.95274 1.78618 4.44398
-3.97675 1.79016 4.4421
-3.9849 1.78687 4.42221
-3.99295 1.78679 4.41627
-4.01101 1.78868 4.40837
-4.02313 1.78746 4.39248
-4.03921 1.78731 4.3816
-4.06345 1.78485 4.34982
-4.07953 1.7857 4.33893
-4.08659 1.7856 4.33198
-4.10861 1.78856 4.3281
-4.12273 1.78834 4.31321
-4.13286 1.7861 4.29632
-4.1539 1.78903 4.29043
-4.16602 1.7878 4.27454
-4.17714 1.78557 4.25865
-4.19609 1.79167 4.2647
-4.20027 1.78632 4.24081
-4.21736 1.78717 4.22993
-4.2374 1.79009 4.22403
-4.24357 1.78677 4.20213
-4.25668 1.78556 4.18724
-4.27872 1.7885 4.18236
-4.2818 1.78734 4.1714
-4.29888 1.78819 4.16052
-4.31099 1.78698 4.14562
-4.3251 1.78678 4.13173
-4.33622 1.78555 4.11583
-4.3533 1.7864 4.10495
-4.3684 1.78722 4.09205
-4.37247 1.78609 4.08309
-4.38756 1.78591 4.07021
-4.40167 1.78571 4.05631
-4.41378 1.7855 4.04141
-4.4259 1.78429 4.02651
-4.44893 1.78823 4.02163
-4.45707 1.78595 4.00272
-4.47018 1.78575 3.98882
-4.47723 1.78566 3.98187
-4.4963 1.78754 3.97299
-4.50643 1.78629 3.95608
-4.51855 1.78506 3.94019
-4.5396 1.78796 3.9323
-4.54278 1.78362 3.90939
-4.55986 1.78547 3.89849
-4.57386 1.78848 3.89855
-4.57704 1.78413 3.87463
-4.63941 1.78745 3.82605
-4.65967 1.78495 3.79123
-4.68281 1.7857 3.77339
-4.69691 1.7865 3.75949
-4.81598 1.78448 3.61839
4.48698 1.72319 3.71623
4.46008 1.7204 3.72947
4.45222 1.72269 3.7485
4.44235 1.72395 3.76556
4.42543 1.72311 3.7757
4.41857 1.72539 3.79472
4.40668 1.72562 3.80981
4.39167 1.72262 3.80897
4.38079 1.72385 3.82403
4.37595 1.72716 3.84502
4.34492 1.71914 3.84237
4.3411 1.72449 3.86533
4.32034 1.72697 3.89745
4.31439 1.72708 3.9045
4.29545 1.72522 3.91267
4.28458 1.72646 3.92873
4.26764 1.72461 3.93789
4.26382 1.72895 3.96086
4.24085 1.72503 3.96509
4.22694 1.72523 3.97819
4.23309 1.7305 3.99707
4.21213 1.72761 4.00327
4.19319 1.72574 4.01144
4.1813 1.72696 4.02552
4.16236 1.72409 4.0337
4.14341 1.72221 4.04087
4.14463 1.72862 4.06877
4.11863 1.72365 4.07004
4.1147 1.72479 4.07906
4.10987 1.72912 4.10103
4.09194 1.72827 4.11018
4.07803 1.72847 4.12329
4.06211 1.72663 4.13343
4.04115 1.72372 4.13864
4.0333 1.72702 4.15865
4.03038 1.72917 4.16864
4.01244 1.72732 4.1778
3.99753 1.72749 4.18892
4.00077 1.73596 4.22077
3.97072 1.72789 4.21512
3.97095 1.73534 4.24501
3.94292 1.7293 4.24131
3.94 1.73146 4.2523
3.92005 1.72857 4.25849
3.91825 1.73497 4.28542
3.89628 1.73203 4.28863
3.88843 1.73533 4.30864
3.8715 1.73348 4.31779
3.85961 1.73571 4.33285
3.83954 1.72959 4.32409
3.83472 1.73395 4.34807
3.81072 1.72997 4.34831
3.80793 1.73637 4.37524
3.78594 1.73241 4.37746
3.78315 1.73881 4.40439
3.76015 1.73485 4.40563
3.75926 1.73805 4.41959
3.73324 1.73304 4.41786
3.72743 1.7374 4.44184
3.70139 1.73136 4.43812
3.70063 1.73881 4.46802
3.67359 1.73377 4.4643
3.66071 1.735 4.47938
3.64377 1.73413 4.48752
3.65096 1.74149 4.51236
3.6219 1.73441 4.50569
3.61204 1.73669 4.52373
3.5941 1.73582 4.53188
3.58121 1.73703 4.54596
3.56124 1.73512 4.55114
3.54835 1.73634 4.56522
3.5424 1.73745 4.57225
3.52548 1.73661 4.58239
3.50652 1.73571 4.58855
3.49261 1.7359 4.60065
3.46961 1.73192 4.60088
3.45774 1.73416 4.61694
3.44687 1.73744 4.63498
3.43588 1.73546 4.63609
3.42399 1.73769 4.65115
3.40605 1.73682 4.6593
3.38608 1.7339 4.66349
3.3742 1.73613 4.67855
3.36638 1.74149 4.70253
3.34742 1.73957 4.70771
3.33339 1.73553 4.70387
3.3124 1.73257 4.70607
3.30659 1.73894 4.73103
3.29168 1.73913 4.74314
3.27576 1.73929 4.75326
3.25579 1.73737 4.75744
3.23581 1.73543 4.76062
3.24709 1.74695 4.79637
3.21598 1.73777 4.78273
3.21423 1.74626 4.81563
3.19122 1.74224 4.81386
3.17227 1.74136 4.82101
3.15027 1.73738 4.82124
3.14649 1.74481 4.85016
3.12043 1.73972 4.84343
3.1145 1.74086 4.85246
3.10263 1.74412 4.86951
3.08468 1.74224 4.87667
3.07687 1.7486 4.90064
3.04675 1.7394 4.886
3.04301 1.74789 4.91891
3.0139 1.7397 4.90524
3.01911 1.74811 4.93308
2.9971 1.74512 4.93229
2.97612 1.74218 4.9355
2.97033 1.74958 4.96243
2.94225 1.74244 4.95175
2.93545 1.74883 4.97771
2.91242 1.7438 4.97496
2.9065 1.74595 4.98497
2.88753 1.74403 4.98914
2.88175 1.75246 5.01807
2.85263 1.74326 5.00342
2.84281 1.74861 5.02642
2.82994 1.75187 5.04347
2.80082 1.74367 5.02881
2.79488 1.74479 5.03684
2.79318 1.75637 5.07568
2.75593 1.74092 5.04419
2.7461 1.74625 5.06619
2.73018 1.74741 5.07629
2.71833 1.7507 5.09534
2.69631 1.74769 5.09354
2.69056 1.75617 5.12547
2.66938 1.74584 5.10278
2.65753 1.75115 5.12279
2.6345 1.74611 5.11904
2.62568 1.75247 5.14301
2.59961 1.74635 5.1343
2.59487 1.75586 5.1682
2.56777 1.74869 5.15551
2.56795 1.75503 5.17842
2.54288 1.74891 5.16969
2.52798 1.75112 5.18278
2.50595 1.74709 5.18
2.49613 1.75343 5.20298
2.47308 1.74836 5.19723
2.46124 1.75267 5.21726
2.45125 1.7527 5.21933
2.43126 1.74973 5.22053
2.41942 1.75505 5.24154
2.39433 1.74789 5.22984
2.38453 1.7553 5.2568
2.36352 1.75229 5.25501
2.34149 1.74826 5.25223
2.33762 1.7535 5.26819
2.32476 1.75677 5.28624
2.29762 1.74853 5.26856
2.28884 1.75596 5.29752
2.26477 1.75085 5.28878
2.25191 1.75514 5.30781
2.23601 1.75733 5.3199
2.22294 1.7522 5.31107
2.20907 1.75648 5.32912
2.18807 1.75448 5.32831
2.17419 1.75773 5.34436
2.15113 1.75264 5.33761
2.13318 1.75274 5.34375
2.12136 1.75809 5.36676
2.1034 1.75819 5.37289
2.09443 1.75826 5.37696
2.07852 1.76043 5.38805
2.05647 1.75636 5.38228
2.04363 1.76168 5.4033
2.02158 1.75661 5.39754
2.00365 1.75774 5.40566
1.99488 1.7662 5.4366
1.9726 1.75267 5.39997
1.96181 1.7601 5.42794
1.94182 1.75913 5.42911
1.92182 1.75714 5.42929
1.91309 1.76666 5.46422
1.88284 1.75421 5.43262
1.87308 1.76268 5.46358
1.85693 1.75541 5.4448
1.84307 1.75969 5.46285
1.83332 1.76817 5.4948
1.7923 1.76417 5.49317
1.77126 1.76109 5.48737
1.75229 1.76017 5.49153
1.74742 1.76542 5.50849
1.72639 1.76238 5.50469
1.70945 1.76352 5.5138
1.68637 1.75838 5.50305
1.67356 1.76476 5.52806
1.65253 1.76171 5.52426
1.63765 1.76495 5.53933
1.62149 1.75766 5.51955
1.60765 1.76297 5.53958
1.57174 1.76419 5.55284
1.55172 1.76216 5.55002
1.53791 1.76852 5.57403
1.51375 1.76024 5.55433
1.50893 1.76659 5.57728
1.48684 1.76143 5.56552
1.47613 1.773 5.60343
1.45199 1.76575 5.58572
1.43817 1.7721 5.60873
1.414 1.76279 5.58705
1.39814 1.76707 5.60511
1.3781 1.76502 5.60129
1.37224 1.77028 5.61826
1.3543 1.77141 5.62638
1.33119 1.76522 5.61264
1.31427 1.7674 5.62374
1.27629 1.76645 5.62604
1.26253 1.77492 5.65702
1.25248 1.77284 5.65113
1.23457 1.77502 5.66223
1.21142 1.76775 5.64351
1.19867 1.77723 5.67547
1.1745 1.76894 5.65477
1.15343 1.76482 5.64599
1.1438 1.77954 5.69385
1.12857 1.76911 5.66412
1.11066 1.77128 5.67522
1.0948 1.77656 5.69327
1.07271 1.77141 5.68251
1.05477 1.77353 5.68961
1.03889 1.77778 5.70567
1.01783 1.77368 5.69789
0.999905 1.77684 5.70798
0.990951 1.77793 5.71403
0.970897 1.77484 5.70723
0.957182 1.7854 5.74418
0.933982 1.77703 5.71847
0.916082 1.78024 5.73156
0.894997 1.77509 5.7208
0.868059 1.77723 5.72897
0.852298 1.7857 5.75997
0.83116 1.77945 5.74222
0.81116 1.77846 5.74238
0.791121 1.7764 5.73756
0.754214 1.77861 5.74981
0.746299 1.78178 5.76082
0.728384 1.78495 5.77191
0.708377 1.78395 5.77108
0.689346 1.78191 5.76725
0.650377 1.78199 5.77154
0.633539 1.78832 5.79258
0.622455 1.78516 5.78171
0.605586 1.78943 5.79878
0.58447 1.78422 5.78401
0.546494 1.78429 5.78729
0.507502 1.78334 5.7886
0.489634 1.7886 5.80566
0.478511 1.78337 5.78982
0.441643 1.78865 5.80702
0.421612 1.78661 5.8032
0.383659 1.78772 5.80947
0.36576 1.79193 5.82255
0.355714 1.78985 5.81665
0.335652 1.78674 5.80885
0.316614 1.78468 5.80402
0.297722 1.7889 5.81811
0.259747 1.78997 5.82138
0.210794 1.7911 5.82773
0.172856 1.79324 5.83598
0.153864 1.79327 5.83713
0.114881 1.79433 5.83941
-1.76539 1.80115 5.41141
-1.7844 1.80214 5.40954
-1.8456 1.7998 5.38403
-1.8997 1.80163 5.37041
-1.91872 1.8026 5.36754
-1.93775 1.80355 5.36367
-1.95481 1.80245 5.35581
-1.96285 1.80138 5.35089
-1.9999 1.8033 5.34414
-2.07011 1.80294 5.31667
-2.1162 1.80379 5.305
-2.14934 1.80254 5.28627
-2.19543 1.80339 5.2746
-2.21248 1.8033 5.26773
-2.24857 1.80415 5.25598
-2.30976 1.80381 5.23045
-2.34388 1.8026 5.21472
-2.36193 1.80352 5.20884
-2.378 1.8024 5.19998
-2.39702 1.80436 5.19609
-2.5094 1.8037 5.14694
-2.82255 1.80263 4.9943
4.21809 1.72658 3.7312
4.04935 1.72917 3.89946
4.0313 1.7241 3.89367
4.00571 1.7319 3.94676
3.95893 1.72938 3.97715
3.955 1.73051 3.98616
3.9292 1.73092 4.01236
3.90642 1.73336 4.0415
3.88645 1.73045 4.04669
3.8786 1.73374 4.0657
3.86962 1.73279 4.06878
3.84765 1.72887 4.07301
3.84282 1.7342 4.09497
3.81882 1.72921 4.09522
3.80288 1.72836 4.10436
3.8031 1.73477 4.13227
3.78214 1.73186 4.13747
3.76721 1.73202 4.14758
3.76732 1.73523 4.16153
3.75341 1.73542 4.17364
3.72638 1.72938 4.16993
3.72761 1.73682 4.19981
3.70764 1.73391 4.20501
3.69474 1.73511 4.21809
3.68689 1.7384 4.2371
3.67085 1.73433 4.23228
3.65795 1.73454 4.24538
3.64707 1.73678 4.26143
3.6152 1.73507 4.2797
3.58941 1.73749 4.30686
3.57538 1.73444 4.30301
3.57359 1.74086 4.33093
3.56069 1.74206 4.34401
3.54577 1.74223 4.35512
3.52379 1.73828 4.35735
3.48889 1.73551 4.37165
3.48193 1.73559 4.37671
3.47408 1.73989 4.3967
3.45412 1.73698 4.4019
3.43515 1.73505 4.40607
3.43439 1.74351 4.43696
3.40835 1.73746 4.43224
3.4005 1.74076 4.45225
3.39455 1.74187 4.45928
3.36549 1.73477 4.45161
3.35359 1.73597 4.46468
3.3498 1.74339 4.4926
3.32174 1.73529 4.48493
3.30985 1.73752 4.49999
3.30706 1.74492 4.52691
3.27494 1.73472 4.5123
3.26901 1.73586 4.52133
3.26824 1.74431 4.55121
3.24017 1.73719 4.54253
3.2202 1.73527 4.54671
3.2245 1.74584 4.58552
3.19541 1.7387 4.57485
3.18454 1.74095 4.5909
3.18771 1.74828 4.61377
3.15963 1.74016 4.6041
3.14775 1.74239 4.61916
3.14093 1.74875 4.64312
3.11589 1.74268 4.63739
3.09591 1.73974 4.64059
3.09315 1.7482 4.67149
3.07909 1.7441 4.66465
3.0581 1.74115 4.66686
3.05433 1.74858 4.69578
3.02623 1.74042 4.68411
3.01536 1.74368 4.70115
3.00349 1.74693 4.71719
2.98249 1.74396 4.71839
2.97555 1.74407 4.72544
2.97075 1.75147 4.75237
2.9457 1.7454 4.74665
2.92877 1.74553 4.75478
2.92195 1.75089 4.77875
2.89486 1.74375 4.76806
2.88401 1.74804 4.78708
2.87619 1.7534 4.81107
2.86112 1.74828 4.80225
2.84721 1.74946 4.81434
2.82723 1.74751 4.81652
2.81334 1.74972 4.8306
2.79537 1.74881 4.83575
2.77742 1.74691 4.84191
2.76756 1.75119 4.85992
2.75452 1.74814 4.85607
2.73859 1.74828 4.86519
2.72773 1.75256 4.88321
2.70673 1.74957 4.88341
2.69081 1.74973 4.89353
2.67791 1.75195 4.90759
2.65894 1.75102 4.91175
2.64489 1.74693 4.90492
2.64214 1.75642 4.9378
2.62216 1.75448 4.94098
2.60522 1.75359 4.94812
2.59233 1.75682 4.96317
2.56928 1.75175 4.95742
2.55031 1.75083 4.96158
2.54947 1.75612 4.98151
2.53049 1.75418 4.98468
2.51354 1.75428 4.99081
2.49964 1.75648 5.00388
2.47863 1.75249 5.0031
2.46575 1.75673 5.01914
2.44881 1.75686 5.02726
2.43372 1.7507 5.01547
2.42084 1.75394 5.03152
2.40695 1.75716 5.04558
2.38797 1.75522 5.04875
2.37408 1.75743 5.06282
2.36017 1.75962 5.0749
2.33814 1.75559 5.07212
2.32017 1.75467 5.07627
2.3173 1.75992 5.09322
2.29527 1.75586 5.08844
2.27426 1.75286 5.08765
2.26546 1.75925 5.11362
2.24748 1.75831 5.11677
2.2336 1.76156 5.13283
2.20646 1.75331 5.11516
2.21072 1.76381 5.14897
2.18869 1.75977 5.1452
2.16665 1.7557 5.13942
2.15786 1.76312 5.16738
2.13581 1.75904 5.16161
2.11989 1.7602 5.17171
2.10498 1.76239 5.18379
2.09191 1.75827 5.17495
2.0811 1.76463 5.19894
2.06415 1.76475 5.20607
2.0421 1.76068 5.2003
2.02106 1.75662 5.19551
2.00923 1.76295 5.21751
1.99026 1.76101 5.22068
1.98638 1.76625 5.23664
1.9592 1.75593 5.21399
1.95044 1.76439 5.24494
1.93043 1.76239 5.24412
1.91246 1.76147 5.24827
1.89348 1.76051 5.25042
1.88165 1.76684 5.27242
1.86856 1.76169 5.2616
1.8547 1.76597 5.27964
1.83364 1.76188 5.27286
1.8208 1.76718 5.29288
1.79977 1.76415 5.29008
1.78386 1.76533 5.30119
1.76487 1.76437 5.30334
1.75794 1.7665 5.31137
1.74099 1.76761 5.31848
1.71687 1.76041 5.30376
1.70814 1.77093 5.33868
1.68504 1.76476 5.32594
1.66399 1.76068 5.32016
1.6532 1.76809 5.34714
1.63214 1.76399 5.33935
1.6242 1.76611 5.34738
1.60727 1.76726 5.3565
1.58929 1.76631 5.35965
1.56824 1.76323 5.35285
1.55336 1.76647 5.36892
1.53642 1.76759 5.37603
1.51741 1.76559 5.3752
1.51049 1.76876 5.38621
1.49048 1.76674 5.38439
1.47559 1.76997 5.39945
1.45865 1.77109 5.40657
1.44068 1.77116 5.4107
1.41962 1.76708 5.40392
1.40475 1.77132 5.41997
1.39266 1.76717 5.40912
1.37575 1.76936 5.42122
1.36085 1.77256 5.43429
1.33671 1.76531 5.41657
1.3239 1.77268 5.44056
1.30386 1.76962 5.43576
1.28694 1.77179 5.44685
1.26586 1.76665 5.43609
1.26308 1.77606 5.46397
1.24202 1.77197 5.45719
1.21991 1.76577 5.44245
1.20921 1.77835 5.48135
1.18708 1.77112 5.46462
1.16909 1.77016 5.46677
1.15218 1.77334 5.47785
1.14321 1.7734 5.48192
1.12213 1.76927 5.47214
1.10833 1.77666 5.49814
1.08724 1.7715 5.48637
1.06717 1.7684 5.47857
1.05649 1.78101 5.51946
1.03334 1.77373 5.49974
1.02642 1.7769 5.51075
1.00431 1.7707 5.49601
0.990483 1.77705 5.51902
0.971491 1.77707 5.52016
0.952491 1.77609 5.52032
0.936615 1.78034 5.53638
0.916561 1.77725 5.52958
0.90863 1.77939 5.53861
0.888576 1.7763 5.5318
0.872715 1.78157 5.54985
0.853692 1.77954 5.54702
0.832576 1.77434 5.53225
0.817761 1.7807 5.55627
0.798746 1.77969 5.55443
0.777661 1.77554 5.54365
0.771862 1.78393 5.56957
0.752847 1.78291 5.56773
0.73487 1.78297 5.57087
0.714793 1.77884 5.56108
0.698955 1.78516 5.58211
0.679963 1.78419 5.58326
0.651986 1.78425 5.58647
0.63401 1.78531 5.58959
0.613925 1.78116 5.5788
0.577995 1.78332 5.58804
0.560049 1.78444 5.59516
0.541065 1.78448 5.59731
0.514143 1.78765 5.60746
0.476104 1.7846 5.6028
0.439113 1.78465 5.60407
0.421182 1.78679 5.61318
0.375245 1.78894 5.62149
0.0376238 1.77999 5.40814
-0.467272 1.79152 5.42278
-0.48431 1.79046 5.41792
-0.503294 1.7915 5.42005
-0.520347 1.78941 5.4132
-0.565384 1.78937 5.40854
-0.584336 1.79247 5.41464
-0.601397 1.79037 5.4068
-0.619381 1.79141 5.40892
-0.638372 1.79244 5.41005
-0.655426 1.79035 5.40321
-0.673448 1.79032 5.40034
-0.681486 1.78925 5.39542
-0.701423 1.79238 5.40352
-0.716577 1.7861 5.38373
-0.734591 1.78608 5.38186
-0.753521 1.79023 5.39095
-0.770582 1.78812 5.3831
-0.790518 1.79225 5.3912
-0.798572 1.79015 5.38429
-0.816602 1.79011 5.38042
-0.834593 1.79114 5.38154
-0.852615 1.79111 5.37868
-0.869668 1.79001 5.37182
-0.888644 1.79207 5.37494
-0.905681 1.79101 5.37008
-0.920828 1.78474 5.35128
-0.931742 1.78991 5.36229
-0.949764 1.78988 5.35943
-0.967801 1.78882 5.35458
-0.985785 1.79086 5.35668
-1.00575 1.79295 5.3618
-1.0228 1.79186 5.35495
-1.03887 1.78974 5.3461
-1.04983 1.79282 5.35113
-1.06685 1.79279 5.34826
-1.08293 1.78964 5.33743
-1.10192 1.79168 5.33954
-1.11898 1.78956 5.3307
-1.13797 1.7916 5.33281
-1.15695 1.79365 5.33493
-1.16403 1.7915 5.32501
-1.183 1.79358 5.32912
-1.20004 1.7925 5.32327
-1.21807 1.79245 5.3194
-1.23608 1.79344 5.31752
-1.25506 1.79649 5.32062
-1.27116 1.79231 5.3078
-1.29112 1.7964 5.31289
-1.29917 1.79432 5.30698
-1.31523 1.7922 5.29814
-1.33519 1.7963 5.30423
-1.35223 1.79622 5.29836
-1.36929 1.79412 5.29051
-1.58261 1.79862 5.24805
-1.59967 1.79753 5.24119
-1.61184 1.79121 5.21937
-1.63376 1.79638 5.22946
-1.64082 1.79526 5.22153
-1.6569 1.79311 5.21068
-1.67198 1.79096 5.19983
-1.69195 1.79404 5.20393
-1.70412 1.78772 5.18212
-1.72313 1.7897 5.18023
-1.74016 1.78966 5.17636
-1.74919 1.78962 5.17343
-1.76622 1.78956 5.16856
-1.78718 1.79365 5.17365
-1.79934 1.78836 5.15382
-1.81736 1.78931 5.14994
-1.83538 1.7903 5.14806
-1.85242 1.79022 5.14219
-1.85753 1.78602 5.12829
-1.87555 1.78699 5.12541
-1.89162 1.78586 5.11655
-1.91259 1.78994 5.12065
-1.92474 1.78465 5.10081
-1.94472 1.78771 5.10392
-1.96175 1.78865 5.09903
-1.98271 1.79174 5.10415
-1.98782 1.78853 5.09023
-2.00388 1.78743 5.08237
-2.02681 1.79358 5.09145
-2.03601 1.7862 5.06562
-2.05501 1.7882 5.06474
-2.07893 1.79438 5.07583
-2.08911 1.78803 5.05199
-2.09911 1.78904 5.05205
-2.11713 1.79001 5.04918
-2.13124 1.78781 5.03531
-2.14729 1.78772 5.02843
-2.17122 1.79287 5.03754
-2.18336 1.78861 5.01969
-2.20335 1.79162 5.0198
-2.21531 1.79472 5.02584
-2.22842 1.79251 5.01097
-2.24154 1.7883 4.99613
-2.26449 1.7934 5.00223
-2.27269 1.78702 4.97638
-2.29661 1.79319 4.98647
-2.31169 1.79204 4.9756
-2.31678 1.78786 4.9637
-2.33972 1.794 4.97178
-2.35775 1.79495 4.9679
-2.37283 1.7938 4.95703
-2.38989 1.79369 4.94916
-2.40792 1.79465 4.94528
-2.41905 1.79139 4.92741
-2.42611 1.78929 4.9205
-2.45004 1.79644 4.92957
-2.46119 1.79115 4.90973
-2.47823 1.79208 4.90385
-2.49922 1.79511 4.90496
-2.5074 1.78877 4.88211
-2.52642 1.79074 4.87922
-2.54643 1.79373 4.87733
-2.55052 1.79057 4.86641
-2.57052 1.79357 4.86551
-2.58461 1.79141 4.85465
-2.60462 1.7944 4.85276
-2.61871 1.79323 4.84088
-2.63576 1.79315 4.83501
-2.64788 1.78991 4.81814
-2.65591 1.78986 4.8142
-2.67593 1.79284 4.81231
-2.68804 1.78963 4.79745
-2.70705 1.79261 4.79555
-2.72215 1.79045 4.78369
-2.7382 1.79136 4.7768
-2.75426 1.79123 4.76792
-2.76723 1.7943 4.77197
-2.78132 1.79313 4.76009
-2.79641 1.79198 4.74922
-2.8174 1.79601 4.75032
-2.83346 1.79589 4.74144
-2.84657 1.79369 4.72757
-2.85572 1.7894 4.7077
-2.8746 1.79664 4.72274
-2.89067 1.79652 4.71386
-2.90477 1.79534 4.70098
-2.93986 1.79818 4.6892
-2.95396 1.796 4.67634
-2.98101 1.79892 4.6695
-2.99114 1.79566 4.65162
-3.01018 1.7976 4.64674
-3.04132 1.79734 4.62797
-3.0905 1.79802 4.60433
-3.10769 1.79466 4.5795
-3.12276 1.79454 4.57062
-3.13389 1.7913 4.55375
-3.15688 1.79633 4.55485
-3.167 1.7931 4.53897
-3.17812 1.79087 4.52308
-3.1911 1.79391 4.52514
-3.19926 1.7886 4.50427
-3.2262 1.79573 4.51137
-3.23534 1.79247 4.49349
-3.24943 1.7913 4.48161
-3.27044 1.79528 4.47971
-3.27563 1.78893 4.45584
-3.27971 1.78679 4.4459
-3.30764 1.79493 4.45399
-3.32173 1.79376 4.44211
-3.32592 1.78739 4.41723
-3.34892 1.79241 4.41733
-3.36894 1.79538 4.41444
-3.37511 1.79006 4.39256
-3.38711 1.79207 4.39262
-3.40317 1.79295 4.38373
-3.41033 1.78865 4.36384
-3.42738 1.78955 4.35596
-3.44444 1.79144 4.34806
-3.45655 1.78924 4.33418
-3.47163 1.78909 4.32329
-3.48065 1.79107 4.32133
-3.49177 1.78884 4.30545
-3.50883 1.78973 4.29756
-3.52589 1.79063 4.28967
-3.53898 1.79044 4.27677
-3.55405 1.79032 4.26789
-3.57309 1.79325 4.26199
-3.57915 1.79215 4.25505
-3.59621 1.79304 4.24716
-3.6093 1.79286 4.23426
-3.65057 1.79136 4.19859
-3.68072 1.79208 4.1788
-3.71496 1.79165 4.14806
-3.75424 1.79011 4.11038
-3.77032 1.79098 4.10048
-3.78748 1.78866 4.07865
-3.7986 1.78745 4.06375
-3.83272 1.79022 4.04696
-3.91834 1.78807 3.96562
-3.98173 1.78835 3.91409
-4.02101 1.78781 3.87639
4.64346 1.70727 2.85016
4.61664 1.70464 2.87441
4.6168 1.70895 2.89535
4.59384 1.70406 2.90159
4.593 1.70837 2.92254
4.57029 1.70995 2.96069
4.54849 1.70936 2.98787
4.52679 1.71196 3.027
4.50885 1.70909 3.03518
4.49007 1.71055 3.0653
4.47331 1.71202 3.09641
4.4594 1.71121 3.10853
4.45647 1.71234 3.11754
4.44557 1.71256 3.13162
4.42964 1.7107 3.14076
4.4278 1.71501 3.16172
4.41791 1.71524 3.17679
4.40098 1.71339 3.18595
4.38405 1.71053 3.19512
4.38313 1.7127 3.20609
4.36721 1.71086 3.21624
4.35831 1.71207 3.23029
4.34541 1.71127 3.2434
4.33854 1.71353 3.26043
4.32462 1.7127 3.27154
4.31775 1.71496 3.28856
4.30383 1.71413 3.29968
4.30091 1.71528 3.30969
4.29606 1.71857 3.32868
4.26804 1.71057 3.32801
4.27225 1.71797 3.35487
4.24826 1.71302 3.35713
4.23334 1.71118 3.36727
4.22949 1.71547 3.38724
4.2316 1.71868 3.40117
4.21164 1.71578 3.40737
4.20578 1.71805 3.42538
4.19388 1.71826 3.43847
4.17391 1.71434 3.44368
4.16604 1.7166 3.46071
4.15516 1.71783 3.47577
4.14718 1.71688 3.47885
4.13528 1.71708 3.49194
4.12842 1.71937 3.51096
4.11248 1.7175 3.51911
4.1036 1.71874 3.53516
4.08868 1.7179 3.54528
4.07476 1.71808 3.55639
4.07385 1.72025 3.56836
4.06195 1.72045 3.58145
4.04198 1.71653 3.58566
4.03109 1.71774 3.59973
4.02121 1.71899 3.61578
4.0093 1.71917 3.62787
3.98732 1.71523 3.6311
3.98641 1.71741 3.64307
3.96443 1.71347 3.6463
3.96059 1.71777 3.66627
3.94869 1.71799 3.68035
3.93074 1.71611 3.68752
3.91883 1.71629 3.69961
3.90592 1.71648 3.7117
3.88697 1.71358 3.71789
3.88706 1.71676 3.72984
3.87517 1.71698 3.74393
3.86023 1.71612 3.75306
3.84732 1.71631 3.76515
3.83845 1.71855 3.78119
3.81545 1.71358 3.78244
3.80557 1.71481 3.7975
3.80365 1.71797 3.80847
3.77884 1.71836 3.83365
3.76895 1.72059 3.84869
3.75604 1.72078 3.86079
3.74214 1.72097 3.87289
3.73224 1.72218 3.88695
3.72529 1.72228 3.893
3.69825 1.71524 3.88931
3.68937 1.71747 3.90435
3.67848 1.7187 3.91941
3.66961 1.72195 3.93643
3.65771 1.72215 3.94952
3.63369 1.71714 3.94778
3.63279 1.72034 3.96074
3.62292 1.72258 3.97678
3.59991 1.71758 3.97603
3.59103 1.71984 3.99306
3.58823 1.72621 4.01799
3.56623 1.72124 4.01923
3.54625 1.71829 4.02143
3.54939 1.72357 4.04033
3.51852 1.72184 4.05759
3.51067 1.72613 4.07659
3.47272 1.72027 4.08496
3.47193 1.72767 4.11186
3.43007 1.72397 4.13024
3.39919 1.72225 4.1475
3.39033 1.72552 4.16552
3.36833 1.72153 4.16574
3.3535 1.72489 4.18881
3.30771 1.72332 4.21618
3.18536 1.72468 4.30309
3.15663 1.73022 4.33823
3.12272 1.72642 4.35054
3.10778 1.72657 4.35966
3.063 1.72701 4.38799
2.99935 1.72976 4.43544
2.96254 1.73015 4.46071
2.94559 1.72925 4.46685
2.8889 1.7319 4.50825
2.87005 1.73421 4.52836
2.80832 1.73478 4.56382
2.77845 1.73505 4.58104
2.76947 1.7351 4.58411
2.75149 1.73316 4.58727
2.67584 1.73489 4.63382
2.66787 1.73496 4.63788
2.63699 1.73522 4.65412
2.62105 1.73533 4.66123
2.59018 1.73562 4.67947
2.56033 1.73693 4.69867
2.55234 1.73696 4.70073
2.5235 1.73929 4.72192
2.50655 1.73839 4.72806
2.48959 1.7375 4.7342
2.48076 1.74283 4.75619
2.46177 1.74086 4.75737
2.45075 1.73883 4.75548
2.44294 1.74521 4.78045
2.4219 1.74115 4.77567
2.40495 1.74025 4.78181
2.37103 1.73944 4.79308
2.36019 1.74374 4.8131
2.35017 1.74272 4.81119
2.33219 1.74076 4.81335
2.32032 1.74404 4.8314
2.30438 1.74415 4.83851
2.28335 1.74113 4.83572
2.27453 1.74647 4.85871
2.2435 1.74144 4.85502
2.22957 1.74359 4.86509
2.21262 1.7427 4.87123
2.19566 1.7428 4.87736
2.18277 1.74501 4.89143
2.16581 1.7451 4.89655
2.14783 1.74416 4.8997
2.14394 1.74737 4.91369
2.13106 1.75061 4.92974
2.11205 1.74861 4.92891
2.09612 1.74974 4.93701
2.07915 1.74883 4.94216
2.0622 1.74893 4.94828
2.04422 1.74799 4.95143
2.04134 1.75223 4.96739
2.02031 1.74817 4.96261
2.00233 1.74723 4.96576
1.99148 1.75253 4.98577
1.97045 1.74849 4.98199
1.95552 1.75063 4.99107
1.93958 1.75076 4.99919
1.92161 1.75083 5.00332
1.91263 1.74987 5.0054
1.89871 1.75204 5.01648
1.87869 1.74901 5.01367
1.86274 1.74913 5.02079
1.85089 1.75443 5.04081
1.82985 1.75137 5.03601
1.81392 1.7515 5.04413
1.80593 1.75154 5.04619
1.78795 1.75058 5.04834
1.76998 1.74965 5.05249
1.75506 1.75183 5.06357
1.73913 1.75297 5.07268
1.72113 1.75198 5.07283
1.70418 1.7521 5.07995
1.6962 1.75214 5.08201
1.66127 1.7523 5.09127
1.57157 1.75695 5.13189
1.55255 1.75392 5.12907
1.51862 1.75409 5.13933
1.48265 1.75317 5.14261
1.4657 1.75328 5.14974
1.4238 1.7545 5.16304
1.4058 1.75352 5.16319
1.38988 1.75468 5.1733
1.37292 1.75578 5.17941
1.348 1.75694 5.18958
1.33103 1.75702 5.19371
1.29404 1.75506 5.19501
1.24212 1.75526 5.2064
1.2352 1.75741 5.21643
1.2172 1.75642 5.21658
1.18327 1.75758 5.22582
1.14831 1.75668 5.23109
1.13242 1.76092 5.24615
1.11441 1.75991 5.2453
1.09053 1.76315 5.26044
1.03655 1.76022 5.26289
1.00056 1.75928 5.26517
0.99156 1.75828 5.26525
0.975638 1.76144 5.27533
0.940699 1.76159 5.28359
0.922707 1.76162 5.28473
0.904684 1.75958 5.28189
0.887746 1.76172 5.28999
0.877715 1.75966 5.28609
0.861807 1.76285 5.29817
0.809924 1.76611 5.31351
0.790823 1.76093 5.30073
0.7739 1.76309 5.31083
0.764885 1.76207 5.30891
0.749032 1.76836 5.32794
0.712993 1.76432 5.32327
0.696079 1.76849 5.33434
0.676978 1.76231 5.32157
0.661172 1.77069 5.34657
0.652164 1.76969 5.34565
0.635211 1.77179 5.35175
0.617219 1.77181 5.35289
0.599195 1.76978 5.35005
0.58225 1.7719 5.35715
0.564319 1.77405 5.36625
0.545219 1.76887 5.35347
0.529343 1.77412 5.36952
0.519281 1.771 5.36164
0.502351 1.77415 5.37072
0.484344 1.77315 5.36987
0.466382 1.77424 5.37499
0.449468 1.77741 5.38607
0.431491 1.77847 5.38919
0.413445 1.77539 5.38337
0.404391 1.7733 5.37647
0.386399 1.77332 5.37761
0.368407 1.77335 5.37874
0.351516 1.77757 5.39281
0.332454 1.77447 5.385
0.315478 1.77552 5.38811
0.297602 1.78077 5.40417
0.287424 1.77244 5.38137
0.270564 1.77872 5.3994
0.252618 1.78083 5.40651
0.234533 1.77669 5.3957
0.217627 1.78087 5.40777
0.199627 1.78089 5.40791
0.181635 1.78092 5.40904
0.172721 1.78508 5.42005
0.154783 1.78722 5.42815
0.136659 1.78099 5.41238
0.118675 1.78204 5.4145
0.100676 1.78205 5.41464
0.0826922 1.78309 5.41676
0.0647077 1.78313 5.41889
0.0557852 1.78629 5.42891
0.0264407 1.77667 5.25125
-0.0084573 1.78189 5.26444
-0.017457 1.7819 5.26451
-0.0353718 1.78507 5.2756
-0.0523713 1.78509 5.27572
-0.0703708 1.7851 5.27586
-0.481547 1.78503 5.25396
-0.54349 1.78918 5.26136
-0.561489 1.79019 5.26148
-0.595565 1.78807 5.25177
-0.613533 1.79014 5.25587
-0.620672 1.78388 5.23802
-0.638617 1.78699 5.24511
-0.655662 1.78592 5.23925
-0.674592 1.79007 5.24833
-0.690691 1.78588 5.23552
-0.708651 1.78897 5.24061
-0.725744 1.78481 5.2288
-0.735666 1.78896 5.23881
-0.751742 1.78683 5.22896
-0.768772 1.78578 5.2251
-0.786779 1.78678 5.22423
-0.802855 1.78364 5.21439
-0.819877 1.78361 5.21152
-0.837853 1.78567 5.21463
-0.844946 1.78149 5.20274
-0.864867 1.78666 5.21281
-0.882827 1.78874 5.21792
-0.898927 1.78556 5.20509
-0.916918 1.78659 5.20621
-0.932025 1.78339 5.19236
-0.949063 1.78233 5.18751
-0.968031 1.78441 5.19162
-0.976038 1.7844 5.19068
-0.994036 1.78641 5.19079
-1.01299 1.78951 5.19689
-1.02811 1.78429 5.18107
-1.04514 1.78424 5.1772
-1.06216 1.78421 5.17433
-1.08113 1.78728 5.17843
-1.08725 1.78306 5.16354
-1.10813 1.7893 5.1786
-1.12323 1.78612 5.16576
-1.13931 1.78297 5.15493
-1.1573 1.78501 5.15703
-1.17528 1.78705 5.15914
-1.19136 1.7839 5.1483
-1.20037 1.78489 5.14736
-1.21835 1.78694 5.14946
-1.2354 1.78586 5.14361
-1.25437 1.78893 5.14771
-1.26946 1.78577 5.13586
-1.29036 1.79197 5.14893
-1.30545 1.78981 5.13708
-1.31835 1.79501 5.1501
-1.33148 1.78975 5.13227
-1.35144 1.79384 5.13736
-1.36846 1.79382 5.13549
-1.40252 1.79371 5.12675
-1.42856 1.79466 5.12193
-1.4967 1.79443 5.10344
-1.64005 1.79284 5.05754
-1.65609 1.79277 5.05266
-1.66804 1.79587 5.05871
-1.71719 1.79361 5.03911
-1.74637 1.78929 5.01639
-1.7683 1.79444 5.02548
-1.77438 1.79228 5.01455
-1.79433 1.79538 5.02066
-1.80942 1.79322 5.0088
-1.84251 1.79308 4.99805
-1.85758 1.79194 4.98818
-1.87854 1.79603 4.99328
-1.87874 1.78765 4.9674
-1.90164 1.79486 4.98047
-1.90889 1.78437 4.94768
-1.93669 1.79678 4.97371
-1.94297 1.78525 4.93792
-1.95803 1.78414 4.93005
-1.98584 1.79552 4.95409
-1.99289 1.79442 4.94716
-1.99915 1.78394 4.91436
-2.01717 1.7849 4.91148
-2.03321 1.78483 4.9056
-2.05026 1.78474 4.89873
-2.0673 1.78567 4.89384
-2.0804 1.78249 4.88099
-2.09333 1.78763 4.89001
-2.10938 1.78754 4.88313
-2.12349 1.78435 4.86928
-2.1366 1.78215 4.85541
-2.15656 1.78622 4.8595
-2.17263 1.7851 4.85064
-2.19457 1.79022 4.85773
-2.20374 1.7839 4.83589
-2.2108 1.7828 4.82896
-2.22784 1.78373 4.82307
-2.24585 1.78571 4.82118
-2.26387 1.78769 4.81928
-2.27992 1.7876 4.81241
-2.29597 1.78751 4.80553
-2.31007 1.78533 4.79266
-2.32005 1.78736 4.79471
-2.33612 1.78624 4.78584
-2.35118 1.78613 4.77796
-2.36723 1.78604 4.77108
-2.38329 1.78593 4.7632
-2.40132 1.78689 4.75932
-2.41344 1.78468 4.74444
-2.42737 1.7888 4.75249
-2.44146 1.78765 4.74161
-2.45456 1.78547 4.72874
-2.46962 1.78435 4.71987
-2.48764 1.78631 4.71698
-2.49977 1.78307 4.70011
-2.51287 1.78089 4.68724
-2.52878 1.78708 4.69927
-2.54188 1.78488 4.6854
-2.55498 1.7827 4.67253
-2.57496 1.78674 4.67462
-2.593 1.78768 4.66974
-2.60512 1.78547 4.65486
-2.61821 1.78328 4.64199
-2.63117 1.78738 4.64803
-2.64326 1.7852 4.63515
-2.66524 1.78926 4.63826
-2.69017 1.79639 4.64634
-2.70229 1.79318 4.63148
-2.73046 1.79086 4.60872
-2.77552 1.79578 4.60099
-2.79975 1.79135 4.57123
-2.8168 1.79126 4.56436
-2.82495 1.78697 4.54448
-2.85088 1.79412 4.55357
-2.85003 1.78782 4.53366
-2.86312 1.78666 4.52177
-2.88411 1.79069 4.52287
-2.90313 1.79265 4.51999
-2.90339 1.78317 4.48712
-2.93328 1.7924 4.50121
-2.94439 1.79018 4.48633
-2.94747 1.78702 4.4754
-2.96453 1.78793 4.46851
-2.97663 1.78573 4.45463
-2.99565 1.7887 4.45173
-3.0127 1.78962 4.44584
-3.02678 1.78947 4.43495
-3.03295 1.78414 4.41207
-3.04593 1.78719 4.41513
-3.06495 1.78916 4.41224
-3.07606 1.78694 4.39736
-3.09015 1.78679 4.38646
-3.10325 1.78461 4.37359
-3.11732 1.78447 4.3637
-3.1314 1.78432 4.35281
-3.14536 1.78842 4.35885
-3.16241 1.79033 4.35195
-3.17056 1.78604 4.33207
-3.18662 1.78593 4.32419
-3.19971 1.78576 4.31229
-3.21181 1.78358 4.29941
-3.22787 1.78446 4.29052
-3.23392 1.78337 4.28458
-3.248 1.78322 4.27369
-3.26901 1.78722 4.27279
-3.291 1.79225 4.27388
-3.29717 1.78691 4.251
-3.30928 1.78472 4.23712
-3.32435 1.78559 4.22822
-3.33149 1.78132 4.20934
-3.34645 1.7864 4.21438
-3.36351 1.7873 4.20649
-3.37956 1.7882 4.1996
-3.39562 1.7901 4.19169
-3.41586 1.78464 4.15992
-3.43589 1.78759 4.15602
-3.45899 1.78942 4.14317
-3.4691 1.7872 4.12828
-3.49111 1.7912 4.12738
-3.50223 1.78897 4.1115
-3.51432 1.78881 4.09959
-3.53237 1.78972 4.09271
-3.54347 1.78852 4.07881
-3.54655 1.78637 4.06886
-3.56063 1.78622 4.05797
-3.56679 1.78193 4.03808
-3.58285 1.7838 4.02917
-3.60783 1.78885 4.03128
-3.63301 1.78852 4.00747
-3.64203 1.78948 4.00453
-3.64225 1.78206 3.97663
-3.66129 1.78499 3.97073
-3.68032 1.78794 3.96683
-3.68747 1.78467 3.94793
-3.70749 1.78762 3.94404
-3.71761 1.78641 3.92913
-3.72763 1.78737 3.92619
-3.7308 1.78203 3.90329
-3.75578 1.78808 3.90539
-3.76391 1.78583 3.88848
-3.77503 1.78362 3.8736
-3.79606 1.78758 3.8697
-3.79724 1.78122 3.8458
-3.80428 1.78114 3.83985
-3.82947 1.78079 3.81504
-3.84653 1.78268 3.80714
-3.86756 1.78664 3.80324
-3.87271 1.78234 3.78334
-3.88282 1.78113 3.76843
-3.91089 1.78502 3.75959
-3.92199 1.78482 3.74567
-3.96126 1.78431 3.70997
-4.00063 1.78162 3.6613
-4.01571 1.78248 3.6514
-4.0288 1.78331 3.63948
-4.04387 1.78417 3.62958
-4.05199 1.78194 3.61367
-4.06906 1.78382 3.60477
4.78545 1.6973 2.31817
4.77857 1.69854 2.3342
4.74688 1.69617 2.37548
4.74803 1.70047 2.39541
4.73605 1.69752 2.39855
4.72918 1.69876 2.41458
4.71225 1.69492 2.42477
4.71843 1.70126 2.44763
4.70853 1.70147 2.46171
4.68658 1.69559 2.46896
4.68373 1.69888 2.48794
4.67978 1.69898 2.49496
4.6729 1.70022 2.511
4.65999 1.69841 2.52313
4.6511 1.69864 2.53819
4.63919 1.69783 2.55029
4.63634 1.70111 2.56927
4.62141 1.69827 2.57943
4.62056 1.70157 2.59939
4.61059 1.69963 2.60349
4.59668 1.69781 2.61462
4.58277 1.69599 2.62676
4.57086 1.69518 2.63886
4.56096 1.69539 2.65293
4.5571 1.69766 2.67093
4.55223 1.69992 2.68794
4.53823 1.69594 2.6891
4.53135 1.69719 2.70514
4.51944 1.69637 2.71724
4.5176 1.69967 2.73721
4.50166 1.69782 2.74636
4.4968 1.70009 2.76436
4.4859 1.69929 2.77746
4.47291 1.69631 2.7786
4.47709 1.70266 2.80248
4.45915 1.69879 2.81067
4.45328 1.70105 2.82769
4.44137 1.70024 2.83979
4.42846 1.69942 2.8519
4.4266 1.70271 2.87087
4.4277 1.70588 2.88281
4.40372 1.69996 2.88708
4.39986 1.70223 2.90508
4.39298 1.70447 2.9211
4.37504 1.7006 2.9293
4.37419 1.7049 2.94924
4.36028 1.70409 2.96136
4.34737 1.70326 2.97247
4.3394 1.70134 2.97756
4.33454 1.70461 2.99555
4.31558 1.70071 3.00175
4.31072 1.70398 3.01974
4.30485 1.70624 3.03676
4.29193 1.70441 3.04788
4.28808 1.70871 3.06785
4.28615 1.70984 3.07685
4.2662 1.70595 3.08306
4.25127 1.70411 3.0932
4.24339 1.70533 3.10824
4.23852 1.7086 3.12623
4.21756 1.70369 3.13146
4.21773 1.70902 3.15339
4.21379 1.71014 3.1614
4.19182 1.70522 3.16564
4.18091 1.70542 3.17872
4.16599 1.70358 3.18886
4.15308 1.70376 3.20096
4.15425 1.70909 3.22287
4.13328 1.70418 3.22811
4.13438 1.70735 3.24005
4.11743 1.70548 3.24821
4.10754 1.7057 3.26228
4.09966 1.70794 3.27831
4.09078 1.70917 3.29336
4.07282 1.70627 3.29954
4.05588 1.7034 3.30771
4.06302 1.70966 3.32557
4.04709 1.70781 3.33472
4.04021 1.71005 3.35074
4.03233 1.71229 3.36677
4.01438 1.70941 3.37394
4.0065 1.71165 3.38997
3.98955 1.70877 3.39714
3.97664 1.70794 3.40826
3.97774 1.71213 3.42119
3.95878 1.70824 3.42739
3.9509 1.71048 3.44342
3.94101 1.71169 3.45747
3.93615 1.71498 3.47647
3.91316 1.71001 3.47771
3.89723 1.70815 3.48686
3.8953 1.7103 3.49685
3.88339 1.71049 3.50893
3.87552 1.71273 3.52496
3.86361 1.71292 3.53705
3.84969 1.71209 3.54817
3.83073 1.70918 3.55336
3.82285 1.71142 3.56938
3.81689 1.71152 3.57543
3.80599 1.71272 3.58849
3.80014 1.716 3.60749
3.77311 1.70898 3.6048
3.76119 1.70915 3.61589
3.74928 1.70933 3.62798
3.73738 1.71054 3.64105
3.73344 1.71064 3.64808
3.72053 1.71083 3.66018
3.69085 1.71549 3.70334
3.65806 1.71491 3.7306
3.61225 1.71233 3.75698
3.60337 1.71356 3.77203
2.92932 1.72778 4.29897
2.91843 1.72999 4.31303
2.89057 1.7303 4.33223
2.85666 1.7285 4.34452
2.84084 1.73185 4.36759
2.82285 1.72989 4.36975
2.60185 1.73399 4.50238
2.58489 1.73308 4.50752
2.34098 1.74239 4.65324
2.32808 1.74459 4.66631
2.31517 1.74578 4.67839
2.29415 1.74275 4.67559
2.27718 1.74082 4.67975
2.26631 1.74508 4.69677
2.24323 1.73895 4.68703
2.24849 1.75043 4.71983
2.22542 1.74432 4.71109
2.21048 1.74545 4.71919
2.19962 1.74872 4.73722
2.18061 1.74673 4.7374
2.16873 1.74996 4.75244
2.15381 1.75112 4.76254
2.13479 1.74811 4.76072
2.12681 1.74816 4.76378
2.10783 1.7462 4.76596
2.09493 1.7494 4.77901
2.06506 1.75169 4.7972
2.05013 1.75182 4.80531
2.02009 1.74678 4.80161
2.00719 1.74999 4.81466
1.99124 1.75009 4.82078
1.97632 1.75124 4.83088
1.95833 1.75029 4.83303
1.94441 1.75145 4.84312
1.92948 1.75259 4.85222
1.91334 1.74534 4.83444
1.90352 1.7517 4.85843
1.88962 1.7549 4.87149
1.87059 1.75085 4.86769
1.83768 1.75106 4.87993
1.82275 1.7532 4.88902
1.80576 1.75124 4.89117
1.78186 1.75344 4.90332
1.74996 1.75365 4.91656
1.67512 1.75403 4.93912
1.6381 1.74902 4.93648
1.5195 1.75589 4.99027
1.5015 1.75389 4.98944
1.48454 1.75499 4.99555
1.47553 1.75298 4.99465
1.45753 1.75098 4.99382
1.44364 1.75521 5.00886
1.42562 1.75318 5.00602
1.40866 1.75326 5.01115
1.39374 1.75544 5.02223
1.29885 1.75271 5.03699
1.28288 1.75279 5.04111
1.26798 1.75599 5.05418
1.25099 1.75603 5.0563
1.22399 1.75405 5.05654
1.20806 1.7562 5.06563
1.19211 1.7563 5.07175
1.17308 1.75425 5.06792
1.14325 1.7596 5.09007
1.13219 1.75649 5.0822
1.11626 1.75863 5.09129
1.09822 1.75559 5.08747
1.04833 1.75683 5.10183
1.03342 1.76102 5.11388
1.02338 1.75794 5.108
1.0064 1.75799 5.11113
0.922586 1.76141 5.13571
0.897632 1.76252 5.14188
0.879625 1.76151 5.14103
0.861632 1.76054 5.14218
0.844632 1.75956 5.14233
0.736942 1.76923 5.183
0.719973 1.7693 5.18713
0.700872 1.76412 5.17435
0.586865 1.76019 5.17426
0.569927 1.76232 5.18236
0.528043 1.76557 5.19763
0.509982 1.76247 5.18981
0.496245 1.77398 5.22375
0.478222 1.77295 5.2209
0.45799 1.76152 5.19122
0.452223 1.77197 5.22111
0.435277 1.77408 5.22821
0.418293 1.77412 5.23033
0.401355 1.77725 5.23842
0.383355 1.77627 5.23857
0.365255 1.77209 5.22576
0.348371 1.77632 5.24083
0.340402 1.77739 5.24488
0.322379 1.77636 5.24203
0.305387 1.77638 5.24315
0.286217 1.76807 5.22142
0.269241 1.76913 5.22453
0.253505 1.78164 5.25847
0.234296 1.77126 5.23176
0.216196 1.76608 5.21897
0.208274 1.77023 5.22897
0.191274 1.77024 5.2291
0.173305 1.77132 5.23322
0.157492 1.77968 5.25722
0.139492 1.7797 5.25736
0.122554 1.78183 5.26545
0.104338 1.77243 5.23773
0.0966244 1.78498 5.2746
0.0786174 1.78498 5.27374
0.06037 1.77352 5.24204
-0.690849 1.7876 5.08147
-0.698872 1.78657 5.07855
-0.730033 1.78028 5.05787
-0.749908 1.78753 5.07392
-0.765953 1.78645 5.06805
-0.783929 1.78851 5.07116
-0.799021 1.78434 5.05933
-0.808974 1.78744 5.06536
-0.82598 1.78844 5.06447
-0.843002 1.7884 5.0616
-0.858095 1.78424 5.04978
-0.876071 1.78629 5.05288
-0.893093 1.78626 5.05001
-0.910115 1.78623 5.04714
-0.917169 1.78413 5.04022
-0.934159 1.78616 5.04132
-0.952158 1.78717 5.04144
-0.986156 1.7892 5.04167
-1.00319 1.78915 5.03779
-1.02118 1.79018 5.03892
-1.02728 1.78599 5.02602
-1.04526 1.78803 5.02813
-1.06227 1.78902 5.02624
-1.07638 1.78482 5.01241
-1.0963 1.79 5.02348
-1.11138 1.78784 5.01263
-1.13033 1.79095 5.01872
-1.17044 1.78875 5.00406
-1.18747 1.78871 5.00018
-1.2045 1.78866 4.99631
-1.22149 1.7907 4.99841
-1.23853 1.78963 4.99255
-1.25359 1.78852 4.98468
-1.26454 1.79163 4.99172
-1.28058 1.79155 4.98584
-1.34573 1.7893 4.96636
-1.38878 1.79125 4.96066
-1.47996 1.79094 4.93635
-1.74254 1.79198 4.8603
-1.75956 1.79295 4.85741
-1.8077 1.79271 4.83978
-1.83275 1.79363 4.83295
-1.84878 1.79357 4.82807
-1.86582 1.7935 4.8232
-1.88187 1.79343 4.81732
-1.89498 1.79022 4.80246
-1.91903 1.79113 4.79563
-1.93901 1.79419 4.79874
-1.96914 1.79194 4.78099
-1.98518 1.79288 4.7761
-2.00026 1.79074 4.76624
-2.01532 1.79064 4.75836
-2.02334 1.7906 4.75542
-2.03938 1.79054 4.75054
-2.0574 1.7925 4.74765
-2.07442 1.79347 4.74476
-2.09145 1.79441 4.73987
-2.10651 1.7933 4.732
-2.20687 1.79167 4.68478
-2.2339 1.79363 4.68095
-2.24895 1.79353 4.67406
-2.266 1.79446 4.66818
-2.27907 1.79332 4.65829
-2.32429 1.79094 4.63066
-2.34131 1.79189 4.62678
-2.36537 1.79279 4.61895
-2.39945 1.79466 4.60917
-2.42957 1.79444 4.5924
-2.62834 1.79305 4.4909
-2.72574 1.79334 4.43863
-2.73982 1.79219 4.42775
-2.74884 1.79316 4.4258
-2.77699 1.79189 4.40603
-2.83724 1.79243 4.37247
-2.86132 1.7933 4.36264
-2.91959 1.79279 4.32608
-3.00811 1.78884 4.2578
-3.03825 1.78959 4.24001
-3.13467 1.79082 4.18371
-3.21208 1.79107 4.13028
-3.24023 1.7908 4.1105
-3.36394 1.78948 4.01643
-3.4243 1.78882 3.96889
-3.537 1.78751 3.87575
4.39699 1.70456 2.65703
4.38121 1.706 2.68614
4.38028 1.70713 2.69513
4.34053 1.70365 2.72848
4.34069 1.70796 2.74942
4.32677 1.70612 2.75955
4.31989 1.70736 2.77559
4.30504 1.70767 2.7957
4.29816 1.70891 2.81174
4.28121 1.70603 2.81891
4.27534 1.70828 2.83592
4.26846 1.70952 2.85196
4.26057 1.71074 2.866
4.24657 1.70675 2.86616
4.23666 1.70695 2.87924
4.23683 1.71227 2.90116
4.21401 1.71064 2.92536
4.2021 1.71083 2.93745
4.19925 1.71411 2.95642
4.19229 1.71319 2.96149
4.17047 1.71358 2.98665
4.14666 1.71195 3.01086
4.13776 1.71317 3.02491
4.12283 1.71131 3.03405
4.09522 1.7161 3.0862
4.05849 1.71465 3.1215
4.0506 1.71587 3.13654
4.04263 1.71494 3.14062
4.03676 1.71819 3.15762
4.02082 1.71532 3.16578
4.01093 1.71654 3.17984
4.00304 1.71777 3.19488
3.98308 1.71386 3.20009
3.97519 1.71508 3.21513
3.96016 1.71105 3.21231
3.96135 1.7174 3.23621
3.94641 1.71553 3.24435
3.93752 1.71676 3.2594
3.92157 1.71388 3.26656
3.91168 1.71509 3.28062
3.90178 1.71629 3.29368
3.89582 1.71638 3.29972
3.87484 1.71144 3.30296
3.88308 1.7209 3.33376
3.85908 1.71492 3.33403
3.85321 1.71817 3.35103
3.85239 1.72351 3.37396
3.83946 1.72367 3.38405
3.82646 1.71968 3.38421
3.80868 1.72312 3.4133
3.79072 1.72021 3.41848
3.78183 1.72144 3.43353
3.76791 1.7206 3.44365
3.75095 1.7187 3.4498
3.75416 1.72609 3.47667
3.74014 1.72207 3.47484
3.72419 1.72019 3.48199
3.72035 1.72449 3.50195
3.69835 1.71952 3.50319
3.68443 1.71868 3.51331
3.65253 1.71491 3.52761
3.65363 1.7181 3.54056
3.64374 1.72031 3.5546
3.62376 1.71637 3.55781
3.61386 1.71759 3.57187
3.60599 1.71983 3.5879
3.59004 1.71795 3.59505
3.57107 1.71502 3.59923
3.57318 1.71923 3.61316
3.55623 1.71734 3.62031
3.53826 1.71341 3.62451
3.53442 1.71873 3.64546
3.5215 1.7189 3.65656
3.50857 1.71804 3.66567
3.50171 1.72231 3.68366
3.48363 1.71519 3.6749
3.47576 1.71845 3.69191
3.45982 1.71657 3.69906
3.44588 1.71571 3.70818
3.42993 1.71381 3.71433
3.41903 1.71503 3.7284
3.38825 1.71646 3.75661
3.36341 1.71679 3.7778
3.35352 1.71902 3.79284
3.33757 1.71712 3.79899
3.32566 1.71831 3.81106
3.30969 1.71639 3.81621
3.30375 1.7165 3.82326
3.23712 1.71728 3.87275
3.22521 1.71746 3.88484
3.18352 1.7211 3.92611
3.15566 1.72039 3.94433
3.10791 1.72091 3.97769
3.097 1.72211 3.99075
3.06913 1.72138 4.00798
2.96768 1.72352 4.08072
2.94779 1.72476 4.09585
2.9369 1.72697 4.1099
2.90701 1.72522 4.12516
2.89714 1.72846 4.14119
2.79062 1.72849 4.206
2.77467 1.72759 4.21213
2.77073 1.72972 4.22113
2.75985 1.73295 4.23617
2.74086 1.72898 4.23737
2.70108 1.73146 4.26764
2.68512 1.73054 4.27277
2.68121 1.73371 4.28375
2.66727 1.73384 4.29186
2.65029 1.73189 4.29502
2.63231 1.72995 4.29818
2.61939 1.73011 4.30828
2.60445 1.73024 4.31639
2.59762 1.73657 4.33835
2.58355 1.73146 4.33053
2.57368 1.7347 4.34656
2.55569 1.73275 4.34872
2.54481 1.73599 4.36476
2.53188 1.73713 4.37384
2.51492 1.73522 4.379
2.49895 1.73429 4.38313
2.474 1.73241 4.39035
2.45021 1.73783 4.41745
2.43933 1.74107 4.43349
2.42336 1.74014 4.43762
2.40334 1.73612 4.43483
2.39551 1.74246 4.4578
2.38447 1.7384 4.45294
2.36548 1.73642 4.45412
2.36272 1.74588 4.485
2.34372 1.7429 4.48519
2.32369 1.73885 4.4814
2.31383 1.74314 4.50041
2.29787 1.74323 4.50553
2.28582 1.73915 4.49968
2.28307 1.74962 4.53155
2.25999 1.74249 4.52183
2.23998 1.73949 4.52103
2.23418 1.74687 4.54596
2.21415 1.74284 4.54317
2.19819 1.74192 4.54831
2.19531 1.74716 4.56425
2.17832 1.74519 4.56541
2.16339 1.74633 4.57451
2.15456 1.75266 4.59648
2.12943 1.74345 4.58081
2.11347 1.74253 4.58594
2.10768 1.75094 4.61287
2.08766 1.74792 4.61106
2.07254 1.7407 4.59528
2.06779 1.75119 4.62816
2.04469 1.74301 4.61546
2.02874 1.74311 4.62158
2.02092 1.75047 4.64553
2.00395 1.74954 4.64967
1.98594 1.74754 4.64884
1.98204 1.75072 4.66082
1.95996 1.74459 4.65108
1.95217 1.75301 4.67901
1.93519 1.75205 4.68116
1.91209 1.74388 4.66845
1.89917 1.74605 4.67952
1.88832 1.75235 4.69951
1.87625 1.74722 4.68967
1.85928 1.74629 4.69382
1.85046 1.75365 4.71778
1.83041 1.74856 4.711
1.81342 1.7476 4.71314
1.80463 1.75601 4.74009
1.78254 1.74885 4.72836
1.77454 1.74887 4.72942
1.76064 1.75105 4.7415
1.74365 1.7501 4.74364
1.73381 1.75641 4.76462
1.71377 1.75235 4.75983
1.69883 1.75347 4.76693
1.68083 1.75148 4.76709
1.6659 1.75263 4.77619
1.65791 1.75266 4.77825
1.64091 1.75067 4.77841
1.62804 1.75594 4.79543
1.609 1.75188 4.79063
1.59202 1.75093 4.79377
1.57913 1.75415 4.80783
1.56111 1.75212 4.80499
1.55212 1.75114 4.80607
1.53716 1.75224 4.81217
1.51916 1.75025 4.81234
1.50115 1.74825 4.8115
1.48723 1.75041 4.82158
1.47229 1.75154 4.82967
1.45737 1.7537 4.83975
1.44837 1.7527 4.83984
1.43446 1.75589 4.8519
1.41745 1.75389 4.85105
1.4015 1.75499 4.85716
1.38658 1.75715 4.86724
1.36649 1.751 4.85648
1.35157 1.75316 4.86656
1.34564 1.7563 4.87556
1.32761 1.75326 4.87274
1.31167 1.75539 4.88083
1.29674 1.75754 4.88991
1.27976 1.75658 4.89206
1.2617 1.75249 4.88525
1.24679 1.75566 4.89632
1.2378 1.75469 4.8974
1.22388 1.75786 4.90846
1.20482 1.75375 4.90066
1.18992 1.75696 4.91373
1.17395 1.75703 4.91785
1.158 1.75814 4.92496
1.141 1.75716 4.9251
1.12609 1.76033 4.93617
1.11396 1.75309 4.91936
1.10215 1.76146 4.94433
1.08618 1.76154 4.94845
1.06402 1.75224 4.92775
1.05221 1.76062 4.95272
1.03314 1.7565 4.94392
1.01719 1.7576 4.95003
1.01024 1.75971 4.95705
0.992211 1.75666 4.95323
0.976234 1.75672 4.95635
0.960289 1.75884 4.96344
0.945397 1.76305 4.97749
0.929428 1.76312 4.98161
0.911412 1.76111 4.97978
0.904466 1.76322 4.9868
0.886443 1.76118 4.98397
0.872559 1.76642 4.99899
0.85452 1.76336 4.99417
0.836474 1.76028 4.98836
0.817373 1.7551 4.97557
0.803551 1.76245 4.99857
0.795575 1.7635 5.00162
0.779598 1.76356 5.00474
0.762598 1.76257 5.00488
0.745629 1.76364 5.00899
0.730745 1.76787 5.02404
0.712675 1.76376 5.01524
0.696768 1.76794 5.0273
0.68773 1.76588 5.0224
0.670722 1.76387 5.02156
0.655854 1.77014 5.03858
0.638838 1.76812 5.03674
0.619722 1.76191 5.02197
0.604838 1.76714 5.03701
0.588893 1.76926 5.0441
0.570831 1.76615 5.03628
0.562916 1.76932 5.04729
0.54697 1.77144 5.05438
0.531025 1.77355 5.06147
0.514048 1.77361 5.0646
0.497033 1.77259 5.06274
0.481118 1.77577 5.07382
0.464103 1.77475 5.07196
0.455072 1.7737 5.06804
0.438041 1.77165 5.0642
0.421127 1.77483 5.07528
0.404104 1.77379 5.07242
0.388189 1.77697 5.0835
0.371151 1.77491 5.07866
0.354159 1.77493 5.07979
0.346267 1.78015 5.09377
0.312283 1.7802 5.09602
0.29526 1.77817 5.09318
0.278222 1.77611 5.08834
0.2613 1.78027 5.09841
0.244277 1.77824 5.09557
0.236339 1.78136 5.10358
0.202301 1.77931 5.09887
0.185293 1.77831 5.09801
0.168294 1.77832 5.09814
0.15124 1.77623 5.0913
0.134349 1.78045 5.10536
0.117319 1.7794 5.10151
0.0913658 1.78151 5.10767
-0.86099 1.78548 4.93076
-0.877988 1.78649 4.93088
-0.893065 1.78335 4.92103
-0.927039 1.78742 4.92423
-0.960068 1.78739 4.92048
-1.01813 1.7883 4.9119
-1.04926 1.78508 4.89618
-1.14033 1.78798 4.88582
-1.26353 1.78867 4.85974
-1.35268 1.78944 4.8404
-2.10853 1.79231 4.59701
-2.13964 1.79212 4.58325
-2.24699 1.7915 4.53706
-2.30524 1.78904 4.50353
-2.57217 1.79238 4.38048
-2.60129 1.79217 4.3647
-2.74188 1.79212 4.28775
-2.77606 1.79077 4.26302
-2.82024 1.79146 4.24034
-2.91268 1.79066 4.18204
-3.18209 1.78805 3.99508
-3.31685 1.78766 3.89509
4.51093 1.69945 2.2492
4.42404 1.70169 2.39684
4.4132 1.70302 2.4189
4.38636 1.69935 2.44016
4.3855 1.70263 2.45912
4.36857 1.69978 2.46829
4.36671 1.70305 2.48626
4.34266 1.69398 2.48058
4.34296 1.70255 2.51945
4.34209 1.70582 2.53741
4.32128 1.70521 2.56258
4.30234 1.70134 2.57078
4.29437 1.6994 2.57487
4.28748 1.70063 2.58991
4.28261 1.70287 2.60591
4.27673 1.70511 2.62193
4.26481 1.70328 2.63305
4.24284 1.69837 2.63828
4.23797 1.70061 2.65429
4.23402 1.70072 2.66132
4.22713 1.70195 2.67636
4.21924 1.70316 2.6904
4.20732 1.70133 2.70152
4.18636 1.69744 2.70773
4.2006 1.70787 2.73748
4.16354 1.6958 2.73093
4.17375 1.70419 2.75774
4.15974 1.7002 2.7579
4.15587 1.70345 2.77488
4.14899 1.70469 2.79092
4.13205 1.70181 2.79809
4.12717 1.70405 2.8141
4.12331 1.70732 2.83208
4.1134 1.70752 2.84515
4.10644 1.7066 2.85022
4.09352 1.70576 2.86033
4.08965 1.70902 2.87831
4.07572 1.70617 2.88746
4.06381 1.70635 2.89955
4.06296 1.71064 2.9185
4.04702 1.70777 2.92666
4.0471 1.71093 2.93762
4.04324 1.7142 2.9556
4.03031 1.71236 2.96572
4.0033 1.70536 2.96503
4.00145 1.70966 2.98498
3.99457 1.71089 3.00002
3.99171 1.71515 3.01798
3.9777 1.71115 3.01715
3.97585 1.71545 3.0371
3.94598 1.71174 3.05538
3.93305 1.70988 3.06451
3.91325 1.71128 3.09064
3.91132 1.71343 3.10062
3.88044 1.70869 3.11693
3.88464 1.71707 3.14278
3.87473 1.71725 3.15485
3.85476 1.71333 3.15906
3.83982 1.71046 3.16722
3.84805 1.72089 3.197
3.83001 1.71483 3.19223
3.80802 1.70886 3.19348
3.8102 1.71622 3.21736
3.78922 1.71128 3.22059
3.78536 1.71455 3.23857
3.78654 1.72089 3.26148
3.74742 1.70771 3.24796
3.73643 1.70473 3.24909
3.7366 1.71006 3.27101
3.72771 1.71227 3.28505
3.72587 1.71758 3.30599
3.69783 1.70854 3.30233
3.68591 1.7087 3.31242
3.68105 1.71197 3.33041
3.67207 1.71102 3.33349
3.66116 1.71121 3.34557
3.6573 1.71549 3.36454
3.64438 1.71465 3.37465
3.62036 1.70764 3.37294
3.61651 1.71192 3.39191
3.61266 1.71722 3.41186
3.58957 1.70806 3.40017
3.58168 1.71029 3.4152
3.56976 1.71046 3.42629
3.56995 1.71681 3.45019
3.534 1.70996 3.45857
3.51906 1.70909 3.46669
3.51522 1.71339 3.48666
3.46846 1.7109 3.51906
3.45856 1.71211 3.53311
3.45068 1.71434 3.54814
3.44986 1.72168 3.57104
3.43079 1.71456 3.56229
3.41786 1.71372 3.5724
3.40998 1.71696 3.58842
3.38413 1.71627 3.60862
3.37221 1.71643 3.61871
3.28668 1.71441 3.68139
3.22901 1.71511 3.72583
3.21811 1.71631 3.73889
3.20418 1.71545 3.74801
3.19528 1.71766 3.76205
3.16347 1.71806 3.78728
3.1049 1.72293 3.84366
3.09187 1.71889 3.84082
3.07895 1.71905 3.85091
3.05512 1.72139 3.87306
3.0123 1.71978 3.89741
3.00937 1.72192 3.9064
2.9924 1.72 3.91156
2.98958 1.72634 3.93449
2.96856 1.72133 3.93272
2.9308 1.72282 3.96399
2.92282 1.72287 3.96705
2.91394 1.7261 3.98207
2.88304 1.72333 3.99635
2.8582 1.72565 4.0175
2.84224 1.72374 4.02265
2.84032 1.7269 4.03362
2.8274 1.72806 4.0437
2.80841 1.72409 4.04491
2.80256 1.72939 4.06487
