-2.08527 1.78768 4.89275
-2.09936 1.78552 4.88088
-2.10168 1.7719 4.8391
-2.12165 1.77597 4.84319
-2.13574 1.77381 4.83132
-2.15278 1.77474 4.82644
-2.16981 1.77468 4.82157
-2.17587 1.77358 4.81463
-2.19486 1.7766 4.81473
-2.21289 1.77755 4.81085
-2.22402 1.77331 4.79399
-2.23911 1.77215 4.78312
-2.25908 1.77621 4.78621
-2.27415 1.77509 4.77734
-2.27826 1.77089 4.76343
-2.29724 1.77393 4.76553
-2.31428 1.77485 4.75964
-2.32935 1.77373 4.75077
-2.34442 1.77361 4.74189
-2.36637 1.77871 4.74798
-2.3726 1.76927 4.71816
-2.38652 1.77543 4.72817
-2.4006 1.77328 4.71731
-2.41961 1.77628 4.71641
-2.43369 1.77513 4.70553
-2.44975 1.77502 4.69765
-2.4658 1.77494 4.69177
-2.48087 1.77481 4.68189
-2.49086 1.77684 4.68393
-2.50495 1.77467 4.67207
-2.51312 1.76834 4.64922
-2.53804 1.77652 4.66029
-2.5541 1.7764 4.65141
-2.56817 1.77528 4.64253
-2.58325 1.77414 4.63266
-2.59423 1.77718 4.6347
-2.60338 1.77189 4.61485
-2.6293 1.77905 4.62494
-2.63746 1.77375 4.60407
-2.64761 1.76948 4.58521
-2.67647 1.77975 4.60228
-2.69056 1.77859 4.5914
-2.71055 1.78261 4.59149
-2.72575 1.77624 4.5657
-2.79787 1.78404 4.54912
-2.81294 1.78391 4.54024
-2.81701 1.78178 4.5313
-2.82913 1.77856 4.51543
-2.84618 1.77948 4.50955
-2.86223 1.78039 4.50265
-2.87631 1.77923 4.49178
-2.89533 1.7822 4.48887
-2.90546 1.77896 4.472
-2.91559 1.77472 4.45513
-2.92953 1.77983 4.46216
-2.93868 1.77555 4.44329
-2.95178 1.77437 4.43041
-2.97178 1.77737 4.42951
-2.98487 1.77622 4.41863
-2.99599 1.77399 4.40274
-3.02192 1.78113 4.41083
-3.01513 1.77172 4.38392
-3.03218 1.77263 4.37703
-3.05416 1.77768 4.37912
-3.07219 1.77963 4.37523
-3.07244 1.77016 4.34337
-3.10134 1.77937 4.35645
-3.11147 1.77611 4.33857
-3.11653 1.775 4.33063
-3.13061 1.77486 4.32073
-3.14864 1.7768 4.31584
-3.15976 1.77458 4.30095
-3.17186 1.7724 4.28808
-3.18595 1.77223 4.27618
-3.20101 1.77211 4.2673
-3.20904 1.77307 4.26434
-3.22113 1.77189 4.25145
-3.24214 1.77589 4.25055
-3.25325 1.77367 4.23566
-3.27525 1.77769 4.23577
-3.28537 1.77546 4.21988
-3.29945 1.77531 4.20898
-3.30451 1.77319 4.20105
-3.32057 1.77509 4.19314
-3.33267 1.7729 4.18026
-3.34972 1.77483 4.17436
-3.37171 1.77984 4.17446
-3.37491 1.77246 4.14859
-3.39196 1.77438 4.14268
-3.40703 1.77525 4.13278
-3.4101 1.77311 4.12384
-3.4222 1.77192 4.10994
-3.44123 1.77487 4.10604
-3.4563 1.77575 4.09714
-3.47137 1.77561 4.08726
-3.49041 1.77855 4.08236
-3.49656 1.77426 4.06246
-3.50262 1.77316 4.05552
-3.51966 1.77508 4.04962
-3.53077 1.77387 4.03472
-3.53891 1.77061 4.01683
-3.55893 1.77458 4.01392
-3.56904 1.77236 3.99903
-3.57719 1.76809 3.98015
-3.59412 1.77422 3.98819
-3.60425 1.77199 3.9723
-3.6104 1.7677 3.9524
-3.63439 1.77373 3.95349
-3.65441 1.77769 3.94959
-3.66057 1.77339 3.92969
-3.66969 1.77116 3.91379
-3.67683 1.76689 3.89491
-3.69081 1.77094 3.89795
-3.70984 1.77488 3.89304
-3.71797 1.77164 3.87614
-3.73801 1.77458 3.87125
-3.74812 1.77336 3.85634
-3.76517 1.77527 3.84944
-3.76835 1.76993 3.82654
-3.77836 1.77191 3.82459
-3.79145 1.77174 3.81269
-3.80454 1.77157 3.80079
-3.81565 1.77037 3.78689
-3.84163 1.77642 3.78899
-3.83389 1.76591 3.75509
-3.85689 1.77092 3.75418
-3.86592 1.77286 3.75022
-3.87207 1.76859 3.73133
-3.88019 1.76636 3.71542
-3.90221 1.77133 3.71251
-3.90736 1.76704 3.69261
-3.93235 1.77407 3.6937
-3.9385 1.76978 3.67381
-3.95357 1.77165 3.66489
-3.96161 1.77159 3.65995
-3.9737 1.7714 3.64704
-3.98182 1.76917 3.63113
-3.99889 1.77105 3.62223
-4.00702 1.7688 3.60533
-4.02209 1.77067 3.59541
-4.0322 1.76947 3.5815
-4.0442 1.77246 3.58055
-4.06027 1.77334 3.57166
-4.06145 1.768 3.54874
-4.08347 1.77296 3.54483
-4.0916 1.77071 3.52792
-4.1037 1.77053 3.51502
-4.11281 1.76931 3.5001
-4.12284 1.77127 3.49715
-4.13989 1.77317 3.48925
-4.15795 1.77606 3.48134
-4.16409 1.7728 3.46343
-4.17321 1.77157 3.44752
-4.18431 1.77139 3.4346
-4.19939 1.77223 3.4237
-4.21555 1.77093 3.40284
-4.23162 1.7728 3.39293
-4.24471 1.77363 3.38101
-4.28912 1.77185 3.32637
4.51076 1.70192 2.75303
4.42078 1.70499 2.88868
4.41591 1.70724 2.90568
4.39797 1.70438 2.91386
4.39109 1.70562 2.9299
4.39017 1.70777 2.93988
4.37524 1.70593 2.95002
4.33567 1.70778 3.0063
4.32678 1.70801 3.02136
4.31294 1.70933 3.04245
4.30405 1.71056 3.0575
4.28712 1.70771 3.06667
4.27923 1.70894 3.08171
4.26732 1.70912 3.0938
4.25341 1.70729 3.10494
4.24452 1.70852 3.11999
4.2436 1.71067 3.12996
4.22767 1.70883 3.14011
4.22179 1.71107 3.15613
4.20988 1.71026 3.16823
4.19697 1.71045 3.18032
4.18506 1.70963 3.19243
4.17518 1.71086 3.20749
4.15814 1.70482 3.2037
4.15429 1.7091 3.22267
4.1444 1.70933 3.23775
4.13652 1.71156 3.25277
4.11455 1.70663 3.25701
4.11069 1.70992 3.276
4.09576 1.70806 3.28514
4.09283 1.7102 3.29413
4.07992 1.70938 3.30624
4.07405 1.71264 3.32324
4.05107 1.7067 3.3265
4.04721 1.71098 3.34547
4.0343 1.71016 3.35658
4.01937 1.70932 3.36671
3.99739 1.70438 3.36994
3.9995 1.70758 3.38388
3.97953 1.70466 3.38808
3.97668 1.70795 3.40805
3.96175 1.70711 3.41818
3.95488 1.70937 3.4352
3.94801 1.71263 3.45221
3.92503 1.70767 3.45445
3.91403 1.7047 3.45558
3.91019 1.70899 3.47555
3.89324 1.70611 3.48272
3.89241 1.71144 3.50465
3.87647 1.70958 3.5138
3.86154 1.70873 3.52292
3.84258 1.70581 3.52811
3.84469 1.71002 3.54203
3.82976 1.70918 3.55216
3.82591 1.71248 3.57214
3.81098 1.71162 3.58127
3.79907 1.71181 3.59336
3.77608 1.70684 3.59461
3.77425 1.71217 3.61654
3.76124 1.70916 3.61569
3.75538 1.71245 3.63468
3.74045 1.71159 3.64381
3.71946 1.70664 3.64604
3.70957 1.70885 3.66009
3.70271 1.71214 3.67909
3.67789 1.7125 3.70228
3.67294 1.7126 3.70931
3.64509 1.71192 3.72954
3.63419 1.71312 3.7426
3.59342 1.71261 3.77392
3.58243 1.71063 3.77503
3.57153 1.71083 3.78812
3.46729 1.71539 3.88885
3.37576 1.71439 3.95256
3.33803 1.71593 3.98783
3.30321 1.71631 4.01209
3.28647 1.72183 4.04614
3.27558 1.72406 4.06119
3.21673 1.7184 4.08172
3.18889 1.71872 4.10192
2.99595 1.72294 4.24433
2.98101 1.72307 4.25245
2.95215 1.72336 4.27066
2.76606 1.72727 4.39202
2.73328 1.72971 4.42024
2.71429 1.72775 4.42241
2.68543 1.72804 4.44063
2.64961 1.73042 4.46486
2.61872 1.72967 4.48011
2.60581 1.73085 4.49219
2.57694 1.73213 4.50939
2.52417 1.73361 4.53977
2.49226 1.73181 4.55204
2.46036 1.73203 4.56528
2.42454 1.73339 4.58853
2.39466 1.73465 4.60474
2.38176 1.73585 4.61782
2.36276 1.73387 4.618
2.3558 1.73496 4.62403
2.32898 1.73832 4.64719
2.30998 1.73534 4.64738
2.2981 1.73858 4.66342
2.28317 1.73972 4.67252
2.26518 1.73777 4.67468
2.25618 1.73677 4.67476
2.24837 1.74313 4.69873
2.23446 1.74532 4.7108
2.21137 1.73918 4.70007
2.19542 1.73828 4.7062
2.18864 1.74671 4.73513
2.17472 1.74887 4.74521
2.16369 1.74583 4.74233
2.14977 1.74699 4.75242
2.13687 1.75019 4.76548
2.11482 1.74511 4.75872
2.09173 1.73796 4.74799
2.09005 1.75157 4.78881
2.07001 1.74752 4.78502
2.06103 1.74756 4.78709
2.04711 1.74973 4.79816
1.58517 1.74513 4.94073
1.21502 1.75204 5.05443
1.19805 1.75211 5.05856
1.18417 1.75736 5.07459
1.16824 1.7595 5.08368
1.1582 1.75644 5.0788
1.14019 1.75442 5.07696
1.12323 1.75551 5.08208
1.10625 1.75556 5.0852
1.07435 1.75778 5.09841
1.05634 1.75678 5.09756
1.04837 1.75684 5.10162
1.03141 1.75793 5.10674
1.01339 1.7559 5.1039
0.998513 1.76114 5.11994
0.981505 1.75914 5.1191
0.963489 1.75713 5.11726
0.948613 1.76237 5.1333
0.940667 1.76448 5.14033
0.901458 1.75311 5.11379
0.885528 1.75526 5.12288
0.867519 1.75326 5.12204
0.835659 1.75854 5.14021
0.825628 1.75649 5.13631
0.807597 1.75445 5.13248
0.774682 1.75663 5.14369
0.740744 1.75778 5.15193
0.725845 1.76198 5.16499
0.718976 1.76724 5.18196
0.703046 1.77038 5.19104
0.68183 1.75998 5.16335
0.667023 1.76736 5.18835
0.645791 1.75594 5.15868
0.629891 1.76014 5.17174
0.612876 1.75912 5.16988
0.594845 1.75708 5.16605
0.586908 1.7602 5.17406
0.571009 1.7644 5.18712
0.554008 1.76342 5.18726
0.534923 1.75827 5.17648
0.519016 1.76246 5.18854
0.502102 1.76563 5.19962
0.48297 1.75939 5.18286
0.476063 1.76358 5.19485
0.458041 1.76255 5.192
0.441071 1.76262 5.19613
0.42518 1.76784 5.21017
0.408219 1.76892 5.21528
0.390188 1.76688 5.21145
0.374351 1.7742 5.23246
0.366429 1.77735 5.24248
0.348398 1.7753 5.23864
0.330282 1.7701 5.22385
0.29636 1.77327 5.23406
0.278338 1.77224 5.23122
-0.5368 1.78153 5.0822
-0.544838 1.78047 5.07727
-0.645895 1.78142 5.07002
-0.688908 1.78242 5.06833
-0.738974 1.78233 5.05971
-0.755982 1.78232 5.05883
-0.782003 1.7823 5.05603
-0.798025 1.78227 5.05315
-0.848131 1.7801 5.03956
-0.866106 1.78215 5.04266
-0.89112 1.78314 5.04084
-0.992245 1.78396 5.02459
-1.00026 1.78394 5.02265
-1.39287 1.785 4.94258
-1.40698 1.7818 4.92873
-1.44003 1.78272 4.92196
-1.44805 1.78268 4.91902
-1.49618 1.78046 4.90242
-1.52926 1.78034 4.89267
-1.54334 1.77819 4.8818
-1.56936 1.78016 4.87897
-1.58346 1.77698 4.86612
-1.60438 1.78214 4.8762
-1.62041 1.7831 4.87231
-1.62962 1.7747 4.8455
-1.65348 1.78399 4.86354
-1.65759 1.77877 4.84865
-1.67267 1.77663 4.83879
-1.69457 1.78382 4.85085
-1.70377 1.77546 4.82604
-1.72079 1.77641 4.82216
-1.74368 1.78364 4.83623
-1.75581 1.77941 4.82038
-1.77284 1.78036 4.81649
-1.77987 1.77929 4.81156
-1.7969 1.78025 4.80767
-1.81392 1.78123 4.80579
-1.82897 1.78114 4.7989
-1.84894 1.7842 4.80201
-1.8591 1.77891 4.78216
-1.88005 1.78301 4.78826
-1.88513 1.78087 4.77832
-1.95127 1.78263 4.75979
-1.98335 1.78249 4.74904
-1.99137 1.78245 4.7461
-2.00841 1.78339 4.74121
-2.02444 1.78433 4.73632
-2.03952 1.78219 4.72646
-2.05751 1.78522 4.72755
-2.06964 1.78098 4.7107
-2.08862 1.78402 4.7128
-2.08878 1.77771 4.69189
-2.10974 1.7818 4.69699
-2.12088 1.77754 4.67914
-2.1438 1.78371 4.68922
-2.15493 1.77946 4.67236
-2.17097 1.7804 4.66747
-2.18505 1.77925 4.65659
-2.198 1.78336 4.66363
-2.21109 1.78119 4.65176
-2.23008 1.78422 4.65286
-2.24022 1.77895 4.63401
-2.25824 1.78093 4.63211
-2.27526 1.78288 4.62821
-2.2913 1.78282 4.62333
-2.31242 1.7806 4.60752
-2.32748 1.78049 4.59964
-2.3455 1.78248 4.59774
-2.3576 1.78028 4.58387
-2.37758 1.78432 4.58596
-2.39364 1.78423 4.57908
-2.41475 1.78202 4.56427
-2.43376 1.78502 4.56337
-2.44585 1.78284 4.55049
-2.47598 1.78161 4.53373
-2.50808 1.78344 4.52094
-2.75609 1.78262 4.38781
-2.83645 1.78195 4.33941
-2.85152 1.78183 4.33053
-2.87868 1.78054 4.30975
-2.90881 1.78031 4.29298
-2.91683 1.78127 4.29002
-2.92892 1.7801 4.27813
-2.97114 1.77869 4.24846
-3.00325 1.78051 4.23468
-3.09374 1.77861 4.17038
-3.1188 1.78149 4.16152
-3.15508 1.77797 4.12484
-3.17312 1.7799 4.11895
-3.20225 1.78067 4.10216
-3.20731 1.77955 4.09421
-3.23843 1.78134 4.07842
-3.24657 1.77708 4.06054
-3.27966 1.78091 4.04773
-3.39434 1.77966 3.9586
-3.40237 1.77961 3.95466
-3.48086 1.77869 3.88926
-3.58354 1.77641 3.79905
-3.61982 1.77489 3.76234
-3.7456 1.77644 3.65925
3.99301 1.71265 3.18583
3.94938 1.71341 3.23515
3.9405 1.71564 3.25019
3.93261 1.71687 3.26523
3.91374 1.71613 3.28239
3.89679 1.71425 3.28955
3.8869 1.71446 3.30362
3.87498 1.71463 3.31471
3.86005 1.71278 3.32385
3.84813 1.71295 3.33494
3.83622 1.71314 3.34703
3.83027 1.71323 3.35307
3.83145 1.71958 3.37697
3.81046 1.71463 3.3792
3.80258 1.71687 3.39523
3.78865 1.71602 3.40435
3.77372 1.71416 3.41349
3.75576 1.71125 3.41867
3.76089 1.71649 3.43556
3.74595 1.71564 3.44468
3.73404 1.71583 3.45677
3.73019 1.72011 3.47574
3.71022 1.71618 3.47995
3.70032 1.71738 3.49301
3.68639 1.71654 3.50313
3.67438 1.71354 3.50226
3.66751 1.71579 3.51928
3.66165 1.72006 3.53726
3.63864 1.71407 3.53653
3.6348 1.71838 3.55749
3.62591 1.72059 3.57153
3.60694 1.71668 3.57673
3.59796 1.71572 3.57881
3.59916 1.7231 3.6047
3.57009 1.714 3.59705
3.56525 1.7183 3.61703
3.55939 1.72157 3.63503
3.52931 1.71246 3.62639
3.52244 1.71572 3.64339
3.51255 1.71693 3.65745
3.49953 1.71391 3.65559
3.48257 1.711 3.66076
3.48177 1.71839 3.68667
3.46379 1.71444 3.68986
3.44684 1.71256 3.69702
3.43896 1.7158 3.71303
3.42099 1.71287 3.71721
3.40615 1.7152 3.73829
3.39626 1.71741 3.75233
3.38233 1.71655 3.76145
3.37042 1.71774 3.77353
3.34356 1.71704 3.79274
3.33256 1.71405 3.79287
3.32468 1.71729 3.80888
3.31176 1.71745 3.81898
3.30087 1.71866 3.83304
3.28895 1.71984 3.84412
3.27401 1.71897 3.85224
3.26007 1.71809 3.86036
3.24604 1.71405 3.85653
3.24423 1.72142 3.88144
3.23131 1.72159 3.89253
3.21839 1.72175 3.90263
3.1994 1.71779 3.90483
3.18952 1.72002 3.91987
3.17356 1.71912 3.92601
3.16468 1.72236 3.94203
3.1557 1.7204 3.94413
3.14884 1.72467 3.96212
3.13086 1.72173 3.9653
3.11592 1.72086 3.97342
3.10401 1.72204 3.9855
3.09008 1.72219 3.9946
3.08424 1.7275 4.01557
3.07221 1.72347 4.01272
3.05221 1.71948 4.01293
3.04738 1.72581 4.03488
3.03548 1.72701 4.04795
3.01953 1.72611 4.05408
2.9975 1.72008 4.05134
2.99165 1.72538 4.07131
2.98266 1.72441 4.07239
2.9738 1.72768 4.09041
2.95481 1.72471 4.0916
2.94492 1.72694 4.10664
2.931 1.72709 4.11674
2.91909 1.72928 4.1288
2.90009 1.72531 4.13001
2.89718 1.72847 4.14098
2.87919 1.72552 4.14316
2.86728 1.7277 4.15522
2.84728 1.72372 4.15543
2.84347 1.73009 4.18037
2.82346 1.72609 4.17958
2.8146 1.73035 4.19658
2.80573 1.73462 4.21459
2.79776 1.73367 4.21767
2.78686 1.73587 4.23072
2.76685 1.73187 4.22993
2.7509 1.73099 4.23706
2.73899 1.73317 4.24912
2.72811 1.7354 4.26417
2.7091 1.73242 4.26436
2.70923 1.73765 4.28028
2.69125 1.73571 4.28345
2.67732 1.73586 4.29255
2.66542 1.73806 4.30561
2.65148 1.73818 4.31371
2.63553 1.7373 4.32085
2.62059 1.73743 4.32896
2.61464 1.73852 4.33499
2.5997 1.73865 4.3431
2.58373 1.73672 4.34725
2.56371 1.73271 4.34546
2.55486 1.73801 4.36545
2.53687 1.73504 4.36663
2.53106 1.74241 4.39157
2.51698 1.73728 4.38175
2.50611 1.74052 4.39779
2.49217 1.74065 4.40589
2.47723 1.74078 4.414
2.46939 1.74609 4.43499
2.44532 1.73998 4.42626
2.43443 1.74219 4.44031
2.42544 1.74223 4.44237
2.4105 1.74236 4.45049
2.39657 1.7425 4.45959
2.38974 1.74883 4.48155
2.36668 1.74275 4.47481
2.35378 1.74493 4.48688
2.34187 1.74712 4.49894
2.32678 1.74097 4.48814
2.31082 1.74105 4.49326
2.30502 1.74844 4.5192
2.285 1.74441 4.51641
2.26905 1.74453 4.52353
2.25512 1.74567 4.53262
2.24423 1.7489 4.54766
2.21812 1.7397 4.53299
2.22132 1.74908 4.55883
2.20434 1.74814 4.56197
2.18736 1.74619 4.56513
2.1714 1.74628 4.57025
2.1534 1.74329 4.57043
2.14253 1.74755 4.58745
2.12861 1.74871 4.59754
2.11554 1.74459 4.58869
2.10263 1.74677 4.60076
2.09074 1.75001 4.61581
2.07174 1.74702 4.61599
2.05272 1.74399 4.61318
2.03981 1.74618 4.62525
2.02384 1.74525 4.62938
2.01486 1.74528 4.63145
2.00705 1.75266 4.6564
1.987 1.74758 4.65063
1.97003 1.74766 4.65475
1.95611 1.74881 4.66484
1.9381 1.74581 4.66402
1.92213 1.74588 4.66814
1.91415 1.74593 4.6712
1.89921 1.74606 4.67932
1.88019 1.74303 4.6765
1.86627 1.74521 4.68758
1.85236 1.74738 4.69865
1.83434 1.74436 4.69683
1.82247 1.74862 4.71386
1.80754 1.75077 4.72294
1.79751 1.74771 4.71906
1.78767 1.75403 4.74005
1.76355 1.74581 4.72435
1.74963 1.74799 4.73542
1.73367 1.74807 4.74054
1.71872 1.74817 4.74665
1.70172 1.7472 4.7478
1.69784 1.75142 4.76276
1.67881 1.74839 4.75995
1.66081 1.74639 4.75912
1.65305 1.75586 4.79004
1.6299 1.74759 4.77133
1.61498 1.74977 4.78242
1.60106 1.75192 4.79249
1.5851 1.75201 4.79761
1.57404 1.7479 4.78975
1.5591 1.74903 4.79785
1.54416 1.75016 4.80595
1.5241 1.74605 4.79816
1.50917 1.74821 4.80824
1.49733 1.75352 4.82825
1.47929 1.75046 4.82343
1.47235 1.75258 4.83146
1.45433 1.74955 4.82864
1.43632 1.74755 4.8278
1.42343 1.75178 4.84284
1.40849 1.75291 4.85093
1.38843 1.7488 4.84315
1.3745 1.75095 4.85222
1.36653 1.75101 4.85628
1.34542 1.74482 4.84253
1.33359 1.75114 4.86353
1.31763 1.75124 4.86965
1.30166 1.75131 4.87377
1.2857 1.7524 4.87887
1.26769 1.7504 4.87804
1.26382 1.75563 4.89399
1.24582 1.75466 4.89514
1.22779 1.75162 4.89132
1.21184 1.75272 4.89743
1.19585 1.75174 4.89856
1.18092 1.7539 4.90864
1.16291 1.75189 4.90681
1.15595 1.75397 4.91183
1.14 1.75508 4.91893
1.12302 1.75412 4.92108
1.10602 1.75415 4.9222
1.08797 1.75006 4.9154
1.07308 1.75428 4.92945
1.05919 1.75849 4.9435
1.05018 1.7575 4.94358
1.03317 1.75548 4.94174
1.01619 1.75554 4.94486
1.00023 1.75663 4.94997
0.985308 1.75879 4.96005
0.967277 1.75674 4.95622
0.950269 1.75474 4.95537
0.935362 1.75893 4.96743
0.928416 1.76103 4.97445
0.910377 1.75797 4.96963
0.895501 1.76322 4.98567
0.878493 1.76122 4.98482
0.861501 1.76125 4.98595
0.845532 1.76132 4.99007
0.829625 1.7655 5.00213
0.819547 1.76136 4.99227
0.804656 1.76558 5.00632
0.787617 1.76252 5.00149
0.773787 1.76986 5.02349
0.75471 1.76572 5.01369
0.738741 1.76579 5.01781
0.721756 1.76584 5.01994
0.714834 1.76999 5.02993
0.696811 1.76796 5.0271
0.680841 1.76803 5.03122
0.662811 1.76598 5.02738
0.646872 1.76811 5.03547
0.630927 1.77023 5.04256
0.612873 1.76714 5.03574
0.604889 1.76817 5.03779
0.588935 1.76927 5.04389
0.573036 1.77348 5.05695
0.539021 1.77147 5.05524
0.520982 1.76941 5.0504
0.505052 1.77156 5.05949
0.486982 1.76844 5.05067
0.479014 1.7695 5.05472
0.463099 1.77267 5.06579
0.446091 1.77167 5.06494
0.427999 1.76751 5.05313
0.413169 1.77484 5.07514
0.396154 1.77383 5.07328
0.379162 1.77385 5.07441
0.370162 1.77386 5.07448
0.354201 1.77495 5.07958
0.320217 1.775 5.08184
0.303256 1.77609 5.08695
-0.792975 1.7804 4.92712
-0.817043 1.77828 4.91833
-0.957165 1.78113 4.90235
-1.00624 1.78102 4.89272
-1.41194 1.78092 4.80176
-1.48408 1.78169 4.78329
-1.51712 1.78263 4.77752
-1.54919 1.7825 4.76777
-1.58147 1.77299 4.73215
-1.61842 1.77911 4.73833
-1.65147 1.78103 4.73155
-1.6857 1.77461 4.7019
-1.72266 1.78071 4.70709
-1.73965 1.78272 4.70719
-1.75472 1.7806 4.69833
-1.76977 1.78052 4.69245
-1.78777 1.78254 4.69255
-1.79383 1.78042 4.68463
-1.8079 1.77929 4.67475
-1.82197 1.77816 4.66587
-1.84192 1.78228 4.67296
-1.85208 1.77596 4.65113
-1.87009 1.77796 4.65024
-1.88514 1.77788 4.64435
-1.90624 1.77569 4.63054
-1.9442 1.78279 4.63572
-1.99034 1.78254 4.61707
-2.00638 1.78247 4.61119
-2.02748 1.78129 4.59837
-2.07167 1.77895 4.57373
-2.08968 1.78094 4.57184
-2.1008 1.77672 4.55698
-2.11472 1.78288 4.56699
-2.12878 1.78177 4.55912
-2.16085 1.78265 4.54934
-2.35657 1.78137 4.45482
-2.719 1.7808 4.26654
-2.9531 1.7798 4.12129
-3.28601 1.77326 3.86886
-3.33019 1.77594 3.84516
4.49397 1.69447 2.2492
4.43075 1.69506 2.35368
4.13518 1.705 2.80982
4.11345 1.70753 2.84495
4.07182 1.7073 2.89527
4.04908 1.70982 2.92941
3.9837 1.71108 3.0119
3.92521 1.71212 3.07933
3.87167 1.71306 3.14073
3.84767 1.70609 3.14202
3.85783 1.71438 3.16182
3.83986 1.71047 3.16701
3.82895 1.71065 3.17909
3.80714 1.71103 3.20326
3.7932 1.71017 3.21238
3.77835 1.71146 3.23147
3.76644 1.71165 3.24356
3.76258 1.71492 3.26154
3.74966 1.71509 3.27264
3.73472 1.71222 3.28079
3.72783 1.71545 3.2958
3.71793 1.71565 3.30887
3.70089 1.71058 3.30408
3.69804 1.71488 3.32404
3.67403 1.70889 3.32331
3.66312 1.70907 3.33539
3.65222 1.70927 3.34847
3.63727 1.70739 3.35561
3.61931 1.70447 3.36079
3.62453 1.71388 3.38862
3.61252 1.70988 3.38776
3.59959 1.71004 3.39786
3.57374 1.70835 3.41808
3.56687 1.71159 3.43409
3.55496 1.71178 3.44618
3.55009 1.71505 3.46417
3.53607 1.71101 3.46133
3.53625 1.71835 3.48423
3.50618 1.70826 3.4766
3.50032 1.71153 3.4946
3.48739 1.71167 3.5037
3.47245 1.7098 3.51184
3.46558 1.71306 3.52884
3.46264 1.71418 3.53685
3.44871 1.71432 3.54596
3.42468 1.7073 3.54324
3.4289 1.71672 3.57207
3.40689 1.71072 3.57133
3.39095 1.70884 3.57848
3.3871 1.71414 3.59843
3.37711 1.71216 3.59953
3.37023 1.7154 3.61554
3.35529 1.71353 3.62368
3.33732 1.71162 3.62885
3.32742 1.71282 3.6419
3.3056 1.71417 3.66505
3.29167 1.71432 3.67416
3.29681 1.72058 3.69203
3.28187 1.71871 3.70017
3.25682 1.71265 3.69545
3.24996 1.71592 3.71345
3.22896 1.71094 3.71368
3.21118 1.71538 3.74276
3.20825 1.71752 3.75175
3.18725 1.71353 3.75197
3.18341 1.71885 3.77292
3.17957 1.72416 3.79387
3.14847 1.71399 3.78125
3.15069 1.72342 3.8101
3.12463 1.71432 3.80243
3.12373 1.71851 3.81538
3.1108 1.71865 3.82448
3.1009 1.72087 3.83852
3.09404 1.72414 3.85652
3.08212 1.72531 3.8676
3.06516 1.7234 3.87276
3.05324 1.72457 3.88383
3.04122 1.72053 3.88098
3.02426 1.71862 3.88614
3.01335 1.71981 3.8982
3.00548 1.72406 3.9152
2.99053 1.72218 3.92234
2.98266 1.72644 3.93934
2.96569 1.72451 3.9435
2.95074 1.72261 3.94964
2.94276 1.72266 3.9527
2.9268 1.72076 3.95885
2.91286 1.72089 3.96695
2.90499 1.72414 3.98397
2.89005 1.72326 3.99109
2.88015 1.72647 4.00512
2.86622 1.72662 4.01423
2.86128 1.72772 4.02125
2.84734 1.72685 4.02937
2.83543 1.72904 4.04143
2.82048 1.72815 4.04855
2.81362 1.73242 4.06654
2.79563 1.72947 4.06872
2.78575 1.7327 4.08375
2.76967 1.72656 4.07396
2.7608 1.72982 4.09098
2.74281 1.72786 4.09315
2.73495 1.73213 4.11115
2.71697 1.72918 4.11333
2.71012 1.73448 4.1333
2.69009 1.72945 4.13053
2.69428 1.7378 4.15438
2.6692 1.73067 4.14467
2.66742 1.73908 4.17256
2.64639 1.73406 4.16979
2.63651 1.73729 4.18482
2.6094 1.72811 4.17216
2.60763 1.73754 4.20104
2.59964 1.73658 4.20311
2.59484 1.74395 4.22804
2.56772 1.73375 4.2134
2.54085 1.73502 4.23058
2.53097 1.73827 4.24661
2.51399 1.73632 4.24977
2.50906 1.73846 4.25878
2.48903 1.73441 4.25499
2.48727 1.74387 4.28586
2.4703 1.74295 4.29001
2.44723 1.73583 4.28128
2.42342 1.74023 4.3074
2.40745 1.7393 4.31154
2.38451 1.73742 4.31874
2.37667 1.74374 4.33971
2.36274 1.74388 4.34881
2.34373 1.74088 4.348
2.33182 1.74307 4.36006
2.32093 1.74628 4.37409
2.30584 1.74013 4.3633
2.29395 1.74235 4.37735
2.26099 1.73945 4.38265
2.25112 1.7437 4.39966
2.23516 1.74281 4.40579
2.22326 1.74601 4.41884
2.21222 1.74294 4.41397
2.20235 1.7472 4.43098
2.16637 1.74226 4.43332
2.13646 1.74145 4.44556
2.1266 1.74673 4.46356
2.09551 1.73859 4.45292
2.08973 1.74802 4.48182
2.07479 1.74814 4.48894
2.05168 1.73996 4.47623
2.02788 1.74636 4.50232
2.01192 1.74545 4.50745
2.00293 1.74447 4.50853
1.99205 1.7487 4.52356
1.98219 1.75299 4.54257
1.95908 1.7458 4.52885
1.95128 1.75319 4.5548
1.92717 1.74498 4.5401
1.91629 1.74923 4.55612
1.91238 1.75341 4.56809
1.89845 1.75455 4.57718
1.87228 1.74325 4.55554
1.8655 1.75268 4.58446
1.84646 1.74862 4.57966
1.82742 1.74456 4.57486
1.82269 1.75607 4.60873
1.79549 1.74372 4.58412
1.79261 1.74894 4.59906
1.77561 1.74697 4.60022
1.76885 1.75642 4.63014
1.74162 1.74401 4.60152
1.73179 1.75034 4.62351
1.71379 1.74835 4.62367
1.69781 1.74741 4.62681
1.69903 1.75682 4.65466
1.67079 1.74339 4.62407
1.66812 1.75802 4.66688
1.64702 1.75085 4.65414
1.62902 1.74886 4.65431
1.61817 1.75515 4.6733
1.59503 1.7459 4.65561
1.5942 1.75323 4.67751
1.57312 1.74809 4.66774
1.56637 1.75857 4.69964
1.54219 1.74826 4.67797
1.52827 1.75042 4.68805
1.51024 1.74738 4.68423
1.4994 1.75369 4.70522
1.49449 1.75686 4.71621
1.47339 1.7507 4.70446
1.46461 1.76012 4.73239
1.44042 1.74878 4.70873
1.42548 1.74991 4.71683
1.40643 1.74582 4.71004
1.39456 1.75108 4.72705
1.39482 1.76257 4.75988
1.3665 1.74598 4.71934
1.35875 1.75648 4.75224
1.33866 1.75031 4.74048
1.32578 1.75455 4.75552
1.30877 1.75254 4.75468
1.29589 1.75779 4.7707
1.28481 1.75265 4.76086
1.26678 1.7506 4.75702
1.25288 1.75381 4.77008
1.23588 1.75282 4.77022
1.20598 1.75503 4.78342
1.19001 1.7551 4.78754
1.17818 1.76144 4.80954
1.16194 1.74899 4.77884
1.15321 1.7615 4.81273
1.13411 1.75532 4.79996
1.11505 1.75123 4.79316
1.10631 1.76274 4.82706
1.08414 1.75343 4.80536
1.07231 1.75977 4.82736
1.05912 1.75041 4.8026
1.04939 1.76193 4.8375
1.03033 1.75783 4.82971
1.01331 1.75581 4.82787
1.00147 1.76313 4.84885
0.983459 1.76111 4.84701
0.964366 1.75595 4.83523
0.961575 1.76535 4.86212
0.940397 1.75603 4.83941
0.927559 1.76235 4.86042
0.910528 1.7603 4.85658
0.894559 1.76037 4.8607
0.879621 1.7625 4.86878
0.860559 1.75839 4.86098
0.856745 1.76775 4.88488
0.839729 1.76574 4.88303
0.82269 1.76267 4.87821
0.788659 1.75964 4.87451
0.773791 1.7649 4.89154
0.756752 1.76284 4.8867
0.739744 1.76084 4.88586
0.714752 1.76087 4.88705
0.70193 1.76822 4.91004
0.684946 1.76826 4.91217
0.651915 1.76523 4.90846
0.635977 1.76836 4.91653
0.627993 1.76839 4.91859
0.593954 1.76534 4.9139
0.562047 1.76854 4.92609
0.546109 1.77067 4.93418
0.521094 1.76966 4.93238
0.472118 1.76874 4.93577
0.439196 1.77191 4.94597
0.398173 1.7699 4.94331
0.365251 1.77307 4.95351
0.332252 1.7721 4.95377
0.291299 1.77321 4.96007
-0.139706 1.77153 4.82832
-0.212727 1.77154 4.82587
-0.227819 1.76737 4.81404
-0.260763 1.7715 4.82123
-0.291917 1.76423 4.80157
-0.309738 1.77358 4.82457
-0.31683 1.76941 4.81268
-0.332837 1.7694 4.8118
-0.348892 1.76631 4.80497
-0.364867 1.76837 4.80806
-0.379053 1.76002 4.78429
-0.397842 1.77044 4.81128
-0.412028 1.76209 4.78751
-0.42895 1.76625 4.79757
-0.435058 1.76105 4.78369
-0.45298 1.76521 4.79377
-0.467142 1.75791 4.77298
-0.48311 1.75998 4.77707
-0.499148 1.75892 4.77221
-0.515132 1.75996 4.77431
-0.530216 1.75681 4.76347
-0.538177 1.75889 4.7685
-0.556122 1.762 4.77559
-0.586221 1.75883 4.76286
-0.61825 1.7588 4.7591
-0.660185 1.76395 4.76734
-0.673347 1.75665 4.74655
-0.692191 1.76496 4.76657
-0.706291 1.76077 4.75374
-0.722329 1.75971 4.74887
-0.73739 1.7576 4.74102
-0.74825 1.76488 4.75899
-0.761373 1.75965 4.74317
-0.776434 1.75754 4.73531
-0.825447 1.75955 4.73365
-0.843368 1.76471 4.74371
-0.857429 1.7626 4.73585
-0.867381 1.7657 4.74188
-0.881474 1.76153 4.73004
-0.899411 1.76566 4.73812
-0.912518 1.76146 4.72428
-0.930455 1.7656 4.73235
-0.947461 1.76659 4.73146
-0.960561 1.76341 4.71861
-0.970499 1.76654 4.72664
-0.985567 1.76441 4.71778
-1.01566 1.76226 4.70604
-1.03361 1.76536 4.71213
-1.04673 1.76113 4.69629
-1.06659 1.76941 4.71432
-1.07172 1.76318 4.69845
-1.09254 1.77352 4.72045
-1.10663 1.77037 4.7096
-1.12168 1.76928 4.70273
-1.13482 1.76302 4.68492
-1.15178 1.7671 4.68999
-1.16683 1.76501 4.68313
-1.17098 1.75873 4.66426
-1.19088 1.76494 4.67732
-1.2127 1.7763 4.70031
-1.22096 1.7638 4.66656
-1.23891 1.7679 4.67263
-1.25589 1.76994 4.67473
-1.27582 1.77611 4.68479
-1.28795 1.77086 4.66796
-1.31003 1.76872 4.65715
-1.32992 1.77594 4.6712
-1.3411 1.76861 4.64839
-1.36197 1.77586 4.66444
-1.37312 1.77058 4.6456
-1.39111 1.77261 4.64671
-1.39033 1.76218 4.61785
-1.41027 1.76732 4.62593
-1.43213 1.7756 4.64397
-1.44231 1.76825 4.62015
-1.46222 1.77444 4.63221
-1.47532 1.77124 4.61836
-1.48452 1.76288 4.59355
-1.49545 1.76702 4.60257
-1.51244 1.76903 4.60267
-1.52065 1.76066 4.57685
-1.53961 1.76373 4.58095
-1.55954 1.76988 4.59001
-1.57262 1.76774 4.58014
-1.58472 1.76354 4.56629
-1.59762 1.77074 4.57928
-1.60877 1.76447 4.56045
-1.62284 1.76335 4.55158
-1.64277 1.76849 4.56065
-1.65487 1.76529 4.54679
-1.67089 1.76626 4.54389
-1.68496 1.76414 4.53503
-1.70001 1.76406 4.52914
-1.70998 1.76611 4.53219
-1.72698 1.76812 4.53229
-1.74104 1.76802 4.52439
-1.75218 1.76276 4.50655
-1.7731 1.76892 4.51662
-1.78421 1.76572 4.50275
-1.80611 1.77191 4.51482
-1.80923 1.7677 4.49991
-1.8184 1.76038 4.47808
-1.83637 1.76443 4.48116
-1.8524 1.76539 4.47726
-1.8645 1.7622 4.4644
-1.88249 1.76523 4.46549
-1.89852 1.76518 4.46161
-1.9116 1.76404 4.45173
-1.92158 1.76608 4.45377
-1.93366 1.76393 4.44289
-1.9497 1.76487 4.438
-1.96474 1.76479 4.43211
-1.97978 1.76472 4.42723
-1.99385 1.7636 4.41835
-2.01086 1.76558 4.41645
-2.01298 1.76036 4.40154
-2.03687 1.76859 4.4156
-2.05093 1.76848 4.40771
-2.05908 1.76219 4.38786
-2.0751 1.76416 4.38495
-2.09212 1.76614 4.38305
-2.10618 1.76503 4.37517
-2.11421 1.76498 4.37123
-2.13908 1.77423 4.38728
-2.14232 1.76378 4.35646
-2.15736 1.76471 4.35155
-2.17831 1.7698 4.35664
-2.19041 1.76763 4.34476
-2.20544 1.76757 4.33987
-2.20953 1.76541 4.32893
-2.22162 1.76324 4.31706
-2.23962 1.76525 4.31716
-2.25367 1.76516 4.31027
-2.27069 1.76713 4.30737
-2.28082 1.76288 4.2905
-2.29881 1.76691 4.29158
-2.30486 1.76481 4.28466
-2.31793 1.76469 4.27575
-2.33002 1.76252 4.26388
-2.34901 1.76555 4.26497
-2.36307 1.76544 4.25708
-2.38009 1.76742 4.25518
-2.38626 1.76109 4.23232
-2.40624 1.76513 4.23441
-2.41424 1.76614 4.23445
-2.42634 1.76395 4.22157
-2.43547 1.75971 4.2047
-2.45248 1.76269 4.20279
-2.46359 1.75949 4.18892
-2.49959 1.7655 4.1881
-2.50071 1.76128 4.17317
-2.51082 1.75807 4.15829
-2.53178 1.76316 4.16337
-2.56804 1.75868 4.12971
-2.58309 1.75959 4.12281
-2.59111 1.76056 4.12085
-2.61603 1.76771 4.12994
-2.62022 1.76036 4.10607
-2.63625 1.76232 4.10216
-2.64932 1.76218 4.09226
-2.66634 1.76414 4.08936
-2.67547 1.7599 4.07249
-2.68646 1.76294 4.07453
-2.69754 1.76178 4.06363
-2.7227 1.75949 4.04285
-2.76785 1.76223 4.02315
-2.76895 1.75804 4.01021
-2.79806 1.75883 3.99542
-2.81013 1.75869 3.98551
-2.83628 1.75742 3.96572
-2.86935 1.76131 3.95691
-2.87538 1.76125 3.95296
-2.88945 1.76113 3.94407
-2.90153 1.75998 3.93317
-2.92054 1.76396 3.93126
-2.93954 1.76797 3.93134
-2.93876 1.75854 3.90247
-2.95678 1.76151 3.89956
-2.95887 1.75835 3.88862
-2.99292 1.76326 3.88081
-3.00303 1.76106 3.86691
-3.01016 1.75681 3.85003
-3.02719 1.75976 3.84611
-3.03729 1.75756 3.83222
-3.04927 1.76062 3.83526
-3.05443 1.75631 3.81436
-3.07443 1.76033 3.81445
-3.08452 1.75814 3.80156
-3.09858 1.75903 3.79365
-3.11067 1.75786 3.78176
-3.12375 1.75772 3.77186
-3.14682 1.76061 3.76299
-3.16801 1.75724 3.73719
-3.18306 1.75915 3.73028
-3.19415 1.75799 3.71938
-3.20624 1.75682 3.70748
-3.2202 1.76191 3.71252
-3.22336 1.75658 3.69062
-3.24238 1.75955 3.68771
-3.25446 1.75941 3.67781
-3.26258 1.75618 3.66191
-3.28457 1.76221 3.66299
-3.28476 1.75484 3.6381
-3.30675 1.75987 3.63919
-3.31577 1.76185 3.63723
-3.3328 1.76479 3.63231
-3.33992 1.76156 3.61641
-3.36093 1.76656 3.61549
-3.36805 1.76332 3.59959
-3.37221 1.75802 3.5787
-3.38925 1.76096 3.57378
-3.39925 1.76295 3.57283
-3.41034 1.76178 3.56093
-3.43234 1.76779 3.56101
-3.42955 1.75839 3.53412
-3.44757 1.76235 3.5302
-3.45074 1.75704 3.5093
-3.47571 1.7641 3.51238
-3.48481 1.7629 3.49846
-3.49184 1.76285 3.49452
-3.51384 1.76886 3.49459
-3.51998 1.7646 3.4767
-3.54197 1.77061 3.47678
-3.54613 1.76632 3.45687
-3.56118 1.76823 3.44995
-3.57326 1.76807 3.43905
-3.57534 1.76593 3.42909
-3.59238 1.76785 3.42319
-3.60743 1.77076 3.41626
-3.6205 1.77062 3.40636
-3.62863 1.76839 3.39045
-3.63376 1.76513 3.37254
-3.65278 1.7691 3.36962
-3.68299 1.7697 3.34184
-3.75756 1.76865 3.2674
4.08489 1.70049 2.63824
4.07297 1.69966 2.64935
4.06507 1.70087 2.66339
4.04913 1.698 2.67155
4.03721 1.69616 2.68167
4.03226 1.69627 2.68871
4.0304 1.70053 2.70666
4.01647 1.69868 2.71579
4.01863 1.704 2.7377
4.00067 1.70009 2.7429
3.9787 1.69516 2.74714
3.97684 1.69843 2.7651
3.95686 1.69351 2.76933
3.95493 1.69564 2.77831
3.95609 1.70094 2.79823
3.94417 1.70011 2.80933
3.92319 1.69417 2.81258
3.9163 1.69639 2.8276
3.90438 1.69557 2.8387
3.88642 1.69165 2.8439
3.90764 1.70405 2.87156
3.8766 1.695 2.86692
3.86266 1.69313 2.87506
3.86181 1.69743 2.895
3.84385 1.69353 2.9012
3.84804 1.70088 2.92506
3.83813 1.70107 2.93713
3.82009 1.695 2.93236
3.81319 1.69622 2.94639
3.79253 1.70188 2.99047
3.77054 1.69693 2.99271
3.71605 1.69896 3.0601
3.68834 1.70156 3.09928
3.65148 1.69687 3.11863
3.6446 1.69909 3.13365
3.62076 1.69842 3.15484
3.45327 1.71049 3.35495
3.2028 1.70868 3.55989
2.72553 1.71836 3.9234
2.57226 1.72089 4.02053
2.36918 1.72584 4.144
2.34827 1.72602 4.15516
1.88102 1.73578 4.38956
1.50702 1.73799 4.52337
1.43919 1.73937 4.54586
1.39637 1.74376 4.57012
1.31052 1.7421 4.5898
1.27261 1.74331 4.60207
1.1099 1.74399 4.64129
1.09908 1.75233 4.66425
1.02505 1.74533 4.66091
0.995141 1.74753 4.6731
0.877294 1.74691 4.694
0.861294 1.74592 4.69414
0.839426 1.75119 4.71123
0.822372 1.7481 4.7044
0.806395 1.74815 4.70752
0.793527 1.75342 4.72454
0.760488 1.75037 4.71984
0.752503 1.7504 4.7219
0.736503 1.74941 4.72203
0.721565 1.75154 4.73011
0.704503 1.74844 4.72229
0.68855 1.74954 4.72839
0.674682 1.7558 4.74541
0.657581 1.74962 4.73262
0.635705 1.75487 4.74871
0.617604 1.74969 4.73592
0.602705 1.75389 4.74898
0.58562 1.74875 4.73818
0.571744 1.75399 4.75421
0.55469 1.7509 4.74738
0.547814 1.75614 4.76336
0.530736 1.75201 4.75355
0.51576 1.75306 4.75664
0.499806 1.75416 4.76275
0.484861 1.75628 4.76983
0.466706 1.74899 4.75007
0.451823 1.75423 4.76511
0.435799 1.75219 4.76226
0.427807 1.75221 4.76332
0.412962 1.75952 4.78333
0.396955 1.75952 4.78245
0.382064 1.76374 4.7965
0.364917 1.75647 4.77773
0.348893 1.75444 4.77488
0.332917 1.75549 4.77799
0.326034 1.76172 4.79295
0.309026 1.76072 4.79209
0.292995 1.75867 4.78824
0.278058 1.7618 4.79631
0.262206 1.76909 4.81533
0.245043 1.75979 4.79459
0.230121 1.76395 4.80464
0.214207 1.76812 4.8157
0.206168 1.76606 4.81079
0.174207 1.76715 4.81602
0.158285 1.77131 4.82608
-0.109836 1.77029 4.67809
-0.124852 1.76927 4.67622
-0.140827 1.77132 4.67931
-0.156834 1.77132 4.67843
-0.171865 1.76927 4.67457
-0.194973 1.76408 4.66082
-0.241917 1.76822 4.66812
-0.258002 1.76407 4.6573
-0.280993 1.7651 4.65846
-0.296969 1.76616 4.66156
-0.312922 1.76926 4.66764
-0.327091 1.76194 4.64585
-0.342122 1.75989 4.64199
-0.35809 1.76196 4.64608
-0.37316 1.75884 4.63724
-0.380221 1.75673 4.62932
-0.396205 1.75777 4.63143
-0.41215 1.76089 4.6385
-0.428118 1.76296 4.64259
-0.443171 1.76086 4.63574
-0.457319 1.75359 4.61695
-0.473326 1.75359 4.61607
-0.483115 1.765 4.64298
-0.496332 1.75459 4.61523
-0.528283 1.7587 4.62141
-0.542384 1.75352 4.60859
-0.557414 1.75347 4.6047
-0.574351 1.7566 4.61278
-0.589412 1.7545 4.60493
-0.597388 1.75655 4.60796
-0.612418 1.7555 4.60409
-0.629332 1.76067 4.61514
-0.643448 1.75546 4.60032
-0.674477 1.75543 4.59655
-0.690453 1.75748 4.59964
-0.697476 1.75644 4.59671
-0.712505 1.75639 4.59283
-0.743511 1.7574 4.59204
-0.759533 1.75737 4.58917
-0.775493 1.76045 4.59424
-0.790539 1.75838 4.58838
-0.797608 1.75625 4.57947
-0.816452 1.76456 4.59949
-0.829544 1.76139 4.58763
-0.843652 1.75619 4.57381
-0.859612 1.75928 4.57889
-0.875611 1.76129 4.57898
-0.889703 1.75712 4.56715
-0.899594 1.76334 4.58113
-0.913678 1.76018 4.57028
-0.928716 1.75912 4.56541
-0.943746 1.75807 4.56154
-0.958783 1.75801 4.55665
-0.973821 1.75695 4.55178
-0.988851 1.7569 4.54789
-1.00679 1.76103 4.55597
-1.01188 1.75686 4.54407
-1.02786 1.7589 4.54616
-1.04483 1.76197 4.55024
-1.0589 1.75985 4.54138
-1.07588 1.76189 4.54348
-1.09381 1.76703 4.55254
-1.10593 1.76181 4.5367
-1.128 1.7607 4.52888
-1.14302 1.76067 4.526
-1.15903 1.76165 4.5241
-1.17406 1.7616 4.52022
-1.19104 1.76365 4.52231
-1.20413 1.76049 4.51146
-1.21407 1.7646 4.51847
-1.23008 1.7656 4.51758
-1.24315 1.76348 4.50871
-1.25819 1.7624 4.50284
-1.27419 1.76441 4.50293
-1.29021 1.76438 4.50005
-1.30717 1.76846 4.50512
-1.31422 1.76738 4.49918
-1.3273 1.76423 4.48833
-1.34621 1.77042 4.50038
-1.36124 1.77037 4.49649
-1.39521 1.77544 4.49967
-1.40634 1.77019 4.48283
-1.42139 1.76912 4.47696
-1.42939 1.77011 4.47601
-1.44735 1.77419 4.48108
-1.45848 1.76897 4.46524
-1.47352 1.76889 4.45936
-1.48758 1.76779 4.45248
-1.5026 1.76876 4.44958
-1.51862 1.76873 4.4467
-1.52466 1.76764 4.44076
-1.53872 1.76655 4.43388
-1.55278 1.76544 4.426
-1.56978 1.76745 4.4261
-1.58284 1.76635 4.41821
-1.59885 1.76733 4.41632
-1.6178 1.77143 4.4224
-1.626 1.76307 4.39758
-1.64279 1.77546 4.42353
-1.65 1.76607 4.39672
-1.66308 1.76392 4.38585
-1.67812 1.76385 4.38096
-1.69316 1.76379 4.37607
-1.70623 1.76267 4.36719
-1.72517 1.76778 4.37426
-1.72926 1.76361 4.36235
-1.74429 1.76456 4.35845
-1.76129 1.76657 4.35854
-1.77436 1.76545 4.34966
-1.7894 1.76537 4.34377
-1.81227 1.77464 4.36081
-1.8175 1.7642 4.331
-1.83335 1.77349 4.34998
-1.8425 1.76722 4.33114
-1.85852 1.76918 4.32823
-1.86963 1.76499 4.31438
-1.88762 1.768 4.31447
-1.89971 1.76584 4.30359
-1.91474 1.7668 4.29969
-1.91881 1.76365 4.28976
-1.93877 1.76875 4.29584
-1.9479 1.76349 4.27799
-1.96196 1.76239 4.27011
-1.97798 1.76437 4.2682
-1.99597 1.7674 4.26929
-2.011 1.76833 4.26439
-2.01605 1.76625 4.25845
-2.0242 1.76096 4.23859
-2.04219 1.764 4.24068
-2.06117 1.76804 4.24277
-2.06539 1.75862 4.21393
-2.08731 1.76578 4.22399
-2.09644 1.76054 4.20714
-2.11246 1.7625 4.20423
-2.12441 1.76662 4.21126
-2.13256 1.76134 4.1924
-2.14955 1.76435 4.19248
-2.15771 1.75806 4.17263
-2.17374 1.76002 4.16872
-2.18383 1.75683 4.15584
-2.20675 1.76501 4.1669
-2.20984 1.76083 4.15498
-2.22587 1.76279 4.15107
-2.24089 1.76375 4.14817
-2.24805 1.75745 4.12732
-2.26113 1.75631 4.11743
-2.28108 1.76241 4.12349
-2.29218 1.75921 4.10962
-2.29625 1.75708 4.10068
-2.31818 1.76423 4.10974
-2.3283 1.76002 4.09488
-2.33643 1.75576 4.077
-2.35837 1.76189 4.08507
-2.36553 1.75659 4.0642
-2.38254 1.75858 4.0633
-2.39153 1.7616 4.06433
-2.39967 1.75633 4.04546
-2.43072 1.75925 4.03865
-2.4428 1.75809 4.02776
-2.4539 1.75591 4.01487
-2.47879 1.76513 4.02893
-2.47596 1.75681 4.00702
-2.49001 1.75773 4.00112
-2.50604 1.75867 3.99622
-2.51614 1.75648 3.98333
-2.53218 1.75742 3.97844
-2.5482 1.76039 3.97551
-2.55928 1.75823 3.96463
-2.57137 1.75706 3.95273
-2.58333 1.76116 3.95876
-2.61243 1.76197 3.94497
-2.6245 1.76185 3.93606
-2.63263 1.7576 3.91918
-2.64273 1.7544 3.9053
-2.65876 1.75636 3.90139
-2.66776 1.75936 3.90142
-2.67588 1.75513 3.88554
-2.69687 1.76018 3.88762
-2.70499 1.75595 3.87174
-2.71904 1.75685 3.86484
-2.73507 1.7588 3.86093
-2.74616 1.75763 3.84903
-2.75515 1.75966 3.85006
-2.76526 1.75746 3.83617
-2.78228 1.76042 3.83325
-2.7983 1.76238 3.82935
-2.81137 1.76225 3.82045
-2.8274 1.7642 3.81654
-2.82761 1.75481 3.78967
-2.83563 1.75577 3.78672
-2.85858 1.76287 3.79279
-2.8677 1.75966 3.7779
-2.87878 1.7595 3.76699
-2.89185 1.75938 3.75809
-2.90591 1.75927 3.75019
-2.915 1.75708 3.73729
-2.92402 1.75906 3.73533
-2.9351 1.75791 3.72443
-2.94322 1.75469 3.70954
-2.96222 1.75869 3.70862
-2.96836 1.75443 3.69073
-2.98242 1.75532 3.68282
-2.99845 1.75726 3.67791
-3.01746 1.76125 3.67699
-3.02053 1.75912 3.66805
-3.02963 1.75692 3.65415
-3.05259 1.76401 3.65921
-3.05873 1.75975 3.64132
-3.07179 1.76064 3.63341
-3.08586 1.76052 3.62451
-3.09297 1.7573 3.60961
-3.10198 1.75928 3.60765
-3.11208 1.75709 3.59476
-3.13109 1.76209 3.59382
-3.14218 1.76092 3.58192
-3.16217 1.76594 3.582
-3.16731 1.76168 3.5641
-3.18236 1.76258 3.5572
-3.19345 1.76141 3.5453
-3.20147 1.76339 3.54333
-3.21949 1.76636 3.54042
-3.23255 1.76723 3.5315
-3.24066 1.76503 3.5176
-3.2577 1.76797 3.51268
-3.26482 1.76474 3.49678
-3.27988 1.76563 3.48888
-3.29284 1.7707 3.4929
-3.30195 1.7685 3.479
-3.316 1.77041 3.47208
-3.32907 1.77028 3.46318
-3.33421 1.766 3.44428
-3.38559 1.7643 3.39468
-3.40559 1.7693 3.39376
-3.41272 1.76707 3.37784
4.24765 1.68606 2.07615
4.22971 1.68219 2.08435
4.22884 1.68545 2.10131
4.22998 1.68971 2.11924
4.21203 1.68483 2.12645
4.20312 1.68501 2.13851
4.20721 1.68819 2.15043
4.20232 1.69041 2.16544
4.18839 1.68756 2.17459
4.16944 1.68267 2.18181
4.16455 1.68389 2.19583
4.16066 1.68611 2.21082
4.15377 1.68632 2.22488
4.16288 1.69254 2.23972
4.14393 1.68764 2.24593
4.15009 1.69396 2.2678
4.13014 1.68906 2.27402
4.11821 1.68722 2.28414
4.11936 1.6925 2.30305
4.09939 1.68759 2.30828
4.10549 1.69178 2.32117
4.08955 1.68791 2.32935
4.08567 1.69013 2.34435
4.06772 1.68625 2.35154
4.07992 1.69563 2.37732
4.05895 1.69072 2.38255
4.05205 1.69091 2.3956
4.0662 1.70018 2.41436
4.0392 1.6912 2.41469
4.03331 1.69343 2.42971
4.02943 1.69567 2.4457
4.01449 1.6928 2.45386
4.0096 1.69502 2.46887
4.00371 1.69624 2.48289
3.99481 1.69644 2.49596
3.99387 1.69755 2.50395
3.99201 1.70182 2.52191
3.96701 1.69386 2.52321
3.9581 1.69404 2.53528
3.95926 1.69933 2.55519
3.93828 1.69341 2.55944
3.93541 1.69665 2.57542
3.93649 1.69981 2.58636
3.92155 1.69694 2.59452
3.92169 1.70222 2.61344
3.89468 1.69323 2.61278
3.88879 1.69444 2.62681
3.86279 1.68746 2.62711
3.88204 1.70093 2.65977
3.86804 1.69694 2.65993
3.86215 1.69815 2.67396
3.86431 1.70446 2.69485
3.84634 1.70055 2.70005
3.84549 1.70483 2.71899
3.82552 1.69991 2.72322
3.80856 1.69601 2.7294
3.80864 1.69915 2.73936
3.80778 1.70344 2.7583
3.78881 1.69951 2.7625
3.78796 1.70379 2.78145
3.771 1.69989 2.78764
3.75002 1.69495 2.79087
3.74614 1.69719 2.80687
3.74537 1.70564 2.83675
3.73445 1.70479 2.84685
3.72151 1.70294 2.85597
3.71764 1.70619 2.87296
3.68574 1.70141 2.88627
3.68288 1.70467 2.90425
3.68799 1.70988 2.91813
3.66901 1.70595 2.92233
3.66615 1.70922 2.94031
3.62804 1.69504 2.9268
3.62618 1.69932 2.94576
3.5973 1.69557 2.96103
3.6145 1.70794 2.98672
3.57066 1.7013 3.00916
3.55672 1.69943 3.01729
3.54177 1.69754 3.02443
3.49817 1.70036 3.07772
3.49245 1.70889 3.11365
3.47046 1.70292 3.1149
3.46952 1.70506 3.12388
3.44954 1.7001 3.1261
3.42972 1.70247 3.15022
3.37419 1.70543 3.2126
3.35723 1.70252 3.21777
3.34529 1.70166 3.22688
3.18838 1.70491 3.37203
2.81569 1.71368 3.67875
2.7331 1.71454 3.73337
2.68438 1.71612 3.77072
1.63747 1.73385 4.31642
1.55869 1.73434 4.34601
1.47193 1.73687 4.37863
1.45101 1.73804 4.38877
1.3901 1.73626 4.40126
1.28139 1.7399 4.44003
1.22847 1.7391 4.45144
1.19855 1.74027 4.46165
1.18357 1.73931 4.46378
1.14664 1.74049 4.47404
1.11671 1.74064 4.48326
1.10071 1.73965 4.4834
1.00494 1.74417 4.51406
0.976027 1.74635 4.52524
0.938081 1.74648 4.53253
0.906057 1.74246 4.52983
0.894235 1.75081 4.5528
0.869181 1.74672 4.54605
0.853158 1.74469 4.5432
0.839219 1.74682 4.55127
0.822165 1.74273 4.54446
0.811414 1.75521 4.57636
0.792219 1.74386 4.55167
0.779382 1.75117 4.57266
0.739335 1.74712 4.56702
0.724366 1.74719 4.57113
0.711498 1.75345 4.58814
0.693374 1.74622 4.57238
0.680521 1.75251 4.59139
0.662405 1.74631 4.57661
0.657544 1.75257 4.59456
0.640498 1.7505 4.58872
0.625498 1.74951 4.58885
0.609514 1.74955 4.59097
0.595599 1.75272 4.60203
0.578498 1.74754 4.58923
0.564615 1.75278 4.60426
0.557646 1.75384 4.6083
0.540529 1.74763 4.59352
0.524552 1.74769 4.59664
0.510685 1.75395 4.61365
0.494638 1.75087 4.60782
0.480732 1.75606 4.61985
0.464716 1.75404 4.618
0.448654 1.75093 4.61016
0.441763 1.75615 4.62414
0.426771 1.75617 4.62525
0.410724 1.75309 4.61942
0.394732 1.75312 4.62054
0.380904 1.76146 4.64252
0.364811 1.75629 4.63072
0.349857 1.75839 4.6368
0.341834 1.75635 4.63389
0.32578 1.75326 4.62706
0.309764 1.75224 4.62519
0.294912 1.75953 4.6442
0.27992 1.75956 4.64531
0.263913 1.75856 4.64444
0.24903 1.76479 4.65947
0.240945 1.76063 4.64859
0.226084 1.76691 4.66661
0.209999 1.76276 4.65579
0.193961 1.7607 4.65094
0.178992 1.76177 4.65504
0.16407 1.76592 4.66509
0.148117 1.76802 4.67118
0.140102 1.767 4.66926
-0.112868 1.76826 4.54113
-0.127914 1.76618 4.53527
-0.195935 1.76619 4.53278
-0.211873 1.76932 4.54086
-0.226903 1.76827 4.53698
-0.24191 1.76827 4.5361
-0.249895 1.7683 4.53816
-0.264894 1.76931 4.53826
-0.279056 1.76101 4.51748
-0.295908 1.7693 4.53649
-0.310954 1.76723 4.53063
-0.325007 1.76513 4.52377
-0.34096 1.76823 4.52984
-0.348022 1.76512 4.52194
-0.363967 1.76824 4.52902
-0.378036 1.76511 4.52017
-0.39309 1.76302 4.51331
-0.409058 1.76509 4.5174
-0.424049 1.76612 4.5185
-0.438134 1.76196 4.50767
-0.445212 1.75782 4.49778
-0.462078 1.76609 4.51479
-0.475233 1.7578 4.495
-0.491147 1.76297 4.50605
-0.506216 1.75985 4.49721
-0.521215 1.76086 4.49731
-0.53623 1.76084 4.49542
-0.542323 1.75667 4.48352
-0.558291 1.75874 4.48762
-0.57236 1.75562 4.47877
-0.58832 1.7587 4.48384
-0.605187 1.76597 4.50086
-0.619287 1.76179 4.48803
-0.635231 1.7659 4.49509
-0.650277 1.76382 4.48923
-0.656355 1.75968 4.47934
-0.673284 1.76482 4.48839
-0.684462 1.75649 4.4656
-0.702359 1.7627 4.47864
-0.716406 1.76062 4.47278
-0.730467 1.75851 4.46491
-0.747403 1.76264 4.47298
-0.754441 1.76157 4.46805
-0.771355 1.76675 4.4791
-0.783517 1.75945 4.4583
-0.801408 1.76567 4.47234
-0.813531 1.76044 4.45651
-0.830459 1.76558 4.46556
-0.843568 1.76039 4.45174
-0.854466 1.76659 4.46473
-0.865644 1.75825 4.44193
-0.881619 1.76031 4.44502
-0.897602 1.76235 4.44711
-0.909718 1.75714 4.43228
-0.926647 1.76228 4.44133
-0.942638 1.76431 4.44242
-0.949661 1.76327 4.43949
-0.962761 1.75909 4.42665
-0.975837 1.75695 4.41678
-0.993758 1.76211 4.42684
-1.00683 1.75899 4.41798
-1.02281 1.76203 4.42006
-1.03978 1.7651 4.42414
-1.05383 1.76301 4.41728
-1.05987 1.76194 4.41234
-1.07878 1.76711 4.4234
-1.0909 1.7629 4.40856
-1.10785 1.767 4.41462
-1.11802 1.75868 4.39282
-1.13789 1.76693 4.40885
-1.14999 1.76376 4.39699
-1.15995 1.76685 4.40202
-1.17203 1.76369 4.39115
-1.18804 1.76467 4.38926
-1.20499 1.76879 4.39633
-1.21809 1.76461 4.38348
-1.23406 1.76766 4.38656
-1.25005 1.7697 4.38865
-1.26022 1.76239 4.36683
-1.27114 1.76754 4.37684
-1.2881 1.77163 4.38191
-1.30311 1.77261 4.38001
-1.31912 1.77361 4.37911
-1.33316 1.77253 4.37323
-1.34626 1.76936 4.36138
-1.36926 1.77236 4.36051
-1.45746 1.77202 4.33417
-1.46252 1.76891 4.32625
-1.4955 1.77398 4.32943
-1.50857 1.77184 4.31956
-1.51969 1.76763 4.3047
-1.5357 1.76861 4.30281
-1.55364 1.77374 4.31087
-1.5597 1.77163 4.30294
-1.56982 1.7674 4.28708
-1.58779 1.77147 4.29116
-1.61686 1.77136 4.28237
-1.62895 1.76819 4.27051
-1.64104 1.76502 4.25865
-1.65296 1.77118 4.26865
-1.66603 1.76905 4.25978
-1.68203 1.77106 4.25987
-1.68922 1.7627 4.23504
-1.70423 1.76468 4.23313
-1.72416 1.77083 4.24219
-1.74018 1.77179 4.23929
-1.74735 1.76447 4.21745
-1.75927 1.77065 4.22845
-1.77038 1.76643 4.21359
-1.79848 1.76526 4.20082
-1.81448 1.76727 4.20091
-1.83048 1.77027 4.19999
-1.84061 1.76504 4.18414
-1.84468 1.76189 4.17422
-1.86069 1.76389 4.17331
-1.8767 1.76587 4.1714
-1.88387 1.75855 4.14956
-1.90185 1.76261 4.15263
-1.91884 1.76562 4.15272
-1.92797 1.76139 4.13685
-1.93597 1.76138 4.13591
-1.95296 1.76542 4.13798
-1.9781 1.76216 4.11921
-1.99116 1.76105 4.11132
-2.00521 1.76096 4.10443
-2.01827 1.76085 4.09653
-2.02332 1.75877 4.0906
-2.0354 1.75763 4.0807
-2.04945 1.75753 4.07381
-2.06841 1.76161 4.07789
-2.07951 1.75944 4.06601
-2.09356 1.75934 4.05911
-2.10759 1.76028 4.0542
-2.11659 1.76129 4.05426
-2.12275 1.75499 4.03439
-2.14467 1.76216 4.04445
-2.16783 1.75885 4.02268
-2.17991 1.75671 4.0128
-2.19888 1.76177 4.01587
-2.20505 1.75445 3.99402
-2.21405 1.75647 3.99505
-2.22612 1.75533 3.98516
-2.2372 1.75319 3.97528
-2.25519 1.75722 3.97635
-2.26923 1.75814 3.97044
-2.28131 1.756 3.96056
-2.29831 1.759 3.95965
-2.3004 1.75582 3.94771
-2.31247 1.7547 3.93881
-2.3275 1.75565 3.93491
-2.34451 1.75864 3.934
-2.35264 1.7544 3.91712
-2.37162 1.75844 3.9192
-2.3827 1.75729 3.9083
-2.39072 1.75826 3.90635
-2.4018 1.75611 3.89546
-2.41387 1.75498 3.88657
-2.43779 1.76315 3.89663
-2.43702 1.75271 3.86677
-2.45502 1.75672 3.86685
-2.46808 1.75661 3.85895
-2.47313 1.75451 3.85202
-2.49113 1.75852 3.85209
-2.50023 1.75532 3.83821
-2.5212 1.7614 3.84227
-2.52932 1.75718 3.8274
-2.54237 1.75809 3.82048
-2.56048 1.75688 3.80563
-2.57157 1.75471 3.79375
-2.58857 1.75872 3.79382
-2.60459 1.76069 3.79091
-2.61568 1.75852 3.77902
-2.62676 1.75736 3.76812
-2.64279 1.75931 3.76421
-2.64893 1.75505 3.74632
-2.66287 1.76017 3.75335
-2.67297 1.758 3.74145
-2.68306 1.75581 3.72856
-2.6971 1.75775 3.72364
-2.71807 1.76381 3.72671
-2.7252 1.75856 3.70984
-2.73826 1.75945 3.70192
-2.74825 1.76147 3.70297
-2.75736 1.75927 3.68906
-2.76942 1.75916 3.68116
-2.78051 1.75699 3.66927
-2.79456 1.75891 3.66335
-2.80861 1.75982 3.65644
-2.82364 1.76176 3.65152
-2.84066 1.76473 3.64861
-2.83779 1.75849 3.63267
-2.84987 1.75733 3.62178
-2.8748 1.76648 3.63083
-2.88489 1.76431 3.61894
-2.89103 1.76005 3.60105
-2.90606 1.76199 3.59613
-2.91319 1.75874 3.57923
-2.92517 1.7618 3.58228
-2.93921 1.76372 3.57635
-2.94832 1.76152 3.56245
-2.95642 1.75831 3.54856
-2.98037 1.76642 3.55462
-2.98354 1.7601 3.53273
-3.00649 1.7672 3.5388
-3.00362 1.76095 3.52187
-3.01471 1.76079 3.51096
-3.03074 1.76275 3.50705
-3.05983 1.76557 3.49422
-3.06695 1.76234 3.47832
-3.08497 1.76633 3.4764
-3.09 1.76626 3.47144
-3.10109 1.7651 3.46054
-3.11415 1.76598 3.45162
-3.1282 1.76788 3.4447
-3.13433 1.76364 3.4278
-3.14244 1.76144 3.4139
-3.16244 1.76645 3.41397
3.91603 1.69895 2.3925
3.91208 1.69904 2.39853
3.8842 1.69432 2.41581
3.88046 1.70082 2.44975
3.86451 1.69792 2.45591
3.85459 1.69709 2.467
3.84367 1.69626 2.4781
3.83368 1.6933 2.48022
3.82377 1.69347 2.49129
3.82492 1.69877 2.51121
3.81198 1.69689 2.51933
3.78812 1.69419 2.53856
3.78223 1.6954 2.55259
3.78532 1.69958 2.5645
3.77943 1.70079 2.57853
3.77757 1.70506 2.59648
3.75457 1.69809 2.59776
3.74868 1.7003 2.61177
3.7297 1.69538 2.61599
3.71979 1.69555 2.62706
3.73294 1.70383 2.64684
3.71799 1.70095 2.654
3.70708 1.70112 2.66508
3.70219 1.70334 2.68009
3.68221 1.6984 2.68331
3.66927 1.69653 2.69144
3.66338 1.69876 2.70645
3.6544 1.69679 2.70855
3.64851 1.698 2.72258
3.64764 1.70227 2.74052
3.62766 1.69733 2.74375
3.61775 1.69752 2.75582
3.60884 1.69769 2.76689
3.59288 1.69479 2.77305
3.60101 1.70203 2.78989
3.5911 1.7022 2.80096
3.57413 1.69829 2.80615
