4.20401 1.72003 3.43506
4.18707 1.71716 3.44323
4.16812 1.71428 3.45042
4.16922 1.71747 3.46336
4.15429 1.71663 3.47349
4.14542 1.71787 3.48954
4.13755 1.72013 3.50657
4.1196 1.71825 3.51373
4.10971 1.71848 3.52881
4.10586 1.72278 3.54877
4.09689 1.72184 3.55286
4.086 1.72306 3.56692
4.07107 1.72122 3.57706
4.05111 1.71831 3.58226
4.04122 1.71954 3.59732
4.03134 1.72076 3.61238
4.01541 1.71891 3.62152
4.00653 1.72115 3.63756
4.00662 1.72433 3.64951
3.98464 1.71939 3.65275
3.97879 1.72268 3.67175
3.95681 1.71874 3.67498
3.94794 1.721 3.69201
3.94006 1.72324 3.70804
3.92413 1.7214 3.71819
3.91112 1.71839 3.71733
3.90225 1.72064 3.73337
3.89034 1.72082 3.74546
3.87945 1.72205 3.76052
3.8615 1.72017 3.76768
3.85866 1.72448 3.78865
3.82963 1.71744 3.78497
3.82166 1.71651 3.78904
3.82186 1.72289 3.81495
3.80492 1.72202 3.82309
3.78595 1.71811 3.82829
3.78515 1.7255 3.85419
3.76921 1.72361 3.86134
3.7553 1.7238 3.87345
3.73633 1.72087 3.87763
3.72937 1.72097 3.88368
3.72151 1.72324 3.90171
3.70859 1.72341 3.91281
3.69367 1.72357 3.92292
3.68076 1.72376 3.93502
3.67189 1.72602 3.95205
3.65685 1.72195 3.94722
3.64999 1.72524 3.96623
3.6381 1.72646 3.9803
3.62217 1.7256 3.98944
3.60824 1.72476 3.99956
3.59533 1.72595 4.01164
3.57334 1.72098 4.01288
3.56447 1.72424 4.0299
3.56054 1.72537 4.03891
3.5446 1.7245 4.04705
3.53068 1.72467 4.05815
3.52888 1.73106 4.08407
3.50587 1.72606 4.08332
3.48691 1.72415 4.08849
3.47803 1.72639 4.10453
3.47108 1.72649 4.11058
3.46019 1.72872 4.12563
3.44627 1.72889 4.13673
3.42628 1.72492 4.13794
3.4154 1.72716 4.154
3.41159 1.73352 4.17793
3.38352 1.72543 4.17026
3.37859 1.72756 4.17927
3.36971 1.72981 4.19531
3.35075 1.72789 4.20048
3.33986 1.72912 4.21554
3.32796 1.73132 4.2286
3.30798 1.72838 4.2318
3.29204 1.7265 4.23895
3.28722 1.73286 4.26289
3.27117 1.72777 4.25609
3.25825 1.72894 4.26717
3.2504 1.73224 4.28718
3.23143 1.73031 4.29135
3.21649 1.72944 4.29948
3.20865 1.73476 4.32046
3.18664 1.72976 4.3197
3.18575 1.73397 4.33365
3.1688 1.73207 4.33981
3.15083 1.73016 4.34497
3.13996 1.7334 4.36101
3.12502 1.73253 4.36913
3.09718 1.73388 4.39133
3.08617 1.73187 4.39044
3.07124 1.73201 4.39955
3.05936 1.73424 4.41461
3.04139 1.73232 4.41877
3.02545 1.73145 4.42691
3.00951 1.73158 4.43503
3.00268 1.73691 4.457
2.96079 1.73316 4.47238
2.92689 1.73239 4.48664
2.915 1.73361 4.50072
2.87616 1.73395 4.52201
2.86527 1.73618 4.53706
2.84832 1.73528 4.5432
2.82933 1.73332 4.54537
2.8215 1.73865 4.56736
2.80353 1.73673 4.57152
2.76368 1.73604 4.59083
2.73078 1.73527 4.6051
2.71787 1.73645 4.61718
2.687 1.73673 4.63441
2.68005 1.73782 4.64044
2.64613 1.73601 4.65173
2.63019 1.73614 4.65985
2.61628 1.73733 4.67194
2.58743 1.73863 4.69114
2.57845 1.73868 4.6942
2.51874 1.74129 4.73262
2.49873 1.73829 4.73182
2.48381 1.73945 4.74191
2.46786 1.73956 4.74903
2.39713 1.74015 4.78556
2.36627 1.74243 4.80376
2.35727 1.74044 4.80386
2.27553 1.741 4.83847
2.2606 1.74115 4.84758
2.2377 1.74337 4.86173
2.18785 1.74269 4.88111
2.17191 1.74382 4.88922
2.149 1.74401 4.90139
2.11508 1.7442 4.91264
2.08423 1.74551 4.93186
2.04928 1.74464 4.93914
2.04335 1.74577 4.94817
2.01147 1.74803 4.96438
1.97551 1.74513 4.96969
1.95957 1.74626 4.97779
1.94362 1.74636 4.98391
1.93462 1.74539 4.985
1.91869 1.74652 4.9931
1.90479 1.74973 5.00716
1.86883 1.74683 5.01247
1.85595 1.75108 5.02851
1.83389 1.74598 5.02075
1.82203 1.75125 5.03876
1.81305 1.7513 5.04183
1.79505 1.74932 5.042
1.77708 1.74839 5.04615
1.76523 1.75368 5.06516
1.74519 1.74962 5.06037
1.72823 1.7497 5.0655
1.71434 1.75294 5.08056
1.70125 1.74777 5.06873
1.68633 1.74993 5.07881
1.67348 1.75523 5.09883
1.65343 1.75216 5.09303
1.6375 1.7533 5.10213
1.62259 1.75549 5.11421
1.60256 1.75245 5.11041
1.58764 1.75461 5.12049
1.5838 1.76092 5.14143
1.55964 1.75263 5.12073
1.54681 1.75796 5.14275
1.53292 1.76219 5.1578
1.51082 1.75602 5.14505
1.49592 1.75922 5.15812
1.47999 1.76037 5.16722
1.46789 1.75518 5.15439
1.45197 1.75734 5.16448
1.43913 1.76366 5.18549
1.41701 1.75644 5.16976
1.40315 1.76173 5.18879
1.38725 1.76392 5.20088
1.36925 1.76295 5.20203
1.35922 1.7609 5.19813
1.34328 1.76203 5.20624
1.32323 1.75894 5.19943
1.30731 1.76111 5.21052
1.29243 1.76535 5.22557
1.27545 1.76439 5.22771
1.25541 1.76133 5.22291
1.24951 1.76552 5.23589
1.23048 1.76248 5.23208
1.21145 1.76045 5.22926
1.19555 1.76365 5.24233
1.17961 1.76477 5.24943
1.16058 1.76272 5.24561
1.14363 1.76384 5.25272
1.12458 1.76076 5.24691
1.11768 1.76496 5.2599
1.10178 1.76817 5.27297
1.08272 1.76406 5.26518
1.06578 1.76518 5.27229
1.04988 1.7694 5.28635
1.03085 1.76735 5.28252
1.01596 1.77057 5.29659
1.00383 1.76433 5.27977
0.986883 1.76544 5.28688
0.969961 1.7686 5.29696
0.952999 1.76869 5.30209
0.933968 1.76664 5.29826
0.918061 1.76983 5.31034
0.899022 1.76777 5.30551
0.888945 1.76363 5.29565
0.873084 1.76891 5.31369
0.855069 1.76789 5.31184
0.83706 1.76589 5.31101
0.821169 1.77011 5.32507
0.804262 1.7733 5.33715
0.785177 1.76915 5.32635
0.777231 1.77126 5.33338
0.760324 1.77445 5.34546
0.741238 1.7693 5.33468
0.722177 1.7662 5.32687
0.706301 1.77145 5.34291
0.689355 1.77356 5.35001
0.672417 1.77469 5.35812
0.645456 1.77579 5.36331
0.627487 1.77686 5.36743
0.592495 1.7759 5.36871
0.342722 1.77951 5.39954
0.279716 1.77854 5.39903
0.18971 1.77759 5.39872
0.163773 1.77973 5.40689
0.145734 1.77767 5.40205
0.127735 1.77768 5.40219
0.109728 1.77768 5.40132
0.0915966 1.77144 5.38455
0.0737596 1.77876 5.40558
0.0647291 1.77771 5.40166
0.0466982 1.77567 5.39783
0.0345622 1.77544 5.2469
0.0174773 1.77129 5.23609
-0.0003753 1.77758 5.25513
-0.00848301 1.77338 5.24126
-0.0264361 1.77548 5.24736
-0.0435366 1.7703 5.23456
-0.0614426 1.77549 5.24662
-0.0785118 1.77237 5.2378
-0.0954881 1.77343 5.24091
-0.113565 1.77029 5.23109
-0.130464 1.7745 5.24416
-0.139409 1.77761 5.25118
-0.15654 1.77137 5.2344
-0.174517 1.77243 5.23752
-0.191585 1.77031 5.22868
-0.209453 1.77557 5.24574
-0.226577 1.77035 5.22994
-0.244483 1.77554 5.242
-0.252575 1.77137 5.23012
-0.269551 1.77242 5.23324
-0.287559 1.77242 5.23237
-0.30455 1.77345 5.23348
-0.321588 1.77239 5.22863
-0.339564 1.77344 5.23175
-0.356633 1.77032 5.22292
-0.365563 1.77446 5.23193
-0.382647 1.77031 5.22112
-0.399716 1.76819 5.21228
-0.417653 1.77132 5.22037
-0.435514 1.7776 5.23841
-0.452629 1.77339 5.2236
-0.468713 1.77024 5.21277
-0.486697 1.77129 5.21489
-0.495657 1.77337 5.21992
-0.512703 1.77229 5.21407
-0.531625 1.77545 5.22416
-0.546756 1.77021 5.20735
-0.564739 1.77225 5.20946
-0.581785 1.77018 5.20362
-0.600668 1.77641 5.21867
-0.60776 1.77224 5.20678
-0.626674 1.77742 5.21785
-0.641882 1.76803 5.1911
-0.659819 1.77216 5.19918
-0.67971 1.77738 5.21325
-0.694809 1.7742 5.20041
-0.714715 1.77939 5.21248
-0.720839 1.77416 5.19661
-0.738815 1.77522 5.19973
-0.75683 1.7752 5.19786
-0.774805 1.77726 5.20097
-0.79182 1.77724 5.19909
-0.809787 1.78031 5.20319
-0.827779 1.78134 5.20431
-0.853792 1.78233 5.20249
-0.88786 1.78122 5.19376
-0.983954 1.7821 5.18147
-1.01802 1.78099 5.17274
-1.0511 1.77987 5.163
-1.06814 1.77879 5.15715
-1.07523 1.77563 5.14625
-1.09033 1.77144 5.13242
-1.13018 1.78176 5.15257
-1.14524 1.77964 5.14371
-1.16229 1.77856 5.13786
-1.17931 1.77853 5.13499
-1.18061 1.76495 5.09619
-1.20051 1.77116 5.10925
-1.22142 1.77735 5.12132
-1.23747 1.77626 5.11445
-1.25548 1.77726 5.11358
-1.26671 1.76782 5.0838
-1.28275 1.76675 5.07793
-1.29175 1.76775 5.07798
-1.31264 1.77398 5.09205
-1.33064 1.77599 5.09216
-1.34285 1.7676 5.06537
-1.36278 1.77275 5.07445
-1.37399 1.76436 5.04765
-1.39198 1.76537 5.04777
-1.40098 1.76639 5.04882
-1.42188 1.77258 5.06089
-1.43503 1.76731 5.04207
-1.45206 1.76725 5.03719
-1.47395 1.77347 5.05127
-1.48515 1.76611 5.02646
-1.50897 1.77645 5.04849
-1.51919 1.76805 5.02069
-1.5282 1.76804 5.01975
-1.55108 1.77528 5.03482
-1.5681 1.77624 5.03193
-1.58219 1.77308 5.02009
-1.60216 1.77715 5.02418
-1.61237 1.76876 4.99737
-1.63916 1.78118 5.0244
-1.63547 1.76657 4.98358
-1.65737 1.77278 4.99665
-1.67635 1.77582 4.99875
-1.6846 1.76535 4.96696
-1.71238 1.77879 4.99498
-1.71671 1.76415 4.95222
-1.74352 1.77554 4.97726
-1.7576 1.77339 4.9664
-1.7715 1.77959 4.97941
-1.78072 1.77117 4.9506
-1.79871 1.77321 4.95271
-1.81478 1.77208 4.94284
-1.83082 1.77201 4.93796
-1.841 1.76467 4.91415
-1.86175 1.77817 4.94711
-1.86705 1.7666 4.90831
-1.89092 1.77385 4.92439
-1.90991 1.77688 4.92549
-1.92204 1.77264 4.90864
-1.93517 1.76839 4.8918
-1.96004 1.77766 4.90885
-1.96335 1.76407 4.86907
-1.97333 1.76611 4.87112
-1.99918 1.77541 4.89017
-2.00543 1.76593 4.85736
-2.02346 1.7669 4.85448
-2.04146 1.76889 4.85358
-2.05261 1.76362 4.83474
-2.07846 1.77291 4.8528
-2.0855 1.77284 4.84786
-2.09273 1.7634 4.81805
-2.12056 1.77474 4.84009
-2.12778 1.76633 4.81227
-2.14581 1.76729 4.80839
-2.15595 1.76301 4.78953
-2.17789 1.76813 4.79662
-2.19199 1.76597 4.78475
-2.19805 1.76384 4.77583
-2.2298 1.77833 4.80786
-2.23309 1.76679 4.77105
-2.24914 1.7667 4.76417
-2.27012 1.77076 4.76727
-2.28125 1.7665 4.74941
-2.29338 1.76327 4.73355
-2.30434 1.76634 4.73759
-2.31941 1.76522 4.72872
-2.33842 1.76821 4.72781
-2.35052 1.76502 4.71395
-2.36658 1.76491 4.70607
-2.3846 1.76689 4.70418
-2.39868 1.76574 4.6933
-2.40375 1.76361 4.68437
-2.42473 1.76766 4.68647
-2.43488 1.76238 4.66762
-2.45584 1.76746 4.6717
-2.47289 1.76738 4.66583
-2.48204 1.76309 4.64596
-2.50597 1.76924 4.65505
-2.51301 1.76816 4.64912
-2.52021 1.76179 4.62427
-2.54512 1.76897 4.63535
-2.56511 1.77199 4.63545
-2.57427 1.7677 4.61558
-2.59229 1.76967 4.61269
-2.60834 1.76957 4.60581
-2.60947 1.76432 4.5889
-2.63045 1.76938 4.59198
-2.65439 1.7755 4.59907
-2.65664 1.76603 4.56722
-2.67763 1.76906 4.56834
-2.69762 1.77308 4.56843
-2.7117 1.77194 4.55855
-2.7227 1.77395 4.5586
-2.73875 1.77485 4.55171
-2.74592 1.76853 4.52985
-2.76789 1.77359 4.53294
-2.78 1.7714 4.51907
-2.79013 1.76714 4.5012
-2.81212 1.77218 4.50329
-2.82914 1.77413 4.49939
-2.83224 1.76996 4.48748
-2.85323 1.77397 4.48758
-2.85843 1.76761 4.4627
-2.88139 1.77268 4.4668
-2.8935 1.77049 4.45293
-2.9056 1.76829 4.43905
-2.91869 1.76713 4.42816
-2.92969 1.76914 4.42821
-2.94772 1.7711 4.42432
-2.95981 1.76991 4.41143
-2.9739 1.76876 4.40055
-2.99193 1.7707 4.39566
-3.00106 1.76745 4.37877
-3.01712 1.76835 4.37088
-3.02514 1.76831 4.36794
-3.03824 1.76713 4.35505
-3.05529 1.76803 4.34817
-3.07134 1.76996 4.34226
-3.08146 1.76673 4.32638
-3.11038 1.7749 4.33648
-3.10765 1.76438 4.30161
-3.11963 1.76741 4.30365
-3.13074 1.7652 4.28877
-3.1458 1.76509 4.28088
-3.15296 1.76079 4.26
-3.17792 1.76688 4.2651
-3.18607 1.7626 4.24622
-3.20311 1.76453 4.24032
-3.2062 1.76237 4.22937
-3.22027 1.76223 4.21948
-3.23632 1.76314 4.21258
-3.24645 1.76089 4.19569
-3.26152 1.76077 4.1868
-3.28055 1.76373 4.1829
-3.29462 1.76359 4.17301
-3.31662 1.7676 4.17312
-3.32366 1.76753 4.16817
-3.33377 1.76532 4.15328
-3.34191 1.76204 4.13438
-3.36391 1.76706 4.13448
-3.37007 1.76175 4.1136
-3.38118 1.76056 4.0997
-3.39922 1.76248 4.0938
-3.40725 1.76243 4.08986
-3.4134 1.75915 4.07096
-3.43441 1.76213 4.06907
-3.44751 1.76195 4.05617
-3.4596 1.76078 4.04428
-3.4816 1.76578 4.04337
-3.48676 1.76048 4.02248
-3.49886 1.75929 4.00959
-3.50491 1.75919 4.00264
-3.51304 1.75595 3.98574
-3.53405 1.75993 3.98384
-3.55111 1.76184 3.97694
-3.56914 1.76478 3.97203
-3.57332 1.75844 3.94916
-3.59136 1.76137 3.94325
-3.59444 1.75922 3.9333
-3.60653 1.75804 3.92041
-3.61863 1.75786 3.9075
-3.63171 1.7577 3.8966
-3.64877 1.75961 3.8897
-3.6678 1.76255 3.8848
-3.67395 1.75826 3.8649
-3.68397 1.76024 3.86295
-3.6921 1.75699 3.84606
-3.71014 1.75991 3.84015
-3.73235 1.75752 3.81235
-3.75257 1.7551 3.78353
-3.76854 1.75917 3.78759
-3.78262 1.76002 3.77669
-3.78975 1.75677 3.75978
-3.80482 1.75764 3.74988
-3.81395 1.75541 3.73398
-3.82504 1.75522 3.72107
-3.85103 1.76126 3.72217
-3.86213 1.76107 3.70926
-3.86322 1.75789 3.69731
-3.88028 1.75979 3.68941
-3.89138 1.75859 3.67551
-3.89554 1.7543 3.6556
-3.9126 1.75619 3.6477
-3.91774 1.75291 3.62879
-3.93678 1.75584 3.62289
-3.94184 1.75572 3.61493
-3.96286 1.75969 3.61203
-3.97397 1.75949 3.59811
-3.98507 1.75829 3.58421
-4.00313 1.7612 3.5773
-4.00033 1.7528 3.5504
-4.0164 1.75468 3.54149
-4.02543 1.75663 3.53753
-4.03851 1.75647 3.52663
-4.05061 1.75629 3.51372
-4.06369 1.75714 3.50281
-4.08274 1.76005 3.49591
-4.09583 1.76088 3.48399
-4.1109 1.76174 3.47409
-4.11803 1.7595 3.45718
-4.13401 1.76455 3.46022
-4.13717 1.76024 3.43931
-4.15026 1.76007 3.42741
-4.15938 1.75884 3.41149
-4.1953 1.77 3.4206
-4.23186 1.76193 3.34698
-4.25191 1.76586 3.34107
-4.24811 1.75847 3.31515
-4.2602 1.75829 3.30224
-4.27826 1.76218 3.29432
-4.29234 1.76303 3.28341
-4.30832 1.76807 3.28546
-4.31645 1.76584 3.26955
-4.32656 1.76563 3.25463
-4.33468 1.76339 3.23872
-4.34876 1.76524 3.2278
-4.35191 1.76095 3.20788
-4.37693 1.76692 3.20498
-4.37802 1.76476 3.19402
4.78111 1.70811 2.38374
4.76627 1.70744 2.40587
4.75151 1.70891 2.43696
4.7406 1.70811 2.45006
4.73272 1.70834 2.46512
4.6773 1.70752 2.54256
4.67344 1.70979 2.56055
4.65063 1.70819 2.58675
4.65071 1.71034 2.59672
4.64785 1.71263 2.61571
4.62589 1.70773 2.62195
4.62505 1.71103 2.64191
4.61414 1.71123 2.65499
4.59622 1.70739 2.66519
4.59637 1.71168 2.68512
4.59042 1.71178 2.69117
4.57751 1.70998 2.70429
4.55857 1.70611 2.7125
4.55069 1.70734 2.72754
4.53174 1.70347 2.73574
4.52587 1.70571 2.75175
4.52 1.70697 2.76878
4.51706 1.70811 2.77779
4.51219 1.71036 2.79479
4.49828 1.70853 2.80593
4.48637 1.70773 2.81903
4.4795 1.70998 2.83505
4.46356 1.70712 2.84421
4.44864 1.7053 2.85536
4.43967 1.70336 2.85945
4.4338 1.70562 2.87647
4.42391 1.70583 2.89054
4.41703 1.70807 2.90656
4.4011 1.70522 2.91572
4.39422 1.70646 2.93176
4.37729 1.70461 2.94092
4.37544 1.7079 2.96088
4.36546 1.70596 2.96399
4.35456 1.70617 2.97807
4.34667 1.70738 2.99211
4.33477 1.70659 3.00522
4.32588 1.70781 3.02027
4.30894 1.70494 3.02844
4.29704 1.70415 3.04154
4.29612 1.70629 3.05152
4.28521 1.70649 3.0646
4.26727 1.70363 3.07278
4.26845 1.70897 3.09569
4.25251 1.7071 3.10384
4.23859 1.70527 3.11497
4.22668 1.70546 3.12706
4.22778 1.70865 3.14001
4.20681 1.70372 3.14424
4.19893 1.70596 3.16027
4.18015 1.70741 3.18939
4.15432 1.70575 3.21162
4.13746 1.70605 3.23074
4.1316 1.70932 3.24874
4.10375 1.70665 3.26999
4.09587 1.70788 3.28503
4.08095 1.70705 3.29616
4.07608 1.7103 3.31315
4.06812 1.70938 3.31823
4.06024 1.71063 3.33427
4.05236 1.71287 3.3503
4.0324 1.70896 3.35551
4.01362 1.7114 3.38462
4.00976 1.71569 3.40358
3.99072 1.70963 3.39882
3.99594 1.71704 3.42667
3.97295 1.71208 3.42892
3.96607 1.71432 3.44494
3.95013 1.71245 3.45309
3.94025 1.71468 3.46813
3.92632 1.71284 3.47827
3.91634 1.71088 3.48037
3.90544 1.71209 3.49444
3.89655 1.71331 3.50849
3.86771 1.71164 3.52973
3.86184 1.7149 3.54673
3.84792 1.71407 3.55785
3.83499 1.71423 3.56794
3.80825 1.71675 3.60211
3.79332 1.71489 3.61125
3.64842 1.72015 3.75729
3.56094 1.71923 3.82697
3.46357 1.72153 3.91068
3.41696 1.72534 3.96298
3.33532 1.72211 4.01165
3.30253 1.72353 4.03888
3.26682 1.72712 4.0771
3.14542 1.72639 4.15804
2.93365 1.73493 4.32053
2.92073 1.7351 4.33163
2.8977 1.73006 4.32788
2.05213 1.74637 4.78607
2.03822 1.74755 4.79816
2.02821 1.74653 4.79625
2.00717 1.74247 4.79147
1.99733 1.74779 4.81246
1.97832 1.74479 4.81165
1.89058 1.74636 4.84629
1.79775 1.74377 4.87004
1.75091 1.74611 4.89136
1.61125 1.74687 4.9364
1.58732 1.74702 4.94558
1.49265 1.75272 4.98922
1.48573 1.75587 4.99923
1.46976 1.75594 5.00334
1.45074 1.75293 5.00153
1.43377 1.753 5.00566
1.4178 1.75307 5.00978
1.39982 1.75313 5.01291
1.38697 1.75842 5.03194
1.37102 1.75952 5.03804
1.362 1.7575 5.03614
1.34505 1.7586 5.04225
1.32909 1.7597 5.04836
1.30594 1.75042 5.02866
1.28895 1.75046 5.03079
1.25602 1.7506 5.03904
1.24701 1.74961 5.03912
1.21513 1.75186 5.05433
1.19815 1.7519 5.05646
1.1812 1.75301 5.06357
1.16525 1.75411 5.06967
1.14723 1.7521 5.06784
1.13824 1.75212 5.06891
1.12331 1.75426 5.07799
1.08833 1.75233 5.08128
1.07033 1.75135 5.08143
1.05644 1.75556 5.09548
1.03949 1.75668 5.10259
1.02945 1.7546 5.09669
1.01348 1.75468 5.10181
1.00172 1.76515 5.13275
0.983731 1.76418 5.1339
0.960468 1.75169 5.10026
0.950839 1.76741 5.1481
0.928614 1.756 5.11944
0.920638 1.75705 5.12248
0.903684 1.75815 5.12859
0.884606 1.75301 5.11881
0.869715 1.75723 5.13286
0.851676 1.75517 5.12803
0.8358 1.75942 5.14409
0.817769 1.75737 5.14025
0.802877 1.76159 5.15431
0.798079 1.77098 5.18021
0.776924 1.7627 5.16049
0.757808 1.75649 5.14572
0.743986 1.76384 5.16872
0.725955 1.7618 5.16488
0.712195 1.77226 5.19584
0.694133 1.76916 5.18802
0.683001 1.76192 5.17121
0.667118 1.76715 5.18625
0.649056 1.76404 5.17843
0.632087 1.76412 5.18256
0.615133 1.76522 5.18867
0.598173 1.7673 5.19377
0.582304 1.77257 5.21081
0.218581 1.77735 5.24849
0.200573 1.77635 5.24764
0.183558 1.77533 5.24578
0.165489 1.77221 5.23696
0.148613 1.77746 5.25301
0.130497 1.77225 5.23822
0.113614 1.77748 5.25328
0.104514 1.7733 5.24041
0.0875757 1.77543 5.2485
0.0694451 1.77019 5.23171
0.052546 1.7744 5.24478
-0.332653 1.77729 5.08662
-0.442687 1.7783 5.08243
-0.450702 1.77827 5.08049
-0.467716 1.77826 5.07862
-0.551774 1.7782 5.07125
-0.568789 1.77818 5.06938
-0.67886 1.77911 5.0602
-1.13243 1.7793 4.9866
-1.14043 1.77929 4.98566
-1.15648 1.77922 4.97978
-1.17156 1.77607 4.96894
-1.18954 1.77912 4.97203
-1.20656 1.77909 4.96916
-1.22162 1.77698 4.9613
-1.23574 1.77277 4.94647
-1.26175 1.77476 4.94464
-1.27486 1.77055 4.9298
-1.29673 1.77882 4.94684
-1.31085 1.7746 4.93201
-1.32784 1.77562 4.93212
-1.36093 1.77448 4.92138
-1.36797 1.77339 4.91545
-1.38693 1.77648 4.92055
-1.40297 1.77642 4.91567
-1.41707 1.77324 4.90282
-1.43602 1.77734 4.90891
-1.44914 1.77311 4.89307
-1.45328 1.76685 4.87519
-1.47613 1.77615 4.89422
-1.49219 1.77506 4.88736
-1.50433 1.76978 4.86853
-1.52621 1.77702 4.88359
-1.53738 1.77072 4.86276
-1.55636 1.77376 4.86486
-1.5724 1.7737 4.85998
-1.57846 1.77159 4.85206
-1.59353 1.76946 4.8432
-1.61445 1.77561 4.85227
-1.63148 1.77558 4.8494
-1.64164 1.76928 4.82856
-1.66356 1.77544 4.83864
-1.67569 1.7712 4.82179
-1.68469 1.7722 4.82184
-1.70562 1.77735 4.83093
-1.71676 1.77208 4.81209
-1.73085 1.76993 4.80122
-1.75375 1.77712 4.81329
-1.76587 1.77291 4.79844
-1.77897 1.76971 4.78459
-1.79893 1.7738 4.78968
-1.80598 1.7727 4.78274
-1.82593 1.77682 4.78983
-1.84099 1.77671 4.78195
-1.85705 1.7756 4.77409
-1.86819 1.77035 4.75624
-1.88716 1.7744 4.75933
-1.90321 1.77433 4.75345
-1.91024 1.77326 4.74852
-1.92825 1.77526 4.74762
-1.94038 1.77101 4.73077
-1.95837 1.77404 4.73187
-1.97638 1.77604 4.73097
-1.99144 1.77493 4.7231
-2.0065 1.77382 4.71523
-2.01747 1.77689 4.71927
-2.03253 1.77578 4.7114
-2.04856 1.77672 4.7065
-2.06854 1.77976 4.70861
-2.07871 1.77446 4.68776
-2.0967 1.77749 4.68885
-2.11079 1.77532 4.67699
-2.11684 1.77322 4.67006
-2.13485 1.77521 4.66817
-2.15089 1.77614 4.66328
-2.17806 1.77284 4.64153
-2.19607 1.77482 4.63963
-2.21408 1.7768 4.63774
-2.22211 1.77675 4.6338
-2.23914 1.77772 4.63091
-2.2604 1.76922 4.59619
-2.2784 1.77223 4.59628
-2.29839 1.77526 4.59739
-2.31246 1.77414 4.58851
-2.32049 1.77408 4.58457
-2.3385 1.77607 4.58268
-2.35455 1.77699 4.57679
-2.37059 1.77791 4.57089
-2.38466 1.77679 4.56201
-2.41774 1.77865 4.55123
-2.42985 1.77545 4.53737
-2.43788 1.7754 4.53343
-2.47094 1.77829 4.52464
-2.48502 1.77714 4.51376
-2.50303 1.77913 4.51286
-2.76215 1.7761 4.36484
-2.77031 1.77081 4.34498
-2.81943 1.7746 4.32829
-2.84252 1.77543 4.31645
-2.85856 1.77636 4.31056
-2.87067 1.77416 4.29668
-2.88869 1.77713 4.29377
-2.90277 1.77597 4.28289
-2.91585 1.77584 4.27299
-2.93189 1.77676 4.2671
-2.93103 1.77149 4.24917
-2.95004 1.77449 4.24826
-2.96114 1.77229 4.23438
-2.97225 1.77009 4.22049
-2.99325 1.77411 4.22059
-3.00634 1.77294 4.2087
-3.01942 1.77279 4.1978
-3.04448 1.77469 4.18996
-3.05558 1.77249 4.17608
-3.08274 1.7722 4.15528
-3.09386 1.76998 4.1404
-3.11682 1.77606 4.14448
-3.12903 1.76967 4.11767
-3.16113 1.77248 4.10386
-3.18016 1.77544 4.09996
-3.20731 1.77516 4.08017
-3.2204 1.77399 4.06828
-3.22842 1.77495 4.06533
-3.23457 1.77066 4.04544
-3.24667 1.76848 4.03256
-3.28988 1.7701 4.00486
-3.31186 1.77514 4.00695
-3.31396 1.77196 3.99501
-3.32407 1.76975 3.98011
-3.35914 1.77463 3.97031
-3.37322 1.77447 3.95941
-3.39245 1.77004 3.92962
-3.40345 1.77305 3.92966
-3.41554 1.77188 3.91776
-3.41972 1.76655 3.89487
-3.43279 1.76641 3.88497
-3.44785 1.7673 3.87707
-3.45598 1.76406 3.86018
-3.48492 1.77318 3.86726
-3.49503 1.77096 3.85237
-3.49414 1.76676 3.83842
-3.50523 1.76559 3.82652
-3.54131 1.77145 3.8157
-3.55242 1.76924 3.80082
-3.56946 1.77217 3.7959
-3.5647 1.76271 3.765
-3.57273 1.76266 3.76106
-3.60168 1.77177 3.76715
-3.60485 1.76645 3.74525
-3.6209 1.76835 3.73834
-3.63796 1.77025 3.73044
-3.64607 1.76803 3.71553
-3.66114 1.76891 3.70663
-3.67016 1.76987 3.70368
-3.67036 1.76349 3.67777
-3.69831 1.77158 3.68287
-3.6985 1.76523 3.65896
-3.71357 1.7661 3.65006
-3.72764 1.76696 3.64015
-3.73973 1.7668 3.62824
-3.74885 1.76457 3.61234
-3.75887 1.76654 3.61039
-3.76797 1.76434 3.59649
-3.77908 1.76414 3.58257
-3.79612 1.76607 3.57667
-3.80424 1.76384 3.56076
-3.81733 1.76367 3.54886
-3.83141 1.76553 3.53894
-3.83348 1.76338 3.52898
-3.84855 1.76426 3.52008
-3.85865 1.76306 3.50618
-3.88067 1.76803 3.50327
-3.89475 1.76889 3.49336
-3.91794 1.76853 3.46754
-3.92804 1.76734 3.45463
-3.9321 1.76623 3.44667
-3.97136 1.76775 3.41294
4.37379 1.71565 2.74075
4.33713 1.71435 2.78705
4.32136 1.71681 2.81714
4.29653 1.71517 2.84035
4.28764 1.71538 2.85442
4.2847 1.7165 2.86243
4.27279 1.71569 2.87453
4.25183 1.71179 2.88075
4.24193 1.71199 2.89382
4.23505 1.71322 2.90885
4.23219 1.7165 2.92783
4.21927 1.71568 2.93894
4.20334 1.71282 2.94811
4.19638 1.7129 2.95316
4.1895 1.71414 2.96919
4.18161 1.71537 2.98424
4.17775 1.71864 3.00222
4.16282 1.71678 3.01136
4.14588 1.71393 3.02053
4.14201 1.71718 3.03751
4.13607 1.71729 3.04456
4.12617 1.71749 3.05763
4.10822 1.71461 3.06481
4.09731 1.71479 3.07689
4.09445 1.71808 3.09587
4.06946 1.71111 3.09716
4.07164 1.71746 3.12105
4.05864 1.71447 3.12119
4.05478 1.71776 3.14018
4.03582 1.71385 3.14538
4.03197 1.71813 3.16435
4.02106 1.71832 3.17643
4.00713 1.71647 3.18656
4.00328 1.72076 3.20553
3.99136 1.71993 3.21663
3.98843 1.72106 3.22564
3.96745 1.71712 3.22886
3.96763 1.72246 3.25178
3.96075 1.72471 3.2678
3.94078 1.7208 3.27301
3.9188 1.71584 3.27525
3.91989 1.71902 3.2872
3.90395 1.71716 3.29634
3.90111 1.72146 3.31631
3.89826 1.72576 3.33627
3.87829 1.72183 3.34047
3.86033 1.71893 3.34665
3.86252 1.7253 3.37155
3.83449 1.71726 3.36788
3.83156 1.7194 3.37687
3.82771 1.72368 3.39584
3.80572 1.71773 3.39809
3.79381 1.71792 3.41018
3.78895 1.72219 3.42815
3.76998 1.71827 3.43336
3.7631 1.72052 3.44938
3.75312 1.71855 3.45148
3.7412 1.71872 3.46257
3.72425 1.71684 3.46973
3.72645 1.72422 3.4956
3.70446 1.71925 3.49684
3.69457 1.72047 3.5109
3.68871 1.72375 3.5299
3.67368 1.71971 3.52607
3.65571 1.71578 3.53027
3.65892 1.72419 3.55812
3.62987 1.71612 3.55246
3.62401 1.71939 3.57046
3.62117 1.72471 3.5914
3.61027 1.72491 3.60448
3.59231 1.72299 3.60965
3.59038 1.72514 3.61963
3.57646 1.7243 3.62975
3.56454 1.72447 3.64084
3.55868 1.72774 3.65884
3.53165 1.72071 3.65515
3.53184 1.72808 3.68004
3.51084 1.72311 3.68127
3.50993 1.72627 3.69223
3.48692 1.72027 3.69149
3.48712 1.72766 3.71739
3.46612 1.72267 3.71762
3.45825 1.72593 3.73463
3.45643 1.73228 3.75856
3.42837 1.7242 3.75189
3.42847 1.72739 3.76484
3.41959 1.72962 3.77988
3.40263 1.72772 3.78603
3.38365 1.72478 3.78922
3.37477 1.72701 3.80426
3.36588 1.72924 3.81929
3.3469 1.7263 3.82248
3.34398 1.72845 3.83247
3.32803 1.72656 3.83962
3.31612 1.72775 3.85169
3.30522 1.72895 3.86476
3.29028 1.72808 3.87289
3.27736 1.72824 3.88298
3.26646 1.72944 3.89605
3.25646 1.72746 3.89715
3.24961 1.73175 3.91614
3.23062 1.72879 3.91833
3.22074 1.73102 3.93337
3.2068 1.73015 3.94149
3.1959 1.73235 3.95455
3.18097 1.73149 3.96367
3.17816 1.73886 3.98859
3.16513 1.73481 3.98474
3.14614 1.73086 3.98695
3.13221 1.73102 3.99705
3.1203 1.73219 4.00812
3.11142 1.73543 4.02415
3.0884 1.7294 4.02141
3.08053 1.73366 4.03841
3.07256 1.73273 4.04248
3.05154 1.72771 4.04071
3.04367 1.73197 4.05771
3.02873 1.7311 4.06584
3.01278 1.73021 4.07297
2.99783 1.72933 4.0801
2.991 1.73464 4.10107
2.98302 1.73369 4.10415
2.97111 1.73488 4.11622
2.94908 1.72985 4.11346
2.94526 1.7362 4.1364
2.92426 1.73221 4.13662
2.91437 1.73544 4.15165
2.8964 1.7325 4.15483
2.88753 1.73576 4.17185
2.88056 1.73582 4.1759
2.87068 1.73906 4.19193
2.85371 1.73714 4.19609
2.83775 1.73622 4.20122
2.82889 1.74051 4.22023
2.81293 1.73859 4.22537
2.79798 1.73871 4.23249
2.78697 1.73569 4.23061
2.77406 1.73687 4.2427
2.76721 1.74218 4.26267
2.74924 1.74025 4.26684
2.73632 1.74141 4.27692
2.72138 1.74153 4.28503
2.70035 1.73651 4.28226
2.7025 1.74279 4.30116
2.68554 1.74187 4.3063
2.66755 1.73891 4.30848
2.6597 1.74422 4.32846
2.64173 1.74227 4.33162
2.62576 1.74036 4.33677
2.61792 1.74566 4.35676
2.60892 1.74468 4.35784
2.59601 1.74585 4.36892
2.57803 1.74391 4.37209
2.56309 1.74404 4.3802
2.55017 1.74521 4.39128
2.53624 1.74534 4.39938
2.51419 1.74029 4.39462
2.51231 1.74551 4.40956
2.49533 1.74357 4.41272
2.4814 1.74371 4.42182
2.46748 1.74487 4.43191
2.45152 1.74397 4.43805
2.43455 1.74304 4.44219
2.42366 1.74625 4.45623
2.41771 1.74736 4.46326
2.39567 1.74229 4.4575
2.38479 1.74553 4.47353
2.37288 1.74772 4.48559
2.35387 1.74472 4.48478
2.3369 1.74279 4.48894
2.3311 1.75118 4.51486
2.30702 1.74405 4.50514
2.30108 1.74516 4.51217
2.28918 1.74837 4.52622
2.27118 1.74539 4.5264
2.2532 1.74343 4.52856
2.24131 1.74665 4.54261
2.21923 1.74053 4.53386
2.20938 1.74582 4.55286
2.20547 1.749 4.56484
2.18543 1.74394 4.56007
2.1654 1.73989 4.55628
2.15963 1.74934 4.58619
2.13451 1.74012 4.57051
2.12261 1.74332 4.58356
2.11174 1.74758 4.60058
2.09069 1.74251 4.59481
2.08576 1.74465 4.60382
2.07389 1.74891 4.62084
2.05487 1.74588 4.61803
2.02702 1.74919 4.6382
2.00903 1.74722 4.63936
1.99612 1.74941 4.65143
1.9912 1.75156 4.66143
1.96912 1.74543 4.65169
1.95213 1.74447 4.65383
1.94229 1.74979 4.67483
1.92736 1.75193 4.68391
1.90732 1.74686 4.67814
1.89135 1.74694 4.68326
1.88541 1.74805 4.69029
1.87046 1.74917 4.69738
1.85962 1.75447 4.71739
1.8365 1.74627 4.70268
1.82155 1.74738 4.70978
1.80867 1.75061 4.72483
1.7927 1.7507 4.72995
1.78267 1.74864 4.72606
1.76673 1.74876 4.73318
1.75177 1.74886 4.73929
1.7307 1.74374 4.73052
1.7219 1.75213 4.75647
1.70799 1.75431 4.76754
1.68793 1.74922 4.76077
1.67403 1.7524 4.77283
1.66603 1.75143 4.7739
1.65213 1.75461 4.78596
1.63618 1.75573 4.79306
1.61509 1.74958 4.78231
1.60015 1.75071 4.79041
1.58521 1.75182 4.79751
1.56618 1.74778 4.79371
1.56231 1.75403 4.81065
1.5453 1.75203 4.80981
1.52935 1.75213 4.81593
1.51645 1.75635 4.82996
1.50051 1.75646 4.83708
1.48043 1.75133 4.82731
1.46549 1.75246 4.83541
1.46062 1.75871 4.85235
1.44155 1.7536 4.84357
1.42663 1.75575 4.85365
1.40965 1.75481 4.85679
1.39368 1.75488 4.86091
1.37773 1.75598 4.86702
1.35866 1.75086 4.85824
1.35482 1.75818 4.87916
1.33678 1.75512 4.87434
1.32187 1.75729 4.88542
1.30693 1.75942 4.8935
1.28994 1.75846 4.89565
1.274 1.75959 4.90375
1.25597 1.75755 4.89992
1.24696 1.75552 4.89802
1.23304 1.75869 4.90907
1.21919 1.76399 4.9281
1.20113 1.7599 4.9213
1.18519 1.76201 4.92839
1.1682 1.76105 4.93053
1.15224 1.76214 4.93564
1.13837 1.76639 4.95168
1.12833 1.76432 4.94678
1.11235 1.76437 4.94991
1.09747 1.76861 4.96496
1.07943 1.76555 4.96014
1.06138 1.76247 4.95432
1.04645 1.76462 4.9634
1.02845 1.76263 4.96356
1.02046 1.76265 4.96462
1.00658 1.7679 4.98065
0.971573 1.76491 4.97996
0.938619 1.76502 4.98621
0.922666 1.76712 4.9923
0.91572 1.76923 4.99932
0.896665 1.76514 4.99252
0.881774 1.76936 5.00658
0.864782 1.76938 5.0077
0.849843 1.77051 5.0158
0.831805 1.76845 5.01097
0.813766 1.76539 5.00615
0.790898 1.77066 5.02324
-1.15845 1.77631 4.85082
-1.18153 1.77416 4.84003
-1.19952 1.77621 4.84213
-1.21265 1.77196 4.82529
-1.24276 1.76876 4.81056
-1.26268 1.77393 4.82064
-1.28063 1.77804 4.82771
-1.28671 1.77488 4.81681
-1.31589 1.76957 4.7941
-1.33481 1.77473 4.80417
-1.34696 1.76844 4.78435
-1.36784 1.77568 4.7994
-1.37903 1.76833 4.77559
-1.40307 1.76927 4.77076
-1.42202 1.77338 4.77684
-1.43805 1.77333 4.77296
-1.46719 1.76907 4.75424
-1.48713 1.7742 4.76232
-1.50412 1.77623 4.76342
-1.50825 1.77098 4.74652
-1.54032 1.77085 4.73676
-1.55829 1.77393 4.74085
-1.57141 1.7697 4.72501
-1.59037 1.7738 4.7311
-1.60736 1.77581 4.73119
-1.60857 1.76643 4.70534
-1.62946 1.77364 4.71839
-1.64453 1.77252 4.70952
-1.65957 1.77245 4.70463
-1.68676 1.7661 4.67993
-1.71764 1.77535 4.69503
-1.74483 1.77 4.67031
-1.76575 1.77616 4.68038
-1.78081 1.77505 4.6725
-1.79683 1.77602 4.66961
-1.81384 1.77802 4.66871
-1.82188 1.77695 4.66378
-1.83496 1.7748 4.65291
-1.85296 1.77681 4.65302
-1.86605 1.77464 4.64115
-1.87817 1.77041 4.6253
-1.89615 1.77347 4.62839
-1.91611 1.77754 4.63248
-1.92022 1.77334 4.61857
-1.93918 1.77743 4.62366
-1.95523 1.77735 4.61778
-1.9693 1.77621 4.6079
-1.98239 1.77404 4.59603
-2.00136 1.77812 4.60011
-2.02247 1.77591 4.5853
-2.0385 1.77686 4.58141
-2.04865 1.77159 4.56256
-2.07058 1.77774 4.57163
-2.08073 1.77245 4.55179
-2.10069 1.77654 4.55688
-2.11575 1.77643 4.54899
-2.12883 1.77428 4.53812
-2.13489 1.77318 4.53118
-2.15485 1.77725 4.53527
-2.18103 1.77393 4.51251
-2.21704 1.77793 4.51073
-2.23013 1.77576 4.49886
-2.23814 1.77673 4.4969
-2.25124 1.77457 4.48503
-2.26923 1.77758 4.48512
-2.31045 1.77418 4.45648
-2.36363 1.77486 4.43287
-2.65274 1.77487 4.28602
-2.71101 1.77439 4.25146
-2.79133 1.77581 4.20904
-2.80046 1.77155 4.19117
-2.83255 1.7744 4.17937
-2.8386 1.77331 4.17343
-2.87684 1.77087 4.14175
-2.90597 1.77164 4.12496
-2.92003 1.77151 4.11606
-2.94311 1.77237 4.10522
-2.98432 1.77198 4.07754
-3.02048 1.7737 4.05678
-3.02861 1.76945 4.0399
-3.05972 1.77125 4.02511
-3.07577 1.77318 4.0192
-3.08983 1.77305 4.0103
-3.1039 1.77293 4.00141
-3.11093 1.77388 3.99745
-3.13313 1.77049 3.97066
-3.16424 1.77231 3.95687
-3.17731 1.77217 3.94697
-3.18841 1.77099 3.93407
-3.24578 1.7693 3.88552
-3.28699 1.76992 3.85782
-3.28907 1.76676 3.84688
-3.31227 1.76439 3.82108
-3.3293 1.76734 3.81717
-3.35744 1.76808 3.79837
-3.38963 1.76772 3.77261
-3.43086 1.7693 3.74289
-3.44691 1.77121 3.73598
-3.54053 1.77005 3.6537
-3.57075 1.76864 3.62494
-3.609 1.76918 3.59222
-3.64427 1.76767 3.5565
4.5466 1.69832 2.18563
4.52809 1.70528 2.24967
4.51833 1.70776 2.28172
4.50843 1.70796 2.29479
4.50347 1.70705 2.30084
4.4976 1.70829 2.31687
4.48669 1.70748 2.32896
4.4798 1.7087 2.344
4.47291 1.70893 2.35905
4.44808 1.70629 2.38228
4.41645 1.70603 2.43053
4.40568 1.70949 2.46156
4.37792 1.70697 2.49281
4.36228 1.71269 2.54085
4.35338 1.71289 2.55392
4.34147 1.71208 2.56602
4.33954 1.71321 2.57502
4.32762 1.71238 2.58613
4.31973 1.71261 2.60118
4.28213 1.71342 2.65446
4.2713 1.71476 2.67653
4.25838 1.71393 2.68764
4.25552 1.7162 2.70563
4.24159 1.71436 2.71576
4.22566 1.7125 2.72491
4.21591 1.717 2.75792
4.20493 1.71404 2.76005
4.19502 1.71424 2.77312
4.18814 1.71546 2.78816
4.17723 1.71565 2.80024
4.1623 1.71381 2.81038
4.15943 1.71606 2.82737
4.13746 1.71114 2.83161
4.13955 1.71431 2.84355
4.13569 1.71758 2.86153
4.11673 1.71368 2.86773
4.11589 1.71798 2.88768
4.08988 1.711 2.88798
4.08803 1.71528 2.90693
4.07108 1.7114 2.91412
4.07124 1.71671 2.93504
4.05724 1.71272 2.93521
4.0574 1.71803 2.95613
4.03039 1.71004 2.95545
4.03256 1.71636 2.97734
4.02166 1.71656 2.99042
4.00672 1.7147 2.99957
4.00177 1.7148 3.0056
3.99287 1.71501 3.01967
3.987 1.71725 3.03568
3.98112 1.71949 3.05169
3.95612 1.71351 3.05197
3.95931 1.71988 3.07686
3.93245 1.71818 3.09609
3.9275 1.71829 3.10312
3.91459 1.71746 3.11423
3.89561 1.71353 3.11844
3.88973 1.71577 3.13445
3.88588 1.71906 3.15343
3.87296 1.71922 3.16353
3.85399 1.7153 3.16873
3.85811 1.71952 3.18364
3.83209 1.71251 3.18194
3.83226 1.71784 3.20386
3.8143 1.71494 3.21004
3.81951 1.72334 3.23688
3.78946 1.71427 3.23124
3.79467 1.72266 3.25808
3.76957 1.71251 3.24642
3.75564 1.71165 3.25554
3.75783 1.71902 3.28042
3.73584 1.71305 3.28167
3.72997 1.7163 3.29867
3.7241 1.71956 3.31567
3.70512 1.71562 3.31887
3.68715 1.71171 3.32406
3.68926 1.71591 3.33799
3.67735 1.7161 3.35007
3.66643 1.71627 3.36116
3.65956 1.71953 3.37816
3.63252 1.71147 3.37348
3.6327 1.71781 3.39639
3.61877 1.71696 3.40551
3.6229 1.7222 3.4224
3.59283 1.71211 3.41478
3.59806 1.72153 3.4436
3.57202 1.71449 3.4399
3.56918 1.71981 3.46085
3.56028 1.721 3.4739
3.54434 1.71912 3.48105
3.53737 1.7182 3.48612
3.53755 1.72454 3.50903
3.5095 1.71647 3.50336
3.51069 1.72384 3.52824
3.49071 1.7199 3.53145
3.47375 1.71699 3.53662
3.46586 1.71921 3.55165
3.45001 1.72151 3.57074
3.44415 1.72478 3.58874
3.43021 1.72392 3.59786
3.4183 1.72409 3.60894
3.39932 1.72115 3.61213
3.39245 1.72441 3.62914
3.38549 1.72449 3.63419
3.36247 1.71747 3.63247
3.36468 1.72687 3.65931
3.34872 1.72497 3.66546
3.34387 1.72926 3.68444
3.3259 1.72634 3.68962
3.32307 1.73167 3.71156
3.28996 1.72049 3.69798
3.29208 1.72571 3.71289
3.27107 1.72072 3.71312
3.27128 1.72811 3.73901
3.26037 1.72929 3.75108
3.24441 1.7274 3.75723
3.22745 1.72548 3.76238
3.22563 1.73184 3.78631
3.20453 1.72366 3.77358
3.20372 1.73103 3.79848
3.19181 1.7312 3.80957
3.17686 1.73032 3.8167
3.1508 1.72323 3.81
3.14697 1.72856 3.83195
3.13101 1.72665 3.8371
3.13213 1.73188 3.85302
3.10606 1.72377 3.84433
3.11032 1.73427 3.87815
3.08628 1.72821 3.87342
3.07841 1.73147 3.89043
3.05639 1.72644 3.88767
3.05559 1.73384 3.91457
3.03762 1.7309 3.91775
3.03873 1.73612 3.93267
3.01671 1.73111 3.93091
3.00682 1.73332 3.94495
2.99085 1.73139 3.9491
2.98804 1.73776 3.97403
2.94905 1.73081 3.97543
2.95219 1.73709 3.99432
2.93118 1.73207 3.99255
2.91421 1.73016 3.99771
2.90533 1.73339 4.01273
2.89747 1.73766 4.03073
2.88251 1.73676 4.03685
2.86656 1.73486 4.043
2.86162 1.73698 4.05101
2.84667 1.7361 4.05813
2.81981 1.73638 4.07634
2.80992 1.73961 4.09136
2.78687 1.73354 4.08563
2.77901 1.73781 4.10363
2.77002 1.73583 4.10472
2.76823 1.74425 4.13262
2.75126 1.74232 4.13677
2.73732 1.74245 4.14488
2.71934 1.74049 4.14704
2.70135 1.73754 4.14922
2.69957 1.74595 4.17711
2.68247 1.73879 4.16535
2.67765 1.74513 4.18829
2.65561 1.74007 4.18353
2.64776 1.74537 4.20352
2.62674 1.74034 4.20075
2.6128 1.74047 4.20885
2.59684 1.73956 4.21399
2.59595 1.74378 4.22893
2.57694 1.73977 4.22714
2.56504 1.74197 4.24019
2.55719 1.74727 4.26018
2.54021 1.74533 4.26334
2.52424 1.7444 4.26747
2.51032 1.74455 4.27757
2.49638 1.74468 4.28568
2.48232 1.74058 4.27784
2.48258 1.75108 4.31169
2.45647 1.74289 4.29801
2.44965 1.74924 4.32097
2.43064 1.74523 4.32017
2.41974 1.74845 4.33421
2.40784 1.75065 4.34727
2.39174 1.74347 4.33449
2.3839 1.74977 4.35446
2.36386 1.74473 4.35068
2.35805 1.75209 4.37462
2.31699 1.74301 4.36807
2.29014 1.74531 4.38724
2.28114 1.74432 4.38732
2.26923 1.74651 4.39938
2.25631 1.74768 4.41046
2.2312 1.73949 4.39677
2.23252 1.7531 4.43756
2.20131 1.73972 4.41099
2.19551 1.74711 4.43693
2.16952 1.74414 4.43817
2.16068 1.74946 4.45916
2.13657 1.74127 4.44546
2.12671 1.74654 4.46346
2.10157 1.73731 4.44678
2.09986 1.74986 4.48362
2.08678 1.74372 4.4738
2.0698 1.74278 4.47695
2.06707 1.75428 4.5108
2.03786 1.74091 4.48422
2.02799 1.74618 4.50221
2.00491 1.73903 4.49149
2.00015 1.74849 4.52239
1.98502 1.74127 4.50661
1.97722 1.74864 4.53156
1.95614 1.74251 4.52181
1.94935 1.75092 4.54874
1.92726 1.74477 4.538
1.91741 1.75007 4.558
1.89431 1.74288 4.54428
1.88651 1.75027 4.57023
1.86933 1.74096 4.54849
1.86254 1.74937 4.57542
1.84453 1.74635 4.5736
1.8306 1.74751 4.58369
1.80952 1.74136 4.57294
1.80276 1.75182 4.60384
1.78372 1.74776 4.59904
1.78084 1.753 4.61499
1.75873 1.74581 4.60126
1.7489 1.75214 4.62325
1.7268 1.74497 4.61052
1.71594 1.75024 4.62852
1.70201 1.75139 4.63761
1.68298 1.74834 4.6338
1.675 1.74839 4.63686
1.66005 1.7485 4.64397
1.64713 1.75066 4.65404
1.63218 1.75178 4.66114
1.61111 1.74666 4.65237
1.60128 1.75298 4.67335
1.58325 1.74995 4.67053
1.58245 1.75933 4.6964
1.5593 1.74905 4.67673
1.5505 1.75744 4.70267
1.52736 1.74919 4.68497
1.5165 1.75448 4.70397
1.49747 1.75142 4.69916
1.48047 1.74945 4.70032
1.47659 1.75467 4.71527
1.45754 1.7506 4.70948
1.44363 1.75377 4.72053
1.42559 1.74973 4.71673
1.41271 1.75396 4.73177
1.40084 1.75922 4.74878
1.3787 1.75097 4.73107
1.36685 1.75626 4.75008
1.35474 1.75006 4.73626
1.34289 1.75636 4.75626
1.32796 1.75849 4.76434
1.30786 1.75233 4.75258
1.29705 1.75969 4.77656
1.28106 1.75873 4.77869
1.26511 1.75984 4.7848
1.25918 1.76297 4.7938
1.23599 1.75263 4.77012
1.22415 1.75894 4.79012
1.21022 1.7611 4.8002
1.19221 1.75908 4.79836
1.17519 1.75706 4.79652
1.15021 1.75511 4.79874
1.1394 1.76349 4.8237
1.11928 1.75728 4.80894
1.10749 1.76567 4.83491
1.08839 1.75951 4.82314
1.05646 1.76067 4.83237
1.03145 1.75867 4.83158
1.01963 1.76702 4.85455
1.00159 1.76294 4.84875
0.985624 1.76403 4.85385
0.952654 1.76311 4.85811
0.925553 1.75694 4.84541
0.912755 1.76534 4.87138
0.897817 1.76746 4.87947
0.880825 1.76749 4.88059
0.862739 1.76234 4.8698
0.829778 1.76244 4.87505
0.806855 1.7646 4.88519
0.791956 1.76881 4.89825
0.773862 1.76264 4.88647
0.742994 1.76792 4.90363
0.683979 1.76493 4.90212
0.653095 1.76918 4.91729
0.620126 1.76926 4.92154
0.0213061 1.76605 4.81508
-0.010693 1.76607 4.81532
-0.0347237 1.76403 4.81153
-0.0516373 1.76921 4.82259
-0.0667611 1.76298 4.80679
-0.0836288 1.76925 4.82383
-0.0997212 1.76508 4.81201
-0.122783 1.76198 4.80423
-0.139666 1.76821 4.81926
-0.155704 1.76615 4.81441
-0.17168 1.76821 4.8175
-0.187796 1.762 4.80271
-0.20464 1.7703 4.82272
-0.219779 1.76405 4.80493
-0.2367 1.76821 4.81499
-0.242933 1.75677 4.78521
-0.25894 1.75677 4.78433
-0.2758 1.76405 4.80235
-0.292721 1.76821 4.81241
-0.307799 1.76407 4.80259
-0.323867 1.76195 4.79374
-0.338906 1.75988 4.78888
-0.348734 1.76922 4.81082
-0.363889 1.76193 4.79104
-0.38078 1.76715 4.80509
-0.394965 1.75881 4.78132
-0.411918 1.76191 4.7874
-0.428855 1.76504 4.79548
-0.443909 1.76295 4.78863
-0.453745 1.77126 4.80958
-0.468884 1.76501 4.79179
-0.483968 1.76186 4.78095
-0.499936 1.76393 4.78504
-0.51592 1.76497 4.78714
-0.530059 1.75871 4.76934
-0.547019 1.7618 4.77442
-0.55598 1.76388 4.77946
-0.57201 1.76283 4.77559
-0.587064 1.76074 4.76874
-0.603063 1.76175 4.76884
-0.617194 1.75551 4.75204
-0.634154 1.7586 4.75712
-0.652053 1.7638 4.77018
-0.66006 1.76379 4.76924
-0.674167 1.7596 4.75541
-0.693026 1.76788 4.77343
-0.707158 1.76163 4.75663
-0.723133 1.76369 4.75972
-0.740132 1.7647 4.75983
-0.754209 1.76156 4.74998
-0.772153 1.76568 4.75706
-0.782067 1.77085 4.76806
-0.794268 1.76148 4.74228
-0.81312 1.76977 4.76131
-0.828181 1.76766 4.75345
-0.845141 1.77075 4.75853
-0.85828 1.76449 4.74072
-0.883293 1.76548 4.73889
-0.917222 1.77064 4.74808
-0.933259 1.77058 4.7432
-0.964303 1.77051 4.73743
-0.979357 1.76842 4.73057
-0.991239 1.77465 4.74557
-1.00435 1.77043 4.73073
-1.01942 1.76833 4.72288
-1.03833 1.7745 4.73393
-1.05145 1.76928 4.7181
-1.06745 1.77029 4.71821
-1.08057 1.76506 4.70238
-1.09755 1.76812 4.70546
-1.10267 1.76289 4.68958
-1.12062 1.767 4.69665
-1.13083 1.75761 4.66987
-1.14779 1.76068 4.67395
-1.16478 1.76271 4.67505
-1.18081 1.76268 4.67217
-1.19294 1.75743 4.65533
-1.20288 1.76054 4.66236
-1.21697 1.75839 4.6515
-1.23394 1.76045 4.6546
-1.24899 1.75936 4.64773
-1.26502 1.75931 4.64385
-1.29899 1.76439 4.64803
-1.30312 1.75814 4.63115
-1.33416 1.75908 4.62537
-1.35214 1.76213 4.62846
-1.37009 1.76624 4.63454
-1.39532 1.75781 4.60485
-1.43733 1.76183 4.6041
-1.44747 1.75555 4.58527
-1.46642 1.75965 4.59135
-1.48441 1.7627 4.59344
-1.49847 1.76159 4.58557
-1.51254 1.75945 4.5757
-1.52054 1.76047 4.57675
-1.55063 1.7593 4.56399
-1.56666 1.75925 4.56011
-1.57877 1.75606 4.54625
-1.59771 1.76119 4.55431
-1.61472 1.76217 4.55243
-1.6358 1.76102 4.5416
-1.64987 1.7589 4.53274
-1.66688 1.76088 4.53084
-1.67702 1.75562 4.51299
-1.69697 1.76074 4.52006
-1.71104 1.75862 4.5112
-1.71805 1.75859 4.50925
-1.73309 1.75852 4.50337
-1.75108 1.76156 4.50546
-1.76416 1.75941 4.49459
-1.78312 1.76349 4.49967
-1.79523 1.76028 4.48481
-1.80929 1.75919 4.47793
-1.82139 1.756 4.46506
-1.83137 1.75804 4.46711
-1.85229 1.7652 4.47716
-1.87551 1.75779 4.44844
-1.89251 1.7598 4.44854
-1.90559 1.75765 4.43767
-1.91868 1.7555 4.4268
-1.93454 1.76477 4.44478
-1.94272 1.75743 4.42095
-1.97575 1.76039 4.41716
-1.98882 1.75925 4.40727
-2.00485 1.7592 4.40339
-2.01695 1.75703 4.39151
-2.02102 1.75489 4.38157
-2.04097 1.75899 4.38766
-2.05405 1.75785 4.37778
-2.06714 1.75569 4.36591
-2.0871 1.76077 4.37098
-2.09821 1.75656 4.35613
-2.12027 1.75746 4.34828
-2.13533 1.75737 4.34139
-2.14938 1.75727 4.3345
-2.16345 1.75615 4.32562
-2.18439 1.76227 4.33269
-2.1945 1.75805 4.31782
-2.20563 1.75482 4.30195
-2.21856 1.75995 4.30998
-2.2405 1.76609 4.31805
-2.2516 1.7629 4.30518
-2.26664 1.76382 4.29928
-2.2748 1.75752 4.27843
-2.29378 1.76258 4.2815
-2.31277 1.76561 4.2826
-2.32289 1.76238 4.26672
-2.33287 1.76441 4.26877
-2.34496 1.76226 4.25789
-2.35212 1.75695 4.23702
-2.37504 1.7641 4.24609
-2.38813 1.76195 4.23521
-2.39726 1.75771 4.21834
-2.41722 1.76278 4.22242
-2.42031 1.75962 4.21149
-2.42747 1.75431 4.19062
-2.44942 1.75942 4.19671
-2.4625 1.75828 4.18682
-2.47556 1.75815 4.17792
-2.49061 1.75808 4.17203
-2.50961 1.76209 4.17212
-2.52464 1.76303 4.16722
-2.53686 1.75562 4.13941
-2.55289 1.75756 4.13451
-2.57805 1.75528 4.11473
-2.59013 1.75413 4.10383
-2.60111 1.75717 4.10587
-2.61419 1.75603 4.09599
-2.65438 1.75467 4.0703
-2.66943 1.75558 4.0634
-2.7137 1.75309 4.02877
-2.75269 1.76112 4.02894
-2.80509 1.75439 3.97743
-2.82013 1.75531 3.97153
-2.82924 1.7531 3.95663
-2.84233 1.75194 3.94574
-2.88251 1.7526 3.92103
-2.89746 1.7577 3.92707
-2.93075 1.75218 3.8904
-2.94579 1.7541 3.88448
-2.96897 1.75176 3.86069
-3.0061 1.75354 3.84394
-3.01719 1.75337 3.83202
-3.04927 1.75623 3.82122
-3.05947 1.75083 3.79438
-3.10364 1.75354 3.77267
-3.14394 1.74998 3.73302
-3.22741 1.75111 3.67062
-3.28366 1.75364 3.637
-3.31079 1.7554 3.61918
-3.3099 1.75019 3.60525
-3.33504 1.75093 3.58642
-3.34515 1.74973 3.57251
-3.36317 1.75269 3.5696
-3.37823 1.75459 3.56169
-3.39229 1.75548 3.55378
-3.4004 1.75326 3.53887
-3.39951 1.74905 3.52493
-3.41754 1.75201 3.52102
-3.4526 1.7579 3.51219
-3.46668 1.75876 3.50229
-3.45991 1.74831 3.47239
-3.47298 1.74919 3.46347
-3.49191 1.75632 3.47151
-3.50796 1.75823 3.4646
-3.51806 1.75704 3.45169
-3.52121 1.75275 3.43178
-3.53925 1.75569 3.42687
-3.54736 1.75347 3.41196
-3.55844 1.75332 3.40104
-3.57143 1.75634 3.4021
-3.58054 1.75514 3.38818
-3.58765 1.75293 3.37327
-3.60172 1.7538 3.36436
-3.61778 1.7557 3.35645
-3.62985 1.75656 3.34653
-3.64293 1.75742 3.33661
-3.65095 1.75838 3.33366
-3.66006 1.75718 3.31974
-3.68108 1.76215 3.31683
-3.68124 1.75582 3.29492
-3.70226 1.76081 3.293
-3.71235 1.75962 3.28009
-3.72444 1.76047 3.26917
-3.73346 1.76143 3.26622
-3.75167 1.75903 3.23839
-3.78576 1.76488 3.22656
-3.77996 1.75647 3.19964
-3.80694 1.76452 3.20172
-3.81506 1.76231 3.18681
-3.81713 1.76117 3.17785
-3.83516 1.76411 3.17294
-3.84527 1.76391 3.15901
-3.85536 1.76374 3.14709
-3.88962 1.76325 3.11235
-3.97437 1.76183 3.013
4.10395 1.7042 2.63194
4.09606 1.70541 2.64598
4.08515 1.7046 2.65808
4.0682 1.70171 2.66525
4.06031 1.70293 2.67929
4.04135 1.69903 2.68549
4.03159 1.70351 2.7175
4.03065 1.70463 2.7255
4.0018 1.70093 2.74477
3.97895 1.69926 2.76597
3.97308 1.7015 2.78198
3.96023 1.70281 2.80206
3.95435 1.70505 2.81808
3.91657 1.70151 2.84742
3.86711 1.70461 2.91976
3.85317 1.70274 2.92789
3.36799 1.71257 3.43647
3.0352 1.72212 3.72988
2.89892 1.72264 3.82691
2.69494 1.72479 3.96343
2.67111 1.72812 3.98457
2.64524 1.7284 4.00276
2.61647 1.73287 4.03291
2.5479 1.73874 4.08935
2.49289 1.72877 4.08891
2.45207 1.73016 4.1132
2.29971 1.73252 4.19933
2.27284 1.73378 4.21551
2.21998 1.7321 4.23494
2.1632 1.73257 4.26436
2.07155 1.73532 4.31102
1.86721 1.73676 4.39955
1.50919 1.74091 4.5302
1.36452 1.74167 4.57529
1.16492 1.74358 4.62877
1.143 1.74575 4.63891
1.12701 1.74479 4.64104
1.08007 1.74494 4.64939
1.05611 1.74503 4.65457
1.04324 1.75028 4.6706
1.02517 1.74517 4.66281
1.01228 1.75039 4.67683
0.979243 1.74534 4.67215
0.965367 1.75059 4.68818
0.952491 1.75583 4.7042
0.939289 1.74546 4.67845
0.925382 1.74865 4.69051
0.908359 1.74662 4.68767
0.893413 1.74873 4.69475
0.880529 1.75296 4.70979
0.865591 1.75509 4.71787
0.847498 1.74993 4.70608
0.841606 1.75514 4.72005
0.824583 1.75311 4.71721
0.807544 1.75004 4.71238
0.791551 1.74907 4.71352
0.779753 1.75846 4.73947
0.760614 1.75121 4.72172
0.745691 1.75337 4.7318
0.728637 1.75028 4.72497
0.720629 1.74927 4.72405
0.70566 1.75034 4.72815
0.691846 1.7587 4.75213
0.674776 1.75458 4.74332
0.659823 1.75568 4.74942
0.644893 1.75883 4.75848
0.626807 1.75368 4.74769
0.619893 1.75785 4.75869
0.603877 1.75583 4.75684
0.587885 1.75585 4.75796
0.571885 1.75587 4.75808
0.55694 1.75798 4.76516
0.539924 1.75596 4.76332
0.526072 1.76325 4.78232
0.518103 1.76432 4.78636
0.502118 1.76436 4.78848
0.471181 1.7665 4.79668
0.455196 1.76654 4.7988
0.415244 1.76866 4.80507
0.15838 1.7701 4.82399
0.142411 1.77117 4.82809
0.109389 1.77015 4.82536
0.0933115 1.76601 4.81554
0.0853431 1.76808 4.81957
0.0533597 1.76913 4.82179
0.0312303 1.76693 4.67197
0.00821524 1.76591 4.67016
-0.00789225 1.76172 4.65634
-0.02376 1.76798 4.67337
-0.0388449 1.76383 4.66255
-0.0548602 1.76281 4.66068
-0.0698365 1.76387 4.66378
-0.0859132 1.76073 4.65395
-0.093913 1.76074 4.65401
-0.108843 1.76388 4.66307
-0.124873 1.76283 4.65921
-0.140865 1.76386 4.66031
-0.155942 1.75972 4.65049
-0.170972 1.75867 4.64662
-0.187018 1.7566 4.64077
-0.194925 1.76178 4.65275
-0.209986 1.75867 4.64491
-0.225079 1.75351 4.6331
-0.24097 1.75973 4.64713
-0.256046 1.75659 4.63729
-0.272984 1.75972 4.64537
-0.28796 1.76177 4.64845
-0.295975 1.76075 4.64653
-0.311083 1.75555 4.63272
-0.326152 1.75243 4.62387
-0.341144 1.75346 4.62497
-0.357143 1.75347 4.62509
-0.37215 1.75347 4.62421
-0.388103 1.75657 4.63028
-0.396079 1.75862 4.63331
-0.412117 1.75655 4.62846
-0.428054 1.76068 4.63652
-0.443123 1.75756 4.62768
-0.457208 1.75341 4.61685
-0.473184 1.75547 4.61994
-0.489168 1.75651 4.62204
-0.505167 1.75752 4.62215
-0.51219 1.75648 4.61922
-0.527243 1.75439 4.61236
-0.544141 1.76059 4.6254
-0.557303 1.75329 4.6046
-0.574241 1.75642 4.61268
-0.59024 1.75743 4.61279
-0.604301 1.75532 4.60492
-0.612308 1.75531 4.60398
-0.629222 1.76049 4.61504
-0.645221 1.7615 4.61514
-0.659321 1.75632 4.60232
-0.675297 1.75838 4.60541
-0.691257 1.76146 4.61049
-0.704419 1.75416 4.58969
-0.715255 1.76348 4.61064
-0.727425 1.75516 4.58885
-0.742486 1.75305 4.581
-0.759392 1.75824 4.59305
-0.774422 1.7582 4.58916
-0.790444 1.75816 4.58628
-0.807389 1.76128 4.59336
-0.82338 1.7633 4.59445
-0.828496 1.75809 4.57957
-0.843511 1.75807 4.57768
-0.859518 1.75806 4.5768
-0.874555 1.758 4.57192
-0.892461 1.76319 4.58398
-0.90653 1.76107 4.57511
-0.923505 1.76313 4.57821
-0.931489 1.76516 4.58024
-0.946527 1.7641 4.57537
-0.961579 1.76301 4.5685
-0.978532 1.76611 4.57458
-0.995492 1.76919 4.57966
-1.01052 1.76914 4.57578
-1.02651 1.77017 4.57688
-1.0345 1.77221 4.57891
-1.04761 1.76799 4.56407
-1.06653 1.77317 4.57514
-1.07769 1.76587 4.55433
-1.0908 1.76166 4.53949
-1.10873 1.7668 4.54855
-1.12084 1.7626 4.5347
-1.13784 1.76362 4.53481
-1.14388 1.76253 4.52887
-1.15892 1.76147 4.524
-1.17492 1.76248 4.52411
-1.18995 1.76243 4.52022
-1.20208 1.75719 4.50339
-1.22098 1.76439 4.51642
-1.23409 1.76018 4.50158
-1.24111 1.76016 4.49964
-1.25322 1.75495 4.4848
-1.27117 1.76006 4.49186
-1.28621 1.75898 4.48599
-1.30026 1.75791 4.48011
-1.32015 1.76513 4.49416
-1.33032 1.75779 4.47134
-1.33834 1.75777 4.4694
-1.35337 1.75772 4.46551
-1.37034 1.76078 4.4686
-1.38146 1.75656 4.45374
-1.4004 1.7617 4.46181
-1.42658 1.75536 4.4381
-1.43748 1.76155 4.45009
-1.44764 1.75426 4.43027
-1.46854 1.76146 4.44332
-1.47968 1.75621 4.42548
-1.4947 1.75717 4.42258
-1.5068 1.75399 4.40972
-1.52671 1.76017 4.42078
-1.53784 1.75492 4.40394
-1.54779 1.75902 4.40995
-1.55988 1.75585 4.39809
-1.57687 1.75889 4.40017
-1.59094 1.75677 4.39131
-1.60597 1.75671 4.38642
-1.61708 1.75351 4.37255
-1.63603 1.75761 4.37863
-1.64207 1.75654 4.37369
