-2.46812 1.78187 5.30232
-2.48125 1.77761 5.28448
-2.4993 1.77854 5.2786
-2.51834 1.77948 5.27373
-2.5364 1.77937 5.26587
-2.55542 1.78033 5.262
-2.55559 1.775 5.24007
-2.58545 1.78329 5.25818
-2.61467 1.77888 5.22946
-2.6278 1.77564 5.2126
-2.64978 1.77968 5.21471
-2.65897 1.77332 5.18987
-2.68491 1.77946 5.19798
-2.68606 1.77418 5.17906
-2.70214 1.77303 5.1682
-2.72314 1.77604 5.16831
-2.75432 1.77371 5.14458
-2.77729 1.77777 5.14769
-2.79438 1.77662 5.13683
-2.80043 1.77552 5.1299
-2.82342 1.77855 5.13102
-2.83556 1.77529 5.11316
-2.84768 1.77305 5.09628
-2.88053 1.78336 5.11538
-2.87886 1.77073 5.07355
-2.90482 1.77583 5.07867
-2.90792 1.77264 5.06574
-2.93091 1.77667 5.06685
-2.94403 1.77344 5.051
-2.96799 1.77852 5.0551
-2.99099 1.78253 5.05522
-2.9972 1.77514 5.02837
-3.02808 1.78438 5.04347
-3.02231 1.77493 5.01356
-3.04233 1.7769 5.01068
-3.0673 1.78198 5.01479
-3.06364 1.76933 4.97095
-3.09353 1.77754 4.98405
-3.10765 1.77533 4.96919
-3.12471 1.77622 4.9613
-3.12682 1.772 4.94638
-3.14982 1.77602 4.94649
-3.16195 1.77278 4.92963
-3.17407 1.77055 4.91375
-3.19608 1.77354 4.91188
-3.21117 1.77237 4.9
-3.22429 1.77116 4.88512
-3.2463 1.77414 4.88324
-3.24741 1.76992 4.86831
-3.26943 1.77289 4.86543
-3.28255 1.77068 4.85056
-3.29468 1.76844 4.83368
-3.31075 1.7683 4.8238
-3.33078 1.77026 4.81993
-3.34093 1.76697 4.80005
-3.35787 1.7721 4.8081
-3.37394 1.77196 4.79822
-3.37915 1.76557 4.77135
-3.39522 1.76543 4.76148
-3.40933 1.76423 4.7476
-3.44149 1.76495 4.72683
-3.45448 1.76697 4.72789
-3.4755 1.76994 4.72501
-3.48762 1.76771 4.70913
-3.50666 1.76964 4.70324
-3.5178 1.76738 4.68536
-3.53191 1.76518 4.6715
-3.55206 1.76389 4.65066
-3.56912 1.76478 4.64278
-3.60525 1.76655 4.62602
-3.61836 1.76534 4.61114
-3.64161 1.76089 4.57937
-3.65756 1.76597 4.58442
-3.66771 1.7627 4.56554
-3.6828 1.76253 4.55366
-3.6969 1.76135 4.54078
-3.71099 1.76017 4.5279
-3.72609 1.76 4.51601
-3.74018 1.75982 4.50312
-3.80858 1.75908 4.45064
-3.85693 1.75742 4.40402
-3.89306 1.7602 4.38725
-3.9012 1.75692 4.36836
-3.93436 1.75763 4.34759
-4.00077 1.75787 4.29308
-4.01388 1.75667 4.2792
-4.02501 1.75543 4.2623
-4.04108 1.75629 4.25241
-4.05618 1.75611 4.23952
-4.13371 1.75511 4.16911
-4.13679 1.75295 4.15816
-4.15585 1.75485 4.15028
-4.16995 1.75467 4.13738
-4.18107 1.75344 4.12148
-4.21026 1.75409 4.09669
-4.22138 1.75286 4.08079
-4.24749 1.75466 4.06596
-4.26258 1.75549 4.05406
-4.27072 1.75221 4.03517
-4.28184 1.75099 4.01927
-4.3009 1.75288 4.01138
-4.31499 1.75371 3.99947
-4.33009 1.75453 3.98657
-4.32721 1.74929 3.97063
-4.35223 1.75427 3.96774
-4.36235 1.75304 3.95183
-4.38043 1.7549 3.94194
-4.38956 1.75264 3.92404
-4.40366 1.75346 3.91113
-4.41378 1.75123 3.89524
-4.42183 1.75215 3.88929
-4.4399 1.75401 3.87939
-4.45101 1.7528 3.86449
-4.47306 1.75671 3.8576
-4.47723 1.75239 3.83569
-4.49927 1.75631 3.8298
-4.51833 1.75921 3.8219
-4.51754 1.75281 3.79498
-4.52359 1.75271 3.78803
-4.5367 1.75251 3.77413
-4.54682 1.75127 3.75722
-4.57284 1.75624 3.75434
-4.58892 1.75809 3.74344
-4.58912 1.75171 3.71753
-4.60719 1.75459 3.70862
-4.63113 1.76171 3.7157
-4.63231 1.75635 3.69178
-4.64642 1.75716 3.67787
-4.67045 1.7611 3.673
-4.67362 1.75778 3.65107
-4.68375 1.75653 3.63416
-4.70192 1.75622 3.6123
-4.72198 1.7591 3.6034
-4.73726 1.75456 3.56658
-4.7896 1.75793 3.52192
5.02195 1.71359 3.02959
5.03611 1.72189 3.05036
5.02723 1.72213 3.06643
5.01635 1.72238 3.08251
5.00447 1.72261 3.0976
4.99659 1.72387 3.11464
4.97768 1.72104 3.12583
4.9688 1.72129 3.14189
4.96687 1.72344 3.15188
4.96203 1.72573 3.17188
4.9302 1.72211 3.19618
4.90442 1.72155 3.22438
4.91164 1.72897 3.25322
4.89765 1.72601 3.25537
4.89481 1.72932 3.27635
4.88192 1.72854 3.29046
4.83719 1.72512 3.32785
4.81241 1.72457 3.35705
4.80565 1.73003 3.38803
4.79476 1.73026 3.40311
4.77483 1.72741 3.4123
4.74903 1.72583 3.43952
4.74319 1.72913 3.45952
4.72234 1.72844 3.47969
4.72353 1.73381 3.5046
4.69673 1.73323 3.53182
4.68787 1.7345 3.54987
4.67196 1.73369 3.562
4.65896 1.73072 3.56315
4.6511 1.73299 3.58117
4.64626 1.7353 3.60218
4.61544 1.73368 3.62644
4.61362 1.73802 3.64939
4.59267 1.73514 3.65659
4.58874 1.73628 3.66561
4.57786 1.73652 3.68169
4.56596 1.73674 3.69578
4.54703 1.73489 3.70495
4.51621 1.73326 3.72921
4.50633 1.73451 3.74526
4.49747 1.73678 3.7633
4.48851 1.73586 3.76838
4.4887 1.74123 3.7933
4.4758 1.74145 3.8074
4.44579 1.73445 3.80673
4.43692 1.73671 3.82377
4.41516 1.7382 3.85591
4.4072 1.73828 3.86097
4.4064 1.74367 3.8869
4.37941 1.7377 3.88819
4.37054 1.73996 3.90523
4.34656 1.73502 3.90848
4.34979 1.74246 3.93835
4.32581 1.73853 3.94159
4.33498 1.74586 3.96442
4.30899 1.73989 3.9657
4.30113 1.74318 3.98471
4.29629 1.74649 4.0057
4.27535 1.74361 4.01291
4.26244 1.74382 4.026
4.24451 1.74196 4.03517
4.22669 1.74432 4.05827
4.21379 1.74453 4.07236
4.20291 1.74578 4.08843
4.187 1.74495 4.09956
4.15515 1.74329 4.12083
4.14922 1.74441 4.12886
4.12646 1.7469 4.161
4.11861 1.7502 4.18101
4.09361 1.74522 4.18127
4.08072 1.74644 4.19536
4.06883 1.74767 4.21043
4.05695 1.74891 4.2265
4.04394 1.74591 4.22565
4.03609 1.74921 4.24566
4.01615 1.74733 4.25284
4.00123 1.7465 4.26396
3.99439 1.75082 4.28495
3.97847 1.74999 4.29609
3.96154 1.74914 4.30523
3.96065 1.75234 4.31919
3.93766 1.74839 4.32142
3.92678 1.74964 4.33749
3.91289 1.75085 4.35158
3.89798 1.75104 4.36369
3.88407 1.75123 4.37579
3.85806 1.74623 4.37506
3.87029 1.75567 4.40483
3.83924 1.74759 4.39819
3.82836 1.74983 4.41424
3.79854 1.75021 4.43846
3.78363 1.7504 4.45057
3.76973 1.7516 4.46366
3.75469 1.74754 4.45883
3.7418 1.74877 4.47391
3.7279 1.74897 4.48702
3.71502 1.7512 4.50208
3.71223 1.75762 4.53001
3.6862 1.75158 4.5263
3.68038 1.75694 4.55027
3.66535 1.75289 4.54644
3.65953 1.75825 4.57041
3.63452 1.75325 4.56967
3.6186 1.75341 4.57979
3.60975 1.75672 4.59981
3.58777 1.75376 4.60202
3.57185 1.75394 4.61314
3.5711 1.76241 4.64502
3.54696 1.75316 4.62734
3.52901 1.75129 4.6355
3.52421 1.75768 4.66145
3.5093 1.75786 4.67256
3.49136 1.75699 4.68071
3.4805 1.76028 4.69974
3.45649 1.75526 4.698
3.45359 1.75846 4.71097
3.43159 1.75549 4.71218
3.42072 1.75775 4.72923
3.39976 1.75584 4.73442
3.398 1.7643 4.76531
3.37499 1.7593 4.76456
3.36211 1.76155 4.78063
3.35212 1.76058 4.78272
3.33012 1.7566 4.78294
3.31623 1.75882 4.79702
3.30739 1.76313 4.81802
3.27832 1.75602 4.80934
3.27657 1.76451 4.84224
3.25356 1.76051 4.84147
3.23852 1.75644 4.83564
3.23069 1.76078 4.85864
3.21073 1.75987 4.8638
3.19177 1.75796 4.86898
3.17989 1.76021 4.88503
3.16398 1.76139 4.89714
3.14198 1.75741 4.89736
3.13416 1.76377 4.92133
3.11912 1.75869 4.91552
3.10521 1.76088 4.92759
3.0812 1.75588 4.92685
3.07033 1.75914 4.94388
3.05138 1.75826 4.95104
3.03139 1.75631 4.95322
3.02055 1.75961 4.97326
3.00853 1.75759 4.97138
2.99565 1.75984 4.98744
2.99292 1.76934 5.02133
2.94485 1.76026 5.01382
2.92893 1.76042 5.02394
2.91809 1.76574 5.04495
2.89897 1.75753 5.03021
2.89726 1.76908 5.06706
2.86713 1.75986 5.05142
2.84917 1.75795 5.05658
2.83631 1.76122 5.07463
2.80041 1.76046 5.08892
2.79448 1.7626 5.09793
2.77856 1.76376 5.10804
2.75655 1.75976 5.10726
2.74266 1.76199 5.12233
2.72268 1.76003 5.12451
2.70371 1.75912 5.12967
2.69795 1.76757 5.15959
2.66087 1.75945 5.14999
2.64901 1.76274 5.16904
2.63106 1.76284 5.17517
2.61007 1.75989 5.17737
2.60126 1.76626 5.20235
2.55825 1.76028 5.20176
2.55232 1.76242 5.21077
2.53335 1.76149 5.21493
2.52355 1.76787 5.23991
2.49847 1.76175 5.23119
2.48968 1.76916 5.25815
2.46562 1.76306 5.25042
2.45073 1.76627 5.26449
2.43565 1.76114 5.25468
2.42482 1.76647 5.27668
2.40279 1.76243 5.27291
2.39096 1.76776 5.29492
2.36994 1.76475 5.29313
2.35505 1.76698 5.30821
2.34322 1.7723 5.32922
2.31609 1.76408 5.31354
2.31323 1.76935 5.33149
2.29221 1.76634 5.32969
2.27223 1.76438 5.33187
2.25734 1.7676 5.34594
2.23633 1.76462 5.34614
2.22553 1.77099 5.37113
2.21146 1.76687 5.3623
2.19452 1.768 5.37041
2.17554 1.76606 5.37358
2.16372 1.77241 5.39658
2.14372 1.77044 5.39776
2.13292 1.77681 5.42275
2.096 1.776 5.43404
2.08193 1.77188 5.42521
2.0701 1.77722 5.44722
2.04397 1.76998 5.43052
2.03113 1.7753 5.45154
2.01114 1.77333 5.45272
1.99934 1.77973 5.47872
1.97217 1.77044 5.45806
1.97139 1.77985 5.48593
1.94728 1.77266 5.47222
1.92934 1.77379 5.48034
1.91753 1.78016 5.50433
1.8955 1.77713 5.50154
1.87755 1.77723 5.50768
1.8596 1.77735 5.51481
1.85166 1.77846 5.52186
1.83472 1.7806 5.53096
1.81062 1.77443 5.51823
1.79781 1.78079 5.54223
1.77677 1.77673 5.53745
1.75781 1.77682 5.54259
1.74806 1.78632 5.57553
1.7278 1.77383 5.54186
1.71292 1.77808 5.55791
1.69498 1.77819 5.56505
1.67601 1.77827 5.56919
1.66114 1.78254 5.58724
1.63704 1.77635 5.57351
1.62115 1.77959 5.58859
1.60733 1.78594 5.6116
1.59526 1.78181 5.60275
1.58041 1.78712 5.62279
1.55835 1.78302 5.61501
1.54244 1.78521 5.6271
1.51728 1.77691 5.60641
1.5014 1.78015 5.62149
1.48243 1.78024 5.62663
1.47141 1.7792 5.62373
1.45447 1.78033 5.63184
1.44067 1.78671 5.65685
1.4186 1.78259 5.64808
1.40374 1.78788 5.66711
1.38685 1.7911 5.68119
1.36065 1.78074 5.65554
1.35583 1.78808 5.67847
1.33373 1.78291 5.66571
1.31476 1.78298 5.66986
1.30197 1.7904 5.69785
1.27576 1.78001 5.67019
1.26302 1.79052 5.70414
1.243 1.7885 5.70232
1.22883 1.78019 5.68055
1.21611 1.79073 5.71649
1.19502 1.78657 5.70471
1.17608 1.7877 5.71284
1.15605 1.78466 5.70903
1.11809 1.78476 5.71432
1.10434 1.79426 5.74729
1.09224 1.79007 5.73444
1.07326 1.79013 5.73758
1.05326 1.78813 5.73676
1.03743 1.79447 5.75879
0.998419 1.79248 5.75811
0.971542 1.79574 5.77427
0.847689 1.79711 5.79418
0.703829 1.79748 5.81326
0.683752 1.79435 5.80346
0.644799 1.79447 5.80975
0.626845 1.79557 5.81587
0.587884 1.79667 5.82115
0.577876 1.79566 5.82024
0.538785 1.79151 5.8086
0.519901 1.79575 5.82368
0.500939 1.79684 5.8288
0.481939 1.79585 5.82896
0.462963 1.79691 5.83209
0.452878 1.79275 5.82123
0.433963 1.79593 5.83232
0.413941 1.7949 5.82949
0.393802 1.78865 5.81173
0.375949 1.79494 5.83077
0.355895 1.79185 5.82397
0.336973 1.79501 5.83407
0.328051 1.79817 5.84409
0.307928 1.79295 5.82832
0.289051 1.7972 5.8444
0.269983 1.79508 5.83557
0.249921 1.79198 5.82777
0.23103 1.7962 5.84185
0.21193 1.79202 5.82905
0.20193 1.79202 5.82913
0.183069 1.7973 5.84719
0.162984 1.79316 5.83641
0.144031 1.79526 5.84252
0.124985 1.79318 5.83669
0.10611 1.79843 5.85276
0.0859483 1.79214 5.832
0.0770182 1.79528 5.84102
0.0570263 1.79531 5.84217
-0.622685 1.7954 5.61726
-0.641654 1.79647 5.62139
-0.696805 1.79221 5.60187
-0.71672 1.79639 5.61295
-0.733842 1.79217 5.59714
-0.742819 1.79322 5.6002
-0.762794 1.79528 5.60332
-0.780801 1.79627 5.60244
-0.798862 1.79417 5.5946
-0.816907 1.79309 5.58876
-0.834991 1.78994 5.57794
-0.85489 1.79515 5.59101
-0.872012 1.79093 5.5752
-0.881042 1.78987 5.57128
-0.899088 1.7888 5.56543
-0.917102 1.78978 5.56356
-0.934194 1.78662 5.55173
-0.954131 1.78975 5.55983
-0.974083 1.79285 5.56594
-0.99212 1.79279 5.56108
-1.00211 1.79281 5.56215
-1.01918 1.79169 5.55329
-1.03723 1.79062 5.54745
-1.05526 1.78956 5.5426
-1.07426 1.79157 5.54271
-1.09232 1.78948 5.53588
-1.11131 1.79149 5.53599
-1.12035 1.78943 5.53109
-1.14031 1.79251 5.53619
-1.15545 1.78726 5.51838
-1.17733 1.7945 5.53344
-1.19248 1.78923 5.51463
-1.21054 1.78712 5.5068
-1.22954 1.78914 5.50691
-1.24854 1.79015 5.50704
-1.25657 1.7891 5.50311
-1.27654 1.79215 5.50622
-1.29557 1.79211 5.50236
-1.31359 1.79208 5.4995
-1.33162 1.79203 5.49564
-1.34678 1.78673 5.47483
-1.36673 1.79085 5.48192
-1.37574 1.79083 5.47998
-1.39283 1.78766 5.46816
-1.40989 1.78657 5.4613
-1.43085 1.79066 5.4664
-1.44695 1.78647 5.45258
-1.46789 1.7916 5.46066
-1.48688 1.79363 5.46178
-1.49397 1.79047 5.45088
-1.51299 1.79044 5.44802
-1.53199 1.79245 5.44813
-1.54906 1.79032 5.43829
-1.56418 1.78609 5.42247
-1.58513 1.79121 5.42955
-1.59927 1.78595 5.41173
-1.61023 1.78904 5.41677
-1.63022 1.79105 5.41689
-1.64535 1.78682 5.40106
-1.66628 1.79096 5.40916
-1.68628 1.79297 5.40928
-1.7014 1.78976 5.39444
-1.7165 1.78657 5.3806
-1.73259 1.78441 5.36975
-1.74064 1.78332 5.36283
-1.7616 1.78741 5.36793
-1.78255 1.79051 5.37404
-1.79767 1.7873 5.3592
-1.81278 1.78409 5.34436
-1.83376 1.78715 5.34747
-1.84885 1.78497 5.33461
-1.85691 1.78387 5.32769
-1.87494 1.78382 5.32383
-1.89395 1.78481 5.32196
-1.91394 1.78784 5.32306
-1.92807 1.78359 5.30623
-1.95001 1.78873 5.31432
-1.96511 1.78655 5.30146
-1.97904 1.79069 5.31051
-1.99218 1.78642 5.29167
-2.01119 1.78842 5.29078
-2.03118 1.79045 5.2919
-2.0453 1.78722 5.27605
-2.06334 1.78714 5.27019
-2.0804 1.78705 5.26332
-2.08647 1.78391 5.25341
-2.10747 1.78692 5.25352
-2.12747 1.78894 5.25364
-2.14256 1.78777 5.24177
-2.15767 1.78458 5.22793
-2.18158 1.79076 5.23902
-2.19667 1.78859 5.22717
-2.20079 1.78436 5.21126
-2.22471 1.79052 5.22135
-2.23393 1.78311 5.19352
-2.25589 1.7872 5.19863
-2.27197 1.78605 5.18777
-2.28805 1.78492 5.1779
-2.31098 1.79005 5.186
-2.32608 1.78787 5.17314
-2.33412 1.7878 5.16821
-2.33939 1.77729 5.1334
-2.36726 1.78654 5.14947
-2.37449 1.77811 5.11965
-2.3994 1.7843 5.13174
-2.41942 1.78627 5.12887
-2.43746 1.7872 5.12299
-2.43468 1.77778 5.0951
-2.46648 1.79017 5.12016
-2.46977 1.77863 5.08335
-2.48683 1.77852 5.07548
-2.51175 1.78567 5.08456
-2.51897 1.77726 5.05674
-2.53801 1.7782 5.05187
-2.55194 1.78333 5.0599
-2.56506 1.78012 5.04504
-2.57917 1.77791 5.03018
-2.61524 1.77979 5.02042
-2.62837 1.77654 5.00357
-2.65921 1.78788 5.02463
-2.65937 1.78057 5.00374
-2.66855 1.77623 4.98087
-2.70136 1.78761 5.00495
-2.71054 1.78226 4.9811
-2.72366 1.77905 4.96624
-2.76074 1.78191 4.95548
-2.79272 1.78697 4.95764
-2.82487 1.78669 4.93789
-2.86223 1.77801 4.89029
-2.89423 1.78302 4.88946
-2.90933 1.78085 4.8776
-2.94641 1.78372 4.86684
-2.95261 1.77734 4.84098
-2.98968 1.78021 4.83121
-3.03578 1.78404 4.8175
-3.09909 1.78248 4.77699
-3.12418 1.78331 4.76417
-3.1373 1.78109 4.7493
-3.1504 1.77991 4.73641
-3.1865 1.78173 4.72266
-3.20467 1.7784 4.69984
-3.21976 1.77824 4.68795
-3.24177 1.78124 4.68707
-3.25289 1.77901 4.67119
-3.27095 1.7799 4.66331
-3.288 1.78081 4.65642
-3.29814 1.77755 4.63855
-3.30421 1.77642 4.62961
-3.3272 1.78045 4.63072
-3.33635 1.77716 4.61084
-3.35835 1.78017 4.60996
-3.37047 1.77894 4.59407
-3.37467 1.77156 4.5682
-3.40361 1.7797 4.5763
-3.40682 1.77228 4.54843
-3.42573 1.77947 4.56047
-3.43488 1.77519 4.5406
-3.44304 1.77088 4.51972
-3.46406 1.77385 4.51684
-3.47221 1.77056 4.49694
-3.49027 1.77146 4.48906
-3.50931 1.7734 4.48418
-3.51338 1.77225 4.47422
-3.52351 1.76901 4.45735
-3.54553 1.77298 4.45445
-3.55765 1.77076 4.43958
-3.56679 1.76749 4.42069
-3.5888 1.77149 4.4198
-3.59101 1.76508 4.3919
-3.5941 1.7619 4.37997
-3.62404 1.77004 4.38808
-3.63119 1.76575 4.36819
-3.63836 1.76143 4.34631
-3.66928 1.77059 4.35541
-3.67446 1.76525 4.33252
-3.6945 1.76819 4.32763
-3.71651 1.77118 4.32575
-3.70573 1.76174 4.2968
-3.71784 1.76054 4.28291
-3.74778 1.76867 4.29002
-3.76485 1.76955 4.28113
-3.76903 1.76419 4.25724
-3.79501 1.77024 4.25935
-3.79314 1.76599 4.24239
-3.81218 1.76791 4.23651
-3.8374 1.76552 4.20873
-3.8505 1.76532 4.19483
-3.86558 1.76517 4.18394
-3.88067 1.76602 4.17304
-3.8887 1.76596 4.1691
-3.91072 1.76992 4.16521
-3.91986 1.76766 4.14731
-3.93494 1.76751 4.13642
-3.95916 1.7651 4.10764
-3.97523 1.76696 4.09773
-3.98239 1.76367 4.07783
-4.00232 1.7698 4.08589
-4.01146 1.76654 4.06801
-4.02258 1.76531 4.0521
-4.05473 1.76704 4.03232
-4.07179 1.76892 4.02342
-4.07498 1.76357 3.99952
-4.09016 1.76122 3.97566
-4.12926 1.76604 3.96189
-4.16975 1.76011 3.89727
-4.20279 1.76605 3.89143
-4.23 1.76567 3.86464
-4.29658 1.76256 3.78717
4.60517 1.72922 3.32454
4.57451 1.7309 3.36975
4.42674 1.73144 3.53488
4.41101 1.73497 3.56995
4.39015 1.73425 3.58812
4.37241 1.73777 3.62221
4.36152 1.739 3.63727
4.34257 1.73612 3.64446
4.32363 1.73325 3.65265
4.31777 1.73653 3.67164
4.31083 1.73664 3.6787
4.29692 1.73583 3.69081
4.27514 1.73728 3.71996
4.26627 1.73953 3.737
4.25035 1.73871 3.74813
4.23946 1.73994 3.7632
4.2315 1.73902 3.76827
4.22263 1.74128 3.78531
4.19865 1.73634 3.78856
4.19078 1.7386 3.80559
4.18393 1.74188 3.82459
4.15812 1.74229 3.85079
4.1292 1.73846 3.86106
4.11449 1.74403 3.8991
4.06973 1.74255 3.93246
4.06187 1.74482 3.95049
4.05089 1.74287 3.9536
4.039 1.74409 3.96767
4.02811 1.74532 3.98274
4.0152 1.74551 3.99484
3.99143 1.74797 4.02498
3.97046 1.74404 4.0292
3.95363 1.74638 4.05129
3.94476 1.74865 4.06933
3.92985 1.74883 4.08044
3.91795 1.74904 4.09453
3.90404 1.74923 4.10663
3.87007 1.74332 4.11098
3.8713 1.75174 4.13985
3.8233 1.74179 4.14136
3.80075 1.75268 4.20037
3.78875 1.74969 4.20051
3.78191 1.75401 4.2215
3.75791 1.74903 4.22175
3.75005 1.75231 4.24077
3.73816 1.75353 4.25484
3.72425 1.75372 4.26694
3.70832 1.75388 4.27706
3.69441 1.75405 4.28817
3.68545 1.75313 4.29325
3.66851 1.75226 4.30139
3.63968 1.75262 4.32461
3.62779 1.75384 4.33868
3.61288 1.75403 4.35079
3.60199 1.75626 4.36584
3.58595 1.75219 4.36102
3.56117 1.75464 4.39018
3.54726 1.75481 4.40128
3.52045 1.75722 4.42745
3.50149 1.75431 4.43264
3.47861 1.75456 4.44881
3.45484 1.75902 4.47892
3.43386 1.75508 4.48214
3.41894 1.75524 4.49225
3.41009 1.75954 4.51226
3.39201 1.75341 4.50248
3.37912 1.75463 4.51656
3.37128 1.75994 4.53755
3.35332 1.75804 4.54371
3.33639 1.75719 4.55285
3.32551 1.76043 4.56889
3.30656 1.75854 4.57506
3.29568 1.76078 4.59111
3.28367 1.75878 4.59023
3.26875 1.75893 4.60034
3.25182 1.75808 4.60949
3.24094 1.76133 4.62552
3.22299 1.75944 4.63269
3.20706 1.75959 4.6418
3.19518 1.76183 4.65786
3.1852 1.76087 4.65995
3.16622 1.75793 4.66314
3.15434 1.76117 4.67918
3.12931 1.75513 4.67546
3.11844 1.75839 4.6925
3.11161 1.76374 4.71547
3.08151 1.75557 4.70282
3.08469 1.7629 4.72569
3.06876 1.76305 4.73481
3.04676 1.75907 4.73503
3.03082 1.75921 4.74415
3.0149 1.75937 4.75427
3.00505 1.76366 4.77328
2.99114 1.76485 4.78537
2.9852 1.76597 4.7934
2.95406 1.75574 4.77679
2.94929 1.76417 4.8057
2.92829 1.7602 4.80692
2.91034 1.75931 4.81307
2.89745 1.76152 4.82713
2.88051 1.76167 4.83626
2.86342 1.7555 4.82448
2.86067 1.76498 4.85636
2.8417 1.76305 4.86054
2.82272 1.76111 4.86371
2.8068 1.76128 4.87483
2.79797 1.76662 4.89682
2.76682 1.75634 4.8772
2.76306 1.76582 4.90909
2.75205 1.76381 4.90821
2.73004 1.75981 4.90743
2.71513 1.76099 4.91853
2.69818 1.7611 4.92566
2.68124 1.76123 4.93378
2.66429 1.76035 4.94092
2.65242 1.76361 4.95797
2.64344 1.76265 4.96005
2.62346 1.76171 4.96321
2.60752 1.76184 4.97133
2.59058 1.76197 4.97946
2.57262 1.76005 4.98463
2.56076 1.76433 5.00265
2.54077 1.76236 5.00383
2.52788 1.76459 5.0189
2.51586 1.76255 5.01602
2.50197 1.76479 5.03109
2.48299 1.76283 5.03327
2.47011 1.76608 5.04932
2.4501 1.76308 5.04851
2.43418 1.76425 5.05962
2.42723 1.76534 5.06565
2.41233 1.76755 5.07873
2.39641 1.76872 5.08984
2.37945 1.76881 5.09497
2.3564 1.76374 5.08921
2.34253 1.76698 5.10527
2.32558 1.7671 5.1124
2.31066 1.76826 5.1225
2.30066 1.76727 5.12259
2.28677 1.7695 5.13766
2.26881 1.76958 5.14279
2.24271 1.76241 5.1301
2.23697 1.77192 5.164
2.21901 1.77101 5.16915
2.19391 1.76483 5.15643
2.19003 1.76907 5.1724
2.17308 1.76919 5.17953
2.16225 1.77452 5.20153
2.1453 1.77464 5.20866
2.1253 1.77265 5.20884
2.10428 1.76962 5.20604
2.09244 1.77494 5.22706
2.07631 1.7677 5.21028
2.06449 1.77405 5.23328
2.04855 1.77418 5.2414
2.02445 1.76802 5.22967
2.01467 1.77544 5.25764
1.99262 1.77137 5.25186
1.97772 1.77457 5.26493
1.9718 1.77673 5.27494
1.95589 1.77891 5.28703
1.9277 1.76757 5.26241
1.91894 1.77703 5.29334
1.89893 1.77503 5.29252
1.88404 1.77826 5.30759
1.86914 1.78047 5.32067
1.84707 1.77535 5.31191
1.83607 1.77434 5.31101
1.82525 1.78071 5.335
1.80627 1.77975 5.33716
1.79036 1.78195 5.35024
1.77136 1.77997 5.35042
1.75443 1.78211 5.35951
1.73956 1.78536 5.37558
1.72236 1.776 5.35084
1.69053 1.78035 5.37302
1.67669 1.78566 5.39305
1.6387 1.78272 5.39538
1.62074 1.7828 5.40052
1.58968 1.77772 5.39383
1.57481 1.78197 5.40988
1.53785 1.78108 5.41617
1.52298 1.78433 5.43224
1.495 1.7834 5.43546
1.47189 1.77721 5.42172
1.44008 1.78259 5.44589
1.42314 1.78372 5.454
1.38618 1.78383 5.46028
1.37131 1.78708 5.47634
1.36131 1.78709 5.47642
1.34127 1.78403 5.47161
1.28841 1.78635 5.49098
1.26943 1.78539 5.49314
1.25249 1.78752 5.50124
1.20553 1.78563 5.50662
1.18757 1.78673 5.51274
1.17167 1.78994 5.52581
1.13265 1.78692 5.52315
1.12468 1.78798 5.52719
0.0377673 1.78093 5.41047
0.0196825 1.77678 5.39967
0.010667 1.77575 5.39775
-0.00730109 1.77783 5.40186
-0.0253006 1.77784 5.40199
-0.0432768 1.7789 5.40511
-0.0612763 1.77891 5.40525
-0.0783223 1.77683 5.39941
-0.0963136 1.77786 5.40053
-0.106236 1.78102 5.41056
-0.123344 1.77582 5.39676
-0.141258 1.78 5.40783
-0.15928 1.77997 5.40497
-0.177272 1.77999 5.40611
-0.195349 1.77686 5.39629
-0.213263 1.78103 5.40736
-0.22234 1.77789 5.39747
-0.240332 1.77792 5.39861
-0.258323 1.77895 5.39973
-0.27633 1.77895 5.39887
-0.294307 1.78 5.40199
-0.312291 1.78105 5.40411
-0.330235 1.78416 5.4112
-0.339282 1.78208 5.40529
-0.357304 1.78105 5.40245
-0.375303 1.78206 5.40257
-0.392372 1.77994 5.39372
-0.411325 1.78205 5.39984
-0.428409 1.77889 5.38901
-0.446354 1.78101 5.39612
-0.465323 1.78308 5.40023
-0.473376 1.78099 5.39332
-0.492282 1.78618 5.40539
-0.509382 1.782 5.39258
-0.527366 1.78304 5.3947
-0.547264 1.78825 5.40777
-0.56431 1.78717 5.40191
-0.582363 1.78508 5.39508
-0.589456 1.78091 5.38319
-0.609369 1.78609 5.39427
-0.624516 1.77982 5.37547
-0.643522 1.78081 5.3746
-0.662444 1.78498 5.38468
-0.680435 1.786 5.3858
-0.695597 1.7797 5.36501
-0.706519 1.78286 5.37505
-0.722634 1.77865 5.36023
-0.740641 1.77965 5.35935
-0.758632 1.78068 5.36047
-0.775693 1.77857 5.35263
-0.793684 1.7796 5.35375
-0.812675 1.78063 5.35488
-0.826868 1.77327 5.33009
-0.83779 1.77742 5.34011
-0.853866 1.77429 5.33028
-0.870904 1.77423 5.32541
-0.889895 1.77525 5.32653
-0.905987 1.77209 5.3147
-0.923986 1.7731 5.31482
-0.951015 1.77306 5.31102
-0.985106 1.77091 5.29931
-1.00312 1.77189 5.29743
-1.03815 1.77186 5.2937
-1.06419 1.77179 5.28789
-1.15328 1.77368 5.27653
-1.19542 1.77043 5.2579
-1.23047 1.77136 5.25215
-1.32858 1.77321 5.23786
-1.34658 1.77421 5.23698
-1.37775 1.76991 5.21527
-1.39674 1.77194 5.21639
-1.43886 1.76973 5.20073
-1.49389 1.77371 5.19709
-1.50898 1.77054 5.18525
-1.53599 1.77253 5.18342
-1.56812 1.7703 5.16669
-1.62414 1.7743 5.16406
-1.64531 1.76899 5.14229
-1.68232 1.77199 5.14053
-1.71542 1.7708 5.12679
-1.74852 1.76964 5.11406
-1.77359 1.76952 5.10524
-1.79063 1.76946 5.10037
-1.8067 1.76832 5.09051
-1.82668 1.77137 5.09262
-1.84178 1.7692 5.08076
-1.85782 1.76912 5.07488
-1.87976 1.77324 5.08199
-1.8829 1.76799 5.06509
-1.90189 1.77102 5.06618
-1.91992 1.77096 5.06132
-1.93402 1.76878 5.04846
-1.95301 1.77081 5.04957
-1.97007 1.7707 5.0417
-1.98417 1.76752 5.02885
-1.9971 1.77166 5.03789
-2.01315 1.77157 5.03101
-2.04725 1.7714 5.01827
-2.06233 1.77027 5.0084
-2.0774 1.76913 4.99852
-2.09542 1.7701 4.99565
-2.10248 1.769 4.98871
-2.13558 1.76882 4.97496
-2.15459 1.77081 4.97408
-2.16771 1.76759 4.95822
-2.18571 1.76959 4.95733
-2.2067 1.77261 4.95844
-2.20982 1.7674 4.94354
-2.22783 1.76938 4.94165
-2.24489 1.76927 4.93378
-2.26095 1.76918 4.9269
-2.278 1.76909 4.92003
-2.29503 1.77004 4.91614
-2.31011 1.76889 4.90527
-2.3342 1.76873 4.89345
-2.34633 1.76449 4.8766
-2.36631 1.76853 4.87869
-2.3873 1.77156 4.87981
-2.39548 1.76523 4.85696
-2.4145 1.7672 4.85407
-2.4286 1.76502 4.84121
-2.43761 1.76599 4.83926
-2.4576 1.76902 4.84037
-2.47366 1.76891 4.83249
-2.48579 1.76567 4.81563
-2.5048 1.76767 4.81474
-2.52874 1.77379 4.82183
-2.53494 1.76641 4.79598
-2.55184 1.77262 4.80902
-2.56987 1.77355 4.80414
-2.57904 1.76824 4.78229
-2.5951 1.76813 4.77441
-2.61608 1.77217 4.77651
-2.6282 1.76996 4.76163
-2.64623 1.7709 4.75675
-2.66216 1.77706 4.76678
-2.67033 1.77072 4.74393
-2.68638 1.77163 4.73704
-2.70146 1.7705 4.72717
-2.71654 1.76936 4.7173
-2.73456 1.77131 4.7134
-2.74865 1.77014 4.70153
-2.75866 1.77114 4.70059
-2.77669 1.77309 4.69669
-2.78881 1.77086 4.68081
-2.80191 1.76868 4.66794
-2.82488 1.77376 4.67204
-2.82712 1.76428 4.64019
-2.84811 1.76831 4.64129
-2.86207 1.7714 4.64635
-2.87419 1.76917 4.63048
-2.88926 1.76905 4.62159
-2.90927 1.77205 4.6207
-2.92336 1.77086 4.60782
-2.94337 1.77386 4.60692
-2.95745 1.77271 4.59605
-2.96364 1.76635 4.57118
-2.97858 1.77148 4.57922
-2.99465 1.77134 4.56934
-3.00874 1.77019 4.55847
-3.02381 1.77006 4.54958
-3.03986 1.77096 4.54169
-3.05198 1.76874 4.52681
-3.07199 1.77173 4.52491
-3.07805 1.77062 4.51697
-3.08818 1.76737 4.5001
-3.10326 1.76723 4.49021
-3.12623 1.77229 4.49331
-3.12747 1.76384 4.46244
-3.14353 1.76373 4.45456
-3.15762 1.76356 4.44267
-3.15576 1.75728 4.42375
-3.18072 1.76339 4.42984
-3.19579 1.76325 4.41996
-3.20692 1.76101 4.40307
-3.22396 1.76294 4.39817
-3.22717 1.75553 4.3703
-3.24521 1.75747 4.36541
-3.26523 1.76044 4.36251
-3.27524 1.76142 4.36057
-3.28635 1.75921 4.34569
-3.3044 1.76113 4.3398
-3.31946 1.76201 4.3309
-3.32564 1.75667 4.30802
-3.34665 1.76067 4.30712
-3.35368 1.7606 4.30217
-3.3559 1.75319 4.27429
-3.3769 1.75619 4.27341
-3.39396 1.75808 4.26551
-3.40705 1.75692 4.25362
-3.42015 1.75573 4.24073
-3.43621 1.75763 4.23283
-3.44325 1.75756 4.22788
-3.45931 1.75744 4.219
-3.47042 1.75624 4.2051
-3.48649 1.7571 4.19521
-3.50553 1.75904 4.19032
-3.51466 1.7568 4.17342
-3.53171 1.7587 4.16652
-3.53985 1.75444 4.14864
-3.55185 1.75745 4.14869
-3.57683 1.7635 4.15079
-3.58695 1.76127 4.13489
-3.59509 1.758 4.116
-3.61512 1.76095 4.11211
-3.62722 1.75977 4.09922
-3.63238 1.75546 4.07831
-3.64934 1.76055 4.08337
-3.66342 1.76039 4.07247
-3.6785 1.76026 4.06259
-3.70051 1.76524 4.06068
-3.69675 1.75577 4.02879
-3.7138 1.75767 4.02189
-3.72987 1.75855 4.01299
-3.73999 1.75632 3.9971
-3.74505 1.75621 3.98914
-3.77004 1.76124 3.99025
-3.77521 1.75692 3.96835
-3.78433 1.75469 3.95245
-3.8113 1.76177 3.95655
-3.81448 1.75642 3.93265
-3.8246 1.75419 3.91676
-3.84254 1.7603 3.92381
-3.85068 1.75704 3.90591
-3.85584 1.75273 3.88501
-3.88877 1.76289 3.89411
-3.89294 1.75757 3.87222
-3.89908 1.75429 3.85331
-3.91615 1.75617 3.84441
-3.91625 1.75298 3.83146
-3.93628 1.75592 3.82656
-3.95433 1.75883 3.81965
-3.96941 1.75969 3.80975
-3.97457 1.75538 3.78885
-3.98964 1.75625 3.77895
-3.99381 1.75192 3.75705
-3.99886 1.75083 3.7501
-4.01493 1.7527 3.74119
-4.02406 1.75046 3.72429
-4.04211 1.75337 3.71738
-4.06115 1.75629 3.71148
-4.0812 1.7592 3.70459
-4.08536 1.7549 3.68368
-4.09538 1.75687 3.68173
-4.11244 1.75875 3.67283
-4.11263 1.75238 3.64792
-4.13267 1.75632 3.64301
-4.14279 1.75509 3.6271
-4.15489 1.75491 3.6142
-4.17294 1.7568 3.6063
-4.17818 1.75135 3.57542
-4.2022 1.75632 3.57253
-4.22441 1.75492 3.54471
-4.24346 1.75783 3.53781
-4.25557 1.75763 3.5239
-4.2637 1.75539 3.50699
-4.28799 1.75283 3.46821
-4.30406 1.75469 3.4583
-4.32014 1.75656 3.44839
-4.35345 1.75496 3.40666
4.67366 1.71728 2.85914
4.66779 1.71855 2.87716
4.64081 1.7126 2.87946
4.65002 1.72001 2.90728
4.61818 1.71634 2.92858
4.60024 1.71349 2.93776
4.61047 1.72191 2.96656
4.59647 1.71792 2.96672
4.58558 1.71815 2.9818
4.58172 1.72042 2.9998
4.5668 1.71959 3.01093
4.55893 1.72085 3.02797
4.55507 1.72314 3.04697
4.53713 1.72027 3.05515
4.53421 1.72142 3.06515
4.52231 1.72162 3.07824
4.5104 1.72081 3.09035
4.49448 1.71898 3.10149
4.4876 1.72122 3.11752
4.47369 1.71941 3.12965
4.46079 1.71961 3.14274
4.46791 1.72484 3.15862
4.44595 1.71995 3.16485
4.44008 1.7222 3.18187
4.42416 1.72038 3.19302
4.41226 1.72057 3.2051
4.40841 1.72386 3.22509
4.39449 1.72304 3.23621
4.38452 1.7211 3.24031
4.38066 1.72439 3.25929
4.36676 1.72358 3.27141
4.34177 1.71762 3.27369
4.33188 1.71885 3.28875
4.32199 1.71908 3.30382
4.31814 1.72237 3.3228
4.31522 1.72452 3.33279
4.30734 1.72576 3.34884
4.28839 1.72288 3.35602
4.27347 1.72105 3.36717
4.27264 1.72638 3.3891
4.25369 1.72349 3.39628
4.24582 1.72575 3.41331
4.22989 1.7239 3.42246
4.22696 1.72503 3.43147
4.22009 1.72729 3.44849
4.19409 1.72132 3.44977
4.18219 1.72152 3.46286
4.17029 1.72173 3.47595
4.16342 1.724 3.49397
4.14448 1.72111 3.50115
4.14456 1.72328 3.51212
4.13669 1.72553 3.52915
4.12176 1.72469 3.53928
4.10986 1.72489 3.55237
4.09595 1.72408 3.56449
4.07214 1.72447 3.58966
4.06317 1.72354 3.59374
4.04422 1.72064 3.59993
4.03332 1.72185 3.614
4.02344 1.72308 3.62906
4.01053 1.72328 3.64215
3.99762 1.72246 3.65326
3.98975 1.72573 3.67128
3.98682 1.72685 3.67928
3.96585 1.72294 3.6845
3.96 1.72622 3.7035
3.94608 1.7264 3.7146
3.92126 1.72677 3.73879
3.90634 1.72595 3.74991
3.90341 1.72708 3.75892
3.89152 1.7283 3.77299
3.87861 1.72848 3.78509
3.86771 1.72968 3.79815
3.85783 1.73193 3.8142
3.83281 1.72492 3.81249
3.82495 1.72819 3.8305
3.82012 1.73252 3.85248
3.80609 1.72848 3.84964
3.79823 1.73176 3.86766
3.78633 1.73296 3.88073
3.7724 1.73212 3.89085
3.76051 1.73333 3.90492
3.74559 1.73249 3.91505
3.72359 1.72852 3.91627
3.72471 1.73174 3.93122
3.71584 1.735 3.94824
3.70191 1.73416 3.95836
3.68396 1.73228 3.96552
3.68316 1.73966 3.99142
3.65512 1.73159 3.98575
3.64524 1.73384 4.0018
3.64333 1.73602 4.01378
3.60641 1.73121 4.02513
3.60461 1.73859 4.05104
3.5816 1.73359 4.05029
3.56768 1.73377 4.06139
3.56386 1.73911 4.08434
3.54479 1.73199 4.07559
3.53693 1.73626 4.09359
3.52806 1.73852 4.11063
3.49011 1.73267 4.119
3.48428 1.738 4.14097
3.4643 1.73506 4.14416
3.44937 1.7342 4.15329
3.44545 1.73635 4.16329
3.42749 1.73445 4.16945
3.40976 1.74098 4.20449
3.38776 1.736 4.20473
3.36093 1.73736 4.22792
3.34993 1.73537 4.22803
3.33702 1.73656 4.24011
3.32816 1.73983 4.25813
3.29628 1.73809 4.2744
3.28035 1.73723 4.28353
3.24657 1.73969 4.31276
3.2157 1.73796 4.33002
3.20482 1.74121 4.34605
3.12524 1.74209 4.40265
3.08653 1.74667 4.43988
2.96899 1.74367 4.50281
2.91524 1.74419 4.53522
2.88537 1.74448 4.55344
2.84856 1.74687 4.57869
2.83262 1.746 4.58682
2.33859 1.7532 4.84947
2.1512 1.75452 4.93087
2.04657 1.75732 4.98063
2.0147 1.75858 4.99685
2.0057 1.7586 4.99792
1.98874 1.75769 5.00306
1.97383 1.75986 5.01414
1.95586 1.75893 5.01829
1.94095 1.76112 5.03037
1.90701 1.76026 5.03864
1.90109 1.76342 5.04864
1.86719 1.76365 5.0629
1.85123 1.76373 5.06802
1.83121 1.7607 5.06521
1.81426 1.76182 5.07232
1.80344 1.76818 5.09631
1.79137 1.76404 5.08647
1.77441 1.76415 5.09259
1.75951 1.76633 5.10467
1.7405 1.76435 5.10485
1.72457 1.76549 5.11395
1.70863 1.76661 5.12106
1.69064 1.76565 5.12321
1.67061 1.76261 5.1194
1.66573 1.76683 5.13438
1.6498 1.76798 5.14348
1.62771 1.76283 5.13272
1.6169 1.77021 5.1577
1.59791 1.76824 5.15887
1.57786 1.76516 5.15307
1.56501 1.77045 5.17209
1.55397 1.76739 5.16722
1.53804 1.76853 5.17632
1.52313 1.77172 5.18839
1.50102 1.76553 5.17464
1.49024 1.77395 5.2026
1.47123 1.77195 5.20178
1.45222 1.76893 5.19996
1.44427 1.77104 5.20699
1.42833 1.77217 5.2151
1.41344 1.77639 5.22915
1.39235 1.77124 5.21838
1.37541 1.77136 5.22551
1.35741 1.77037 5.22566
1.3384 1.76837 5.22483
1.33148 1.77154 5.23584
1.31348 1.77055 5.23599
1.29548 1.76957 5.23614
1.27959 1.77279 5.25021
1.26056 1.76974 5.2464
1.24258 1.76978 5.24854
1.22768 1.77299 5.2616
1.20971 1.77306 5.26574
1.19863 1.76892 5.25588
1.18373 1.77212 5.26895
1.16471 1.77009 5.26612
1.14983 1.77434 5.28217
1.13184 1.77338 5.28432
1.1118 1.77031 5.27852
1.09481 1.77034 5.27965
1.08998 1.77766 5.30158
1.06993 1.77359 5.29579
1.05506 1.77885 5.31283
1.03604 1.77682 5.31
1.01802 1.77481 5.30816
1.00107 1.77591 5.31428
0.984153 1.77908 5.32536
0.97516 1.7791 5.32643
0.958183 1.77916 5.32955
0.941253 1.7813 5.33865
0.92326 1.78033 5.3398
0.906338 1.78349 5.34988
0.890431 1.78668 5.36196
0.826454 1.78477 5.36547
0.7735 1.7839 5.37188
0.755516 1.78394 5.37401
0.747586 1.78708 5.38303
0.729585 1.7861 5.38318
0.711617 1.78717 5.3873
0.693647 1.78724 5.39143
0.675617 1.78519 5.3876
0.658678 1.78732 5.3957
0.639663 1.78631 5.39386
0.629601 1.7832 5.38598
0.612656 1.78531 5.39307
0.594687 1.78539 5.39721
0.575594 1.78122 5.38541
0.559726 1.78649 5.40246
0.541741 1.78653 5.40459
0.52268 1.78342 5.39678
0.504704 1.78448 5.3999
0.495742 1.78556 5.40495
0.477649 1.7804 5.39316
0.459642 1.7804 5.3923
0.441681 1.78148 5.39742
0.42372 1.78257 5.40254
0.405658 1.77947 5.39472
0.387682 1.78052 5.39784
0.37755 1.77428 5.38101
0.359589 1.77537 5.38613
0.34269 1.77957 5.39919
0.324637 1.77748 5.39236
0.306699 1.77961 5.40046
0.288692 1.77961 5.3996
0.270668 1.77758 5.39676
0.261661 1.77757 5.39583
0.243708 1.77967 5.40194
0.225592 1.77446 5.38715
0.207601 1.77449 5.38828
0.190725 1.77974 5.40434
0.171671 1.77665 5.39752
0.154671 1.77666 5.39765
0.145757 1.78083 5.40866
0.127649 1.77564 5.39487
0.109719 1.77878 5.40396
0.0917111 1.77778 5.40311
0.0736809 1.77674 5.39926
0.0556507 1.77569 5.39541
0.0343982 1.76925 5.22965
0.0174608 1.77238 5.23773
-0.000499803 1.77447 5.24283
-0.0174993 1.77448 5.24296
-0.0344373 1.77661 5.25106
-0.0435688 1.77036 5.23422
-0.0614441 1.77661 5.25026
-0.0785208 1.77348 5.24043
-0.0955667 1.7714 5.23459
-0.113551 1.77244 5.23671
-0.130496 1.77456 5.24381
-0.147557 1.77245 5.23597
-0.166402 1.77976 5.25601
-0.174564 1.77246 5.23517
-0.191471 1.77665 5.24724
-0.209501 1.7756 5.24339
-0.226523 1.77457 5.24053
-0.243561 1.77351 5.23568
-0.26146 1.77771 5.24875
-0.279482 1.77768 5.24589
-0.28749 1.77767 5.24495
-0.305466 1.77873 5.24807
-0.323442 1.77979 5.25119
-0.340464 1.77976 5.24832
-0.357487 1.77873 5.24546
-0.375455 1.7808 5.24956
-0.392478 1.77977 5.24671
-0.401532 1.77767 5.23981
-0.419477 1.78079 5.2469
-0.436491 1.78077 5.24502
-0.454459 1.78284 5.24913
-0.470582 1.77762 5.23333
-0.49038 1.78701 5.25934
-0.507434 1.78492 5.2525
-0.524449 1.78491 5.25063
-0.534409 1.78699 5.25567
-0.55054 1.78175 5.23887
-0.569423 1.78798 5.25392
-0.586468 1.78691 5.24806
-0.620552 1.78377 5.23737
-0.637566 1.78375 5.23549
-0.645604 1.78268 5.23057
-0.66358 1.78474 5.23367
-0.681595 1.78472 5.23181
-0.69864 1.78365 5.22595
-0.716616 1.78471 5.22907
-0.731747 1.77946 5.21226
-0.747839 1.7763 5.20043
-0.756862 1.77526 5.19751
-0.775752 1.78148 5.21157
-0.790914 1.77518 5.19077
-0.808905 1.77621 5.19189
-0.824012 1.77201 5.17806
-0.844872 1.7793 5.19612
-0.859049 1.77197 5.17333
-0.866134 1.76881 5.16243
-0.883125 1.76984 5.16354
-0.900162 1.76977 5.15867
-0.921022 1.77705 5.17672
-0.934222 1.76868 5.15094
-0.951244 1.76865 5.14807
-0.993334 1.7675 5.1364
-1.02738 1.76744 5.13066
-1.06338 1.76945 5.1299
-1.0852 1.77882 5.15393
-1.09934 1.77355 5.13511
-1.12151 1.76724 5.11337
-1.13855 1.76718 5.1085
-1.15556 1.76716 5.10662
-1.17259 1.76711 5.10275
-1.18962 1.76707 5.09888
-1.20762 1.76908 5.09899
-1.21759 1.77115 5.10303
-1.23363 1.77007 5.09717
-1.24969 1.76896 5.0893
-1.27349 1.77936 5.11533
-1.28279 1.76681 5.07758
-1.30271 1.77196 5.08666
-1.31877 1.77085 5.0788
-1.32779 1.77083 5.07686
-1.34383 1.76975 5.071
-1.36183 1.77178 5.0721
-1.37789 1.77067 5.06424
-1.39589 1.77167 5.06336
-1.41098 1.7685 5.05152
-1.42897 1.77053 5.05263
-1.44573 1.783 5.08357
-1.45403 1.77044 5.04582
-1.47788 1.77974 5.06486
-1.49101 1.7745 5.04803
-1.50805 1.77444 5.04316
-1.5241 1.77335 5.0363
-1.53724 1.76909 5.01846
-1.55231 1.76695 5.0086
-1.56812 1.77733 5.03357
-1.58613 1.77832 5.03169
-1.60218 1.77723 5.02483
-1.61336 1.77089 5.002
-1.62748 1.76667 4.98617
-1.64352 1.76661 4.98129
-1.65957 1.76551 4.97443
-1.66761 1.76545 4.96949
-1.68365 1.76538 4.96461
-1.7367 1.7683 4.95696
-1.77683 1.76708 4.94028
-1.79092 1.76493 4.92942
-1.81188 1.769 4.93352
-1.84105 1.7647 4.9118
-1.88215 1.76454 4.89911
-1.94929 1.7663 4.88059
-2.0035 1.76391 4.85203
-2.01857 1.76279 4.84315
-2.04247 1.77 4.85623
-2.0654 1.77615 4.86531
-2.10177 1.76445 4.81675
-2.12682 1.76537 4.80993
-2.14289 1.76524 4.80105
-2.17597 1.76612 4.79128
-2.19006 1.76395 4.77942
-2.20611 1.76386 4.77254
-2.21118 1.76173 4.76361
-2.22821 1.76267 4.75872
-2.24819 1.76673 4.76181
-2.26424 1.76664 4.75494
-2.28225 1.76862 4.75304
-2.29438 1.76439 4.73719
-2.30848 1.76221 4.72433
-2.32044 1.76629 4.72936
-2.3355 1.76517 4.72049
-2.35155 1.76609 4.7146
-2.36858 1.76705 4.71071
-2.37872 1.76177 4.69186
-2.3997 1.76582 4.69396
-2.41575 1.76674 4.68807
-2.41984 1.76357 4.67614
-2.43392 1.76141 4.66528
-2.45587 1.76752 4.67135
-2.47095 1.76638 4.66148
-2.48306 1.76317 4.64662
-2.51713 1.76606 4.63783
-2.52417 1.76499 4.6329
-2.53431 1.76072 4.61404
-2.55923 1.7679 4.62512
-2.57332 1.76673 4.61324
-2.58148 1.76142 4.59238
-2.6074 1.76859 4.60247
-2.61654 1.76432 4.5836
-2.62569 1.76003 4.56373
-2.64062 1.76519 4.57377
-2.65864 1.76714 4.56987
-2.66681 1.76182 4.54801
-2.68977 1.76691 4.55311
-2.70779 1.76888 4.55022
-2.71595 1.76357 4.52935
-2.73397 1.76554 4.52646
-2.74201 1.76547 4.52152
-2.75411 1.76329 4.50864
-2.77412 1.76629 4.50775
-2.79313 1.76927 4.50585
-2.80622 1.76811 4.49396
-2.82326 1.76903 4.48807
-2.83833 1.76891 4.47919
-2.84438 1.76782 4.47325
-2.85648 1.76562 4.45937
-2.87155 1.7655 4.45049
-2.88859 1.76743 4.44458
-2.90564 1.76835 4.4387
-2.91378 1.76407 4.41982
-2.93182 1.76601 4.41493
-2.95084 1.76898 4.41203
-2.94997 1.76373 4.3951
-2.96504 1.76361 4.38621
-2.98505 1.76659 4.38432
-2.9932 1.76232 4.36544
-3.00826 1.7622 4.35655
-3.02036 1.76101 4.34366
-3.03334 1.76407 4.34671
-3.04346 1.76084 4.33083
-3.05556 1.75965 4.31794
-3.07162 1.76055 4.31005
-3.07976 1.75627 4.29117
-3.09977 1.75926 4.28928
-3.11583 1.76016 4.28238
-3.1199 1.75802 4.27244
-3.13794 1.75996 4.26755
-3.14905 1.75774 4.25266
-3.1562 1.75347 4.23378
-3.1772 1.75747 4.23288
-3.19623 1.76042 4.22898
-3.20041 1.75407 4.2051
-3.21943 1.75705 4.2032
-3.22646 1.75699 4.19825
-3.23462 1.7527 4.17837
-3.25562 1.7567 4.17747
-3.26178 1.75239 4.15658
-3.28674 1.75848 4.16168
-3.29488 1.75522 4.14378
-3.304 1.75199 4.1279
-3.31698 1.75603 4.12994
-3.3271 1.75382 4.11504
-3.34909 1.75783 4.11515
-3.36416 1.75871 4.10625
-3.37033 1.75339 4.08437
-3.38737 1.75531 4.07847
-3.40046 1.75514 4.06657
-3.40859 1.7519 4.04968
-3.41662 1.75284 4.04572
-3.43961 1.75787 4.04682
-3.44972 1.75566 4.03193
-3.4648 1.75652 4.02203
-3.48086 1.75742 4.01414
-3.49097 1.7552 3.99924
-3.50108 1.75299 3.98435
-3.50713 1.7529 3.9784
-3.52616 1.75584 3.97349
-3.53331 1.75157 3.95461
-3.55036 1.75347 3.94771
-3.55947 1.75126 3.93281
-3.57554 1.75314 3.9239
-3.58665 1.75094 3.91001
-3.58179 1.74565 3.89105
-3.60777 1.75172 3.89416
-3.61688 1.7495 3.87926
-3.6379 1.75347 3.87636
-3.65099 1.7533 3.86446
-3.66506 1.75417 3.85455
-3.67022 1.74987 3.83465
-3.67924 1.75084 3.8317
-3.69728 1.75376 3.82579
-3.70443 1.74948 3.80691
-3.71652 1.74932 3.795
-3.74547 1.75741 3.8001
-3.7546 1.75518 3.7842
-3.75975 1.75089 3.7643
-3.77174 1.75491 3.76533
-3.77591 1.74959 3.74344
-3.789 1.74942 3.73154
-3.80406 1.7503 3.72264
-3.81814 1.75116 3.71273
-3.8223 1.74685 3.69182
-3.83936 1.74875 3.68392
-3.85641 1.75165 3.677
-3.85155 1.74539 3.65906
-3.86364 1.74522 3.64715
-3.88664 1.75022 3.64625
-3.88782 1.74486 3.62233
-3.91381 1.75091 3.62444
-3.93186 1.75381 3.61653
-3.93402 1.7485 3.59562
-3.94901 1.75252 3.59668
-3.95714 1.75029 3.58077
-3.97022 1.75114 3.56985
-3.97835 1.74889 3.55295
-3.9964 1.7518 3.54604
-4.00253 1.74854 3.52813
-4.01562 1.74939 3.51721
-4.02771 1.7492 3.50431
-4.03773 1.75117 3.50135
-4.04884 1.74997 3.48745
-4.06887 1.75391 3.48254
-4.077 1.75166 3.46564
-4.09405 1.75357 3.45874
-4.10118 1.75132 3.44182
-4.11427 1.75216 3.4299
-4.11635 1.75001 3.41995
-4.1354 1.75292 3.41305
-4.14849 1.75375 3.40113
-4.17881 1.75114 3.3584
-4.19587 1.75403 3.35048
-4.20399 1.7518 3.33457
-4.21103 1.75273 3.32961
4.79986 1.70873 2.35424
4.78896 1.70794 2.36834
4.7762 1.70942 2.40042
4.76029 1.7076 2.41157
4.75448 1.70999 2.43758
4.73756 1.70716 2.44875
4.73269 1.7084 2.46477
4.71576 1.70556 2.47494
4.70788 1.70681 2.49098
4.70402 1.70908 2.50898
4.69914 1.71032 2.525
4.67913 1.70432 2.52424
4.66034 1.70375 2.55239
4.6605 1.70806 2.57333
4.6506 1.70826 2.58641
4.6377 1.70646 2.59953
4.63382 1.70871 2.61653
4.62795 1.71097 2.63354
4.60894 1.70495 2.63178
4.60407 1.70721 2.64878
4.59317 1.70642 2.66288
4.58026 1.70561 2.67499
4.56634 1.70378 2.68612
4.5665 1.70809 2.70706
4.56063 1.70934 2.72309
4.57277 1.71661 2.74189
4.54779 1.71067 2.74517
4.52684 1.70579 2.7524
4.51695 1.706 2.76647
4.52616 1.7144 2.79328
4.49615 1.70642 2.79363
4.49129 1.70769 2.81165
4.48835 1.70881 2.81965
4.48147 1.71005 2.83569
4.46957 1.71025 2.84878
4.45565 1.70843 2.85991
4.44877 1.70967 2.87595
4.43989 1.7109 2.891
4.43301 1.71214 2.90703
4.42504 1.7112 2.91111
4.41615 1.71143 2.92617
4.4133 1.71573 2.94613
4.39235 1.71083 2.95236
4.3915 1.71513 2.97231
4.38161 1.71535 2.98638
4.36166 1.71146 2.99359
4.35671 1.71157 3.00063
4.36291 1.71895 3.02648
4.34094 1.71403 3.03071
4.32803 1.71323 3.04383
4.31009 1.71035 3.051
4.30019 1.71056 3.06508
4.29533 1.71383 3.08307
4.28141 1.712 3.0942
4.27143 1.71105 3.09729
4.27462 1.71641 3.12119
4.26473 1.71764 3.13625
4.24678 1.71475 3.14343
4.22984 1.71188 3.1516
4.22397 1.71414 3.16861
4.20301 1.71023 3.17383
4.20712 1.71445 3.18874
4.20226 1.71772 3.20673
4.18532 1.71485 3.2149
4.17241 1.71404 3.22701
4.16452 1.71626 3.24204
4.15061 1.71444 3.25317
4.14071 1.71565 3.26723
4.13677 1.71677 3.27525
4.11983 1.7139 3.28342
4.10691 1.71408 3.29451
4.10306 1.71736 3.3135
4.07119 1.71365 3.33179
4.05434 1.71394 3.35092
4.04647 1.7162 3.36795
4.00084 1.71698 3.41829
3.97108 1.71746 3.44951
3.94928 1.71786 3.47567
3.90367 1.72066 3.52798
3.8848 1.71993 3.54513
3.82123 1.71982 3.60262
3.7389 1.72318 3.69121
3.74313 1.73262 3.72104
3.72819 1.73076 3.73018
3.72233 1.73503 3.74816
3.69429 1.72698 3.74349
3.69247 1.73334 3.76742
3.68662 1.73662 3.78641
3.67462 1.73363 3.78655
3.64556 1.72555 3.77989
3.63265 1.72572 3.79098
3.61974 1.72591 3.80308
3.5939 1.72625 3.82527
3.56515 1.72875 3.85746
3.48362 1.72874 3.92108
3.46597 1.73743 3.96709
3.4571 1.74069 3.98411
3.4351 1.73571 3.98435
3.40423 1.73398 4.00161
3.39928 1.73509 4.00863
3.39041 1.73735 4.02567
3.37346 1.73545 4.03182
3.35751 1.73456 4.03896
3.35369 1.74092 4.0629
3.32079 1.73814 4.07619
3.3108 1.73616 4.07729
3.2989 1.73736 4.09037
3.27509 1.73975 4.11551
3.1208 1.73727 4.21173
3.12295 1.74355 4.23062
3.09993 1.73852 4.22787
3.08904 1.74075 4.24292
3.0741 1.73988 4.25104
3.05715 1.73898 4.25719
3.04423 1.73915 4.26828
3.03131 1.74033 4.27936
3.02031 1.73833 4.27948
3.01246 1.74262 4.29847
2.99247 1.73967 4.30067
2.94968 1.7401 4.32799
2.93678 1.7413 4.34107
2.91083 1.73942 4.34829
2.88196 1.73971 4.36651
2.87108 1.74194 4.38156
2.84121 1.74223 4.39978
2.83324 1.74128 4.40286
2.82134 1.74348 4.41592
2.80337 1.74155 4.42008
2.53352 1.746 4.57407
2.51061 1.74619 4.58624
2.49771 1.74839 4.59931
2.46582 1.74762 4.61356
2.4519 1.7488 4.62465
2.3981 1.74922 4.65105
2.38215 1.74934 4.65817
2.35126 1.74958 4.6734
2.33531 1.74968 4.67952
2.29544 1.74996 4.69682
2.28051 1.75011 4.70593
2.17785 1.75085 4.7517
2.1619 1.75096 4.75882
2.15105 1.75625 4.77783
2.1351 1.75635 4.78395
2.11711 1.7544 4.78611
2.11219 1.75755 4.7961
2.09215 1.7535 4.79232
2.07927 1.75673 4.80737
1.88175 1.75381 4.87191
1.73128 1.76094 4.94194
1.7143 1.76 4.94509
1.70552 1.76943 4.97402
1.68446 1.76433 4.96625
1.6734 1.76022 4.95839
1.66155 1.76552 4.97841
1.64049 1.76142 4.97062
1.62146 1.75838 4.96681
1.60448 1.75743 4.96996
1.57056 1.75761 4.98021
1.5636 1.7587 4.98625
1.48079 1.76013 5.01185
1.46486 1.76126 5.01996
1.42189 1.75935 5.02431
1.38796 1.75952 5.03456
1.372 1.75961 5.03968
1.24624 1.76116 5.07161
1.2293 1.76229 5.07973
1.20434 1.76238 5.08491
1.18634 1.7614 5.08506
1.17038 1.7625 5.09117
1.15341 1.76255 5.0943
1.13851 1.76576 5.10736
1.12155 1.76584 5.11249
1.11253 1.76482 5.11057
1.09661 1.76799 5.12165
1.07754 1.76286 5.11186
1.05955 1.7629 5.114
1.04569 1.76818 5.13203
1.0277 1.76721 5.13318
1.01072 1.76726 5.13631
1.00276 1.76834 5.14135
0.984745 1.76633 5.13952
0.974016 1.77785 5.17443
0.958124 1.78207 5.18849
0.934838 1.76854 5.15186
0.922078 1.77801 5.18282
0.900923 1.77073 5.16309
0.892954 1.77079 5.16715
0.878085 1.77606 5.18418
0.864263 1.78341 5.20718
0.79324 1.77941 5.20477
0.776302 1.78154 5.21287
0.732302 1.77958 5.21323
0.71638 1.78274 5.22331
0.698395 1.78278 5.22544
0.681426 1.78285 5.22957
0.664442 1.78289 5.2317
0.655465 1.78394 5.23475
0.636333 1.77671 5.218
0.603489 1.78303 5.23815
0.585473 1.78201 5.23631
0.567434 1.77895 5.23149
0.550489 1.78106 5.23858
0.540419 1.77794 5.2297
0.523451 1.77901 5.23382
0.505412 1.77695 5.22898
0.488443 1.77702 5.23311
0.470412 1.77497 5.22928
0.453475 1.77811 5.23736
0.435397 1.77397 5.22755
0.426405 1.77399 5.22862
0.410514 1.77921 5.24267
0.392468 1.77614 5.23685
0.37446 1.77513 5.236
0.356414 1.77306 5.23016
0.339476 1.77519 5.23826
0.32243 1.77311 5.23242
0.304431 1.77313 5.23255
0.295376 1.77003 5.22567
0.279562 1.77839 5.24967
0.261416 1.77213 5.23089
0.243408 1.77113 5.23004
0.226486 1.77429 5.24012
0.208409 1.77015 5.23032
0.191425 1.77119 5.23243
0.182472 1.77329 5.23847
0.165403 1.77017 5.22964
0.148503 1.77437 5.24271
0.130365 1.76812 5.22494
0.113497 1.77438 5.24197
0.0955125 1.77443 5.24411
0.078513 1.77444 5.24424
0.0694129 1.77025 5.23137
0.0524905 1.77341 5.24145
0.0324024 1.77728 5.09652
0.0154575 1.7804 5.10361
-0.00148056 1.78253 5.1117
-0.0185108 1.78148 5.10785
-0.0275878 1.77834 5.09796
-0.0446029 1.77732 5.0961
-0.0614864 1.78255 5.11115
-0.0785323 1.78048 5.10531
-0.111624 1.77633 5.09362
-0.129507 1.78256 5.10867
-0.146545 1.7805 5.10382
-0.171622 1.77737 5.09406
-0.188528 1.78256 5.10611
-0.205527 1.78257 5.10624
-0.222566 1.78051 5.1014
-0.239557 1.78154 5.10251
-0.256549 1.78256 5.10362
-0.280703 1.77529 5.08391
-0.315601 1.7805 5.0971
-0.349607 1.78151 5.09634
-0.409581 1.7846 5.09974
-0.78994 1.78215 5.05364
-0.831015 1.78103 5.04396
-0.84996 1.78415 5.05106
-0.865059 1.78097 5.03822
-0.882066 1.78197 5.03733
-0.899096 1.78092 5.03348
-0.915134 1.77986 5.02861
-0.930217 1.77771 5.01776
-0.93824 1.77667 5.01483
-0.955247 1.77767 5.01395
-0.972269 1.77763 5.01108
-0.986384 1.77342 4.99624
-1.00535 1.7755 5.00035
-1.02234 1.77752 5.00145
-1.0384 1.77543 4.9946
-1.04351 1.77121 4.9797
-1.06248 1.77329 4.98381
-1.07753 1.77219 4.97694
-1.09552 1.77424 4.97905
-1.11157 1.77314 4.97219
-1.1305 1.77729 4.98127
-1.14753 1.77724 4.9774
-1.16358 1.77615 4.97053
-1.17158 1.77716 4.97058
-1.18763 1.77608 4.96471
-1.20272 1.7729 4.95187
-1.22167 1.77702 4.95896
-1.23672 1.77492 4.9521
-1.25374 1.77589 4.94921
-1.27369 1.78001 4.9563
-1.27879 1.77582 4.9434
-1.29386 1.7737 4.93455
-1.31574 1.78094 4.9496
-1.32984 1.77775 4.93676
-1.34297 1.77251 4.91993
-1.36096 1.77454 4.92104
-1.37602 1.77343 4.91317
-1.38403 1.77341 4.91123
-1.40494 1.7796 4.92329
-1.41903 1.77643 4.91144
-1.43412 1.77427 4.89959
-1.45404 1.77943 4.90966
-1.46718 1.77417 4.89184
-1.48323 1.7741 4.88596
-1.49416 1.77822 4.89398
-1.50826 1.77505 4.88213
-1.52526 1.77605 4.88125
-1.5423 1.77599 4.87638
-1.55735 1.7759 4.86949
-1.57047 1.77167 4.85365
-1.5875 1.77164 4.85078
-1.5955 1.77263 4.84982
-1.60961 1.76943 4.83597
-1.63151 1.77564 4.84905
-1.64363 1.77141 4.8332
-1.65967 1.77135 4.82832
-1.6767 1.7723 4.82443
-1.68882 1.76808 4.80859
-1.70487 1.76798 4.80171
-1.71777 1.77319 4.81473
-1.73089 1.76896 4.79889
-1.74694 1.76888 4.79301
-1.7659 1.77297 4.79809
-1.77902 1.76874 4.78225
-1.79406 1.76866 4.77637
-1.81206 1.77068 4.77647
-1.82303 1.77374 4.78051
-1.83711 1.77159 4.76965
-1.85217 1.77048 4.76178
-1.86822 1.77041 4.7559
-1.88425 1.77136 4.752
-1.90128 1.77231 4.74812
-1.91535 1.77017 4.73825
-1.93024 1.77739 4.75226
-1.94336 1.77418 4.7374
-1.96332 1.77827 4.74249
-1.97445 1.77402 4.72564
-1.99344 1.77605 4.72675
-2.0036 1.77075 4.7059
-2.01767 1.76961 4.69603
-2.02864 1.77168 4.70008
-2.04468 1.77262 4.69518
-2.06072 1.77254 4.68931
-2.08168 1.77763 4.69439
-2.09378 1.77445 4.68153
-2.10983 1.77435 4.67465
-2.12489 1.77426 4.66776
-2.13389 1.77525 4.66681
-2.14798 1.7731 4.65595
-2.16008 1.7709 4.64207
-2.18007 1.77395 4.64418
-2.19905 1.77699 4.64628
-2.21509 1.77791 4.64038
-2.22425 1.77262 4.62053
-2.24522 1.77668 4.62363
-2.25227 1.7756 4.61769
-2.28139 1.77437 4.60093
-2.29546 1.77324 4.59205
-2.31447 1.77624 4.59115
-2.32952 1.77615 4.58426
-2.34655 1.7771 4.58038
-2.3467 1.77082 4.56147
-2.36766 1.7759 4.56555
-2.38175 1.77374 4.55469
-2.39483 1.77259 4.5438
-2.41087 1.77351 4.53791
-2.44592 1.77644 4.53113
-2.44705 1.7712 4.51521
