5.64852 1.7446 3.38246
5.63664 1.74486 3.39955
5.62478 1.74514 3.41763
5.61492 1.74543 3.43671
5.60004 1.74466 3.45183
5.59119 1.74596 3.47188
5.58233 1.74725 3.49093
5.5764 1.74739 3.49998
5.56151 1.74662 3.5151
5.54462 1.74484 3.52926
5.54079 1.74818 3.55224
5.52189 1.74639 3.56541
5.51103 1.74768 3.58448
5.51515 1.7509 3.5994
5.50127 1.75015 3.61552
5.49041 1.75142 3.63358
5.48056 1.75272 3.65364
5.46668 1.75197 3.66976
5.44777 1.75016 3.68193
5.44194 1.75249 3.70394
5.43902 1.75366 3.71495
5.42011 1.75185 3.72712
5.41025 1.75314 3.74618
5.39939 1.75441 3.76424
5.38652 1.75467 3.78134
5.37465 1.75495 3.79943
5.35775 1.75415 3.81257
5.34287 1.7534 3.82869
5.34398 1.75661 3.84264
5.34016 1.75996 3.86662
5.31823 1.75711 3.87583
5.30636 1.75839 3.8939
5.28745 1.75558 3.90609
5.28465 1.75995 3.93105
5.27379 1.76124 3.95011
5.26383 1.76034 3.9562
5.24592 1.75953 3.96835
5.22501 1.75671 3.97955
5.21817 1.75902 4.00057
5.20127 1.75824 4.01471
5.1894 1.7585 4.0318
5.18055 1.76081 4.05184
5.1716 1.76092 4.0589
5.15672 1.76015 4.07403
5.14687 1.76245 4.09407
5.12795 1.75963 4.10526
5.11609 1.7619 4.12331
5.10825 1.76422 4.14434
5.08833 1.7624 4.15552
5.07646 1.76266 4.17261
5.06952 1.76278 4.18066
5.05967 1.76508 4.2007
5.04076 1.76328 4.21287
5.02184 1.76145 4.22405
5.01199 1.76376 4.24409
4.99912 1.76502 4.26117
4.98625 1.76528 4.27826
4.98233 1.76643 4.28828
4.96342 1.76562 4.30043
4.95356 1.76691 4.31949
4.93264 1.76507 4.32968
4.92279 1.76738 4.34972
4.90891 1.76762 4.36582
4.89201 1.76683 4.37897
4.88407 1.76695 4.38702
4.87119 1.7682 4.40311
4.85732 1.76846 4.42021
4.84041 1.76765 4.43235
4.82955 1.76994 4.4514
4.81165 1.76914 4.46455
4.8008 1.77043 4.48361
4.78882 1.76949 4.48672
4.77393 1.76972 4.50183
4.76308 1.77101 4.52089
4.74214 1.76916 4.53008
4.73834 1.77355 4.55605
4.7164 1.77168 4.56424
4.70455 1.77297 4.58331
4.69962 1.77412 4.59334
4.68977 1.77742 4.61336
4.67186 1.77662 4.62551
4.65699 1.77686 4.64162
4.64714 1.77917 4.66167
4.6262 1.77732 4.67085
4.61133 1.77856 4.68695
4.58648 1.77788 4.70715
4.55771 1.77936 4.73835
4.53677 1.77749 4.74653
4.52592 1.77979 4.76658
4.51305 1.78106 4.78367
4.49212 1.7792 4.79285
4.47232 1.7816 4.81897
4.45542 1.78181 4.8321
4.43246 1.77891 4.83831
4.4206 1.7812 4.85737
4.40673 1.78245 4.87346
4.34504 1.78112 4.91595
4.33218 1.78239 4.93403
4.11245 1.78404 5.10368
4.09253 1.7832 5.11385
4.06276 1.78568 5.14504
4.01697 1.78512 5.1724
3.9274 1.78403 5.2301
3.92552 1.78727 5.24606
3.90559 1.78641 5.25523
3.88869 1.78762 5.26834
3.87077 1.78679 5.27949
3.85488 1.78803 5.29459
3.83697 1.78822 5.30673
3.80894 1.78318 5.30301
3.80403 1.78536 5.31502
3.78611 1.78452 5.32517
3.76315 1.78263 5.33137
3.74928 1.78488 5.34744
3.7344 1.78614 5.36454
3.71548 1.7863 5.37468
3.69655 1.78545 5.38383
3.68253 1.78343 5.38197
3.65855 1.77947 5.38421
3.64671 1.78379 5.40524
3.62373 1.78086 5.40845
3.60987 1.78313 5.42653
3.58486 1.77914 5.42578
3.57707 1.78556 5.45374
3.546 1.77845 5.44508
3.53805 1.77955 5.45213
3.52115 1.77976 5.46525
3.51134 1.78512 5.48925
3.48532 1.78011 5.48752
3.46944 1.78236 5.50361
3.45253 1.78355 5.51572
3.42854 1.77958 5.51696
3.42263 1.78176 5.52897
3.40774 1.784 5.54405
3.39085 1.78522 5.55817
3.36787 1.78226 5.56038
3.34893 1.78241 5.56952
3.33204 1.78363 5.58364
3.31312 1.78379 5.59378
3.30415 1.78387 5.59884
3.28319 1.78196 5.60403
3.26832 1.78522 5.6211
3.24636 1.78331 5.62629
3.23047 1.78555 5.64138
3.2156 1.78781 5.65846
3.19566 1.78694 5.66663
3.18366 1.78595 5.66673
3.16168 1.78301 5.66994
3.14885 1.78735 5.69198
3.12789 1.78644 5.69715
3.111 1.78766 5.71126
3.0941 1.78886 5.72437
3.07924 1.79215 5.74344
3.06418 1.78805 5.73561
3.04525 1.78821 5.74575
3.02125 1.78521 5.74498
3.00638 1.78849 5.76304
2.98747 1.78866 5.77418
2.96751 1.78777 5.78035
2.94859 1.78893 5.79047
2.93557 1.78591 5.78862
2.91563 1.78603 5.79577
2.90076 1.7893 5.81383
2.88082 1.78842 5.821
2.85885 1.7865 5.82519
2.84499 1.79079 5.84423
2.81997 1.78676 5.84148
2.80511 1.79006 5.86055
2.79819 1.79221 5.87057
2.77927 1.79237 5.88071
2.75321 1.78729 5.87398
2.7353 1.78948 5.88609
2.71536 1.78961 5.89424
2.69746 1.7908 5.90635
2.67445 1.7878 5.90557
2.66448 1.78788 5.91065
2.64555 1.78803 5.91979
2.62866 1.79025 5.93388
2.6016 1.78515 5.92616
2.58267 1.78631 5.93629
2.56476 1.78749 5.94741
2.53973 1.78345 5.94366
2.52771 1.78143 5.94178
2.51489 1.78679 5.9658
2.48782 1.78166 5.95608
2.47806 1.78913 5.98704
2.45198 1.78402 5.97831
2.43103 1.78312 5.98449
2.4121 1.78427 5.99361
2.40723 1.78852 6.01059
2.38013 1.78235 5.99788
2.3602 1.7825 6.00703
2.34331 1.78573 6.02211
2.32337 1.78585 6.02926
2.3034 1.78494 6.03443
2.28143 1.78401 6.03861
2.25842 1.781 6.03683
2.25456 1.78629 6.05578
2.23156 1.7843 6.05598
2.21263 1.78445 6.06512
2.18757 1.78035 6.05737
2.16968 1.78257 6.07148
2.1528 1.78582 6.08756
2.12978 1.78279 6.08477
2.12081 1.78387 6.08983
2.09987 1.78399 6.09698
2.07787 1.78202 6.09818
2.05688 1.78105 6.09935
2.04104 1.78537 6.12041
2.017 1.78232 6.11564
1.99705 1.78242 6.12179
1.99219 1.78669 6.13976
1.9702 1.78574 6.14194
1.94615 1.78165 6.13518
1.92929 1.78594 6.15425
1.91139 1.78815 6.16735
1.88836 1.78509 6.16257
1.86327 1.77995 6.15183
1.85535 1.7821 6.16186
1.83644 1.78429 6.17397
1.81239 1.78122 6.1682
1.79346 1.78237 6.17733
1.77661 1.78566 6.19641
1.75459 1.78365 6.1946
1.73671 1.7869 6.21069
1.71677 1.78802 6.21783
1.70166 1.78282 6.20402
1.68581 1.78713 6.22407
1.66587 1.78825 6.23121
1.64284 1.7852 6.22743
1.62394 1.78843 6.24152
1.60813 1.79379 6.26557
1.58404 1.78963 6.25381
1.572 1.78657 6.24894
1.55412 1.79082 6.26502
1.53524 1.79407 6.28111
1.51324 1.79207 6.28031
1.49224 1.7911 6.28148
1.47126 1.79114 6.28364
1.45134 1.79231 6.29377
1.44136 1.79236 6.29685
1.41729 1.78824 6.28809
1.39734 1.78935 6.29422
1.37635 1.78839 6.2964
1.35537 1.78844 6.29855
1.33543 1.78957 6.30669
1.31344 1.78861 6.30887
1.30347 1.78968 6.31293
1.28352 1.79078 6.31906
1.26048 1.78773 6.31428
1.24052 1.78782 6.31943
1.22058 1.78895 6.32757
1.19857 1.78793 6.32575
1.1776 1.78802 6.3309
1.1676 1.78803 6.33098
1.14663 1.78809 6.33414
1.1267 1.78925 6.34427
1.10468 1.78823 6.34145
1.08265 1.78618 6.33765
1.06063 1.78415 6.33484
1.04173 1.78736 6.34794
1.03177 1.78844 6.353
1.00872 1.78537 6.34722
0.98982 1.78858 6.36031
0.966736 1.78443 6.34955
0.947843 1.78765 6.36365
0.925813 1.78561 6.35984
0.90589 1.78777 6.36996
0.884913 1.78783 6.37312
0.873906 1.78782 6.3722
0.852929 1.78788 6.37536
0.831929 1.7869 6.37553
0.810991 1.78903 6.38366
0.790029 1.78912 6.38882
0.76903 1.78914 6.38897
0.748061 1.78921 6.39313
0.739131 1.79235 6.40215
0.714969 1.78506 6.38144
0.696085 1.78929 6.39652
0.674047 1.78723 6.39172
0.654131 1.78941 6.40284
0.633163 1.79049 6.40698
0.611163 1.7895 6.40716
0.601155 1.78949 6.40624
0.580171 1.78954 6.40839
0.55921 1.79063 6.41354
0.53821 1.78964 6.41371
0.516203 1.78965 6.41287
0.496303 1.79285 6.42598
0.475335 1.79393 6.43012
0.464335 1.79393 6.4302
0.443335 1.79295 6.43038
0.422297 1.79089 6.42557
0.401367 1.79404 6.43468
0.379344 1.79301 6.43186
0.358368 1.79307 6.43502
0.337407 1.79416 6.44016
0.327392 1.79414 6.43823
0.306446 1.79526 6.44538
0.28547 1.79632 6.44852
0.264516 1.79742 6.45466
0.242401 1.79321 6.43989
0.221425 1.79427 6.44303
0.200441 1.79432 6.44519
0.178418 1.79329 6.44237
0.168388 1.79224 6.43846
0.146411 1.7933 6.44161
0.125381 1.79126 6.4378
0.10452 1.79654 6.45588
0.0833435 1.79021 6.43313
0.0624445 1.79442 6.44623
0.0436809 1.78897 6.21242
0.0336504 1.78792 6.20851
0.0136817 1.78899 6.21264
-0.00737917 1.78689 6.20483
-0.027425 1.78481 6.19901
-0.048378 1.78692 6.20514
-0.0684389 1.78481 6.19732
-0.0883687 1.78796 6.20643
-0.0993533 1.788 6.20851
-0.11933 1.78906 6.21164
-0.140375 1.78798 6.20582
-0.160428 1.7859 6.199
-0.181374 1.78801 6.20613
-0.201434 1.78591 6.19831
-0.221488 1.78382 6.19149
-0.232402 1.78799 6.20251
-0.252448 1.78592 6.19669
-0.272471 1.78489 6.19386
-0.292539 1.78277 6.18504
-0.314399 1.78905 6.20311
-0.333522 1.78383 6.18733
-0.354475 1.78593 6.19346
-0.364467 1.78695 6.19452
-0.384574 1.78276 6.18073
-0.404558 1.78381 6.18287
-0.425549 1.78484 6.18401
-0.445579 1.78379 6.18017
-0.466532 1.7859 6.1863
-0.48657 1.78484 6.18147
-0.506615 1.78376 6.17563
-0.515692 1.78062 6.16575
-0.537606 1.7848 6.17685
-0.556706 1.78162 6.16404
-0.578589 1.78686 6.17913
-0.597719 1.78262 6.16234
-0.617718 1.78264 6.16249
-0.639632 1.78681 6.17359
-0.649701 1.78469 6.1647
-0.668801 1.78051 6.1519
-0.690684 1.78575 6.16699
-0.708837 1.78047 6.1472
-0.730767 1.78461 6.15631
-0.749812 1.78354 6.15047
-0.768904 1.78038 6.13866
-0.781795 1.78459 6.15269
-0.801802 1.78559 6.15183
-0.821824 1.78556 6.14898
-0.840915 1.7824 6.13717
-0.860937 1.78237 6.13432
-0.880029 1.77921 6.12251
-0.901996 1.78228 6.12663
-0.923911 1.78546 6.13775
-0.931995 1.7833 6.12684
-0.953963 1.78538 6.13097
-0.971147 1.77904 6.10719
-0.994023 1.78429 6.12329
-1.01215 1.78005 6.10649
-1.03216 1.78105 6.10562
-1.05219 1.78101 6.10178
-1.06221 1.77997 6.09887
-1.08224 1.77992 6.09502
-1.10036 1.7767 6.0792
-1.12422 1.783 6.09829
-1.14331 1.78083 6.08646
-1.16141 1.77766 6.07364
-1.18239 1.7797 6.07577
-1.1924 1.77968 6.07385
-1.21146 1.77857 6.06601
-1.23343 1.78065 6.07014
-1.25442 1.78268 6.07127
-1.27447 1.7816 6.06544
-1.29157 1.77842 6.05261
-1.31161 1.77835 6.04676
-1.32164 1.7773 6.04285
-1.3436 1.78039 6.04797
-1.36071 1.77719 6.03415
-1.37977 1.77609 6.02631
-1.40078 1.77709 6.02545
-1.41984 1.77599 6.01761
-1.44181 1.77805 6.02074
-1.44892 1.77484 6.00684
-1.46989 1.7769 6.00997
-1.48705 1.77262 5.99016
-1.50901 1.77571 5.99528
-1.53001 1.77672 5.99542
-1.5481 1.77456 5.98359
-1.56521 1.77135 5.96877
-1.58008 1.77761 5.98579
-1.59523 1.77233 5.96598
-1.61916 1.77748 5.97508
-1.63627 1.77428 5.96126
-1.65242 1.77 5.94144
-1.6744 1.77206 5.94457
-1.69929 1.77827 5.95767
-1.71738 1.77612 5.94684
-1.72155 1.76978 5.92396
-1.74449 1.77392 5.93207
-1.7616 1.77071 5.91725
-1.78066 1.7706 5.90939
-1.80262 1.77371 5.91551
-1.81876 1.76944 5.89669
-1.83685 1.76728 5.88486
-1.8488 1.77039 5.89191
-1.86884 1.77031 5.88606
-1.8869 1.77021 5.87819
-1.91182 1.77537 5.88831
-1.94408 1.76789 5.85465
-1.96704 1.77098 5.85978
-1.97118 1.76672 5.84187
-1.99319 1.76872 5.84101
-2.01809 1.77392 5.85312
-2.03128 1.76856 5.8283
-2.0513 1.76953 5.82543
-2.0694 1.76736 5.8136
-2.09943 1.76931 5.8088
-2.11947 1.76925 5.80395
-2.13558 1.76604 5.78912
-2.15758 1.76906 5.78924
-2.17466 1.76791 5.77838
-2.19372 1.7668 5.77054
-2.21278 1.76671 5.76368
-2.22574 1.7698 5.76874
-2.24283 1.76762 5.7559
-2.25894 1.76542 5.74205
-2.3371 1.76715 5.72061
-2.41942 1.76459 5.67926
-2.48167 1.76213 5.64576
-2.53884 1.76185 5.62419
-2.62311 1.76238 5.58882
-3.31696 1.75324 5.21313
-3.44556 1.75215 5.1341
-3.57121 1.74995 5.04807
-3.66368 1.7491 4.98677
-3.68373 1.75101 4.97989
-3.72581 1.75488 4.96915
-3.75304 1.75244 4.93839
-3.76617 1.7502 4.92151
-3.77125 1.74805 4.91158
-3.78931 1.74893 4.90271
-3.81926 1.75604 4.90883
-3.81952 1.74754 4.87495
-3.83364 1.74633 4.86007
-3.85864 1.75033 4.8592
-3.87176 1.74911 4.84332
-3.88587 1.74789 4.82844
-3.89887 1.7499 4.82851
-3.92611 1.74746 4.79774
-3.9422 1.7473 4.78587
-3.95532 1.74607 4.76998
-3.97834 1.74904 4.76711
-3.98948 1.74677 4.74822
-3.9906 1.74355 4.73328
-4.00867 1.74441 4.7234
-4.02773 1.74531 4.71553
-4.03788 1.74302 4.69564
-4.08394 1.74892 4.6869
-4.0952 1.74343 4.65306
-4.11328 1.74429 4.64318
-4.13753 1.74082 4.61041
-4.15957 1.74375 4.60453
-4.20179 1.74435 4.57584
-4.21094 1.74206 4.55594
-4.22505 1.74085 4.54106
-4.25006 1.74583 4.53917
-4.2763 1.7434 4.5084
-4.29438 1.74425 4.49752
-4.30254 1.74094 4.47663
-4.3324 1.75121 4.49371
-4.35147 1.75209 4.48484
-4.35071 1.74563 4.45392
-4.36382 1.74442 4.43904
-4.38289 1.74629 4.42915
-4.39105 1.743 4.40926
-4.40317 1.74176 4.39237
-4.4271 1.7489 4.40144
-4.42335 1.74041 4.36853
-4.44241 1.74231 4.36065
-4.46843 1.74628 4.35779
-4.46965 1.74087 4.32987
-4.48574 1.74069 4.31699
-4.50481 1.74357 4.30809
-4.50392 1.73935 4.29315
-4.52796 1.74329 4.28827
-4.53612 1.73999 4.26738
-4.55321 1.74182 4.25548
-4.56533 1.74059 4.23958
-4.5854 1.74247 4.23071
-4.59553 1.74121 4.2128
-4.59862 1.73905 4.20185
-4.61174 1.73783 4.18597
-4.62386 1.7376 4.17006
-4.64393 1.73946 4.16018
-4.65803 1.73927 4.14629
-4.67016 1.73804 4.1304
-4.68427 1.73783 4.1155
-4.69838 1.73762 4.10061
-4.70742 1.73955 4.09565
-4.71458 1.73624 4.07475
-4.74259 1.74123 4.07289
-4.74776 1.7379 4.04997
-4.76385 1.73873 4.03808
-4.77896 1.73953 4.02418
-4.78512 1.73621 4.00227
-4.79516 1.73715 3.99733
-4.81721 1.74006 3.99045
-4.82239 1.73672 3.96754
-4.8355 1.73651 3.95264
-4.85259 1.73834 3.94074
-4.85875 1.73502 3.91883
-4.87684 1.73687 3.90794
-4.89482 1.74092 3.91002
-4.90794 1.74069 3.89412
-4.91708 1.73841 3.87522
-4.93119 1.73922 3.86131
-4.94033 1.73694 3.84241
-5.03305 1.73959 3.74705
-5.04119 1.73731 3.72815
-5.05828 1.73915 3.71625
-5.07239 1.73894 3.70135
-5.08045 1.73984 3.6944
-5.09754 1.74066 3.68152
-5.11065 1.74144 3.6666
5.99768 1.72301 2.20898
5.97595 1.72156 2.24517
5.94644 1.72253 2.30939
5.89336 1.72437 2.43178
5.6857 1.73608 2.87623
5.67182 1.73533 2.89235
5.68506 1.74378 2.92313
5.6752 1.74405 2.9412
5.64825 1.73819 2.94949
5.62331 1.73333 2.95776
5.61345 1.7336 2.97583
5.60058 1.73386 2.99292
5.59764 1.734 3.00195
5.59482 1.73734 3.02492
5.55517 1.73507 3.07226
5.54157 1.74085 3.12428
5.51379 1.73931 3.15452
5.49589 1.73652 3.1677
5.47725 1.74024 3.21579
5.46438 1.74049 3.23188
5.44848 1.73871 3.24603
5.43862 1.73898 3.26411
5.41788 1.74051 3.29924
5.40802 1.74179 3.3173
5.38417 1.73911 3.33852
5.3733 1.73937 3.3556
5.36042 1.73962 3.3717
5.32681 1.7404 3.42295
5.31494 1.74066 3.44004
5.30799 1.74077 3.44709
5.30517 1.74411 3.47006
5.29028 1.74335 3.48519
5.27639 1.74258 3.50031
5.26754 1.74486 3.51934
5.25566 1.74511 3.53543
5.24177 1.74434 3.55055
5.24388 1.74755 3.56449
5.21812 1.74704 3.59669
5.19317 1.74316 3.60394
5.18834 1.74649 3.62593
5.18049 1.74779 3.64597
5.16962 1.74905 3.66304
5.16177 1.75136 3.68307
5.1508 1.74942 3.68718
5.1359 1.74864 3.7013
5.12302 1.74889 3.7174
5.11015 1.74913 3.73349
5.10833 1.75349 3.75745
5.08236 1.74858 3.76272
5.06949 1.74883 3.77881
5.06455 1.74897 3.78785
5.05268 1.75023 3.80492
5.04181 1.75049 3.822
5.02994 1.75175 3.83907
5.0231 1.75406 3.8601
5.00116 1.7512 3.8683
4.99936 1.75558 3.89426
4.98738 1.75364 3.89738
4.97248 1.75285 3.9115
4.96061 1.75411 3.92857
4.95477 1.75743 3.94957
4.94089 1.75768 3.96568
4.92298 1.75585 3.97684
4.9101 1.7561 3.99293
4.90315 1.75621 3.99999
4.88826 1.75643 4.0141
4.87135 1.75463 4.02725
4.86552 1.75796 4.04925
4.8456 1.75612 4.05943
4.83472 1.75738 4.07649
4.82085 1.75763 4.0926
4.8139 1.75774 4.09965
4.81008 1.7621 4.12362
4.78512 1.75819 4.12886
4.77123 1.75842 4.14397
4.75936 1.75968 4.16104
4.73741 1.7558 4.16826
4.73863 1.76223 4.19716
4.72464 1.76026 4.1983
4.71075 1.76049 4.2134
4.69384 1.75968 4.22554
4.6719 1.75681 4.23375
4.67312 1.76324 4.26265
4.65421 1.76142 4.27382
4.64132 1.76265 4.2889
4.63247 1.76495 4.30894
4.61848 1.76198 4.31009
4.60661 1.76324 4.32716
4.59575 1.76551 4.34521
4.5748 1.76264 4.35341
4.55588 1.76181 4.36357
4.55712 1.76826 4.39447
4.53314 1.76434 4.39871
4.52217 1.76339 4.40181
4.50829 1.76364 4.41791
4.49137 1.76282 4.42905
4.4785 1.76408 4.44613
4.46259 1.76427 4.45825
4.44467 1.76344 4.4694
4.42877 1.76265 4.48253
4.42989 1.76688 4.49846
4.40491 1.76195 4.50172
4.39103 1.76318 4.51681
4.39227 1.77065 4.5487
4.35116 1.75946 4.53417
4.34836 1.76486 4.56112
4.33548 1.76611 4.5772
4.32451 1.76517 4.58129
4.30961 1.76538 4.5944
4.29876 1.76768 4.61445
4.26974 1.76166 4.61176
4.25788 1.76393 4.62982
4.25407 1.76932 4.65577
4.22304 1.76228 4.65211
4.21622 1.76663 4.6751
4.21332 1.76882 4.68809
4.19539 1.76799 4.69824
4.17645 1.76712 4.7064
4.1656 1.76941 4.72545
4.14465 1.76753 4.73263
4.11967 1.76359 4.73588
4.11588 1.76899 4.76283
4.09782 1.7639 4.75604
4.08496 1.76618 4.77411
4.08319 1.77362 4.80402
4.0481 1.76448 4.79342
4.03724 1.76676 4.81147
4.02336 1.76801 4.82755
4.0014 1.7651 4.83276
3.99547 1.76623 4.84179
3.97855 1.76641 4.85292
3.96164 1.7666 4.86505
3.94574 1.7668 4.87816
3.93994 1.77219 4.90413
3.90887 1.7641 4.89648
3.89803 1.7674 4.91652
3.88906 1.76747 4.92059
3.87418 1.76871 4.93668
3.85423 1.76683 4.94386
3.84641 1.77118 4.96686
3.81837 1.76514 4.96316
3.80349 1.76737 4.97824
3.78758 1.76756 4.99036
3.7737 1.76881 5.00645
3.74479 1.76701 5.01869
3.72383 1.7651 5.02388
3.71096 1.76737 5.04195
3.6981 1.76965 5.06001
3.67916 1.76878 5.06817
3.66326 1.76999 5.08127
3.65631 1.77009 5.08832
3.6303 1.7661 5.08758
3.6235 1.77149 5.11355
3.60152 1.76855 5.11676
3.58765 1.7708 5.13284
3.56871 1.76994 5.14199
3.5518 1.77012 5.15312
3.53879 1.76811 5.15225
3.52795 1.77143 5.17328
3.50395 1.76745 5.17352
3.48702 1.76761 5.18365
3.4681 1.76777 5.19379
3.45725 1.77108 5.21383
3.4363 1.76918 5.22001
3.41143 1.77046 5.23818
3.39046 1.76854 5.24237
3.37152 1.76767 5.25053
3.36475 1.7741 5.27949
3.32077 1.7692 5.28389
3.31384 1.77033 5.29293
3.29288 1.76842 5.29812
3.27901 1.77069 5.31519
3.26311 1.77289 5.32828
3.24214 1.76996 5.33248
3.23029 1.77427 5.35251
3.20239 1.77348 5.36573
3.17736 1.76944 5.36198
3.16856 1.77485 5.38897
3.14963 1.77498 5.39711
3.1317 1.77514 5.40725
3.12088 1.77949 5.43027
3.08975 1.77128 5.41462
3.07488 1.77354 5.4317
3.07302 1.7788 5.44964
3.05103 1.77584 5.45085
3.02499 1.7708 5.44712
3.01213 1.77407 5.46517
2.99116 1.77215 5.46936
2.98136 1.77854 5.49534
2.95531 1.77347 5.48961
2.94635 1.77355 5.49468
2.92944 1.77372 5.5058
2.9105 1.77387 5.51495
2.8885 1.77189 5.51514
2.86854 1.77098 5.52031
2.85469 1.77428 5.54036
2.83473 1.77337 5.54553
2.83085 1.7766 5.56051
2.81292 1.77776 5.57063
2.78788 1.7727 5.56589
2.77199 1.77492 5.57998
2.75812 1.77818 5.59704
2.73512 1.7752 5.59726
2.7172 1.77536 5.60739
2.70926 1.77748 5.61542
2.68826 1.77451 5.61662
2.66932 1.77465 5.62477
2.65852 1.78104 5.65076
2.63958 1.78117 5.6589
2.61555 1.77713 5.65514
2.60171 1.78145 5.67618
2.57869 1.77842 5.6734
2.56769 1.77643 5.67351
2.55078 1.77862 5.68561
2.52777 1.77562 5.68483
2.5129 1.77887 5.70089
2.49804 1.78216 5.71996
2.47502 1.77914 5.71718
2.45607 1.77925 5.72432
2.45017 1.78145 5.73733
2.42612 1.77736 5.73057
2.40311 1.77437 5.72979
2.38823 1.77761 5.74586
2.36421 1.77459 5.74308
2.35036 1.77789 5.76314
2.33345 1.78008 5.77524
2.32143 1.77805 5.77236
2.30045 1.77711 5.77553
2.28355 1.77831 5.78864
2.26052 1.77527 5.78486
2.24362 1.77749 5.79896
2.22365 1.77655 5.80212
2.20779 1.78083 5.82018
2.19268 1.77564 5.80737
2.17885 1.77996 5.82841
2.15583 1.77695 5.82663
2.13482 1.77495 5.82582
2.08004 1.77842 5.85518
2.0611 1.77855 5.86332
2.02912 1.77661 5.86559
2.0112 1.77777 5.87571
1.95026 1.77495 5.88522
1.90548 1.77939 5.91349
1.88141 1.77528 5.90473
1.84354 1.77756 5.92199
1.80769 1.77988 5.94222
1.79361 1.77574 5.93239
1.77467 1.77686 5.93952
1.75368 1.7759 5.94169
1.71579 1.77714 5.95596
1.66792 1.77843 5.9733
1.64796 1.77851 5.97845
1.6311 1.78279 5.99652
1.61008 1.78078 5.99471
1.59013 1.78088 6.00086
1.57635 1.78932 6.02984
1.54916 1.77997 6.00518
1.54432 1.78528 6.02614
1.5223 1.78327 6.02434
1.5044 1.78546 6.03644
1.4834 1.78448 6.03661
1.4686 1.79087 6.06263
1.45174 1.79617 6.08168
1.42866 1.79102 6.07093
1.41767 1.79104 6.07202
1.39768 1.79009 6.07418
1.37668 1.7891 6.07435
1.3588 1.79235 6.09044
1.33469 1.78715 6.0757
1.31782 1.79141 6.09277
1.29476 1.78733 6.086
1.27581 1.78843 6.09213
1.26378 1.78638 6.08825
1.24796 1.79273 6.11127
1.22384 1.78653 6.09655
1.20388 1.78761 6.10168
1.18388 1.78663 6.10185
1.16291 1.7867 6.106
1.14293 1.78676 6.10915
1.13398 1.78786 6.11521
1.11296 1.78583 6.11239
1.09196 1.78484 6.11257
1.072 1.78593 6.1177
1.05202 1.78599 6.12085
1.03207 1.78711 6.12799
1.01103 1.78405 6.12319
0.998964 1.78093 6.11433
0.981103 1.78621 6.13238
0.961111 1.78523 6.13355
0.940118 1.78426 6.13472
0.921196 1.78743 6.14482
0.901234 1.78752 6.14997
0.87918 1.78443 6.14318
0.869158 1.78339 6.14027
0.849196 1.78448 6.14541
0.829243 1.78558 6.15154
0.80825 1.78461 6.15271
0.788266 1.78466 6.15486
0.767251 1.78364 6.15304
0.74839 1.78892 6.1711
0.738351 1.78686 6.16621
0.717367 1.7869 6.16837
0.69736 1.7859 6.16753
0.676345 1.78489 6.1657
0.655329 1.78387 6.16388
0.636407 1.78603 6.17399
0.615361 1.78396 6.16818
0.595446 1.78714 6.17928
0.585438 1.78613 6.17837
0.565508 1.78828 6.18749
0.545539 1.78935 6.19163
0.524578 1.79044 6.19677
0.504563 1.78943 6.19494
0.483501 1.78632 6.18714
0.463587 1.7895 6.19824
0.453587 1.78951 6.19832
0.432556 1.78746 6.19451
0.412564 1.78749 6.19566
0.391588 1.78855 6.1988
0.371565 1.78752 6.19597
0.350635 1.78967 6.20509
0.330713 1.79283 6.2152
0.319589 1.78761 6.19936
0.299621 1.78868 6.20349
0.279729 1.7929 6.21758
0.25866 1.78978 6.20878
0.238699 1.79087 6.21392
0.218746 1.79297 6.22004
0.197724 1.79194 6.21721
0.187724 1.79195 6.21729
0.166755 1.79303 6.22143
0.146701 1.78994 6.21463
0.12581 1.79416 6.22872
0.10578 1.79312 6.22489
0.084649 1.78788 6.20812
0.0647267 1.79104 6.21823
0.0424981 1.78664 6.05544
0.0224679 1.7856 6.0516
0.00240697 1.7835 6.04379
-0.0165774 1.78354 6.04593
-0.0265922 1.78352 6.044
-0.0466224 1.78247 6.04017
-0.0665986 1.78353 6.0433
-0.0866752 1.7804 6.0335
-0.106605 1.78355 6.04261
-0.12662 1.78253 6.04077
-0.146712 1.77937 6.02897
-0.166642 1.78252 6.03807
-0.176703 1.77941 6.03019
-0.195741 1.77835 6.02535
-0.215763 1.77832 6.0225
-0.235709 1.78043 6.02962
-0.2557 1.78146 6.03076
-0.275761 1.77836 6.02295
-0.295683 1.78252 6.03304
-0.305714 1.78147 6.02913
-0.324859 1.7762 6.01035
-0.344866 1.7762 6.0095
-0.365696 1.78254 6.03157
-0.384857 1.77725 6.01079
-0.404849 1.77728 6.01194
-0.423863 1.77726 6.01008
-0.433894 1.77621 6.00618
-0.452978 1.77306 5.99536
-0.473884 1.77725 6.00746
-0.492976 1.77409 5.99565
-0.513014 1.77303 5.99082
-0.532951 1.77616 5.99892
-0.552012 1.77406 5.99109
-0.571995 1.7761 5.99322
-0.582987 1.77612 5.9943
-0.602948 1.77821 5.99942
-0.621132 1.77187 5.97565
-0.642008 1.77712 5.99173
-0.662053 1.77605 5.98589
-0.680183 1.77181 5.96909
-0.700174 1.77284 5.97023
-0.711074 1.77704 5.98325
-0.730165 1.77388 5.97144
-0.75111 1.77699 5.97855
-0.769233 1.77277 5.96275
-0.788255 1.77274 5.95989
-0.808269 1.77273 5.95804
-0.829206 1.77586 5.96615
-0.840167 1.77794 5.97121
-0.857336 1.77163 5.94942
-0.877297 1.77372 5.95455
-0.897319 1.77369 5.9517
-0.916356 1.77363 5.94684
-0.936394 1.77257 5.94201
-0.955416 1.77254 5.93915
-0.965461 1.77146 5.93324
-0.986406 1.77457 5.94035
-1.00354 1.77033 5.92354
-1.02543 1.77556 5.93763
-1.04353 1.77238 5.92481
-1.06449 1.77545 5.92893
-1.08449 1.77647 5.92906
-1.09165 1.77018 5.90921
-1.11261 1.77225 5.91333
-1.13164 1.77221 5.90948
-1.1507 1.7711 5.90164
-1.1707 1.77212 5.90177
-1.1907 1.77313 5.90191
-1.2088 1.77095 5.88907
-1.21786 1.76884 5.88117
-1.23978 1.773 5.89128
-1.25687 1.77084 5.87944
-1.2798 1.77499 5.88855
-1.31596 1.77072 5.86888
-1.33403 1.76858 5.85905
-1.355 1.77166 5.86316
-1.36309 1.76849 5.85127
-1.38697 1.77474 5.86736
-1.40213 1.76944 5.84655
-1.4212 1.76832 5.83771
-1.44021 1.76831 5.83585
-1.45926 1.76822 5.82899
-1.48121 1.77133 5.83611
-1.49024 1.77127 5.83118
-1.5264 1.76698 5.81052
-1.54641 1.76798 5.80965
-1.58545 1.76992 5.80392
-1.60257 1.76671 5.78909
-1.65065 1.76658 5.77845
-1.70777 1.76639 5.76288
-1.77394 1.7651 5.7404
-1.79688 1.77023 5.7485
-1.812 1.76601 5.73267
-1.91624 1.76559 5.70046
-1.93627 1.76656 5.69759
-1.95336 1.7654 5.68574
-1.9724 1.76532 5.67988
-1.99145 1.76525 5.67403
-1.99851 1.76312 5.66511
-2.01952 1.76512 5.66424
-2.0366 1.76399 5.65438
-2.05663 1.76393 5.64953
-2.07761 1.76699 5.65265
-2.0947 1.76482 5.64081
-2.11277 1.7647 5.63194
-2.23115 1.76203 5.58187
-2.24215 1.76304 5.58193
-2.31538 1.76263 5.55149
-2.34953 1.76036 5.53178
-2.51405 1.75945 5.46302
-2.55116 1.75927 5.4493
-2.7298 1.75812 5.36465
-2.83225 1.75531 5.30546
-2.89843 1.757 5.28193
-3.025 1.75395 5.20591
-3.06918 1.75464 5.18323
-3.11942 1.75321 5.15163
-3.19675 1.75261 5.10821
-3.21184 1.75143 5.09534
-3.246 1.75114 5.0746
-3.3102 1.75379 5.04804
-3.33942 1.75138 5.0193
-3.36539 1.75646 5.02342
-3.4087 1.75187 4.98181
-3.45288 1.75255 4.95813
-3.47715 1.74805 4.92337
-3.51229 1.74879 4.90462
-3.53444 1.74751 4.8848
-3.56041 1.75257 4.88793
-3.58764 1.74915 4.85818
-3.62179 1.74988 4.83842
-3.63393 1.74762 4.82054
-3.638 1.74548 4.8106
-3.6531 1.7453 4.79772
-3.68007 1.75037 4.80185
-3.68923 1.74707 4.78096
-3.70532 1.7469 4.76908
-3.72338 1.74778 4.76021
-3.73552 1.74553 4.74233
-3.74356 1.74544 4.73639
-3.76361 1.74737 4.73051
-3.77375 1.74409 4.71163
-3.7938 1.74702 4.70574
-3.80691 1.74481 4.69087
-3.81904 1.74356 4.67398
-3.84613 1.74439 4.66117
-3.85925 1.74316 4.64528
-3.95788 1.74101 4.56305
-3.97396 1.74186 4.55215
-4.03237 1.7401 4.49861
-4.10377 1.74035 4.44514
-4.16922 1.73951 4.38564
-4.2458 1.73643 4.30925
-4.32623 1.73963 4.2518
-4.35742 1.74028 4.22702
-4.35059 1.73395 4.20506
-4.36667 1.7348 4.19417
-4.38375 1.73565 4.18328
-4.40282 1.73753 4.1744
-4.42486 1.74145 4.1685
-4.435 1.73919 4.15061
-4.45605 1.74211 4.14372
-4.45318 1.73785 4.12676
-4.47026 1.7387 4.11588
-4.47742 1.7354 4.09498
-4.49648 1.73828 4.08608
-4.51555 1.74016 4.07719
-4.5227 1.73687 4.05729
-4.54178 1.73873 4.04741
-4.55378 1.74173 4.04645
-4.56889 1.74153 4.03257
-4.57405 1.73821 4.01065
-4.59114 1.73904 3.99877
-4.59531 1.73472 3.97686
-4.69891 1.74061 3.89754
-4.70706 1.73832 3.87764
-4.71719 1.73706 3.85973
-4.73427 1.73891 3.84883
-4.74133 1.73881 3.84188
-4.75344 1.7386 3.82697
-4.76954 1.73942 3.81408
-4.77868 1.73714 3.79518
-4.79576 1.73899 3.78428
-4.79994 1.73466 3.76137
-4.81801 1.73752 3.75147
-4.8201 1.73536 3.74051
-4.84016 1.73824 3.73162
-4.8483 1.73596 3.71271
-4.86936 1.73886 3.70483
-4.87751 1.73759 3.6859
-4.89956 1.74048 3.67803
-4.89976 1.7361 3.65209
-4.90889 1.73385 3.63519
-4.9249 1.73785 3.63425
-4.93204 1.73557 3.61533
-4.96622 1.73924 3.59153
-4.98529 1.74111 3.58165
-4.98847 1.73777 3.55872
-5.00854 1.74064 3.54883
-5.06208 1.73961 3.47724
5.05658 1.74209 3.52597
5.02396 1.74386 3.5762
5.00705 1.74305 3.58834
4.96949 1.74595 3.64759
4.91494 1.74486 3.70703
4.90104 1.74508 3.72113
4.89611 1.74522 3.73017
4.79896 1.74695 3.84289
4.76534 1.74971 3.89311
4.72064 1.74833 3.93347
4.68994 1.74995 3.97368
4.68108 1.75222 3.99172
4.65128 1.75164 4.01895
4.6254 1.7499 4.03518
4.61755 1.7522 4.0552
4.60064 1.75139 4.06735
4.57991 1.75492 4.10245
4.54406 1.75125 4.12278
4.54114 1.75341 4.13377
4.52323 1.75159 4.14494
4.50933 1.75181 4.15904
4.50048 1.75509 4.17806
4.47953 1.75221 4.18526
4.46463 1.75142 4.19839
4.45577 1.7537 4.21742
4.44682 1.7538 4.22349
4.43796 1.75609 4.24253
4.41802 1.75422 4.25071
4.40312 1.75342 4.26383
4.38239 1.75797 4.29992
4.34453 1.75427 4.31827
4.33758 1.75437 4.32532
4.28985 1.75394 4.36169
4.27697 1.75417 4.37679
4.26308 1.75541 4.39187
4.24123 1.75572 4.41204
4.22531 1.75489 4.42317
4.21345 1.75717 4.44123
4.18062 1.75552 4.4635
4.16774 1.75676 4.47958
4.12595 1.75621 4.50791
4.11104 1.7564 4.52002
4.02757 1.75749 4.59064
4.01167 1.7577 4.60376
3.98086 1.75809 4.62899
1.55785 1.77439 5.83117
1.55199 1.77967 5.85014
1.53096 1.77663 5.84634
1.51098 1.77567 5.84851
1.49204 1.77782 5.85762
1.47205 1.77585 5.8588
1.45618 1.78011 5.87586
1.43621 1.78019 5.88001
1.42621 1.77918 5.8791
1.41141 1.78659 5.90611
1.39246 1.78769 5.91223
1.37249 1.78777 5.91638
1.35145 1.78471 5.91159
1.33355 1.78791 5.92467
1.31458 1.78799 5.92882
1.30254 1.78492 5.92395
1.28254 1.78394 5.92412
1.26361 1.78608 5.93323
1.2436 1.78408 5.93241
1.22364 1.78517 5.93755
1.2026 1.7821 5.93175
1.18051 1.77695 5.92099
1.17158 1.78009 5.93001
1.1516 1.77913 5.93218
1.13057 1.77709 5.92836
1.11162 1.77821 5.93549
1.09267 1.77933 5.94262
1.07164 1.77728 5.93881
1.0527 1.7784 5.94593
1.0437 1.77842 5.947
1.02374 1.77951 5.95214
1.00375 1.77854 5.9533
0.984774 1.7786 5.95645
0.962713 1.77549 5.94866
0.94479 1.77766 5.95876
0.923782 1.77666 5.95793
0.904821 1.77674 5.96308
0.89589 1.77988 5.9721
0.875882 1.77788 5.97128
0.855914 1.77896 5.97541
0.834821 1.7748 5.96363
0.815883 1.77593 5.97176
0.795883 1.77594 5.97191
0.778068 1.78231 5.99595
0.766999 1.77918 5.98708
0.746976 1.77716 5.98426
0.728022 1.77826 5.99039
0.688053 1.77835 5.99469
0.668085 1.77942 5.99882
0.6491 1.77946 6.00097
0.638031 1.77634 5.9921
0.618077 1.77744 5.99823
0.599116 1.77853 6.00336
0.579163 1.78063 6.00948
0.561325 1.78596 6.03054
0.541349 1.78701 6.03367
0.521287 1.78391 6.02587
0.511342 1.78602 6.03291
0.491334 1.78502 6.03208
0.472373 1.78611 6.03721
0.452388 1.78615 6.03936
0.432381 1.78615 6.03851
0.41239 1.78618 6.03966
0.393521 1.79045 6.05674
0.372452 1.78733 6.04794
0.362383 1.7852 6.03905
0.342406 1.78526 6.0422
0.322453 1.78737 6.04832
0.302508 1.78948 6.05544
0.282454 1.7864 6.04863
0.262492 1.78748 6.05377
0.242455 1.78643 6.04893
0.23254 1.78959 6.05996
0.212417 1.78437 6.04419
0.192417 1.78439 6.04434
0.172425 1.78442 6.04549
0.152457 1.78549 6.04963
0.132396 1.78339 6.04181
0.112419 1.78345 6.04496
0.102535 1.78867 6.05996
0.0825358 1.78869 6.06011
0.0625521 1.78973 6.06224
0.0087235 1.78717 5.81965
-0.0482667 1.78823 5.82107
-0.0873039 1.78718 5.81638
-0.106319 1.78617 5.81453
-0.116288 1.78724 5.81859
-0.135356 1.78512 5.80977
-0.154372 1.7841 5.80793
-0.173394 1.78407 5.80507
-0.192339 1.78619 5.81218
-0.211416 1.78305 5.80237
-0.231276 1.78933 5.82043
-0.2405 1.77991 5.79163
-0.258561 1.77781 5.7838
-0.279351 1.78722 5.81082
-0.297566 1.77882 5.78308
-0.316481 1.782 5.79418
-0.336488 1.782 5.79333
-0.355456 1.78407 5.79744
-0.364564 1.77987 5.78357
-0.38444 1.78512 5.79964
-0.401717 1.7736 5.76394
-0.421639 1.77776 5.77403
-0.440646 1.77776 5.77317
-0.458691 1.77669 5.76732
-0.479551 1.78297 5.78539
-0.48769 1.77671 5.76754
-0.507643 1.77981 5.77365
-0.525743 1.77563 5.76084
-0.545703 1.77872 5.76595
-0.564702 1.77873 5.76609
-0.582771 1.77661 5.75726
-0.601816 1.77554 5.75142
-0.612738 1.77869 5.76145
-0.629838 1.77551 5.74863
-0.648852 1.7755 5.74677
-0.667882 1.77445 5.74293
-0.688757 1.78071 5.75899
-0.705935 1.77338 5.73623
-0.724903 1.77545 5.74034
-0.743025 1.77123 5.72454
-0.754862 1.77855 5.74552
-0.772954 1.77538 5.7337
-0.790061 1.77219 5.71988
-0.812859 1.78159 5.74591
-0.827152 1.76904 5.7082
-0.849027 1.77529 5.72428
-0.867096 1.77317 5.71544
-0.875165 1.77104 5.70653
-0.89607 1.77623 5.71862
-0.914147 1.7731 5.7088
-0.9322 1.77201 5.70195
-0.95409 1.77823 5.71602
-0.971189 1.77505 5.7032
-0.988281 1.77189 5.69137
-0.997312 1.77084 5.68746
-1.0192 1.77606 5.70154
-1.03632 1.77285 5.68672
-1.05532 1.77386 5.68685
-1.07244 1.76964 5.67104
-1.09142 1.77168 5.67315
-1.11429 1.77795 5.69023
-1.12139 1.77476 5.67733
-1.14233 1.77788 5.68444
-1.15849 1.7726 5.66464
-1.17847 1.77464 5.66676
-1.20037 1.77985 5.67985
-1.21168 1.76827 5.6401
-1.23456 1.7745 5.65518
-1.25066 1.77132 5.64235
-1.26165 1.77235 5.64342
-1.28063 1.77439 5.64553
-1.29579 1.76809 5.62474
-1.32062 1.77743 5.64679
-1.33673 1.77424 5.63295
-1.35479 1.77213 5.62512
-1.3748 1.77413 5.62424
-1.38286 1.77202 5.61633
-1.40186 1.77303 5.61646
-1.41894 1.77088 5.60562
-1.44088 1.775 5.61273
-1.45504 1.76972 5.59291
-1.47503 1.77175 5.59403
-1.49502 1.77378 5.59515
-1.50015 1.76853 5.57826
-1.51822 1.76741 5.56941
-1.54305 1.77574 5.59048
-1.55821 1.77045 5.57067
-1.57624 1.77039 5.56581
-1.60206 1.77975 5.58887
-1.61039 1.76713 5.54711
-1.62332 1.77126 5.55515
-1.6394 1.76913 5.5453
-1.65648 1.76698 5.53446
-1.67745 1.77005 5.53857
-1.69357 1.76684 5.52374
-1.71453 1.76991 5.52785
-1.73941 1.77717 5.54393
-1.74866 1.76769 5.51114
-1.75868 1.76765 5.50821
-1.77671 1.7686 5.50433
-1.79867 1.77269 5.50944
-1.81281 1.76744 5.49162
-1.83574 1.77259 5.50072
-1.84792 1.76624 5.4769
-1.87379 1.77451 5.49398
-1.87794 1.76923 5.47508
-1.895 1.76813 5.46723
-1.91502 1.7691 5.46436
-1.92817 1.76481 5.44452
-1.95501 1.77314 5.46561
-1.96621 1.76676 5.43978
-1.98427 1.76564 5.43093
-2.00013 1.77294 5.44995
-2.00937 1.76447 5.41814
-2.03036 1.7665 5.41926
-2.05134 1.76954 5.42138
-2.06547 1.7663 5.40453
-2.08351 1.76624 5.39967
-2.10353 1.76821 5.39679
-2.11862 1.76605 5.38493
-2.12864 1.76602 5.38301
-2.14963 1.76905 5.38412
-2.16278 1.76477 5.36428
-2.18671 1.76992 5.37339
-2.20278 1.76878 5.36352
-2.22084 1.76869 5.35666
-2.23888 1.76862 5.3508
-2.24595 1.76749 5.34186
-2.26889 1.77161 5.34898
-2.27615 1.76312 5.31615
-2.2991 1.76723 5.32227
-2.3093 1.76085 5.29643
-2.33323 1.76599 5.30454
-2.34932 1.76484 5.29368
-2.36228 1.76792 5.29873
-2.37148 1.76053 5.2719
-2.40132 1.77086 5.29298
-2.40758 1.76136 5.25916
-2.43053 1.76647 5.26526
-2.44563 1.76429 5.2524
-2.45778 1.76 5.23256
-2.47074 1.76308 5.23761
-2.49075 1.76508 5.23673
-2.50093 1.75973 5.21288
-2.52095 1.7617 5.21
-2.53801 1.7616 5.20213
-2.55213 1.75839 5.18728
-2.58199 1.76767 5.20537
-2.58018 1.7603 5.18047
-2.60905 1.76856 5.19656
-2.6153 1.76009 5.16473
-2.63138 1.75894 5.15387
-2.65435 1.76302 5.15798
-2.66256 1.75662 5.13113
-2.68946 1.76382 5.14323
-2.68568 1.7554 5.11532
-2.7185 1.76575 5.13742
-2.73261 1.76455 5.12354
-2.74771 1.76236 5.10969
-2.76182 1.76016 5.09582
-2.78282 1.76318 5.09594
-2.79398 1.75887 5.07508
-2.80414 1.75457 5.05422
-2.81711 1.75764 5.05827
-2.84107 1.76173 5.06339
-2.84729 1.75431 5.03455
-2.88111 1.76666 5.05662
-2.88734 1.75923 5.02777
-2.9054 1.75913 5.01991
-2.92541 1.76111 5.01803
-2.92655 1.75685 5.0001
-2.95447 1.76401 5.01021
-2.96463 1.75971 4.98934
-2.98464 1.76169 4.98747
-2.99283 1.75633 4.9626
-3.0247 1.7656 4.97971
-3.02894 1.75815 4.94885
-3.03697 1.75808 4.94391
-3.05601 1.75902 4.93904
-3.06518 1.7547 4.91717
-3.08027 1.75354 4.9053
-3.1072 1.75967 4.91341
-3.11638 1.75534 4.89054
-3.13442 1.75626 4.88466
-3.14444 1.75724 4.88272
-3.1536 1.75294 4.86185
-3.1677 1.75174 4.84797
-3.1897 1.75476 4.84809
-3.1959 1.74838 4.82223
-3.21198 1.74823 4.81135
-3.232 1.7512 4.80846
-3.23906 1.7501 4.80153
-3.25513 1.74996 4.79165
-3.27813 1.75398 4.79176
-3.28531 1.74863 4.76789
-3.30238 1.74951 4.75901
-3.32241 1.75146 4.75513
-3.33947 1.75234 4.74624
-3.35159 1.75011 4.73037
-3.36259 1.75212 4.73042
-3.37472 1.74888 4.71356
-3.39574 1.75185 4.71067
-3.40786 1.74962 4.69479
-3.42493 1.7505 4.68591
-3.44497 1.75244 4.68103
-3.45906 1.75227 4.66914
-3.4671 1.75219 4.6632
-3.48219 1.75102 4.65133
-3.49827 1.75189 4.64143
-3.50643 1.74757 4.61956
-3.53141 1.75263 4.62267
-3.53562 1.74623 4.59579
-3.55268 1.74711 4.58691
-3.56369 1.7481 4.58597
-3.56987 1.74375 4.56208
-3.59188 1.74674 4.5602
-3.60103 1.74347 4.54132
-3.62304 1.74745 4.53942
-3.62923 1.7421 4.51555
-3.65619 1.74818 4.51966
-3.67733 1.74691 4.50084
-3.67758 1.73944 4.46894
-3.71049 1.74863 4.48006
-3.71567 1.74328 4.45617
-3.73175 1.74314 4.44629
-3.74585 1.74296 4.4334
-3.74596 1.73874 4.41846
-3.77812 1.73945 4.39769
-3.79716 1.74237 4.39179
-3.82436 1.74099 4.36501
-3.85354 1.74066 4.34123
-3.88482 1.73713 4.30452
-3.91401 1.73679 4.27974
-3.92413 1.73556 4.26383
-3.94418 1.73747 4.25695
-3.95123 1.73738 4.25101
-3.98933 1.7422 4.23722
-3.99252 1.73584 4.21234
-4.01653 1.74082 4.21044
-4.02567 1.73856 4.19254
-4.0358 1.73632 4.17565
-4.05993 1.73708 4.15882
-4.07104 1.73587 4.14392
-4.0891 1.73775 4.13502
-4.1032 1.73757 4.12213
-4.11829 1.7374 4.11025
-4.13337 1.73825 4.09934
-4.13843 1.73713 4.0914
-4.1565 1.73901 4.08251
-4.16365 1.73572 4.06261
-4.17081 1.73243 4.04271
-4.18193 1.7312 4.0268
-4.20495 1.73516 4.02292
-4.21805 1.73498 4.01002
-4.23304 1.739 4.01107
-4.24515 1.73779 3.99618
-4.24834 1.73244 3.97228
-4.27036 1.73639 3.96839
-4.28645 1.73824 3.95748
-4.29062 1.73291 3.93459
-4.31067 1.73582 3.92769
-4.32169 1.73779 3.92575
-4.32983 1.73552 3.90684
-4.35087 1.73845 3.90095
-4.36795 1.74031 3.89105
-4.38105 1.74011 3.87715
-4.39019 1.73785 3.85925
-4.40428 1.73868 3.84734
-4.4303 1.74366 3.84447
-4.4294 1.74047 3.8315
-4.44449 1.74128 3.8186
-4.47169 1.7419 3.7918
-4.49373 1.74585 3.7869
-4.51299 1.74234 3.7521
-4.51905 1.74224 3.74514
-4.53711 1.74412 3.73625
-4.54823 1.74289 3.72035
-4.56233 1.74371 3.70744
-5.94561 1.68986 0.756253
-5.95275 1.6906 0.738293
-5.94483 1.68743 0.727279
-5.94798 1.68715 0.708304
-5.95311 1.68789 0.690329
-5.94327 1.68357 0.669316
-5.94442 1.68229 0.650341
-5.96753 1.68807 0.634427
-5.95169 1.68275 0.613384
-5.93978 1.67757 0.602369
-5.9599 1.68334 0.585433
-5.95106 1.67903 0.565428
-5.94221 1.67573 0.545407
-5.95833 1.67949 0.528471
-5.9405 1.67217 0.507442
-5.93165 1.66887 0.487421
-5.94571 1.67276 0.479468
-5.93886 1.66946 0.459463
-5.94699 1.6712 0.441496
-5.95313 1.67193 0.423529
-5.94428 1.66763 0.403523
-5.94443 1.66735 0.384526
-5.95955 1.67111 0.367582
-5.94671 1.66579 0.346561
-5.95492 1.6674 0.319595
-5.95335 1.66455 0.262617
6.00743 1.7198 0.979789
5.98906 1.72106 1.06392
5.9812 1.71933 1.08201
5.97634 1.71962 1.10104
5.95345 1.71384 1.1153
5.92153 1.70604 1.12766
5.93162 1.71021 1.13952
5.05068 1.7424 3.14096
4.98622 1.74049 3.21248
4.9693 1.73767 3.22366
4.96656 1.74317 3.2576
4.93858 1.73724 3.2609
4.92769 1.73747 3.27598
4.91782 1.73873 3.29304
4.92906 1.74719 3.32483
4.89807 1.74023 3.32617
4.89514 1.74138 3.33617
4.88527 1.74263 3.35223
4.86432 1.73876 3.36045
4.86552 1.74413 3.38536
4.85564 1.74437 3.40144
4.82684 1.74379 3.42867
4.81989 1.74289 3.43473
4.80498 1.74209 3.44786
4.78907 1.74028 3.46001
4.80234 1.75079 3.49476
4.75159 1.74531 3.52822
4.73375 1.74565 3.55036
4.71381 1.74279 3.55855
4.69004 1.74325 3.58873
4.68218 1.74552 3.60676
4.66828 1.74474 3.62087
4.64935 1.74289 3.63004
4.66555 1.75226 3.65579
4.63453 1.74425 3.65414
4.62265 1.7455 3.67021
4.61378 1.74675 3.68726
4.59686 1.74493 3.69842
4.58296 1.74513 3.71152
4.59021 1.7536 3.74335
4.5484 1.75002 3.76972
4.52443 1.74509 3.77397
4.51859 1.74841 3.79497
4.50973 1.75068 3.81301
4.50389 1.754 3.834
4.47891 1.74906 3.83727
4.48303 1.75329 3.85317
4.46108 1.7504 3.85938
4.44012 1.7465 3.8656
4.43328 1.74982 3.88661
4.41333 1.74694 3.8938
4.41454 1.75333 3.9207
4.40558 1.75243 3.92678
4.38563 1.74955 3.93397
4.3687 1.74869 3.94312
4.37596 1.75719 3.97694
4.34393 1.75016 3.97329
4.33507 1.75243 3.99132
4.33124 1.75677 4.01429
4.30615 1.74863 4.0036
4.3114 1.7571 4.03544
4.28742 1.75316 4.03868
4.26949 1.75131 4.04784
4.2707 1.75772 4.07574
4.24471 1.75275 4.07701
4.23282 1.75398 4.09208
4.21387 1.7511 4.09927
4.21298 1.75431 4.11323
4.19102 1.7514 4.11844
4.18014 1.75265 4.1345
4.18842 1.76319 4.17129
4.15435 1.75408 4.16268
4.1455 1.75637 4.18172
4.12554 1.75347 4.18791
4.11556 1.75252 4.191
4.11477 1.75892 4.21792
4.08271 1.75084 4.21128
4.07991 1.75623 4.23722
4.05492 1.75126 4.23848
4.06624 1.76387 4.28022
4.03316 1.75475 4.2706
4.02722 1.75587 4.27863
4.01837 1.75918 4.29865
3.99943 1.75729 4.30582
3.97869 1.76183 4.34091
3.94561 1.7527 4.3313
3.94181 1.75809 4.35725
3.92286 1.75619 4.36342
3.91995 1.75837 4.37541
3.89696 1.75442 4.37765
3.89113 1.75875 4.39963
3.86714 1.7548 4.40187
3.86333 1.76017 4.42682
3.84035 1.75622 4.42905
3.84361 1.76572 4.46289
3.81647 1.75647 4.44523
3.80458 1.7577 4.4603
3.79069 1.75792 4.47441
3.77174 1.75704 4.48156
3.75886 1.75827 4.49665
3.72915 1.76287 4.53581
3.6953 1.76117 4.55509
3.67331 1.75822 4.5573
3.66345 1.76151 4.57633
3.62554 1.75671 4.58869
3.58878 1.7592 4.61993
3.55592 1.7575 4.6392
3.54001 1.75768 4.65032
3.5222 1.76106 4.67541
3.50223 1.75914 4.67959
3.48732 1.76034 4.69269
3.47141 1.76051 4.70381
3.44259 1.76189 4.72801
3.42161 1.75895 4.73121
3.42073 1.76319 4.74715
3.38789 1.76251 4.76741
3.36994 1.76162 4.77456
3.35706 1.76387 4.79063
3.32319 1.76315 4.8079
3.30524 1.76226 4.81505
3.28036 1.76252 4.83123
3.22955 1.76093 4.85664
3.18874 1.76133 4.88195
3.17688 1.7646 4.89999
3.13794 1.76075 4.90834
3.0912 1.76228 4.94268
3.08323 1.76236 4.94774
3.06326 1.76144 4.9519
3.05039 1.7637 4.96897
3.00161 1.76516 4.99832
2.98671 1.76637 5.01141
2.96688 1.76971 5.03352
2.92288 1.76274 5.03395
2.90898 1.76496 5.04803
2.85921 1.76642 5.07738
2.81737 1.76678 5.0997
2.78046 1.76498 5.112
2.74659 1.76526 5.12926
2.72273 1.76754 5.1474
2.6709 1.76692 5.17081
2.62807 1.76828 5.19311
2.57626 1.76869 5.2185
2.49547 1.76616 5.24715
2.44469 1.76861 5.2755
2.42469 1.76664 5.27668
2.40878 1.76782 5.28778
2.39592 1.77211 5.30682
2.38287 1.76801 5.29998
2.35004 1.77136 5.32218
2.328 1.7673 5.3174
2.3233 1.77788 5.35629
2.29414 1.76861 5.33664
2.27823 1.77078 5.34773
2.26619 1.76773 5.34387
2.25539 1.77411 5.36886
2.23132 1.769 5.36011
2.21744 1.77224 5.37617
2.21071 1.78177 5.41109
2.1795 1.77039 5.38449
2.16871 1.7768 5.41148
2.15359 1.77159 5.39667
2.13871 1.77483 5.41273
2.11667 1.76976 5.40697
2.10485 1.77613 5.43097
2.07975 1.76995 5.41825
2.07406 1.78155 5.45813
2.04794 1.77434 5.44343
2.03488 1.77024 5.43559
2.02204 1.77556 5.45661
2 1.7725 5.45182
1.98613 1.77576 5.46888
1.96717 1.77585 5.47402
1.94818 1.77389 5.47619
1.9374 1.78131 5.50417
1.92025 1.77404 5.4854
1.90228 1.77412 5.48953
1.88331 1.77319 5.49369
1.86333 1.77223 5.49586
1.85048 1.77754 5.51588
1.83049 1.77557 5.51706
1.81357 1.77774 5.52815
1.80254 1.77468 5.52328
1.78255 1.77372 5.52545
1.76767 1.77797 5.5415
1.74562 1.77388 5.53472
1.72664 1.77294 5.53788
1.71383 1.7793 5.56189
1.6887 1.77207 5.54518
1.6759 1.77847 5.57119
1.66487 1.77743 5.56828
1.64588 1.77546 5.56946
1.63103 1.78077 5.58949
1.60897 1.77666 5.58172
1.59205 1.77882 5.59182
1.57717 1.78207 5.60788
1.55819 1.78213 5.61102
1.54614 1.77903 5.60416
1.51232 1.78341 5.62835
1.49436 1.7835 5.63349
1.45746 1.78572 5.64674
1.43846 1.78373 5.64691
1.13005 1.78908 5.72516
1.09213 1.79027 5.73643
1.04415 1.78834 5.73882
1.02518 1.78943 5.74395
1.00619 1.78846 5.74511
0.987215 1.78851 5.74825
0.96827 1.79063 5.75536
0.949246 1.7886 5.75254
0.92927 1.78866 5.75569
0.918192 1.78452 5.74583
0.9013 1.78874 5.7599
0.881247 1.78565 5.75309
0.861239 1.78465 5.75226
0.8433 1.78578 5.76038
0.824323 1.78584 5.76352
0.804293 1.7848 5.75969
0.795378 1.78796 5.77071
0.776394 1.78801 5.77285
0.756324 1.78389 5.76406
0.739463 1.78917 5.78211
0.718347 1.78296 5.76736
0.699379 1.78403 5.77149
0.681541 1.79036 5.79253
0.661464 1.78623 5.78274
0.651441 1.78519 5.77983
0.612418 1.78317 5.77716
0.594503 1.78635 5.78825
0.576619 1.79058 5.80332
0.556558 1.78748 5.79552
0.537597 1.78857 5.80064
0.527558 1.7865 5.79575
0.508559 1.78651 5.79589
0.488558 1.78553 5.79606
0.469567 1.78556 5.7972
0.451652 1.78873 5.80829
0.431613 1.78667 5.80347
0.412637 1.78773 5.8066
0.403691 1.78984 5.81364
0.383637 1.78675 5.80683
0.364661 1.78781 5.80996
0.345669 1.78784 5.8111
0.326739 1.78999 5.82021
0.259741 1.79004 5.82072
0.239764 1.79009 5.82387
0.182766 1.79014 5.8243
-0.257828 1.7853 5.61466
-0.285827 1.78532 5.61487
-0.322841 1.78532 5.61315
-0.341863 1.78529 5.61029
-0.359901 1.78423 5.60544
-0.3789 1.78424 5.60559
-0.396984 1.78109 5.59477
-0.415038 1.779 5.58793
-0.424983 1.78211 5.59496
-0.44299 1.78211 5.5941
-0.461958 1.78419 5.59821
-0.480958 1.7842 5.59835
-0.517056 1.78103 5.58567
-0.536025 1.78311 5.58978
-0.542295 1.77159 5.555
-0.56407 1.78204 5.58401
-0.582115 1.78096 5.57816
-0.599207 1.7778 5.56634
-0.619144 1.78093 5.57444
-0.638089 1.78405 5.58154
-0.653336 1.77359 5.5498
-0.665188 1.78087 5.56879
-0.681303 1.77566 5.55398
-0.699379 1.77353 5.54415
-0.719278 1.77874 5.55723
-0.736401 1.77351 5.54143
-0.756299 1.77872 5.5545
-0.773391 1.77555 5.54268
-0.784297 1.78074 5.55469
-0.800482 1.7734 5.53091
-0.821334 1.78069 5.54996
-0.837457 1.77547 5.53416
-0.857394 1.7796 5.54225
-0.875447 1.77851 5.5354
-0.894438 1.77954 5.53653
-0.913444 1.78054 5.53566
-0.919599 1.77325 5.51581
-0.94142 1.7826 5.53884
-0.955643 1.77318 5.51008
-0.976564 1.77835 5.52016
-0.994602 1.77729 5.51532
-1.01359 1.77933 5.51743
-1.02971 1.7751 5.50161
-1.03967 1.77718 5.50666
-1.05772 1.77609 5.49981
-1.07767 1.7792 5.50591
-1.09571 1.77814 5.50106
-1.11277 1.77703 5.49321
-1.13179 1.77801 5.49133
-1.15979 1.77902 5.49053
-1.17977 1.78108 5.49365
-1.1978 1.78103 5.48979
-1.21293 1.77679 5.47296
-1.23194 1.77778 5.47109
-1.25094 1.77879 5.47122
-1.26894 1.7798 5.47134
-1.27603 1.77663 5.45944
-1.29406 1.77659 5.45557
-1.31114 1.77445 5.44573
-1.3311 1.77752 5.44984
-1.35013 1.77749 5.44698
-1.36816 1.77745 5.44312
-1.38812 1.78052 5.44722
-1.41227 1.77626 5.42847
-1.43125 1.7793 5.43056
-1.46539 1.77606 5.41287
-1.48439 1.77706 5.41199
-1.50145 1.77597 5.40514
-1.52142 1.77902 5.40824
-1.52463 1.77063 5.38139
-1.54848 1.77893 5.40045
-1.5636 1.7747 5.38462
-1.58359 1.77674 5.38674
-1.60259 1.77874 5.38586
-1.62061 1.77871 5.38299
-1.63475 1.77446 5.36516
-1.64767 1.77861 5.3752
-1.66376 1.77646 5.36435
-1.67983 1.77534 5.35548
-1.69884 1.77632 5.35361
-1.71787 1.77728 5.34974
-1.76707 1.77292 5.32317
-1.77804 1.77598 5.32721
-1.79707 1.77594 5.32335
-1.8151 1.77689 5.31948
-1.8302 1.77471 5.30662
-1.84921 1.77569 5.30475
-1.86333 1.77248 5.2899
-1.88235 1.77345 5.28703
-1.89135 1.77444 5.28608
-1.90645 1.77126 5.27324
-1.92351 1.77016 5.26538
-1.9435 1.77319 5.26649
-1.96349 1.77521 5.26761
-1.98055 1.77511 5.25974
-1.99665 1.77294 5.24789
-2.00663 1.77498 5.24994
-2.0227 1.77384 5.24007
-2.04074 1.77378 5.23521
-2.05976 1.77475 5.23234
-2.13112 1.76811 5.18597
-2.1521 1.77115 5.18808
-2.18228 1.76783 5.16535
-2.22227 1.77286 5.16558
-2.23227 1.77387 5.16564
-2.24246 1.76751 5.14081
-2.26148 1.76949 5.13892
-2.29657 1.77032 5.12617
-2.30577 1.76295 5.10035
-2.33971 1.77009 5.1085
-2.35282 1.76688 5.09364
-2.38989 1.76876 5.08389
-2.40596 1.76763 5.07503
-2.44202 1.77054 5.06726
-2.45122 1.76416 5.04142
-2.47926 1.7661 5.0356
-2.51927 1.77109 5.03383
-2.53239 1.76788 5.01897
-2.54945 1.76778 5.0111
-2.56158 1.76453 4.99424
-2.5765 1.76969 5.00428
-2.58864 1.76542 4.98543
-2.60864 1.76843 4.98553
-2.61683 1.76207 4.96069
-2.65784 1.76807 4.95891
-2.67293 1.76592 4.94805
-2.67406 1.76165 4.93012
-2.71113 1.76455 4.92135
-2.73213 1.76756 4.92147
-2.74918 1.76747 4.9146
-2.76623 1.76838 4.90771
-2.78034 1.76618 4.89385
-2.80641 1.76705 4.88403
-2.83362 1.76366 4.85628
-2.88776 1.76643 4.83865
-2.89579 1.76638 4.83471
-2.92497 1.76404 4.81096
-2.95908 1.76585 4.79619
-2.98826 1.76351 4.77244
-3.03041 1.76425 4.75274
-3.04252 1.76203 4.73786
-3.06353 1.76502 4.73598
-3.07566 1.76279 4.7201
-3.11681 1.76351 4.6994
-3.1942 1.7618 4.648
-3.27962 1.76103 4.59264
-3.29174 1.7598 4.57675
-3.31287 1.75857 4.55993
-3.32696 1.7574 4.54805
-3.34798 1.76037 4.54516
-3.35416 1.75603 4.52227
-3.36726 1.75384 4.5084
-3.39124 1.75888 4.51051
-3.40237 1.75664 4.49362
-3.39853 1.75033 4.47268
-3.42647 1.75746 4.48079
-3.43265 1.75213 4.45791
-3.43981 1.74781 4.43602
-3.47073 1.75599 4.44714
-3.47987 1.75272 4.42825
-3.48901 1.74944 4.40937
-3.51596 1.75655 4.41547
-3.51411 1.75127 4.39653
-3.52919 1.75113 4.38664
-3.55021 1.75409 4.38276
-3.55737 1.7508 4.36286
-3.57839 1.75375 4.35897
-3.58951 1.75152 4.34308
-3.6036 1.75137 4.33219
-3.62055 1.75647 4.33824
-3.62572 1.75114 4.31536
-3.63981 1.75097 4.30347
-3.67394 1.75274 4.28669
-3.68506 1.75051 4.27081
-3.7041 1.75344 4.26491
-3.70025 1.74715 4.24597
-3.7292 1.75526 4.25207
-3.73834 1.752 4.23418
-3.74648 1.74873 4.21529
-3.75958 1.74855 4.20239
-3.78655 1.75462 4.2065
-3.79371 1.75132 4.1856
-3.81583 1.75108 4.16877
-3.85712 1.75055 4.13109
-3.86129 1.74521 4.10819
-3.88738 1.74805 4.09635
-3.91039 1.75204 4.09446
-3.93262 1.74961 4.06466
-3.94573 1.74842 4.05077
-3.96796 1.74597 4.01997
-4.02124 1.74846 3.98333
-4.0524 1.74916 3.96155
-4.08564 1.74871 3.92981
-5.80345 1.68519 0.379199
-5.79353 1.68103 0.369184
-5.79367 1.67975 0.350202
-5.78782 1.67747 0.331189
-5.79794 1.67922 0.314237
-5.79809 1.67894 0.295239
-5.79223 1.67565 0.276241
-5.79936 1.67741 0.259267
-5.80242 1.67828 0.250276
-5.80057 1.67699 0.231278
-5.79771 1.67473 0.213287
-5.80184 1.67546 0.195305
-5.79898 1.67418 0.1763
-5.80112 1.67391 0.158318
-5.80426 1.67365 0.140343
-5.7974 1.67136 0.121322
-5.79847 1.67123 0.112331
-5.79361 1.66895 0.0933256
-5.79875 1.66968 0.0753509
-5.79288 1.66741 0.0573379
-5.79902 1.66915 0.0393559
-5.78316 1.66286 0.020327
-5.7953 1.6666 0.00236048
-5.79637 1.66647 -0.00663076
-5.78351 1.66218 -0.0256667
-5.79764 1.66592 -0.0436181
-5.79278 1.66365 -0.0616237
