ply
format ascii 1.0
element vertex 2396
property float x
property float y
property float z
end_header
5.21 5.56 -0.228
5.182 5.564 -0.227
5.15 5.566 -0.226
5.132 5.581 -0.226
5.108 5.573 -0.225
5.066 5.562 -0.223
5.039 5.568 -0.222
5.019 5.581 -0.222
4.976 5.568 -0.219
4.95 5.575 -0.219
4.93 5.587 -0.218
4.899 5.57 -0.217
4.888 5.593 -0.217
4.832 5.564 -0.214
4.812 5.576 -0.214
4.78 5.575 -0.212
4.755 5.581 -0.212
4.722 5.578 -0.21
4.698 5.567 -0.209
4.68 5.581 -0.209
4.639 5.569 -0.207
4.628 5.591 -0.208
4.599 5.591 -0.206
4.566 5.587 -0.205
4.543 5.594 -0.205
4.52 5.584 -0.203
4.492 5.586 -0.202
4.481 5.608 -0.203
4.44 5.592 -0.201
4.412 5.593 -0.2
4.386 5.596 -0.199
4.363 5.604 -0.199
4.336 5.605 -0.198
4.318 5.601 -0.197
4.292 5.603 -0.196
4.262 5.601 -0.195
4.242 5.611 -0.195
4.209 5.604 -0.193
4.183 5.606 -0.193
4.16 5.611 -0.192
4.145 5.609 -0.191
4.109 5.598 -0.19
4.093 5.613 -0.19
4.068 5.616 -0.189
4.034 5.606 -0.188
4.016 5.619 -0.188
3.989 5.618 -0.187
3.978 5.621 -0.187
3.943 5.609 -0.185
3.927 5.623 -0.185
3.9 5.622 -0.184
3.885 5.638 -0.184
3.848 5.622 -0.182
3.822 5.623 -0.182
3.809 5.622 -0.181
3.78 5.617 -0.18
3.76 5.626 -0.18
3.731 5.621 -0.179
3.708 5.625 -0.178
3.688 5.633 -0.178
3.663 5.633 -0.177
3.642 5.639 -0.177
3.622 5.628 -0.176
3.602 5.636 -0.175
3.579 5.639 -0.175
3.555 5.64 -0.174
3.531 5.641 -0.173
3.51 5.647 -0.173
3.486 5.648 -0.172
3.47 5.643 -0.172
3.45 5.649 -0.171
3.421 5.643 -0.17
3.397 5.643 -0.17
3.38 5.654 -0.17
3.355 5.653 -0.169
3.334 5.658 -0.168
3.323 5.66 -0.168
3.297 5.656 -0.167
3.276 5.661 -0.167
3.267 5.687 -0.168
3.23 5.663 -0.166
3.22 5.687 -0.167
3.182 5.662 -0.164
3.183 5.685 -0.166
3.15 5.667 -0.164
3.139 5.689 -0.164
3.114 5.686 -0.164
3.096 5.696 -0.164
3.075 5.701 -0.163
3.05 5.696 -0.162
3.027 5.675 -0.161
3.015 5.696 -0.162
2.999 5.709 -0.162
2.976 5.708 -0.161
2.953 5.709 -0.161
2.931 5.709 -0.16
2.907 5.708 -0.159
2.886 5.71 -0.159
2.874 5.709 -0.159
2.85 5.705 -0.158
2.831 5.712 -0.158
2.812 5.719 -0.157
2.791 5.723 -0.157
2.77 5.724 -0.157
2.743 5.715 -0.156
2.733 5.718 -0.155
2.715 5.726 -0.155
2.693 5.726 -0.155
2.671 5.725 -0.154
2.651 5.73 -0.154
2.634 5.74 -0.154
2.606 5.726 -0.153
2.595 5.727 -0.153
2.575 5.73 -0.152
2.554 5.732 -0.152
2.537 5.742 -0.152
2.517 5.744 -0.152
2.494 5.743 -0.151
2.476 5.749 -0.151
2.463 5.744 -0.15
2.437 5.735 -0.149
2.418 5.739 -0.149
2.397 5.741 -0.149
2.376 5.739 -0.148
2.357 5.745 -0.148
2.342 5.76 -0.149
2.324 5.743 -0.147
2.303 5.743 -0.147
2.286 5.752 -0.147
2.261 5.742 -0.146
2.248 5.761 -0.147
2.222 5.749 -0.146
2.201 5.749 -0.145
2.182 5.752 -0.145
2.173 5.757 -0.145
2.151 5.753 -0.144
2.13 5.752 -0.144
2.114 5.764 -0.144
2.09 5.754 -0.143
2.068 5.751 -0.143
2.053 5.765 -0.143
2.038 5.751 -0.142
2.02 5.758 -0.142
2.001 5.762 -0.142
1.98 5.761 -0.142
1.96 5.76 -0.141
1.938 5.754 -0.14
1.922 5.768 -0.141
1.909 5.758 -0.14
1.892 5.768 -0.14
1.87 5.764 -0.14
1.85 5.762 -0.139
1.831 5.764 -0.139
1.809 5.758 -0.138
1.791 5.764 -0.138
1.782 5.769 -0.139
1.76 5.761 -0.138
1.741 5.763 -0.138
1.725 5.776 -0.138
1.706 5.777 -0.138
1.687 5.781 -0.138
1.665 5.773 -0.137
1.647 5.78 -0.137
1.634 5.769 -0.136
1.614 5.766 -0.136
1.597 5.777 -0.136
1.578 5.778 -0.136
1.559 5.779 -0.136
1.538 5.773 -0.135
1.529 5.777 -0.135
1.512 5.786 -0.135
1.491 5.781 -0.135
1.474 5.789 -0.135
1.455 5.79 -0.135
1.434 5.785 -0.134
1.416 5.789 -0.134
1.398 5.794 -0.134
1.388 5.794 -0.134
1.368 5.791 -0.134
1.35 5.795 -0.134
1.331 5.795 -0.133
1.31 5.786 -0.133
1.294 5.801 -0.133
1.273 5.794 -0.133
1.263 5.792 -0.132
1.245 5.794 -0.132
1.227 5.802 -0.132
1.208 5.802 -0.132
1.19 5.805 -0.132
1.17 5.799 -0.132
1.151 5.799 -0.131
1.133 5.805 -0.132
1.126 5.82 -0.132
1.104 5.804 -0.131
1.086 5.809 -0.131
1.068 5.811 -0.131
1.048 5.808 -0.131
1.032 5.819 -0.131
1.02 5.807 -0.131
1.002 5.81 -0.131
0.984 5.815 -0.131
0.964 5.807 -0.13
0.946 5.816 -0.13
0.928 5.819 -0.13
0.91 5.821 -0.13
0.891 5.82 -0.13
0.881 5.82 -0.13
0.863 5.824 -0.13
0.844 5.821 -0.13
0.824 5.812 -0.129
0.808 5.828 -0.13
0.788 5.821 -0.129
0.77 5.823 -0.129
0.761 5.829 -0.13
0.732 5.893 -0.133
0.709 5.853 -0.131
0.685 5.812 -0.128
0.664 5.796 -0.127
0.648 5.812 -0.128
0.64 5.823 -0.128
0.627 5.877 -0.131
0.608 5.871 -0.131
0.589 5.867 -0.131
0.569 5.855 -0.13
0.551 5.86 -0.13
0.533 5.866 -0.13
0.524 5.865 -0.13
0.505 5.862 -0.13
0.486 5.862 -0.13
0.467 5.856 -0.129
0.449 5.865 -0.13
0.432 5.874 -0.13
0.415 5.896 -0.131
0.395 5.875 -0.13
0.39 5.941 -0.134
0.386 6.16 -0.146
0.368 6.183 -0.147
0.348 6.174 -0.147
0.329 6.183 -0.147
0.309 6.182 -0.147
0.29 6.181 -0.147
0.28 6.179 -0.147
0.261 6.18 -0.147
0.241 6.185 -0.147
0.222 6.192 -0.147
0.202 6.18 -0.147
0.183 6.191 -0.147
0.164 6.195 -0.148
0.154 6.202 -0.148
0.135 6.198 -0.148
0.115 6.185 -0.147
0.096 6.197 -0.148
0.076 6.199 -0.148
0.057 6.201 -0.148
0.037 6.203 -0.148
0.028 6.21 -0.148
0.008 6.204 -0.148
-0.011 6.208 -0.148
-0.031 6.204 -0.148
-0.05 6.213 -0.148
-0.07 6.221 -0.149
-0.09 6.231 -0.149
-0.109 6.219 -0.149
-0.119 6.226 -0.149
-0.139 6.228 -0.149
-0.158 6.222 -0.149
-0.178 6.221 -0.149
-0.198 6.236 -0.15
-0.217 6.242 -0.15
-0.236 6.229 -0.15
-0.247 6.253 -0.151
-0.267 6.258 -0.151
-0.286 6.251 -0.151
-0.305 6.238 -0.15
-0.325 6.243 -0.151
-0.344 6.228 -0.15
-0.366 6.267 -0.152
-0.375 6.246 -0.151
-0.395 6.261 -0.152
-0.414 6.25 -0.151
-0.434 6.246 -0.151
-0.455 6.263 -0.152
-0.474 6.258 -0.152
-0.523 6.254 -0.152
-0.543 6.254 -0.152
-0.563 6.254 -0.152
-0.582 6.25 -0.152
-0.606 6.29 -0.154
-0.622 6.255 -0.153
-0.645 6.278 -0.154
-0.653 6.262 -0.153
-0.674 6.275 -0.154
-0.692 6.259 -0.153
-0.715 6.285 -0.155
-0.733 6.271 -0.154
-0.755 6.284 -0.155
-0.778 6.31 -0.157
-0.788 6.312 -0.157
-0.807 6.298 -0.156
-0.815 6.206 -0.151
-0.823 6.111 -0.146
-0.827 6.001 -0.14
-0.844 5.979 -0.139
-0.863 5.982 -0.139
-0.872 5.975 -0.139
-0.893 5.99 -0.14
-0.911 5.983 -0.139
-0.932 5.99 -0.14
-0.951 5.993 -0.14
-0.97 5.988 -0.14
-0.987 5.977 -0.14
-1 5.995 -0.141
-1.019 5.992 -0.141
-1.04 6 -0.141
-1.065 6.034 -0.144
-1.088 6.055 -0.145
-1.106 6.043 -0.145
-1.126 6.048 -0.145
-1.146 6.052 -0.145
-1.156 6.052 -0.146
-1.177 6.056 -0.146
-1.194 6.043 -0.145
-1.216 6.057 -0.146
-1.236 6.057 -0.147
-1.255 6.053 -0.147
-1.276 6.057 -0.147
-1.288 6.066 -0.148
-1.305 6.053 -0.147
-1.327 6.062 -0.148
-1.348 6.068 -0.149
-1.367 6.063 -0.149
-1.387 6.063 -0.149
-1.409 6.072 -0.15
-1.419 6.074 -0.15
-1.44 6.075 -0.15
-1.462 6.082 -0.151
-1.481 6.08 -0.151
-1.501 6.079 -0.151
-1.526 6.097 -0.153
-1.543 6.085 -0.152
-1.567 6.097 -0.153
-1.577 6.097 -0.153
-1.6 6.105 -0.154
-1.616 6.089 -0.153
-1.636 6.089 -0.154
-1.657 6.09 -0.154
-1.677 6.087 -0.154
-1.701 6.099 -0.155
-1.715 6.113 -0.156
-1.733 6.104 -0.156
-1.759 6.124 -0.157
-1.777 6.114 -0.157
-1.802 6.128 -0.158
-1.819 6.113 -0.158
-1.842 6.12 -0.159
-1.852 6.119 -0.159
-1.876 6.129 -0.16
-1.892 6.113 -0.159
-1.92 6.136 -0.161
-1.939 6.13 -0.161
-1.96 6.129 -0.161
-1.981 6.127 -0.161
-1.997 6.143 -0.162
-2.014 6.131 -0.162
-2.041 6.149 -0.163
-2.06 6.141 -0.163
-2.083 6.144 -0.164
-2.102 6.139 -0.164
-2.129 6.153 -0.165
-2.151 6.154 -0.166
-2.163 6.158 -0.166
-2.184 6.157 -0.167
-2.208 6.161 -0.167
-2.23 6.162 -0.168
-2.255 6.172 -0.169
-2.275 6.165 -0.169
-2.298 6.169 -0.169
-2.313 6.178 -0.17
-2.33 6.165 -0.17
-2.358 6.181 -0.171
-2.379 6.179 -0.171
-2.4 6.175 -0.172
-2.421 6.171 -0.172
-2.448 6.182 -0.173
-2.459 6.184 -0.173
-2.483 6.187 -0.174
-2.508 6.192 -0.175
-2.53 6.19 -0.175
-2.551 6.187 -0.176
-2.579 6.2 -0.177
-2.601 6.197 -0.177
-2.616 6.206 -0.178
-2.64 6.209 -0.179
-2.66 6.202 -0.179
-2.685 6.207 -0.18
-2.711 6.213 -0.18
-2.735 6.215 -0.181
-2.753 6.201 -0.181
-2.788 6.229 -0.183
-2.797 6.223 -0.183
-2.823 6.229 -0.184
-2.857 6.251 -0.186
-2.873 6.234 -0.185
-2.899 6.24 -0.186
-2.926 6.247 -0.187
-2.947 6.24 -0.187
-2.961 6.244 -0.188
-2.99 6.255 -0.189
-3.012 6.25 -0.189
-3.037 6.252 -0.19
-3.067 6.264 -0.191
-3.086 6.252 -0.191
-3.111 6.253 -0.192
-3.146 6.274 -0.194
-3.154 6.267 -0.194
-3.193 6.295 -0.196
-3.204 6.267 -0.195
-3.245 6.299 -0.198
-3.257 6.273 -0.197
-3.295 6.298 -0.199
-3.308 6.276 -0.198
-3.341 6.315 -0.201
-3.353 6.288 -0.2
-3.385 6.302 -0.202
-3.416 6.311 -0.203
-3.427 6.284 -0.202
-3.469 6.314 -0.204
-3.497 6.319 -0.205
-3.499 6.299 -0.205
-3.534 6.315 -0.206
-3.568 6.33 -0.208
-3.582 6.308 -0.207
-3.619 6.326 -0.209
-3.644 6.325 -0.21
-3.667 6.319 -0.21
-3.692 6.339 -0.212
-3.715 6.333 -0.212
-3.752 6.35 -0.214
-3.784 6.359 -0.216
-3.811 6.359 -0.216
-3.84 6.362 -0.217
-3.866 6.359 -0.218
-3.901 6.372 -0.22
-3.91 6.364 -0.219
-3.939 6.367 -0.22
-3.968 6.369 -0.221
-4.003 6.38 -0.223
-4.034 6.386 -0.224
-4.059 6.38 -0.225
-4.087 6.381 -0.226
-4.106 6.388 -0.226
-4.134 6.388 -0.227
-4.165 6.392 -0.229
-4.196 6.396 -0.23
-4.228 6.401 -0.231
-4.256 6.399 -0.232
-4.287 6.402 -0.233
-4.306 6.409 -0.234
-4.341 6.417 -0.235
-4.365 6.41 -0.236
-4.397 6.413 -0.237
-4.434 6.423 -0.238
-4.463 6.423 -0.239
-4.491 6.42 -0.24
-4.518 6.438 -0.242
-4.547 6.435 -0.243
-4.577 6.435 -0.244
-4.611 6.44 -0.245
-4.644 6.444 -0.246
-4.673 6.44 -0.247
-4.709 6.448 -0.249
-4.729 6.454 -0.25
-4.761 6.455 -0.251
-4.8 6.466 -0.252
-4.825 6.457 -0.253
-4.857 6.458 -0.254
-4.897 6.468 -0.256
-4.928 6.467 -0.257
-4.958 6.464 -0.258
-4.981 6.474 -0.259
-5.02 6.482 -0.261
-5.054 6.483 -0.262
-5.09 6.488 -0.263
-5.12 6.484 -0.264
-5.155 6.487 -0.266
-5.196 6.496 -0.267
-5.211 6.494 -0.268
-5.249 6.499 -0.269
-5.298 6.519 -0.272
-9.741 11.942 -0.668
-9.756 11.885 -0.667
-9.749 11.801 -0.663
-9.901 11.908 -0.673
-5.119 6.118 -0.248
-5.142 6.106 -0.248
-9.764 11.483 -0.649
-9.782 11.431 -0.648
-9.791 11.369 -0.645
-9.787 11.293 -0.642
-9.785 11.255 -0.64
-9.781 11.179 -0.637
-9.794 11.122 -0.635
-9.809 11.069 -0.633
-9.807 10.996 -0.63
-9.813 10.934 -0.628
-9.819 10.872 -0.625
-9.799 10.815 -0.622
-9.811 10.761 -0.62
-9.822 10.705 -0.619
-9.827 10.643 -0.616
-9.893 10.647 -0.619
-9.951 10.643 -0.621
-10.019 10.648 -0.624
-10.075 10.641 -0.626
-10.129 10.664 -0.629
-10.193 10.664 -0.631
-10.265 10.672 -0.634
-10.328 10.67 -0.637
-10.395 10.672 -0.639
-10.459 10.671 -0.642
-10.53 10.676 -0.645
-10.572 10.685 -0.647
-10.642 10.689 -0.65
-10.712 10.692 -0.653
-10.78 10.692 -0.656
-10.85 10.695 -0.659
-10.924 10.7 -0.662
-10.99 10.698 -0.664
-11.05 10.722 -0.668
-11.122 10.725 -0.671
-11.19 10.723 -0.673
-11.266 10.728 -0.677
-11.34 10.731 -0.68
-11.413 10.732 -0.683
-11.489 10.736 -0.686
-11.542 10.718 -0.688
-11.608 10.746 -0.691
-11.885 10.934 -0.71
-11.864 10.845 -0.706
-12.177 11.062 -0.727
-12.177 10.993 -0.725
-12.219 10.961 -0.725
-12.277 10.944 -0.727
-12.314 10.942 -0.729
-12.392 10.942 -0.732
-12.469 10.941 -0.735
-12.55 10.873 -0.736
-12.551 10.805 -0.733
-12.633 10.807 -0.737
-12.684 10.816 -0.74
-12.774 10.824 -0.744
-12.812 10.787 -0.744
-12.762 10.676 -0.738
-12.921 10.741 -0.747
-13.087 10.81 -0.757
-13.049 10.709 -0.752
-13.024 10.655 -0.748
-12.899 10.485 -0.737
-9.967 8.042 -0.521
-9.884 7.923 -0.513
-10.069 8.02 -0.525
-10.282 8.138 -0.539
-12.544 9.871 -0.7
-12.707 9.968 -0.71
-10.858 8.458 -0.575
-10.766 8.332 -0.567
-14.153 10.892 -0.807
-13.26 10.137 -0.741
-13.273 10.08 -0.739
-13.235 9.986 -0.734
-10.411 7.797 -0.533
-10.434 7.789 -0.533
-13.383 9.934 -0.739
-10.701 7.885 -0.549
-10 7.318 -0.498
-10.033 7.293 -0.498
-10.035 7.247 -0.497
-10.855 7.789 -0.553
-10.187 7.284 -0.505
-10.139 7.201 -0.5
-10.42 7.353 -0.518
-10.729 7.521 -0.538
-10.612 7.389 -0.528
-10.897 7.538 -0.546
-11.153 7.664 -0.562
-10.849 7.429 -0.541
-10.709 7.283 -0.529
-10.621 7.174 -0.522
-10.943 7.343 -0.542
-11.278 7.517 -0.563
-16.636 11.028 -0.926
-16.756 11.032 -0.931
-10.561 6.918 -0.511
-10.551 6.864 -0.509
-10.713 6.922 -0.518
-10.764 6.907 -0.52
-10.688 6.811 -0.514
-11.021 6.975 -0.535
-11.009 6.919 -0.532
-10.988 6.882 -0.53
-11.134 6.926 -0.539
-11.158 6.892 -0.539
-11.173 6.852 -0.538
-11.196 6.818 -0.538
-11.25 6.803 -0.54
-11.442 6.87 -0.552
-17.736 10.628 -0.966
-17.803 10.593 -0.968
-17.909 10.58 -0.973
-17.783 10.43 -0.963
-17.861 10.401 -0.966
-17.938 10.371 -0.969
-17.71 10.164 -0.952
-17.573 10.012 -0.941
-17.913 10.169 -0.962
-18.14 10.223 -0.974
-18.2 10.181 -0.976
-18.249 10.134 -0.977
-18.299 10.086 -0.978
-18.365 10.048 -0.981
-18.518 10.056 -0.989
-18.461 9.988 -0.984
-18.414 9.887 -0.979
-18.39 9.8 -0.975
-18.281 9.668 -0.966
-18.564 9.744 -0.983
-20.023 10.432 -1.074
-21.921 11.336 -1.192
-18.663 9.61 -0.984
-18.473 9.438 -0.97
-18.57 9.414 -0.974
-18.386 9.248 -0.961
-18.338 9.152 -0.956
-19.177 9.497 -1.007
-19.155 9.411 -1.004
-19.442 9.514 -1.021
-19.315 9.377 -1.011
-19.35 9.319 -1.011
-19.5 9.316 -1.019
-19.583 9.28 -1.022
-19.547 9.188 -1.018
-19.607 9.141 -1.02
-19.65 9.124 -1.022
-19.668 9.057 -1.021
-19.582 8.943 -1.014
-19.653 8.901 -1.017
-19.723 8.858 -1.02
-19.734 8.789 -1.019
-19.866 8.773 -1.025
-19.966 8.78 -1.03
-20.086 8.758 -1.036
-17.641 7.622 -0.884
-17.402 7.454 -0.867
-17.352 7.368 -0.863
-17.524 7.376 -0.872
-17.518 7.309 -0.87
-17.643 7.329 -0.877
-17.672 7.276 -0.878
-17.582 7.174 -0.871
-17.514 7.082 -0.865
-26.191 10.509 -1.393
-17.91 7.112 -0.887
-17.905 7.045 -0.885
-26.12 10.195 -1.382
-26.158 10.163 -1.384
-26.762 10.301 -1.418
-26.947 10.276 -1.428
-26.955 10.182 -1.426
-26.902 10.065 -1.421
-27.016 10.011 -1.426
-27.364 10.043 -1.445
-27.277 9.962 -1.439
-27.254 9.857 -1.436
-27.397 9.812 -1.442
-27.272 9.67 -1.433
-27.208 9.551 -1.427
-27.313 9.492 -1.432
-27.654 9.513 -1.451
-27.818 9.521 -1.459
-31.777 10.769 -1.694
-33.215 11.141 -1.778
-31.704 10.522 -1.686
-31.924 10.484 -1.697
-32.069 10.42 -1.704
-32.088 10.315 -1.703
-32.173 10.287 -1.707
-32.097 10.151 -1.7
-32.306 10.106 -1.711
-34.111 10.555 -1.816
-34.299 10.495 -1.825
-34.328 10.386 -1.825
-34.607 10.352 -1.839
-34.851 10.366 -1.853
-46.118 13.568 -2.515
-46.067 13.396 -2.51
-46.009 13.222 -2.504
-45.975 13.056 -2.499
-45.918 12.884 -2.493
-45.887 12.72 -2.489
-45.867 12.559 -2.486
-45.835 12.473 -2.483
-45.77 12.301 -2.477
-45.708 12.131 -2.471
-45.691 11.973 -2.468
-45.638 11.806 -2.462
-45.598 11.642 -2.458
-45.524 11.471 -2.451
-45.466 11.381 -2.447
-45.406 11.214 -2.441
-45.383 11.057 -2.438
-45.338 10.896 -2.433
-45.326 10.742 -2.431
-45.295 10.585 -2.427
-45.248 10.424 -2.422
-45.173 10.332 -2.417
-45.139 10.175 -2.413
-45.081 10.013 -2.408
-45.009 9.849 -2.402
-44.942 9.686 -2.396
-44.847 9.518 -2.389
-44.779 9.357 -2.384
-44.708 9.269 -2.379
-44.664 9.113 -2.374
-44.619 8.958 -2.37
-44.582 8.805 -2.366
-44.568 8.657 -2.364
-44.572 8.512 -2.363
-44.545 8.362 -2.36
-44.498 8.209 -2.355
-44.523 8.141 -2.356
-37.69 6.765 -1.962
-44.39 7.829 -2.346
-44.397 7.686 -2.345
-44.36 7.536 -2.341
-44.322 7.387 -2.338
-44.263 7.234 -2.333
-44.209 7.154 -2.329
-44.139 7 -2.324
-44.075 6.848 -2.319
-44.03 6.699 -2.315
-43.936 6.544 -2.309
-43.966 6.407 -2.309
-43.929 6.261 -2.306
-43.881 6.184 -2.303
-43.843 6.038 -2.299
-43.812 5.893 -2.296
-43.781 5.749 -2.294
-43.749 5.605 -2.291
-43.711 5.461 -2.288
-43.667 5.316 -2.284
-43.598 5.238 -2.28
-43.557 5.094 -2.277
-43.489 4.948 -2.272
-43.413 4.801 -2.267
-43.378 4.659 -2.264
-43.341 4.518 -2.261
-43.296 4.375 -2.257
-43.269 4.304 -2.256
-43.244 4.164 -2.253
-43.187 4.022 -2.249
-43.12 3.879 -2.245
-44.133 3.831 -2.302
-44.109 3.689 -2.3
-44.079 3.617 -2.298
-44.032 3.474 -2.294
-44.001 3.332 -2.292
-43.96 3.19 -2.289
-43.918 3.049 -2.286
-43.881 2.908 -2.284
-43.85 2.767 -2.281
-43.829 2.697 -2.28
-43.789 2.556 -2.277
-43.749 2.416 -2.274
-43.682 2.275 -2.27
-43.586 2.132 -2.264
-43.488 1.991 -2.258
-43.423 1.851 -2.254
-43.368 1.712 -2.251
-43.319 1.642 -2.248
-43.25 1.503 -2.244
-43.217 1.366 -2.242
-43.143 1.228 -2.237
-43.081 1.091 -2.234
-43.042 0.954 -2.231
-42.982 0.885 -2.228
-42.946 0.75 -2.226
-42.925 0.614 -2.224
-42.892 0.479 -2.222
-42.868 0.344 -2.221
-42.809 0.209 -2.217
-42.787 0.075 -2.216
-42.751 0.007 -2.214
-42.695 -0.127 -2.211
-42.665 -0.261 -2.209
-42.62 -0.394 -2.207
-42.602 -0.528 -2.206
-42.59 -0.662 -2.205
-42.548 -0.795 -2.203
-42.48 -0.927 -2.199
-42.368 -0.991 -2.193
-42.281 -1.122 -2.188
-25.199 -0.838 -1.223
-25.209 -0.917 -1.223
-42.05 -1.645 -2.176
-42.007 -1.776 -2.174
-41.974 -1.84 -2.173
-41.93 -1.97 -2.17
-41.894 -2.101 -2.169
-41.859 -2.231 -2.167
-41.8 -2.359 -2.164
-41.751 -2.488 -2.162
-28.545 -1.8 -1.414
-41.681 -2.681 -2.159
-41.666 -2.812 -2.158
-28.231 -2.003 -1.397
-28.243 -2.093 -1.398
-41.532 -3.196 -2.152
-41.48 -3.324 -2.15
-41.434 -3.451 -2.148
-41.422 -3.515 -2.147
-30.017 -2.65 -1.501
-26.824 -2.456 -1.32
-26.818 -2.54 -1.32
-41.083 -4.007 -2.131
-27.658 -2.794 -1.369
-28.543 -2.973 -1.42
-27.639 -2.924 -1.369
-27.624 -3.01 -1.368
-27.169 -3.047 -1.343
-27.027 -3.117 -1.335
-27.358 -3.242 -1.355
-40.61 -4.93 -2.11
-40.567 -5.054 -2.108
-29.117 -3.728 -1.457
-27.956 -3.625 -1.391
-28.186 -3.745 -1.405
-29.198 -3.971 -1.463
-29.027 -4.041 -1.454
-27.13 -3.866 -1.346
-27.117 -3.951 -1.346
-28.405 -4.228 -1.421
-28.412 -4.275 -1.422
-28.325 -4.353 -1.417
-28.181 -4.422 -1.41
-28.633 -4.584 -1.437
-28.07 -4.585 -1.405
-28.063 -4.675 -1.406
-28.314 -4.808 -1.421
-28.047 -4.808 -1.406
-39.187 -6.834 -2.046
-39.069 -6.94 -2.041
-39.047 -7.063 -2.041
-39.05 -7.19 -2.042
-39.076 -7.322 -2.045
-39.094 -7.452 -2.047
-39.082 -7.514 -2.047
-39.084 -7.641 -2.049
-39.214 -7.795 -2.058
-39.209 -7.922 -2.059
-39.167 -8.041 -2.058
-39.167 -8.17 -2.059
-39.158 -8.296 -2.06
-39.167 -8.363 -2.061
-39.175 -8.493 -2.063
-32.211 -7.094 -1.662
-39.078 -8.73 -2.061
-24.992 -5.675 -1.246
-39.214 -9.019 -2.072
-39.14 -9.131 -2.069
-38.959 -9.154 -2.06
-38.811 -9.248 -2.053
-38.582 -9.322 -2.041
-38.364 -9.397 -2.03
-38.226 -9.49 -2.024
-38.082 -9.582 -2.017
-37.916 -9.667 -2.009
-37.802 -9.765 -2.005
-37.648 -9.788 -1.996
-37.54 -9.886 -1.992
-37.458 -9.99 -1.989
-37.344 -10.086 -1.984
-37.252 -10.187 -1.981
-37.181 -10.293 -1.978
-37.157 -10.412 -1.979
-37.115 -10.463 -1.977
-37.044 -10.569 -1.975
-36.951 -10.668 -1.972
-36.881 -10.773 -1.969
-36.797 -10.875 -1.967
-36.749 -10.986 -1.966
-36.678 -11.091 -1.964
-36.668 -11.151 -1.964
-36.62 -11.262 -1.963
-36.575 -11.374 -1.963
-36.51 -11.479 -1.961
-36.451 -11.587 -1.96
-36.388 -11.693 -1.958
-36.347 -11.806 -1.958
-28.157 -9.201 -1.472
-36.287 -11.976 -1.958
-29.446 -9.826 -1.552
-36.215 -12.205 -1.958
-36.188 -12.322 -1.958
-26.051 -9.061 -1.357
-25.893 -9.052 -1.348
-25.661 -9.062 -1.336
-25.836 -9.215 -1.348
-25.869 -9.318 -1.352
-11.316 -4.132 -0.478
-11.295 -4.164 -0.478
-11.282 -4.2 -0.478
-11.244 -4.226 -0.476
-11.217 -4.236 -0.475
-11.176 -4.261 -0.473
-11.151 -4.292 -0.473
-11.123 -4.321 -0.472
-11.122 -4.361 -0.473
-11.108 -4.396 -0.473
-11.104 -4.434 -0.473
-11.084 -4.447 -0.472
-11.107 -4.496 -0.475
-11.087 -4.529 -0.474
-11.034 -4.548 -0.472
-23.389 -9.695 -1.229
-23.224 -9.712 -1.22
-23.052 -9.726 -1.212
-22.913 -9.71 -1.204
-22.745 -9.723 -1.196
-22.58 -9.737 -1.187
-22.438 -9.759 -1.181
-22.274 -9.771 -1.172
-22.122 -9.788 -1.165
-21.975 -9.805 -1.158
-21.844 -9.789 -1.151
-21.704 -9.808 -1.144
-21.544 -9.817 -1.136
-21.394 -9.83 -1.128
-21.247 -9.844 -1.121
-21.116 -9.864 -1.115
-20.978 -9.88 -1.108
-20.847 -9.859 -1.101
-20.717 -9.877 -1.095
-20.572 -9.888 -1.088
-20.44 -9.904 -1.081
-20.319 -9.924 -1.076
-20.173 -9.932 -1.068
-20.049 -9.949 -1.063
-19.914 -9.96 -1.056
-19.793 -9.939 -1.049
-19.673 -9.956 -1.044
-19.552 -9.972 -1.038
-19.425 -9.984 -1.032
-19.294 -9.994 -1.026
-19.185 -10.014 -1.021
-19.049 -10.02 -1.014
-18.953 -10.008 -1.009
-18.832 -10.019 -1.003
-18.716 -10.033 -0.998
-18.593 -10.043 -0.992
-18.473 -10.054 -0.986
-18.366 -10.07 -0.981
-18.252 -10.083 -0.976
-18.16 -10.069 -0.971
-18.041 -10.077 -0.965
-17.922 -10.085 -0.96
-17.807 -10.094 -0.954
-17.695 -10.105 -0.949
-17.597 -10.122 -0.945
-17.493 -10.136 -0.94
-17.396 -10.116 -0.935
-17.29 -10.127 -0.93
-17.182 -10.137 -0.925
-17.08 -10.149 -0.92
-16.978 -10.161 -0.916
-16.867 -10.167 -0.911
-16.768 -10.18 -0.906
-16.602 -10.115 -0.896
-16.587 -10.177 -0.897
-15.87 -9.807 -0.852
-15.798 -9.832 -0.849
-15.766 -9.88 -0.849
-15.745 -9.936 -0.85
-16.021 -10.216 -0.871
-15.93 -10.229 -0.867
-5.835 -7.48 -0.333
-8.257 -10.705 -0.562
-8.197 -10.696 -0.559
-8.149 -10.703 -0.558
-8.116 -10.695 -0.556
-8.071 -10.705 -0.555
-8.028 -10.719 -0.554
-7.97 -10.71 -0.552
-7.928 -10.724 -0.551
-7.879 -10.728 -0.55
-7.826 -10.727 -0.548
-7.798 -10.725 -0.547
-7.747 -10.725 -0.545
-7.705 -10.738 -0.544
-7.659 -10.744 -0.543
-7.606 -10.742 -0.541
-7.561 -10.75 -0.54
-7.519 -10.762 -0.539
-7.487 -10.752 -0.538
-7.438 -10.753 -0.536
-7.396 -10.765 -0.536
-7.343 -10.76 -0.534
-7.288 -10.752 -0.532
-7.271 -10.799 -0.533
-7.275 -10.878 -0.537
-7.281 -10.963 -0.541
-7.26 -10.967 -0.541
-7.227 -10.994 -0.541
-7.186 -11.006 -0.54
-7.175 -11.064 -0.543
-7.134 -11.078 -0.542
-7.118 -11.129 -0.544
-7.066 -11.124 -0.542
-7.097 -11.213 -0.547
-6.815 -10.919 -0.525
-6.778 -10.937 -0.525
-6.753 -10.973 -0.526
-6.722 -11 -0.526
-6.736 -11.101 -0.531
-6.722 -11.117 -0.532
-6.732 -11.213 -0.537
-6.655 -11.164 -0.532
-6.632 -11.205 -0.533
-6.581 -11.198 -0.532
-6.546 -11.221 -0.532
-5.876 -10.15 -0.46
-5.853 -10.148 -0.459
-5.759 -10.057 -0.452
-5.84 -10.273 -0.465
-5.853 -10.371 -0.47
-5.838 -10.576 -0.48
-6.304 -11.457 -0.536
-6.268 -11.477 -0.536
-6.227 -11.487 -0.536
-6.18 -11.488 -0.535
-6.142 -11.503 -0.534
-6.091 -11.495 -0.533
-5.956 -11.326 -0.521
-5.863 -11.193 -0.512
-5.963 -11.469 -0.528
-6.164 -11.945 -0.557
-6.16 -12.03 -0.561
-6.144 -12.092 -0.564
-6.131 -12.162 -0.567
-6.642 -13.273 -0.636
-6.643 -13.326 -0.639
-6.621 -13.388 -0.642
-5.589 -11.399 -0.515
-6.596 -13.549 -0.649
-7.451 -15.422 -0.766
-7.454 -15.552 -0.772
-7.458 -15.685 -0.779
-5.223 -11.048 -0.488
-5.183 -11.053 -0.487
-5.093 -10.952 -0.48
-3.601 -7.825 -0.284
-3.549 -7.776 -0.28
-3.5 -7.735 -0.277
-4.92 -10.937 -0.475
-4.876 -10.884 -0.471
-7.544 -16.949 -0.846
-7.307 -16.558 -0.82
-7.236 -16.537 -0.818
-4.73 -10.926 -0.47
-4.697 -10.943 -0.47
-4.671 -10.978 -0.472
-6.278 -14.795 -0.706
-6.213 -14.772 -0.703
-6.027 -14.457 -0.683
-5.961 -14.428 -0.68
-5.911 -14.435 -0.679
-5.397 -13.304 -0.609
-5.345 -13.295 -0.607
-5.323 -13.301 -0.607
-5.276 -13.305 -0.606
-5.229 -13.308 -0.606
-5.184 -13.317 -0.605
-5.138 -13.322 -0.604
-5.092 -13.327 -0.604
-5.044 -13.326 -0.603
-5.018 -13.323 -0.602
-4.973 -13.329 -0.602
-4.926 -13.33 -0.601
-4.883 -13.343 -0.6
-4.835 -13.342 -0.599
-4.791 -13.351 -0.599
-4.746 -13.359 -0.599
-4.699 -13.359 -0.598
-4.676 -13.36 -0.597
-4.63 -13.364 -0.597
-4.583 -13.365 -0.596
-4.532 -13.351 -0.594
-3.682 -10.976 -0.452
-3.572 -10.76 -0.438
-3.535 -10.762 -0.438
-3.517 -10.764 -0.437
-3.48 -10.767 -0.437
-3.443 -10.768 -0.436
-3.371 -10.657 -0.429
-3.328 -10.637 -0.427
-3.295 -10.652 -0.428
-3.278 -10.715 -0.431
-3.281 -10.783 -0.434
-3.245 -10.788 -0.434
-3.206 -10.779 -0.433
-3.171 -10.785 -0.433
-3.136 -10.793 -0.433
-3.098 -10.79 -0.432
-3.066 -10.805 -0.432
-3.092 -10.962 -0.441
-3.078 -11.044 -0.445
-3.043 -11.05 -0.445
-3.004 -11.046 -0.444
-2.972 -11.065 -0.445
-2.983 -11.246 -0.455
-2.979 -11.373 -0.462
-3.216 -12.349 -0.519
-3.225 -12.543 -0.529
-3.236 -12.748 -0.541
-3.253 -12.987 -0.554
-3.27 -13.228 -0.568
-3.289 -13.486 -0.582
-3.298 -13.706 -0.594
-3.331 -13.936 -0.607
-3.345 -14.193 -0.622
-3.366 -14.482 -0.638
-3.383 -14.763 -0.653
-3.35 -14.834 -0.657
-3.291 -14.79 -0.654
-3.246 -14.806 -0.654
-3.22 -14.799 -0.653
-3.176 -14.821 -0.654
-3.219 -15.489 -0.692
-3.168 -15.49 -0.691
-3.124 -15.519 -0.692
-3.077 -15.537 -0.693
-3.063 -15.594 -0.696
-3.029 -15.684 -0.7
-2.996 -15.778 -0.705
-2.944 -15.774 -0.704
-2.898 -15.804 -0.706
-2.846 -15.798 -0.705
-2.794 -15.795 -0.704
-2.774 -15.825 -0.705
-2.728 -15.853 -0.707
-2.713 -16.38 -0.736
-2.656 -16.353 -0.734
-2.604 -16.355 -0.733
-2.553 -16.367 -0.734
-2.525 -16.355 -0.733
-2.472 -16.357 -0.732
-2.421 -16.369 -0.733
-2.368 -16.361 -0.732
-2.316 -16.366 -0.732
-2.263 -16.363 -0.731
-2.211 -16.362 -0.731
-2.185 -16.368 -0.731
-2.134 -16.377 -0.731
-2.082 -16.375 -0.73
-2.03 -16.382 -0.73
-1.989 -16.469 -0.735
-1.948 -16.565 -0.74
-0.301 -2.817 0.043
-0.293 -2.792 0.044
-0.282 -2.775 0.045
-0.273 -2.766 0.046
-0.263 -2.755 0.046
-0.253 -2.742 0.047
-0.243 -2.734 0.048
-0.235 -2.737 0.048
-0.229 -2.726 0.048
-0.221 -2.724 0.048
-0.212 -2.719 0.049
-0.202 -2.714 0.049
-0.194 -2.716 0.049
-0.186 -2.725 0.048
-0.177 -2.723 0.049
-0.169 -2.72 0.049
-0.166 -2.742 0.048
-0.156 -2.719 0.049
-0.148 -2.731 0.048
-0.143 -2.785 0.045
-0.134 -2.78 0.045
-0.124 -2.774 0.046
-0.119 -2.757 0.047
-0.11 -2.745 0.048
-0.103 -2.775 0.046
-0.094 -2.775 0.046
-0.085 -2.76 0.047
-0.077 -2.778 0.046
-0.068 -2.784 0.045
-0.063 -2.776 0.046
-0.055 -2.789 0.045
-0.048 -2.849 0.042
-0.039 -2.833 0.043
-0.03 -2.831 0.043
-0.02 -2.803 0.044
-0.011 -2.799 0.045
-0.003 -2.825 0.043
0.002 -2.813 0.044
0.01 -2.857 0.041
0.019 -2.859 0.041
0.028 -2.833 0.043
0.037 -2.809 0.044
0.046 -2.803 0.044
0.055 -2.807 0.044
0.059 -2.818 0.043
0.068 -2.814 0.044
0.077 -2.836 0.042
0.153 -5.201 -0.091
0.171 -5.258 -0.095
0.186 -5.208 -0.092
0.192 -5.166 -0.089
0.21 -5.207 -0.092
0.229 -5.27 -0.095
0.244 -5.223 -0.093
0.262 -5.271 -0.096
0.28 -5.296 -0.097
0.3 -5.367 -0.101
0.31 -5.384 -0.102
0.325 -5.349 -0.1
0.342 -5.352 -0.1
0.36 -5.381 -0.102
0.373 -5.308 -0.098
0.387 -5.277 -0.096
0.407 -5.327 -0.099
0.418 -5.351 -0.101
0.434 -5.337 -0.1
0.456 -5.414 -0.104
0.472 -5.392 -0.103
0.49 -5.403 -0.104
0.893 -9.739 -0.35
0.922 -9.724 -0.349
0.937 -9.713 -0.349
0.968 -9.716 -0.349
0.997 -9.705 -0.349
1.027 -9.698 -0.349
1.059 -9.706 -0.349
1.09 -9.703 -0.349
1.059 -9.16 -0.318
1.076 -9.178 -0.32
1.11 -9.218 -0.322
1.156 -9.357 -0.33
1.181 -9.316 -0.328
1.203 -9.257 -0.325
1.231 -9.247 -0.325
1.256 -9.211 -0.323
1.28 -9.283 -0.327
1.465 -10.4 -0.391
1.497 -10.395 -0.391
1.54 -10.456 -0.395
1.571 -10.441 -0.394
1.605 -10.444 -0.395
1.509 -9.604 -0.347
1.721 -10.648 -0.407
1.755 -10.647 -0.407
1.631 -9.686 -0.352
1.663 -9.694 -0.353
1.862 -10.667 -0.409
1.918 -10.787 -0.417
2.297 -12.833 -0.534
2.339 -12.831 -0.535
2.38 -12.83 -0.535
2.425 -12.85 -0.536
2.469 -12.858 -0.537
2.51 -12.856 -0.538
2.552 -12.856 -0.538
2.572 -12.852 -0.538
2.617 -12.865 -0.539
2.665 -12.894 -0.542
2.705 -12.884 -0.541
2.75 -12.896 -0.543
2.794 -12.905 -0.544
2.836 -12.902 -0.544
2.859 -12.91 -0.545
2.903 -12.916 -0.546
2.949 -12.928 -0.547
2.99 -12.925 -0.547
3.036 -12.937 -0.548
3.082 -12.951 -0.55
3.125 -12.951 -0.55
3.147 -12.953 -0.551
3.189 -12.947 -0.551
3.234 -12.955 -0.552
3.275 -12.946 -0.552
3.316 -12.938 -0.552
3.359 -12.935 -0.553
3.402 -12.932 -0.553
3.422 -12.929 -0.553
3.467 -12.933 -0.554
3.51 -12.93 -0.555
3.408 -12.246 -0.516
3.5 -12.427 -0.527
3.668 -12.87 -0.554
3.652 -12.739 -0.546
3.62 -12.476 -0.532
3.721 -12.678 -0.544
3.746 -12.614 -0.541
3.749 -12.48 -0.534
3.658 -12.036 -0.508
3.743 -12.179 -0.518
3.819 -12.36 -0.529
3.883 -12.428 -0.533
3.93 -12.443 -0.535
3.994 -12.508 -0.54
3.684 -11.406 -0.475
3.695 -11.319 -0.47
3.718 -11.269 -0.468
3.734 -11.257 -0.468
3.764 -11.23 -0.467
3.805 -11.234 -0.468
3.846 -11.241 -0.469
3.912 -11.315 -0.474
3.924 -11.235 -0.47
3.767 -10.674 -0.437
3.702 -10.437 -0.423
3.636 -10.148 -0.407
3.663 -10.122 -0.406
3.683 -10.079 -0.404
3.833 -10.389 -0.423
3.657 -9.814 -0.389
3.776 -10.038 -0.403
3.787 -10.019 -0.403
3.831 -10.042 -0.405
3.858 -10.017 -0.404
3.876 -9.97 -0.402
3.868 -9.857 -0.396
3.883 -9.804 -0.393
3.92 -9.806 -0.394
3.938 -9.808 -0.395
3.981 -9.827 -0.397
4.005 -9.796 -0.395
3.989 -9.67 -0.389
4.055 -9.744 -0.394
4.054 -9.654 -0.389
4.086 -9.645 -0.389
4.141 -9.734 -0.395
4.197 -9.78 -0.399
4.056 -9.369 -0.374
4.284 -9.812 -0.402
4.315 -9.8 -0.403
4.356 -9.809 -0.404
4.324 -9.655 -0.395
4.341 -9.612 -0.393
4.441 -9.792 -0.405
4.482 -9.802 -0.407
4.513 -9.788 -0.407
4.55 -9.788 -0.407
4.584 -9.779 -0.408
4.629 -9.796 -0.41
4.656 -9.774 -0.409
4.686 -9.797 -0.411
4.719 -9.786 -0.411
4.757 -9.787 -0.412
4.787 -9.77 -0.412
4.829 -9.779 -0.414
4.859 -9.762 -0.414
4.898 -9.764 -0.415
4.918 -9.765 -0.415
4.961 -9.775 -0.417
4.999 -9.774 -0.418
5.027 -9.752 -0.417
5.1 -9.742 -0.419
5.076 -9.623 -0.412
5.128 -9.684 -0.417
4.362 -8.167 -0.321
4.363 -8.107 -0.318
4.36 -8.041 -0.314
4.368 -7.996 -0.312
4.378 -7.954 -0.31
4.384 -7.905 -0.308
4.403 -7.91 -0.309
4.314 -7.692 -0.296
4.31 -7.628 -0.293
4.302 -7.559 -0.289
4.313 -7.523 -0.287
4.31 -7.463 -0.284
4.467 -7.681 -0.3
4.312 -7.385 -0.281
4.332 -7.366 -0.28
4.359 -7.36 -0.281
4.393 -7.363 -0.282
4.42 -7.356 -0.282
4.468 -7.383 -0.285
4.273 -6.985 -0.26
4.277 -6.943 -0.258
4.296 -6.924 -0.258
4.333 -6.934 -0.259
4.351 -6.916 -0.259
4.4 -6.946 -0.262
5.041 -7.909 -0.327
5.008 -7.83 -0.323
5.036 -7.819 -0.323
5.042 -7.775 -0.321
4.957 -7.59 -0.31
4.542 -6.902 -0.264
4.561 -6.884 -0.264
4.589 -6.88 -0.265
4.957 -7.41 -0.301
4.391 -6.513 -0.241
4.408 -6.451 -0.239
4.401 -6.397 -0.236
4.4 -6.352 -0.234
4.427 -6.328 -0.234
4.426 -6.283 -0.232
4.443 -6.266 -0.231
4.434 -6.211 -0.229
4.461 -6.209 -0.229
4.34 -5.998 -0.216
4.351 -5.973 -0.215
4.321 -5.913 -0.211
4.328 -5.883 -0.21
4.33 -5.847 -0.209
4.338 -5.819 -0.208
4.326 -5.766 -0.205
4.331 -5.734 -0.203
4.345 -5.716 -0.203
4.342 -5.693 -0.202
4.352 -5.668 -0.201
4.36 -5.642 -0.2
4.375 -5.625 -0.2
4.389 -5.607 -0.2
4.431 -5.624 -0.202
4.456 -5.62 -0.203
4.475 -5.625 -0.204
4.502 -5.624 -0.204
4.53 -5.622 -0.205
4.558 -5.62 -0.206
4.584 -5.617 -0.207
4.613 -5.616 -0.208
4.632 -5.603 -0.208
4.665 -5.625 -0.21
4.684 -5.612 -0.21
4.691 -5.585 -0.21
4.319 -5.105 -0.175
4.298 -5.049 -0.172
4.321 -5.043 -0.173
4.308 -4.996 -0.17
4.317 -4.991 -0.17
4.396 -5.05 -0.176
5.043 -5.762 -0.23
5.071 -5.759 -0.231
5.045 -5.692 -0.227
4.293 -4.807 -0.162
4.324 -4.812 -0.163
4.542 -5.04 -0.181
4.585 -5.055 -0.183
4.633 -5.077 -0.186
5.056 -5.509 -0.22
4.296 -4.646 -0.155
4.313 -4.635 -0.155
8.056 -8.609 -0.464
5.002 -5.297 -0.209
4.802 -5.052 -0.191
4.725 -4.938 -0.184
4.296 -4.459 -0.147
4.323 -4.458 -0.148
7.912 -8.14 -0.439
4.997 -5.047 -0.199
4.319 -4.276 -0.141
5.088 -5.012 -0.201
7.238 -7.078 -0.37
10.417 -10.138 -0.619
4.228 -4.067 -0.129
4.184 -4 -0.124
4.198 -3.988 -0.125
4.198 -3.962 -0.124
4.136 -3.891 -0.118
4.216 -3.942 -0.124
4.188 -3.891 -0.12
4.168 -3.848 -0.118
4.242 -3.892 -0.123
4.302 -3.923 -0.126
11.05 -10.004 -0.64
10.977 -9.906 -0.633
11.078 -9.934 -0.638
11.326 -10.094 -0.655
4.322 -3.805 -0.123
4.329 -3.788 -0.122
4.344 -3.777 -0.123
4.353 -3.773 -0.123
4.336 -3.734 -0.121
4.325 -3.701 -0.119
4.341 -3.691 -0.119
4.341 -3.667 -0.118
4.332 -3.637 -0.117
4.325 -3.608 -0.116
4.32 -3.592 -0.115
4.315 -3.564 -0.114
4.34 -3.562 -0.115
4.306 -3.512 -0.111
4.35 -3.525 -0.114
4.347 -3.5 -0.113
4.395 -3.516 -0.115
4.441 -3.542 -0.118
4.48 -3.55 -0.12
4.443 -3.498 -0.117
4.397 -3.439 -0.113
4.316 -3.353 -0.106
4.554 -3.517 -0.123
4.61 -3.537 -0.126
4.648 -3.555 -0.128
4.68 -3.556 -0.13
4.714 -3.559 -0.131
4.749 -3.562 -0.133
4.779 -3.561 -0.134
4.776 -3.536 -0.133
4.822 -3.547 -0.136
4.861 -3.564 -0.138
4.898 -3.568 -0.14
4.946 -3.579 -0.142
4.966 -3.57 -0.143
4.936 -3.525 -0.14
4.806 -3.408 -0.13
4.827 -3.4 -0.131
5.087 -3.561 -0.148
5.125 -3.576 -0.15
4.876 -3.378 -0.133
4.7 -3.233 -0.12
4.721 -3.226 -0.12
5.265 -3.577 -0.157
5.336 -3.601 -0.161
5.341 -3.58 -0.161
5.344 -3.57 -0.161
5.445 -3.613 -0.167
5.488 -3.617 -0.169
10.202 -6.705 -0.487
4.946 -3.213 -0.131
10.198 -6.542 -0.482
10.114 -6.444 -0.475
5.729 -3.612 -0.18
5.764 -3.608 -0.182
10.159 -6.338 -0.474
5.962 -3.681 -0.193
5.926 -3.633 -0.19
5.924 -3.619 -0.19
5.961 -3.616 -0.191
5.964 -3.592 -0.191
5.91 -3.534 -0.187
5.927 -3.519 -0.187
5.945 -3.504 -0.187
5.959 -3.488 -0.188
6.209 -3.622 -0.204
6.255 -3.623 -0.206
6.326 -3.638 -0.21
6.364 -3.633 -0.211
6.384 -3.618 -0.212
6.43 -3.618 -0.214
6.384 -3.565 -0.211
6.342 -3.529 -0.208
6.359 -3.512 -0.208
6.368 -3.491 -0.208
6.389 -3.476 -0.208
6.811 -3.68 -0.235
6.829 -3.662 -0.235
6.8 -3.619 -0.233
6.915 -3.667 -0.24
6.93 -3.647 -0.24
6.943 -3.626 -0.24
6.914 -3.583 -0.237
7.182 -3.694 -0.254
7.224 -3.687 -0.256
7.242 -3.682 -0.257
7.384 -3.726 -0.265
7.418 -3.714 -0.266
7.441 -3.696 -0.267
7.486 -3.69 -0.269
7.464 -3.649 -0.267
7.479 -3.628 -0.267
7.503 -3.625 -0.268
7.593 -3.639 -0.273
7.642 -3.633 -0.276
7.664 -3.615 -0.276
7.748 -3.625 -0.281
7.765 -3.603 -0.281
7.99 -3.677 -0.294
8.175 -3.732 -0.305
7.475 -3.396 -0.261
7.493 -3.376 -0.262
7.549 -3.373 -0.265
8.345 -3.7 -0.313
11.621 -5.12 -0.515
8.544 -3.725 -0.324
7.695 -3.323 -0.271
8.263 -3.555 -0.306
8.206 -3.5 -0.302
8.25 -3.488 -0.304
8.244 -3.455 -0.303
8.287 -3.442 -0.304
8.948 -3.687 -0.344
8.849 -3.613 -0.338
8.868 -3.604 -0.338
8.879 -3.576 -0.338
9.194 -3.671 -0.357
9.432 -3.732 -0.371
8.929 -3.499 -0.339
8.832 -3.429 -0.333
8.835 -3.398 -0.332
8.79 -3.365 -0.329
8.868 -3.363 -0.333
9.506 -3.573 -0.371
10.323 -3.845 -0.42
10.292 -3.797 -0.417
8.838 -3.225 -0.329
8.819 -3.186 -0.327
10.284 -3.702 -0.415
10.619 -3.786 -0.435
11.551 -4.08 -0.49
11.258 -3.936 -0.471
11.399 -3.945 -0.479
11.439 -3.919 -0.481
11.372 -3.856 -0.476
11.422 -3.853 -0.479
11.443 -3.82 -0.479
11.092 -3.663 -0.458
11.075 -3.619 -0.456
11.069 -3.579 -0.455
11.061 -3.538 -0.454
11.053 -3.497 -0.453
11.06 -3.48 -0.453
11.045 -3.437 -0.451
11.069 -3.406 -0.452
11.064 -3.367 -0.451
11.076 -3.333 -0.451
11.196 -3.331 -0.458
11.289 -3.32 -0.462
11.399 -3.314 -0.468
11.427 -3.302 -0.47
12.153 -3.473 -0.512
12.346 -3.486 -0.522
12.511 -3.491 -0.532
12.707 -3.503 -0.542
12.866 -3.504 -0.551
13.073 -3.538 -0.563
13.254 -3.543 -0.573
13.481 -3.559 -0.585
13.662 -3.561 -0.595
13.907 -3.579 -0.609
14.118 -3.586 -0.621
14.367 -3.602 -0.635
14.596 -3.635 -0.648
14.828 -3.644 -0.66
15.08 -3.656 -0.674
15.336 -3.668 -0.689
15.592 -3.678 -0.703
15.878 -3.693 -0.719
16.164 -3.706 -0.735
16.453 -3.746 -0.751
16.796 -3.769 -0.77
17.089 -3.779 -0.787
17.409 -3.793 -0.804
17.739 -3.807 -0.823
18.075 -3.82 -0.842
18.458 -3.841 -0.863
18.863 -3.895 -0.886
19.342 -3.932 -0.913
19.813 -3.963 -0.94
19.549 -3.846 -0.924
19.359 -3.745 -0.912
20.855 -3.969 -0.997
21.25 -3.975 -1.019
21.667 -4.019 -1.043
22.157 -4.038 -1.07
22.678 -4.06 -1.1
23.208 -4.08 -1.129
23.579 -4.07 -1.15
23.552 -3.989 -1.148
23.553 -3.913 -1.147
23.555 -3.875 -1.147
23.569 -3.801 -1.147
23.945 -3.785 -1.168
28.574 -4.43 -1.432
12.473 -1.879 -0.51
12.488 -1.841 -0.511
12.516 -1.805 -0.512
13.442 -1.876 -0.564
14.466 -1.975 -0.623
14.464 -1.928 -0.622
12.551 -0.516 -0.507
12.594 -0.479 -0.51
12.549 -0.457 -0.507
12.784 -0.426 -0.52
53.812 -1.538 -2.841
50.004 2.836 -2.895
50.093 2.999 -2.901
51.06 3.621 -2.964
51.451 3.811 -2.989
52.799 4.413 -3.075
51.831 4.495 -3.015
45.659 4.174 -2.633
52.061 5.754 -3.037
52.308 5.865 -3.053
52.147 6.013 -3.044
47.192 5.589 -2.737
46.538 5.66 -2.697
46.136 5.758 -2.673
29.643 3.879 -1.647
29.525 3.958 -1.64
29.648 4.022 -1.648
29.601 4.111 -1.646
29.612 4.207 -1.647
29.563 4.295 -1.645
29.429 4.37 -1.638
28.999 4.398 -1.612
28.593 4.383 -1.587
28.207 4.414 -1.563
27.838 4.445 -1.541
27.465 4.474 -1.519
27.101 4.502 -1.497
26.75 4.53 -1.476
26.401 4.556 -1.455
26.068 4.54 -1.434
25.754 4.568 -1.415
25.225 4.556 -1.383
25.105 4.615 -1.376
24.802 4.64 -1.358
24.497 4.662 -1.34
24.194 4.683 -1.322
23.925 4.709 -1.306
23.645 4.692 -1.289
23.382 4.716 -1.273
23.121 4.739 -1.257
22.867 4.761 -1.242
22.61 4.782 -1.227
22.369 4.804 -1.213
22.129 4.825 -1.198
21.894 4.809 -1.184
21.67 4.831 -1.171
21.435 4.849 -1.157
21.207 4.868 -1.143
20.992 4.887 -1.131
20.774 4.905 -1.118
20.571 4.925 -1.106
20.371 4.911 -1.094
20.171 4.93 -1.082
19.96 4.944 -1.069
19.762 4.961 -1.058
19.567 4.977 -1.046
19.383 4.995 -1.036
19.186 5.008 -1.024
18.263 4.797 -0.965
18.107 4.817 -0.956
17.943 4.833 -0.947
17.899 4.882 -0.945
17.89 4.939 -0.945
17.895 5.002 -0.947
17.737 5.017 -0.938
17.576 5.001 -0.928
17.418 5.015 -0.919
17.282 5.035 -0.911
17.107 5.042 -0.901
16.967 5.058 -0.893
16.623 5.07 -0.872
16.516 5.065 -0.866
16.359 5.073 -0.857
16.22 5.085 -0.849
16.084 5.098 -0.841
15.961 5.114 -0.834
15.81 5.121 -0.825
15.343 5.022 -0.796
15.223 5.009 -0.789
15.099 5.021 -0.782
14.968 5.029 -0.774
14.843 5.039 -0.767
14.719 5.048 -0.76
14.611 5.062 -0.754
14.482 5.068 -0.746
14.376 5.056 -0.74
14.276 5.071 -0.735
14.156 5.079 -0.728
14.041 5.087 -0.721
13.935 5.098 -0.715
13.827 5.108 -0.709
13.71 5.113 -0.703
13.622 5.105 -0.697
13.518 5.114 -0.691
13.422 5.126 -0.686
13.312 5.132 -0.68
13.213 5.141 -0.674
13.126 5.154 -0.67
13.02 5.16 -0.664
12.931 5.148 -0.658
12.829 5.154 -0.653
12.734 5.162 -0.647
12.653 5.176 -0.643
12.554 5.181 -0.637
12.469 5.192 -0.633
12.37 5.196 -0.627
12.292 5.186 -0.623
12.217 5.199 -0.619
12.118 5.202 -0.613
12.047 5.216 -0.609
11.968 5.227 -0.605
11.868 5.227 -0.6
11.78 5.233 -0.595
11.717 5.227 -0.591
11.612 5.223 -0.585
11.553 5.24 -0.582
11.472 5.247 -0.578
11.393 5.254 -0.574
11.315 5.261 -0.569
11.255 5.276 -0.566
11.161 5.253 -0.56
11.09 5.262 -0.557
11.021 5.272 -0.553
10.945 5.278 -0.549
10.866 5.281 -0.545
10.81 5.296 -0.542
10.722 5.295 -0.537
10.669 5.289 -0.534
10.593 5.293 -0.53
10.525 5.3 -0.526
10.441 5.299 -0.522
10.387 5.312 -0.519
10.568 5.448 -0.533
10.337 5.39 -0.519
10.306 5.415 -0.518
10.332 5.47 -0.521
10.397 5.547 -0.526
10.237 5.502 -0.516
10.187 5.516 -0.514
10.007 5.48 -0.503
9.9 5.462 -0.497
9.904 5.504 -0.498
10.029 5.616 -0.508
9.824 5.541 -0.495
9.793 5.564 -0.494
9.704 5.554 -0.489
9.623 5.527 -0.484
9.559 5.53 -0.481
9.497 5.534 -0.477
9.44 5.54 -0.474
9.373 5.54 -0.471
9.341 5.562 -0.47
9.264 5.555 -0.466
8.89 5.387 -0.44
8.836 5.392 -0.438
8.79 5.401 -0.436
8.729 5.402 -0.432
8.676 5.407 -0.43
8.646 5.425 -0.429
8.565 5.412 -0.424
8.418 5.375 -0.415
8.304 5.338 -0.408
8.362 5.413 -0.414
8.332 5.431 -0.413
8.27 5.427 -0.409
8.231 5.42 -0.407
8.184 5.426 -0.405
8.139 5.433 -0.403
8.084 5.433 -0.4
8.029 5.432 -0.397
7.984 5.438 -0.395
7.95 5.452 -0.394
7.896 5.433 -0.39
7.864 5.447 -0.389
7.809 5.446 -0.386
7.771 5.455 -0.385
7.726 5.46 -0.383
7.686 5.468 -0.381
7.632 5.465 -0.378
7.6 5.461 -0.376
7.556 5.465 -0.374
7.505 5.463 -0.372
7.459 5.466 -0.369
7.422 5.475 -0.368
7.376 5.477 -0.366
7.335 5.482 -0.364
7.296 5.47 -0.362
7.264 5.483 -0.36
7.215 5.481 -0.358
7.178 5.488 -0.356
7.132 5.488 -0.354
7.096 5.496 -0.353
7.055 5.5 -0.351
7.008 5.498 -0.348
6.987 5.5 -0.347
6.946 5.503 -0.346
6.904 5.505 -0.344
6.863 5.507 -0.342
6.827 5.514 -0.34
6.797 5.525 -0.339
6.752 5.524 -0.337
6.721 5.515 -0.335
6.682 5.518 -0.333
6.64 5.519 -0.332
6.603 5.523 -0.33
6.565 5.527 -0.328
6.53 5.532 -0.327
6.495 5.52 -0.325
6.461 5.526 -0.323
6.433 5.537 -0.323
6.392 5.537 -0.321
6.353 5.538 -0.319
6.318 5.542 -0.317
6.28 5.544 -0.316
6.261 5.544 -0.315
6.216 5.54 -0.313
6.184 5.546 -0.311
6.15 5.551 -0.31
6.121 5.559 -0.309
6.087 5.563 -0.308
6.044 5.558 -0.305
6.009 5.561 -0.304
5.984 5.555 -0.303
5.952 5.56 -0.301
5.914 5.56 -0.3
5.883 5.566 -0.298
5.856 5.575 -0.298
5.822 5.578 -0.296
5.781 5.572 -0.294
5.766 5.576 -0.294
5.726 5.572 -0.292
5.693 5.574 -0.29
5.672 5.589 -0.29
5.636 5.589 -0.288
5.595 5.582 -0.286
5.577 5.6 -0.286
5.546 5.586 -0.284
5.516 5.591 -0.283
5.486 5.595 -0.282
5.454 5.598 -0.281
5.419 5.596 -0.279
5.401 5.613 -0.279
5.361 5.607 -0.277
5.337 5.599 -0.276
5.316 5.612 -0.276
5.275 5.604 -0.273
5.244 5.606 -0.272
5.223 5.619 -0.272
5.187 5.615 -0.27
5.157 5.618 -0.269
5.143 5.62 -0.269
5.104 5.613 -0.267
5.062 5.602 -0.264
5.038 5.61 -0.264
4.999 5.602 -0.262
4.968 5.603 -0.261
4.944 5.611 -0.26
4.923 5.605 -0.259
4.893 5.605 -0.258
4.874 5.619 -0.258
4.834 5.609 -0.255
4.807 5.613 -0.255
4.786 5.624 -0.254
4.769 5.64 -0.254
4.723 5.603 -0.251
4.706 5.618 -0.251
4.684 5.628 -0.25
4.632 5.601 -0.247
4.621 5.624 -0.248
4.602 5.637 -0.248
4.552 5.611 -0.244
4.569 5.65 -0.247
4.506 5.609 -0.242
4.49 5.624 -0.243
4.477 5.645 -0.243
4.421 5.61 -0.239
4.416 5.64 -0.241
4.376 5.625 -0.238
4.38 5.648 -0.24
4.328 5.617 -0.236
4.33 5.656 -0.238
4.279 5.627 -0.235
4.275 5.658 -0.236
4.227 5.631 -0.233
4.223 5.662 -0.234
4.185 5.63 -0.231
4.173 5.651 -0.232
4.134 5.635 -0.23
4.121 5.655 -0.23
4.079 5.633 -0.228
4.072 5.661 -0.229
4.033 5.644 -0.227
4.032 5.68 -0.228
3.988 5.637 -0.225
3.963 5.638 -0.224
3.959 5.67 -0.225
3.915 5.645 -0.222
3.89 5.647 -0.222
3.897 5.696 -0.224
3.837 5.645 -0.22
3.833 5.659 -0.22
3.799 5.646 -0.218
3.791 5.673 -0.22
3.745 5.642 -0.216
3.741 5.675 -0.218
3.697 5.647 -0.215
3.701 5.692 -0.217
3.664 5.654 -0.214
3.66 5.688 -0.216
3.614 5.653 -0.212
3.609 5.685 -0.214
3.577 5.674 -0.212
3.548 5.667 -0.211
3.526 5.671 -0.211
3.517 5.677 -0.211
3.495 5.681 -0.21
3.466 5.675 -0.209
3.441 5.674 -0.208
3.419 5.678 -0.207
3.403 5.69 -0.208
3.382 5.696 -0.207
3.364 5.685 -0.206
3.343 5.691 -0.206
3.317 5.687 -0.205
3.295 5.691 -0.204
3.267 5.684 -0.203
3.242 5.68 -0.202
3.225 5.692 -0.202
3.214 5.694 -0.202
3.183 5.681 -0.2
3.168 5.696 -0.201
3.133 5.675 -0.198
3.121 5.695 -0.199
3.093 5.685 -0.198
3.081 5.707 -0.199
3.05 5.692 -0.197
3.045 5.704 -0.197
3.016 5.693 -0.196
3.005 5.714 -0.197
2.971 5.694 -0.195
2.953 5.703 -0.195
2.925 5.693 -0.193
2.915 5.716 -0.194
2.901 5.712 -0.194
2.885 5.724 -0.194
2.855 5.708 -0.192
2.844 5.732 -0.193
2.809 5.706 -0.191
2.788 5.71 -0.191
2.764 5.704 -0.19
2.752 5.703 -0.189
2.728 5.699 -0.188
2.711 5.709 -0.188
2.691 5.713 -0.188
2.671 5.717 -0.188
2.647 5.713 -0.187
2.623 5.709 -0.186
2.618 5.72 -0.187
2.592 5.712 -0.185
2.581 5.734 -0.186
2.556 5.728 -0.185
2.53 5.718 -0.184
2.516 5.733 -0.185
2.491 5.724 -0.184
2.472 5.73 -0.183
2.461 5.73 -0.183
2.443 5.738 -0.183
2.421 5.737 -0.183
2.404 5.746 -0.183
2.381 5.741 -0.182
2.36 5.742 -0.182
2.337 5.737 -0.181
2.328 5.741 -0.181
2.307 5.74 -0.18
2.283 5.733 -0.179
2.267 5.744 -0.179
2.244 5.74 -0.179
2.23 5.756 -0.179
2.207 5.75 -0.178
2.193 5.742 -0.178
2.174 5.745 -0.177
2.154 5.746 -0.177
2.137 5.757 -0.177
2.116 5.756 -0.177
2.098 5.763 -0.177
2.077 5.762 -0.176
2.066 5.759 -0.176
2.047 5.762 -0.176
2.028 5.765 -0.175
2.004 5.756 -0.174
1.989 5.772 -0.175
1.972 5.78 -0.175
1.95 5.775 -0.174
1.936 5.764 -0.174
1.921 5.78 -0.174
1.9 5.774 -0.173
1.88 5.775 -0.173
1.861 5.781 -0.173
1.843 5.786 -0.173
1.823 5.785 -0.173
1.803 5.785 -0.172
1.791 5.78 -0.172
1.773 5.783 -0.172
1.754 5.789 -0.172
1.733 5.785 -0.171
1.714 5.786 -0.171
1.698 5.798 -0.171
1.681 5.807 -0.171
1.668 5.798 -0.171
1.649 5.801 -0.171
1.634 5.818 -0.171
1.609 5.798 -0.17
1.592 5.807 -0.17
1.576 5.821 -0.171
1.55 5.795 -0.169
1.551 5.836 -0.171
1.522 5.799 -0.168
1.511 5.833 -0.17
1.485 5.808 -0.168
1.462 5.792 -0.167
1.452 5.833 -0.169
1.427 5.806 -0.167
1.416 5.803 -0.167
1.397 5.803 -0.167
1.385 5.837 -0.169
1.358 5.8 -0.166
1.343 5.82 -0.167
1.324 5.82 -0.167
1.307 5.83 -0.167
1.293 5.809 -0.166
1.284 5.858 -0.168
1.255 5.813 -0.165
1.243 5.844 -0.167
1.22 5.825 -0.166
1.205 5.848 -0.167
1.179 5.815 -0.164
1.166 5.846 -0.166
1.149 5.805 -0.163
1.139 5.849 -0.166
1.117 5.835 -0.165
1.1 5.847 -0.165
1.076 5.817 -0.163
1.064 5.857 -0.166
1.039 5.823 -0.163
1.028 5.817 -0.163
1.017 5.858 -0.165
0.991 5.815 -0.162
0.977 5.846 -0.164
0.955 5.828 -0.163
0.94 5.852 -0.164
0.917 5.825 -0.162
0.912 5.851 -0.164
0.886 5.806 -0.161
0.875 5.858 -0.164
0.853 5.837 -0.162
0.837 5.858 -0.163
0.814 5.823 -0.161
0.801 5.869 -0.164
0.787 5.83 -0.161
0.771 5.855 -0.163
0.75 5.835 -0.161
0.735 5.859 -0.163
0.726 5.943 -0.168
0.705 5.925 -0.167
0.679 5.864 -0.163
0.657 5.828 -0.16
0.648 5.831 -0.16
0.629 5.833 -0.16
0.616 5.881 -0.163
0.598 5.895 -0.164
0.58 5.899 -0.164
0.56 5.883 -0.163
0.552 5.895 -0.164
0.532 5.885 -0.163
0.515 5.901 -0.164
0.497 5.906 -0.164
0.477 5.89 -0.163
0.459 5.897 -0.163
0.44 5.903 -0.164
0.421 5.898 -0.163
0.411 5.887 -0.162
0.395 5.928 -0.165
0.377 5.931 -0.165
0.368 6.116 -0.176
0.354 6.213 -0.182
0.335 6.222 -0.183
0.316 6.221 -0.183
0.306 6.231 -0.183
0.287 6.244 -0.184
0.267 6.233 -0.183
0.247 6.232 -0.183
0.228 6.246 -0.184
0.208 6.235 -0.183
0.189 6.246 -0.184
0.169 6.242 -0.184
0.159 6.243 -0.184
0.14 6.237 -0.183
0.12 6.249 -0.184
0.101 6.244 -0.184
0.081 6.248 -0.184
0.061 6.254 -0.184
0.052 6.256 -0.184
0.032 6.246 -0.184
0.012 6.251 -0.184
-0.007 6.265 -0.185
-0.027 6.251 -0.184
-0.047 6.256 -0.184
-0.066 6.256 -0.184
-0.086 6.262 -0.185
-0.096 6.246 -0.184
-0.116 6.263 -0.185
-0.136 6.285 -0.186
-0.155 6.267 -0.185
-0.175 6.264 -0.185
-0.195 6.283 -0.186
-0.214 6.273 -0.186
-0.225 6.286 -0.187
-0.244 6.27 -0.186
-0.264 6.267 -0.185
-0.283 6.264 -0.185
-0.303 6.267 -0.186
-0.323 6.276 -0.186
-0.344 6.285 -0.187
-0.354 6.291 -0.187
-0.373 6.287 -0.187
-0.394 6.298 -0.188
-0.413 6.287 -0.187
-0.433 6.292 -0.188
-0.454 6.304 -0.188
-0.474 6.305 -0.189
-0.483 6.294 -0.188
-0.503 6.294 -0.188
-0.521 6.277 -0.187
-0.542 6.289 -0.188
-0.563 6.301 -0.189
-0.585 6.313 -0.19
-0.603 6.302 -0.189
-0.624 6.312 -0.19
-0.634 6.311 -0.19
-0.655 6.318 -0.19
-0.675 6.312 -0.19
-0.693 6.298 -0.189
-0.712 6.29 -0.189
-0.735 6.316 -0.191
-0.756 6.321 -0.191
-0.767 6.328 -0.192
-0.793 6.369 -0.194
-0.812 6.363 -0.194
-0.826 6.315 -0.191
-0.836 6.241 -0.187
-0.847 6.181 -0.183
-0.852 6.073 -0.177
-0.853 6.019 -0.173
-0.875 6.036 -0.175
-0.893 6.027 -0.174
-0.916 6.046 -0.176
-0.932 6.025 -0.175
-0.953 6.036 -0.175
-0.971 6.029 -0.175
-0.985 6.051 -0.177
-1.001 6.032 -0.176
-1.023 6.049 -0.177
-1.043 6.048 -0.177
-1.063 6.054 -0.178
-1.086 6.072 -0.179
-1.112 6.104 -0.181
-1.131 6.097 -0.181
-1.14 6.093 -0.181
-1.162 6.107 -0.182
-1.18 6.094 -0.181
-1.201 6.104 -0.182
-1.224 6.117 -0.183
-1.243 6.113 -0.183
-1.264 6.117 -0.184
-1.274 6.115 -0.184
-1.294 6.117 -0.184
-1.315 6.121 -0.185
-1.339 6.136 -0.186
-1.359 6.138 -0.186
-1.382 6.147 -0.187
-1.401 6.141 -0.187
-1.414 6.152 -0.188
-1.434 6.154 -0.188
-1.452 6.141 -0.188
-1.471 6.139 -0.188
-1.495 6.149 -0.189
-1.517 6.156 -0.19
-1.534 6.144 -0.189
-1.546 6.151 -0.19
-1.569 6.158 -0.191
-1.586 6.145 -0.19
-1.608 6.152 -0.191
-1.63 6.156 -0.191
-1.651 6.155 -0.192
-1.669 6.146 -0.191
-1.692 6.154 -0.192
-1.707 6.172 -0.194
-1.721 6.148 -0.192
-1.756 6.194 -0.196
-1.769 6.17 -0.194
-1.796 6.187 -0.196
-1.809 6.162 -0.195
-1.841 6.197 -0.197
-1.842 6.167 -0.196
-1.875 6.205 -0.198
-1.884 6.163 -0.196
-1.918 6.204 -0.199
-1.932 6.181 -0.198
-1.962 6.209 -0.2
-1.979 6.196 -0.2
-1.99 6.196 -0.2
-2.02 6.22 -0.202
-2.026 6.174 -0.199
-2.063 6.221 -0.203
-2.075 6.192 -0.201
-2.099 6.198 -0.202
-2.137 6.246 -0.206
-2.129 6.192 -0.202
-2.165 6.232 -0.206
-2.183 6.22 -0.205
-2.213 6.243 -0.207
-2.219 6.197 -0.205
-2.257 6.242 -0.208
-2.267 6.209 -0.206
-2.298 6.232 -0.208
-2.306 6.222 -0.208
-2.327 6.221 -0.208
-2.36 6.249 -0.211
-2.373 6.225 -0.21
-2.406 6.251 -0.212
-2.418 6.224 -0.211
-2.456 6.261 -0.213
-2.457 6.235 -0.212
-2.489 6.259 -0.214
-2.507 6.247 -0.214
-2.541 6.275 -0.216
-2.553 6.248 -0.215
-2.592 6.286 -0.218
-2.598 6.247 -0.216
-2.625 6.283 -0.219
-2.642 6.267 -0.218
-2.679 6.299 -0.221
-2.685 6.26 -0.219
-2.729 6.306 -0.222
-2.73 6.256 -0.22
-2.775 6.304 -0.223
-2.787 6.277 -0.222
-2.815 6.314 -0.225
-2.824 6.282 -0.223
-2.868 6.325 -0.227
-2.875 6.287 -0.225
-2.908 6.307 -0.227
-2.939 6.323 -0.229
-2.947 6.287 -0.227
-2.973 6.317 -0.229
-3.014 6.352 -0.232
-3.012 6.298 -0.229
-3.05 6.324 -0.232
-3.088 6.352 -0.234
-3.087 6.301 -0.232
-3.126 6.329 -0.234
-3.155 6.362 -0.237
-3.154 6.311 -0.234
-3.189 6.331 -0.236
-3.218 6.339 -0.237
-3.238 6.329 -0.237
-3.269 6.34 -0.239
-3.294 6.34 -0.239
-3.312 6.349 -0.24
-3.336 6.347 -0.241
-3.366 6.354 -0.242
-3.4 6.37 -0.244
-3.425 6.368 -0.245
-3.456 6.379 -0.246
-3.479 6.373 -0.247
-3.504 6.371 -0.247
-3.523 6.381 -0.248
-3.547 6.378 -0.249
-3.576 6.383 -0.25
-3.608 6.392 -0.252
-3.634 6.391 -0.252
-3.661 6.392 -0.253
-3.691 6.398 -0.254
-3.705 6.399 -0.255
-3.73 6.394 -0.255
-3.757 6.394 -0.256
-3.784 6.395 -0.257
-3.813 6.398 -0.258
-3.845 6.405 -0.26
-3.872 6.405 -0.26
-3.891 6.412 -0.261
-3.924 6.422 -0.263
-3.951 6.42 -0.264
-3.98 6.423 -0.265
-4.012 6.429 -0.266
-4.04 6.428 -0.267
-4.065 6.424 -0.268
-4.091 6.441 -0.269
-4.118 6.44 -0.27
-4.147 6.44 -0.271
-4.176 6.44 -0.272
-4.206 6.442 -0.273
-4.239 6.447 -0.275
-4.271 6.452 -0.276
-4.304 6.457 -0.277
-4.319 6.458 -0.278
-4.352 6.463 -0.279
-4.377 6.456 -0.28
-4.404 6.452 -0.281
-4.444 6.468 -0.283
