0.165066 4.3579 -1.72853
0.158066 4.3579 -1.72853
0.145066 4.3679 -1.73253
0.131066 4.3539 -1.72653
0.117066 4.3629 -1.73053
0.104066 4.3619 -1.72953
0.0900656 4.3569 -1.72753
0.0760656 4.3609 -1.72853
0.0690656 4.3659 -1.73153
0.0560656 4.3659 -1.73153
0.0420656 4.3669 -1.73153
0.0280656 4.3629 -1.72953
0.0150656 4.3669 -1.73153
0.00106558 4.3579 -1.72753
3.79207 -1.9781 -1.69253
3.82407 -1.9791 -1.70553
4.16207 -1.2031 -1.71653
2.09807 3.7399 -1.73953
2.08807 3.7499 -1.74153
2.07307 3.7369 -1.73353
2.06507 3.7499 -1.73653
2.05307 3.7549 -1.73553
2.03907 3.7579 -1.73353
2.03407 3.7769 -1.74053
2.01407 3.7689 -1.73353
2.00507 3.7799 -1.73553
2.00907 3.8009 -1.74453
1.98907 3.7929 -1.73753
1.97907 3.8019 -1.73853
1.96207 3.7989 -1.73353
1.95107 3.8069 -1.73453
1.94007 3.8159 -1.73653
1.92907 3.8239 -1.73753
1.91907 3.8179 -1.73353
1.91807 3.8479 -1.74453
1.89807 3.8349 -1.73553
1.89107 3.8529 -1.74153
1.87507 3.8509 -1.73753
1.86607 3.8629 -1.74053
1.85007 3.8609 -1.73653
1.83607 3.8629 -1.73453
1.83007 3.8659 -1.73453
1.81307 3.8619 -1.72953
1.80907 3.8839 -1.73753
1.79307 3.8809 -1.73353
1.78107 3.8889 -1.73453
1.73207 3.8929 -1.72753
1.72307 3.9069 -1.73153
1.70807 3.9049 -1.72853
1.70007 3.9189 -1.73253
1.68407 3.9159 -1.72853
1.67607 3.9309 -1.73353
1.65707 3.9389 -1.73353
1.63207 3.9479 -1.73253
1.60507 3.9529 -1.72953
1.58807 3.9479 -1.72553
1.58307 3.9539 -1.72653
1.57107 3.9589 -1.72653
1.56107 3.9699 -1.72953
1.54707 3.9719 -1.72853
1.53907 3.9889 -1.73353
1.52007 3.9749 -1.72553
1.51607 4.0029 -1.73653
1.49407 3.9999 -1.73153
1.46807 4.0099 -1.73153
1.45107 3.9999 -1.72553
1.44107 4.0119 -1.72853
1.42907 4.0199 -1.72953
1.41507 4.0209 -1.72853
1.41307 4.0349 -1.73353
1.39507 4.0239 -1.72653
1.38607 4.0389 -1.73153
1.37207 4.0379 -1.72953
1.35807 4.0389 -1.72753
1.34607 4.0449 -1.72853
1.33407 4.0509 -1.72953
1.32607 4.0489 -1.72753
1.31507 4.0569 -1.72953
1.30407 4.0679 -1.73253
1.29107 4.0699 -1.73153
1.27607 4.0689 -1.72953
1.26707 4.0839 -1.73353
1.25207 4.0799 -1.73053
1.24607 4.0859 -1.73253
1.23407 4.0919 -1.73353
1.21807 4.0849 -1.72853
1.20707 4.0959 -1.73153
1.19807 4.1119 -1.73753
1.18307 4.1069 -1.73353
1.16807 4.1029 -1.72953
1.16507 4.1189 -1.73653
1.14807 4.1069 -1.72953
1.13807 4.1229 -1.73453
1.12407 4.1229 -1.73353
1.11407 4.1349 -1.73753
1.09707 4.1229 -1.72953
1.08607 4.1349 -1.73353
1.07807 4.1299 -1.73053
1.07107 4.1579 -1.74153
1.05207 4.1369 -1.73053
1.04207 4.1539 -1.73753
1.02607 4.1449 -1.73153
1.01607 4.1589 -1.73653
1.00207 4.1599 -1.73553
0.990066 4.1689 -1.73753
0.984066 4.1699 -1.73753
0.968066 4.1609 -1.73253
0.952066 4.1529 -1.72753
0.928066 4.1659 -1.73053
0.917066 4.1799 -1.73553
0.903066 4.1809 -1.73453
0.894066 4.1699 -1.72953
0.881066 4.1739 -1.72953
0.871066 4.1909 -1.73653
0.855066 4.1759 -1.72853
0.842066 4.1809 -1.72953
0.831066 4.1979 -1.73553
0.815066 4.1859 -1.72953
0.808066 4.1829 -1.72753
0.799066 4.2089 -1.73753
0.782066 4.1899 -1.72853
0.772066 4.2109 -1.73653
0.757066 4.2039 -1.73253
0.742066 4.1959 -1.72753
0.728066 4.1909 -1.72453
0.709066 4.1979 -1.72553
0.697066 4.2089 -1.72953
0.684066 4.2109 -1.72953
0.671066 4.2169 -1.73153
0.656066 4.2079 -1.72653
0.646066 4.2279 -1.73453
0.628066 4.1979 -1.72053
0.625066 4.2219 -1.73053
0.612066 4.2259 -1.73153
0.598066 4.2239 -1.72953
0.582066 4.2059 -1.72153
0.573066 4.2419 -1.73653
0.556066 4.2149 -1.72353
0.549066 4.2159 -1.72353
0.538066 4.2299 -1.72953
0.524066 4.2249 -1.72553
0.500066 4.2519 -1.73653
0.484066 4.2329 -1.72753
0.470066 4.2269 -1.72453
0.459066 4.2469 -1.73253
0.450066 4.2279 -1.72353
0.437066 4.2269 -1.72253
0.424066 4.2409 -1.72853
0.412066 4.2519 -1.73253
0.397066 4.2369 -1.72553
0.386066 4.2579 -1.73353
0.370066 4.2349 -1.72353
0.365066 4.2509 -1.72953
0.351066 4.2459 -1.72753
0.338066 4.2529 -1.72953
0.324066 4.2479 -1.72753
0.312066 4.2619 -1.73353
0.297066 4.2409 -1.72353
0.284066 4.2529 -1.72853
0.277066 4.2459 -1.72553
0.264066 4.2449 -1.72453
0.250066 4.2369 -1.72053
0.238066 4.2599 -1.72953
0.224066 4.2459 -1.72353
0.211066 4.2569 -1.72853
0.197066 4.2579 -1.72853
0.191066 4.2569 -1.72753
0.177066 4.2519 -1.72553
0.164066 4.2579 -1.72753
0.150066 4.2379 -1.71853
0.137066 4.2509 -1.72453
0.124066 4.2479 -1.72253
0.110066 4.2579 -1.72653
0.0970656 4.2469 -1.72153
0.0900656 4.2629 -1.72953
0.0770656 4.2509 -1.72353
0.0640656 4.2689 -1.73153
0.0500656 4.2679 -1.73053
0.0370656 4.2479 -1.72153
0.0230656 4.2569 -1.72553
0.0100656 4.2659 -1.72953
0.00306558 4.2479 -1.72153
3.93107 -1.5321 -1.70953
3.94807 -1.4811 -1.70853
3.95807 -1.4711 -1.71053
3.95507 -1.4631 -1.70853
3.96107 -1.4511 -1.70953
3.96207 -1.4371 -1.70753
3.97207 -1.4271 -1.71053
3.97807 -1.4151 -1.71053
3.98307 -1.4021 -1.71053
3.98907 -1.3901 -1.71153
3.98607 -1.3821 -1.70953
3.97807 -1.3661 -1.70353
3.99107 -1.3561 -1.70753
3.99307 -1.3431 -1.70653
4.00807 -1.3341 -1.71153
4.00007 -1.3171 -1.70653
4.01407 -1.3081 -1.71053
4.01407 -1.2871 -1.70753
4.03507 -1.2801 -1.71553
4.03407 -1.2651 -1.71353
4.04407 -1.2411 -1.71453
4.03507 -1.2241 -1.70853
4.04107 -1.2191 -1.71053
4.05507 -1.2091 -1.71453
1.84807 3.7369 -1.74453
1.43007 3.9069 -1.74053
1.41907 3.9149 -1.74253
1.39907 3.9159 -1.73953
1.38607 3.9189 -1.73953
1.34807 3.9279 -1.73753
1.33007 3.9359 -1.73853
1.30707 3.9499 -1.74053
1.29407 3.9539 -1.74053
1.25807 3.9679 -1.74153
0.677066 4.0939 -1.73553
3.38007 -2.0521 -1.69353
3.36407 -2.0291 -1.68153
4.86107 5.2189 0.39747
4.82807 5.2169 0.39647
4.79907 5.2189 0.39547
4.78407 5.2349 0.39547
4.75307 5.2339 0.39547
4.73507 5.2309 0.39547
4.70407 5.2299 0.39447
4.67707 5.2319 0.39347
4.65507 5.2409 0.39347
4.62507 5.2409 0.39347
4.60107 5.2459 0.39247
4.57207 5.2469 0.39247
4.56007 5.2499 0.39247
4.53307 5.2519 0.39147
4.45107 5.2569 0.39047
4.36107 5.2669 0.38947
4.28607 5.2769 0.38747
4.17207 5.2879 0.38647
4.15207 5.2969 0.38647
4.12507 5.2969 0.38547
4.09707 5.2959 0.38547
4.08307 5.3119 0.38547
4.06807 5.3089 0.38447
4.04107 5.3089 0.38447
3.96507 5.3119 0.38347
3.94307 5.3179 0.38347
3.90607 5.3199 0.38247
3.86307 5.3319 0.38247
3.83807 5.3319 0.38147
3.81507 5.3359 0.38147
3.77407 5.3489 0.38047
3.75407 5.3379 0.38047
3.73007 5.3399 0.38047
3.69307 5.3589 0.37947
3.66007 5.3469 0.37947
3.64807 5.3649 0.37947
3.59407 5.3579 0.37847
3.55907 5.3599 0.37747
3.51807 5.3719 0.37747
3.49207 5.3679 0.37747
3.47507 5.3789 0.37747
3.44707 5.3729 0.37647
3.41307 5.3759 0.37647
3.35307 5.3929 0.37547
4.84807 5.2239 0.30847
4.59207 5.2559 0.30647
4.56507 5.2579 0.30647
4.46807 5.2619 0.30547
4.44807 5.2729 0.30547
4.41807 5.2699 0.30447
4.39307 5.2749 0.30447
4.32507 5.2769 0.30347
4.30607 5.2869 0.30347
4.27707 5.2849 0.30347
4.25407 5.2909 0.30347
4.20307 5.2959 0.30347
4.17907 5.2999 0.30247
4.14107 5.3039 0.30247
4.12007 5.3099 0.30247
4.07007 5.3149 0.30247
4.04007 5.3109 0.30147
4.02007 5.3189 0.30147
3.99607 5.3219 0.30147
3.98507 5.3249 0.30147
3.96007 5.3259 0.30147
3.93607 5.3289 0.30047
3.91407 5.3329 0.30047
3.86507 5.3369 0.30047
3.84107 5.3389 0.30047
3.82707 5.3369 0.30047
3.80007 5.3359 0.29947
3.78107 5.3449 0.29947
3.75507 5.3429 0.29947
3.73607 5.3519 0.29947
3.71407 5.3549 0.29947
3.68907 5.3559 0.29947
3.67207 5.3499 0.29847
3.65407 5.3599 0.29847
3.62907 5.3579 0.29847
3.60807 5.3639 0.29847
3.58407 5.3639 0.29847
3.56507 5.3719 0.29847
3.54207 5.3749 0.29847
3.52607 5.3689 0.29747
3.50707 5.3759 0.29747
3.48607 5.3809 0.29747
3.45907 5.3769 0.29747
3.44207 5.3869 0.29747
3.39307 5.3849 0.29747
3.37107 5.3869 0.29647
3.36107 5.3909 0.29647
3.33807 5.3909 0.29647
3.31707 5.3949 0.29647
3.29207 5.3939 0.29647
7.93707 4.8619 0.22847
7.88907 4.8669 0.22847
7.74907 4.8819 0.22847
7.72707 4.8849 0.22847
7.68207 4.8909 0.22847
7.63707 4.8959 0.22747
7.11607 4.9519 0.22647
7.03707 4.9629 0.22647
6.99607 4.9669 0.22647
4.77007 5.2289 0.14247
4.59607 5.2509 0.14347
4.54307 5.2569 0.14347
4.47907 5.2649 0.14447
4.39907 5.2719 0.14447
4.30707 5.2779 0.14447
4.26207 5.2909 0.14447
4.17407 5.2999 0.14547
4.15007 5.3039 0.14547
4.12307 5.3039 0.14547
4.04707 5.3089 0.14547
4.01307 5.3159 0.14547
3.99007 5.3199 0.14647
3.96707 5.3249 0.14647
3.94207 5.3259 0.14647
3.91507 5.3239 0.14647
3.87007 5.3339 0.14647
3.85807 5.3349 0.14647
3.83007 5.3309 0.14647
3.81207 5.3409 0.14647
3.78207 5.3349 0.14647
3.73307 5.3359 0.14747
3.68507 5.3569 0.14747
3.65907 5.3549 0.14747
3.61107 5.3569 0.14747
3.58907 5.3619 0.14747
3.56907 5.3679 0.14747
3.54507 5.3669 0.14747
3.53507 5.3709 0.14747
3.51507 5.3769 0.14747
3.48907 5.3749 0.14747
3.44407 5.3799 0.14847
3.42307 5.3839 0.14847
3.39907 5.3829 0.14847
3.36807 5.3899 0.14847
3.34807 5.3959 0.14847
3.30507 5.4029 0.14847
3.27607 5.3929 0.14847
4.62207 5.2469 0.0504699
4.58007 5.2489 0.0514699
4.41007 5.2679 0.0534699
4.35807 5.2729 0.0544699
3.81107 5.3399 0.06047
3.77207 5.3379 0.06047
3.62207 5.3549 0.0624699
3.58007 5.3659 0.0624699
3.50807 5.3679 0.06347
3.45307 5.3749 0.06347
3.38907 5.3869 0.0644699
3.32307 5.3929 0.0644699
3.26607 5.3949 0.06547
3.24207 5.3949 0.06547
1.18707 5.6329 0.07647
1.15207 5.6419 0.07647
1.13307 5.6379 0.07747
1.11507 5.6409 0.07747
1.10707 5.6449 0.07647
1.07207 5.6559 0.07647
1.05307 5.6529 0.07747
0.989066 5.6549 0.07747
0.954066 5.6609 0.07747
0.918066 5.6649 0.07747
0.900066 5.6659 0.07747
0.882066 5.6719 0.07747
0.864066 5.6709 0.07747
0.855066 5.6729 0.07747
0.838066 5.6809 0.07747
0.819066 5.6779 0.07747
0.801066 5.6779 0.07747
0.784066 5.6849 0.07747
0.704066 5.6969 0.07747
0.651066 5.7099 0.07747
0.605066 5.7089 0.07747
0.552066 5.7139 0.07747
0.498066 5.7229 0.07747
0.470066 5.7169 0.07747
0.453066 5.7229 0.07747
0.399066 5.7369 0.07747
0.381066 5.7259 0.07747
0.354066 5.7399 0.07747
0.301066 5.7469 0.07647
0.255066 5.7409 0.07747
0.201066 5.7569 0.07647
0.138066 5.7629 0.07647
0.120066 5.7589 0.07647
0.0840656 5.7779 0.07647
0.0300656 5.7849 0.07647
0.00306558 5.7829 0.07647
3.41407 5.3849 0.0304699
1.25907 5.6339 0.0464699
1.24207 5.6409 0.0464699
1.22507 5.6449 0.0464699
1.21307 5.6349 0.0464699
1.19407 5.6329 0.0474699
1.15807 5.6369 0.0474699
1.14007 5.6399 0.0474699
1.05907 5.6459 0.0474699
1.04207 5.6549 0.0474699
0.978066 5.6549 0.0474699
0.943066 5.6689 0.0474699
0.889066 5.6709 0.0474699
0.853066 5.6729 0.0474699
0.843066 5.6699 0.0474699
0.773066 5.6899 0.0474699
0.755066 5.6889 0.0474699
0.727066 5.6839 0.0474699
0.711066 5.6999 0.0474699
0.692066 5.6909 0.0474699
0.674066 5.6949 0.0474699
0.594066 5.7119 0.0474699
0.541066 5.7189 0.0474699
0.522066 5.7169 0.0474699
0.504066 5.7139 0.0474699
0.460066 5.7259 0.0474699
0.424066 5.7289 0.0474699
0.370066 5.7449 0.0474699
0.360066 5.7289 0.0474699
0.289066 5.7489 0.0474699
0.271066 5.7439 0.0474699
0.208066 5.7589 0.0464699
0.190066 5.7489 0.0474699
0.127066 5.7729 0.0464699
0.0910656 5.7719 0.0464699
0.0360656 5.7739 0.0464699
0.00906557 5.7709 0.0464699
6.95407 4.9669 -0.07653
4.72707 5.2159 -0.0285301
4.70507 5.2249 -0.0285301
4.67707 5.2259 -0.02753
4.63507 5.2289 -0.02653
4.61307 5.2369 -0.02653
4.58307 5.2369 -0.02553
4.50907 5.2509 -0.0245301
4.47407 5.2439 -0.0235301
4.44707 5.2619 -0.0235301
4.38407 5.2539 -0.0225301
4.36207 5.2619 -0.0215301
4.33307 5.2599 -0.0215301
4.30907 5.2649 -0.0205301
4.29407 5.2639 -0.0205301
4.24507 5.2699 -0.0195301
4.17107 5.2799 -0.0185301
4.14807 5.2859 -0.0185301
4.12607 5.2909 -0.0175301
4.11007 5.2879 -0.0175301
4.03707 5.2959 -0.01653
3.99107 5.3059 -0.0155301
3.96407 5.3039 -0.0155301
3.90907 5.3169 -0.0145301
3.88607 5.3209 -0.0145301
3.83607 5.3229 -0.0135301
3.77607 5.3269 -0.0125301
3.75207 5.3289 -0.0115301
3.73007 5.3319 -0.0115301
3.55807 5.3519 -0.00853005
3.36907 5.3749 -0.00653005
3.25107 5.3909 -0.00453005
3.22007 5.3979 -0.00453005
1.79407 5.5719 0.00946995
1.77207 5.5639 0.00946995
1.75607 5.5759 0.00946995
1.74407 5.5669 0.0104699
1.67207 5.5829 0.0104699
1.65407 5.5879 0.0104699
1.62507 5.5859 0.0104699
1.60607 5.5849 0.0104699
1.58807 5.5899 0.0104699
1.56907 5.5899 0.0114699
1.53207 5.5919 0.0114699
1.48507 5.5939 0.0114699
1.46807 5.5979 0.0114699
1.45007 5.6029 0.0114699
1.43207 5.6039 0.0114699
1.41407 5.6099 0.0114699
1.39507 5.6089 0.0114699
1.34907 5.6099 0.0124699
1.15307 5.6469 0.0124699
1.11407 5.6389 0.0124699
1.09707 5.6419 0.0124699
0.997066 5.6519 0.0134699
0.548066 5.7229 -0.02553
0.511066 5.7169 -0.0245301
0.188066 5.7639 -0.02553
0.179066 5.7649 -0.02553
0.143066 5.7659 -0.02553
0.125066 5.7699 -0.02653
0.106066 5.7699 -0.02653
0.0880656 5.7729 -0.02653
0.0700656 5.7769 -0.02653
0.0250656 5.7809 -0.02653
0.00706558 5.7849 -0.02653
7.54807 4.8969 -0.20453
5.92407 5.0869 -0.15153
5.31307 5.1609 -0.13353
5.28207 5.1639 -0.13253
4.52907 5.2519 -0.11253
4.22107 5.2849 -0.10453
4.09807 5.2999 -0.10153
3.70907 5.3499 -0.0935301
3.56007 5.3659 -0.09053
3.51107 5.3649 -0.0895301
3.29107 5.3929 -0.08453
3.13107 5.4139 -0.0825301
3.10607 5.4099 -0.08153
3.02807 5.4309 -0.08053
3.01407 5.4249 -0.07953
2.89107 5.4439 -0.0785301
2.64607 5.4719 -0.0745301
2.55607 5.4829 -0.07353
2.30207 5.5149 -0.06953
2.28207 5.5169 -0.06953
2.26207 5.5169 -0.06953
2.19907 5.5119 -0.0675301
2.07107 5.5419 -0.0675301
2.01407 5.5479 -0.06653
1.80707 5.5729 -0.0645301
1.71307 5.5789 -0.0635301
1.59207 5.5919 -0.06253
1.58507 5.5999 -0.06253
1.56507 5.5979 -0.06253
1.50807 5.5969 -0.0615301
1.44507 5.6049 -0.0615301
1.35707 5.6269 -0.0615301
1.32907 5.6299 -0.0615301
1.25307 5.6219 -0.0605301
1.21107 5.6439 -0.0605301
1.17207 5.6359 -0.0595301
1.15607 5.6449 -0.0605301
1.07307 5.6469 -0.0595301
1.05607 5.6549 -0.0595301
0.939066 5.6629 -0.0595301
0.904066 5.6749 -0.0595301
0.867066 5.6689 -0.0585301
0.841066 5.6779 -0.0595301
0.805066 5.6859 -0.0595301
0.769066 5.6889 -0.0595301
0.734066 5.6989 -0.0595301
0.725066 5.6979 -0.0595301
0.706066 5.6889 -0.0585301
0.688066 5.6909 -0.0585301
0.672066 5.7069 -0.0595301
0.653066 5.7029 -0.0595301
0.617066 5.7049 -0.0595301
0.572066 5.7119 -0.0595301
0.537066 5.7169 -0.0595301
0.500066 5.7129 -0.0585301
0.456066 5.7299 -0.0595301
0.438066 5.7239 -0.0595301
0.402066 5.7359 -0.0595301
0.384066 5.7339 -0.0595301
0.357066 5.7409 -0.0595301
0.339066 5.7419 -0.0595301
0.321066 5.7309 -0.0595301
0.285066 5.7489 -0.0595301
0.249066 5.7449 -0.0595301
0.222066 5.7459 -0.0595301
0.204066 5.7529 -0.0595301
0.186066 5.7569 -0.0605301
0.132066 5.7649 -0.0605301
0.105066 5.7569 -0.0605301
0.0870656 5.7639 -0.0605301
0.0140656 5.7679 -0.0605301
6.23707 5.0499 -0.20753
6.11607 5.0649 -0.20253
6.08307 5.0699 -0.20153
5.92507 5.0809 -0.19653
5.86007 5.0889 -0.19353
5.77007 5.1069 -0.19153
5.68507 5.1119 -0.18853
5.65707 5.1189 -0.18753
5.58807 5.1209 -0.18453
5.53307 5.1339 -0.18353
5.50907 5.1269 -0.18253
5.48107 5.1339 -0.18153
5.42207 5.1429 -0.17953
5.39507 5.1489 -0.17853
5.33207 5.1539 -0.17653
5.24907 5.1529 -0.17353
5.22107 5.1579 -0.17253
5.16107 5.1629 -0.17053
5.13907 5.1729 -0.17053
5.11407 5.1809 -0.16953
5.03507 5.1809 -0.16653
5.00007 5.1779 -0.16553
4.95307 5.1929 -0.16453
4.92307 5.1939 -0.16353
4.91207 5.1989 -0.16353
4.88207 5.1999 -0.16253
4.85007 5.1989 -0.16153
4.82307 5.2019 -0.16053
4.80907 5.2199 -0.16053
4.77307 5.2129 -0.15953
4.74407 5.2149 -0.15853
4.70407 5.2189 -0.15653
4.68207 5.2279 -0.15653
4.65407 5.2289 -0.15553
4.62307 5.2269 -0.15453
4.59307 5.2269 -0.15353
4.53407 5.2419 -0.15253
4.51507 5.2529 -0.15153
4.48407 5.2499 -0.15053
4.45907 5.2529 -0.15053
4.43207 5.2549 -0.14953
4.39307 5.2589 -0.14853
4.34107 5.2629 -0.14653
4.31707 5.2679 -0.14653
4.28607 5.2639 -0.14553
4.27107 5.2789 -0.14553
4.24107 5.2749 -0.14453
4.23007 5.2789 -0.14353
4.21007 5.2869 -0.14353
4.18107 5.2849 -0.14253
4.15507 5.2869 -0.14153
4.10107 5.2859 -0.14053
4.07407 5.3019 -0.13953
4.05107 5.3069 -0.13953
4.01907 5.2989 -0.13853
3.99807 5.3049 -0.13753
3.97607 5.3109 -0.13753
3.92307 5.3089 -0.13553
3.90107 5.3149 -0.13553
3.88807 5.3139 -0.13453
3.84307 5.3219 -0.13353
3.82607 5.3339 -0.13353
3.79307 5.3239 -0.13253
3.77207 5.3289 -0.13253
3.75107 5.3339 -0.13153
3.71207 5.3319 -0.13053
3.67007 5.3439 -0.12953
3.64907 5.3489 -0.12953
3.62307 5.3469 -0.12853
3.60707 5.3579 -0.12853
3.59007 5.3519 -0.12753
3.57307 5.3619 -0.12753
3.55207 5.3679 -0.12753
3.50007 5.3619 -0.12553
3.48407 5.3739 -0.12553
3.45807 5.3699 -0.12453
3.44507 5.3689 -0.12453
3.42007 5.3659 -0.12353
3.40207 5.3749 -0.12353
3.38007 5.3769 -0.12353
3.36107 5.3839 -0.12253
3.33707 5.3849 -0.12253
3.31707 5.3899 -0.12253
3.28007 5.3869 -0.12053
3.25707 5.3869 -0.12053
3.14407 5.4079 -0.11853
3.09807 5.4069 -0.11753
3.08207 5.4179 -0.11753
3.06307 5.4239 -0.11653
3.03307 5.4109 -0.11553
3.01407 5.4169 -0.11553
2.98507 5.4239 -0.11553
2.96207 5.4229 -0.11453
2.92207 5.4289 -0.11353
2.90407 5.4379 -0.11353
2.80707 5.4399 -0.11153
2.78707 5.4409 -0.11153
2.76807 5.4459 -0.11053
2.74707 5.4479 -0.11053
2.72407 5.4659 -0.11053
2.65807 5.4609 -0.10953
2.61107 5.4749 -0.10853
2.54907 5.4749 -0.10753
2.52707 5.4739 -0.10653
2.36107 5.4959 -0.10453
2.33607 5.5089 -0.10453
2.29807 5.5139 -0.10453
2.27507 5.5059 -0.10353
2.25707 5.5129 -0.10353
2.23707 5.5129 -0.10253
2.21607 5.5109 -0.10253
2.15207 5.5249 -0.10153
2.12907 5.5169 -0.10153
2.11107 5.5239 -0.10153
2.04807 5.5409 -0.10053
2.02707 5.5379 -0.10053
1.90507 5.5519 -0.09853
1.88407 5.5469 -0.09853
1.85107 5.5639 -0.09853
1.83807 5.5539 -0.0975301
1.80507 5.5729 -0.09853
1.76807 5.5759 -0.0975301
1.72907 5.5739 -0.0975301
1.62907 5.5909 -0.0965301
1.60907 5.5909 -0.0965301
1.56307 5.5949 -0.09553
1.46007 5.5949 -0.09453
1.44307 5.6029 -0.09453
1.39007 5.6139 -0.09453
1.37207 5.6209 -0.09453
1.25207 5.6219 -0.0935301
1.18907 5.6299 -0.0935301
1.13407 5.6329 -0.09253
1.08907 5.6379 -0.09253
1.03707 5.6519 -0.09253
0.938066 5.6669 -0.09253
0.859066 5.6809 -0.09253
0.723066 5.6839 -0.09153
0.588066 5.6979 -0.09153
0.571066 5.7009 -0.09153
0.554066 5.7169 -0.09253
0.499066 5.7119 -0.09253
0.472066 5.7139 -0.09253
0.454066 5.7159 -0.09253
0.418066 5.7209 -0.09253
0.374066 5.7239 -0.09253
0.338066 5.7359 -0.09253
0.320066 5.7289 -0.09253
0.248066 5.7459 -0.0935301
0.203066 5.7439 -0.09253
0.185066 5.7509 -0.0935301
0.0500656 5.7739 -0.09453
0.0310656 5.7659 -0.0935301
0.0130656 5.7679 -0.0935301
5.89207 5.0909 -0.24453
5.84307 5.0959 -0.24353
5.74107 5.1039 -0.23853
5.64507 5.1149 -0.23553
5.63107 5.1179 -0.23453
5.55707 5.1159 -0.23153
5.47707 5.1379 -0.22953
5.40107 5.1479 -0.22653
5.36007 5.1419 -0.22453
5.33307 5.1469 -0.22353
5.24007 5.1539 -0.22053
5.19807 5.1619 -0.21853
5.16907 5.1659 -0.21753
5.13507 5.1629 -0.21653
5.10607 5.1669 -0.21553
5.08007 5.1729 -0.21453
5.06207 5.1869 -0.21453
5.02107 5.1779 -0.21253
4.66207 5.2189 -0.20053
4.59407 5.2259 -0.19853
4.34807 5.2549 -0.19053
3.61807 5.3429 -0.16953
3.59707 5.3479 -0.16953
5.24607 5.1659 -0.26053
5.16307 5.1649 -0.25653
5.08607 5.1849 -0.25453
5.00507 5.1829 -0.25053
4.89707 5.1999 -0.24653
4.84707 5.2109 -0.24553
4.79407 5.2029 -0.24253
4.77807 5.2179 -0.24253
4.74007 5.2099 -0.24053
4.69207 5.2229 -0.23953
4.65407 5.2299 -0.23853
4.59607 5.2309 -0.23553
4.54507 5.2379 -0.23353
4.49207 5.2419 -0.23153
4.47807 5.2429 -0.23153
4.37407 5.2529 -0.22753
4.35707 5.2669 -0.22753
4.24507 5.2809 -0.22453
4.21007 5.2709 -0.22253
4.19807 5.2899 -0.22253
4.12607 5.2839 -0.21953
4.10307 5.2889 -0.21953
4.07507 5.2859 -0.21753
4.05107 5.2889 -0.21753
4.02807 5.2939 -0.21653
4.00707 5.2999 -0.21553
3.98407 5.3039 -0.21553
3.96707 5.2989 -0.21453
3.94807 5.3089 -0.21453
3.92007 5.3049 -0.21253
3.90207 5.3159 -0.21253
3.85207 5.3169 -0.21153
3.82807 5.3199 -0.21053
3.81507 5.3189 -0.20953
3.79307 5.3229 -0.20953
3.74507 5.3249 -0.20753
3.72107 5.3269 -0.20653
3.67807 5.3369 -0.20553
3.60007 5.3479 -0.20353
3.55407 5.3519 -0.20253
3.52007 5.3549 -0.20153
3.47607 5.3619 -0.20053
3.43307 5.3689 -0.19953
3.03407 5.4119 -0.18853
2.97907 5.4339 -0.18853
2.88307 5.4399 -0.18553
2.84207 5.4439 -0.18453
2.81207 5.4479 -0.18453
2.77107 5.4529 -0.18353
2.72907 5.4539 -0.18253
2.69107 5.4639 -0.18153
2.66207 5.4699 -0.18153
2.64107 5.4709 -0.18053
2.60207 5.4759 -0.17953
2.57407 5.4629 -0.17853
2.56207 5.4819 -0.17953
2.54407 5.4659 -0.17753
2.53207 5.4849 -0.17853
2.51207 5.4869 -0.17853
2.48907 5.4799 -0.17753
2.47307 5.4919 -0.17753
2.45307 5.4939 -0.17753
2.43207 5.4929 -0.17653
2.42307 5.4969 -0.17653
2.40507 5.4999 -0.17653
2.32407 5.5029 -0.17453
2.30407 5.5039 -0.17453
2.27707 5.5129 -0.17353
2.25607 5.5109 -0.17353
2.23707 5.5149 -0.17353
2.18207 5.5259 -0.17253
2.16307 5.5289 -0.17253
2.15007 5.5209 -0.17153
2.13207 5.5259 -0.17153
2.07707 5.5389 -0.17053
2.02707 5.5379 -0.16953
2.00807 5.5389 -0.16953
1.90707 5.5589 -0.16853
1.88907 5.5609 -0.16853
1.86907 5.5619 -0.16753
1.83307 5.5689 -0.16753
1.41707 5.6129 -0.16353
1.27307 5.6349 -0.16253
1.18207 5.6409 -0.16153
1.06407 5.6499 -0.16053
1.05607 5.6579 -0.16053
1.03707 5.6509 -0.16053
1.02107 5.6639 -0.16053
0.930066 5.6679 -0.16053
0.921066 5.6709 -0.16053
0.886066 5.6789 -0.16053
0.805066 5.6869 -0.16053
0.768066 5.6879 -0.15953
0.715066 5.6969 -0.16053
0.670066 5.6959 -0.15953
0.634066 5.7039 -0.15953
0.616066 5.7079 -0.16053
0.599066 5.7099 -0.16053
0.571066 5.7109 -0.15953
0.554066 5.7189 -0.16053
0.535066 5.7129 -0.15953
0.464066 5.7249 -0.16053
0.402066 5.7369 -0.16053
0.383066 5.7309 -0.16053
0.230066 5.7449 -0.16053
0.212066 5.7559 -0.16153
0.185066 5.7589 -0.16153
0.149066 5.7639 -0.16153
0.113066 5.7699 -0.16153
0.0950656 5.7649 -0.16153
0.0680656 5.7709 -0.16153
7.37607 4.9009 -0.41453
7.03607 4.9519 -0.39753
6.85407 4.9709 -0.38753
6.78207 4.9839 -0.38453
6.62807 5.0009 -0.37653
6.60607 5.0009 -0.37553
6.42607 5.0249 -0.36653
6.26507 5.0449 -0.35853
6.10707 5.0619 -0.35153
6.07307 5.0659 -0.34953
5.93607 5.0799 -0.34253
5.38607 5.1489 -0.31853
4.74307 5.2099 -0.29053
4.72307 5.2209 -0.28953
4.64207 5.2289 -0.28653
4.58007 5.2259 -0.28353
4.57307 5.2339 -0.28353
4.55407 5.2459 -0.28353
4.52407 5.2449 -0.28153
4.44807 5.2569 -0.27953
4.41607 5.2529 -0.27753
4.40007 5.2499 -0.27653
4.37207 5.2499 -0.27553
4.35207 5.2599 -0.27553
4.32407 5.2589 -0.27353
4.29707 5.2609 -0.27253
4.27607 5.2679 -0.27253
4.25907 5.2809 -0.27253
4.22907 5.2779 -0.27053
4.20907 5.2699 -0.26953
4.18507 5.2739 -0.26853
4.13607 5.2799 -0.26653
4.11407 5.2869 -0.26653
4.08507 5.2839 -0.26453
4.06107 5.2869 -0.26453
4.05407 5.2949 -0.26453
4.00207 5.2949 -0.26253
3.97707 5.2959 -0.26153
3.95907 5.3069 -0.26053
3.92907 5.3019 -0.25953
3.91007 5.3109 -0.25953
3.85007 5.3179 -0.25753
3.82407 5.3169 -0.25553
3.80407 5.3239 -0.25553
3.77707 5.3209 -0.25453
3.71907 5.3279 -0.25253
3.61107 5.3509 -0.24953
3.57007 5.3449 -0.24753
3.52807 5.3539 -0.24653
3.40407 5.3649 -0.24253
3.38907 5.3789 -0.24253
3.33807 5.3729 -0.24053
3.31707 5.3769 -0.24053
3.30607 5.3789 -0.23953
3.22307 5.3939 -0.23753
3.15807 5.3999 -0.23553
3.03707 5.4069 -0.23253
2.88107 5.4249 -0.22753
2.78907 5.4369 -0.22553
2.75407 5.4519 -0.22553
2.63907 5.4559 -0.22253
2.46907 5.4739 -0.21853
2.42107 5.4819 -0.21753
2.36307 5.4899 -0.21653
2.20707 5.5069 -0.21353
2.08307 5.5209 -0.21153
2.04607 5.5279 -0.21053
2.02907 5.5349 -0.21053
1.99007 5.5359 -0.21053
1.94407 5.5439 -0.20953
1.92407 5.5439 -0.20953
1.88707 5.5489 -0.20853
1.83407 5.5659 -0.20853
1.78607 5.5649 -0.20753
1.73007 5.5729 -0.20653
1.68507 5.5799 -0.20653
1.60807 5.5779 -0.20453
1.58207 5.5889 -0.20553
1.52707 5.5919 -0.20453
1.47407 5.6089 -0.20453
1.42507 5.6009 -0.20353
1.37007 5.6059 -0.20253
1.32707 5.6189 -0.20253
1.22607 5.6269 -0.20153
1.17107 5.6289 -0.20053
1.11707 5.6339 -0.20053
1.07307 5.6459 -0.20053
1.02007 5.6559 -0.20053
0.975066 5.6579 -0.20053
0.866066 5.6629 -0.19953
0.821066 5.6679 -0.19953
0.768066 5.6769 -0.19953
0.723066 5.6789 -0.19953
0.669066 5.6859 -0.19953
0.616066 5.6919 -0.19953
0.473066 5.7099 -0.19953
0.321066 5.7299 -0.20053
7.53207 4.8879 -0.46753
7.42907 4.8879 -0.46153
1.19207 5.6429 -0.23053
0.402066 5.7349 -0.22953
0.357066 5.7339 -0.22953
0.0500656 5.7749 -0.23153
4.46107 5.2509 -0.35953
3.36007 5.3859 -0.31553
3.17607 5.4069 -0.30953
2.95307 5.4319 -0.30253
2.87407 5.4269 -0.29853
2.74007 5.4399 -0.29453
2.57307 5.4679 -0.29153
2.54207 5.4689 -0.29053
2.50307 5.4759 -0.28953
2.46207 5.4769 -0.28753
2.39307 5.4839 -0.28653
2.35607 5.4929 -0.28553
2.28107 5.5079 -0.28453
2.21107 5.5099 -0.28253
2.17507 5.5199 -0.28253
2.14207 5.5139 -0.28053
2.06907 5.5309 -0.27953
2.02807 5.5249 -0.27853
1.96107 5.5319 -0.27753
1.94307 5.5349 -0.27653
1.92507 5.5409 -0.27653
1.87707 5.5429 -0.27553
1.85907 5.5459 -0.27553
1.84007 5.5489 -0.27553
1.82107 5.5489 -0.27453
1.80207 5.5509 -0.27453
1.76607 5.5579 -0.27453
1.75707 5.5609 -0.27453
1.73807 5.5599 -0.27353
1.70107 5.5639 -0.27253
1.66507 5.5699 -0.27253
1.60207 5.5829 -0.27253
1.54507 5.5819 -0.27053
1.44507 5.5959 -0.26953
1.12807 5.6319 -0.26753
1.07407 5.6369 -0.26653
0.975066 5.6489 -0.26653
0.224066 5.7379 -0.26653
5.26307 5.1609 -0.44053
5.21607 5.1629 -0.43753
5.13007 5.1749 -0.43253
5.07307 5.1809 -0.42953
4.84607 5.2049 -0.41753
4.79207 5.2119 -0.41553
4.75707 5.2059 -0.41253
4.64607 5.2309 -0.40753
4.59507 5.2389 -0.40553
4.50307 5.2499 -0.40053
4.47207 5.2469 -0.39953
4.42107 5.2539 -0.39653
4.37207 5.2609 -0.39453
4.28307 5.2699 -0.39053
4.18307 5.2809 -0.38553
4.17607 5.2889 -0.38553
4.12507 5.2929 -0.38353
4.05007 5.2989 -0.37953
3.97007 5.3139 -0.37653
3.89807 5.3209 -0.37353
3.87307 5.3219 -0.37253
3.81507 5.3289 -0.36953
3.76707 5.3329 -0.36753
3.72107 5.3389 -0.36553
3.68707 5.3429 -0.36453
3.66107 5.3419 -0.36353
3.59407 5.3509 -0.36053
3.55307 5.3619 -0.35953
3.53507 5.3519 -0.35753
3.52007 5.3669 -0.35853
3.49407 5.3639 -0.35653
3.46907 5.3619 -0.35553
3.44907 5.3679 -0.35453
3.42807 5.3719 -0.35453
3.40307 5.3709 -0.35353
3.39407 5.3739 -0.35253
3.37407 5.3799 -0.35253
3.33007 5.3839 -0.35053
3.31007 5.3889 -0.35053
3.28607 5.3899 -0.34953
3.24207 5.3929 -0.34753
3.23307 5.3959 -0.34753
3.21307 5.4009 -0.34653
3.18807 5.3979 -0.34553
3.16707 5.4009 -0.34453
3.14507 5.4019 -0.34353
3.12507 5.4069 -0.34353
3.10507 5.4109 -0.34253
3.09507 5.4139 -0.34253
3.04807 5.4089 -0.34053
3.03007 5.4169 -0.33953
3.00707 5.4159 -0.33853
2.99007 5.4259 -0.33853
2.95107 5.4149 -0.33653
2.91507 5.4299 -0.33653
2.89707 5.4369 -0.33653
2.87207 5.4309 -0.33453
2.85507 5.4399 -0.33453
2.83707 5.4469 -0.33453
2.82607 5.4479 -0.33453
2.80607 5.4489 -0.33353
2.78507 5.4509 -0.33253
2.76207 5.4489 -0.33153
2.72107 5.4519 -0.33053
2.69907 5.4499 -0.32953
2.67207 5.4609 -0.32953
2.63307 5.4679 -0.32853
2.61407 5.4709 -0.32753
2.57407 5.4769 -0.32653
2.55407 5.4779 -0.32553
2.46507 5.4889 -0.32353
2.41007 5.4809 -0.32153
2.39407 5.4909 -0.32153
2.35507 5.4959 -0.32053
2.33807 5.5039 -0.32053
2.31907 5.5069 -0.32053
2.30007 5.5089 -0.31953
2.28407 5.4959 -0.31853
2.26707 5.5029 -0.31853
2.24607 5.5009 -0.31753
2.20807 5.5079 -0.31653
2.19007 5.5129 -0.31653
2.17307 5.5199 -0.31653
2.16307 5.5189 -0.31653
2.14107 5.5149 -0.31453
2.12207 5.5159 -0.31453
2.08707 5.5289 -0.31453
2.06507 5.5229 -0.31353
2.04807 5.5309 -0.31353
2.02807 5.5299 -0.31253
1.98007 5.5329 -0.31153
1.94507 5.5449 -0.31153
1.92307 5.5379 -0.31053
1.91507 5.5409 -0.31053
1.89607 5.5449 -0.31053
1.87707 5.5449 -0.30953
1.85907 5.5489 -0.30953
1.84407 5.5629 -0.31053
1.82407 5.5609 -0.30953
1.80407 5.5589 -0.30853
1.78607 5.5629 -0.30853
1.74207 5.5739 -0.30853
1.72307 5.5759 -0.30853
1.68207 5.5679 -0.30653
1.66407 5.5689 -0.30653
1.65407 5.5679 -0.30553
1.63607 5.5729 -0.30553
1.61907 5.5779 -0.30553
1.56207 5.5779 -0.30453
1.51707 5.5859 -0.30453
1.49907 5.5869 -0.30353
1.46207 5.5909 -0.30353
1.44407 5.5949 -0.30353
1.34407 5.6059 -0.30153
1.29007 5.6099 -0.30153
1.16407 5.6279 -0.30053
1.11007 5.6319 -0.29953
0.959066 5.6579 -0.29953
0.931066 5.6589 -0.29953
0.913066 5.6589 -0.29953
0.815066 5.6699 -0.29853
0.689066 5.6809 -0.29853
0.430066 5.7149 -0.29953
0.296066 5.7349 -0.30053
0.179066 5.7479 -0.30053
6.67107 4.9919 -0.57253
6.42907 5.0189 -0.55653
6.35507 5.0259 -0.55153
6.31907 5.0299 -0.54853
6.19507 5.0439 -0.54053
6.16507 5.0519 -0.53953
6.12607 5.0529 -0.53653
6.06107 5.0629 -0.53253
6.02507 5.0659 -0.53053
5.96307 5.0619 -0.52553
5.93807 5.0729 -0.52453
5.90407 5.0759 -0.52253
5.87907 5.0869 -0.52153
5.84207 5.0869 -0.51853
5.77507 5.0929 -0.51453
5.76007 5.0959 -0.51353
5.73007 5.1019 -0.51153
5.65607 5.1009 -0.50653
5.63307 5.1119 -0.50553
5.57107 5.1199 -0.50253
5.51807 5.1189 -0.49853
5.45907 5.1299 -0.49553
5.34407 5.1499 -0.48853
5.31607 5.1389 -0.48653
5.28507 5.1419 -0.48453
5.26307 5.1529 -0.48353
5.23307 5.1549 -0.48153
5.20107 5.1559 -0.47953
5.17207 5.1599 -0.47853
5.15007 5.1699 -0.47753
5.09607 5.1649 -0.47353
5.06607 5.1669 -0.47153
5.04707 5.1799 -0.47153
5.01107 5.1759 -0.46853
4.98307 5.1789 -0.46753
4.95107 5.1779 -0.46553
4.93907 5.1819 -0.46453
4.91407 5.1889 -0.46353
4.88407 5.1899 -0.46153
4.85307 5.1889 -0.45953
4.83107 5.1989 -0.45853
4.80007 5.1979 -0.45653
4.77507 5.2039 -0.45553
4.75907 5.2029 -0.45453
4.73207 5.2059 -0.45353
4.70407 5.2069 -0.45153
4.68107 5.2149 -0.45053
4.65107 5.2149 -0.44853
4.62407 5.2169 -0.44753
4.60207 5.2259 -0.44653
4.48107 5.2359 -0.44053
4.45307 5.2369 -0.43853
4.42707 5.2399 -0.43753
4.41407 5.2409 -0.43653
4.23907 5.2639 -0.42753
4.17507 5.2689 -0.42453
4.10207 5.2779 -0.42153
4.07807 5.2819 -0.41953
2.67407 5.4509 -0.36453
2.61207 5.4559 -0.36253
7.72807 4.8629 -0.70453
7.31707 4.9139 -0.67253
7.20607 4.9219 -0.66453
7.16807 4.9289 -0.66153
7.13107 4.9369 -0.65953
7.05707 4.9349 -0.65253
7.02407 4.9439 -0.65053
6.97607 4.9429 -0.64653
6.94307 4.9519 -0.64453
6.90107 4.9549 -0.64153
6.87107 4.9659 -0.63953
6.79507 4.9599 -0.63353
6.76307 4.9689 -0.63153
6.71907 4.9689 -0.62753
6.68207 4.9749 -0.62553
6.65907 4.9899 -0.62453
6.61107 4.9869 -0.62053
6.57807 4.9939 -0.61853
6.54207 4.9989 -0.61553
6.51707 4.9959 -0.61353
6.47707 4.9979 -0.61053
6.44907 5.0079 -0.60953
6.40207 5.0039 -0.60553
6.38207 5.0199 -0.60453
6.33907 5.0189 -0.60153
6.31307 5.0309 -0.60053
6.27907 5.0189 -0.59653
6.25007 5.0289 -0.59553
6.18907 5.0439 -0.59153
6.14607 5.0409 -0.58753
6.11807 5.0499 -0.58653
6.09107 5.0599 -0.58453
6.06307 5.0529 -0.58253
6.02207 5.0499 -0.57953
5.99507 5.0599 -0.57753
5.95807 5.0609 -0.57453
5.93007 5.0689 -0.57353
5.90107 5.0759 -0.57153
5.86407 5.0759 -0.56853
5.84107 5.0719 -0.56653
5.80807 5.0759 -0.56453
5.77907 5.0819 -0.56353
5.74807 5.0869 -0.56153
5.71407 5.0889 -0.55853
5.68607 5.0969 -0.55753
5.65407 5.0999 -0.55553
5.63607 5.0989 -0.55353
5.60807 5.1059 -0.55253
5.54507 5.1129 -0.54753
5.51307 5.1149 -0.54553
5.48107 5.1179 -0.54353
5.44907 5.1199 -0.54153
5.40907 5.1299 -0.53953
5.37707 5.1319 -0.53753
5.34807 5.1369 -0.53553
5.31607 5.1379 -0.53353
5.28907 5.1439 -0.53153
5.25807 5.1459 -0.52953
5.23907 5.1429 -0.52853
5.20907 5.1459 -0.52653
5.18707 5.1559 -0.52553
5.15207 5.1539 -0.52253
5.12307 5.1579 -0.52153
5.09507 5.1609 -0.51953
5.07307 5.1709 -0.51853
5.02207 5.1679 -0.51453
4.94207 5.1819 -0.51053
4.91207 5.1829 -0.50853
4.88507 5.1859 -0.50653
4.84107 5.1889 -0.50453
4.76307 5.2019 -0.49953
4.71707 5.2169 -0.49753
4.69407 5.2079 -0.49553
4.56607 5.2279 -0.48853
4.49807 5.2319 -0.48453
7.53107 4.8849 -0.74453
7.36407 4.8929 -0.73053
7.29807 4.9159 -0.72553
7.22207 4.9139 -0.71953
7.14507 4.9279 -0.71353
7.06707 4.9399 -0.70753
7.03007 4.9469 -0.70453
6.98007 4.9449 -0.70053
6.95007 4.9569 -0.69853
6.91507 4.9479 -0.69453
6.88307 4.9579 -0.69253
6.84507 4.9639 -0.68953
6.81007 4.9709 -0.68753
6.76507 4.9719 -0.68353
6.69207 4.9829 -0.67853
6.67007 4.9829 -0.67653
6.62707 4.9839 -0.67253
6.59607 4.9929 -0.67053
6.55307 4.9929 -0.66753
6.52607 5.0049 -0.66553
6.48407 5.0049 -0.66253
6.44707 5.0089 -0.65953
6.42107 5.0049 -0.65753
6.39107 5.0139 -0.65553
6.35807 5.0209 -0.65253
6.33007 5.0309 -0.65153
6.28107 5.0249 -0.64653
6.24707 5.0289 -0.64453
6.21707 5.0379 -0.64253
6.19007 5.0319 -0.63953
6.15707 5.0379 -0.63753
6.12807 5.0459 -0.63553
6.08707 5.0449 -0.63253
6.05807 5.0529 -0.63053
6.02807 5.0599 -0.62853
5.99707 5.0659 -0.62653
5.97407 5.0629 -0.62453
5.94107 5.0679 -0.62253
5.90707 5.0709 -0.61953
5.87107 5.0719 -0.61753
5.84207 5.0789 -0.61553
5.81107 5.0839 -0.61353
5.78307 5.0919 -0.61153
5.75207 5.0819 -0.60853
5.72707 5.0919 -0.60753
5.69207 5.0929 -0.60453
5.66907 5.1039 -0.60353
5.63907 5.1099 -0.60153
5.60007 5.1059 -0.59853
5.57007 5.1109 -0.59653
5.54607 5.1049 -0.59453
5.52607 5.1189 -0.59353
5.49107 5.1189 -0.59053
5.46007 5.1219 -0.58853
5.43207 5.1279 -0.58753
5.41007 5.1399 -0.58653
5.36807 5.1319 -0.58253
5.34807 5.1299 -0.58053
5.32807 5.1419 -0.58053
5.28707 5.1359 -0.57653
5.25807 5.1399 -0.57453
5.23507 5.1489 -0.57353
5.20307 5.1499 -0.57153
5.17307 5.1529 -0.56953
5.15507 5.1509 -0.56753
5.07607 5.1679 -0.56353
5.01407 5.1699 -0.55953
4.99107 5.1789 -0.55753
4.91407 5.1799 -0.55253
4.85807 5.1869 -0.54953
4.83407 5.1929 -0.54753
4.79307 5.1979 -0.54553
4.76407 5.1999 -0.54353
4.70907 5.2049 -0.53953
4.68207 5.2079 -0.53853
4.62807 5.2139 -0.53453
7.51907 4.8769 -0.80153
5.06807 5.1779 -0.61153
4.93507 5.1869 -0.60153
4.88507 5.1989 -0.59853
4.82907 5.2049 -0.59553
4.70107 5.2119 -0.58653
4.64007 5.2259 -0.58253
4.58707 5.2329 -0.57953
4.51207 5.2459 -0.57553
4.45507 5.2449 -0.57053
4.41307 5.2459 -0.56853
4.35807 5.2459 -0.56453
4.31607 5.2619 -0.56253
4.27607 5.2639 -0.55953
4.22507 5.2689 -0.55653
4.17507 5.2739 -0.55353
4.13507 5.2899 -0.55253
4.11507 5.2829 -0.55053
4.06407 5.2849 -0.54753
4.01507 5.2899 -0.54453
3.97707 5.3079 -0.54353
3.96407 5.3079 -0.54253
3.91507 5.3119 -0.53953
3.88907 5.3119 -0.53753
3.80907 5.3229 -0.53353
3.78707 5.3289 -0.53253
3.76407 5.3309 -0.53153
3.73907 5.3309 -0.52953
3.69507 5.3399 -0.52753
3.65107 5.3289 -0.52453
3.63907 5.3469 -0.52553
3.61707 5.3499 -0.52353
3.59407 5.3529 -0.52253
3.51407 5.3589 -0.51853
3.48907 5.3589 -0.51653
3.46707 5.3609 -0.51553
3.44807 5.3689 -0.51553
3.42607 5.3709 -0.51453
3.40607 5.3769 -0.51353
3.37907 5.3719 -0.51153
3.36107 5.3809 -0.51153
3.32507 5.3779 -0.50853
3.26007 5.3869 -0.50653
3.23907 5.3909 -0.50553
3.20507 5.3899 -0.50353
3.18607 5.3969 -0.50253
3.16307 5.3969 -0.50153
3.10107 5.4069 -0.49953
3.07807 5.4069 -0.49753
3.07007 5.4109 -0.49753
3.04807 5.4119 -0.49653
3.02607 5.4129 -0.49553
3.01007 5.4239 -0.49553
2.98307 5.4149 -0.49353
2.96707 5.4269 -0.49353
2.93207 5.4239 -0.49153
2.89207 5.4299 -0.48953
2.86607 5.4209 -0.48753
2.85307 5.4389 -0.48853
2.82607 5.4289 -0.48653
2.81107 5.4409 -0.48653
2.77807 5.4399 -0.48553
2.73607 5.4409 -0.48353
2.71807 5.4479 -0.48253
2.70107 5.4579 -0.48353
2.68207 5.4609 -0.48253
2.65107 5.4629 -0.48153
2.62807 5.4609 -0.47953
2.61007 5.4649 -0.47953
2.59007 5.4679 -0.47853
2.56407 5.4579 -0.47653
2.55007 5.4719 -0.47753
2.52007 5.4759 -0.47653
2.47907 5.4759 -0.47453
2.46007 5.4799 -0.47353
2.44007 5.4819 -0.47353
2.39407 5.4939 -0.47253
2.37107 5.4889 -0.47053
2.35107 5.4889 -0.46953
2.31507 5.4999 -0.46953
2.29707 5.5049 -0.46953
2.27707 5.5069 -0.46853
2.26907 5.5099 -0.46853
2.20907 5.5129 -0.46653
2.18907 5.5129 -0.46553
2.14307 5.5239 -0.46453
2.12007 5.5159 -0.46353
2.10407 5.5239 -0.46353
2.08407 5.5249 -0.46253
2.06707 5.5319 -0.46253
2.04607 5.5289 -0.46153
2.03007 5.5389 -0.46153
1.96207 5.5399 -0.45953
1.94507 5.5469 -0.45953
1.92207 5.5379 -0.45753
1.90707 5.5509 -0.45853
1.88907 5.5549 -0.45853
1.85707 5.5449 -0.45653
1.78707 5.5679 -0.45653
1.76507 5.5589 -0.45453
1.75507 5.5589 -0.45453
1.73807 5.5649 -0.45453
1.71607 5.5569 -0.45253
1.70107 5.5699 -0.45353
1.68207 5.5699 -0.45253
1.64407 5.5699 -0.45153
1.63407 5.5689 -0.45153
1.61607 5.5709 -0.45053
1.58307 5.5899 -0.45253
1.56207 5.5819 -0.45053
1.54407 5.5869 -0.45053
1.49707 5.5849 -0.44853
1.48207 5.5989 -0.45053
1.44307 5.5949 -0.44853
1.42807 5.6069 -0.44953
1.40907 5.6099 -0.44953
1.39907 5.6059 -0.44853
1.38107 5.6089 -0.44853
1.34407 5.6089 -0.44753
1.30907 5.6199 -0.44753
1.27007 5.6099 -0.44553
1.24407 5.6179 -0.44553
1.22707 5.6259 -0.44653
1.20707 5.6199 -0.44553
1.19107 5.6279 -0.44553
1.17507 5.6389 -0.44653
1.15607 5.6389 -0.44653
1.14707 5.6389 -0.44553
1.12607 5.6289 -0.44453
1.09007 5.6319 -0.44353
1.07407 5.6449 -0.44553
1.05607 5.6429 -0.44453
1.03707 5.6419 -0.44353
1.02907 5.6469 -0.44453
1.01207 5.6529 -0.44453
0.975066 5.6529 -0.44353
0.956066 5.6459 -0.44253
0.923066 5.6679 -0.44453
0.913066 5.6649 -0.44453
0.893066 5.6539 -0.44253
0.876066 5.6609 -0.44353
0.858066 5.6619 -0.44253
0.840066 5.6629 -0.44253
0.823066 5.6749 -0.44353
0.786066 5.6679 -0.44253
0.777066 5.6689 -0.44253
0.742066 5.6739 -0.44253
0.724066 5.6789 -0.44253
0.689066 5.6849 -0.44253
0.670066 5.6829 -0.44253
0.661066 5.6839 -0.44253
0.643066 5.6839 -0.44253
0.625066 5.6859 -0.44253
0.608066 5.6899 -0.44253
0.555066 5.7019 -0.44353
0.546066 5.6999 -0.44253
0.528066 5.7059 -0.44353
0.510066 5.7039 -0.44253
0.474066 5.7069 -0.44253
0.438066 5.7079 -0.44253
0.429066 5.7079 -0.44253
0.393066 5.7149 -0.44353
0.376066 5.7299 -0.44453
0.357066 5.7189 -0.44353
0.339066 5.7199 -0.44353
0.322066 5.7209 -0.44353
0.313066 5.7219 -0.44353
0.295066 5.7289 -0.44353
0.178066 5.7419 -0.44453
0.142066 5.7469 -0.44553
0.124066 5.7469 -0.44553
0.106066 5.7489 -0.44553
7.85207 4.8429 -0.88753
7.65007 4.8689 -0.86953
7.60107 4.8719 -0.86453
7.56107 4.8799 -0.86153
7.37607 4.8939 -0.84453
7.36707 4.9039 -0.84353
7.24107 4.9199 -0.83253
7.19907 4.9249 -0.82853
7.15907 4.9299 -0.82553
7.09307 4.9349 -0.81953
7.05307 4.9399 -0.81553
7.00707 4.9409 -0.81153
6.97207 4.9489 -0.80853
6.89507 4.9599 -0.80253
6.85707 4.9659 -0.79853
6.83507 4.9659 -0.79653
6.80007 4.9729 -0.79453
6.75407 4.9719 -0.78953
6.71707 4.9779 -0.78653
6.68407 4.9859 -0.78453
6.58807 4.9959 -0.77553
6.54707 4.9969 -0.77153
6.51007 5.0019 -0.76853
6.44307 5.0149 -0.76353
6.40507 5.0179 -0.76053
6.36907 5.0219 -0.75753
6.34807 5.0219 -0.75553
6.30807 5.0219 -0.75153
6.27807 5.0309 -0.74953
6.24607 5.0379 -0.74753
6.20907 5.0409 -0.74453
6.13707 5.0469 -0.73753
6.11507 5.0449 -0.73553
6.08707 5.0539 -0.73453
6.04707 5.0529 -0.73053
6.01907 5.0619 -0.72853
5.95507 5.0729 -0.72353
5.86807 5.0789 -0.71653
5.83707 5.0839 -0.71453
5.77407 5.0929 -0.70953
5.71107 5.1019 -0.70453
5.68607 5.0959 -0.70153
5.59407 5.1099 -0.69453
5.50607 5.1259 -0.68853
5.48307 5.1209 -0.68653
5.46007 5.1309 -0.68453
5.42107 5.1269 -0.68153
5.39607 5.1359 -0.67953
5.36807 5.1419 -0.67853
5.33907 5.1459 -0.67553
5.30707 5.1479 -0.67353
5.28607 5.1439 -0.67153
5.25907 5.1489 -0.66953
5.22407 5.1469 -0.66653
5.20507 5.1609 -0.66553
5.16807 5.1559 -0.66253
5.13907 5.1599 -0.66053
5.09607 5.1659 -0.65753
5.06307 5.1649 -0.65453
5.04107 5.1749 -0.65353
5.01707 5.1819 -0.65253
4.97807 5.1749 -0.64853
4.96107 5.1889 -0.64853
4.92207 5.1819 -0.64453
4.90907 5.1839 -0.64353
4.88107 5.1879 -0.64153
4.85307 5.1899 -0.63953
4.82707 5.1949 -0.63853
4.80707 5.2059 -0.63753
4.77707 5.2069 -0.63453
4.74807 5.2079 -0.63253
4.70507 5.2099 -0.62953
4.67807 5.2129 -0.62753
4.65107 5.2159 -0.62553
4.62507 5.2199 -0.62453
4.60007 5.2239 -0.62253
4.57507 5.2299 -0.62153
4.55107 5.2349 -0.61953
4.53207 5.2299 -0.61853
4.51207 5.2399 -0.61753
4.48207 5.2389 -0.61553
4.45407 5.2399 -0.61253
4.42807 5.2409 -0.61153
4.40207 5.2449 -0.60953
4.37807 5.2489 -0.60853
4.36107 5.2459 -0.60653
4.33507 5.2489 -0.60453
4.31507 5.2579 -0.60453
4.29007 5.2599 -0.60253
4.26307 5.2609 -0.60053
4.23807 5.2639 -0.59853
4.21507 5.2699 -0.59753
4.20007 5.2679 -0.59653
4.17607 5.2719 -0.59553
4.15407 5.2779 -0.59453
4.10607 5.2849 -0.59153
4.08207 5.2879 -0.58953
4.05307 5.2849 -0.58753
4.03907 5.2839 -0.58653
4.01707 5.2899 -0.58553
3.96607 5.2919 -0.58153
3.94107 5.2929 -0.58053
3.91707 5.2959 -0.57853
3.89607 5.3019 -0.57853
3.88407 5.3029 -0.57753
3.86007 5.3059 -0.57553
3.84207 5.3159 -0.57553
3.81607 5.3149 -0.57353
3.79107 5.3159 -0.57253
3.73407 5.3229 -0.56853
3.71007 5.3249 -0.56753
3.64207 5.3329 -0.56353
3.61907 5.3359 -0.56253
3.59607 5.3379 -0.56153
3.57407 5.3429 -0.56053
3.56107 5.3399 -0.55953
3.53807 5.3429 -0.55853
3.49707 5.3529 -0.55653
3.47007 5.3489 -0.55453
3.42707 5.3559 -0.55253
3.41507 5.3559 -0.55153
3.39407 5.3599 -0.55053
3.35407 5.3719 -0.54953
3.28707 5.3759 -0.54553
3.27707 5.3789 -0.54553
3.25307 5.3779 -0.54353
3.23307 5.3829 -0.54253
3.20907 5.3809 -0.54153
3.18807 5.3839 -0.54053
3.16807 5.3889 -0.53953
3.15007 5.3969 -0.53953
3.13607 5.3939 -0.53853
3.11407 5.3949 -0.53753
3.09307 5.3959 -0.53553
3.07307 5.4009 -0.53553
3.03707 5.4159 -0.53453
3.01007 5.4089 -0.53253
2.97907 5.4119 -0.53153
2.93507 5.4139 -0.52853
2.89707 5.4249 -0.52753
2.88007 5.4339 -0.52753
2.85607 5.4309 -0.52653
2.82207 5.4269 -0.52353
2.80307 5.4319 -0.52353
2.78507 5.4389 -0.52353
2.76307 5.4389 -0.52253
2.74007 5.4349 -0.52053
2.72207 5.4419 -0.52053
2.69207 5.4459 -0.51853
2.67207 5.4489 -0.51853
2.65107 5.4499 -0.51753
2.63307 5.4569 -0.51753
2.61307 5.4579 -0.51653
2.59407 5.4639 -0.51553
2.58107 5.4569 -0.51453
2.54407 5.4679 -0.51353
2.52007 5.4619 -0.51253
2.50107 5.4659 -0.51153
2.48607 5.4789 -0.51253
2.46507 5.4779 -0.51153
2.45707 5.4839 -0.51153
2.43807 5.4859 -0.51053
2.41607 5.4839 -0.50953
2.39807 5.4899 -0.50953
2.37607 5.4869 -0.50753
2.30707 5.4919 -0.50553
2.28607 5.4899 -0.50453
2.26707 5.4939 -0.50353
2.25207 5.5049 -0.50453
2.23507 5.5139 -0.50453
2.21107 5.5039 -0.50253
2.19007 5.5019 -0.50153
2.18307 5.5109 -0.50153
2.12407 5.5109 -0.49953
2.06907 5.5249 -0.49853
2.02307 5.5339 -0.49753
2.00007 5.5229 -0.49553
1.98207 5.5269 -0.49553
1.96807 5.5449 -0.49653
1.91607 5.5359 -0.49353
1.89707 5.5379 -0.49353
1.86207 5.5479 -0.49253
1.84207 5.5459 -0.49253
1.82407 5.5499 -0.49153
1.81307 5.5449 -0.49053
1.79607 5.5549 -0.49153
1.77807 5.5589 -0.49153
1.76107 5.5639 -0.49153
1.70307 5.5629 -0.48853
1.65707 5.5689 -0.48853
1.57507 5.5799 -0.48653
1.55607 5.5819 -0.48653
1.50007 5.5839 -0.48453
1.41807 5.5939 -0.48353
1.34607 5.6049 -0.48253
1.20107 5.6199 -0.48053
1.18307 5.6199 -0.48053
1.13007 5.6329 -0.48053
1.11307 5.6399 -0.48053
1.09507 5.6409 -0.48053
1.08407 5.6329 -0.47953
1.06807 5.6409 -0.47953
1.05107 5.6519 -0.48053
1.03107 5.6429 -0.47953
1.01207 5.6409 -0.47853
0.995066 5.6459 -0.47853
0.979066 5.6589 -0.48053
0.961066 5.6579 -0.47953
0.950066 5.6499 -0.47853
0.933066 5.6579 -0.47953
0.915066 5.6549 -0.47853
0.897066 5.6579 -0.47853
0.878066 5.6569 -0.47853
0.861066 5.6619 -0.47853
0.834066 5.6639 -0.47853
0.816066 5.6679 -0.47853
0.798066 5.6669 -0.47753
0.781066 5.6749 -0.47853
0.763066 5.6759 -0.47853
0.745066 5.6739 -0.47753
0.727066 5.6809 -0.47853
0.718066 5.6819 -0.47853
0.701066 5.6879 -0.47853
0.665066 5.6859 -0.47853
0.647066 5.6879 -0.47853
0.628066 5.6859 -0.47753
0.611066 5.6899 -0.47753
0.602066 5.6949 -0.47853
0.584066 5.6949 -0.47853
0.566066 5.6969 -0.47853
0.548066 5.6989 -0.47853
0.532066 5.7119 -0.47953
0.486066 5.7039 -0.47853
0.468066 5.7119 -0.47853
0.450066 5.7089 -0.47853
0.432066 5.7129 -0.47853
0.414066 5.7119 -0.47853
0.396066 5.7169 -0.47853
0.378066 5.7159 -0.47853
0.361066 5.7249 -0.47953
0.352066 5.7279 -0.47953
0.334066 5.7309 -0.47953
0.316066 5.7359 -0.48053
0.298066 5.7309 -0.47953
0.280066 5.7279 -0.47953
0.262066 5.7269 -0.47853
0.244066 5.7319 -0.47953
0.235066 5.7319 -0.47953
0.217066 5.7369 -0.47953
0.199066 5.7429 -0.48053
0.181066 5.7419 -0.48053
0.163066 5.7439 -0.48053
0.145066 5.7449 -0.48053
0.127066 5.7529 -0.48153
0.100066 5.7559 -0.48153
0.0820656 5.7559 -0.48153
0.0460656 5.7549 -0.48153
4.38107 5.2559 -0.64853
4.35707 5.2599 -0.64653
4.28107 5.2689 -0.64153
4.08507 5.2939 -0.62953
3.96507 5.3079 -0.62153
3.94107 5.3109 -0.62053
3.91807 5.3139 -0.61853
3.88107 5.3159 -0.61653
3.83007 5.3159 -0.61253
3.78907 5.3289 -0.61053
3.76507 5.3309 -0.60953
3.75007 5.3269 -0.60853
3.72907 5.3319 -0.60753
3.70407 5.3319 -0.60553
3.68007 5.3339 -0.60353
3.63907 5.3459 -0.60253
3.60107 5.3429 -0.59953
3.57807 5.3459 -0.59853
3.55907 5.3539 -0.59753
3.53807 5.3579 -0.59653
3.51607 5.3609 -0.59553
3.49307 5.3619 -0.59353
3.46907 5.3629 -0.59253
3.45507 5.3599 -0.59153
3.43807 5.3689 -0.59053
3.41507 5.3719 -0.58953
3.38807 5.3659 -0.58753
3.37207 5.3779 -0.58753
3.34907 5.3779 -0.58653
3.32107 5.3699 -0.58353
3.31007 5.3719 -0.58253
3.29207 5.3809 -0.58253
3.27107 5.3839 -0.58153
3.24907 5.3859 -0.58053
3.22907 5.3909 -0.57953
3.20507 5.3889 -0.57853
3.16507 5.3989 -0.57653
3.15207 5.3949 -0.57553
3.13307 5.4019 -0.57453
3.11207 5.4049 -0.57353
3.08807 5.4019 -0.57253
3.04907 5.4129 -0.57053
3.02607 5.4119 -0.56953
3.01907 5.4179 -0.56953
2.99407 5.4139 -0.56753
2.96907 5.4079 -0.56553
2.95007 5.4139 -0.56553
2.93407 5.4249 -0.56553
2.91107 5.4229 -0.56353
2.88407 5.4329 -0.56353
2.86007 5.4299 -0.56153
2.84107 5.4349 -0.56153
2.82007 5.4359 -0.56053
2.80307 5.4439 -0.56053
2.78107 5.4439 -0.55853
2.76007 5.4459 -0.55753
2.74607 5.4399 -0.55653
2.73307 5.4549 -0.55753
2.71007 5.4509 -0.55553
2.68907 5.4529 -0.55453
2.66707 5.4499 -0.55353
2.64907 5.4589 -0.55353
2.62807 5.4579 -0.55153
2.62107 5.4659 -0.55253
2.59707 5.4599 -0.55053
2.58007 5.4679 -0.55053
2.56107 5.4719 -0.55053
2.54207 5.4769 -0.54953
2.51807 5.4679 -0.54753
2.48007 5.4769 -0.54653
2.44907 5.4759 -0.54453
2.43107 5.4829 -0.54453
2.41107 5.4839 -0.54353
2.39007 5.4819 -0.54253
2.37607 5.4969 -0.54353
2.34207 5.4899 -0.54153
2.32307 5.4919 -0.54053
2.30507 5.4989 -0.54053
2.26507 5.4999 -0.53853
2.24907 5.5089 -0.53853
2.22907 5.5109 -0.53853
2.21907 5.5109 -0.53753
2.19707 5.5049 -0.53553
2.18207 5.5189 -0.53653
2.15907 5.5109 -0.53453
2.14207 5.5179 -0.53453
2.12007 5.5129 -0.53353
2.10607 5.5269 -0.53453
2.09307 5.5189 -0.53253
2.05607 5.5249 -0.53153
2.03707 5.5279 -0.53153
2.01807 5.5299 -0.53153
1.99707 5.5269 -0.52953
1.97807 5.5279 -0.52953
1.95907 5.5299 -0.52853
1.95107 5.5339 -0.52853
1.93507 5.5449 -0.52953
1.91507 5.5439 -0.52853
1.89507 5.5399 -0.52753
1.87707 5.5459 -0.52753
1.85907 5.5479 -0.52653
1.84807 5.5459 -0.52553
1.82907 5.5459 -0.52553
1.81207 5.5549 -0.52553
1.79207 5.5509 -0.52453
1.77307 5.5529 -0.52353
1.75607 5.5609 -0.52453
1.73707 5.5589 -0.52353
1.71807 5.5599 -0.52253
1.69007 5.5629 -0.52153
1.65307 5.5649 -0.52153
1.63507 5.5689 -0.52053
1.61707 5.5719 -0.52053
1.58907 5.5759 -0.52053
1.55307 5.5799 -0.51953
1.53407 5.5809 -0.51853
1.51707 5.5879 -0.51953
1.49707 5.5829 -0.51753
1.47907 5.5849 -0.51753
1.45307 5.5939 -0.51753
1.41607 5.5959 -0.51653
1.36207 5.6029 -0.51653
1.35407 5.6069 -0.51653
1.31607 5.6039 -0.51453
0.948066 5.6489 -0.51153
7.90807 4.8359 -0.99353
7.82607 4.8369 -0.98553
7.65907 4.8679 -0.96953
7.55807 4.8719 -0.95853
7.25707 4.9069 -0.92853
7.18507 4.9249 -0.92253
7.02007 4.9429 -0.90653
6.98907 4.9379 -0.90253
6.95107 4.9439 -0.89953
6.92007 4.9539 -0.89653
6.86707 4.9489 -0.89053
6.84307 4.9649 -0.88953
6.79707 4.9639 -0.88453
6.73007 4.9649 -0.87853
6.69707 4.9729 -0.87553
6.65807 4.9759 -0.87153
6.63107 4.9889 -0.86953
6.59507 4.9939 -0.86653
6.54907 4.9919 -0.86153
6.52207 5.0039 -0.85953
6.49507 4.9999 -0.85653
6.45307 4.9999 -0.85253
6.42907 5.0139 -0.85153
6.38807 5.0149 -0.84753
6.35707 5.0219 -0.84453
6.31807 5.0239 -0.84053
6.28307 5.0289 -0.83753
6.25407 5.0209 -0.83453
6.22107 5.0269 -0.83153
6.18707 5.0319 -0.82853
6.15107 5.0349 -0.82453
6.11607 5.0389 -0.82153
6.08807 5.0479 -0.81953
6.05407 5.0519 -0.81653
6.02507 5.0439 -0.81353
5.99707 5.0529 -0.81153
5.96007 5.0539 -0.80753
5.93007 5.0609 -0.80553
5.89607 5.0639 -0.80253
5.86207 5.0669 -0.79953
5.83007 5.0709 -0.79653
5.74507 5.0779 -0.78853
5.71607 5.0839 -0.78653
5.68207 5.0859 -0.78353
5.65207 5.0919 -0.78153
5.62607 5.0999 -0.77953
5.57707 5.1039 -0.77553
5.55207 5.1129 -0.77353
5.50807 5.1049 -0.76853
5.48107 5.1119 -0.76653
5.41707 5.1159 -0.76153
5.38807 5.1209 -0.75953
5.37207 5.1229 -0.75753
5.31307 5.1299 -0.75253
5.28407 5.1339 -0.75053
1.86207 5.5559 -0.59853
1.78707 5.5639 -0.59653
1.77807 5.5649 -0.59653
1.56507 5.5889 -0.59153
1.49907 5.5869 -0.58853
1.46507 5.6019 -0.58953
1.40207 5.6099 -0.58853
1.36507 5.6129 -0.58753
1.24607 5.6219 -0.58553
1.21107 5.6299 -0.58553
1.19307 5.6339 -0.58553
1.15707 5.6369 -0.58453
1.14707 5.6309 -0.58353
1.13007 5.6409 -0.58453
1.11107 5.6369 -0.58353
1.09307 5.6419 -0.58353
1.03107 5.6539 -0.58353
1.01207 5.6469 -0.58253
0.959066 5.6559 -0.58253
0.914066 5.6599 -0.58153
0.895066 5.6609 -0.58153
