0.445035 5.64284 -0.781298
0.428035 5.64784 -0.782298
0.419035 5.64984 -0.782298
0.401035 5.64784 -0.782298
0.383035 5.64684 -0.781298
0.365035 5.64984 -0.782298
0.348035 5.65684 -0.783298
0.330035 5.65784 -0.783298
0.321035 5.65684 -0.782298
0.304035 5.66184 -0.783298
0.286035 5.66684 -0.783298
0.268035 5.66184 -0.783298
0.250035 5.66384 -0.783298
0.233035 5.66884 -0.783298
0.215035 5.67384 -0.784298
0.197035 5.67184 -0.784298
0.188035 5.67884 -0.785298
0.170035 5.67284 -0.784298
0.153035 5.67984 -0.785298
0.135035 5.68584 -0.786298
0.117035 5.68084 -0.785298
0.0990347 5.68484 -0.785298
0.0810347 5.68484 -0.785298
0.0720347 5.68284 -0.785298
0.0540347 5.69084 -0.786298
0.0370347 5.69184 -0.786298
0.0190347 5.69584 -0.787298
0.00103467 5.69584 -0.787298
4.00303 5.16784 -0.985298
3.98103 5.17184 -0.983298
3.95603 5.17384 -0.981298
3.83003 5.19284 -0.971298
3.80703 5.19484 -0.969298
3.78603 5.20084 -0.968298
3.68003 5.20884 -0.958298
3.63603 5.21584 -0.955298
3.62503 5.21784 -0.954298
3.60303 5.22084 -0.953298
3.58003 5.22284 -0.951298
3.53703 5.23084 -0.948298
3.49203 5.23484 -0.944298
3.48103 5.23684 -0.943298
3.43703 5.24084 -0.940298
3.41603 5.24484 -0.938298
3.39703 5.25184 -0.938298
3.37203 5.24984 -0.935298
3.35303 5.25684 -0.934298
3.33203 5.25884 -0.933298
3.25503 5.26484 -0.927298
3.21303 5.27184 -0.924298
3.19403 5.27684 -0.923298
3.18103 5.27484 -0.922298
3.05603 5.29184 -0.913298
3.02503 5.29584 -0.911298
3.00503 5.29884 -0.910298
2.96403 5.30384 -0.907298
2.85503 5.32284 -0.901298
2.83303 5.32284 -0.900298
2.79303 5.32884 -0.897298
2.63403 5.34784 -0.888298
2.61503 5.35084 -0.887298
2.59703 5.35684 -0.887298
2.57503 5.35484 -0.885298
2.55503 5.35684 -0.884298
2.51803 5.36384 -0.882298
2.47003 5.37084 -0.880298
2.45003 5.37384 -0.879298
2.43003 5.37384 -0.877298
2.41503 5.38484 -0.878298
2.39603 5.38884 -0.877298
2.38203 5.38084 -0.875298
2.34403 5.38584 -0.873298
2.32703 5.39384 -0.873298
2.30703 5.39384 -0.872298
2.28803 5.39584 -0.871298
2.27203 5.40484 -0.871298
2.26103 5.40284 -0.870298
2.24103 5.40184 -0.869298
2.22203 5.40384 -0.868298
2.20503 5.41084 -0.868298
2.18303 5.40684 -0.866298
2.16603 5.41384 -0.866298
2.14903 5.42084 -0.866298
2.14103 5.42584 -0.866298
2.11903 5.41984 -0.864298
2.10003 5.42084 -0.863298
2.06403 5.42984 -0.862298
2.04603 5.43284 -0.862298
2.03003 5.44084 -0.862298
2.01603 5.43084 -0.860298
1.99803 5.43584 -0.859298
1.98303 5.44784 -0.860298
1.96203 5.44084 -0.858298
1.94403 5.44484 -0.858298
1.90603 5.44584 -0.856298
1.89603 5.44684 -0.855298
1.88203 5.46184 -0.857298
1.86103 5.45484 -0.855298
1.84203 5.45684 -0.854298
1.82703 5.46884 -0.855298
1.80703 5.46484 -0.853298
1.78803 5.46484 -0.852298
1.76003 5.46784 -0.851298
1.74403 5.47484 -0.852298
1.72603 5.47884 -0.851298
1.70403 5.47084 -0.849298
1.68803 5.47784 -0.849298
1.67203 5.48684 -0.850298
1.65403 5.49084 -0.850298
1.64203 5.48384 -0.848298
1.62703 5.49684 -0.849298
1.60603 5.48784 -0.847298
1.59003 5.49484 -0.847298
1.57303 5.50384 -0.848298
1.55203 5.49584 -0.846298
1.53403 5.49684 -0.845298
1.52603 5.50084 -0.845298
1.50603 5.49784 -0.844298
1.48903 5.50284 -0.844298
1.47303 5.51284 -0.845298
1.45203 5.50484 -0.843298
1.43603 5.51084 -0.843298
1.40803 5.50984 -0.842298
1.39003 5.51384 -0.842298
1.37403 5.52084 -0.842298
1.35403 5.51484 -0.840298
1.33703 5.52184 -0.841298
1.32103 5.53184 -0.842298
1.30203 5.52984 -0.841298
1.28603 5.53784 -0.841298
1.27703 5.54184 -0.842298
1.25703 5.53384 -0.840298
1.24003 5.53584 -0.839298
1.22303 5.54184 -0.840298
1.20303 5.53584 -0.838298
1.18603 5.54184 -0.838298
1.16903 5.54584 -0.838298
1.16003 5.54684 -0.838298
1.14203 5.55084 -0.838298
1.12503 5.55484 -0.838298
1.10603 5.55184 -0.837298
1.08803 5.55184 -0.837298
1.07103 5.55884 -0.837298
1.05403 5.56184 -0.837298
1.04503 5.56384 -0.837298
1.02703 5.56484 -0.837298
1.00903 5.56284 -0.836298
0.992035 5.56784 -0.836298
0.975035 5.57684 -0.837298
0.957035 5.57784 -0.837298
0.940035 5.57884 -0.837298
0.930035 5.57784 -0.836298
0.912035 5.57684 -0.836298
0.895035 5.58184 -0.836298
0.877035 5.58284 -0.836298
0.861035 5.59184 -0.837298
0.842035 5.58984 -0.836298
0.825035 5.59284 -0.836298
0.815035 5.58684 -0.835298
0.798035 5.59284 -0.835298
0.781035 5.59684 -0.836298
0.762035 5.59584 -0.835298
0.745035 5.59984 -0.835298
0.727035 5.59884 -0.835298
0.709035 5.60084 -0.835298
0.692035 5.60284 -0.835298
0.684035 5.60984 -0.836298
0.666035 5.60784 -0.835298
0.648035 5.60984 -0.835298
0.630035 5.61184 -0.835298
0.613035 5.61584 -0.835298
0.595035 5.61784 -0.835298
0.587035 5.61884 -0.835298
0.569035 5.62084 -0.835298
0.551035 5.62484 -0.836298
0.535035 5.63384 -0.837298
0.517035 5.63384 -0.837298
0.499035 5.63484 -0.837298
0.481035 5.63884 -0.837298
0.464035 5.64384 -0.838298
0.455035 5.64284 -0.837298
0.437035 5.64084 -0.837298
0.419035 5.63784 -0.836298
0.402035 5.64884 -0.838298
0.384035 5.65184 -0.838298
0.366035 5.64984 -0.837298
0.349035 5.65284 -0.838298
0.340035 5.64884 -0.837298
0.322035 5.65384 -0.838298
0.304035 5.65684 -0.838298
0.287035 5.65784 -0.838298
0.269035 5.66484 -0.839298
0.251035 5.66184 -0.838298
0.234035 5.66784 -0.839298
0.225035 5.66884 -0.839298
0.207035 5.67084 -0.840298
0.190035 5.68184 -0.841298
0.172035 5.67884 -0.841298
0.154035 5.68284 -0.841298
0.136035 5.68084 -0.841298
0.118035 5.68184 -0.841298
0.109035 5.68184 -0.841298
0.0910347 5.67984 -0.841298
0.0740347 5.69184 -0.843298
0.0560347 5.69284 -0.843298
0.0380347 5.69484 -0.843298
0.0200347 5.69484 -0.843298
0.00203467 5.69684 -0.843298
7.24203 4.73684 -1.4193
6.62204 4.82084 -1.3363
6.29603 4.86084 -1.2943
5.73903 4.93984 -1.2273
3.95803 5.17184 -1.0393
3.83203 5.18984 -1.0283
3.63903 5.21284 -1.0113
3.51903 5.23084 -1.0023
3.49603 5.23184 -1.0003
3.48503 5.23384 -0.999298
3.46303 5.23684 -0.997298
3.39903 5.24584 -0.992298
3.34603 5.25384 -0.988298
3.30403 5.25984 -0.985298
3.26303 5.26884 -0.983298
3.14603 5.28084 -0.974298
3.12603 5.28484 -0.973298
3.10403 5.28484 -0.971298
3.08403 5.28984 -0.969298
3.06203 5.28884 -0.967298
3.05303 5.29384 -0.967298
3.03203 5.29484 -0.966298
2.99303 5.30284 -0.964298
2.97303 5.30784 -0.962298
2.95403 5.31184 -0.961298
2.93203 5.31184 -0.960298
2.92603 5.31984 -0.960298
2.90303 5.31884 -0.958298
2.86703 5.33184 -0.957298
2.84803 5.33584 -0.956298
2.82603 5.33584 -0.954298
1.81803 5.47084 -0.906298
1.79103 5.47484 -0.905298
1.68103 5.48884 -0.902298
1.63503 5.49284 -0.900298
1.51903 5.50984 -0.897298
1.48303 5.51484 -0.896298
1.42903 5.52184 -0.895298
1.42003 5.52184 -0.895298
1.38403 5.52684 -0.894298
1.18903 5.55184 -0.891298
0.676035 5.61784 -0.887298
0.623035 5.62184 -0.887298
0.597035 5.62484 -0.887298
0.579035 5.62984 -0.887298
0.561035 5.62984 -0.887298
0.526035 5.63584 -0.887298
0.490035 5.62884 -0.886298
0.482035 5.64384 -0.888298
0.464035 5.63884 -0.887298
0.447035 5.64984 -0.889298
0.429035 5.64184 -0.887298
0.411035 5.64084 -0.887298
0.393035 5.64484 -0.887298
0.376035 5.65184 -0.888298
0.358035 5.65684 -0.889298
0.349035 5.65484 -0.888298
0.331035 5.65084 -0.887298
0.314035 5.66084 -0.889298
0.296035 5.65584 -0.888298
0.278035 5.66284 -0.889298
0.260035 5.65784 -0.888298
0.243035 5.66484 -0.889298
0.234035 5.66684 -0.889298
0.216035 5.67584 -0.891298
0.198035 5.67084 -0.890298
0.181035 5.68084 -0.892298
0.163035 5.67984 -0.891298
0.145035 5.67984 -0.891298
0.127035 5.68584 -0.892298
0.118035 5.68884 -0.893298
0.101035 5.68684 -0.892298
0.0830347 5.69684 -0.894298
0.0650347 5.68484 -0.892298
0.0470347 5.69484 -0.894298
0.0290347 5.69984 -0.894298
0.0110347 5.70384 -0.895298
0.00203467 5.70184 -0.895298
1.31203 5.52084 -0.982298
1.29403 5.52484 -0.982298
1.24003 5.52884 -0.981298
1.20403 5.53084 -0.980298
1.14403 5.54584 -0.980298
1.09103 5.55084 -0.979298
1.04503 5.55084 -0.977298
1.02803 5.55284 -0.977298
0.993035 5.55884 -0.977298
0.932035 5.56984 -0.977298
0.914035 5.57084 -0.976298
0.897035 5.57684 -0.977298
0.861035 5.57684 -0.976298
0.845035 5.58684 -0.978298
0.800035 5.58584 -0.976298
0.782035 5.58884 -0.976298
0.747035 5.59084 -0.976298
0.721035 5.59884 -0.976298
0.704035 5.60484 -0.977298
0.686035 5.60284 -0.976298
0.650035 5.60184 -0.975298
0.615035 5.60784 -0.976298
0.607035 5.61384 -0.977298
0.571035 5.61384 -0.976298
0.553035 5.61784 -0.976298
0.519035 5.62884 -0.978298
0.501035 5.62884 -0.978298
0.483035 5.62384 -0.976298
0.475035 5.63284 -0.978298
0.457035 5.63384 -0.978298
0.439035 5.63584 -0.978298
0.404035 5.63584 -0.978298
0.386035 5.63784 -0.978298
0.368035 5.63884 -0.978298
0.360035 5.65284 -0.980298
0.342035 5.64484 -0.978298
0.324035 5.65084 -0.980298
0.307035 5.65184 -0.980298
0.289035 5.65284 -0.980298
0.253035 5.65684 -0.980298
0.227035 5.66184 -0.981298
0.209035 5.66084 -0.980298
0.191035 5.66684 -0.981298
0.174035 5.67184 -0.982298
0.156035 5.66584 -0.981298
0.111035 5.67284 -0.982298
0.0940347 5.67584 -0.983298
4.56103 5.08784 -1.2863
4.53703 5.09284 -1.2843
7.48404 4.70984 -1.7833
7.35904 4.72884 -1.7623
7.01303 4.77384 -1.7053
6.94203 4.77384 -1.6933
6.87003 4.78784 -1.6823
6.83603 4.79584 -1.6773
6.70303 4.81384 -1.6563
6.63203 4.82584 -1.6453
6.58503 4.82284 -1.6373
6.55103 4.82984 -1.6323
6.52003 4.83884 -1.6273
6.48503 4.84384 -1.6223
6.43104 4.85084 -1.6143
6.26603 4.86684 -1.5883
6.23404 4.87284 -1.5833
6.20303 4.87984 -1.5793
6.16903 4.88484 -1.5743
6.13603 4.88984 -1.5693
6.10204 4.89484 -1.5643
5.98603 4.90984 -1.5463
4.85703 5.06084 -1.3903
4.30403 5.13684 -1.3233
4.27903 5.13984 -1.3203
3.99003 5.17684 -1.2873
3.84003 5.19684 -1.2713
3.69303 5.21784 -1.2573
7.39403 4.71884 -1.8393
6.92603 4.76684 -1.7583
6.68303 4.80384 -1.7193
6.64703 4.80984 -1.7133
6.61203 4.81584 -1.7073
6.51203 4.82284 -1.6913
6.47503 4.82684 -1.6843
6.44703 4.83784 -1.6813
6.41303 4.84384 -1.6763
6.38103 4.85084 -1.6713
6.35303 4.84584 -1.6653
6.33203 4.86084 -1.6643
6.28403 4.85584 -1.6543
6.24503 4.85784 -1.6483
6.23003 4.87784 -1.6483
6.18603 4.87384 -1.6403
6.15003 4.87784 -1.6343
6.13203 4.87884 -1.6313
6.09103 4.87784 -1.6243
6.06103 4.88584 -1.6203
6.03403 4.89484 -1.6163
5.99704 4.89684 -1.6103
5.97003 4.90584 -1.6073
5.22704 5.00284 -1.4973
5.19303 5.00184 -1.4913
5.17503 5.01684 -1.4913
5.13903 5.01184 -1.4843
5.12103 5.01084 -1.4813
5.09803 5.01984 -1.4793
5.03603 5.02184 -1.4703
5.01903 5.03584 -1.4693
4.98003 5.02884 -1.4623
4.96103 5.04084 -1.4613
4.93804 5.04984 -1.4593
4.91303 5.03984 -1.4533
4.88603 5.04384 -1.4503
4.86703 5.05584 -1.4493
4.83403 5.05284 -1.4433
4.80604 5.05584 -1.4393
4.78603 5.06684 -1.4383
4.76403 5.05984 -1.4333
4.74203 5.06784 -1.4313
4.71503 5.07084 -1.4283
4.68603 5.07184 -1.4233
4.65803 5.07384 -1.4203
4.32703 5.11784 -1.3783
4.30003 5.11984 -1.3753
4.27403 5.12184 -1.3713
4.24903 5.12484 -1.3683
4.23903 5.12784 -1.3673
4.18903 5.13384 -1.3613
4.16804 5.14084 -1.3593
4.14603 5.14584 -1.3573
4.11703 5.14384 -1.3533
4.09604 5.15084 -1.3513
4.08103 5.14784 -1.3493
4.00903 5.15684 -1.3403
3.98903 5.16484 -1.3393
3.96403 5.16484 -1.3363
3.94003 5.16784 -1.3333
3.92703 5.16784 -1.3313
3.90803 5.17584 -1.3303
3.88403 5.17884 -1.3273
3.86003 5.17984 -1.3243
3.84103 5.18884 -1.3233
3.81303 5.18584 -1.3193
3.79303 5.19284 -1.3183
3.78303 5.19584 -1.3173
3.76103 5.19984 -1.3153
3.73603 5.19984 -1.3123
3.71303 5.20184 -1.3093
3.69103 5.20584 -1.3073
3.67403 5.21584 -1.3063
3.64803 5.21484 -1.3033
3.63403 5.21284 -1.3013
3.60803 5.20984 -1.2973
3.59103 5.21884 -1.2963
3.57003 5.22384 -1.2953
3.54903 5.22884 -1.2933
3.52603 5.22984 -1.2903
3.50603 5.23684 -1.2893
3.48303 5.23784 -1.2863
3.46603 5.22984 -1.2833
3.44403 5.23284 -1.2813
3.42703 5.24184 -1.2803
3.40603 5.24584 -1.2793
3.38403 5.24884 -1.2763
3.36503 5.25484 -1.2753
3.34703 5.26284 -1.2753
3.33103 5.25684 -1.2723
3.31403 5.26584 -1.2713
3.28503 5.25684 -1.2663
3.27203 5.27284 -1.2683
3.24503 5.26684 -1.2633
3.22603 5.27184 -1.2623
3.20403 5.27384 -1.2603
3.19303 5.27384 -1.2593
3.17103 5.27584 -1.2563
3.15003 5.27884 -1.2553
3.13003 5.28184 -1.2533
3.10903 5.28484 -1.2513
3.08903 5.28784 -1.2493
3.06403 5.28484 -1.2463
3.05403 5.28584 -1.2453
3.03203 5.28684 -1.2433
3.01103 5.28784 -1.2413
2.97503 5.30184 -1.2393
2.95303 5.30284 -1.2373
2.93403 5.30684 -1.2363
2.91703 5.31584 -1.2363
2.90503 5.31384 -1.2343
2.88503 5.31784 -1.2333
2.86403 5.31784 -1.2313
2.84503 5.32384 -1.2303
2.82203 5.32084 -1.2273
2.80503 5.32784 -1.2263
2.78503 5.33084 -1.2253
2.77103 5.32484 -1.2223
2.75203 5.32884 -1.2213
2.73303 5.33384 -1.2203
2.71603 5.34084 -1.2203
2.69403 5.34084 -1.2183
2.67503 5.34384 -1.2163
2.65403 5.34284 -1.2143
2.64103 5.33884 -1.2123
2.62403 5.34684 -1.2123
2.60403 5.34784 -1.2103
2.58503 5.35084 -1.2093
2.56603 5.35584 -1.2083
2.54703 5.35884 -1.2073
2.52803 5.36284 -1.2063
2.52003 5.36684 -1.2063
2.50203 5.37284 -1.2053
2.48203 5.37384 -1.2043
2.46203 5.37484 -1.2023
2.44203 5.37684 -1.2013
2.42203 5.37784 -1.1993
2.40403 5.38284 -1.1993
2.39203 5.37784 -1.1963
2.37503 5.38584 -1.1963
2.35603 5.38784 -1.1953
2.31903 5.39484 -1.1933
2.29803 5.39384 -1.1913
2.25203 5.40184 -1.1893
2.22903 5.39484 -1.1853
2.19503 5.40884 -1.1853
2.17603 5.41184 -1.1853
2.12903 5.41584 -1.1823
2.09303 5.42584 -1.1813
2.07303 5.42484 -1.1793
2.03803 5.43584 -1.1793
2.02803 5.43384 -1.1773
1.99103 5.43984 -1.1753
1.97103 5.43784 -1.1743
1.93403 5.44084 -1.1723
1.91503 5.44384 -1.1713
1.88903 5.45084 -1.1703
1.87103 5.45484 -1.1703
1.83403 5.45684 -1.1683
1.81603 5.46284 -1.1683
1.77803 5.46184 -1.1653
1.76903 5.46384 -1.1653
1.75303 5.47184 -1.1653
1.73203 5.46584 -1.1623
1.71603 5.47484 -1.1633
1.69703 5.47684 -1.1623
1.68003 5.47984 -1.1623
1.66103 5.47984 -1.1613
1.63203 5.47584 -1.1583
1.61303 5.47784 -1.1573
1.59603 5.48284 -1.1573
1.58003 5.49184 -1.1583
1.55903 5.48484 -1.1553
1.53303 5.49284 -1.1553
1.49803 5.49984 -1.1553
1.48003 5.50084 -1.1543
1.46303 5.50584 -1.1543
1.44603 5.51184 -1.1553
1.42403 5.49784 -1.1503
1.40803 5.50984 -1.1523
1.40103 5.51784 -1.1533
1.38003 5.50884 -1.1503
1.36303 5.51284 -1.1503
1.34703 5.52084 -1.1513
1.32803 5.51984 -1.1503
1.31003 5.51984 -1.1493
1.29103 5.51784 -1.1483
1.28303 5.52184 -1.1483
1.26703 5.53184 -1.1493
1.24903 5.53184 -1.1493
1.23103 5.53384 -1.1483
1.21203 5.53384 -1.1473
1.19503 5.53784 -1.1473
1.17603 5.53184 -1.1453
1.16803 5.53984 -1.1463
1.15103 5.54484 -1.1473
1.13303 5.54684 -1.1463
1.11403 5.54284 -1.1453
1.09803 5.54984 -1.1453
1.07903 5.54984 -1.1453
1.06303 5.55884 -1.1463
1.03603 5.55984 -1.1453
1.02003 5.56884 -1.1463
1.00103 5.56384 -1.1453
0.983035 5.56384 -1.1443
0.965035 5.56684 -1.1443
0.948035 5.57184 -1.1443
0.939035 5.57284 -1.1443
0.921035 5.57184 -1.1433
0.904035 5.57684 -1.1443
0.886035 5.57584 -1.1433
0.869035 5.58284 -1.1443
0.852035 5.58684 -1.1443
0.833035 5.58584 -1.1433
0.816035 5.59084 -1.1443
0.807035 5.58584 -1.1423
0.789035 5.59084 -1.1433
0.771035 5.59084 -1.1423
0.755035 5.59884 -1.1443
0.736035 5.59384 -1.1423
0.719035 5.59784 -1.1423
0.710035 5.60084 -1.1433
0.694035 5.61084 -1.1453
0.675035 5.60484 -1.1433
0.658035 5.61084 -1.1443
0.640035 5.60784 -1.1423
0.622035 5.61184 -1.1433
0.605035 5.61484 -1.1433
0.587035 5.61684 -1.1433
0.578035 5.61784 -1.1433
0.561035 5.62784 -1.1453
0.543035 5.62584 -1.1443
0.525035 5.62484 -1.1443
0.508035 5.62684 -1.1443
0.490035 5.62884 -1.1443
0.473035 5.63184 -1.1443
0.464035 5.63084 -1.1443
0.446035 5.63784 -1.1453
0.428035 5.63184 -1.1433
0.411035 5.64484 -1.1463
0.394035 5.64984 -1.1473
0.375035 5.64084 -1.1453
0.358035 5.64184 -1.1453
0.349035 5.64684 -1.1453
0.331035 5.64384 -1.1453
0.314035 5.65084 -1.1463
0.296035 5.65384 -1.1463
0.278035 5.65684 -1.1473
0.261035 5.65984 -1.1473
0.243035 5.65784 -1.1473
0.234035 5.66084 -1.1473
0.216035 5.66684 -1.1493
0.198035 5.66184 -1.1473
0.181035 5.67384 -1.1503
0.163035 5.66284 -1.1473
0.145035 5.67484 -1.1503
0.128035 5.67384 -1.1493
0.110035 5.67384 -1.1493
0.101035 5.67584 -1.1503
0.0830347 5.68084 -1.1513
0.0650347 5.68284 -1.1513
0.0470347 5.68084 -1.1513
0.0300347 5.68884 -1.1523
0.0120347 5.69884 -1.1553
6.41804 4.83684 -1.7463
6.32604 4.84484 -1.7313
4.49303 5.10784 -1.4613
2.66403 5.33984 -1.2673
2.60303 5.34284 -1.2623
2.49903 5.36284 -1.2553
2.44203 5.37184 -1.2523
2.39303 5.37484 -1.2483
6.53503 4.82884 -1.8343
6.49903 4.81884 -1.8263
6.46903 4.82684 -1.8213
6.44103 4.83784 -1.8173
6.40603 4.84284 -1.8113
6.37204 4.84884 -1.8053
5.16103 5.00684 -1.6103
5.13603 5.01484 -1.6073
5.11103 5.02184 -1.6043
5.07604 5.01884 -1.5973
5.04703 5.02184 -1.5933
5.03903 5.02984 -1.5933
5.01303 5.03484 -1.5893
4.98003 5.03384 -1.5843
4.95803 5.04284 -1.5813
4.92903 5.04584 -1.5773
4.90003 5.04784 -1.5723
4.87204 5.04984 -1.5683
4.82503 5.04984 -1.5603
4.80403 5.05884 -1.5583
4.77903 5.06384 -1.5553
4.75603 5.07184 -1.5533
4.72503 5.07084 -1.5483
4.70003 5.07584 -1.5443
4.67803 5.06784 -1.5393
4.66203 5.08284 -1.5393
4.62903 5.07884 -1.5333
4.61003 5.08984 -1.5323
4.44403 5.11284 -1.5103
4.40403 5.10084 -1.5013
4.38003 5.10384 -1.4983
4.36203 5.11684 -1.4983
4.33603 5.11784 -1.4943
4.31803 5.11284 -1.4903
4.29203 5.11484 -1.4863
4.27203 5.12384 -1.4853
4.24303 5.12184 -1.4803
4.22303 5.13084 -1.4793
4.20003 5.13484 -1.4763
4.17503 5.13784 -1.4733
4.11503 5.14684 -1.4663
4.09203 5.14984 -1.4633
4.06903 5.15584 -1.4603
4.04103 5.15284 -1.4563
4.02203 5.16284 -1.4553
4.00203 5.15384 -1.4503
3.98503 5.16484 -1.4503
3.95903 5.16484 -1.4463
3.93503 5.16584 -1.4433
3.91003 5.16784 -1.4393
3.89203 5.17684 -1.4383
3.87203 5.18484 -1.4373
3.85403 5.17784 -1.4333
3.83103 5.18084 -1.4313
3.81403 5.19084 -1.4303
3.78603 5.18784 -1.4253
3.76703 5.19584 -1.4243
3.74003 5.19384 -1.4203
3.72103 5.20084 -1.4193
3.69503 5.19984 -1.4153
3.68303 5.19984 -1.4133
3.66503 5.20984 -1.4133
3.64003 5.20784 -1.4093
3.61703 5.20984 -1.4063
3.59903 5.21984 -1.4063
3.57703 5.22284 -1.4033
3.55603 5.22784 -1.4023
3.54303 5.22584 -1.3993
3.52103 5.22884 -1.3973
3.49903 5.23184 -1.3953
3.48103 5.24084 -1.3943
3.45703 5.24084 -1.3913
3.43803 5.24684 -1.3893
3.41603 5.24884 -1.3873
3.40403 5.24984 -1.3863
3.37703 5.24384 -1.3813
3.35703 5.24784 -1.3793
3.33303 5.24684 -1.3763
3.31603 5.25784 -1.3763
3.29403 5.25984 -1.3743
3.27103 5.25884 -1.3703
3.25703 5.25484 -1.3683
3.23903 5.26184 -1.3673
3.22203 5.27184 -1.3673
3.20103 5.27384 -1.3653
3.18003 5.27784 -1.3633
3.15903 5.28084 -1.3613
3.13703 5.28084 -1.3583
3.12903 5.28684 -1.3593
3.10203 5.27884 -1.3543
3.08303 5.28484 -1.3533
3.06403 5.28984 -1.3513
3.02603 5.30084 -1.3493
2.99803 5.29084 -1.3443
2.97103 5.30184 -1.3433
2.93303 5.31184 -1.3413
2.91003 5.30884 -1.3373
2.88903 5.30984 -1.3353
2.85803 5.31284 -1.3323
2.83803 5.31484 -1.3303
2.79903 5.32284 -1.3273
2.77703 5.32284 -1.3253
2.73803 5.32984 -1.3223
2.72803 5.33084 -1.3213
2.68803 5.33384 -1.3183
2.67303 5.34584 -1.3193
2.58403 5.35684 -1.3123
2.56503 5.36184 -1.3113
2.46703 5.37084 -1.3033
2.41803 5.37584 -1.2993
2.39603 5.37084 -1.2963
2.36003 5.38284 -1.2953
2.34003 5.38284 -1.2933
2.31503 5.39384 -1.2933
2.29503 5.39384 -1.2913
2.25703 5.39984 -1.2893
2.24003 5.40484 -1.2883
2.21003 5.40584 -1.2863
2.19103 5.40784 -1.2853
2.15403 5.41384 -1.2833
2.13503 5.41584 -1.2813
2.08003 5.42584 -1.2793
2.07103 5.42784 -1.2783
2.05203 5.42884 -1.2773
2.03103 5.42584 -1.2753
2.01403 5.43084 -1.2743
1.99703 5.43684 -1.2743
1.97903 5.44084 -1.2743
1.94903 5.43784 -1.2713
1.92703 5.43284 -1.2683
1.91203 5.44484 -1.2693
1.89303 5.44484 -1.2683
1.87403 5.44384 -1.2663
1.83703 5.44784 -1.2643
1.83103 5.45784 -1.2663
1.81203 5.45984 -1.2653
1.79503 5.46384 -1.2653
1.77603 5.46384 -1.2633
1.73803 5.46384 -1.2603
1.71903 5.46584 -1.2593
1.71203 5.47184 -1.2603
1.69503 5.47784 -1.2603
1.67603 5.47684 -1.2593
1.65703 5.47684 -1.2583
1.64003 5.48184 -1.2583
1.62103 5.48284 -1.2573
1.60203 5.48084 -1.2553
1.59403 5.48484 -1.2553
1.57503 5.48684 -1.2543
1.53703 5.48284 -1.2513
1.52003 5.48984 -1.2513
1.50403 5.49884 -1.2523
1.48403 5.49384 -1.2503
1.46703 5.49884 -1.2503
1.46003 5.50484 -1.2513
1.43903 5.49584 -1.2483
1.42303 5.50784 -1.2503
1.40703 5.51384 -1.2503
1.38803 5.51484 -1.2493
1.37003 5.51584 -1.2483
1.36103 5.51784 -1.2483
1.34403 5.52184 -1.2483
1.32603 5.52384 -1.2483
1.29003 5.52684 -1.2463
1.27203 5.52684 -1.2453
1.25503 5.53484 -1.2463
1.23703 5.53284 -1.2453
1.22703 5.52884 -1.2443
1.21103 5.53884 -1.2453
1.19303 5.54084 -1.2443
1.17503 5.54084 -1.2443
1.15803 5.54584 -1.2443
1.14003 5.54784 -1.2443
1.11203 5.54584 -1.2423
1.09303 5.54284 -1.2403
1.07803 5.55784 -1.2433
1.06003 5.55784 -1.2423
1.04203 5.55884 -1.2423
1.02503 5.56184 -1.2423
1.00803 5.56684 -1.2423
0.980035 5.56584 -1.2413
0.961035 5.56184 -1.2393
0.945035 5.56884 -1.2403
0.927035 5.57284 -1.2403
0.891035 5.57284 -1.2393
0.883035 5.57484 -1.2393
0.831035 5.59084 -1.2413
0.812035 5.58384 -1.2383
0.777035 5.58884 -1.2383
0.734035 5.59784 -1.2393
0.699035 5.60684 -1.2403
0.663035 5.60484 -1.2393
0.646035 5.60884 -1.2393
0.637035 5.61384 -1.2403
0.619035 5.60984 -1.2393
0.585035 5.62184 -1.2413
0.505035 5.63084 -1.2413
0.488035 5.63284 -1.2413
0.470035 5.63784 -1.2423
0.435035 5.64084 -1.2423
0.355035 5.64884 -1.2433
0.320035 5.65284 -1.2433
0.240035 5.66584 -1.2453
0.125035 5.68184 -1.2483
0.0540347 5.68684 -1.2493
0.0270347 5.69484 -1.2513
0.879035 5.56584 -1.2963
0.827035 5.57784 -1.2973
0.730035 5.58684 -1.2963
0.537035 5.61084 -1.2963
0.440035 5.62484 -1.2983
0.0950347 5.67084 -1.3053
2.60003 5.33684 -1.4983
2.28503 5.38084 -1.4743
1.58803 5.47584 -1.4343
1.53603 5.48884 -1.4343
1.51703 5.48584 -1.4323
1.49803 5.48684 -1.4313
1.48003 5.48784 -1.4303
1.47003 5.48484 -1.4283
1.45203 5.48584 -1.4273
1.43503 5.49184 -1.4283
1.38203 5.49984 -1.4263
1.36503 5.50584 -1.4263
1.33903 5.51184 -1.4263
1.32003 5.51084 -1.4253
1.30203 5.51084 -1.4243
1.28503 5.51484 -1.4243
1.26603 5.51184 -1.4223
1.24003 5.51584 -1.4213
1.22203 5.51784 -1.4213
1.18703 5.52284 -1.4203
1.13503 5.53584 -1.4213
1.10803 5.53584 -1.4193
1.09003 5.53584 -1.4183
1.07303 5.54284 -1.4193
1.03903 5.55284 -1.4203
0.994035 5.55184 -1.4183
0.975035 5.55084 -1.4173
0.957035 5.54984 -1.4153
0.940035 5.55484 -1.4163
0.922035 5.55584 -1.4153
0.906035 5.56284 -1.4173
0.890035 5.57684 -1.4203
0.880035 5.56884 -1.4173
0.862035 5.56784 -1.4163
0.843035 5.56484 -1.4143
0.810035 5.58084 -1.4183
0.792035 5.57784 -1.4163
0.774035 5.58084 -1.4163
0.764035 5.57584 -1.4143
0.748035 5.58384 -1.4163
0.731035 5.58984 -1.4173
0.712035 5.58284 -1.4143
0.678035 5.59484 -1.4173
0.660035 5.59484 -1.4163
0.651035 5.59584 -1.4163
0.633035 5.59584 -1.4153
0.617035 5.60784 -1.4183
0.598035 5.59984 -1.4153
0.563035 5.60184 -1.4153
0.546035 5.61084 -1.4173
0.536035 5.60484 -1.4153
0.519035 5.61184 -1.4173
0.502035 5.61384 -1.4173
0.466035 5.61884 -1.4173
0.431035 5.62284 -1.4183
0.414035 5.63184 -1.4203
0.405035 5.63484 -1.4203
0.387035 5.62684 -1.4183
0.370035 5.62984 -1.4183
0.352035 5.63984 -1.4213
0.335035 5.63784 -1.4203
0.317035 5.64284 -1.4213
0.308035 5.64284 -1.4213
0.291035 5.64584 -1.4213
0.255035 5.64184 -1.4203
0.237035 5.64784 -1.4213
0.202035 5.65584 -1.4233
0.184035 5.65584 -1.4233
0.175035 5.65784 -1.4233
0.158035 5.65684 -1.4233
0.104035 5.66384 -1.4243
0.0690347 5.66584 -1.4253
0.0240347 5.67784 -1.4283
0.00603467 5.67484 -1.4273
10.164 -4.28316 0.573702
10.283 -4.29516 0.577702
10.793 -4.36816 0.594702
10.92 -4.37916 0.598702
11.053 -4.39216 0.602702
11.199 -4.40916 0.607702
11.33 -4.44016 0.612702
11.481 -4.45716 0.617702
11.636 -4.47516 0.622702
11.804 -4.49716 0.627702
11.952 -4.51016 0.632702
12.122 -4.53016 0.638702
12.44 -4.58216 0.648702
12.625 -4.60416 0.655702
12.79 -4.61916 0.660702
13.803 -4.76316 0.694702
14.009 -4.78516 0.701702
14.246 -4.81516 0.709702
15.485 -4.98916 0.750702
15.747 -5.01816 0.759702
16.026 -5.05116 0.768702
18.294 -5.35516 0.845702
20.161 -5.62416 0.908702
20.895 -5.72216 0.933702
21.391 -5.78516 0.949702
21.888 -5.84516 0.966702
22.419 -5.91116 0.984702
10.294 -4.30616 0.506702
10.427 -4.32416 0.510702
10.543 -4.33316 0.513702
10.919 -4.38916 0.523702
11.052 -4.40216 0.527702
11.194 -4.41816 0.530702
11.323 -4.42816 0.534702
11.476 -4.44716 0.538702
11.619 -4.48216 0.542702
11.777 -4.50116 0.546702
11.941 -4.52016 0.550702
12.091 -4.53416 0.554702
12.257 -4.55316 0.559702
12.775 -4.63316 0.573702
12.968 -4.65716 0.578702
13.149 -4.67616 0.583702
13.355 -4.70216 0.589702
13.566 -4.72916 0.594702
14.19 -4.82316 0.611702
14.407 -4.84716 0.617702
14.661 -4.88216 0.624702
14.902 -4.91016 0.631702
15.146 -4.93816 0.637702
15.932 -5.05816 0.659702
16.192 -5.08516 0.666702
16.496 -5.12416 0.674702
16.807 -5.16316 0.683702
17.152 -5.21116 0.692702
18.135 -5.35616 0.719702
18.52 -5.40716 0.730702
18.883 -5.44916 0.740702
19.27 -5.49616 0.750702
20.192 -5.62316 0.776702
20.665 -5.68516 0.789702
10.638 -4.35116 0.461702
11.17 -4.42516 0.473702
11.315 -4.44016 0.476702
11.45 -4.45216 0.479702
11.613 -4.47316 0.483702
11.922 -4.52716 0.490702
12.084 -4.54516 0.493702
12.256 -4.56516 0.497702
12.42 -4.58116 0.501702
12.593 -4.60016 0.505702
12.786 -4.62416 0.509702
12.972 -4.66816 0.513702
13.164 -4.69016 0.518702
13.358 -4.71216 0.522702
13.563 -4.73616 0.526702
13.771 -4.76016 0.531702
13.994 -4.78716 0.536702
14.432 -4.86016 0.546702
14.68 -4.89216 0.552702
14.922 -4.92016 0.557702
15.182 -4.95316 0.563702
15.447 -4.98516 0.569702
16.253 -5.10316 0.587702
16.548 -5.13916 0.594702
16.876 -5.18216 0.601702
17.231 -5.23116 0.609702
18.585 -5.41816 0.640702
18.966 -5.46316 0.649702
19.452 -5.53716 0.660702
20.323 -5.64616 0.680702
20.819 -5.71216 0.691702
21.286 -5.76816 0.702702
10.042 -4.27116 0.365702
10.526 -4.34216 0.372702
10.647 -4.35316 0.374702
10.77 -4.36416 0.375702
10.917 -4.38416 0.378702
11.035 -4.41216 0.379702
11.17 -4.42516 0.381702
11.314 -4.44216 0.384702
11.449 -4.45316 0.386702
11.61 -4.47516 0.388702
11.779 -4.49816 0.390702
11.935 -4.51516 0.393702
12.082 -4.54916 0.395702
12.25 -4.56916 0.398702
12.411 -4.58416 0.400702
12.584 -4.60416 0.403702
12.775 -4.62916 0.405702
13.346 -4.71916 0.414702
13.542 -4.74116 0.417702
13.746 -4.76416 0.420702
13.963 -4.79016 0.423702
14.88 -4.92516 0.437702
15.139 -4.95816 0.441702
15.4 -4.99016 0.445702
15.638 -5.01416 0.449702
16.777 -5.17816 0.466702
17.131 -5.22916 0.471702
17.441 -5.26416 0.476702
20.623 -5.70316 0.524702
21.087 -5.76016 0.531702
21.599 -5.82816 0.539702
22.135 -5.89916 0.547702
11.348 -4.45616 0.321702
12.282 -4.57816 0.331702
12.463 -4.60116 0.333702
13.407 -4.73316 0.342702
13.627 -4.76216 0.344702
13.829 -4.78316 0.346702
14.998 -4.94916 0.358702
15.262 -4.98316 0.361702
15.522 -5.01316 0.363702
16.64 -5.17116 0.374702
16.958 -5.21116 0.378702
17.885 -5.34116 0.387702
19.076 -5.50016 0.399702
20.451 -5.68616 0.413702
10.383 -4.32816 0.233702
10.511 -4.34316 0.234702
10.634 -4.35516 0.234702
11.032 -4.41816 0.235702
11.177 -4.43616 0.236702
11.31 -4.44816 0.236702
11.462 -4.46616 0.237702
11.614 -4.48416 0.237702
11.922 -4.53916 0.238702
12.086 -4.55916 0.239702
12.26 -4.58016 0.239702
12.426 -4.59816 0.240702
12.596 -4.61716 0.240702
12.785 -4.64116 0.241702
13.571 -4.76016 0.243702
13.786 -4.78716 0.244702
13.999 -4.81216 0.244702
14.219 -4.83816 0.245702
15.434 -5.01116 0.249702
15.67 -5.03416 0.250702
15.936 -5.06516 0.251702
18.221 -5.38816 0.258702
11.687 -4.50916 0.178702
12.493 -4.61716 0.177702
12.665 -4.63516 0.177702
12.856 -4.65916 0.176702
13.655 -4.77816 0.175702
13.866 -4.80216 0.175702
14.103 -4.83416 0.174702
14.308 -4.85416 0.174702
15.018 -4.96216 0.173702
15.284 -4.99716 0.173702
15.534 -5.02416 0.172702
15.786 -5.05016 0.172702
16.318 -5.13516 0.171702
16.649 -5.18116 0.170702
16.969 -5.22216 0.170702
17.351 -5.27916 0.169702
19.044 -5.49916 0.167702
20.435 -5.69116 0.165702
20.912 -5.75216 0.164702
21.397 -5.81316 0.163702
10.028 -4.27616 0.111702
10.136 -4.30416 0.110702
10.256 -4.31716 0.109702
10.386 -4.33416 0.108702
10.503 -4.34416 0.107702
10.633 -4.35916 0.106702
10.76 -4.37216 0.105702
11.023 -4.41916 0.103702
11.169 -4.43716 0.102702
11.315 -4.45516 0.101702
11.451 -4.46716 0.100702
11.609 -4.48716 0.0997017
11.776 -4.50916 0.0987017
12.083 -4.56316 0.0957017
12.249 -4.58216 0.0947017
12.411 -4.59816 0.0937017
12.784 -4.64616 0.0907017
13.347 -4.73416 0.0857017
13.564 -4.76316 0.0847017
13.762 -4.78416 0.0827017
13.989 -4.81416 0.0807017
14.904 -4.94816 0.0737017
15.138 -4.97416 0.0717017
15.41 -5.01016 0.0697017
16.793 -5.20116 0.0587017
17.142 -5.25016 0.0567017
17.468 -5.29116 0.0537017
18.16 -5.37716 0.0487017
19.203 -5.52416 0.0397017
20.142 -5.65816 0.0327017
20.62 -5.72316 0.0287017
21.093 -5.78416 0.0257017
21.58 -5.84516 0.0217017
22.114 -5.91616 0.0167017
9.99003 -4.27816 0.0447017
10.099 -4.28716 0.0437017
10.474 -4.34916 0.0387017
10.604 -4.36416 0.0367017
10.739 -4.37916 0.0347017
10.856 -4.38716 0.0327017
11.135 -4.43816 0.0297017
11.278 -4.45416 0.0277017
11.428 -4.47116 0.0257017
11.595 -4.49416 0.0227017
11.751 -4.51216 0.0207017
11.907 -4.52916 0.0187017
12.219 -4.58116 0.0147017
12.394 -4.60216 0.0117017
12.576 -4.62416 0.00970165
12.76 -4.64616 0.00670165
13.552 -4.76516 -0.00429835
13.769 -4.79216 -0.00729835
13.984 -4.81716 -0.0102983
15.182 -4.98916 -0.0262983
15.415 -5.01116 -0.0302983
16.335 -5.13916 -0.0422983
17.205 -5.26316 -0.0552983
21.257 -5.80916 -0.111298
10.152 -4.31116 -0.0342983
10.276 -4.32616 -0.0372983
10.398 -4.33916 -0.0392983
10.772 -4.39716 -0.0472983
10.896 -4.40816 -0.0492983
11.047 -4.42916 -0.0522983
11.19 -4.44616 -0.0552983
11.321 -4.45716 -0.0582983
11.783 -4.53416 -0.0682983
11.937 -4.55016 -0.0712983
12.101 -4.57016 -0.0742983
12.261 -4.58616 -0.0772983
12.435 -4.60716 -0.0812983
12.772 -4.66416 -0.0882983
12.976 -4.69316 -0.0922983
13.17 -4.71716 -0.0962983
13.363 -4.73916 -0.100298
13.57 -4.76516 -0.104298
13.785 -4.79316 -0.109298
14.193 -4.86016 -0.117298
14.43 -4.89116 -0.122298
14.658 -4.91716 -0.127298
14.908 -4.95016 -0.132298
15.163 -4.98216 -0.138298
15.627 -5.05416 -0.147298
15.898 -5.08716 -0.153298
17.144 -5.25116 -0.179298
18.148 -5.40516 -0.200298
18.502 -5.44716 -0.207298
18.863 -5.49016 -0.215298
13.187 -4.73116 -0.169298
14.452 -4.90316 -0.201298
14.952 -4.96716 -0.214298
15.956 -5.10416 -0.240298
16.927 -5.23816 -0.265298
17.422 -5.30116 -0.278298
18.626 -5.47416 -0.310298
19.001 -5.51916 -0.319298
19.395 -5.56716 -0.329298
9.98803 -4.29616 -0.152298
10.118 -4.31416 -0.156298
10.242 -4.32916 -0.160298
10.367 -4.34416 -0.163298
10.875 -4.41816 -0.179298
11.011 -4.43416 -0.184298
11.146 -4.44816 -0.188298
11.299 -4.46816 -0.193298
11.736 -4.53616 -0.206298
11.902 -4.55716 -0.212298
12.067 -4.57716 -0.217298
12.235 -4.59716 -0.222298
12.408 -4.61816 -0.227298
13.347 -4.75616 -0.257298
13.549 -4.78016 -0.263298
13.752 -4.80416 -0.270298
14.635 -4.93416 -0.298298
14.867 -4.96116 -0.305298
15.102 -4.98716 -0.313298
15.361 -5.01916 -0.321298
15.843 -5.09516 -0.336298
16.112 -5.12616 -0.345298
17.084 -5.26016 -0.376298
17.404 -5.30016 -0.386298
18.825 -5.50916 -0.431298
19.197 -5.55316 -0.443298
19.643 -5.61616 -0.458298
20.064 -5.66916 -0.471298
22.388 -5.98816 -0.545298
11.47 -4.50416 -0.279298
12.438 -4.63616 -0.316298
12.618 -4.65716 -0.323298
13.812 -4.82616 -0.368298
14.029 -4.85216 -0.376298
15.19 -5.01316 -0.421298
15.459 -5.04716 -0.431298
15.71 -5.07416 -0.440298
16.216 -5.15216 -0.460298
17.214 -5.29016 -0.498298
19.395 -5.59216 -0.582298
19.826 -5.64816 -0.599298
20.255 -5.70116 -0.615298
20.72 -5.76116 -0.633298
12.94 -4.71016 -0.417298
14.36 -4.90016 -0.479298
15.826 -5.10016 -0.544298
16.093 -5.13116 -0.556298
18.425 -5.46616 -0.659298
10.814 -4.42016 -0.391298
11.679 -4.53816 -0.434298
11.842 -4.55816 -0.442298
12.884 -4.70316 -0.493298
13.063 -4.72116 -0.502298
13.865 -4.83816 -0.542298
14.08 -4.86316 -0.553298
14.301 -4.88916 -0.564298
14.55 -4.92216 -0.576298
15.551 -5.06916 -0.626298
15.786 -5.09116 -0.637298
16.068 -5.12616 -0.651298
17.676 -5.36216 -0.732298
18.428 -5.46316 -0.770298
18.802 -5.50916 -0.788298
20.475 -5.75316 -0.872298
20.927 -5.80916 -0.895298
10.189 -4.33316 -0.431298
10.959 -4.44116 -0.474298
11.119 -4.46616 -0.483298
11.516 -4.52116 -0.505298
11.825 -4.55816 -0.522298
12.009 -4.58616 -0.532298
12.164 -4.60116 -0.540298
12.864 -4.70616 -0.580298
13.068 -4.73516 -0.591298
13.24 -4.75116 -0.600298
13.455 -4.78116 -0.612298
14.05 -4.86916 -0.646298
14.29 -4.90316 -0.659298
14.509 -4.92716 -0.671298
14.761 -4.96216 -0.686298
15.008 -4.99316 -0.699298
15.473 -5.06716 -0.726298
15.739 -5.10016 -0.741298
16.006 -5.13216 -0.755298
16.609 -5.21116 -0.789298
17.141 -5.29016 -0.819298
18.686 -5.51316 -0.907298
19.052 -5.55716 -0.927298
19.461 -5.61016 -0.950298
19.883 -5.66516 -0.974298
21.164 -5.85216 -1.0473
11.456 -4.51416 -0.567298
12.604 -4.66916 -0.637298
13.356 -4.77916 -0.683298
13.565 -4.80616 -0.696298
13.774 -4.83116 -0.708298
14.001 -4.86016 -0.722298
14.926 -4.99716 -0.779298
15.169 -5.02516 -0.794298
15.432 -5.05816 -0.810298
15.672 -5.08116 -0.824298
16.196 -5.16616 -0.857298
16.507 -5.20816 -0.876298
16.817 -5.24716 -0.895298
17.181 -5.30116 -0.918298
17.547 -5.35316 -0.940298
17.946 -5.41316 -0.965298
18.946 -5.55116 -1.0273
19.315 -5.59316 -1.0493
10.489 -4.38416 -0.588298
10.618 -4.39916 -0.597298
10.745 -4.41216 -0.605298
11.291 -4.49416 -0.642298
11.449 -4.51516 -0.653298
11.601 -4.53416 -0.663298
11.747 -4.54816 -0.673298
12.407 -4.64916 -0.717298
12.593 -4.67416 -0.730298
12.78 -4.69816 -0.743298
12.947 -4.71416 -0.754298
13.521 -4.80416 -0.793298
13.718 -4.82616 -0.806298
13.952 -4.86016 -0.822298
14.152 -4.88016 -0.836298
14.382 -4.90916 -0.851298
15.079 -5.01616 -0.899298
15.335 -5.04816 -0.917298
15.569 -5.07216 -0.932298
16.331 -5.18016 -0.985298
14.431 -4.93516 -0.930298
14.643 -4.95616 -0.946298
15.06 -5.01716 -0.976298
9.84803 -4.30216 -0.669298
9.96903 -4.31816 -0.678298
10.088 -4.33216 -0.688298
10.214 -4.34816 -0.697298
10.857 -4.44316 -0.748298
10.994 -4.46016 -0.759298
11.154 -4.48416 -0.771298
11.889 -4.58716 -0.829298
12.049 -4.60616 -0.842298
12.203 -4.62116 -0.854298
12.708 -4.70016 -0.894298
12.872 -4.71516 -0.907298
9.90203 -4.31316 -0.735298
10.025 -4.32916 -0.746298
10.134 -4.33816 -0.755298
10.289 -4.36516 -0.768298
10.933 -4.45616 -0.822298
11.233 -4.49516 -0.847298
11.599 -4.53616 -0.878298
9.77603 -4.29416 -0.788298
9.89503 -4.31016 -0.799298
10.011 -4.32316 -0.809298
10.145 -4.34416 -0.821298
10.274 -4.36116 -0.833298
10.389 -4.37116 -0.843298
10.612 -4.40716 -0.863298
8.78603 -4.16316 -1.0523
8.18303 -4.08616 -1.0433
7.51803 -3.99616 -1.0153
7.57303 -3.99416 -1.0223
7.16003 -3.94416 -1.0043
8.03003 -4.06516 -1.1243
8.11003 -4.07316 -1.1353
8.62203 -4.14416 -1.2073
7.19803 -3.95116 -1.0683
7.27003 -3.96116 -1.0793
7.35803 -3.98016 -1.0923
7.41303 -3.97916 -1.0993
7.48103 -3.98616 -1.1093
7.63303 -4.00616 -1.1313
7.69903 -4.02516 -1.1413
7.77503 -4.03416 -1.1523
8.01103 -4.06216 -1.1863
8.25003 -4.10316 -1.2223
8.32103 -4.10616 -1.2323
8.41403 -4.11916 -1.2463
8.85703 -4.18316 -1.3113
8.97503 -4.20516 -1.3293
5.62403 -3.72916 -1.0213
6.14703 -3.80516 -1.1023
6.52703 -3.85916 -1.1613
5.00003 -3.64516 -0.981298
5.04503 -3.65416 -0.988298
5.10303 -3.67116 -0.998298
5.12803 -3.66416 -1.0013
5.15803 -3.67316 -1.0073
5.19503 -3.67516 -1.0123
5.44203 -3.70916 -1.0523
5.49603 -3.72116 -1.0613
5.53703 -3.72316 -1.0673
5.76503 -3.75816 -1.1043
5.85503 -3.76416 -1.1183
4.84703 -3.62616 -1.0023
4.88203 -3.62916 -1.0073
4.99803 -3.64316 -1.0263
5.03403 -3.65716 -1.0333
5.07403 -3.66216 -1.0403
5.10204 -3.65816 -1.0433
5.14303 -3.66416 -1.0503
5.27703 -3.68516 -1.0733
5.38903 -3.70116 -1.0913
5.60003 -3.73216 -1.1273
5.92903 -3.77916 -1.1833
6.09003 -3.80316 -1.2103
6.14603 -3.81116 -1.2203
6.29603 -3.83616 -1.2463
6.35204 -3.84316 -1.2553
6.39903 -3.84516 -1.2633
4.41503 -3.57716 -0.984298
4.45203 -3.58416 -0.990298
4.54503 -3.60016 -1.0063
4.57403 -3.59916 -1.0103
4.64903 -3.61116 -1.0233
4.68804 -3.61816 -1.0303
4.74303 -3.62416 -1.0393
4.78103 -3.62916 -1.0463
4.82703 -3.64016 -1.0543
4.86503 -3.64516 -1.0613
4.90403 -3.64916 -1.0673
4.94203 -3.65316 -1.0733
5.00803 -3.66616 -1.0853
5.04703 -3.67016 -1.0923
5.07803 -3.66716 -1.0963
5.12303 -3.67516 -1.1043
5.17303 -3.68616 -1.1133
5.21203 -3.68916 -1.1203
5.24003 -3.69716 -1.1253
5.28403 -3.70316 -1.1333
5.32604 -3.70716 -1.1403
5.37503 -3.71616 -1.1493
5.41903 -3.72116 -1.1563
5.45803 -3.72316 -1.1633
5.49903 -3.72616 -1.1703
5.57703 -3.74016 -1.1843
5.64003 -3.75616 -1.1953
5.68403 -3.76016 -1.2033
5.73404 -3.76616 -1.2123
5.77603 -3.76816 -1.2193
5.83003 -3.77716 -1.2293
5.86303 -3.78516 -1.2353
5.91403 -3.79216 -1.2443
5.97403 -3.80316 -1.2553
6.01503 -3.80216 -1.2613
6.07003 -3.81116 -1.2713
6.12903 -3.82016 -1.2823
6.17703 -3.82416 -1.2903
6.21503 -3.83316 -1.2973
6.27703 -3.84416 -1.3093
6.33503 -3.85216 -1.3193
6.38403 -3.85416 -1.3273
6.45503 -3.86916 -1.3413
6.49603 -3.86616 -1.3473
6.54903 -3.87016 -1.3563
6.60204 -3.88716 -1.3673
6.65203 -3.88816 -1.3753
6.72203 -3.90016 -1.3883
6.79003 -3.91116 -1.4013
6.92103 -3.92816 -1.4243
7.51704 -4.01816 -1.5343
3.32503 -3.41216 -0.862298
3.89303 -3.49216 -0.958298
3.92703 -3.50116 -0.964298
3.94903 -3.49816 -0.967298
3.96903 -3.50516 -0.971298
4.00903 -3.51816 -0.979298
4.03303 -3.51716 -0.982298
4.06304 -3.52116 -0.988298
4.09803 -3.52916 -0.994298
4.12603 -3.53016 -0.999298
4.15403 -3.53316 -1.0033
4.18503 -3.54816 -1.0103
4.21303 -3.54916 -1.0153
4.24503 -3.55316 -1.0203
4.27603 -3.55616 -1.0263
4.31403 -3.56516 -1.0333
4.33603 -3.56016 -1.0363
4.36603 -3.56316 -1.0413
4.39603 -3.57616 -1.0473
4.42303 -3.57516 -1.0513
4.44903 -3.57316 -1.0553
4.51704 -3.58216 -1.0673
4.55604 -3.58916 -1.0753
4.61403 -3.60116 -1.0853
4.66003 -3.61316 -1.0943
4.69003 -3.61216 -1.0993
4.72603 -3.61716 -1.1063
4.77403 -3.63116 -1.1153
4.80003 -3.62616 -1.1193
4.84203 -3.63516 -1.1273
4.86803 -3.64316 -1.1323
4.89403 -3.63816 -1.1363
4.93503 -3.64516 -1.1433
4.97303 -3.64916 -1.1503
5.01004 -3.65216 -1.1573
5.11503 -3.66816 -1.1763
5.19803 -3.67916 -1.1913
5.33103 -3.69816 -1.2163
5.37803 -3.70616 -1.2253
5.40903 -3.71516 -1.2313
5.46603 -3.72916 -1.2423
5.49103 -3.72116 -1.2453
5.54103 -3.73016 -1.2553
5.59403 -3.74016 -1.2653
5.71803 -3.75916 -1.2883
6.10303 -3.81116 -1.3613
3.30303 -3.41916 -0.905298
3.32503 -3.42016 -0.908298
3.34803 -3.42216 -0.912298
3.37303 -3.42616 -0.916298
3.38903 -3.43116 -0.920298
3.42103 -3.44116 -0.926298
3.44103 -3.44016 -0.929298
3.47303 -3.45016 -0.935298
3.52503 -3.45816 -0.944298
3.85503 -3.50516 -1.0033
3.91203 -3.51116 -1.0133
4.01803 -3.52716 -1.0323
4.05003 -3.53216 -1.0383
4.41203 -3.58516 -1.1053
4.44603 -3.59016 -1.1113
4.51004 -3.59516 -1.1223
4.55203 -3.60516 -1.1313
4.64403 -3.61816 -1.1483
4.72403 -3.63216 -1.1643
4.75603 -3.63316 -1.1693
4.93603 -3.66016 -1.2033
4.97203 -3.66316 -1.2103
5.01203 -3.66816 -1.2183
5.03703 -3.66116 -1.2213
5.07103 -3.67416 -1.2293
5.11603 -3.68216 -1.2373
5.14803 -3.68116 -1.2433
5.19803 -3.69116 -1.2533
5.23503 -3.69316 -1.2603
5.27603 -3.69716 -1.2673
5.32103 -3.70316 -1.2763
5.40603 -3.72516 -1.2943
5.45503 -3.73316 -1.3033
5.50103 -3.73916 -1.3123
5.53903 -3.73916 -1.3193
5.58303 -3.74316 -1.3273
5.63903 -3.75416 -1.3393
5.66403 -3.75816 -1.3443
5.72704 -3.77416 -1.3573
5.77603 -3.78016 -1.3663
5.81803 -3.78116 -1.3743
5.85103 -3.77716 -1.3793
5.91103 -3.78916 -1.3913
6.05503 -3.81416 -1.4203
6.09803 -3.81416 -1.4283
6.15403 -3.82216 -1.4393
3.10603 -3.39816 -0.911298
4.64803 -3.62216 -1.1983
4.89703 -3.65916 -1.2473
5.07903 -3.68516 -1.2833
5.11703 -3.68816 -1.2903
5.16003 -3.69516 -1.2993
5.20203 -3.70016 -1.3073
5.35703 -3.72416 -1.3393
5.40603 -3.73316 -1.3493
5.43703 -3.72916 -1.3543
5.47303 -3.72816 -1.3603
5.52003 -3.74816 -1.3723
5.56603 -3.75416 -1.3813
5.61303 -3.76116 -1.3903
5.70803 -3.77316 -1.4103
5.74803 -3.77316 -1.4173
5.81003 -3.78816 -1.4303
5.83103 -3.78916 -1.4343
5.88703 -3.79916 -1.4463
5.93503 -3.80416 -1.4563
2.00003 -3.24316 -0.768298
2.01503 -3.24316 -0.769298
2.03403 -3.24016 -0.771298
2.12903 -3.25416 -0.786298
2.14203 -3.26216 -0.789298
2.22503 -3.27416 -0.802298
2.24003 -3.27316 -0.804298
2.31903 -3.28716 -0.817298
2.41203 -3.29716 -0.831298
2.43403 -3.30516 -0.836298
2.44503 -3.29716 -0.836298
2.48903 -3.30316 -0.843298
2.50303 -3.30016 -0.844298
2.52003 -3.29916 -0.847298
2.70503 -3.33016 -0.879298
2.71203 -3.32816 -0.880298
2.75203 -3.33416 -0.886298
2.84303 -3.34616 -0.902298
2.92103 -3.37216 -0.918298
2.98503 -3.38116 -0.930298
3.08403 -3.39416 -0.947298
3.10703 -3.39716 -0.951298
3.13103 -3.40216 -0.956298
3.14003 -3.40116 -0.957298
3.15703 -3.39816 -0.959298
3.19203 -3.41416 -0.968298
3.19903 -3.39916 -0.966298
3.22503 -3.40616 -0.972298
3.28503 -3.42516 -0.984298
3.30003 -3.43016 -0.987298
3.32803 -3.41616 -0.990298
3.36703 -3.43416 -0.999298
3.39303 -3.43916 -1.0043
3.40803 -3.43216 -1.0053
3.44003 -3.44216 -1.0123
3.48203 -3.45216 -1.0213
3.51103 -3.45916 -1.0273
3.53603 -3.46116 -1.0313
3.55603 -3.45816 -1.0343
3.58003 -3.46016 -1.0383
3.61303 -3.46916 -1.0453
3.62503 -3.47016 -1.0473
3.65003 -3.47216 -1.0523
3.67503 -3.47416 -1.0563
3.69603 -3.47216 -1.0603
3.73003 -3.48116 -1.0673
3.79603 -3.49916 -1.0813
3.86103 -3.50316 -1.0933
3.89003 -3.50616 -1.0983
3.92103 -3.51216 -1.1043
3.93703 -3.50316 -1.1063
3.97103 -3.51116 -1.1133
4.00403 -3.53016 -1.1213
4.01603 -3.51716 -1.1213
4.05003 -3.52516 -1.1293
4.09803 -3.54416 -1.1403
4.11703 -3.53716 -1.1423
4.14703 -3.54016 -1.1483
4.18503 -3.55016 -1.1563
4.19403 -3.54616 -1.1573
4.22704 -3.55116 -1.1643
4.26704 -3.56216 -1.1723
4.29003 -3.55816 -1.1763
4.32803 -3.56716 -1.1843
4.36703 -3.57516 -1.1923
4.40203 -3.58116 -1.2003
4.41303 -3.57816 -1.2013
4.45603 -3.59016 -1.2103
4.51503 -3.59016 -1.2213
4.55403 -3.59816 -1.2293
4.62003 -3.60316 -1.2423
4.65803 -3.62016 -1.2513
4.67803 -3.61316 -1.2543
4.73003 -3.62916 -1.2663
4.76503 -3.63116 -1.2733
4.79603 -3.63216 -1.2793
4.83303 -3.63516 -1.2863
4.87403 -3.64216 -1.2943
4.89503 -3.64616 -1.2993
4.94003 -3.65516 -1.3083
4.97903 -3.66016 -1.3163
5.01303 -3.66016 -1.3233
5.17103 -3.68816 -1.3563
4.50203 -3.60716 -1.2693
4.53703 -3.61216 -1.2763
4.66303 -3.63016 -1.3023
4.69503 -3.63216 -1.3093
4.73603 -3.64016 -1.3183
4.77203 -3.64416 -1.3253
4.87204 -3.66016 -1.3473
4.90803 -3.66416 -1.3543
5.02503 -3.67816 -1.3793
5.08503 -3.68616 -1.3913
5.13003 -3.69416 -1.4013
5.30103 -3.71816 -1.4383
1.99503 -3.24516 -0.839298
2.00003 -3.23016 -0.836298
2.02203 -3.24416 -0.842298
2.03503 -3.24116 -0.843298
2.05803 -3.25516 -0.850298
2.06703 -3.24616 -0.849298
2.09303 -3.25416 -0.854298
2.13103 -3.26616 -0.862298
2.13503 -3.25016 -0.859298
2.15903 -3.26416 -0.865298
2.17103 -3.26116 -0.866298
2.18303 -3.26716 -0.869298
2.20403 -3.27616 -0.874298
2.21703 -3.27216 -0.875298
2.23003 -3.27016 -0.876298
2.25103 -3.27716 -0.881298
2.26503 -3.27716 -0.883298
2.27803 -3.28416 -0.886298
2.29603 -3.28816 -0.889298
2.36303 -3.29416 -0.900298
2.40903 -3.30316 -0.909298
2.46603 -3.31416 -0.919298
2.47603 -3.30616 -0.919298
2.50103 -3.31716 -0.925298
2.51803 -3.31916 -0.928298
2.56303 -3.32316 -0.936298
2.59403 -3.31916 -0.940298
2.61803 -3.32816 -0.945298
2.63103 -3.32216 -0.946298
2.72303 -3.34016 -0.964298
2.74303 -3.34416 -0.968298
2.80103 -3.35916 -0.980298
2.81603 -3.35616 -0.982298
2.83103 -3.35216 -0.983298
2.85503 -3.35916 -0.989298
2.87103 -3.35616 -0.991298
2.90203 -3.36016 -0.997298
2.94303 -3.36516 -1.0043
2.97203 -3.37616 -1.0113
2.98803 -3.37216 -1.0133
3.03103 -3.37816 -1.0213
3.04903 -3.38716 -1.0263
3.06803 -3.38616 -1.0293
3.11403 -3.39416 -1.0383
3.15503 -3.39616 -1.0463
3.20603 -3.41716 -1.0583
3.24503 -3.41516 -1.0653
3.31503 -3.42316 -1.0783
3.39403 -3.44916 -1.0973
3.42103 -3.43416 -1.0993
3.44803 -3.43916 -1.1043
3.54603 -3.45916 -1.1253
3.61303 -3.47916 -1.1413
3.86103 -3.50116 -1.1903
3.91203 -3.51416 -1.2013
3.97303 -3.52416 -1.2153
4.05203 -3.52516 -1.2303
4.07604 -3.53516 -1.2363
4.11403 -3.54516 -1.2453
4.17303 -3.55116 -1.2573
4.22803 -3.55216 -1.2673
4.27403 -3.56716 -1.2793
4.31803 -3.56916 -1.2873
4.34903 -3.57116 -1.2943
4.50503 -3.59316 -1.3283
4.66103 -3.62216 -1.3633
4.73003 -3.62816 -1.3773
4.74803 -3.62916 -1.3813
4.78903 -3.63716 -1.3903
2.00203 -3.24516 -0.879298
2.01603 -3.24516 -0.881298
2.02903 -3.24416 -0.883298
2.03803 -3.24616 -0.884298
2.05903 -3.25716 -0.890298
2.07403 -3.25916 -0.892298
2.09003 -3.26116 -0.895298
2.11703 -3.25916 -0.898298
2.13603 -3.26516 -0.902298
2.16103 -3.27016 -0.907298
2.19403 -3.27516 -0.913298
2.20503 -3.26816 -0.913298
2.22403 -3.27616 -0.917298
2.24203 -3.28016 -0.921298
2.25203 -3.27216 -0.920298
2.26603 -3.28216 -0.925298
2.28603 -3.28816 -0.929298
2.30003 -3.28716 -0.931298
2.31803 -3.29116 -0.935298
2.33603 -3.29516 -0.938298
2.35003 -3.29216 -0.940298
2.36703 -3.29416 -0.943298
2.39203 -3.29616 -0.947298
2.40903 -3.29816 -0.950298
2.43303 -3.30916 -0.956298
2.44403 -3.30316 -0.956298
2.46303 -3.30616 -0.960298
2.48303 -3.31216 -0.964298
2.48603 -3.30516 -0.963298
2.50703 -3.31116 -0.968298
2.52903 -3.31916 -0.973298
2.54303 -3.31616 -0.974298
2.56603 -3.32516 -0.980298
2.58603 -3.32916 -0.984298
2.59803 -3.32216 -0.984298
2.60903 -3.32616 -0.987298
2.63003 -3.33116 -0.992298
2.64103 -3.32316 -0.992298
2.68503 -3.33716 -1.0023
2.70303 -3.33716 -1.0053
2.74203 -3.35316 -1.0143
2.75403 -3.34616 -1.0153
2.77403 -3.34916 -1.0193
2.79203 -3.35016 -1.0223
2.82803 -3.35016 -1.0283
2.85103 -3.35616 -1.0333
2.85703 -3.35316 -1.0333
2.87903 -3.35716 -1.0383
2.91003 -3.37116 -1.0463
2.96703 -3.37316 -1.0563
3.02103 -3.38216 -1.0673
3.08703 -3.39016 -1.0803
3.13003 -3.39516 -1.0893
3.15503 -3.41216 -1.0963
3.16803 -3.40516 -1.0973
3.19503 -3.41216 -1.1033
3.22103 -3.41916 -1.1093
3.23503 -3.41116 -1.1103
3.25503 -3.41116 -1.1143
3.28103 -3.41816 -1.1203
3.29203 -3.41816 -1.1223
3.35003 -3.43516 -1.1363
3.36603 -3.43016 -1.1383
3.42103 -3.44316 -1.1503
3.46103 -3.45016 -1.1593
3.47703 -3.44516 -1.1613
3.50203 -3.44816 -1.1663
3.53303 -3.45716 -1.1733
3.56203 -3.46416 -1.1803
3.58203 -3.46216 -1.1843
3.61103 -3.46816 -1.1903
3.62503 -3.47116 -1.1933
3.65703 -3.47916 -1.2013
3.67803 -3.47716 -1.2043
3.78303 -3.48916 -1.2263
3.80203 -3.49516 -1.2313
3.82703 -3.49616 -1.2363
3.88303 -3.50316 -1.2483
3.91303 -3.50816 -1.2553
3.99103 -3.52216 -1.2723
4.01903 -3.52516 -1.2783
4.19603 -3.55416 -1.3183
4.22403 -3.55616 -1.3243
4.27003 -3.57116 -1.3363
4.32604 -3.57316 -1.3473
4.36303 -3.58016 -1.3563
4.39003 -3.58016 -1.3623
4.41403 -3.58816 -1.3683
4.44903 -3.59416 -1.3763
4.48003 -3.59616 -1.3823
2.75703 -3.36016 -1.0673
2.77003 -3.35516 -1.0683
2.79503 -3.36416 -1.0743
2.82403 -3.36516 -1.0793
2.84203 -3.36516 -1.0823
2.85203 -3.35616 -1.0823
2.88803 -3.37616 -1.0933
2.92103 -3.37116 -1.0973
2.94403 -3.37716 -1.1033
2.94703 -3.36916 -1.1023
2.98203 -3.38716 -1.1123
3.00803 -3.39516 -1.1183
3.01603 -3.38316 -1.1173
3.04903 -3.39816 -1.1263
3.06603 -3.39516 -1.1283
3.09603 -3.40716 -1.1363
3.18003 -3.42216 -1.1553
3.25203 -3.43316 -1.1703
3.31203 -3.44216 -1.1833
3.33503 -3.44416 -1.1883
3.35003 -3.43816 -1.1903
3.37403 -3.44116 -1.1953
3.41803 -3.45216 -1.2053
3.43603 -3.44916 -1.2083
3.49603 -3.46516 -1.2233
3.51903 -3.46616 -1.2273
3.54703 -3.47116 -1.2343
3.55703 -3.46016 -1.2343
3.58703 -3.47716 -1.2433
3.60603 -3.47416 -1.2463
3.63603 -3.48116 -1.2533
3.66103 -3.48316 -1.2583
3.73603 -3.48716 -1.2743
3.76003 -3.49816 -1.2813
3.79403 -3.50716 -1.2893
3.82103 -3.51016 -1.2953
3.84603 -3.51116 -1.3003
3.89803 -3.51316 -1.3113
3.93403 -3.52316 -1.3203
3.95703 -3.53216 -1.3263
3.98803 -3.53716 -1.3343
4.01503 -3.53916 -1.3403
4.04403 -3.54116 -1.3463
4.06203 -3.53516 -1.3483
4.10403 -3.54916 -1.3593
4.12603 -3.54416 -1.3633
4.33103 -3.59116 -1.4143
2.00903 -3.23716 -0.954298
2.02303 -3.23716 -0.957298
2.03903 -3.24016 -0.960298
2.06003 -3.25016 -0.965298
2.07703 -3.24416 -0.966298
2.10003 -3.25716 -0.973298
2.11303 -3.25516 -0.974298
2.17403 -3.25916 -0.985298
2.29503 -3.28316 -1.0103
2.31103 -3.28416 -1.0123
2.33103 -3.29116 -1.0173
2.36303 -3.29216 -1.0223
2.40203 -3.29216 -1.0293
2.47903 -3.31016 -1.0463
2.52303 -3.31516 -1.0543
2.63403 -3.32916 -1.0763
3.10603 -3.39416 -1.1763
3.34003 -3.42816 -1.2283
3.36703 -3.43416 -1.2353
3.41603 -3.44216 -1.2463
2.01103 -3.24216 -0.994298
2.24403 -3.27316 -1.0383
2.29403 -3.27916 -1.0483
2.37203 -3.28916 -1.0643
2.03303 -3.26016 -1.0293
