4.48718 -1.55803 -1.74364
4.50118 -1.54703 -1.74664
4.49918 -1.53003 -1.74364
4.52518 -1.52303 -1.75264
4.50418 -1.50803 -1.74364
4.50918 -1.49403 -1.74364
4.52418 -1.48403 -1.74764
4.52518 -1.46803 -1.74664
4.52418 -1.45203 -1.74364
4.55218 -1.44503 -1.75364
4.54918 -1.42903 -1.75064
4.54818 -1.42103 -1.74964
4.55618 -1.40703 -1.75064
4.54518 -1.38803 -1.74364
4.54318 -1.37203 -1.74164
4.55318 -1.36003 -1.74364
4.54518 -1.34203 -1.73864
4.56018 -1.33003 -1.74364
4.56218 -1.32303 -1.74364
4.57718 -1.29703 -1.74664
4.57618 -1.28103 -1.74364
4.57818 -1.26603 -1.74364
4.58018 -1.25103 -1.74264
4.59518 -1.23903 -1.74664
4.59918 -1.22503 -1.74664
4.60618 -1.20403 -1.74764
4.60718 -1.18803 -1.74664
4.60318 -1.17203 -1.74364
4.61918 -1.16103 -1.74864
4.61418 -1.14403 -1.74464
4.62818 -1.14003 -1.74964
4.62518 -1.12403 -1.74664
4.62818 -1.10903 -1.74664
4.63118 -1.07903 -1.74564
4.65118 -1.06803 -1.75164
4.65518 -1.05403 -1.75164
4.66018 -1.04703 -1.75364
4.64518 -1.02903 -1.74664
4.65918 -1.01603 -1.75064
4.64918 -0.999032 -1.74564
4.66018 -0.986032 -1.74864
4.66518 -0.972032 -1.74964
4.67718 -0.959032 -1.75264
4.68218 -0.952032 -1.75464
4.68118 -0.937032 -1.75264
4.68218 -0.922032 -1.75164
4.67418 -0.905032 -1.74764
4.69218 -0.893032 -1.75364
4.70718 -0.880032 -1.75864
4.69618 -0.863032 -1.75264
4.71118 -0.851032 -1.75764
4.71618 -0.844032 -1.75964
4.71118 -0.828032 -1.75664
4.71418 -0.813032 -1.75664
4.69318 -0.794032 -1.74664
4.72418 -0.784032 -1.75864
4.72118 -0.768032 -1.75664
4.72618 -0.754032 -1.75764
4.73418 -0.748032 -1.75964
4.73818 -0.733032 -1.76064
4.74818 -0.719032 -1.76364
4.73718 -0.702032 -1.75864
4.76018 -0.690032 -1.76664
4.75618 -0.675032 -1.76464
4.76218 -0.660032 -1.76564
4.75418 -0.651032 -1.76264
4.76718 -0.638032 -1.76664
4.75818 -0.622032 -1.76264
4.76918 -0.608032 -1.76564
4.76018 -0.591032 -1.76164
4.76018 -0.576032 -1.76064
4.77018 -0.570032 -1.76464
4.77718 -0.556032 -1.76664
4.77918 -0.525032 -1.76564
4.78118 -0.510032 -1.76564
4.78718 -0.481032 -1.76764
4.78618 -0.473032 -1.76664
4.79018 -0.458032 -1.76764
4.79618 -0.428032 -1.76864
4.79218 -0.413032 -1.76664
4.80618 -0.399032 -1.77164
4.80418 -0.383032 -1.77064
4.80418 -0.376032 -1.77064
4.79818 -0.360032 -1.76764
4.80218 -0.330032 -1.76764
4.81418 -0.316032 -1.77264
4.81018 -0.285032 -1.77064
4.81518 -0.263032 -1.77164
4.80718 -0.247032 -1.76764
4.81318 -0.232032 -1.77064
4.81818 -0.217032 -1.77164
4.81818 -0.202032 -1.77164
4.82318 -0.187032 -1.77264
4.82618 -0.149032 -1.77364
3.18318 3.47397 -1.78764
3.16318 3.49697 -1.78864
3.15818 3.50197 -1.78864
3.13518 3.51997 -1.78864
3.10218 3.55097 -1.78864
3.09018 3.55897 -1.78864
3.07218 3.57197 -1.78764
3.03918 3.60297 -1.78864
3.02118 3.60397 -1.78364
3.01818 3.62297 -1.78864
2.99718 3.63297 -1.78664
2.98918 3.64697 -1.78864
2.97118 3.64697 -1.78464
2.96218 3.65997 -1.78564
2.95418 3.67297 -1.78864
2.93418 3.67197 -1.78264
2.92818 3.67697 -1.78264
2.92218 3.69297 -1.78664
2.90218 3.69097 -1.78064
2.89918 3.71197 -1.78664
2.88318 3.71497 -1.78364
2.87018 3.72197 -1.78264
2.86018 3.73297 -1.78364
2.85418 3.73697 -1.78364
2.84418 3.74897 -1.78564
2.83018 3.75497 -1.78364
2.81418 3.75797 -1.78064
2.79818 3.76097 -1.77764
2.78818 3.77297 -1.77964
2.77918 3.78597 -1.78164
2.77118 3.78697 -1.77964
2.75818 3.79497 -1.77964
2.75118 3.80897 -1.78264
2.73818 3.81597 -1.78164
2.72818 3.82797 -1.78264
2.71018 3.82897 -1.77964
2.69918 3.83897 -1.77964
2.69018 3.83897 -1.77764
2.68018 3.84997 -1.77964
2.66518 3.85397 -1.77664
2.65518 3.86497 -1.77864
2.64818 3.88097 -1.78264
2.63318 3.88497 -1.77964
2.61818 3.88997 -1.77864
2.61418 3.89697 -1.77964
2.60018 3.90297 -1.77864
2.59218 3.91697 -1.78164
2.56818 3.93497 -1.78264
2.55018 3.93297 -1.77764
2.54718 3.95697 -1.78564
2.53118 3.95897 -1.78264
2.52018 3.95497 -1.77864
2.51118 3.96897 -1.78164
2.49918 3.97697 -1.78164
2.48818 3.98797 -1.78264
2.45918 3.99697 -1.77964
2.45118 4.01097 -1.78264
2.44418 4.01497 -1.78264
2.42818 4.01597 -1.77964
2.41918 4.02997 -1.78264
2.40618 4.03797 -1.78264
2.39318 4.04397 -1.78264
2.37918 4.04997 -1.78164
2.36418 4.05397 -1.77964
2.36018 4.06097 -1.78164
2.34718 4.06797 -1.78164
2.33318 4.07397 -1.78064
2.32218 4.08297 -1.78164
2.30918 4.08997 -1.78164
2.29818 4.10097 -1.78264
2.28518 4.10797 -1.78264
2.27518 4.10497 -1.77964
2.25218 4.12397 -1.78264
2.23418 4.12297 -1.77864
2.22518 4.13597 -1.78164
2.21218 4.14297 -1.78164
2.19818 4.14897 -1.78064
2.17918 4.16097 -1.78164
2.16418 4.16397 -1.77964
2.15118 4.17097 -1.77964
2.13618 4.17397 -1.77864
2.11318 4.19297 -1.78064
2.09318 4.20297 -1.78064
2.07618 4.20297 -1.77764
2.05018 4.21597 -1.77764
2.03918 4.22697 -1.77964
2.02418 4.22997 -1.77864
2.01218 4.23797 -1.77964
2.00618 4.24297 -1.77964
1.99218 4.24897 -1.77964
1.97818 4.25197 -1.77864
1.96318 4.25497 -1.77664
1.92518 4.27997 -1.77964
1.71118 4.35997 -1.77664
0.771184 4.58597 -1.76264
0.715184 4.60097 -1.76464
0.678184 4.60297 -1.76364
0.649184 4.60497 -1.76264
0.540184 4.61697 -1.76164
0.510184 4.60897 -1.75764
0.488184 4.61497 -1.75864
0.350184 4.62597 -1.75864
0.284184 4.62697 -1.75664
0.241184 4.62597 -1.75564
0.212184 4.63097 -1.75664
3.94518 -2.28303 -1.72564
3.97918 -2.28703 -1.73764
4.31518 -1.64703 -1.74964
4.35518 -1.54503 -1.75064
4.36118 -1.53203 -1.75164
4.36618 -1.51803 -1.75164
4.39118 -1.45803 -1.75264
4.40618 -1.41703 -1.75364
4.43118 -1.34103 -1.75464
4.44418 -1.30703 -1.75564
4.45618 -1.26503 -1.75564
4.48118 -1.18903 -1.75664
4.48218 -1.17403 -1.75564
4.48118 -1.15103 -1.75264
4.50418 -1.11203 -1.75864
4.49818 -1.09603 -1.75464
4.51818 -1.07003 -1.75964
4.52618 -1.03503 -1.75964
3.00618 3.47297 -1.78664
2.98418 3.49097 -1.78664
2.96918 3.49597 -1.78464
2.94418 3.52297 -1.78564
2.92718 3.52497 -1.78264
2.92018 3.53797 -1.78464
2.90218 3.53897 -1.77964
2.89418 3.55197 -1.78264
2.87718 3.56597 -1.78264
2.86118 3.56897 -1.77964
2.85518 3.58397 -1.78264
2.84018 3.58797 -1.77964
2.83318 3.60297 -1.78264
2.82418 3.61497 -1.78464
2.81418 3.61297 -1.78164
2.80018 3.61897 -1.77964
2.78818 3.62697 -1.77964
2.78018 3.63997 -1.78164
2.76418 3.64297 -1.77864
2.75418 3.65297 -1.77964
2.73818 3.65497 -1.77564
2.73818 3.67997 -1.78464
2.72618 3.67597 -1.77964
2.71118 3.67997 -1.77764
2.70318 3.69297 -1.77964
2.68718 3.69497 -1.77664
2.67418 3.70197 -1.77564
2.66618 3.71497 -1.77864
2.64518 3.72297 -1.77564
2.64318 3.74497 -1.78264
2.62518 3.74397 -1.77864
2.60818 3.74497 -1.77464
2.60618 3.76797 -1.78264
2.59118 3.77197 -1.77964
2.57418 3.77197 -1.77564
2.56918 3.77797 -1.77664
2.56118 3.78997 -1.77964
2.55118 3.80197 -1.78064
2.53618 3.80497 -1.77864
2.52618 3.81597 -1.77964
2.51318 3.82197 -1.77964
2.49618 3.82197 -1.77564
2.49318 3.83097 -1.77764
2.47218 3.82497 -1.77064
2.47018 3.84797 -1.77864
2.45318 3.84797 -1.77464
2.43918 3.85397 -1.77364
2.42918 3.86497 -1.77564
2.42418 3.88397 -1.78064
2.41018 3.88797 -1.77964
2.40118 3.88697 -1.77664
2.39118 3.89897 -1.77964
2.37218 3.89397 -1.77264
2.35518 3.92197 -1.77964
2.34418 3.93197 -1.78064
2.32818 3.93297 -1.77764
2.32618 3.94297 -1.78064
2.30518 3.93597 -1.77364
2.30118 3.95797 -1.78064
2.28818 3.96497 -1.78064
2.27018 3.96297 -1.77564
2.26218 3.97597 -1.77964
2.24018 3.98197 -1.77664
2.22918 3.99197 -1.77864
2.20718 4.01097 -1.78064
2.18218 4.02497 -1.78064
2.16918 4.03197 -1.78064
2.16218 4.03297 -1.77964
2.13618 4.04497 -1.77964
2.11818 4.04197 -1.77464
2.11018 4.05897 -1.77964
2.09118 4.05397 -1.77364
2.05018 4.08297 -1.77664
2.03718 4.08897 -1.77664
2.02518 4.09697 -1.77764
1.86818 4.16697 -1.77564
1.81118 4.17997 -1.77164
1.70918 4.23497 -1.77564
1.69518 4.23897 -1.77564
1.66718 4.24397 -1.77264
1.63918 4.25097 -1.77164
1.62018 4.26197 -1.77264
1.60618 4.26497 -1.77264
1.54418 4.28197 -1.76964
1.53118 4.29097 -1.77164
1.50218 4.29297 -1.76864
1.49118 4.30697 -1.77264
1.47418 4.30097 -1.76764
1.42818 4.31897 -1.76864
1.35318 4.34297 -1.76864
1.27118 4.36897 -1.76964
1.26518 4.37497 -1.77064
1.09018 4.41197 -1.76664
1.04218 4.42497 -1.76764
0.965184 4.43697 -1.76564
0.888184 4.45297 -1.76564
0.831184 4.46197 -1.76464
0.768184 4.47197 -1.76364
0.709184 4.46497 -1.75664
0.704184 4.47697 -1.76164
0.676184 4.48497 -1.76264
0.647184 4.48197 -1.75964
0.633184 4.48397 -1.75964
0.584184 4.48997 -1.75964
0.570184 4.49397 -1.76064
0.519184 4.49297 -1.75764
0.491184 4.49597 -1.75764
0.264184 4.50697 -1.75464
0.0161837 4.50997 -1.75264
3.80918 -2.25503 -1.71764
3.84818 -2.26203 -1.73364
4.37818 -1.09703 -1.75364
2.97618 3.36197 -1.78364
2.94518 3.39197 -1.78364
2.93518 3.40097 -1.78364
2.91618 3.41197 -1.78264
2.80318 3.50797 -1.78364
2.79118 3.51497 -1.78264
2.77718 3.51997 -1.78064
2.77018 3.52197 -1.77964
2.74718 3.51697 -1.77164
2.74318 3.53397 -1.77664
2.71118 3.53797 -1.76964
2.70018 3.54697 -1.76964
2.69218 3.55897 -1.77164
2.68818 3.56697 -1.77364
2.67518 3.57197 -1.77164
2.66718 3.58497 -1.77364
2.65418 3.58997 -1.77264
2.63418 3.58697 -1.76664
2.62918 3.60397 -1.77064
2.61118 3.60297 -1.76664
2.60718 3.60997 -1.76764
2.59818 3.62097 -1.76964
2.58318 3.62397 -1.76664
2.58118 3.64497 -1.77364
2.56518 3.64697 -1.76964
2.55018 3.65097 -1.76764
2.54618 3.66897 -1.77364
2.53218 3.67297 -1.77064
2.52018 3.66797 -1.76664
2.51918 3.69097 -1.77364
2.49918 3.68597 -1.76764
2.49418 3.70497 -1.77364
2.48218 3.71097 -1.77264
2.47018 3.71897 -1.77264
2.45518 3.72197 -1.76964
2.44918 3.72597 -1.76964
2.43918 3.73497 -1.77064
2.42918 3.74597 -1.77264
2.41418 3.74897 -1.76964
2.39618 3.74697 -1.76564
2.39218 3.76697 -1.77164
2.37818 3.76997 -1.76964
2.36918 3.76897 -1.76664
2.36518 3.78897 -1.77364
2.34418 3.78197 -1.76664
2.34118 3.80397 -1.77364
2.32718 3.80797 -1.77164
2.31418 3.81397 -1.77064
2.30018 3.81797 -1.76964
2.29118 3.81697 -1.76664
2.27218 3.81097 -1.76064
2.27118 3.83697 -1.76964
2.25318 3.83497 -1.76564
2.24818 3.85297 -1.77064
2.23218 3.85397 -1.76764
2.22818 3.87497 -1.77464
2.21618 3.86697 -1.76964
2.20018 3.86797 -1.76664
2.19618 3.88897 -1.77364
2.17918 3.88797 -1.76964
2.16718 3.89497 -1.76964
2.15818 3.90797 -1.77264
2.13918 3.90197 -1.76664
2.13718 3.91297 -1.76964
2.12818 3.92697 -1.77364
2.11518 3.93197 -1.77264
2.10718 3.94597 -1.77664
2.09218 3.94797 -1.77364
2.06718 3.92997 -1.76264
2.07018 3.96597 -1.77664
2.05618 3.95497 -1.76964
2.04118 3.95597 -1.76664
2.04018 3.98397 -1.77664
2.02318 3.98197 -1.77364
2.00518 3.97897 -1.76864
1.99918 3.99797 -1.77464
1.98818 4.00597 -1.77564
1.97318 4.00697 -1.77364
1.96518 4.00897 -1.77264
1.95118 4.01097 -1.77064
1.93418 4.00797 -1.76664
1.92418 4.01997 -1.76964
1.89918 4.03197 -1.76964
1.88918 4.04297 -1.77164
1.88118 4.04297 -1.76964
1.86118 4.03397 -1.76264
1.85818 4.06097 -1.77364
1.84518 4.06497 -1.77264
1.82218 4.04897 -1.76264
1.81818 4.07397 -1.77064
1.80018 4.06797 -1.76564
1.79018 4.06397 -1.76264
1.78518 4.08597 -1.76964
1.76918 4.08497 -1.76664
1.75818 4.09397 -1.76864
1.74618 4.10297 -1.76964
1.72918 4.09797 -1.76564
1.71718 4.10497 -1.76664
1.71018 4.10597 -1.76564
1.69818 4.11297 -1.76664
1.68118 4.10797 -1.76164
1.66618 4.10997 -1.75964
1.65918 4.12897 -1.76664
1.64218 4.12597 -1.76264
1.62918 4.13097 -1.76264
1.62918 4.14897 -1.76964
1.60918 4.13697 -1.76164
1.60418 4.16097 -1.76964
1.58718 4.15497 -1.76564
1.57218 4.15697 -1.76364
1.55518 4.14997 -1.75864
1.54818 4.17197 -1.76664
1.53518 4.17697 -1.76664
1.52318 4.16497 -1.75964
1.50918 4.16697 -1.75864
1.50118 4.18497 -1.76464
1.48818 4.18997 -1.76464
1.47318 4.19097 -1.76264
1.45918 4.19397 -1.76264
1.44718 4.20197 -1.76364
1.44018 4.20197 -1.76264
1.42618 4.20497 -1.76264
1.41718 4.22197 -1.76764
1.39618 4.20197 -1.75664
1.38518 4.21297 -1.75964
1.37518 4.22597 -1.76364
1.35718 4.21697 -1.75764
1.34818 4.21197 -1.75464
1.33718 4.22497 -1.75864
1.32518 4.23097 -1.75964
1.31118 4.23497 -1.75964
1.29518 4.22997 -1.75564
1.28518 4.24497 -1.75964
1.27018 4.24297 -1.75764
1.26718 4.25597 -1.76264
1.24918 4.24397 -1.75564
1.23718 4.25297 -1.75764
1.22518 4.26197 -1.75964
1.21218 4.26597 -1.75964
1.19818 4.26997 -1.75964
1.18318 4.26697 -1.75664
1.16918 4.26897 -1.75564
1.16518 4.27897 -1.75964
1.15018 4.27797 -1.75764
1.13418 4.27197 -1.75364
1.12518 4.29397 -1.76164
1.11018 4.28997 -1.75864
1.09618 4.28997 -1.75664
1.08318 4.29897 -1.75964
1.07518 4.29497 -1.75664
1.05918 4.28597 -1.75164
1.04918 4.30397 -1.75764
1.03518 4.30697 -1.75764
1.02218 4.31197 -1.75864
1.01218 4.32797 -1.76364
0.998184 4.33097 -1.76364
0.987184 4.31297 -1.75564
0.977184 4.33197 -1.76264
0.963184 4.33497 -1.76264
0.945184 4.31597 -1.75264
0.936184 4.34097 -1.76264
0.920184 4.33497 -1.75864
0.908184 4.34297 -1.76064
0.899184 4.33397 -1.75564
0.888184 4.34897 -1.76164
0.874184 4.34997 -1.76064
0.857184 4.33997 -1.75564
0.845184 4.34997 -1.75864
0.832184 4.35397 -1.75964
0.817184 4.34997 -1.75564
0.808184 4.33797 -1.75064
0.798184 4.36297 -1.75964
0.783184 4.35597 -1.75564
0.768184 4.35497 -1.75464
0.756184 4.36297 -1.75664
0.742184 4.36497 -1.75664
0.727184 4.36197 -1.75464
0.721184 4.36497 -1.75564
0.708184 4.37097 -1.75664
0.693184 4.36897 -1.75564
0.679184 4.36997 -1.75464
0.665184 4.36997 -1.75364
0.652184 4.37397 -1.75464
0.639184 4.38297 -1.75764
0.625184 4.38297 -1.75664
0.617184 4.37897 -1.75464
0.604184 4.38097 -1.75464
0.588184 4.37197 -1.74964
0.575184 4.37697 -1.75164
0.563184 4.38797 -1.75564
0.548184 4.38597 -1.75364
0.535184 4.39497 -1.75664
0.529184 4.39797 -1.75764
0.515184 4.39797 -1.75664
0.499184 4.38497 -1.75064
0.487184 4.40097 -1.75664
0.472184 4.38797 -1.75064
0.459184 4.39597 -1.75364
0.444184 4.39197 -1.75164
0.430184 4.39197 -1.75064
0.425184 4.40697 -1.75664
0.411184 4.40497 -1.75564
0.397184 4.40797 -1.75564
0.383184 4.40897 -1.75564
0.369184 4.40897 -1.75564
0.354184 4.39697 -1.74964
0.348184 4.40697 -1.75364
0.334184 4.40397 -1.75264
0.320184 4.40097 -1.75064
0.307184 4.41297 -1.75564
0.292184 4.40097 -1.74964
0.278184 4.39697 -1.74764
0.265184 4.41397 -1.75464
0.258184 4.40897 -1.75264
0.244184 4.40397 -1.74964
0.216184 4.40897 -1.75164
0.202184 4.40497 -1.74864
0.174184 4.40897 -1.75064
0.161184 4.41397 -1.75264
0.140184 4.40497 -1.74864
0.112184 4.41497 -1.75264
0.0981837 4.39897 -1.74564
0.0841837 4.41597 -1.75264
0.0701837 4.40297 -1.74664
0.0501837 4.41097 -1.74964
0.0361837 4.40697 -1.74864
0.00818369 4.40697 -1.74864
3.69618 -2.27403 -1.71964
4.02018 -1.77903 -1.74364
4.06318 -1.68403 -1.74464
4.06918 -1.67903 -1.74564
4.07618 -1.65203 -1.74464
4.09018 -1.62803 -1.74564
4.09718 -1.61603 -1.74664
4.10218 -1.58103 -1.74364
4.11618 -1.55603 -1.74564
4.13418 -1.53403 -1.74864
4.13718 -1.52003 -1.74864
4.15718 -1.47603 -1.74964
4.16118 -1.46303 -1.74964
4.16418 -1.44903 -1.74864
4.16918 -1.41403 -1.74564
4.18818 -1.39103 -1.75064
4.18918 -1.37703 -1.74864
4.19918 -1.35103 -1.74964
4.20518 -1.33803 -1.75064
4.20018 -1.33003 -1.74764
4.21018 -1.31803 -1.74964
4.22118 -1.29303 -1.75164
4.23718 -1.24703 -1.75264
4.24418 -1.23403 -1.75364
4.24718 -1.22103 -1.75264
4.24318 -1.20503 -1.74964
2.46118 3.61697 -1.77664
2.42818 3.61697 -1.76864
2.41918 3.62697 -1.77064
2.40618 3.63297 -1.76964
2.39718 3.63097 -1.76664
2.38618 3.63997 -1.76764
2.37918 3.65397 -1.77064
2.36718 3.66097 -1.77064
2.35718 3.66997 -1.77164
2.34018 3.66997 -1.76764
2.33418 3.68497 -1.77164
2.32418 3.68197 -1.76764
2.31118 3.68797 -1.76764
2.30118 3.69697 -1.76764
2.29618 3.71497 -1.77364
2.27118 3.69997 -1.76264
2.26518 3.71697 -1.76764
2.25418 3.72597 -1.76764
2.24618 3.72597 -1.76664
2.23018 3.72497 -1.76264
2.23018 3.75297 -1.77264
2.21118 3.74697 -1.76664
2.20118 3.75697 -1.76764
2.18818 3.76097 -1.76664
2.18118 3.77697 -1.77164
2.16618 3.76497 -1.76364
2.16618 3.79197 -1.77364
2.14118 3.77497 -1.76164
2.13118 3.78497 -1.76364
2.12518 3.80297 -1.76864
2.10818 3.79997 -1.76364
2.10418 3.82097 -1.77164
2.09118 3.81097 -1.76464
2.08418 3.82797 -1.76964
2.06518 3.82097 -1.76364
2.06318 3.84697 -1.77264
2.03818 3.82797 -1.76064
2.03618 3.85297 -1.76964
2.01918 3.84997 -1.76464
2.01318 3.85497 -1.76564
2.00018 3.85997 -1.76464
1.98918 3.86697 -1.76564
1.97218 3.86397 -1.76064
1.96318 3.87697 -1.76364
1.96018 3.90097 -1.77264
1.93418 3.87897 -1.75964
1.92918 3.88497 -1.76064
1.92818 3.91297 -1.77164
1.90718 3.90197 -1.76364
1.90118 3.92097 -1.76964
1.88518 3.91897 -1.76564
1.87818 3.93697 -1.77164
1.85918 3.92797 -1.76364
1.85418 3.93397 -1.76564
1.84318 3.94097 -1.76664
1.82318 3.93197 -1.75964
1.81718 3.95097 -1.76564
1.80518 3.95797 -1.76664
1.79418 3.96697 -1.76764
1.77818 3.96297 -1.76364
1.77018 3.97897 -1.76764
1.75718 3.96597 -1.76064
1.75118 3.98697 -1.76764
1.73018 3.97197 -1.75864
1.72018 3.98397 -1.76164
1.70718 3.98797 -1.76064
1.69018 3.98297 -1.75664
1.67718 3.98897 -1.75664
1.67218 3.99297 -1.75664
1.66018 3.99997 -1.75764
1.65218 4.01697 -1.76364
1.63518 4.01197 -1.75864
1.63018 4.03397 -1.76664
1.61218 4.02497 -1.76064
1.59818 4.02697 -1.75864
1.59318 4.03297 -1.76064
1.58518 4.04997 -1.76564
1.56618 4.03997 -1.75864
1.55118 4.03897 -1.75664
1.54218 4.05297 -1.76064
1.52618 4.04897 -1.75664
1.52018 4.07297 -1.76464
1.50718 4.05797 -1.75664
1.49718 4.06797 -1.75964
1.48418 4.07397 -1.76064
1.47018 4.07397 -1.75764
1.45718 4.07797 -1.75764
1.44618 4.08997 -1.76064
1.43118 4.08697 -1.75764
1.42118 4.09997 -1.76164
1.41318 4.09597 -1.75864
1.39718 4.09297 -1.75564
1.39018 4.11497 -1.76364
1.37418 4.10897 -1.75864
1.36218 4.11697 -1.76064
1.35218 4.12997 -1.76364
1.33618 4.12297 -1.75964
1.32918 4.12497 -1.75964
1.31818 4.13497 -1.76164
1.30218 4.12997 -1.75764
1.29118 4.13997 -1.76064
1.27918 4.14697 -1.76164
1.26318 4.14197 -1.75764
1.25018 4.14597 -1.75764
1.24118 4.13897 -1.75364
1.23018 4.14997 -1.75664
1.21718 4.15397 -1.75664
1.20518 4.16097 -1.75864
1.19018 4.15797 -1.75564
1.18118 4.17597 -1.76164
1.16418 4.16697 -1.75664
1.15918 4.17397 -1.75864
1.14518 4.17297 -1.75664
1.13218 4.17997 -1.75764
1.11818 4.17997 -1.75664
1.10518 4.18297 -1.75664
1.09318 4.18997 -1.75764
1.08218 4.20097 -1.76064
1.07218 4.18997 -1.75564
1.06418 4.21297 -1.76364
1.04718 4.20397 -1.75864
1.03418 4.20497 -1.75764
1.02118 4.20997 -1.75864
1.00618 4.20797 -1.75664
0.994184 4.21297 -1.75664
0.987184 4.21697 -1.75764
0.973184 4.21397 -1.75564
0.961184 4.22397 -1.75864
0.950184 4.23497 -1.76164
0.934184 4.22697 -1.75664
0.921184 4.23297 -1.75864
0.911184 4.24897 -1.76364
0.900184 4.22997 -1.75564
0.888184 4.24197 -1.75964
0.859184 4.23297 -1.75264
0.846184 4.23997 -1.75464
0.835184 4.25097 -1.75864
0.818184 4.23797 -1.75164
0.808184 4.25797 -1.75964
0.787184 4.25497 -1.75664
0.773184 4.25197 -1.75364
0.761184 4.26697 -1.75964
0.744184 4.24697 -1.74964
0.733184 4.25897 -1.75364
0.722184 4.27597 -1.76064
0.712184 4.25897 -1.75264
0.700184 4.26797 -1.75564
0.687184 4.27597 -1.75764
0.673184 4.27197 -1.75564
0.660184 4.28197 -1.75864
0.633184 4.27897 -1.75564
0.613184 4.28297 -1.75664
0.599184 4.28497 -1.75664
0.585184 4.28197 -1.75364
0.558184 4.28497 -1.75364
0.545184 4.29097 -1.75564
0.538184 4.29297 -1.75664
0.525184 4.29297 -1.75564
0.512184 4.29997 -1.75764
0.484184 4.29397 -1.75364
0.448184 4.27197 -1.74264
0.436184 4.29397 -1.75164
0.423184 4.29697 -1.75264
0.409184 4.29097 -1.74864
0.396184 4.30697 -1.75564
0.367184 4.28497 -1.74464
0.355184 4.30497 -1.75264
0.348184 4.29997 -1.75064
0.334184 4.28597 -1.74464
0.322184 4.30797 -1.75264
0.294184 4.30597 -1.75164
0.281184 4.31397 -1.75464
0.268184 4.31497 -1.75464
0.260184 4.29297 -1.74464
0.246184 4.29997 -1.74764
0.233184 4.30197 -1.74864
0.219184 4.30097 -1.74764
0.206184 4.30697 -1.74964
0.193184 4.31497 -1.75264
0.179184 4.30297 -1.74764
0.173184 4.31397 -1.75264
0.145184 4.30997 -1.74964
0.132184 4.30997 -1.74964
0.118184 4.31397 -1.75164
0.105184 4.30697 -1.74864
0.0711837 4.31197 -1.74964
0.0571837 4.31397 -1.75064
0.0301837 4.30797 -1.74864
3.58518 -2.24003 -1.71364
3.60218 -2.23503 -1.71864
3.61818 -2.22903 -1.72264
3.92518 -1.74603 -1.74264
3.90018 -1.72003 -1.72864
3.93618 -1.72103 -1.74264
3.91118 -1.69603 -1.72864
3.92418 -1.69403 -1.73364
3.93718 -1.68503 -1.73764
3.92918 -1.66703 -1.73064
3.94318 -1.64403 -1.73264
3.95818 -1.63603 -1.73764
3.95618 -1.62103 -1.73364
3.97318 -1.62003 -1.74064
3.96218 -1.60103 -1.73364
3.97418 -1.59103 -1.73664
3.97618 -1.57803 -1.73464
3.99818 -1.57203 -1.74264
3.98918 -1.55403 -1.73664
4.00118 -1.54403 -1.73964
3.99618 -1.53503 -1.73664
4.00818 -1.52503 -1.73964
4.00918 -1.51103 -1.73764
4.01918 -1.50003 -1.74064
4.02418 -1.48803 -1.74064
4.03218 -1.47603 -1.74164
4.04018 -1.46503 -1.74364
4.04218 -1.45903 -1.74364
4.03818 -1.44303 -1.73964
4.05518 -1.43403 -1.74464
4.05618 -1.42003 -1.74364
4.06418 -1.40903 -1.74464
4.07618 -1.38503 -1.74664
4.07918 -1.37103 -1.74564
4.08018 -1.35003 -1.74364
4.09318 -1.34003 -1.74764
4.08718 -1.32403 -1.74264
4.10618 -1.31603 -1.74964
4.10918 -1.30303 -1.74864
4.10018 -1.29303 -1.74464
4.11818 -1.28403 -1.75064
4.11418 -1.26903 -1.74664
4.12818 -1.25903 -1.75164
4.12518 -1.23003 -1.74664
2.21218 3.61597 -1.77564
2.17818 3.63697 -1.77564
2.16618 3.64397 -1.77564
2.14918 3.65397 -1.77564
2.13518 3.65597 -1.77364
2.11318 3.67097 -1.77464
2.10218 3.67897 -1.77464
2.07818 3.69097 -1.77464
2.04618 3.70197 -1.77164
2.01418 3.72597 -1.77464
1.97218 3.74597 -1.77364
1.94718 3.75697 -1.77264
1.91318 3.77697 -1.77364
1.83518 3.81297 -1.77264
1.80318 3.82397 -1.77064
1.74918 3.84897 -1.77064
1.68818 3.87597 -1.77064
1.66918 3.88297 -1.76964
1.55118 3.92697 -1.76864
1.53918 3.93197 -1.76864
1.51518 3.94497 -1.76964
3.46118 -2.22203 -1.71964
3.47418 -2.21503 -1.72264
9.40918 -4.44603 0.553357
9.53018 -4.46603 0.557357
9.63318 -4.49503 0.561357
9.75218 -4.51303 0.565357
9.85418 -4.52303 0.568357
9.96318 -4.53403 0.571357
10.3112 -4.59503 0.583357
10.4262 -4.60603 0.587357
10.5522 -4.62203 0.591357
10.6842 -4.64003 0.595357
10.8292 -4.66203 0.600357
11.2252 -4.72703 0.613357
11.3782 -4.74903 0.618357
15.2492 -5.34003 0.747357
9.53418 -4.47103 0.490357
9.64618 -4.48603 0.493357
9.74618 -4.51403 0.496357
9.85218 -4.52603 0.499357
9.97918 -4.54703 0.502357
10.0792 -4.55503 0.505357
10.2032 -4.57203 0.508357
10.3212 -4.58703 0.511357
10.5552 -4.63203 0.517357
10.6862 -4.65003 0.521357
10.8112 -4.66403 0.524357
11.5052 -4.77303 0.543357
11.6492 -4.79103 0.547357
12.6322 -4.94403 0.573357
12.8272 -4.97403 0.579357
14.0062 -5.15703 0.611357
14.2262 -5.18803 0.617357
15.6612 -5.40803 0.656357
15.9332 -5.44703 0.663357
16.2262 -5.49103 0.671357
16.8672 -5.59103 0.689357
18.1312 -5.79103 0.724357
18.4652 -5.83503 0.733357
9.39918 -4.46403 0.437357
9.50518 -4.47803 0.440357
9.61318 -4.49203 0.442357
9.72618 -4.50703 0.444357
9.93818 -4.54803 0.449357
10.0582 -4.56403 0.452357
10.1762 -4.57903 0.454357
10.2952 -4.59403 0.457357
10.4212 -4.61003 0.460357
10.5382 -4.62203 0.462357
10.6622 -4.65703 0.465357
10.7932 -4.67303 0.468357
10.9212 -4.68803 0.471357
11.0652 -4.70803 0.474357
11.2162 -4.73003 0.478357
11.3552 -4.74603 0.481357
11.6512 -4.80503 0.487357
11.7992 -4.82303 0.491357
11.9532 -4.84203 0.494357
12.1262 -4.86703 0.498357
12.8092 -4.97703 0.513357
13.0042 -5.00503 0.518357
13.2052 -5.03503 0.522357
14.4812 -5.23403 0.551357
14.7122 -5.26503 0.556357
14.9552 -5.29803 0.562357
15.9832 -5.46403 0.585357
16.2682 -5.50403 0.591357
16.5902 -5.55403 0.599357
16.9382 -5.61103 0.607357
18.2012 -5.80603 0.635357
18.5482 -5.85203 0.643357
9.42218 -4.46903 0.358357
9.52318 -4.48003 0.360357
9.63518 -4.49603 0.361357
9.74918 -4.51203 0.363357
9.86118 -4.52703 0.365357
9.96818 -4.53903 0.366357
10.0802 -4.57103 0.368357
10.1862 -4.58103 0.370357
10.3102 -4.59803 0.371357
10.4302 -4.61203 0.373357
10.9242 -4.68903 0.381357
11.0732 -4.71203 0.383357
11.2152 -4.73203 0.385357
12.1152 -4.86803 0.398357
12.2842 -4.89203 0.401357
13.1792 -5.03603 0.414357
13.3702 -5.06103 0.417357
14.6692 -5.26703 0.437357
14.9102 -5.30103 0.440357
15.1502 -5.33403 0.444357
16.5142 -5.55503 0.465357
16.8582 -5.61203 0.470357
18.9952 -5.93203 0.502357
9.52118 -4.48803 0.306357
10.1902 -4.58803 0.312357
10.3272 -4.61103 0.314357
10.8212 -4.68803 0.318357
10.9502 -4.70303 0.320357
11.0962 -4.72403 0.321357
11.2342 -4.74103 0.322357
11.8152 -4.83303 0.328357
11.9992 -4.86303 0.330357
12.1522 -4.88103 0.332357
12.3362 -4.90903 0.333357
12.5102 -4.93303 0.335357
12.8522 -4.99703 0.339357
13.0512 -5.02703 0.341357
13.2442 -5.05303 0.343357
13.4472 -5.08203 0.345357
13.6342 -5.10303 0.346357
14.5452 -5.26103 0.356357
14.7802 -5.29303 0.358357
15.0192 -5.32503 0.360357
15.2532 -5.35403 0.363357
16.3652 -5.54103 0.374357
16.9162 -5.60803 0.379357
18.6382 -5.88503 0.397357
9.39918 -4.46403 0.232357
9.49618 -4.47403 0.232357
9.61018 -4.49103 0.232357
9.72518 -4.50803 0.233357
9.82818 -4.53803 0.233357
9.93918 -4.55103 0.233357
10.0532 -4.56603 0.234357
10.1822 -4.58603 0.234357
10.2952 -4.59803 0.234357
10.4252 -4.61703 0.235357
10.7902 -4.67903 0.236357
10.9262 -4.69803 0.236357
11.0702 -4.71903 0.237357
11.2112 -4.73803 0.237357
11.3612 -4.75903 0.238357
11.5122 -4.78003 0.238357
11.6492 -4.81603 0.239357
11.8032 -4.83703 0.239357
11.9622 -4.85903 0.240357
12.1152 -4.87703 0.240357
12.3082 -4.91003 0.241357
12.4592 -4.92503 0.241357
12.6592 -4.95903 0.242357
12.8192 -4.99903 0.242357
13.0062 -5.02503 0.243357
13.2052 -5.05403 0.243357
13.4002 -5.08103 0.244357
13.5992 -5.10803 0.245357
13.8142 -5.14003 0.245357
14.0402 -5.17403 0.246357
14.9362 -5.32003 0.249357
15.1692 -5.35003 0.250357
15.4222 -5.38503 0.250357
15.6962 -5.42603 0.251357
17.8412 -5.76603 0.258357
10.4692 -4.63903 0.181357
10.5932 -4.65403 0.181357
11.2702 -4.76103 0.180357
11.4232 -4.78303 0.179357
11.5682 -4.80103 0.179357
12.1882 -4.90103 0.178357
12.3602 -4.92403 0.178357
12.5392 -4.95003 0.178357
12.7222 -4.97603 0.177357
13.4872 -5.10303 0.176357
13.6832 -5.12803 0.176357
13.8892 -5.15503 0.176357
14.1152 -5.18803 0.175357
15.0352 -5.33703 0.174357
15.2882 -5.37303 0.173357
16.3642 -5.54703 0.172357
17.0022 -5.64403 0.171357
17.6672 -5.74103 0.170357
17.9752 -5.77803 0.169357
18.6122 -5.88503 0.168357
9.39618 -4.46703 0.116357
9.50018 -4.48103 0.115357
9.61418 -4.49803 0.114357
9.71918 -4.51003 0.114357
9.83118 -4.52503 0.113357
10.0482 -4.56803 0.111357
10.1682 -4.58403 0.110357
10.2882 -4.60003 0.109357
10.4112 -4.61603 0.108357
10.5372 -4.63203 0.107357
10.9182 -4.69903 0.104357
11.0652 -4.72103 0.103357
11.2102 -4.74203 0.102357
11.3502 -4.76003 0.101357
11.9522 -4.86003 0.0963573
12.1132 -4.88103 0.0953573
12.2862 -4.90703 0.0943573
12.6522 -4.96103 0.0913573
13.1912 -5.05503 0.0873573
13.3932 -5.08403 0.0853573
13.5772 -5.10603 0.0843573
13.7992 -5.14003 0.0823573
14.2412 -5.20403 0.0783573
14.6982 -5.29303 0.0753573
14.9102 -5.31703 0.0733573
15.1472 -5.34903 0.0713573
17.4732 -5.71503 0.0533573
17.7782 -5.75303 0.0513573
9.36018 -4.47103 0.0523573
9.46118 -4.48203 0.0513573
9.56818 -4.49603 0.0493573
9.68018 -4.51103 0.0483573
9.80118 -4.53003 0.0463573
9.91218 -4.54303 0.0453573
10.0282 -4.55803 0.0433573
10.1352 -4.58703 0.0423573
10.2672 -4.60703 0.0403573
10.3782 -4.61803 0.0383573
10.5042 -4.63403 0.0373573
10.6422 -4.65503 0.0353573
10.7682 -4.67003 0.0333573
11.0462 -4.72803 0.0293573
11.1772 -4.74203 0.0273573
11.3302 -4.76503 0.0253573
11.4822 -4.78603 0.0233573
11.6282 -4.80303 0.0213573
12.0962 -4.88503 0.0153573
12.2642 -4.90703 0.0123573
12.4562 -4.93903 0.0103573
12.6332 -4.96303 0.0073573
13.0132 -5.01703 0.0023573
13.5862 -5.11503 -0.0056427
13.7882 -5.14103 -0.0086427
14.0062 -5.17203 -0.0116427
14.2502 -5.21103 -0.0146427
14.9332 -5.32703 -0.0246427
15.1562 -5.35203 -0.0276427
16.3492 -5.54103 -0.0436427
16.8822 -5.63203 -0.0516427
17.5482 -5.73103 -0.0606427
17.8482 -5.76703 -0.0646427
9.42518 -4.48103 -0.0216427
9.52018 -4.49003 -0.0236427
9.83918 -4.54803 -0.0296427
9.96318 -4.56703 -0.0326427
10.0642 -4.57503 -0.0346427
10.1842 -4.59203 -0.0366427
10.3122 -4.61103 -0.0396427
10.5472 -4.65703 -0.0446427
10.6862 -4.67903 -0.0466427
10.8072 -4.69103 -0.0496427
10.9452 -4.71103 -0.0526427
11.0882 -4.73103 -0.0556427
11.2212 -4.74703 -0.0576427
11.3702 -4.76803 -0.0606427
11.6652 -4.82803 -0.0676427
11.8232 -4.85003 -0.0706427
11.9712 -4.86803 -0.0736427
12.1402 -4.89203 -0.0766427
12.3042 -4.91403 -0.0806427
12.8262 -5.00703 -0.0916427
13.0262 -5.03803 -0.0956427
13.2142 -5.06403 -0.0996427
13.3982 -5.08603 -0.102643
13.6162 -5.12103 -0.107643
13.9982 -5.19003 -0.115643
14.2332 -5.22703 -0.120643
14.4562 -5.25703 -0.124643
14.6942 -5.29203 -0.129643
14.9262 -5.32303 -0.134643
15.3772 -5.40303 -0.144643
15.6182 -5.43303 -0.149643
16.5262 -5.57703 -0.168643
16.8742 -5.63603 -0.175643
17.4862 -5.71903 -0.188643
18.4432 -5.87403 -0.208643
18.8042 -5.92403 -0.215643
19.2222 -5.99003 -0.224643
9.49318 -4.49503 -0.139643
10.0412 -4.58303 -0.156643
10.1572 -4.59803 -0.159643
10.2842 -4.61703 -0.163643
10.9092 -4.71503 -0.183643
11.0492 -4.73403 -0.187643
11.1982 -4.75703 -0.192643
11.3492 -4.77903 -0.197643
11.9482 -4.87903 -0.216643
12.1002 -4.89703 -0.220643
12.2752 -4.92303 -0.226643
13.5752 -5.12803 -0.267643
14.8862 -5.33403 -0.309643
15.1212 -5.36503 -0.316643
15.4272 -5.41503 -0.433643
16.8542 -5.63803 -0.594643
14.3392 -5.25603 -0.570643
14.5842 -5.29403 -0.583643
15.5212 -5.44003 -0.629643
12.2132 -4.93003 -0.549643
15.4072 -5.42703 -0.815643
15.7672 -5.47003 -0.837643
17.4632 -5.75003 -0.942643
9.80818 -4.55803 -0.549643
10.7912 -4.71203 -0.615643
15.5782 -5.45703 -0.941643
15.8452 -5.49503 -0.959643
18.0902 -5.83503 -1.11364
15.5632 -5.45703 -1.02164
15.7802 -5.47703 -1.03664
16.3182 -5.57603 -1.07664
16.5852 -5.60903 -1.09664
16.8802 -5.64903 -1.11764
13.8032 -5.18103 -0.989643
13.9982 -5.20503 -1.00464
11.9672 -4.89703 -0.918643
12.2162 -4.93103 -0.938643
18.1792 -5.87003 -1.44864
9.39818 -4.50303 -0.764643
9.62618 -4.53803 -0.784643
10.9322 -4.74403 -0.901643
15.5222 -5.45103 -1.31864
15.7832 -5.48803 -1.34264
16.0622 -5.52903 -1.36764
17.9162 -5.82603 -1.53864
18.2732 -5.87903 -1.57064
9.77218 -4.56403 -0.866643
9.85718 -4.56503 -0.874643
9.96318 -4.57603 -0.884643
10.1662 -4.61103 -0.903643
13.8852 -5.19003 -1.26364
15.0602 -5.38603 -1.37864
15.3302 -5.42803 -1.40464
15.5972 -5.46703 -1.43064
15.8722 -5.50703 -1.45764
16.1662 -5.55103 -1.48664
16.9802 -5.68103 -1.56564
17.7192 -5.80303 -1.63864
18.0712 -5.85503 -1.67364
18.4172 -5.90303 -1.70664
13.8512 -5.19403 -1.35164
14.0652 -5.22403 -1.37364
14.2902 -5.25703 -1.39664
14.5292 -5.29403 -1.42164
15.5222 -5.46503 -1.52464
15.7812 -5.50103 -1.55164
16.0782 -5.54803 -1.58264
16.3612 -5.58903 -1.61164
16.6382 -5.62603 -1.64064
8.93118 -4.41903 -0.912643
12.6452 -5.00803 -1.31664
13.2482 -5.10203 -1.38264
16.0802 -5.55703 -1.69464
11.9362 -4.89303 -1.31764
11.7262 -4.86203 -1.36664
12.0782 -4.91903 -1.40964
8.98518 -4.44803 -1.16064
9.08518 -4.46203 -1.17364
10.5232 -4.68003 -1.36164
10.6572 -4.70003 -1.37964
10.8052 -4.72403 -1.39864
10.9382 -4.74103 -1.41664
11.5202 -4.84203 -1.49364
8.63118 -4.38403 -1.17964
8.73518 -4.40303 -1.19364
8.81918 -4.41103 -1.20564
8.93718 -4.43503 -1.22164
9.02818 -4.44503 -1.23364
9.92718 -4.58403 -1.35764
10.9582 -4.75303 -1.50064
8.63718 -4.38703 -1.22464
8.72318 -4.39603 -1.23664
8.83618 -4.41803 -1.25264
8.93118 -4.43003 -1.26564
9.03618 -4.44603 -1.28064
10.8612 -4.73803 -1.54064
8.25218 -4.33303 -1.23764
8.33918 -4.34603 -1.25064
8.41818 -4.35303 -1.26164
8.51018 -4.36803 -1.27564
8.61418 -4.38703 -1.29064
8.71718 -4.40603 -1.30664
8.79318 -4.42703 -1.31864
8.88118 -4.43603 -1.33064
8.98718 -4.45403 -1.34664
9.05018 -4.45103 -1.35564
10.4922 -4.68103 -1.57064
10.6392 -4.70703 -1.59264
10.7782 -4.72803 -1.61364
7.13918 -4.15003 -1.19364
7.56118 -4.22003 -1.25764
5.72718 -3.92903 -1.05364
5.77918 -3.95103 -1.06264
5.81418 -3.94803 -1.06764
5.86718 -3.95803 -1.07564
5.92518 -3.97003 -1.08564
5.96618 -3.97003 -1.09064
6.02118 -3.98003 -1.09964
6.07118 -3.98603 -1.10764
6.11218 -3.99903 -1.11464
6.16718 -4.00803 -1.12264
6.22518 -4.01803 -1.13164
6.27518 -4.02303 -1.13964
6.33618 -4.03403 -1.14864
6.39518 -4.04403 -1.15864
6.45318 -4.05203 -1.16764
6.49818 -4.06603 -1.17464
6.53718 -4.06303 -1.18064
6.60718 -4.07703 -1.19164
6.65518 -4.07803 -1.19864
6.72118 -4.09003 -1.20964
6.78118 -4.09803 -1.21864
6.84518 -4.10703 -1.22864
6.89518 -4.12303 -1.23764
6.95218 -4.12803 -1.24564
7.02318 -4.14003 -1.25764
7.08518 -4.14703 -1.26664
7.15218 -4.15703 -1.27764
7.21718 -4.16403 -1.28764
7.33918 -4.18903 -1.30764
7.41918 -4.20403 -1.32064
7.49418 -4.21503 -1.33264
7.57218 -4.22903 -1.34464
7.62818 -4.22903 -1.35364
7.70918 -4.24203 -1.36664
8.01218 -4.29603 -1.41564
8.09318 -4.30703 -1.42864
8.17618 -4.31903 -1.44164
5.12418 -3.84603 -1.01964
5.16318 -3.85003 -1.02564
5.21618 -3.86403 -1.03464
5.24718 -3.86103 -1.03864
5.28618 -3.86503 -1.04464
5.64518 -3.92503 -1.10264
5.68218 -3.92303 -1.10764
5.71918 -3.93603 -1.11464
5.77018 -3.94403 -1.12264
5.82018 -3.95103 -1.13064
5.87218 -3.95903 -1.13964
5.92218 -3.96603 -1.14764
5.96418 -3.96703 -1.15364
6.02718 -3.98203 -1.16464
6.06018 -3.98903 -1.16964
6.12418 -4.00303 -1.18064
6.19418 -4.02203 -1.19264
6.24018 -4.02303 -1.19964
6.29318 -4.02903 -1.20864
6.34218 -4.03203 -1.21664
6.40318 -4.04303 -1.22664
6.44618 -4.05603 -1.23364
6.49518 -4.05803 -1.24164
6.55918 -4.06903 -1.25264
6.61518 -4.07503 -1.26164
6.68018 -4.08603 -1.27164
6.75218 -4.10003 -1.28464
6.92918 -4.13303 -1.31464
6.98118 -4.13503 -1.32264
7.05718 -4.14903 -1.33564
7.12018 -4.15603 -1.34564
7.18418 -4.16303 -1.35564
7.31518 -4.19203 -1.37864
7.39318 -4.20603 -1.39164
7.46318 -4.21503 -1.40364
7.53118 -4.22203 -1.41464
4.53218 -3.74703 -0.969643
4.70818 -3.77003 -0.997643
5.04118 -3.83503 -1.05364
5.07418 -3.83503 -1.05864
5.11718 -3.84303 -1.06564
5.15718 -3.84803 -1.07164
5.19018 -3.84703 -1.07664
5.23118 -3.85203 -1.08364
5.26718 -3.86603 -1.09064
5.32118 -3.88103 -1.09964
5.36118 -3.88403 -1.10664
5.41118 -3.89503 -1.11464
5.46218 -3.90503 -1.12364
5.50618 -3.91103 -1.13064
5.54518 -3.91303 -1.13764
5.62518 -3.93003 -1.15064
5.65518 -3.92403 -1.15464
5.71718 -3.94103 -1.16664
5.76018 -3.94503 -1.17364
5.81018 -3.95203 -1.18164
5.86118 -3.96003 -1.19064
5.91318 -3.96803 -1.19864
5.94418 -3.97603 -1.20464
6.00718 -3.99103 -1.21564
6.04918 -3.99203 -1.22264
6.10218 -4.00003 -1.23164
6.17118 -4.01703 -1.24364
6.21818 -4.02003 -1.25164
6.26218 -4.03503 -1.25964
6.36518 -4.04603 -1.27664
6.42418 -4.05503 -1.28664
6.47718 -4.06003 -1.29564
6.53518 -4.06803 -1.30564
6.59418 -4.07703 -1.31564
6.65218 -4.09803 -1.32664
6.74818 -4.10003 -1.34264
6.80018 -4.10203 -1.35064
6.87318 -4.11703 -1.36364
6.95218 -4.13503 -1.37764
7.02918 -4.15103 -1.39164
7.13718 -4.17003 -1.41064
7.40518 -4.20403 -1.45664
7.48218 -4.21703 -1.46964
4.61218 -3.77103 -1.03664
4.82818 -3.80903 -1.07364
4.90518 -3.82003 -1.08664
5.33418 -3.88903 -1.16164
5.42218 -3.90103 -1.17664
5.46818 -3.90803 -1.18464
5.96818 -3.98603 -1.27264
6.13418 -4.01303 -1.30264
6.34518 -4.05103 -1.34064
6.38618 -4.04903 -1.34764
6.51018 -4.07003 -1.36964
6.80918 -4.12303 -1.42464
6.87718 -4.13503 -1.43664
3.32918 -3.57003 -0.885643
3.34118 -3.56103 -0.885643
3.35918 -3.55803 -0.887643
3.39618 -3.56303 -0.893643
3.86418 -3.64603 -0.973643
3.89918 -3.65703 -0.980643
3.91618 -3.65003 -0.982643
3.94918 -3.66903 -0.990643
4.00318 -3.67203 -0.998643
4.09218 -3.68403 -1.01364
4.11418 -3.68103 -1.01664
4.14418 -3.69603 -1.02364
4.17318 -3.69903 -1.02864
4.20418 -3.70303 -1.03364
4.23818 -3.70903 -1.03964
4.26618 -3.71003 -1.04364
4.30518 -3.72103 -1.05164
4.33918 -3.72703 -1.05764
4.36118 -3.73403 -1.06264
4.38618 -3.73203 -1.06564
4.41618 -3.73303 -1.07064
4.46018 -3.74703 -1.07964
4.49218 -3.75003 -1.08464
4.53118 -3.75803 -1.09164
4.55618 -3.75503 -1.09564
4.58618 -3.76803 -1.10164
4.65518 -3.77603 -1.11364
4.69318 -3.78303 -1.12064
4.73618 -3.79403 -1.12964
4.76518 -3.79203 -1.13364
4.80618 -3.80103 -1.14164
4.86718 -3.81203 -1.15264
4.90418 -3.81603 -1.15864
4.94718 -3.82503 -1.16664
4.98818 -3.83203 -1.17464
5.01918 -3.83103 -1.17964
5.06618 -3.84203 -1.18864
5.13818 -3.85803 -1.20264
5.17518 -3.86103 -1.20864
5.21318 -3.86503 -1.21564
5.25118 -3.86703 -1.22264
5.29018 -3.87003 -1.22864
5.34018 -3.88203 -1.23864
5.38218 -3.90003 -1.24764
5.42518 -3.90503 -1.25564
5.46218 -3.90603 -1.26164
5.50818 -3.91303 -1.27064
5.56018 -3.92403 -1.28064
5.59818 -3.92403 -1.28664
5.64218 -3.92903 -1.29464
5.68918 -3.94803 -1.30464
5.73218 -3.95203 -1.31264
5.77618 -3.95603 -1.32064
5.84018 -3.97303 -1.33364
5.87418 -3.96903 -1.33864
5.92018 -3.97403 -1.34764
5.97418 -3.98303 -1.35764
6.01618 -3.99703 -1.36664
6.06218 -4.00103 -1.37464
6.11418 -4.00803 -1.38464
6.16418 -4.01303 -1.39364
6.22818 -4.02703 -1.40564
6.28318 -4.03503 -1.41664
6.33218 -4.03903 -1.42564
6.37118 -4.05003 -1.43364
6.43218 -4.06003 -1.44464
6.48518 -4.06503 -1.45464
6.54718 -4.07603 -1.46664
3.31318 -3.56103 -0.928643
3.33718 -3.56303 -0.931643
3.35718 -3.57403 -0.936643
3.38718 -3.58303 -0.942643
3.40918 -3.58303 -0.945643
3.43018 -3.58303 -0.948643
3.45518 -3.58603 -0.952643
3.48518 -3.59403 -0.958643
3.50918 -3.59603 -0.962643
4.67918 -3.78803 -1.17664
4.71318 -3.79103 -1.18264
4.75718 -3.80203 -1.19164
5.25118 -3.87903 -1.28564
5.29318 -3.88403 -1.29364
5.41418 -3.90703 -1.31764
5.45618 -3.91203 -1.32564
5.49118 -3.91103 -1.33064
5.53718 -3.91703 -1.33964
5.59418 -3.93103 -1.35164
5.93218 -3.98803 -1.41864
3.04418 -3.52603 -0.922643
3.06918 -3.53303 -0.927643
3.13518 -3.54203 -0.938643
5.39018 -3.90003 -1.36664
5.42218 -3.89703 -1.37264
2.43118 -3.43303 -0.858643
2.43418 -3.42603 -0.857643
2.45418 -3.43103 -0.861643
2.48418 -3.42803 -0.865643
2.50718 -3.43503 -0.869643
2.72218 -3.47003 -0.906643
2.73518 -3.46503 -0.907643
2.83018 -3.48203 -0.923643
2.87218 -3.48803 -0.930643
2.92018 -3.50103 -0.940643
2.94218 -3.50503 -0.944643
2.97918 -3.51503 -0.951643
3.00118 -3.51903 -0.955643
3.04418 -3.52303 -0.963643
3.06718 -3.52703 -0.967643
3.09118 -3.53203 -0.971643
3.12418 -3.53603 -0.977643
3.17018 -3.54203 -0.985643
3.19418 -3.54703 -0.990643
3.24118 -3.55403 -0.998643
3.25718 -3.56003 -1.00264
3.28218 -3.56403 -1.00664
3.30418 -3.56503 -1.01064
3.32618 -3.56603 -1.01364
3.35418 -3.57403 -1.01964
3.37518 -3.57303 -1.02364
3.40518 -3.58203 -1.02964
3.44518 -3.59003 -1.03764
3.46318 -3.58603 -1.03964
3.51518 -3.59503 -1.04964
3.55018 -3.60703 -1.05664
3.57718 -3.61103 -1.06164
3.58118 -3.60403 -1.06164
3.62318 -3.62303 -1.07164
3.67218 -3.62603 -1.07964
3.69718 -3.62803 -1.08464
3.76118 -3.64403 -1.09764
3.82918 -3.65203 -1.11064
3.89018 -3.66403 -1.12264
3.91218 -3.66103 -1.12564
3.94318 -3.66703 -1.13164
3.99218 -3.67703 -1.14164
4.02518 -3.68403 -1.14864
4.07718 -3.68503 -1.15764
4.10918 -3.69003 -1.16364
4.15318 -3.70603 -1.17364
4.16818 -3.70703 -1.17664
4.19818 -3.71003 -1.18264
4.26318 -3.72003 -1.19464
4.29518 -3.72403 -1.20164
4.33618 -3.73603 -1.21064
4.35718 -3.73003 -1.21364
4.38418 -3.74003 -1.21964
4.45118 -3.74903 -1.23264
4.48018 -3.75003 -1.23764
4.52518 -3.76303 -1.24764
4.55718 -3.76503 -1.25364
4.58818 -3.76703 -1.25964
4.61518 -3.77703 -1.26564
4.64518 -3.77703 -1.27164
4.69218 -3.79003 -1.28164
4.73018 -3.79603 -1.28964
4.76018 -3.79603 -1.29464
4.80618 -3.80703 -1.30464
4.85318 -3.82003 -1.31564
4.91118 -3.82803 -1.32664
4.95118 -3.83403 -1.33464
4.99118 -3.83903 -1.34264
5.03218 -3.84603 -1.35164
5.06618 -3.84703 -1.35764
5.10918 -3.85403 -1.36664
5.14318 -3.86703 -1.37564
5.18518 -3.87303 -1.38364
5.22418 -3.87603 -1.39164
5.26818 -3.88303 -1.40064
5.30018 -3.88103 -1.40664
5.33618 -3.88103 -1.41264
5.65218 -3.93503 -1.47964
5.69618 -3.94003 -1.48864
1.71718 -3.32103 -0.820643
2.22518 -3.39703 -0.901643
2.29718 -3.40103 -0.912643
2.32018 -3.41103 -0.917643
2.34118 -3.41803 -0.921643
2.36618 -3.42003 -0.925643
2.40118 -3.42403 -0.931643
2.41918 -3.42703 -0.934643
2.44118 -3.43503 -0.939643
2.45918 -3.43703 -0.942643
2.48418 -3.43803 -0.946643
2.52218 -3.44403 -0.953643
2.54618 -3.45303 -0.958643
2.59218 -3.44803 -0.964643
2.60618 -3.45403 -0.967643
2.64918 -3.46603 -0.976643
2.67018 -3.47103 -0.981643
2.68718 -3.47003 -0.983643
2.70318 -3.46803 -0.985643
2.73318 -3.47203 -0.990643
2.76318 -3.48703 -0.998643
2.79418 -3.48203 -1.00264
2.81418 -3.48403 -1.00564
2.84218 -3.49603 -1.01264
2.85418 -3.48803 -1.01364
2.86618 -3.49103 -1.01564
2.89818 -3.50803 -1.02364
2.90518 -3.49403 -1.02264
2.93318 -3.50403 -1.02864
2.96318 -3.51703 -1.03564
2.97718 -3.51203 -1.03764
2.99718 -3.51303 -1.04064
3.04818 -3.51603 -1.04964
3.08618 -3.53703 -1.05964
3.10118 -3.53103 -1.06164
3.12218 -3.53303 -1.06564
3.19218 -3.55403 -1.08064
3.21418 -3.55703 -1.08464
3.23918 -3.56203 -1.08964
3.25418 -3.55603 -1.09164
3.28218 -3.56403 -1.09764
3.30318 -3.56303 -1.10064
3.32718 -3.57803 -1.10764
3.33718 -3.56603 -1.10764
3.35718 -3.56503 -1.11064
3.39018 -3.57703 -1.11864
3.42418 -3.59003 -1.12664
3.47018 -3.59203 -1.13464
3.48118 -3.59203 -1.13664
3.53318 -3.60103 -1.14764
3.55818 -3.60303 -1.15264
3.58118 -3.60303 -1.15664
3.60718 -3.60703 -1.16164
3.64618 -3.62303 -1.17164
3.65318 -3.61803 -1.17164
3.68718 -3.62903 -1.17964
3.70518 -3.62403 -1.18264
3.74218 -3.63603 -1.19064
3.77518 -3.64603 -1.19864
3.80418 -3.65003 -1.20464
3.82218 -3.64503 -1.20664
3.90618 -3.66603 -1.22564
3.96618 -3.67603 -1.23864
3.98918 -3.67403 -1.24264
4.03018 -3.68703 -1.25164
4.02818 -3.67403 -1.24964
4.07318 -3.69203 -1.26064
4.09618 -3.68903 -1.26464
4.16418 -3.70303 -1.27964
4.19618 -3.70803 -1.28664
4.24218 -3.72403 -1.29764
4.25518 -3.72403 -1.30064
4.28618 -3.72703 -1.30664
4.32418 -3.73603 -1.31564
4.34618 -3.73103 -1.31864
4.39018 -3.74503 -1.32964
4.41518 -3.74203 -1.33364
4.44918 -3.74703 -1.34064
4.47518 -3.75603 -1.34764
4.51818 -3.76803 -1.35764
4.54018 -3.76303 -1.36064
4.57118 -3.76403 -1.36764
4.61518 -3.77603 -1.37764
4.65418 -3.78303 -1.38564
4.68718 -3.78503 -1.39264
4.71418 -3.79503 -1.39964
4.75218 -3.80103 -1.40764
4.78718 -3.80403 -1.41564
4.82518 -3.80903 -1.42364
4.85318 -3.80703 -1.42864
1.51318 -3.27903 -0.826643
1.52718 -3.28303 -0.828643
1.53118 -3.27903 -0.828643
1.54418 -3.28003 -0.829643
1.56318 -3.29203 -0.834643
1.57518 -3.29103 -0.835643
1.58718 -3.29103 -0.837643
1.60518 -3.30203 -0.841643
1.61818 -3.30203 -0.843643
1.64018 -3.30803 -0.847643
1.65318 -3.30803 -0.848643
1.66118 -3.29803 -0.847643
1.67918 -3.30803 -0.851643
1.69518 -3.31303 -0.854643
1.70918 -3.31503 -0.856643
1.73318 -3.32403 -0.861643
1.74718 -3.32603 -0.863643
2.10618 -3.38103 -0.922643
2.12918 -3.38203 -0.926643
2.16318 -3.38803 -0.932643
2.17618 -3.38503 -0.933643
2.19618 -3.39303 -0.938643
2.21218 -3.39403 -0.940643
2.21818 -3.39203 -0.941643
2.23718 -3.39803 -0.945643
2.25118 -3.39603 -0.946643
2.27218 -3.40503 -0.951643
2.29318 -3.41403 -0.956643
2.30118 -3.40203 -0.955643
2.32018 -3.40703 -0.959643
2.33018 -3.41003 -0.961643
2.35018 -3.41703 -0.965643
2.37018 -3.42303 -0.969643
2.39118 -3.43003 -0.974643
2.42018 -3.42603 -0.977643
2.45318 -3.43803 -0.985643
2.47218 -3.44303 -0.989643
2.50918 -3.44803 -0.996643
2.52818 -3.45203 -1.00064
2.54418 -3.45103 -1.00264
2.55618 -3.44403 -1.00264
2.56818 -3.45003 -1.00564
2.60618 -3.45503 -1.01264
2.63118 -3.46503 -1.01864
2.65218 -3.47103 -1.02364
2.66318 -3.46303 -1.02364
2.68818 -3.47303 -1.02964
2.70218 -3.47903 -1.03264
2.71718 -3.47703 -1.03464
2.73818 -3.48103 -1.03864
2.75918 -3.48603 -1.04364
2.77918 -3.48803 -1.04664
2.79718 -3.48803 -1.05064
2.82118 -3.49603 -1.05564
2.82818 -3.49303 -1.05664
2.85218 -3.50103 -1.06164
2.87218 -3.50203 -1.06564
2.88718 -3.49903 -1.06764
2.91318 -3.50803 -1.07364
2.93018 -3.50603 -1.07564
2.95118 -3.50903 -1.07964
2.96918 -3.51903 -1.08464
2.98918 -3.52003 -1.08864
3.00218 -3.51403 -1.08964
3.02818 -3.52203 -1.09564
3.05518 -3.53003 -1.10164
3.06718 -3.52203 -1.10164
3.09718 -3.53403 -1.10964
3.11718 -3.54503 -1.11564
3.12618 -3.53403 -1.11464
3.14818 -3.53603 -1.11864
3.18118 -3.55103 -1.12764
3.19818 -3.54803 -1.12964
3.22718 -3.55803 -1.13664
3.25218 -3.56203 -1.14164
3.26118 -3.56103 -1.14364
3.29018 -3.57103 -1.15064
3.31618 -3.57703 -1.15564
3.34218 -3.58203 -1.16164
3.36518 -3.58403 -1.16564
3.38918 -3.58803 -1.17064
3.40518 -3.58103 -1.17264
3.41718 -3.58303 -1.17564
3.44918 -3.59403 -1.18364
3.47318 -3.59603 -1.18764
3.49718 -3.59903 -1.19264
3.52818 -3.60803 -1.19964
3.54818 -3.60603 -1.20364
3.57218 -3.60803 -1.20764
3.59818 -3.62303 -1.21564
3.62518 -3.62803 -1.22164
3.64818 -3.62703 -1.22564
3.70218 -3.63603 -1.23764
3.72318 -3.63403 -1.24064
3.75118 -3.63803 -1.24664
3.77618 -3.65103 -1.25364
3.79618 -3.64703 -1.25664
3.83018 -3.65703 -1.26464
3.85218 -3.65603 -1.26864
3.87918 -3.65803 -1.27464
3.91618 -3.67003 -1.28364
3.94218 -3.67103 -1.28864
3.95718 -3.67403 -1.29164
3.98918 -3.68003 -1.29964
4.01318 -3.67903 -1.30364
4.04618 -3.68603 -1.31164
4.08718 -3.70103 -1.32164
4.10818 -3.69603 -1.32464
4.14518 -3.70603 -1.33364
4.16418 -3.71103 -1.33864
4.19418 -3.71503 -1.34464
4.22918 -3.72303 -1.35264
4.25518 -3.72203 -1.35764
4.29218 -3.73003 -1.36664
4.31918 -3.73103 -1.37264
4.35218 -3.73503 -1.37964
4.37918 -3.74703 -1.38664
4.41618 -3.75503 -1.39564
4.43518 -3.74703 -1.39764
4.47118 -3.75303 -1.40564
4.49918 -3.75303 -1.41164
4.54018 -3.76403 -1.42164
4.64718 -3.79203 -1.44764
4.68018 -3.79403 -1.45464
1.96018 -3.36303 -0.942643
2.61918 -3.46203 -1.06464
2.64418 -3.47203 -1.07064
2.69418 -3.48003 -1.08064
2.73218 -3.48203 -1.08764
2.91418 -3.51603 -1.12564
3.05518 -3.53603 -1.15464
3.09118 -3.54303 -1.16264
3.11518 -3.54803 -1.16764
3.20718 -3.56103 -1.18764
3.26918 -3.57303 -1.20064
3.31818 -3.58003 -1.21164
3.34118 -3.58203 -1.21564
3.37818 -3.58803 -1.22364
3.52918 -3.60803 -1.25664
3.67518 -3.62903 -1.28864
1.58518 -3.29003 -0.909643
1.66418 -3.30703 -0.923643
1.67518 -3.30303 -0.924643
1.70218 -3.30503 -0.928643
1.71718 -3.31003 -0.931643
1.73718 -3.31003 -0.933643
1.76618 -3.31403 -0.938643
1.78318 -3.32103 -0.942643
1.80118 -3.33003 -0.947643
1.81418 -3.32803 -0.948643
1.83118 -3.33603 -0.952643
1.83718 -3.33503 -0.953643
1.85318 -3.33703 -0.956643
1.86618 -3.33703 -0.957643
1.88118 -3.33903 -0.960643
1.91318 -3.34803 -0.966643
1.92318 -3.34003 -0.966643
1.93318 -3.34503 -0.969643
1.94818 -3.34703 -0.971643
1.96218 -3.34803 -0.973643
1.97818 -3.35003 -0.976643
2.01118 -3.35803 -0.983643
2.02618 -3.35903 -0.985643
2.03418 -3.36103 -0.987643
2.05518 -3.37103 -0.992643
2.06518 -3.36503 -0.992643
2.22218 -3.39103 -1.02264
2.26418 -3.39603 -1.03064
2.63918 -3.45703 -1.10564
2.68018 -3.46603 -1.11464
2.70218 -3.47103 -1.11964
2.71818 -3.47003 -1.12164
2.72918 -3.47203 -1.12364
2.74518 -3.47103 -1.12664
3.00218 -3.51703 -1.18264
3.02118 -3.51603 -1.18564
3.07018 -3.52903 -1.19764
3.08918 -3.52803 -1.20064
3.11018 -3.53003 -1.20464
3.13318 -3.53403 -1.20964
3.16818 -3.54003 -1.21764
3.26818 -3.56203 -1.24164
3.28618 -3.55803 -1.24364
3.30118 -3.56303 -1.24764
3.32518 -3.56703 -1.25264
3.35618 -3.57803 -1.26164
3.37518 -3.57603 -1.26464
3.39718 -3.57603 -1.26864
3.44718 -3.58403 -1.27964
3.46118 -3.58703 -1.28364
3.48818 -3.59303 -1.28964
3.51518 -3.59803 -1.29664
3.54418 -3.60503 -1.30364
3.63118 -3.61403 -1.32264
3.65918 -3.61903 -1.32864
3.69618 -3.63303 -1.33864
3.72218 -3.63603 -1.34464
3.75318 -3.64403 -1.35264
3.78618 -3.65303 -1.36064
3.80918 -3.65203 -1.36564
3.82418 -3.65503 -1.36964
3.84818 -3.65503 -1.37364
3.87718 -3.65903 -1.38064
3.90618 -3.66403 -1.38764
3.93518 -3.66803 -1.39364
3.96218 -3.67003 -1.39964
4.00418 -3.67503 -1.40964
4.03618 -3.68003 -1.41764
4.06718 -3.68603 -1.42464
1.91018 -3.35403 -1.00664
1.93618 -3.35203 -1.00964
1.96818 -3.35803 -1.01564
2.00518 -3.35903 -1.02164
2.05018 -3.36203 -1.02964
2.09018 -3.36703 -1.03664
2.14118 -3.37803 -1.04664
2.67618 -3.46103 -1.15564
3.60918 -3.61403 -1.36864
3.69118 -3.62703 -1.38764
3.76318 -3.63903 -1.40564
3.85018 -3.65403 -1.42664
1.66518 -3.30403 -0.986643
1.67018 -3.30103 -0.986643
1.70718 -3.32303 -0.997643
1.71618 -3.31403 -0.996643
1.73118 -3.31903 -0.999643
1.75618 -3.31503 -1.00164
1.77218 -3.33303 -1.00864
1.78218 -3.32703 -1.00864
1.80118 -3.33803 -1.01464
1.81618 -3.34103 -1.01764
1.83018 -3.34103 -1.01864
1.84218 -3.33803 -1.02064
1.85918 -3.34403 -1.02464
1.86618 -3.34503 -1.02564
1.88218 -3.34903 -1.02864
1.89418 -3.34603 -1.02964
1.91218 -3.35203 -1.03364
1.92818 -3.35603 -1.03764
1.96118 -3.36503 -1.04464
1.97518 -3.35303 -1.04364
2.00118 -3.37303 -1.05264
2.00518 -3.35503 -1.04864
