7.80724 -2.05511 -1.82064
7.81024 -2.03011 -1.81964
7.81024 -1.99011 -1.81764
7.81624 -1.96611 -1.81764
7.83924 -1.94511 -1.82164
7.83224 -1.91811 -1.81864
7.82924 -1.89111 -1.81664
7.85624 -1.87111 -1.82164
7.84324 -1.85511 -1.81764
7.85924 -1.83311 -1.81964
7.86624 -1.80811 -1.82064
7.87024 -1.78311 -1.81964
7.85824 -1.75511 -1.81564
7.88624 -1.70911 -1.81964
7.88724 -1.69611 -1.81964
7.90624 -1.67411 -1.82264
7.88824 -1.64511 -1.81764
7.90724 -1.62311 -1.82064
7.92924 -1.60111 -1.82464
7.92624 -1.57511 -1.82264
7.93324 -1.55011 -1.82364
7.94224 -1.51311 -1.82364
7.94524 -1.48811 -1.82364
7.96424 -1.44011 -1.82564
7.98124 -1.32711 -1.82564
8.00124 -1.25311 -1.82664
8.00924 -1.18911 -1.82664
7.03424 -2.91311 -1.79064
7.05124 -2.89411 -1.79264
7.06024 -2.87111 -1.79264
7.08024 -2.85411 -1.79564
7.08324 -2.82911 -1.79364
7.09024 -2.80611 -1.79364
7.08724 -2.79211 -1.79164
7.10524 -2.77311 -1.79364
7.11024 -2.75011 -1.79264
7.11724 -2.72711 -1.79264
7.12424 -2.70411 -1.79164
7.12824 -2.68011 -1.79064
7.14624 -2.66111 -1.79364
7.14524 -2.64811 -1.79164
7.21124 -2.48011 -1.79364
7.21524 -2.45711 -1.79264
7.27324 -2.31211 -1.79464
7.28324 -2.29011 -1.79564
7.30124 -2.24511 -1.79664
7.30124 -2.22011 -1.79464
7.31624 -2.21211 -1.79764
7.32924 -2.16611 -1.79764
7.35124 -2.14711 -1.80164
7.35824 -2.12411 -1.80164
7.34024 -2.09411 -1.79564
7.36724 -2.07711 -1.80064
7.36324 -2.06311 -1.79864
7.37924 -2.04311 -1.80164
7.38524 -2.01911 -1.80164
7.40124 -1.99911 -1.80364
7.39224 -1.97111 -1.79964
7.41724 -1.95311 -1.80464
7.42524 -1.93011 -1.80464
7.42824 -1.91911 -1.80464
7.42524 -1.89311 -1.80264
7.44724 -1.87411 -1.80664
7.45724 -1.85111 -1.80764
7.44424 -1.82311 -1.80264
7.44624 -1.79911 -1.80164
7.45524 -1.77611 -1.80264
7.46024 -1.76511 -1.80364
7.46924 -1.74311 -1.80464
7.46524 -1.71711 -1.80164
7.46924 -1.69311 -1.80164
7.49724 -1.67511 -1.80764
7.49424 -1.64911 -1.80564
7.50924 -1.62811 -1.80764
7.50824 -1.61511 -1.80664
7.49624 -1.58811 -1.80264
7.52324 -1.56911 -1.80864
7.52824 -1.54611 -1.80864
7.51824 -1.51911 -1.80464
7.53824 -1.49811 -1.80864
7.55424 -1.47711 -1.81164
7.54924 -1.46311 -1.80964
7.54924 -1.43911 -1.80864
7.58424 -1.42111 -1.81664
7.56424 -1.39311 -1.80964
7.57424 -1.37011 -1.81164
7.58624 -1.34711 -1.81364
7.57924 -1.32211 -1.81064
7.59024 -1.31111 -1.81264
7.58724 -1.28611 -1.81064
7.60224 -1.26411 -1.81364
7.61224 -1.24111 -1.81564
7.61824 -1.21811 -1.81564
7.61224 -1.19211 -1.81364
7.59824 -1.16611 -1.80864
7.63324 -1.15911 -1.81764
7.61724 -1.13211 -1.81264
7.64024 -1.11111 -1.81764
7.63624 -1.08611 -1.81564
7.63724 -1.06111 -1.81464
7.63724 -1.03711 -1.81364
7.66924 -1.01611 -1.82064
7.66324 -1.00311 -1.81864
7.63924 -0.976114 -1.81264
7.67124 -0.956114 -1.81964
7.66624 -0.931114 -1.81764
7.67124 -0.907114 -1.81864
7.67724 -0.883114 -1.81864
7.69024 -0.860114 -1.82164
7.67424 -0.846114 -1.81764
7.70024 -0.824114 -1.82264
7.68924 -0.799114 -1.81964
7.69924 -0.775114 -1.82164
7.69724 -0.751114 -1.82064
7.71724 -0.728114 -1.82464
7.70824 -0.703114 -1.82164
7.70524 -0.690114 -1.82064
7.70324 -0.666114 -1.81964
7.70524 -0.642114 -1.81964
7.72924 -0.619114 -1.82564
7.71124 -0.593114 -1.82064
7.72424 -0.546114 -1.82264
7.72324 -0.533114 -1.82264
7.73724 -0.510114 -1.82564
7.74224 -0.486114 -1.82664
7.73024 -0.461114 -1.82264
7.75024 -0.413114 -1.82764
7.75124 -0.389114 -1.82764
7.75724 -0.352114 -1.82864
7.74224 -0.303114 -1.82364
6.65624 3.41489 -1.83364
6.62124 3.47589 -1.83364
6.60724 3.49489 -1.83264
6.58024 3.52089 -1.82964
6.57824 3.54589 -1.83164
6.53824 3.57789 -1.82664
6.52524 3.59789 -1.82664
6.51624 3.61889 -1.82664
6.50424 3.63989 -1.82664
6.50924 3.65589 -1.82964
6.50624 3.68089 -1.83264
6.48424 3.69489 -1.82964
6.47424 3.71689 -1.82964
6.44924 3.75589 -1.82964
6.44224 3.77989 -1.83064
6.43924 3.79189 -1.83164
6.42424 3.80989 -1.83064
6.40524 3.82589 -1.82864
6.39724 3.84789 -1.82964
6.38324 3.86689 -1.82964
6.36724 3.88489 -1.82864
6.34924 3.92889 -1.83064
6.34224 3.93789 -1.82964
6.33624 3.96189 -1.83164
6.31224 3.97489 -1.82864
6.30824 3.99989 -1.83064
6.29024 4.01689 -1.82964
6.27924 4.03689 -1.82964
6.26624 4.05689 -1.82964
6.24424 4.08389 -1.82864
6.22924 4.10289 -1.82864
6.21224 4.11889 -1.82664
6.20024 4.13989 -1.82764
6.74724 -2.78411 -1.78664
6.75724 -2.76411 -1.78664
6.99624 -2.17911 -1.79464
7.00924 -2.15811 -1.79564
7.00124 -2.13211 -1.79164
7.01524 -2.11211 -1.79364
7.03324 -2.06911 -1.79564
7.03724 -2.05811 -1.79564
7.04124 -2.03611 -1.79464
7.04224 -2.01211 -1.79364
7.05224 -1.99111 -1.79464
7.05624 -1.96811 -1.79364
7.06624 -1.94711 -1.79464
7.07224 -1.92511 -1.79464
7.07324 -1.91311 -1.79464
7.08524 -1.89311 -1.79564
7.10224 -1.87311 -1.79864
7.10224 -1.84911 -1.79764
7.10124 -1.82511 -1.79564
7.11624 -1.80511 -1.79764
7.12524 -1.78411 -1.79864
7.11324 -1.76911 -1.79464
7.12224 -1.74811 -1.79564
7.13924 -1.72811 -1.79864
7.13124 -1.70211 -1.79564
7.15324 -1.68411 -1.79964
7.15924 -1.66111 -1.79964
7.15124 -1.63611 -1.79664
7.15924 -1.62611 -1.79764
7.17524 -1.60611 -1.80064
7.17124 -1.58111 -1.79864
7.17824 -1.55911 -1.79864
7.19424 -1.53911 -1.80164
7.18524 -1.51411 -1.79864
7.19224 -1.49211 -1.79864
7.20824 -1.48311 -1.80264
7.21624 -1.46111 -1.80364
7.20924 -1.43611 -1.80064
7.22924 -1.41711 -1.80464
7.21624 -1.39011 -1.79964
7.23224 -1.37011 -1.80264
7.25724 -1.35111 -1.80864
7.24824 -1.33811 -1.80564
7.23724 -1.31211 -1.80164
7.25224 -1.29111 -1.80464
7.24724 -1.26711 -1.80164
7.26224 -1.24611 -1.80464
7.27924 -1.22611 -1.80864
7.27424 -1.20111 -1.80564
7.28924 -1.19211 -1.80964
7.28924 -1.16811 -1.80864
7.28324 -1.14411 -1.80564
7.28124 -1.12011 -1.80464
7.30324 -1.10011 -1.80964
7.29324 -1.07511 -1.80564
7.30224 -1.05311 -1.80764
7.31424 -1.04311 -1.80964
7.31124 -1.01911 -1.80864
7.32224 -0.997114 -1.81064
7.32324 -0.974114 -1.80964
7.32224 -0.951114 -1.80864
7.32724 -0.928114 -1.80964
7.34524 -0.907114 -1.81364
7.33124 -0.893114 -1.80964
7.35124 -0.872114 -1.81364
7.34524 -0.848114 -1.81164
7.34124 -0.824114 -1.80964
7.35924 -0.803114 -1.81364
7.37024 -0.781114 -1.81564
7.36024 -0.756114 -1.81264
7.36224 -0.745114 -1.81264
7.37324 -0.723114 -1.81564
7.35824 -0.698114 -1.81064
7.36624 -0.675114 -1.81264
7.38224 -0.653114 -1.81564
7.37224 -0.629114 -1.81264
7.37424 -0.606114 -1.81264
7.38724 -0.595114 -1.81564
7.38324 -0.572114 -1.81464
7.39624 -0.549114 -1.81764
7.39224 -0.526114 -1.81564
7.38424 -0.502114 -1.81364
7.38924 -0.479114 -1.81464
7.39924 -0.456114 -1.81664
7.38824 -0.444114 -1.81364
7.40524 -0.422114 -1.81764
7.40224 -0.398114 -1.81664
7.41124 -0.375114 -1.81864
7.39124 -0.351114 -1.81264
7.41524 -0.329114 -1.81864
7.41024 -0.305114 -1.81764
7.40724 -0.293114 -1.81664
7.41024 -0.270114 -1.81664
7.40524 -0.247114 -1.81564
7.40724 -0.223114 -1.81564
7.42524 -0.201114 -1.82064
7.43624 -0.178114 -1.82264
7.43624 -0.154114 -1.82264
7.44024 -0.143114 -1.82364
5.98124 3.91389 -1.82664
5.94824 3.97289 -1.82764
6.41224 -2.82511 -1.78864
6.42824 -2.80711 -1.79064
6.42024 -2.79211 -1.78664
6.42824 -2.77211 -1.78664
6.44224 -2.75411 -1.78864
6.43324 -2.72611 -1.78264
6.46024 -2.71311 -1.78864
6.47224 -2.69511 -1.78964
6.48924 -2.67811 -1.79164
6.49024 -2.66611 -1.79064
6.49824 -2.64611 -1.79064
6.50624 -2.62511 -1.79064
6.52924 -2.61111 -1.79464
6.53024 -2.58711 -1.79264
6.53824 -2.56711 -1.79264
6.54124 -2.54411 -1.79164
6.53924 -2.53211 -1.78964
6.55224 -2.51311 -1.79164
6.55924 -2.49211 -1.79064
6.56124 -2.46911 -1.78964
6.57624 -2.45111 -1.79164
6.58224 -2.43011 -1.79064
6.60224 -2.41411 -1.79464
6.59724 -2.40011 -1.79164
6.61724 -2.38411 -1.79564
6.61024 -2.35811 -1.79164
6.63524 -2.34411 -1.79664
6.64124 -2.32211 -1.79564
6.65224 -2.30311 -1.79664
6.63724 -2.27411 -1.79064
6.65524 -2.26911 -1.79464
6.65924 -2.24711 -1.79364
6.67324 -2.22811 -1.79564
6.69124 -2.21111 -1.79964
6.67024 -2.18111 -1.79164
6.68524 -2.16211 -1.79364
6.70624 -2.14611 -1.79764
6.69524 -2.13111 -1.79364
6.71624 -2.11411 -1.79764
6.71724 -2.09111 -1.79564
6.72024 -2.06911 -1.79464
6.73624 -2.05111 -1.79764
6.71324 -2.02111 -1.78964
6.75824 -2.01111 -1.80064
6.76124 -2.00111 -1.80064
6.77324 -1.98111 -1.80164
6.77924 -1.96011 -1.80164
6.78124 -1.93711 -1.80064
6.81024 -1.92211 -1.80664
6.79924 -1.89611 -1.80264
6.81624 -1.87811 -1.80564
6.81324 -1.86611 -1.80364
6.82524 -1.84611 -1.80564
6.81824 -1.82111 -1.80164
6.83824 -1.80311 -1.80564
6.82024 -1.77611 -1.79964
6.84824 -1.76011 -1.80564
6.84924 -1.73711 -1.80464
6.82824 -1.72111 -1.79764
6.86324 -1.70611 -1.80564
6.86824 -1.68511 -1.80564
6.87224 -1.66311 -1.80564
6.88624 -1.64311 -1.80764
6.89324 -1.62211 -1.80864
6.86624 -1.59311 -1.79964
6.88824 -1.58711 -1.80464
6.89824 -1.56611 -1.80664
6.89424 -1.54311 -1.80364
6.90224 -1.52211 -1.80464
6.91124 -1.50111 -1.80564
6.92524 -1.48111 -1.80864
6.92624 -1.45911 -1.80764
6.92624 -1.44711 -1.80664
6.92924 -1.42511 -1.80664
6.94324 -1.40511 -1.80964
6.94924 -1.38411 -1.80964
6.95524 -1.36211 -1.81064
6.95824 -1.34011 -1.80964
6.96424 -1.30711 -1.80964
6.97924 -1.28711 -1.81264
6.98124 -1.26511 -1.81264
6.97624 -1.24211 -1.80964
6.98024 -1.22011 -1.80964
7.00624 -1.20211 -1.81564
6.98024 -1.17511 -1.80764
6.99924 -1.16611 -1.81264
7.00424 -1.14511 -1.81264
6.99824 -1.12111 -1.81064
6.99224 -1.09811 -1.80764
7.02224 -1.08011 -1.81464
7.01224 -1.05611 -1.81164
7.03524 -1.03611 -1.81664
7.02524 -1.02411 -1.81364
7.03424 -1.00311 -1.81464
7.02024 -0.978114 -1.81064
7.03624 -0.958114 -1.81364
7.04324 -0.936114 -1.81464
7.03424 -0.913114 -1.81164
7.05424 -0.893114 -1.81664
7.05224 -0.881114 -1.81564
7.03924 -0.857114 -1.81164
7.05624 -0.814114 -1.81464
7.05924 -0.792114 -1.81464
7.07424 -0.771114 -1.81764
7.06724 -0.748114 -1.81564
7.05924 -0.736114 -1.81264
7.07824 -0.715114 -1.81764
7.06924 -0.692114 -1.81464
7.08324 -0.671114 -1.81764
7.08324 -0.626114 -1.81664
7.09124 -0.604114 -1.81764
7.08424 -0.593114 -1.81564
7.09724 -0.571114 -1.81864
7.09924 -0.549114 -1.81864
7.09524 -0.504114 -1.81664
7.10724 -0.460114 -1.81964
7.11224 -0.449114 -1.82064
7.11524 -0.359114 -1.82064
7.11524 -0.315114 -1.81964
6.87124 0.0178864 -1.81264
6.89424 0.0398864 -1.81864
6.88124 0.0498864 -1.81464
6.87324 0.0718864 -1.81264
6.88224 0.0938864 -1.81564
6.89724 0.114886 -1.81964
6.89324 0.136886 -1.81864
6.89424 0.179886 -1.81964
6.16124 3.14689 -1.82564
6.14424 3.16289 -1.82264
6.12724 3.17789 -1.82064
6.12024 3.18689 -1.82064
6.11924 3.21089 -1.82264
6.09524 3.22289 -1.81864
6.09824 3.24889 -1.82264
6.08124 3.26489 -1.82064
6.05924 3.27689 -1.81764
6.06124 3.29089 -1.81964
6.04924 3.30889 -1.81864
6.02324 3.31889 -1.81364
6.02124 3.34289 -1.81664
6.01224 3.36289 -1.81764
5.99724 3.37889 -1.81564
5.99624 3.40289 -1.81864
5.98724 3.41089 -1.81764
5.96724 3.42389 -1.81464
5.96424 3.44689 -1.81764
5.95324 3.46589 -1.81764
5.92424 3.47389 -1.81164
5.92324 3.49889 -1.81464
5.90224 3.51089 -1.81164
5.88824 3.51589 -1.80864
5.87924 3.53489 -1.80864
5.87824 3.55989 -1.81264
5.85224 3.56889 -1.80764
5.84724 3.59089 -1.80964
5.83424 3.60889 -1.80864
5.82324 3.62689 -1.80864
5.81024 3.64389 -1.80864
5.79924 3.64989 -1.80664
5.77924 3.66289 -1.80464
5.77924 3.68889 -1.80764
5.76324 3.70389 -1.80664
5.74824 3.71989 -1.80564
5.74724 3.74489 -1.80864
5.73424 3.76189 -1.80864
5.71424 3.81389 -1.81164
5.69424 3.82589 -1.80864
5.69324 3.85089 -1.81264
5.66624 3.85989 -1.80764
5.65624 3.86489 -1.80664
5.66124 3.89489 -1.81264
5.65024 3.91389 -1.81264
5.63024 3.92589 -1.80964
5.62724 3.94989 -1.81364
5.61824 3.96989 -1.81464
5.60224 3.98589 -1.81364
5.59924 3.99689 -1.81464
5.58624 4.01389 -1.81464
5.56624 4.02589 -1.81164
5.55324 4.04389 -1.81164
5.55624 4.07189 -1.81764
5.53424 4.08289 -1.81364
5.52124 4.09989 -1.81364
5.51324 4.10789 -1.81364
5.49924 4.12389 -1.81264
5.48924 4.14389 -1.81364
5.48524 4.16789 -1.81764
5.47224 4.18489 -1.81764
5.46024 4.20289 -1.81764
5.43624 4.21189 -1.81364
5.44624 4.23389 -1.81964
5.42624 4.24489 -1.81764
5.40924 4.25989 -1.81564
5.39624 4.27689 -1.81564
5.38824 4.29789 -1.81864
6.66924 -1.34111 -1.79264
6.72324 -1.05711 -1.79364
6.74124 -0.952114 -1.79464
6.75924 -0.879114 -1.79664
6.76724 -0.858114 -1.79864
6.75624 -0.835114 -1.79464
6.77724 -0.795114 -1.79864
6.77724 -0.741114 -1.79764
6.77424 -0.719114 -1.79564
6.77624 -0.698114 -1.79564
6.78224 -0.677114 -1.79664
6.79324 -0.646114 -1.79864
6.81024 -0.583114 -1.80164
6.79824 -0.560114 -1.79864
6.80024 -0.539114 -1.79864
6.80624 -0.518114 -1.79964
6.80324 -0.507114 -1.79864
6.81224 -0.486114 -1.80064
6.81524 -0.464114 -1.80064
6.81124 -0.443114 -1.79964
6.81224 -0.421114 -1.79964
6.83324 -0.401114 -1.80464
6.82124 -0.379114 -1.80064
6.82924 -0.369114 -1.80264
6.82224 -0.347114 -1.80064
6.83724 -0.326114 -1.80464
6.82024 -0.304114 -1.79964
6.83324 -0.283114 -1.80264
6.84324 -0.262114 -1.80564
6.83524 -0.240114 -1.80264
6.83924 -0.229114 -1.80464
6.84524 -0.208114 -1.80564
6.84024 -0.186114 -1.80464
6.86224 -0.165114 -1.80964
6.84924 -0.143114 -1.80664
6.86524 -0.122114 -1.81064
6.85924 -0.101114 -1.80864
6.86524 -0.0901136 -1.81064
6.85824 -0.0681136 -1.80864
6.87324 -0.0471136 -1.81264
6.87024 -0.0251136 -1.81164
6.87524 -0.00411364 -1.81364
6.61824 0.0128864 -1.80664
6.62924 0.0238864 -1.80964
6.62724 0.0448864 -1.80964
6.64424 0.0658864 -1.81464
6.63524 0.0858864 -1.81164
6.64224 0.106886 -1.81364
6.63224 0.127886 -1.81064
6.64324 0.148886 -1.81464
6.64524 0.159886 -1.81464
6.63824 0.179886 -1.81364
6.64724 0.201886 -1.81564
6.64324 0.221886 -1.81464
6.65024 0.243886 -1.81664
6.64624 0.295886 -1.81664
6.65024 0.337886 -1.81864
5.91224 3.07489 -1.81964
5.90124 3.09189 -1.81964
5.89124 3.11089 -1.81964
5.86924 3.12289 -1.81564
5.85424 3.13889 -1.81364
5.84024 3.15389 -1.81164
5.83824 3.16489 -1.81364
5.83624 3.18789 -1.81564
5.81624 3.20089 -1.81264
5.81124 3.22189 -1.81464
5.79824 3.23789 -1.81364
5.79924 3.26289 -1.81664
5.77624 3.27389 -1.81264
5.76224 3.27789 -1.80964
5.76024 3.30089 -1.81264
5.74624 3.31689 -1.81164
5.73624 3.33489 -1.81164
5.72724 3.35389 -1.81164
5.71824 3.37289 -1.81264
5.69824 3.37289 -1.80764
5.68524 3.41389 -1.81064
5.67424 3.43189 -1.81064
5.65524 3.44489 -1.80764
5.64124 3.45989 -1.80664
5.62724 3.47589 -1.80564
5.62824 3.48889 -1.80764
5.61524 3.50589 -1.80664
5.59924 3.51989 -1.80564
5.59324 3.54089 -1.80664
5.57724 3.55489 -1.80564
5.56824 3.57389 -1.80564
5.56124 3.59389 -1.80764
5.54924 3.59889 -1.80564
5.53524 3.61389 -1.80464
5.53424 3.63889 -1.80764
5.51224 3.64889 -1.80464
5.52124 3.67989 -1.81164
5.50624 3.69489 -1.81064
5.49024 3.70889 -1.80864
5.48924 3.72089 -1.81064
5.48324 3.74289 -1.81264
5.47324 3.76089 -1.81364
5.46024 3.77689 -1.81264
5.44324 3.79089 -1.81064
5.42524 3.80389 -1.80864
5.41124 3.81989 -1.80764
5.41624 3.84889 -1.81464
5.39224 3.84389 -1.80764
5.39224 3.86989 -1.81164
5.38624 3.89089 -1.81464
5.35724 3.89589 -1.80764
5.35224 3.91789 -1.81064
5.34324 3.93689 -1.81164
5.31724 3.94389 -1.80664
5.31724 3.95689 -1.80964
5.31024 3.97789 -1.81164
5.29624 3.99289 -1.81064
5.28224 4.00889 -1.81064
5.28624 4.03789 -1.81664
5.25824 4.04289 -1.81064
5.24124 4.05589 -1.80964
5.24724 4.07389 -1.81364
5.22224 4.08089 -1.80964
5.21124 4.09789 -1.80964
5.20824 4.12289 -1.81364
5.18024 4.12689 -1.80764
5.15424 4.13289 -1.80264
5.16924 4.17189 -1.81364
5.14924 4.16889 -1.80864
5.14224 4.18989 -1.81064
5.13924 4.21489 -1.81464
5.10124 4.20989 -1.80564
5.09624 4.23389 -1.80864
5.09024 4.25589 -1.81164
5.06724 4.26289 -1.80764
5.06924 4.27789 -1.81064
5.06024 4.29789 -1.81264
5.02924 4.29889 -1.80564
5.02124 4.31989 -1.80764
5.01224 4.33889 -1.80964
4.99124 4.34889 -1.80664
4.97424 4.36189 -1.80564
4.97824 4.37889 -1.80964
4.96224 4.39289 -1.80964
4.93924 4.39889 -1.80564
4.93024 4.41989 -1.80764
4.90224 4.42289 -1.80164
4.88624 4.43489 -1.80064
4.88924 4.46589 -1.80764
4.87424 4.46789 -1.80464
4.85124 4.47389 -1.80064
4.84124 4.49289 -1.80264
4.81824 4.49989 -1.79964
4.80424 4.51489 -1.79964
4.80124 4.54089 -1.80364
4.77624 4.54489 -1.79964
4.76324 4.54789 -1.79664
4.75824 4.57189 -1.80064
4.73624 4.57889 -1.79764
4.72024 4.59189 -1.79664
4.70824 4.60989 -1.79764
5.93724 -2.68911 -1.77764
5.96624 -2.63511 -1.77864
5.98124 -2.59611 -1.77764
6.00924 -2.53011 -1.77764
6.18324 -2.10311 -1.78164
6.26224 -1.89111 -1.78464
6.56524 -0.514114 -1.79664
6.56524 -0.410114 -1.79464
6.57224 -0.359114 -1.79564
6.57524 -0.338114 -1.79664
6.58124 -0.318114 -1.79764
6.57524 -0.297114 -1.79564
6.58124 -0.276114 -1.79764
6.59024 -0.256114 -1.79964
6.59024 -0.246114 -1.79964
6.58724 -0.225114 -1.79864
6.59424 -0.204114 -1.80064
6.58624 -0.183114 -1.79764
6.58924 -0.163114 -1.79864
6.60124 -0.142114 -1.80164
6.59424 -0.121114 -1.79964
6.58424 -0.111114 -1.79664
6.59824 -0.0901136 -1.80064
6.60224 -0.0701136 -1.80164
6.61024 -0.0491136 -1.80464
6.61224 -0.0281136 -1.80464
6.62224 -0.00711364 -1.80764
6.46224 0.0118864 -1.80764
6.46224 0.0328864 -1.80764
6.44824 0.0528864 -1.80364
6.45424 0.0728864 -1.80564
6.46024 0.0828864 -1.80764
6.45624 0.103886 -1.80564
6.46724 0.123886 -1.80964
6.46224 0.143886 -1.80864
6.45824 0.164886 -1.80764
6.46124 0.184886 -1.80864
6.46824 0.204886 -1.81064
6.47424 0.215886 -1.81264
6.47624 0.256886 -1.81364
6.48324 0.276886 -1.81564
6.47824 0.296886 -1.81464
6.48324 0.317886 -1.81664
6.48424 0.338886 -1.81664
5.78224 2.97089 -1.81964
5.77224 2.98889 -1.81964
5.76624 3.00889 -1.82064
5.76024 3.01689 -1.81964
5.73824 3.02889 -1.81564
5.72724 3.04589 -1.81564
5.71824 3.06389 -1.81564
5.71624 3.08689 -1.81764
5.70524 3.10389 -1.81764
5.68824 3.11789 -1.81564
5.68424 3.12689 -1.81564
5.66724 3.14089 -1.81264
5.66024 3.16089 -1.81364
5.65424 3.17989 -1.81564
5.65224 3.20289 -1.81764
5.62024 3.20789 -1.81064
5.62024 3.23189 -1.81364
5.60224 3.23289 -1.80964
5.58824 3.24889 -1.80864
5.58524 3.26989 -1.81064
5.57924 3.28989 -1.81264
5.56624 3.30589 -1.81164
5.55024 3.32089 -1.80964
5.54524 3.34089 -1.81164
5.51824 3.33689 -1.80364
5.52324 3.36289 -1.80864
5.50524 3.37589 -1.80664
5.49624 3.39489 -1.80764
5.49224 3.41589 -1.80964
5.47724 3.42989 -1.80764
5.46324 3.44489 -1.80664
5.46524 3.47089 -1.81164
5.44824 3.47189 -1.80764
5.43524 3.48789 -1.80664
5.43124 3.50889 -1.80864
5.41224 3.52089 -1.80564
5.41724 3.54889 -1.81164
5.40424 3.56389 -1.81164
5.36724 3.56489 -1.80164
5.37424 3.58089 -1.80664
5.36324 3.59789 -1.80664
5.34824 3.61289 -1.80564
5.33424 3.62789 -1.80464
5.33224 3.65089 -1.80764
5.31424 3.66289 -1.80564
5.29624 3.67589 -1.80364
5.30024 3.68989 -1.80664
5.27724 3.69889 -1.80264
5.27424 3.72089 -1.80564
5.25924 3.73589 -1.80464
5.24224 3.74889 -1.80264
5.23724 3.76989 -1.80464
5.23924 3.79589 -1.80964
5.21124 3.78889 -1.80164
5.20824 3.81189 -1.80564
5.20124 3.83189 -1.80764
5.16724 3.83189 -1.79964
5.16824 3.85789 -1.80364
5.16324 3.87889 -1.80664
5.13424 3.88289 -1.80064
5.12324 3.91289 -1.80364
5.10524 3.92389 -1.80064
5.09624 3.94289 -1.80164
5.09524 3.96789 -1.80664
5.06824 3.97189 -1.80064
5.05424 3.98689 -1.80064
5.06624 4.00889 -1.80764
5.03324 4.00989 -1.79964
5.02524 4.02889 -1.80164
5.02524 4.05389 -1.80564
5.00024 4.05989 -1.80164
4.98724 4.07589 -1.80164
4.98924 4.10389 -1.80764
4.96224 4.09489 -1.79964
4.96424 4.12289 -1.80464
4.95224 4.13889 -1.80564
4.93624 4.15189 -1.80464
4.92624 4.16989 -1.80564
4.91024 4.18289 -1.80464
4.89124 4.19389 -1.80164
4.89024 4.20589 -1.80464
4.88624 4.22889 -1.80764
4.86724 4.23989 -1.80564
4.84824 4.24989 -1.80364
4.84124 4.27089 -1.80564
4.82524 4.28389 -1.80464
4.81224 4.29889 -1.80464
4.80524 4.30689 -1.80464
4.79724 4.32689 -1.80764
4.77524 4.33389 -1.80364
4.76324 4.35089 -1.80464
4.74924 4.36489 -1.80464
4.73724 4.38189 -1.80464
4.72624 4.39889 -1.80564
4.71724 4.40489 -1.80564
4.70224 4.41889 -1.80464
4.68524 4.43089 -1.80364
4.67624 4.44889 -1.80564
4.65624 4.45889 -1.80364
4.64324 4.47489 -1.80364
4.62924 4.48889 -1.80364
4.61524 4.50389 -1.80364
4.60024 4.50289 -1.80064
4.58724 4.51889 -1.80064
4.56924 4.52889 -1.79964
4.55924 4.54789 -1.80064
4.54424 4.56189 -1.80064
4.52524 4.57089 -1.79864
4.52024 4.58089 -1.79964
4.50224 4.59089 -1.79764
5.75824 -2.68411 -1.77564
5.77324 -2.67011 -1.77764
5.77324 -2.64711 -1.77464
5.78524 -2.63111 -1.77564
5.79824 -2.61511 -1.77764
5.79924 -2.59411 -1.77564
6.38624 -0.530114 -1.79164
6.39224 -0.490114 -1.79264
6.39524 -0.440114 -1.79264
6.39824 -0.400114 -1.79264
6.40224 -0.360114 -1.79264
6.41424 -0.320114 -1.79564
6.41224 -0.270114 -1.79464
6.42724 -0.250114 -1.79864
6.42324 -0.230114 -1.79764
6.41324 -0.209114 -1.79364
6.41924 -0.189114 -1.79564
6.42324 -0.179114 -1.79664
6.42424 -0.159114 -1.79664
6.41824 -0.139114 -1.79564
6.42524 -0.119114 -1.79664
6.42724 -0.0991136 -1.79764
6.43724 -0.0791136 -1.80064
6.44524 -0.0581136 -1.80264
6.43124 -0.0481136 -1.79864
6.44724 -0.0281136 -1.80364
6.44724 -0.00811364 -1.80364
6.20724 0.0158864 -1.80664
6.20724 0.0358864 -1.80664
6.19324 0.0548864 -1.80264
6.20224 0.0738864 -1.80564
6.21424 0.0838864 -1.80964
6.20424 0.103886 -1.80664
6.22024 0.142886 -1.81164
6.21224 0.162886 -1.80964
6.21924 0.181886 -1.81164
6.22024 0.211886 -1.81264
6.21824 0.230886 -1.81164
5.38224 3.13389 -1.81364
5.37024 3.17189 -1.81664
5.34724 3.18089 -1.81164
5.34424 3.20189 -1.81464
5.31724 3.20889 -1.80864
5.30924 3.21489 -1.80664
5.31024 3.23889 -1.81164
5.30024 3.25489 -1.81164
5.27924 3.26489 -1.80664
5.27624 3.28689 -1.80964
5.26624 3.30289 -1.80964
5.24824 3.31489 -1.80664
5.25424 3.32989 -1.81164
5.22924 3.33689 -1.80564
5.22824 3.35989 -1.80964
5.21224 3.37289 -1.80764
5.20724 3.39289 -1.80964
5.18924 3.40489 -1.80664
5.18224 3.42289 -1.80864
5.16524 3.43489 -1.80564
5.15624 3.44089 -1.80464
5.16024 3.46689 -1.80964
5.13024 3.46989 -1.80264
5.12024 3.48689 -1.80364
5.12524 3.51389 -1.80964
5.09124 3.51389 -1.80064
5.08924 3.53689 -1.80364
5.08524 3.54589 -1.80464
5.06324 3.55389 -1.80064
5.06124 3.57589 -1.80364
5.05324 3.59489 -1.80564
5.02924 3.60089 -1.80064
5.02424 3.62189 -1.80264
5.01324 3.63789 -1.80264
5.01124 3.64889 -1.80464
4.98924 3.65689 -1.80064
4.97624 3.67089 -1.79964
4.97224 3.69189 -1.80264
4.95124 3.70089 -1.79964
4.93824 3.71489 -1.79864
4.94524 3.73289 -1.80364
4.92224 3.73989 -1.79964
4.91824 3.76089 -1.80264
4.90024 3.77189 -1.79964
4.88224 3.78289 -1.79764
4.87924 3.80489 -1.80164
4.85424 3.80989 -1.79564
4.84924 3.81789 -1.79664
4.84024 3.83589 -1.79764
4.84524 3.86389 -1.80364
4.81224 3.86289 -1.79564
4.80724 3.88389 -1.79864
4.78324 3.88889 -1.79364
4.77724 3.90889 -1.79664
4.77024 3.91689 -1.79664
4.76524 3.93789 -1.79964
4.74624 3.94689 -1.79664
4.73824 3.96489 -1.79864
4.73224 3.98589 -1.80164
4.71124 3.99389 -1.79764
4.70724 4.01589 -1.80164
4.69224 4.02789 -1.79964
4.67824 4.02889 -1.79664
4.67324 4.04989 -1.79964
4.65724 4.06189 -1.79864
4.64724 4.07889 -1.79964
4.63324 4.09289 -1.79964
4.61224 4.09989 -1.79564
4.60124 4.11689 -1.79664
4.60124 4.12889 -1.79964
4.57924 4.13589 -1.79564
4.57924 4.16189 -1.80164
4.56424 4.17489 -1.80064
4.55324 4.18989 -1.80164
4.54124 4.20589 -1.80164
4.53624 4.21389 -1.80264
4.52024 4.22589 -1.80164
4.50524 4.23889 -1.80064
4.49624 4.25689 -1.80264
4.48924 4.27789 -1.80564
4.47024 4.28589 -1.80264
4.44724 4.29089 -1.79864
4.45124 4.30889 -1.80364
4.43924 4.32389 -1.80364
4.41524 4.32689 -1.79964
4.40924 4.34889 -1.80264
4.39724 4.36389 -1.80364
4.38424 4.37989 -1.80364
4.36924 4.39189 -1.80364
4.36824 4.40389 -1.80564
4.35924 4.42289 -1.80864
4.33124 4.42189 -1.80164
4.32924 4.44789 -1.80664
4.29624 4.44189 -1.79864
4.29224 4.46489 -1.80264
4.27424 4.47489 -1.80164
4.26824 4.48289 -1.80164
4.25624 4.49889 -1.80264
4.24324 4.51389 -1.80364
4.22324 4.51989 -1.80064
4.20524 4.52889 -1.79864
4.19824 4.55089 -1.80264
4.19524 4.57689 -1.80764
4.18424 4.59289 -1.80864
4.17224 4.59489 -1.80664
4.15524 4.60489 -1.80564
4.14024 4.61689 -1.80564
4.12324 4.62689 -1.80364
4.11124 4.64289 -1.80564
4.08724 4.64489 -1.80164
4.07924 4.66589 -1.80364
5.50324 -2.65711 -1.77764
5.51024 -2.63911 -1.77664
5.51324 -2.62011 -1.77564
5.53324 -2.60811 -1.77964
5.53824 -2.58911 -1.77764
5.54524 -2.58211 -1.77964
5.55224 -2.56411 -1.77864
5.55824 -2.54511 -1.77764
5.56224 -2.52611 -1.77664
5.58324 -2.51411 -1.78064
5.57624 -2.49011 -1.77664
5.60424 -2.48111 -1.78264
5.58524 -2.46311 -1.77564
5.59924 -2.44811 -1.77764
5.63224 -2.42011 -1.78364
5.61224 -2.39111 -1.77364
5.62424 -2.37511 -1.77564
5.62524 -2.35511 -1.77364
5.63424 -2.34811 -1.77564
5.64824 -2.31311 -1.77564
5.67024 -2.28011 -1.77764
5.68124 -2.24311 -1.77664
5.68124 -2.23311 -1.77564
5.69824 -2.21911 -1.77864
5.70824 -2.18211 -1.77764
5.71824 -2.14411 -1.77664
5.72924 -2.11711 -1.77664
5.73724 -2.10011 -1.77664
5.74924 -2.08411 -1.77864
5.79124 -2.01711 -1.78364
5.77424 -2.00111 -1.77764
5.79924 -1.98911 -1.78364
5.79624 -1.96811 -1.78064
5.81624 -1.95511 -1.78564
5.80824 -1.93111 -1.78064
5.81224 -1.91311 -1.77964
5.81524 -1.89311 -1.77864
5.83024 -1.88811 -1.78264
5.82724 -1.86711 -1.77964
5.83824 -1.85011 -1.78164
5.85924 -1.83611 -1.78664
5.84324 -1.81111 -1.77964
5.87024 -1.80011 -1.78664
5.85924 -1.77611 -1.78064
5.87524 -1.77111 -1.78564
5.87124 -1.75011 -1.78264
5.88024 -1.73211 -1.78364
5.87724 -1.71111 -1.78064
5.91124 -1.70111 -1.78964
5.89124 -1.67511 -1.78164
5.89424 -1.65611 -1.78064
5.90124 -1.64811 -1.78264
5.90424 -1.62911 -1.78164
5.94824 -1.62111 -1.79364
5.91824 -1.59311 -1.78264
5.92324 -1.57411 -1.78264
5.94224 -1.55911 -1.78764
5.94024 -1.53911 -1.78564
5.95024 -1.53111 -1.78764
5.94024 -1.50911 -1.78264
5.94824 -1.49111 -1.78364
5.97624 -1.45811 -1.78964
5.96624 -1.43611 -1.78564
5.96424 -1.41611 -1.78364
5.97024 -1.40711 -1.78464
5.98024 -1.39011 -1.78664
5.99824 -1.35411 -1.78964
5.99624 -1.31411 -1.78564
6.00424 -1.28611 -1.78664
6.00824 -1.24811 -1.78564
6.02724 -1.19311 -1.78764
6.02524 -1.17311 -1.78564
6.04524 -1.14711 -1.79064
6.03424 -1.10611 -1.78464
6.04524 -1.08811 -1.78664
6.04224 -1.06811 -1.78564
6.05524 -1.04111 -1.78764
6.07124 -1.00411 -1.79064
6.06124 -0.983114 -1.78664
6.06224 -0.964114 -1.78564
6.08724 -0.929114 -1.79164
6.08524 -0.899114 -1.78964
6.07924 -0.879114 -1.78664
6.08124 -0.859114 -1.78664
6.08824 -0.841114 -1.78864
6.10724 -0.824114 -1.79364
6.10424 -0.794114 -1.79064
6.10424 -0.775114 -1.79064
6.11024 -0.756114 -1.79164
6.09924 -0.735114 -1.78764
6.12824 -0.719114 -1.79564
6.10624 -0.697114 -1.78864
6.11824 -0.679114 -1.79064
6.12424 -0.670114 -1.79264
6.13824 -0.652114 -1.79664
6.11924 -0.631114 -1.78964
6.17024 -0.616114 -1.80564
6.13224 -0.593114 -1.79264
6.13624 -0.574114 -1.79364
6.15524 -0.556114 -1.79864
6.13124 -0.544114 -1.79064
6.14024 -0.526114 -1.79364
6.14024 -0.506114 -1.79264
6.16624 -0.489114 -1.80064
6.14324 -0.468114 -1.79264
6.13724 -0.448114 -1.79064
6.14624 -0.429114 -1.79264
6.15424 -0.420114 -1.79564
6.18424 -0.402114 -1.80364
6.14924 -0.381114 -1.79264
6.16424 -0.362114 -1.79664
6.16324 -0.343114 -1.79664
6.15424 -0.323114 -1.79364
6.18224 -0.305114 -1.80164
6.16524 -0.294114 -1.79664
6.18524 -0.276114 -1.80264
6.17124 -0.256114 -1.79764
6.17724 -0.237114 -1.79964
6.17824 -0.217114 -1.79964
6.15624 -0.197114 -1.79264
6.18924 -0.179114 -1.80264
6.17024 -0.168114 -1.79664
6.19024 -0.149114 -1.80264
6.19624 -0.130114 -1.80364
6.19624 -0.111114 -1.80364
6.17924 -0.0911136 -1.79864
6.19924 -0.0721136 -1.80464
6.19124 -0.0521136 -1.80264
6.19724 -0.0421136 -1.80364
6.19324 -0.0231136 -1.80264
6.19124 -0.00311364 -1.80264
5.02524 3.31489 -1.81264
4.86124 3.54589 -1.81164
4.84824 3.55989 -1.81064
3.79124 4.64489 -1.80464
5.28624 -2.66911 -1.78064
5.29424 -2.65311 -1.78064
5.27824 -2.62411 -1.77264
5.32924 -2.62911 -1.78764
5.33624 -2.61111 -1.78664
5.34224 -2.59311 -1.78664
5.35224 -2.57711 -1.78664
5.35824 -2.57011 -1.78764
5.35724 -2.54911 -1.78464
5.36524 -2.53211 -1.78464
5.38824 -2.50111 -1.78664
5.40124 -2.48711 -1.78864
5.41124 -2.47111 -1.78964
5.40624 -2.45811 -1.78664
5.42624 -2.44711 -1.79064
5.43024 -2.42811 -1.78964
5.43724 -2.41111 -1.78964
5.42424 -2.38511 -1.78164
5.44024 -2.37211 -1.78464
5.45324 -2.35711 -1.78664
5.44624 -2.34411 -1.78364
5.45924 -2.32911 -1.78464
5.46424 -2.31111 -1.78464
5.47524 -2.29511 -1.78564
5.48424 -2.27911 -1.78664
5.49124 -2.26111 -1.78664
5.49624 -2.24311 -1.78564
5.50224 -2.23611 -1.78664
5.50324 -2.21611 -1.78464
5.50124 -2.19511 -1.78164
5.51024 -2.17911 -1.78164
5.52224 -2.16311 -1.78364
5.52724 -2.14511 -1.78364
5.54624 -2.13311 -1.78764
5.55024 -2.12411 -1.78764
5.55824 -2.10711 -1.78864
5.54924 -2.08411 -1.78264
5.56224 -2.06911 -1.78464
5.57924 -2.05611 -1.78864
5.59324 -2.04111 -1.79164
5.59824 -2.02211 -1.79064
5.60324 -2.01411 -1.79164
5.60024 -1.99311 -1.78864
5.61724 -1.98011 -1.79164
5.62524 -1.96311 -1.79264
5.62724 -1.94411 -1.79164
5.63724 -1.92711 -1.79264
5.64724 -1.91111 -1.79364
5.63224 -1.89611 -1.78764
5.65924 -1.88511 -1.79464
5.65624 -1.86511 -1.79164
5.66724 -1.84911 -1.79364
5.67924 -1.83311 -1.79564
5.69424 -1.79811 -1.79664
5.69524 -1.78811 -1.79564
5.70024 -1.77111 -1.79564
5.70624 -1.75311 -1.79564
5.71324 -1.73511 -1.79664
5.72424 -1.69911 -1.79664
5.72624 -1.68011 -1.79564
5.73224 -1.67211 -1.79664
5.73724 -1.65411 -1.79664
5.73724 -1.63511 -1.79464
5.74924 -1.61911 -1.79764
5.74024 -1.59711 -1.79264
5.75224 -1.58111 -1.79464
5.76624 -1.56511 -1.79764
5.74824 -1.55011 -1.79164
5.76024 -1.53411 -1.79364
5.76324 -1.51611 -1.79264
5.77024 -1.49811 -1.79364
5.76524 -1.47811 -1.79064
5.77924 -1.46211 -1.79364
5.76524 -1.43911 -1.78764
5.78824 -1.43511 -1.79464
5.79624 -1.41811 -1.79564
5.79124 -1.39711 -1.79264
5.79624 -1.37911 -1.79264
5.80724 -1.36311 -1.79464
5.79724 -1.34111 -1.78964
5.80824 -1.32411 -1.79264
5.82724 -1.31911 -1.79764
5.80924 -1.29611 -1.79064
5.82024 -1.27911 -1.79264
5.82124 -1.26011 -1.79164
5.82824 -1.24311 -1.79264
5.83224 -1.22411 -1.79264
5.84724 -1.20811 -1.79664
5.83824 -1.19711 -1.79264
5.84524 -1.17911 -1.79464
5.86024 -1.16311 -1.79764
5.84524 -1.14111 -1.79164
5.85324 -1.12311 -1.79264
5.86724 -1.10711 -1.79664
5.85024 -1.08511 -1.78964
5.87224 -1.07911 -1.79664
5.88324 -1.06211 -1.79864
5.88324 -1.04311 -1.79764
5.87924 -1.02311 -1.79564
5.87824 -1.00411 -1.79464
5.89124 -0.987114 -1.79764
5.89024 -0.968114 -1.79564
5.89924 -0.960114 -1.79864
5.89424 -0.940114 -1.79564
5.89924 -0.922114 -1.79664
5.91124 -0.905114 -1.79964
5.90324 -0.885114 -1.79564
5.90024 -0.865114 -1.79464
5.91024 -0.848114 -1.79664
5.91224 -0.839114 -1.79664
5.90724 -0.819114 -1.79464
5.92224 -0.802114 -1.79864
5.90424 -0.781114 -1.79164
5.93124 -0.766114 -1.79964
5.94524 -0.749114 -1.80364
5.94124 -0.729114 -1.80164
5.93324 -0.719114 -1.79864
5.94724 -0.701114 -1.80264
5.93024 -0.680114 -1.79564
5.94724 -0.664114 -1.80064
5.95124 -0.645114 -1.80164
5.93224 -0.624114 -1.79464
5.94924 -0.607114 -1.79964
5.96024 -0.599114 -1.80264
5.95624 -0.579114 -1.80064
5.95424 -0.560114 -1.79964
5.96024 -0.542114 -1.80064
5.95624 -0.523114 -1.79864
5.96124 -0.504114 -1.80064
5.97424 -0.487114 -1.80364
5.96124 -0.476114 -1.79964
5.96324 -0.457114 -1.79964
5.96424 -0.439114 -1.79964
5.96424 -0.420114 -1.79864
5.98224 -0.402114 -1.80464
5.96424 -0.382114 -1.79864
5.98424 -0.365114 -1.80464
5.97924 -0.355114 -1.80264
5.98624 -0.336114 -1.80464
5.98324 -0.317114 -1.80364
5.98624 -0.299114 -1.80364
5.99324 -0.280114 -1.80564
5.98824 -0.261114 -1.80364
5.99224 -0.214114 -1.80464
6.00624 -0.177114 -1.80864
5.99024 -0.157114 -1.80364
6.00324 -0.0921136 -1.80664
5.75824 0.00288636 -1.79464
5.77324 0.0208864 -1.79964
5.78124 0.0398864 -1.80264
5.77524 0.0578864 -1.80064
5.77524 0.0758864 -1.80064
5.79324 0.0938864 -1.80664
5.77824 0.102886 -1.80164
5.78324 0.120886 -1.80364
5.78324 0.139886 -1.80364
5.78424 0.157886 -1.80464
5.79224 0.175886 -1.80664
5.78724 0.193886 -1.80564
5.78424 0.221886 -1.80464
4.95324 3.02889 -1.81064
4.94224 3.04289 -1.80964
4.92124 3.07289 -1.80964
4.90824 3.08689 -1.80764
4.90024 3.10289 -1.80864
4.89224 3.11889 -1.80964
4.87124 3.11689 -1.80264
4.86924 3.13689 -1.80664
4.85924 3.15189 -1.80664
4.84124 3.16189 -1.80264
4.83924 3.18289 -1.80664
4.83424 3.20089 -1.80764
4.81024 3.20689 -1.80264
4.80424 3.22489 -1.80464
4.79524 3.22989 -1.80264
4.77724 3.23889 -1.79964
4.77424 3.25989 -1.80264
4.75924 3.27089 -1.80064
4.74024 3.27989 -1.79664
4.74224 3.30289 -1.80164
4.72424 3.31289 -1.79864
4.72224 3.32189 -1.79964
4.71124 3.33689 -1.79964
4.70124 3.35189 -1.79964
4.68824 3.36589 -1.79964
4.67924 3.38089 -1.79964
4.66324 3.39189 -1.79764
4.64824 3.39189 -1.79364
4.64824 3.41489 -1.79764
4.63624 3.42789 -1.79764
4.61924 3.43789 -1.79464
4.61024 3.45389 -1.79564
4.60024 3.46889 -1.79664
4.58324 3.47889 -1.79364
4.57924 3.48789 -1.79464
4.57324 3.50489 -1.79664
4.55424 3.51389 -1.79264
4.54624 3.53089 -1.79464
4.53524 3.54489 -1.79464
4.52424 3.55889 -1.79464
4.51424 3.57389 -1.79464
4.51224 3.58389 -1.79664
4.49224 3.59089 -1.79264
4.48624 3.60989 -1.79464
4.47524 3.62389 -1.79464
4.46224 3.63689 -1.79464
4.45024 3.65089 -1.79464
4.44824 3.67189 -1.79764
4.44224 3.67889 -1.79764
4.43224 3.69389 -1.79864
4.41424 3.70289 -1.79664
4.41124 3.72389 -1.79964
4.39524 3.73389 -1.79764
4.38524 3.74889 -1.79864
4.37924 3.76789 -1.80164
4.36024 3.77589 -1.79764
4.35324 3.78089 -1.79764
4.35124 3.80389 -1.80164
4.33024 3.80989 -1.79764
4.32024 3.82489 -1.79864
4.31924 3.84789 -1.80364
4.28724 3.84389 -1.79464
4.27524 3.85789 -1.79464
4.27724 3.87189 -1.79864
4.26024 3.87989 -1.79664
4.24524 3.89089 -1.79464
4.23924 3.91089 -1.79764
4.21924 3.91589 -1.79464
4.20524 3.92789 -1.79364
4.20624 3.95489 -1.79964
4.20324 3.96389 -1.80164
4.17324 3.95989 -1.79264
4.17124 3.98289 -1.79764
4.14624 3.98489 -1.79264
4.13824 4.00189 -1.79464
4.12724 4.01589 -1.79464
4.10224 4.01689 -1.78964
4.10524 4.03289 -1.79364
4.09224 4.04589 -1.79364
4.08124 4.05989 -1.79464
4.06724 4.07089 -1.79364
4.05724 4.08689 -1.79464
4.04424 4.09889 -1.79464
4.03124 4.11189 -1.79464
4.03124 4.12489 -1.79764
4.00124 4.11989 -1.78964
3.98324 4.12689 -1.78764
3.98024 4.15089 -1.79264
3.95924 4.15489 -1.78864
3.94524 4.16589 -1.78764
3.94224 4.18889 -1.79264
3.93724 4.19689 -1.79364
3.91724 4.20189 -1.79064
3.91324 4.22389 -1.79464
3.89424 4.23089 -1.79264
3.87724 4.23889 -1.79064
3.86924 4.25689 -1.79264
3.85424 4.26789 -1.79264
3.83824 4.26189 -1.78764
3.82724 4.27689 -1.78864
3.81124 4.28589 -1.78764
3.79724 4.29789 -1.78764
3.79024 4.31689 -1.79064
3.77624 4.32889 -1.79064
3.76324 4.34089 -1.79064
3.75324 4.34389 -1.78964
3.74124 4.35689 -1.78964
3.72524 4.36589 -1.78864
3.71024 4.37589 -1.78764
3.69424 4.38489 -1.78664
3.68024 4.39689 -1.78664
3.67224 4.41489 -1.78964
3.65724 4.41089 -1.78564
3.64824 4.42789 -1.78764
3.63124 4.43689 -1.78664
3.61724 4.44789 -1.78664
3.60724 4.46389 -1.78864
3.59524 4.47789 -1.78964
3.58224 4.49089 -1.79064
3.57324 4.49389 -1.78964
3.56724 4.51489 -1.79364
3.54524 4.51589 -1.78964
3.52824 4.52389 -1.78764
3.51424 4.53489 -1.78764
3.50024 4.54589 -1.78764
3.48324 4.55389 -1.78664
3.47324 4.57089 -1.78964
3.45924 4.56789 -1.78564
3.45224 4.58689 -1.78964
3.43624 4.59689 -1.78864
3.41824 4.60289 -1.78664
3.40824 4.61989 -1.78964
3.39224 4.62689 -1.78764
3.38224 4.62989 -1.78664
3.36524 4.63689 -1.78564
3.35424 4.65189 -1.78764
3.33924 4.66289 -1.78764
3.32524 4.67289 -1.78764
3.30624 4.67789 -1.78464
3.29524 4.69389 -1.78764
3.28324 4.70789 -1.78864
3.28324 4.72389 -1.79264
3.25824 4.71989 -1.78764
3.24824 4.73589 -1.78964
3.23824 4.75389 -1.79264
3.21824 4.75689 -1.78964
3.20224 4.76489 -1.78964
3.19924 4.77689 -1.79164
3.18224 4.78289 -1.79064
3.16424 4.78989 -1.78964
3.14924 4.79989 -1.78964
3.13124 4.80489 -1.78764
3.12124 4.82289 -1.79064
3.10524 4.83089 -1.78964
3.09324 4.84589 -1.79164
3.08324 4.84689 -1.79064
3.07424 4.86689 -1.79464
3.05424 4.86789 -1.79164
3.04124 4.88289 -1.79264
3.02924 4.89689 -1.79464
3.00724 4.89489 -1.79064
2.99124 4.90489 -1.79064
2.98724 4.91589 -1.79264
2.95224 4.92589 -1.78964
5.04424 -2.60711 -1.76864
5.07324 -2.60211 -1.77564
5.07524 -2.59311 -1.77564
5.08024 -2.57511 -1.77464
5.08524 -2.55711 -1.77264
5.08324 -2.53611 -1.76964
5.09024 -2.52011 -1.76964
5.09524 -2.50311 -1.76764
5.10424 -2.48811 -1.76864
5.10524 -2.47811 -1.76764
5.11824 -2.46411 -1.76964
5.12024 -2.44611 -1.76764
5.13524 -2.43311 -1.76964
5.13924 -2.41511 -1.76864
5.15024 -2.40111 -1.76964
5.15624 -2.38411 -1.76964
5.16024 -2.37611 -1.76964
5.20524 -2.27911 -1.76964
5.20924 -2.27011 -1.76964
5.22124 -2.23711 -1.76964
5.23524 -2.20411 -1.76964
5.26024 -2.17511 -1.77264
5.27324 -2.13311 -1.77164
5.33724 -1.99411 -1.77464
5.36124 -1.91711 -1.77364
5.37424 -1.90311 -1.77564
5.38624 -1.86911 -1.77564
5.39224 -1.85211 -1.77564
5.40124 -1.82711 -1.77564
5.41724 -1.81411 -1.77964
5.40624 -1.79111 -1.77464
5.41424 -1.77511 -1.77464
5.43424 -1.76211 -1.77964
5.42724 -1.74111 -1.77564
5.42624 -1.73211 -1.77464
5.44424 -1.71911 -1.77864
5.45124 -1.70211 -1.77964
5.46024 -1.66711 -1.77864
5.45824 -1.64811 -1.77564
5.47524 -1.62511 -1.77964
5.47224 -1.60511 -1.77664
5.48424 -1.57211 -1.77764
5.50224 -1.52111 -1.77864
5.51224 -1.47711 -1.77764
5.52424 -1.42511 -1.77764
5.53524 -1.38111 -1.77764
5.56224 -1.28611 -1.77864
5.57824 -1.23411 -1.77964
5.59624 -1.13811 -1.77964
5.63024 -0.989114 -1.78064
5.65624 -0.838114 -1.78164
5.66624 -0.812114 -1.78364
5.67624 -0.723114 -1.78264
5.67924 -0.714114 -1.78364
5.68024 -0.696114 -1.78264
5.68924 -0.679114 -1.78564
5.68424 -0.661114 -1.78264
5.69124 -0.643114 -1.78464
5.69724 -0.626114 -1.78564
5.70424 -0.599114 -1.78764
5.69824 -0.581114 -1.78464
5.70224 -0.563114 -1.78564
5.70024 -0.545114 -1.78464
5.71324 -0.528114 -1.78764
5.71524 -0.510114 -1.78764
5.72024 -0.492114 -1.78964
5.70924 -0.482114 -1.78564
5.73224 -0.466114 -1.79264
5.72724 -0.448114 -1.79064
5.72524 -0.429114 -1.78964
5.72424 -0.411114 -1.78864
5.73324 -0.394114 -1.79164
5.72524 -0.375114 -1.78764
5.73524 -0.367114 -1.79164
5.73624 -0.349114 -1.79164
5.73224 -0.330114 -1.78964
5.73824 -0.313114 -1.79164
5.73924 -0.295114 -1.79164
5.73424 -0.276114 -1.78964
5.74324 -0.259114 -1.79164
5.75124 -0.250114 -1.79464
5.74224 -0.231114 -1.79164
5.74324 -0.213114 -1.79164
5.76024 -0.196114 -1.79664
5.74224 -0.177114 -1.79064
5.75624 -0.160114 -1.79464
5.75424 -0.141114 -1.79464
5.76224 -0.133114 -1.79664
5.76824 -0.115114 -1.79864
5.77324 -0.0961136 -1.79964
5.75824 -0.0781136 -1.79464
5.76424 -0.0601136 -1.79664
5.77124 -0.0421136 -1.79964
5.76824 -0.0241136 -1.79764
5.77324 -0.0151136 -1.79964
5.57524 0.0128864 -1.78564
5.58424 0.0568864 -1.78864
5.58224 0.0748864 -1.78864
5.57824 0.0918864 -1.78664
5.57424 0.109886 -1.78564
5.58524 0.126886 -1.78964
5.58124 0.144886 -1.78864
5.58824 0.153886 -1.79064
5.58624 0.170886 -1.79064
5.59824 0.188886 -1.79464
5.60524 0.206886 -1.79764
5.60624 0.224886 -1.79764
5.60424 0.241886 -1.79764
5.61324 0.259886 -1.80064
5.60824 0.268886 -1.79964
5.61524 0.286886 -1.80164
5.61424 0.304886 -1.80164
5.61424 0.339886 -1.80264
5.62024 0.357886 -1.80564
5.62124 0.401886 -1.80664
5.62224 0.419886 -1.80664
4.71824 3.08289 -1.80664
4.71324 3.10089 -1.80864
4.69824 3.11189 -1.80664
4.68224 3.12289 -1.80364
4.68524 3.14589 -1.80864
4.66924 3.15689 -1.80664
4.65624 3.16889 -1.80564
4.65124 3.17589 -1.80564
4.63724 3.18889 -1.80364
4.62724 3.20289 -1.80364
4.61724 3.21789 -1.80364
4.61024 3.23489 -1.80564
4.59724 3.24689 -1.80364
4.58124 3.25689 -1.80164
4.57424 3.26289 -1.80064
4.56824 3.28089 -1.80264
4.55524 3.29289 -1.80164
4.55424 3.31389 -1.80564
4.52924 3.31789 -1.79964
4.52124 3.33289 -1.79964
4.50524 3.34389 -1.79764
4.50524 3.35489 -1.79964
4.48824 3.36389 -1.79764
4.47824 3.37789 -1.79764
4.47324 3.39689 -1.79964
4.46524 3.41289 -1.80164
4.45324 3.42589 -1.80064
4.44824 3.44489 -1.80364
4.42524 3.44889 -1.79764
4.42324 3.45889 -1.79964
4.42024 3.47789 -1.80264
4.39724 3.48289 -1.79764
4.38724 3.49789 -1.79764
4.37524 3.50989 -1.79764
4.36424 3.52389 -1.79764
4.36024 3.54389 -1.80064
4.35424 3.55089 -1.80064
4.33924 3.56089 -1.79864
4.32624 3.57289 -1.79764
4.31524 3.58689 -1.79764
4.29324 3.59189 -1.79364
4.29124 3.61289 -1.79764
4.27824 3.62489 -1.79664
4.28224 3.63989 -1.80164
4.25824 3.64289 -1.79564
4.25424 3.66189 -1.79864
4.23424 3.66789 -1.79464
4.22624 3.68489 -1.79664
4.22024 3.70289 -1.79964
4.19624 3.70489 -1.79364
4.19424 3.71589 -1.79564
4.18724 3.73189 -1.79764
4.17924 3.74889 -1.79964
4.15524 3.75089 -1.79364
4.15224 3.77189 -1.79764
4.14024 3.78489 -1.79764
4.11224 3.78389 -1.79064
4.11524 3.79789 -1.79464
4.09524 3.80289 -1.79064
4.07824 3.81189 -1.78864
4.07324 3.83089 -1.79164
4.05224 3.83489 -1.78664
4.04624 3.85389 -1.79064
4.04124 3.87289 -1.79364
4.03224 3.87689 -1.79264
4.01624 3.88589 -1.79064
4.00024 3.89489 -1.78864
3.99224 3.91089 -1.79064
3.96824 3.91289 -1.78564
3.95224 3.92089 -1.78364
3.95224 3.94589 -1.78864
3.93824 3.94389 -1.78564
3.93224 3.96289 -1.78864
3.91424 3.96989 -1.78564
3.91524 3.99589 -1.79264
3.89224 3.99689 -1.78664
3.87624 4.00689 -1.78564
3.86324 4.01789 -1.78564
3.86424 4.03189 -1.78864
3.84624 4.03789 -1.78664
3.83024 4.04589 -1.78464
3.81924 4.06089 -1.78564
3.80424 4.06989 -1.78464
3.79024 4.08089 -1.78364
3.78424 4.09989 -1.78664
3.77624 4.10389 -1.78664
3.76224 4.11489 -1.78564
3.75524 4.13289 -1.78864
3.73324 4.13489 -1.78464
3.71624 4.14289 -1.78264
3.71624 4.16889 -1.78864
3.69324 4.16889 -1.78364
3.68724 4.17589 -1.78464
3.68324 4.19789 -1.78864
3.66424 4.20189 -1.78564
3.65424 4.21789 -1.78764
3.64124 4.22889 -1.78764
3.62824 4.24089 -1.78764
3.61724 4.25489 -1.78864
3.60524 4.26789 -1.78964
3.59824 4.27389 -1.78964
3.58324 4.28289 -1.78864
3.57324 4.29889 -1.79064
3.55524 4.30389 -1.78864
3.54124 4.31489 -1.78864
3.53324 4.33189 -1.79064
3.52524 4.33689 -1.79064
3.51024 4.34589 -1.78964
3.49424 4.35389 -1.78864
3.48224 4.36789 -1.78964
3.46624 4.37589 -1.78864
3.44824 4.38089 -1.78564
3.43324 4.38989 -1.78564
3.43424 4.41989 -1.79364
3.42224 4.41789 -1.79064
3.40124 4.41989 -1.78664
3.38924 4.43389 -1.78764
3.36824 4.43489 -1.78364
3.35924 4.45189 -1.78664
3.34124 4.45789 -1.78464
3.35024 4.48389 -1.79364
3.32424 4.47789 -1.78664
3.31524 4.49589 -1.78964
3.29624 4.49889 -1.78664
3.28124 4.50889 -1.78664
3.27124 4.52389 -1.78864
3.25724 4.53589 -1.78864
3.24724 4.55089 -1.79064
3.23424 4.54789 -1.78764
3.21724 4.55489 -1.78664
3.20124 4.56189 -1.78564
3.19124 4.57789 -1.78764
3.17824 4.58989 -1.78864
3.16224 4.59789 -1.78764
3.14324 4.60189 -1.78564
3.14024 4.61289 -1.78764
3.12224 4.61689 -1.78564
3.11624 4.63889 -1.79064
3.09724 4.64289 -1.78764
3.08424 4.65589 -1.78864
3.06624 4.65989 -1.78664
3.05124 4.66889 -1.78664
3.04924 4.68089 -1.78964
3.03924 4.69889 -1.79264
3.01924 4.69989 -1.78964
3.00624 4.71289 -1.79064
2.99324 4.72389 -1.79164
2.97424 4.72689 -1.78864
2.96124 4.73889 -1.79064
2.95024 4.73889 -1.78864
2.93224 4.74389 -1.78664
2.92524 4.76589 -1.79164
2.90924 4.77189 -1.79064
2.89324 4.77889 -1.78964
2.88124 4.79489 -1.79264
2.86524 4.80189 -1.79164
2.85124 4.81289 -1.79264
2.84524 4.81889 -1.79264
2.82824 4.82489 -1.79164
2.81324 4.83489 -1.79264
2.79624 4.84089 -1.79064
2.76624 4.85789 -1.79064
2.74724 4.85989 -1.78864
2.74224 4.86889 -1.79064
2.72224 4.86989 -1.78664
2.71024 4.88489 -1.78964
2.69224 4.88789 -1.78764
2.68124 4.90489 -1.79064
2.66224 4.90689 -1.78864
2.64724 4.91489 -1.78864
2.64024 4.92089 -1.78864
2.62624 4.93289 -1.79064
2.61224 4.94189 -1.79064
2.59524 4.94889 -1.79064
2.58224 4.95989 -1.79164
2.56624 4.96889 -1.79164
2.55024 4.97689 -1.79164
2.54024 4.97589 -1.78964
2.50324 4.98089 -1.78564
4.88824 -2.57311 -1.76864
4.89424 -2.56611 -1.76864
4.90924 -2.55411 -1.77164
4.90524 -2.53311 -1.76764
4.92324 -2.52211 -1.77064
4.92424 -2.50411 -1.76864
4.93724 -2.49111 -1.77064
4.94324 -2.47411 -1.76964
4.93724 -2.46111 -1.76564
4.95824 -2.41411 -1.76564
5.01024 -2.35311 -1.77264
5.13324 -2.05511 -1.77064
5.27024 -1.75311 -1.77864
5.29124 -1.67811 -1.77764
5.49124 -0.909114 -1.78264
5.50424 -0.814114 -1.78164
5.52124 -0.684114 -1.78164
5.52724 -0.650114 -1.78264
5.53624 -0.607114 -1.78364
5.53624 -0.571114 -1.78264
5.55524 -0.512114 -1.78664
5.55424 -0.459114 -1.78564
5.57024 -0.399114 -1.78864
5.57524 -0.381114 -1.79064
5.56524 -0.363114 -1.78664
5.57024 -0.346114 -1.78764
5.56424 -0.310114 -1.78564
5.56324 -0.302114 -1.78464
5.57324 -0.285114 -1.78764
5.57224 -0.267114 -1.78664
5.59124 -0.233114 -1.79264
5.57324 -0.214114 -1.78664
5.57224 -0.197114 -1.78564
5.58324 -0.188114 -1.78964
5.57624 -0.171114 -1.78664
5.57524 -0.153114 -1.78664
5.59524 -0.119114 -1.79264
5.58924 -0.101114 -1.79064
5.59324 -0.0831136 -1.79264
5.59024 -0.0751136 -1.79064
5.59224 -0.0571136 -1.79164
5.59424 -0.0391136 -1.79264
5.59024 -0.0221136 -1.79064
5.57724 -0.00411364 -1.78664
5.44924 0.00588636 -1.79864
5.44024 0.0238864 -1.79564
5.45324 0.0408864 -1.80064
5.43224 0.0578864 -1.79264
5.43724 0.0748864 -1.79464
5.43324 0.0918864 -1.79364
5.44624 0.108886 -1.79864
5.44424 0.117886 -1.79764
5.44424 0.134886 -1.79764
5.44524 0.151886 -1.79864
5.45024 0.168886 -1.80064
5.44824 0.185886 -1.79964
5.44924 0.202886 -1.80064
5.45224 0.220886 -1.80164
5.45024 0.228886 -1.80064
5.45324 0.246886 -1.80264
5.45624 0.263886 -1.80364
5.45524 0.280886 -1.80364
4.29124 3.37989 -1.80364
4.28224 3.39489 -1.80464
4.25124 3.41389 -1.80064
4.24824 3.42189 -1.80064
4.24324 3.43989 -1.80364
4.22924 3.45089 -1.80264
4.21724 3.46289 -1.80164
4.18724 3.50489 -1.80264
4.16724 3.52289 -1.80164
4.13224 3.56089 -1.80064
4.12324 3.57489 -1.80164
4.10724 3.58389 -1.79964
4.10024 3.58889 -1.79864
4.09024 3.60289 -1.79964
4.06024 3.62289 -1.79664
4.05324 3.63889 -1.79864
4.04924 3.65789 -1.80164
4.02824 3.66189 -1.79664
4.02224 3.66789 -1.79664
4.02324 3.69189 -1.80264
3.99724 3.69189 -1.79664
3.98824 3.70689 -1.79764
3.98124 3.72389 -1.79964
3.96124 3.72789 -1.79564
3.95624 3.74689 -1.79864
3.94724 3.75089 -1.79764
3.93324 3.76089 -1.79664
3.92024 3.77189 -1.79564
3.90824 3.78389 -1.79564
3.90024 3.79989 -1.79764
3.88024 3.80389 -1.79364
3.87324 3.82189 -1.79664
3.86624 3.82689 -1.79564
3.84124 3.82489 -1.78864
3.84124 3.84989 -1.79464
3.81924 3.85189 -1.79064
3.81824 3.87489 -1.79564
3.80024 3.88189 -1.79264
3.79224 3.89789 -1.79464
3.76724 3.89589 -1.78864
3.76724 3.90889 -1.79164
3.76124 3.92689 -1.79464
3.74624 3.93589 -1.79364
3.72924 3.94189 -1.79064
3.72124 3.95989 -1.79364
3.70924 3.97089 -1.79364
3.70424 3.97889 -1.79464
3.69524 3.99389 -1.79664
3.68324 4.00589 -1.79664
3.66924 4.01589 -1.79564
3.65624 4.02789 -1.79564
3.63524 4.02889 -1.79064
3.63524 4.05489 -1.79764
3.61424 4.05789 -1.79364
3.61024 4.06589 -1.79464
3.59324 4.07189 -1.79264
3.58224 4.08589 -1.79364
3.56724 4.09389 -1.79264
3.55424 4.10489 -1.79264
3.53424 4.10789 -1.78864
3.53124 4.11789 -1.79064
3.52424 4.13589 -1.79364
3.50924 4.14389 -1.79264
3.49724 4.15689 -1.79264
3.48524 4.16889 -1.79364
3.47724 4.18589 -1.79664
3.45524 4.18689 -1.79164
3.44824 4.20489 -1.79464
3.43324 4.19989 -1.79064
3.42224 4.21389 -1.79164
3.41124 4.22689 -1.79264
3.39924 4.23889 -1.79364
3.38024 4.24289 -1.79064
3.37124 4.25889 -1.79264
3.36024 4.27289 -1.79464
3.35524 4.27989 -1.79464
3.34224 4.29189 -1.79564
3.32724 4.29889 -1.79464
3.31124 4.30689 -1.79264
3.29424 4.31189 -1.79064
3.29224 4.33789 -1.79764
3.27124 4.33889 -1.79364
3.26124 4.33989 -1.79164
3.24824 4.35089 -1.79264
3.24024 4.36889 -1.79564
3.22824 4.38089 -1.79664
3.21324 4.38889 -1.79564
3.19724 4.39589 -1.79464
3.18624 4.41089 -1.79664
3.17924 4.41589 -1.79664
3.13324 4.43989 -1.79364
3.10724 4.46189 -1.79464
3.07724 4.47889 -1.79364
3.07224 4.48689 -1.79464
3.04124 4.50089 -1.79264
3.00124 4.53389 -1.79464
2.96424 4.55489 -1.79364
2.78924 4.66089 -1.79264
2.72724 4.69089 -1.79064
2.44924 4.83789 -1.78964
1.49924 5.17989 -1.77864
1.43124 5.18889 -1.77564
1.42524 5.19889 -1.77864
1.40724 5.19789 -1.77664
1.39224 5.20789 -1.77864
1.37524 5.20989 -1.77764
1.34124 5.21289 -1.77564
1.32524 5.21689 -1.77564
1.30524 5.20689 -1.77064
1.29724 5.21089 -1.77164
1.28224 5.21989 -1.77364
1.26624 5.22789 -1.77464
1.25024 5.23389 -1.77564
1.23424 5.23789 -1.77564
1.21824 5.24289 -1.77564
1.20024 5.24189 -1.77364
1.19224 5.24389 -1.77364
1.17724 5.25289 -1.77564
1.14324 5.25789 -1.77564
1.12624 5.25789 -1.77364
1.10924 5.25789 -1.77264
1.09224 5.26289 -1.77364
1.08524 5.26889 -1.77464
1.06824 5.26989 -1.77364
1.05024 5.26789 -1.77164
1.03424 5.27289 -1.77264
1.01724 5.27389 -1.77164
1.00124 5.27789 -1.77164
