16.1913 0.788723 -1.99506
16.1793 0.838723 -1.99406
16.1683 0.888723 -1.99306
16.1593 0.939723 -1.99206
16.1483 0.989723 -1.99106
16.1433 1.04072 -1.99006
16.1143 1.08972 -1.98706
16.1223 1.11572 -1.98806
16.1093 1.16572 -1.98706
16.0913 1.21472 -1.98506
16.1093 1.26672 -1.98806
16.1113 1.31772 -1.98906
16.1133 1.36972 -1.99006
16.1143 1.42072 -1.99006
16.1353 1.44772 -1.99406
16.1173 1.49772 -1.99206
16.1303 1.54972 -1.99406
16.1473 1.60272 -1.99706
15.7623 -2.98228 -1.97206
15.7853 -2.93528 -1.97406
15.8143 -2.88928 -1.97706
15.8353 -2.84128 -1.97806
15.8613 -2.79428 -1.98106
15.8833 -2.77328 -1.98306
15.8953 -2.72328 -1.98406
15.9313 -2.67828 -1.98706
15.9533 -2.63028 -1.98906
15.9653 -2.58128 -1.99006
15.9973 -2.53428 -1.99306
16.0133 -2.48528 -1.99406
16.0343 -2.46328 -1.99706
15.3793 0.510723 -1.98806
15.3303 0.557723 -1.98106
15.3163 0.605723 -1.98006
15.3103 0.652723 -1.97906
15.2903 0.700723 -1.97706
15.2803 0.747723 -1.97606
15.2663 0.795723 -1.97406
15.2513 0.818723 -1.97206
15.2343 0.865723 -1.97006
15.2413 0.914723 -1.97106
15.2293 0.961723 -1.97006
15.2023 1.00772 -1.96706
15.1953 1.05572 -1.96606
14.9743 -2.44028 -1.95806
14.9803 -2.39328 -1.95706
15.0263 -2.35228 -1.96306
15.0243 -2.30328 -1.96106
15.0533 -2.25928 -1.96506
15.0743 -2.23828 -1.96706
15.0933 -2.19228 -1.96906
15.1193 -2.14828 -1.97206
15.1333 -2.10128 -1.97306
15.1583 -2.05628 -1.97506
15.1923 -2.01228 -1.97906
15.2103 -1.96628 -1.98106
14.7773 1.10272 -1.97406
14.7693 1.12472 -1.97306
14.7643 1.17172 -1.97306
14.7383 1.21572 -1.97006
14.7273 1.26172 -1.96906
14.7213 1.30772 -1.96906
14.7143 1.35372 -1.96806
14.6983 1.39872 -1.96706
14.6863 1.42072 -1.96506
14.6703 1.46572 -1.96306
14.6673 1.51172 -1.96406
14.6533 1.55672 -1.96206
14.6483 1.60272 -1.96206
14.6463 1.64972 -1.96306
14.6273 1.69372 -1.96106
14.6133 1.71572 -1.95906
14.5983 1.75972 -1.95806
14.5823 1.80472 -1.95606
14.4643 -2.23528 -1.94806
14.4813 -2.19128 -1.94906
14.5103 -2.14928 -1.95206
14.5253 -2.12828 -1.95406
14.5193 -2.08028 -1.95206
14.5443 -2.03728 -1.95506
14.5643 -1.99328 -1.95706
14.5893 -1.95028 -1.96006
14.6033 -1.90528 -1.96106
14.6203 -1.88428 -1.96306
14.6423 -1.84028 -1.96506
14.6673 -1.79728 -1.96806
14.6963 -1.75328 -1.97206
13.9313 1.59472 -1.95906
13.9183 1.63772 -1.95706
13.9053 1.68072 -1.95606
13.8693 1.69872 -1.95106
13.8553 1.74072 -1.95006
13.8423 1.78372 -1.94906
13.8093 1.82372 -1.94406
13.7913 1.86572 -1.94306
13.7663 1.90572 -1.94006
13.7563 1.94872 -1.93906
13.6703 -2.26228 -1.93306
13.6773 -2.21928 -1.93306
13.6913 -2.17728 -1.93406
13.7063 -2.13628 -1.93606
13.7443 -2.09728 -1.94006
13.7453 -2.05328 -1.94006
13.7493 -2.01028 -1.93906
13.7783 -1.99228 -1.94306
13.7623 -1.94628 -1.94006
13.7903 -1.90528 -1.94306
13.7963 -1.86228 -1.94306
13.8293 -1.82228 -1.94706
13.8293 -1.77828 -1.94706
13.8663 -1.73928 -1.95106
13.8573 -1.71528 -1.95006
13.8933 -1.67628 -1.95406
13.9043 -1.63328 -1.95506
12.8903 1.24972 -1.93906
12.8553 1.28672 -1.93406
12.8393 1.30572 -1.93206
12.8253 1.34472 -1.93106
12.8073 1.38372 -1.92806
12.7773 1.42072 -1.92406
12.7553 1.45972 -1.92106
12.7433 -1.15428 -1.91506
12.7643 -1.11528 -1.91706
12.7693 -1.07528 -1.91806
12.7673 -1.05528 -1.91706
12.7763 -1.01528 -1.91806
12.7913 -0.976277 -1.92006
12.8103 -0.937277 -1.92206
12.8113 -0.896277 -1.92206
12.8193 -0.856277 -1.92306
12.8343 -0.817277 -1.92506
12.8453 -0.797277 -1.92706
12.8513 -0.757277 -1.92706
12.8773 -0.718277 -1.93106
12.8913 -0.678277 -1.93306
12.8843 -0.637277 -1.93106
12.9073 -0.598277 -1.93506
12.0673 0.00372311 -1.91806
12.0693 0.0417231 -1.91806
12.0633 0.0797231 -1.91706
12.0673 0.0987231 -1.91806
12.0883 0.136723 -1.92106
12.0783 0.174723 -1.92006
12.0173 1.15872 -1.91906
11.9153 -1.04628 -1.90006
11.9243 -1.00928 -1.90106
11.9353 -0.973277 -1.90206
11.9443 -0.935277 -1.90306
11.9503 -0.898277 -1.90406
11.9643 -0.880277 -1.90606
11.9723 -0.843277 -1.90706
11.9813 -0.806277 -1.90806
11.9873 -0.769277 -1.90906
11.9783 -0.730277 -1.90706
12.0093 -0.694277 -1.91106
12.0023 -0.656277 -1.91006
12.0183 -0.638277 -1.91206
12.0423 -0.601277 -1.91606
12.0463 -0.564277 -1.91606
12.0653 -0.527277 -1.91906
12.0733 -0.489277 -1.92006
12.0873 -0.357277 -1.92206
12.0903 -0.319277 -1.92206
12.0723 -0.280277 -1.91906
12.0653 -0.242277 -1.91806
12.0773 -0.204277 -1.92006
12.0803 -0.166277 -1.92006
12.0683 -0.147277 -1.91806
12.0553 -0.109277 -1.91606
12.0653 -0.0712769 -1.91706
12.0673 -0.0342769 -1.91806
11.3573 0.00372311 -1.89806
11.3773 0.0387231 -1.90206
11.3593 0.0747231 -1.89906
11.3803 0.0927231 -1.90306
11.3643 0.127723 -1.90006
11.3783 0.163723 -1.90206
11.3713 0.199723 -1.90106
11.3823 0.235723 -1.90306
11.3623 0.270723 -1.90006
11.3853 0.307723 -1.90406
11.3783 0.324723 -1.90306
11.3933 0.361723 -1.90606
11.4013 0.397723 -1.90706
11.2513 -0.847277 -1.88506
11.2603 -0.829277 -1.88606
11.2583 -0.794277 -1.88606
11.2783 -0.760277 -1.88906
11.2713 -0.724277 -1.88706
11.2893 -0.689277 -1.89006
11.2913 -0.654277 -1.89006
11.3093 -0.619277 -1.89306
11.3103 -0.601277 -1.89306
11.3373 -0.567277 -1.89706
11.3253 -0.531277 -1.89506
11.3353 -0.495277 -1.89606
11.3563 -0.461277 -1.90006
11.3553 -0.425277 -1.89906
11.3513 -0.389277 -1.89806
11.3893 -0.372277 -1.90506
11.3863 -0.336277 -1.90406
11.4063 -0.301277 -1.90806
11.4023 -0.229277 -1.90706
11.3833 -0.193277 -1.90306
11.3923 -0.157277 -1.90506
11.3743 -0.139277 -1.90106
11.3673 -0.104277 -1.90006
11.3943 -0.0682769 -1.90506
11.3673 -0.0322769 -1.90006
10.9033 0.0147231 -1.89806
10.8933 0.0487231 -1.89606
10.8993 0.0837231 -1.89806
10.8893 0.117723 -1.89606
10.8783 0.151723 -1.89406
10.8963 0.168723 -1.89706
10.8873 0.202723 -1.89606
10.8853 0.236723 -1.89506
10.8903 0.271723 -1.89606
10.8833 0.305723 -1.89506
10.8803 0.339723 -1.89506
10.8913 0.373723 -1.89706
10.8963 0.391723 -1.89806
10.7083 1.36772 -1.87806
10.7663 -0.985277 -1.88106
10.7783 -0.952277 -1.88306
10.7803 -0.936277 -1.88306
10.7813 -0.901277 -1.88306
10.7903 -0.868277 -1.88406
10.8143 -0.836277 -1.88806
10.8033 -0.801277 -1.88506
10.8133 -0.768277 -1.88706
10.8253 -0.734277 -1.88806
10.8263 -0.717277 -1.88806
10.8363 -0.684277 -1.89006
10.8503 -0.650277 -1.89206
10.8483 -0.616277 -1.89106
10.8233 -0.580277 -1.88606
10.8343 -0.547277 -1.88806
10.8403 -0.513277 -1.88906
10.8583 -0.497277 -1.89206
10.8643 -0.463277 -1.89306
10.8613 -0.429277 -1.89206
10.8703 -0.395277 -1.89406
10.8793 -0.361277 -1.89506
10.8903 -0.327277 -1.89706
10.8953 -0.293277 -1.89806
10.8913 -0.0532769 -1.89606
10.8973 -0.0192769 -1.89706
10.3563 0.0127231 -1.88806
10.3453 0.0777231 -1.88706
10.3513 0.110723 -1.88806
10.3453 0.126723 -1.88706
10.3433 0.159723 -1.88606
10.3343 0.191723 -1.88506
10.3373 0.223723 -1.88506
10.3353 0.256723 -1.88506
10.3483 0.289723 -1.88806
10.3433 0.321723 -1.88706
10.3423 0.337723 -1.88706
10.3453 0.370723 -1.88806
10.2163 1.45072 -1.88106
10.1493 1.47372 -1.86906
10.1783 -1.03028 -1.86406
10.1813 -0.998277 -1.86406
10.1843 -0.966277 -1.86406
10.2013 -0.935277 -1.86706
10.2063 -0.903277 -1.86706
10.2093 -0.887277 -1.86806
10.2243 -0.856277 -1.87006
10.2183 -0.823277 -1.86806
10.2443 -0.793277 -1.87306
10.2473 -0.761277 -1.87306
10.2393 -0.728277 -1.87106
10.2533 -0.697277 -1.87306
10.2603 -0.681277 -1.87406
10.2723 -0.649277 -1.87606
10.2823 -0.617277 -1.87806
10.3003 -0.586277 -1.88106
10.3153 -0.554277 -1.88406
10.3193 -0.522277 -1.88406
10.3303 -0.490277 -1.88606
10.3253 -0.474277 -1.88506
10.3363 -0.442277 -1.88706
9.68931 0.000723107 -1.87306
9.69531 0.335723 -1.87506
9.69431 0.365723 -1.87506
9.45831 1.60572 -1.85306
9.57231 -0.571277 -1.85206
9.59731 -0.542277 -1.85706
9.58531 -0.511277 -1.85406
9.58931 -0.481277 -1.85506
9.59831 -0.452277 -1.85606
9.59631 -0.421277 -1.85506
9.60531 -0.392277 -1.85706
9.61931 -0.377277 -1.86006
9.62031 -0.347277 -1.86006
9.63131 -0.317277 -1.86206
9.62631 -0.286277 -1.86106
9.63131 -0.256277 -1.86206
9.64531 -0.226277 -1.86406
9.63431 -0.196277 -1.86206
9.64831 -0.181277 -1.86506
9.64731 -0.151277 -1.86406
9.66731 -0.121277 -1.86806
9.66731 -0.0902769 -1.86806
9.67731 -0.0602769 -1.87006
9.67731 -0.0302769 -1.87006
9.04831 1.73572 -1.86206
8.98931 1.75372 -1.85006
9.00131 -1.40128 -1.84006
9.01131 -1.37428 -1.84106
9.01531 -1.34628 -1.84106
9.04131 -1.16128 -1.84106
9.04831 -1.13328 -1.84206
9.04831 -1.11928 -1.84106
9.05231 -1.09128 -1.84106
9.06731 -1.00628 -1.84306
9.07031 -0.977277 -1.84306
9.07531 -0.949277 -1.84306
9.08731 -0.936277 -1.84506
9.09531 -0.908277 -1.84606
9.10231 -0.880277 -1.84706
9.10731 -0.851277 -1.84806
9.11531 -0.823277 -1.84906
9.12931 -0.795277 -1.85206
9.11431 -0.765277 -1.84806
9.16431 -0.755277 -1.85806
9.14931 -0.725277 -1.85406
9.15731 -0.696277 -1.85606
9.15731 -0.667277 -1.85506
9.18931 -0.641277 -1.86206
9.17131 -0.610277 -1.85706
9.18331 -0.582277 -1.86006
9.16631 -0.567277 -1.85606
9.20131 -0.511277 -1.86206
9.19831 -0.482277 -1.86206
9.21131 -0.453277 -1.86406
9.21531 -0.425277 -1.86506
8.62331 1.83672 -1.84906
8.56431 1.83872 -1.83706
7.93431 -3.54228 -1.82106
7.95431 -3.53628 -1.82406
7.96731 -3.51228 -1.82506
7.97631 -3.48628 -1.82406
7.99831 -3.46628 -1.82706
8.00331 -3.43828 -1.82606
7.99631 -3.40628 -1.82106
8.00031 -3.37728 -1.82006
7.99831 -3.36228 -1.81806
8.00831 -3.33728 -1.81806
8.68431 -1.10228 -1.83506
8.68231 -1.07428 -1.83406
8.68731 -1.04728 -1.83406
8.69331 -0.978277 -1.83406
8.69431 -0.951277 -1.83406
8.71831 -0.870277 -1.83706
8.72531 -0.843277 -1.83806
8.72231 -0.829277 -1.83706
8.73831 -0.803277 -1.84006
8.72931 -0.774277 -1.83806
8.75531 -0.749277 -1.84306
8.75731 -0.722277 -1.84306
8.76331 -0.694277 -1.84406
8.78131 -0.668277 -1.84706
8.78031 -0.654277 -1.84706
8.75731 -0.625277 -1.84106
8.79431 -0.600277 -1.84906
8.80231 -0.572277 -1.85006
8.79631 -0.544277 -1.84806
8.80931 -0.517277 -1.85106
8.79931 -0.489277 -1.84806
8.82531 -0.477277 -1.85406
8.83031 -0.449277 -1.85506
8.83031 -0.421277 -1.85506
8.83031 -0.366277 -1.85406
8.84631 -0.311277 -1.85706
8.47731 0.0157231 -1.84806
8.48631 0.0427231 -1.85106
8.26031 1.87672 -1.84706
8.21331 1.89272 -1.83706
7.57231 -3.44528 -1.81206
7.59431 -3.42628 -1.81506
7.61331 -3.40628 -1.81706
7.60131 -3.38628 -1.81206
7.61031 -3.36228 -1.81206
7.62731 -3.34128 -1.81406
7.63431 -3.28728 -1.81006
7.65731 -3.26828 -1.81306
8.35431 -0.747277 -1.82806
8.37031 -0.669277 -1.83006
8.38031 -0.644277 -1.83206
8.37931 -0.630277 -1.83106
8.39531 -0.605277 -1.83506
8.38131 -0.577277 -1.83106
8.40031 -0.552277 -1.83506
8.41031 -0.526277 -1.83706
8.40631 -0.500277 -1.83506
8.40931 -0.473277 -1.83606
8.41731 -0.460277 -1.83806
8.40731 -0.433277 -1.83506
8.41631 -0.407277 -1.83706
8.42531 -0.381277 -1.83906
8.42731 -0.355277 -1.83906
8.43331 -0.329277 -1.84006
8.45231 -0.303277 -1.84406
8.44531 -0.289277 -1.84206
8.44731 -0.263277 -1.84306
8.44631 -0.236277 -1.84206
8.45931 -0.210277 -1.84506
8.45131 -0.183277 -1.84306
8.46831 -0.157277 -1.84706
8.46431 -0.130277 -1.84606
8.47031 -0.117277 -1.84706
8.48231 -0.0902769 -1.85006
8.48031 -0.0642769 -1.84906
8.48531 -0.0372769 -1.85006
7.89231 2.00072 -1.83806
7.86831 2.02172 -1.83306
7.81131 2.03372 -1.82106
7.16731 3.63972 -1.81306
7.14731 3.65772 -1.81106
7.14631 3.68572 -1.81306
7.13531 3.69372 -1.81206
7.11631 3.71272 -1.81006
7.10131 3.73372 -1.80906
7.08831 3.75472 -1.80906
7.07831 3.77772 -1.80906
7.28531 -3.42628 -1.81606
7.29031 -3.40028 -1.81406
7.31831 -3.38628 -1.81906
7.32931 -3.37728 -1.82006
7.32031 -3.34528 -1.81506
7.33431 -3.32328 -1.81606
7.34531 -3.30028 -1.81606
7.87031 -1.71828 -1.81706
7.89131 -1.65828 -1.81906
7.90131 -1.58328 -1.81806
7.90631 -1.55828 -1.81806
7.92131 -1.52228 -1.81906
7.93931 -1.44828 -1.82006
7.93531 -1.42228 -1.81906
7.94631 -1.39828 -1.82006
7.95231 -1.37328 -1.82006
7.94631 -1.35928 -1.81906
7.96231 -1.33628 -1.82106
7.95731 -1.31028 -1.81906
7.98931 -1.28928 -1.82606
7.96331 -1.25928 -1.81906
7.99231 -1.23828 -1.82506
7.98031 -1.21128 -1.82106
7.99031 -1.19928 -1.82306
8.00931 -1.15128 -1.82606
8.00131 -1.12428 -1.82306
8.00031 -1.09828 -1.82206
8.00631 -1.07328 -1.82206
8.00531 -1.04828 -1.82106
8.03531 -1.01328 -1.82706
8.03531 -0.962277 -1.82606
8.01931 -0.935277 -1.82106
8.03231 -0.910277 -1.82406
8.02331 -0.884277 -1.82106
8.04231 -0.873277 -1.82506
8.03931 -0.847277 -1.82406
8.05331 -0.823277 -1.82606
8.04831 -0.797277 -1.82506
8.06431 -0.773277 -1.82806
8.06031 -0.747277 -1.82606
8.08831 -0.724277 -1.83306
8.06231 -0.709277 -1.82606
8.09131 -0.686277 -1.83306
8.09931 -0.661277 -1.83406
8.10731 -0.636277 -1.83506
8.11131 -0.611277 -1.83606
8.11131 -0.585277 -1.83506
8.12231 -0.561277 -1.83806
8.12131 -0.548277 -1.83706
8.12531 -0.522277 -1.83806
8.12431 -0.497277 -1.83706
8.13631 -0.472277 -1.84006
8.13931 -0.446277 -1.84006
8.13631 -0.421277 -1.83906
8.14931 -0.396277 -1.84206
8.14631 -0.383277 -1.84106
8.14731 -0.357277 -1.84106
8.15431 -0.332277 -1.84206
7.74631 0.000723107 -1.82406
7.76731 0.0257231 -1.82906
7.77131 0.0497231 -1.83006
7.77231 0.0747231 -1.83106
7.75831 0.0987231 -1.82706
7.77431 0.110723 -1.83106
7.77331 0.135723 -1.83106
7.79231 0.160723 -1.83606
7.78431 0.184723 -1.83406
7.77031 0.208723 -1.83106
7.78131 0.233723 -1.83406
7.77231 0.257723 -1.83206
7.79131 0.270723 -1.83606
7.78731 0.294723 -1.83606
7.78631 0.343723 -1.83606
7.49831 2.03972 -1.83006
7.46231 2.05472 -1.82206
6.90431 -3.30128 -1.80106
6.89731 -3.27128 -1.79606
6.92531 -3.25728 -1.80106
6.94431 -3.18728 -1.79806
7.68931 -0.580277 -1.81506
7.71231 -0.557277 -1.82006
7.69431 -0.507277 -1.81506
7.71031 -0.472277 -1.81906
7.73431 -0.424277 -1.82406
7.71431 -0.399277 -1.81906
7.74231 -0.376277 -1.82506
7.73631 -0.351277 -1.82306
7.73231 -0.339277 -1.82206
7.74331 -0.315277 -1.82506
7.73031 -0.290277 -1.82106
7.71031 -0.265277 -1.81606
7.74831 -0.242277 -1.82506
7.73331 -0.217277 -1.82106
7.75331 -0.194277 -1.82606
7.72831 -0.181277 -1.82006
7.73231 -0.157277 -1.82106
7.73331 -0.132277 -1.82106
7.73731 -0.108277 -1.82206
7.73531 -0.0842769 -1.82106
7.74731 -0.0602769 -1.82406
7.75931 -0.0352769 -1.82706
7.76331 -0.0232769 -1.82806
7.41531 0.00872311 -1.81706
7.42431 0.0207231 -1.82006
7.41631 0.0437231 -1.81806
7.43631 0.0677231 -1.82306
7.43531 0.0907231 -1.82306
7.43931 0.113723 -1.82406
7.43531 0.137723 -1.82306
7.43831 0.160723 -1.82406
7.43631 0.172723 -1.82306
7.43731 0.195723 -1.82406
7.44231 0.219723 -1.82506
7.44231 0.242723 -1.82506
7.45131 0.266723 -1.82806
7.44231 0.289723 -1.82606
7.44531 0.312723 -1.82706
7.45431 0.325723 -1.82906
7.44931 0.348723 -1.82806
7.45831 0.372723 -1.83106
7.13231 2.11772 -1.82406
7.09731 2.13172 -1.81606
7.05731 2.14472 -1.80706
6.55031 -3.25028 -1.79006
6.55731 -3.22728 -1.78906
6.58131 -3.18828 -1.79006
7.37031 -0.419277 -1.80906
7.37531 -0.315277 -1.80906
7.38431 -0.292277 -1.81106
7.37731 -0.257277 -1.80906
7.38631 -0.234277 -1.81106
7.40031 -0.212277 -1.81406
7.39331 -0.188277 -1.81206
7.39731 -0.165277 -1.81306
7.39431 -0.142277 -1.81206
7.41231 -0.130277 -1.81706
7.40431 -0.107277 -1.81506
7.42031 -0.0842769 -1.81906
7.41431 -0.0612769 -1.81706
7.40931 -0.0372769 -1.81606
7.42231 -0.0142769 -1.81906
6.76931 2.20972 -1.81906
6.74331 2.22472 -1.81406
6.71431 2.23772 -1.80806
6.69131 2.24172 -1.80206
6.68931 2.26472 -1.80406
6.68431 2.28672 -1.80406
6.68431 2.30972 -1.80606
6.68231 2.33272 -1.80806
6.66831 2.35172 -1.80606
6.64231 2.36572 -1.80106
6.64531 2.37872 -1.80306
6.63331 2.39772 -1.80106
6.62331 2.41772 -1.80106
6.61931 2.43972 -1.80206
6.59931 2.50372 -1.80306
6.56831 2.52672 -1.79706
6.56931 2.55072 -1.80006
6.55431 2.56872 -1.79706
6.54031 2.58772 -1.79606
6.51331 2.65972 -1.79606
6.20131 -3.21128 -1.78206
6.23831 -3.18128 -1.78806
6.27131 -3.17228 -1.79406
6.30231 -3.16328 -1.80106
6.29331 -3.14628 -1.79606
6.29731 -3.12428 -1.79506
6.30931 -3.10528 -1.79506
6.32931 -3.09028 -1.79906
6.34231 -3.07228 -1.80006
6.36231 -3.05728 -1.80306
6.35831 -3.03028 -1.79906
6.35731 -3.01828 -1.79706
6.36031 -2.99528 -1.79506
6.36731 -2.97428 -1.79406
6.37731 -2.95428 -1.79406
6.38431 -2.93328 -1.79406
6.38631 -2.91028 -1.79206
6.39931 -2.89128 -1.79306
6.40931 -2.88328 -1.79406
6.41831 -2.86328 -1.79406
6.42331 -2.84228 -1.79306
6.42531 -2.81828 -1.79106
6.44331 -2.80228 -1.79406
6.45031 -2.78128 -1.79306
6.45831 -2.76128 -1.79306
6.46331 -2.75028 -1.79306
6.47931 -2.73328 -1.79506
6.49631 -2.71628 -1.79806
6.49631 -2.69228 -1.79506
6.49331 -2.66828 -1.79206
6.52031 -2.65428 -1.79706
6.51831 -2.64228 -1.79606
6.51831 -2.61828 -1.79306
6.53831 -2.60228 -1.79706
6.53431 -2.57728 -1.79306
6.55131 -2.56028 -1.79606
6.55531 -2.53828 -1.79506
6.56731 -2.51928 -1.79606
6.56731 -2.50728 -1.79506
6.57731 -2.48728 -1.79506
6.59031 -2.46828 -1.79706
6.60031 -2.44828 -1.79706
6.60231 -2.42628 -1.79606
6.62031 -2.40928 -1.79906
6.62231 -2.38628 -1.79706
6.63031 -2.37728 -1.79906
6.63531 -2.35528 -1.79806
6.64531 -2.33528 -1.79906
6.65231 -2.31428 -1.79906
6.65431 -2.29228 -1.79706
6.66331 -2.27128 -1.79706
6.69031 -2.25728 -1.80306
6.66031 -2.23628 -1.79406
6.68631 -2.22128 -1.79906
6.68031 -2.19528 -1.79506
6.69431 -2.17728 -1.79706
6.71031 -2.15928 -1.80006
6.69131 -2.13028 -1.79306
6.72031 -2.11528 -1.79906
6.72131 -2.10428 -1.79906
6.72231 -2.08128 -1.79706
6.72331 -2.05928 -1.79506
6.74831 -2.04328 -1.80106
6.74031 -2.01728 -1.79606
6.73931 -1.99428 -1.79406
6.75231 -1.97528 -1.79606
6.75431 -1.96428 -1.79606
6.76331 -1.94428 -1.79706
6.77731 -1.92528 -1.79906
6.77931 -1.90228 -1.79806
6.79331 -1.86028 -1.79906
6.81131 -1.83128 -1.80106
6.81531 -1.78628 -1.79906
6.81331 -1.76228 -1.79706
6.83231 -1.74428 -1.80106
6.83731 -1.72328 -1.80106
6.84931 -1.69228 -1.80206
6.84131 -1.66728 -1.79806
6.85931 -1.64828 -1.80206
6.84831 -1.62328 -1.79706
6.86231 -1.60428 -1.80006
6.86731 -1.58228 -1.80006
6.87831 -1.56228 -1.80106
6.87931 -1.52828 -1.80006
6.88431 -1.50628 -1.80006
6.89431 -1.48628 -1.80106
6.88831 -1.46228 -1.79806
6.89431 -1.44128 -1.79906
6.90231 -1.42028 -1.80006
6.91831 -1.38928 -1.80206
6.91031 -1.36528 -1.79906
6.91931 -1.34428 -1.80006
6.93731 -1.30228 -1.80306
6.92831 -1.27828 -1.79906
6.94031 -1.24728 -1.80106
6.93631 -1.22328 -1.79906
6.94931 -1.20328 -1.80106
6.94931 -1.18128 -1.80006
6.94731 -1.15828 -1.79906
6.96431 -1.13828 -1.80206
6.96031 -1.12628 -1.80106
6.96231 -1.10428 -1.80006
6.97531 -1.08428 -1.80306
6.96931 -1.06128 -1.80006
6.99431 -1.01928 -1.80506
6.98631 -0.996277 -1.80206
6.98931 -0.985277 -1.80306
7.01031 -0.966277 -1.80706
6.99531 -0.941277 -1.80306
6.99131 -0.918277 -1.80106
7.02031 -0.900277 -1.80806
7.01431 -0.876277 -1.80506
7.00531 -0.853277 -1.80206
7.02931 -0.845277 -1.80806
7.01831 -0.821277 -1.80506
7.02931 -0.800277 -1.80706
7.02731 -0.777277 -1.80606
7.03731 -0.756277 -1.80806
7.03831 -0.734277 -1.80706
7.04731 -0.724277 -1.81006
7.05131 -0.702277 -1.81006
7.04531 -0.679277 -1.80806
7.04931 -0.657277 -1.80806
7.03831 -0.633277 -1.80506
7.04031 -0.611277 -1.80506
7.05931 -0.591277 -1.81006
7.07331 -0.581277 -1.81306
7.05031 -0.556277 -1.80606
7.06531 -0.535277 -1.81006
7.06331 -0.513277 -1.80906
7.08831 -0.492277 -1.81506
7.07831 -0.469277 -1.81206
7.08531 -0.447277 -1.81406
7.07031 -0.435277 -1.81006
7.09831 -0.414277 -1.81706
7.09431 -0.392277 -1.81506
7.09731 -0.370277 -1.81606
7.09631 -0.347277 -1.81506
7.11331 -0.326277 -1.81906
7.10231 -0.303277 -1.81606
7.11831 -0.292277 -1.82106
7.11531 -0.270277 -1.81906
7.10631 -0.247277 -1.81706
7.12431 -0.225277 -1.82206
7.12131 -0.203277 -1.82106
7.13031 -0.181277 -1.82306
7.12831 -0.158277 -1.82206
7.13731 -0.125277 -1.82406
6.84831 0.00672311 -1.80606
6.84431 0.0287231 -1.80506
6.85031 0.0497231 -1.80706
6.84831 0.0607231 -1.80606
6.85831 0.0827231 -1.80906
6.84631 0.103723 -1.80606
6.86131 0.125723 -1.81006
6.85631 0.146723 -1.80906
6.86631 0.168723 -1.81206
6.85731 0.189723 -1.80906
6.85331 0.200723 -1.80806
6.86231 0.222723 -1.81106
6.86331 0.243723 -1.81206
6.86631 0.265723 -1.81306
6.85831 0.286723 -1.81006
6.86631 0.308723 -1.81306
6.86431 0.330723 -1.81306
6.86731 0.341723 -1.81406
6.85831 0.362723 -1.81206
6.86631 0.384723 -1.81406
6.86731 0.406723 -1.81506
6.87731 0.428723 -1.81806
6.87431 0.449723 -1.81806
6.87331 0.471723 -1.81806
6.48831 2.22872 -1.80906
6.46831 2.24472 -1.80606
6.43331 2.24372 -1.79606
6.42331 2.26272 -1.79506
6.41031 2.28172 -1.79406
6.38831 2.34172 -1.79406
5.96731 -3.15128 -1.77806
5.98931 -3.13928 -1.78206
5.98731 -3.11328 -1.77806
6.01531 -3.09228 -1.78206
6.01631 -3.06928 -1.78006
6.03531 -3.05428 -1.78206
6.04431 -3.03628 -1.78206
6.05031 -3.01528 -1.78106
6.05331 -2.99228 -1.77906
6.06231 -2.97328 -1.77906
6.79831 -0.495277 -1.79706
6.81331 -0.368277 -1.79906
6.83031 -0.336277 -1.80306
6.81231 -0.314277 -1.79806
6.81831 -0.271277 -1.79906
6.82131 -0.229277 -1.80006
6.82831 -0.218277 -1.80106
6.81931 -0.196277 -1.79906
6.82931 -0.175277 -1.80106
6.82731 -0.154277 -1.80106
6.82231 -0.132277 -1.79906
6.83031 -0.111277 -1.80106
6.83231 -0.0892769 -1.80206
6.83631 -0.0792769 -1.80306
6.83731 -0.0572769 -1.80306
6.83931 -0.0362769 -1.80306
6.85431 -0.0142769 -1.80806
6.60431 0.00272311 -1.80306
6.59531 0.0237231 -1.80006
6.60631 0.0337231 -1.80306
6.60631 0.0547231 -1.80306
6.61031 0.0757231 -1.80506
6.60631 0.0957231 -1.80306
6.61131 0.116723 -1.80506
6.61631 0.137723 -1.80706
6.61431 0.158723 -1.80606
6.60831 0.168723 -1.80506
6.62531 0.189723 -1.81006
6.60931 0.210723 -1.80506
6.62131 0.231723 -1.80906
6.59431 0.251723 -1.80106
6.61631 0.272723 -1.80806
6.61731 0.293723 -1.80806
6.61331 0.303723 -1.80706
6.62531 0.325723 -1.81106
6.62231 0.346723 -1.81106
6.61931 0.366723 -1.81006
6.62631 0.388723 -1.81206
6.62231 0.408723 -1.81206
6.62431 0.440723 -1.81306
6.62531 0.482723 -1.81406
6.61531 0.544723 -1.81206
6.19531 2.29972 -1.80406
6.16331 2.30972 -1.79606
6.15731 2.32972 -1.79706
6.13731 2.34372 -1.79306
6.13531 2.36572 -1.79506
6.13931 2.37772 -1.79706
6.10831 2.38772 -1.79006
6.10231 2.40772 -1.79006
6.08631 2.42372 -1.78706
6.07831 2.44272 -1.78706
6.06331 2.48072 -1.78706
5.72931 -3.10028 -1.77706
5.73431 -3.07928 -1.77506
5.75531 -3.06828 -1.77906
5.76531 -3.04928 -1.77906
5.78331 -3.03628 -1.78206
5.79531 -3.03028 -1.78406
5.80431 -3.01228 -1.78406
5.80231 -2.98828 -1.78006
5.81431 -2.97128 -1.78106
5.82431 -2.95328 -1.78106
5.82931 -2.93328 -1.78006
5.83931 -2.91428 -1.78006
5.85231 -2.91028 -1.78306
5.84031 -2.88128 -1.77606
5.85431 -2.86528 -1.77806
5.86931 -2.82728 -1.77706
5.89731 -2.79528 -1.78006
5.89331 -2.78128 -1.77706
5.91531 -2.74728 -1.77906
5.92231 -2.72728 -1.77806
5.93431 -2.68828 -1.77706
5.95831 -2.64228 -1.77806
5.98331 -2.58628 -1.77806
6.03031 -2.48428 -1.77906
6.06731 -2.39928 -1.78006
6.07931 -2.38228 -1.78106
6.13031 -2.28128 -1.78506
6.16531 -2.17328 -1.78306
6.18631 -2.11528 -1.78306
6.56531 -0.286277 -1.79306
6.56831 -0.266277 -1.79406
6.57531 -0.235277 -1.79606
6.56631 -0.214277 -1.79306
6.57731 -0.193277 -1.79606
6.58731 -0.173277 -1.79806
6.58731 -0.152277 -1.79806
6.59931 -0.132277 -1.80206
6.59231 -0.111277 -1.80006
6.58831 -0.101277 -1.79806
6.58131 -0.0802769 -1.79606
6.59331 -0.0592769 -1.80006
6.60231 -0.0392769 -1.80206
6.59331 -0.0182769 -1.80006
6.40831 0.00172311 -1.79206
6.42631 0.0227231 -1.79706
6.41631 0.0427231 -1.79406
6.43531 0.0627231 -1.80006
6.41431 0.0827231 -1.79406
6.42531 0.0927231 -1.79706
6.44431 0.113723 -1.80306
6.44931 0.133723 -1.80506
6.44731 0.153723 -1.80406
6.45031 0.174723 -1.80506
6.44431 0.194723 -1.80406
6.45131 0.214723 -1.80606
6.45031 0.224723 -1.80606
6.44231 0.244723 -1.80406
6.43431 0.264723 -1.80106
6.45231 0.285723 -1.80706
6.44931 0.305723 -1.80606
6.45631 0.326723 -1.80906
6.44531 0.346723 -1.80606
6.46231 0.357723 -1.81106
6.44931 0.376723 -1.80806
6.45731 0.397723 -1.81006
6.44731 0.437723 -1.80806
6.00631 2.33672 -1.80306
5.99231 2.35272 -1.80106
5.96331 2.35272 -1.79306
5.94731 2.36772 -1.79006
5.94331 2.38772 -1.79106
5.93731 2.40672 -1.79206
5.92931 2.42572 -1.79206
5.92931 2.44772 -1.79406
5.90931 2.46072 -1.79006
5.90031 2.46772 -1.78806
5.87831 2.48072 -1.78406
5.87231 2.52172 -1.78706
5.84431 2.55372 -1.78306
5.84031 2.57272 -1.78406
5.82431 2.59872 -1.78306
5.80431 2.63372 -1.78206
5.79131 2.69472 -1.78606
5.76931 2.70572 -1.78106
5.54431 -3.07928 -1.77206
5.54731 -3.05828 -1.77006
5.58531 -3.05628 -1.78006
5.58931 -3.03628 -1.77806
5.60631 -3.02228 -1.78006
5.60531 -3.01028 -1.77806
5.60531 -2.98728 -1.77506
5.62131 -2.97328 -1.77706
5.62231 -2.95128 -1.77406
5.64431 -2.94028 -1.77906
5.65231 -2.92228 -1.77806
5.65331 -2.90028 -1.77606
5.66231 -2.89328 -1.77706
5.68331 -2.88228 -1.78106
5.67731 -2.85628 -1.77606
5.69831 -2.84428 -1.78006
5.69531 -2.82028 -1.77606
5.70231 -2.80128 -1.77606
5.70931 -2.78328 -1.77506
5.70631 -2.77028 -1.77306
5.72231 -2.75628 -1.77506
5.72431 -2.73428 -1.77306
5.74331 -2.72128 -1.77606
5.77331 -2.67028 -1.77806
5.76731 -2.65628 -1.77406
5.77731 -2.63828 -1.77506
5.78731 -2.62128 -1.77606
5.80231 -2.58428 -1.77506
5.85531 -2.46628 -1.77606
5.89431 -2.38528 -1.77706
5.90431 -2.36728 -1.77806
5.92231 -2.31028 -1.77706
5.95331 -2.26828 -1.78106
5.98131 -2.21428 -1.78306
5.98131 -2.18228 -1.78006
6.39231 -0.369277 -1.79006
6.39631 -0.259277 -1.79006
6.41731 -0.240277 -1.79606
6.39831 -0.199277 -1.79006
6.39831 -0.178277 -1.79006
6.40631 -0.169277 -1.79206
6.40131 -0.148277 -1.79006
6.41331 -0.129277 -1.79406
6.41131 -0.108277 -1.79306
6.41731 -0.0882769 -1.79506
6.41031 -0.0682769 -1.79306
6.42731 -0.0482769 -1.79806
6.41831 -0.0382769 -1.79506
6.43331 -0.0182769 -1.80006
6.17231 0.00572311 -1.79706
6.17631 0.0257231 -1.79806
6.18031 0.0447231 -1.79906
6.17631 0.0637231 -1.79806
6.18531 0.0837231 -1.80106
6.17731 0.0937231 -1.79906
6.19431 0.112723 -1.80406
6.19231 0.132723 -1.80306
6.19331 0.171723 -1.80406
6.19531 0.210723 -1.80506
5.66831 2.43772 -1.79606
5.64831 2.45072 -1.79206
5.64631 2.47072 -1.79406
5.64031 2.48872 -1.79406
5.63231 2.50672 -1.79406
5.62831 2.51572 -1.79406
5.60831 2.52772 -1.79006
5.59531 2.54272 -1.78906
5.57831 2.55672 -1.78606
5.56831 2.57272 -1.78506
5.55031 2.58572 -1.78106
5.54831 2.60672 -1.78406
5.54831 2.61672 -1.78506
5.53331 2.63072 -1.78306
5.53131 2.65172 -1.78506
5.52331 2.66872 -1.78506
5.50431 2.68172 -1.78106
5.48731 2.69472 -1.77806
5.49231 2.71872 -1.78306
5.46931 2.71772 -1.77706
5.46131 2.73472 -1.77706
5.46231 2.75672 -1.78006
5.44831 2.77172 -1.77806
5.42631 2.80272 -1.77706
5.39531 2.84072 -1.77406
5.36831 2.89172 -1.77406
5.34231 2.93172 -1.77306
5.24631 -3.05228 -1.76506
5.27231 -3.04528 -1.77106
5.31531 -3.04728 -1.78306
5.31531 -3.02528 -1.77906
5.33631 -3.01428 -1.78306
5.34331 -2.98628 -1.78106
5.35431 -2.97028 -1.78106
5.37031 -2.95728 -1.78406
5.35931 -2.92928 -1.77706
5.36231 -2.90828 -1.77406
5.39431 -2.90428 -1.78306
5.39831 -2.88428 -1.78106
5.40331 -2.87628 -1.78106
5.42131 -2.84228 -1.78106
5.44431 -2.81028 -1.78306
5.46131 -2.79828 -1.78606
5.45331 -2.77228 -1.78006
5.46931 -2.76928 -1.78406
5.46931 -2.74828 -1.78106
5.47631 -2.73028 -1.78006
5.47431 -2.70728 -1.77706
5.48531 -2.69128 -1.77706
5.48831 -2.67128 -1.77606
5.51231 -2.66228 -1.78106
5.49331 -2.64228 -1.77306
5.51031 -2.62928 -1.77606
5.52231 -2.61328 -1.77706
5.53231 -2.59728 -1.77806
5.54231 -2.58028 -1.77806
5.53631 -2.55628 -1.77406
5.56131 -2.54728 -1.78006
5.54631 -2.52928 -1.77306
5.57331 -2.52128 -1.78006
5.56631 -2.49628 -1.77406
5.57031 -2.47728 -1.77306
5.60431 -2.47128 -1.78206
5.59831 -2.44728 -1.77706
5.61131 -2.43228 -1.77906
5.60931 -2.42128 -1.77706
5.64131 -2.41428 -1.78606
5.61731 -2.38328 -1.77506
5.64931 -2.37528 -1.78306
5.63631 -2.34928 -1.77606
5.65931 -2.33828 -1.78106
5.64131 -2.31028 -1.77306
5.66331 -2.30828 -1.77906
5.66631 -2.28928 -1.77806
5.68431 -2.27528 -1.78106
5.67931 -2.25228 -1.77706
5.71131 -2.24428 -1.78606
5.69531 -2.21728 -1.77806
5.72331 -2.20828 -1.78506
5.71231 -2.19328 -1.78006
5.73231 -2.18028 -1.78406
5.72031 -2.15528 -1.77806
5.73431 -2.14028 -1.78106
5.73631 -2.12028 -1.77906
5.76931 -2.11228 -1.78806
5.75431 -2.08628 -1.78106
5.76131 -2.07828 -1.78206
5.76231 -2.05828 -1.78006
5.78531 -2.04628 -1.78606
5.77531 -2.02228 -1.78006
5.79031 -2.00728 -1.78306
5.78631 -1.98528 -1.78006
5.80331 -1.97028 -1.78306
5.80231 -1.96028 -1.78206
5.81831 -1.94528 -1.78506
5.80731 -1.92128 -1.78006
5.81031 -1.90228 -1.77806
5.82331 -1.88628 -1.78106
5.83831 -1.87028 -1.78406
5.83131 -1.84828 -1.78006
5.85031 -1.84428 -1.78506
5.85231 -1.82428 -1.78406
5.85631 -1.80628 -1.78306
5.85631 -1.78528 -1.78106
5.87131 -1.77028 -1.78406
5.86231 -1.74728 -1.78006
5.88931 -1.74528 -1.78706
5.87231 -1.72028 -1.78006
5.90031 -1.70828 -1.78706
5.88331 -1.68328 -1.78006
5.91031 -1.67128 -1.78706
5.89331 -1.64628 -1.78006
5.92231 -1.63428 -1.78806
5.90631 -1.62028 -1.78206
5.93731 -1.60828 -1.79006
5.91831 -1.58328 -1.78306
5.92731 -1.56528 -1.78406
5.93431 -1.54728 -1.78406
5.95031 -1.53128 -1.78806
5.93831 -1.50928 -1.78306
5.94431 -1.50028 -1.78406
5.95031 -1.48228 -1.78406
5.98131 -1.46928 -1.79306
5.95631 -1.44428 -1.78306
5.95931 -1.42428 -1.78306
5.99331 -1.41328 -1.79206
5.96731 -1.38728 -1.78306
5.97931 -1.38028 -1.78606
5.97931 -1.36028 -1.78406
5.97831 -1.34028 -1.78306
5.97731 -1.32028 -1.78106
6.01131 -1.30828 -1.79006
5.99631 -1.28528 -1.78406
6.00431 -1.26728 -1.78606
6.01031 -1.25828 -1.78706
6.00831 -1.23828 -1.78506
6.01031 -1.21928 -1.78406
6.03031 -1.20328 -1.79006
6.01731 -1.18128 -1.78406
6.02531 -1.16328 -1.78606
6.02731 -1.14428 -1.78506
6.02831 -1.13428 -1.78506
6.02431 -1.11428 -1.78306
6.04731 -1.09828 -1.78906
6.02731 -1.07528 -1.78106
6.03631 -1.05728 -1.78306
6.04931 -1.04028 -1.78606
6.05131 -1.02128 -1.78606
6.08531 -0.997277 -1.79506
6.05031 -0.952277 -1.78206
6.07031 -0.936277 -1.78706
6.06331 -0.896277 -1.78306
6.06231 -0.886277 -1.78306
6.07831 -0.869277 -1.78706
6.08131 -0.830277 -1.78606
6.10831 -0.775277 -1.79206
6.09331 -0.744277 -1.78606
6.08531 -0.724277 -1.78306
6.09931 -0.687277 -1.78606
6.09631 -0.667277 -1.78406
6.09231 -0.647277 -1.78306
6.11231 -0.640277 -1.78906
6.10131 -0.619277 -1.78406
6.12931 -0.583277 -1.79206
6.11831 -0.563277 -1.78806
6.10431 -0.542277 -1.78306
6.12331 -0.524277 -1.78906
6.11131 -0.514277 -1.78406
6.13131 -0.389277 -1.78806
6.13931 -0.351277 -1.79006
6.13331 -0.332277 -1.78706
6.13231 -0.312277 -1.78706
6.13531 -0.293277 -1.78706
6.13831 -0.274277 -1.78806
6.13831 -0.264277 -1.78806
6.14331 -0.245277 -1.78906
6.14531 -0.226277 -1.79006
6.15031 -0.207277 -1.79106
6.15831 -0.187277 -1.79306
6.15531 -0.168277 -1.79206
6.15931 -0.149277 -1.79306
6.17331 -0.139277 -1.79706
6.16731 -0.120277 -1.79606
6.15431 -0.100277 -1.79106
6.17031 -0.0812769 -1.79606
6.16231 -0.0622769 -1.79406
6.16331 -0.0422769 -1.79406
6.16631 -0.0332769 -1.79506
6.16531 -0.0132769 -1.79406
5.26831 2.76072 -1.79006
5.25631 2.77572 -1.78906
5.24131 2.78872 -1.78606
5.24531 2.80072 -1.78906
5.23931 2.81872 -1.79006
5.21731 2.82872 -1.78506
5.20731 2.84372 -1.78506
5.19831 2.85972 -1.78506
5.18231 2.87272 -1.78206
5.16931 2.88772 -1.78106
5.17731 2.90172 -1.78506
5.14131 2.90372 -1.77606
5.13531 2.92172 -1.77706
5.13431 2.94172 -1.78006
5.11231 2.95072 -1.77506
5.09131 2.95972 -1.77106
5.10631 2.99072 -1.78006
5.07331 2.98172 -1.77006
5.07431 3.00372 -1.77306
5.06631 3.02072 -1.77406
5.05531 3.03572 -1.77306
5.04231 3.04972 -1.77206
5.02831 3.06272 -1.77006
5.02431 3.08172 -1.77306
5.01031 3.08372 -1.76906
5.00231 3.10072 -1.77006
4.98931 3.11472 -1.76806
4.97931 3.12972 -1.76806
4.95631 3.15972 -1.76706
4.94331 3.17272 -1.76606
4.94131 3.18272 -1.76706
4.90831 3.22672 -1.76606
4.72531 3.46972 -1.76206
4.70131 3.49872 -1.76206
4.67131 3.54472 -1.76306
4.65231 3.55372 -1.76006
4.65131 3.56472 -1.76206
4.63531 3.57572 -1.76006
4.63331 3.59772 -1.76406
4.60631 3.62272 -1.76206
4.59531 3.63772 -1.76206
4.57631 3.64572 -1.75906
4.56431 3.67172 -1.76106
4.54531 3.68072 -1.75806
4.52431 3.71072 -1.75906
4.51131 3.72272 -1.75806
4.50231 3.73972 -1.75906
4.48431 3.76072 -1.75906
4.47531 3.77772 -1.76006
4.45031 3.80472 -1.76006
4.43231 3.81372 -1.75706
4.42831 3.82172 -1.75806
4.41431 3.83372 -1.75706
4.39931 3.84572 -1.75606
4.38431 3.85672 -1.75506
4.38131 3.87772 -1.75906
4.36631 3.88972 -1.75706
4.35331 3.90272 -1.75706
4.34031 3.90372 -1.75406
4.33231 3.94572 -1.76206
4.31231 3.95172 -1.75806
4.29831 3.96372 -1.75706
4.28831 3.98072 -1.75906
4.26931 3.98672 -1.75606
4.26531 3.99672 -1.75706
4.25131 4.00872 -1.75606
4.23431 4.01772 -1.75406
4.21831 4.02772 -1.75306
4.21031 4.04572 -1.75506
4.19631 4.05772 -1.75406
4.18831 4.07472 -1.75606
4.19131 4.09072 -1.76006
4.16631 4.09172 -1.75506
4.15131 4.10372 -1.75406
4.14831 4.12572 -1.75906
4.12731 4.13072 -1.75506
4.11831 4.14772 -1.75706
4.11631 4.17172 -1.76206
4.08831 4.16972 -1.75506
4.07931 4.17372 -1.75406
4.07631 4.19672 -1.75906
4.04631 4.19172 -1.75106
4.03831 4.21072 -1.75306
4.03431 4.23272 -1.75706
4.00631 4.22972 -1.75106
4.00431 4.24172 -1.75306
3.99831 4.26172 -1.75606
3.97431 4.26272 -1.75106
3.96431 4.27972 -1.75306
3.95531 4.29572 -1.75506
3.93731 4.30472 -1.75306
3.92131 4.31372 -1.75206
3.90931 4.31472 -1.75006
3.90031 4.33072 -1.75106
3.88231 4.33872 -1.75006
3.87731 4.36072 -1.75406
3.85031 4.35772 -1.74706
3.83931 4.37272 -1.74806
3.83431 4.39472 -1.75306
3.81831 4.39072 -1.74806
3.80231 4.39972 -1.74706
3.79831 4.42272 -1.75206
3.77631 4.42572 -1.74806
5.01631 -3.01628 -1.75906
5.05831 -3.02028 -1.77106
5.34331 -2.58328 -1.78506
5.66531 -1.83828 -1.79206
5.66531 -1.79928 -1.78906
5.67131 -1.78128 -1.78906
5.69031 -1.75828 -1.79206
5.69431 -1.72028 -1.79006
5.70331 -1.70328 -1.79106
5.71531 -1.66728 -1.79206
5.72531 -1.64128 -1.79206
5.73531 -1.60528 -1.79206
5.74631 -1.58928 -1.79406
5.75931 -1.53428 -1.79306
5.76831 -1.50728 -1.79406
5.77031 -1.48928 -1.79306
5.78131 -1.47228 -1.79506
5.77431 -1.45128 -1.79206
5.77931 -1.43328 -1.79206
5.78531 -1.40528 -1.79206
5.79731 -1.38928 -1.79406
5.80231 -1.37128 -1.79406
5.79831 -1.35128 -1.79206
5.80631 -1.33428 -1.79306
5.80231 -1.29428 -1.78906
5.81131 -1.28728 -1.79106
5.83231 -1.27228 -1.79606
5.81931 -1.25028 -1.79106
5.82731 -1.23328 -1.79206
5.83431 -1.21528 -1.79306
5.83231 -1.19628 -1.79206
5.83631 -1.17728 -1.79206
5.83431 -1.16728 -1.79006
5.84231 -1.15028 -1.79206
5.85831 -1.13428 -1.79606
5.86631 -1.11628 -1.79706
5.86231 -1.09628 -1.79506
5.85931 -1.07728 -1.79306
5.87231 -1.06028 -1.79606
5.85731 -1.04828 -1.79006
5.87931 -1.03328 -1.79606
5.87831 -1.01428 -1.79506
5.87631 -0.994277 -1.79306
5.87531 -0.975277 -1.79206
5.87631 -0.956277 -1.79206
5.88131 -0.938277 -1.79206
5.88531 -0.929277 -1.79306
5.88231 -0.910277 -1.79106
5.88131 -0.891277 -1.79006
5.88031 -0.872277 -1.78906
5.89231 -0.855277 -1.79206
5.89531 -0.836277 -1.79206
5.89931 -0.818277 -1.79206
5.90231 -0.809277 -1.79306
5.90931 -0.791277 -1.79406
5.89431 -0.770277 -1.78906
5.91231 -0.754277 -1.79306
5.89731 -0.733277 -1.78806
5.91231 -0.716277 -1.79206
5.92431 -0.699277 -1.79506
5.90831 -0.687277 -1.79006
5.91431 -0.669277 -1.79106
5.92231 -0.651277 -1.79306
5.91431 -0.631277 -1.79006
5.92231 -0.614277 -1.79206
5.92631 -0.595277 -1.79206
5.93031 -0.577277 -1.79306
5.91731 -0.566277 -1.78906
5.92831 -0.548277 -1.79206
5.93031 -0.530277 -1.79206
5.93031 -0.511277 -1.79106
5.93731 -0.493277 -1.79306
5.93331 -0.474277 -1.79106
5.93631 -0.455277 -1.79206
5.95031 -0.447277 -1.79606
5.93331 -0.427277 -1.79006
5.95531 -0.410277 -1.79606
5.95631 -0.391277 -1.79606
5.95531 -0.372277 -1.79606
5.96431 -0.354277 -1.79806
5.96331 -0.344277 -1.79806
5.93531 -0.324277 -1.78906
5.96031 -0.288277 -1.79606
5.95531 -0.269277 -1.79406
5.97431 -0.232277 -1.79906
5.97231 -0.223277 -1.79906
5.98131 -0.185277 -1.80106
5.97431 -0.166277 -1.79906
5.73731 0.0117231 -1.78806
5.74331 0.0297231 -1.79006
5.76031 0.0477231 -1.79606
5.74831 0.0657231 -1.79206
5.75931 0.0847231 -1.79606
5.75531 0.129723 -1.79506
5.76231 0.147723 -1.79706
5.75831 0.165723 -1.79606
5.12631 2.52472 -1.78106
5.13231 2.54772 -1.78606
5.11931 2.56072 -1.78406
5.10631 2.56472 -1.78106
5.10031 2.58172 -1.78106
5.08731 2.59472 -1.78006
5.07931 2.61072 -1.78006
5.07631 2.62972 -1.78106
5.07431 2.64872 -1.78406
5.05131 2.65672 -1.77806
5.02531 2.65272 -1.77006
5.02331 2.67272 -1.77306
4.99831 2.67972 -1.76606
4.98931 2.69472 -1.76606
4.97931 2.70972 -1.76606
4.99131 2.73672 -1.77306
4.96531 2.74272 -1.76706
4.96631 2.75372 -1.76906
0.688311 5.39372 -1.68906
4.83031 -2.94628 -1.76206
4.88431 -2.92728 -1.77406
4.89031 -2.90928 -1.77306
4.90931 -2.90028 -1.77606
4.92531 -2.86828 -1.77606
4.93031 -2.86028 -1.77606
4.93431 -2.84228 -1.77406
4.96231 -2.79628 -1.77506
5.00231 -2.74728 -1.77806
4.99931 -2.72528 -1.77406
5.00631 -2.70828 -1.77306
5.01831 -2.69428 -1.77506
5.02031 -2.67528 -1.77206
5.02631 -2.65828 -1.77106
5.03931 -2.65528 -1.77506
5.04731 -2.63928 -1.77506
5.04931 -2.61928 -1.77206
5.06031 -2.60528 -1.77306
5.06531 -2.58828 -1.77206
5.07231 -2.57128 -1.77106
5.08031 -2.55528 -1.77106
5.07531 -2.54328 -1.76806
5.08731 -2.52828 -1.77006
5.10531 -2.51728 -1.77306
5.09231 -2.49128 -1.76606
5.12031 -2.48528 -1.77306
5.13031 -2.47028 -1.77406
5.12631 -2.44828 -1.77006
5.13631 -2.44328 -1.77206
5.14931 -2.43028 -1.77406
5.15231 -2.41128 -1.77206
5.15931 -2.39528 -1.77206
5.17031 -2.38028 -1.77306
5.17231 -2.36228 -1.77106
5.18331 -2.34728 -1.77306
5.18331 -2.33728 -1.77106
5.19431 -2.32328 -1.77306
5.19131 -2.30228 -1.76906
5.21931 -2.29428 -1.77606
5.21231 -2.27228 -1.77106
5.21831 -2.25528 -1.77106
5.24231 -2.25628 -1.77806
5.24431 -2.23728 -1.77606
5.25831 -2.22328 -1.77906
5.25431 -2.20228 -1.77506
5.26131 -2.18628 -1.77506
5.26531 -2.16828 -1.77406
5.26631 -2.14928 -1.77206
5.28231 -2.14628 -1.77606
5.28331 -2.12728 -1.77506
5.30131 -2.11528 -1.77806
5.30931 -2.09928 -1.77906
5.31031 -2.08028 -1.77706
5.32431 -2.06628 -1.78006
5.32331 -2.04728 -1.77706
5.32631 -2.03828 -1.77706
5.33131 -2.02128 -1.77606
5.34631 -2.00728 -1.78006
5.34531 -1.98828 -1.77706
5.35331 -1.97228 -1.77806
5.37931 -1.96228 -1.78506
5.37531 -1.94128 -1.78106
5.36931 -1.93028 -1.77806
5.38731 -1.91728 -1.78206
5.38631 -1.89828 -1.78006
5.38731 -1.87928 -1.77806
5.41031 -1.86828 -1.78406
5.38931 -1.84228 -1.77506
5.40431 -1.82828 -1.77806
5.40931 -1.82028 -1.77806
5.40731 -1.80128 -1.77606
5.41531 -1.78528 -1.77606
5.42731 -1.77028 -1.77906
5.42031 -1.74928 -1.77506
5.43331 -1.73428 -1.77706
5.44831 -1.72028 -1.78006
5.42531 -1.70328 -1.77106
5.44131 -1.69028 -1.77506
5.45231 -1.67428 -1.77706
5.45031 -1.65528 -1.77506
5.46631 -1.64128 -1.77806
5.47331 -1.62428 -1.77906
5.46931 -1.60428 -1.77606
5.48031 -1.59828 -1.77906
5.47431 -1.57828 -1.77506
5.47931 -1.56128 -1.77506
5.47531 -1.54128 -1.77206
5.50231 -1.53028 -1.78006
5.48831 -1.50828 -1.77306
5.49331 -1.49028 -1.77306
5.50531 -1.48428 -1.77606
5.50031 -1.46528 -1.77306
5.51731 -1.45128 -1.77806
5.50531 -1.42928 -1.77206
5.51131 -1.39428 -1.77106
5.52631 -1.37928 -1.77506
5.52331 -1.35128 -1.77106
5.53731 -1.33528 -1.77506
5.53031 -1.31528 -1.77106
5.55531 -1.28428 -1.77606
5.55531 -1.23928 -1.77306
5.56131 -1.20328 -1.77306
5.56531 -1.18628 -1.77306
5.57831 -1.14328 -1.77406
5.58331 -1.10828 -1.77306
5.59031 -1.09128 -1.77506
5.59931 -1.07428 -1.77606
5.60231 -1.02928 -1.77506
5.61231 -1.01328 -1.77706
5.61031 -0.994277 -1.77506
5.61631 -0.959277 -1.77506
5.62831 -0.943277 -1.77806
5.61831 -0.923277 -1.77406
5.62231 -0.915277 -1.77506
5.63631 -0.899277 -1.77806
5.63131 -0.880277 -1.77606
5.63231 -0.862277 -1.77506
5.64831 -0.846277 -1.78006
5.63331 -0.826277 -1.77406
5.64931 -0.810277 -1.77806
5.64531 -0.800277 -1.77606
5.64331 -0.782277 -1.77506
5.65031 -0.765277 -1.77606
5.65631 -0.748277 -1.77806
5.65631 -0.730277 -1.77706
5.65831 -0.712277 -1.77706
5.66131 -0.703277 -1.77806
5.66631 -0.686277 -1.77806
5.66631 -0.668277 -1.77806
5.67931 -0.651277 -1.78106
5.67431 -0.632277 -1.77906
5.68731 -0.616277 -1.78306
5.67231 -0.596277 -1.77706
5.67531 -0.587277 -1.77806
5.68631 -0.571277 -1.78106
5.69531 -0.553277 -1.78306
5.68731 -0.535277 -1.78006
5.69331 -0.517277 -1.78106
5.70631 -0.500277 -1.78506
5.69831 -0.481277 -1.78206
5.69931 -0.473277 -1.78206
5.70831 -0.455277 -1.78506
5.69031 -0.436277 -1.77806
5.69931 -0.419277 -1.78106
5.70231 -0.401277 -1.78106
5.70431 -0.383277 -1.78106
5.70831 -0.365277 -1.78306
5.71931 -0.357277 -1.78606
5.71631 -0.339277 -1.78506
5.70731 -0.320277 -1.78106
5.72231 -0.303277 -1.78606
5.72431 -0.285277 -1.78606
5.72731 -0.267277 -1.78706
5.72231 -0.249277 -1.78506
5.73231 -0.240277 -1.78806
5.73731 -0.222277 -1.79006
5.73231 -0.204277 -1.78806
5.72931 -0.186277 -1.78606
5.74831 -0.168277 -1.79306
5.74731 -0.150277 -1.79206
5.73031 -0.132277 -1.78606
5.75531 -0.123277 -1.79506
5.74031 -0.105277 -1.79006
5.73331 -0.0872769 -1.78706
5.72431 -0.0692769 -1.78406
5.74331 -0.0512769 -1.79006
5.73731 -0.0332769 -1.78806
5.74931 -0.0152769 -1.79206
5.74731 -0.00627689 -1.79206
5.56031 0.00472311 -1.78106
5.57931 0.0217231 -1.78706
5.56931 0.0397231 -1.78406
5.56731 0.0477231 -1.78406
5.57131 0.0657231 -1.78506
5.56931 0.0827231 -1.78406
5.57631 0.100723 -1.78706
5.57831 0.117723 -1.78706
5.58231 0.179723 -1.78906
5.58431 0.214723 -1.79106
4.92931 2.57572 -1.78206
4.92331 2.59172 -1.78206
4.91331 2.60672 -1.78206
4.90031 2.61872 -1.78006
4.88931 2.62272 -1.77706
4.88931 2.64272 -1.78006
4.87631 2.65572 -1.77806
4.86231 2.66872 -1.77706
4.84631 2.67872 -1.77306
4.82931 2.68972 -1.77006
4.82731 2.70872 -1.77306
4.82431 2.72672 -1.77506
4.80431 2.72572 -1.76906
4.80731 2.74772 -1.77306
4.79731 2.76172 -1.77306
4.77431 2.76772 -1.76706
4.78631 2.79572 -1.77506
4.77131 2.80672 -1.77306
4.75531 2.81772 -1.77006
4.74531 2.82172 -1.76806
4.73931 2.83772 -1.76906
4.73031 2.85272 -1.76906
4.71431 2.86372 -1.76606
4.71031 2.88172 -1.76806
4.68831 2.88872 -1.76306
4.69231 2.91072 -1.76806
4.67831 2.91272 -1.76406
4.66431 2.92472 -1.76206
4.65831 2.94072 -1.76406
4.64431 2.95272 -1.76206
4.63631 2.96772 -1.76206
4.62831 2.98372 -1.76306
4.60931 2.99172 -1.75906
3.54031 4.12572 -1.73906
3.44531 4.19872 -1.73706
3.41831 4.21972 -1.73706
3.14231 4.40572 -1.73106
3.03731 4.47772 -1.73006
3.02231 4.48572 -1.72906
3.00731 4.49472 -1.72906
2.99831 4.51072 -1.73206
2.98631 4.50872 -1.72906
2.97331 4.51972 -1.73006
2.95731 4.52572 -1.72906
2.94331 4.53572 -1.72906
2.92731 4.54272 -1.72806
2.91631 4.55672 -1.73006
2.90331 4.56772 -1.73106
2.89231 4.56572 -1.72806
2.87631 4.57372 -1.72806
2.84931 4.59472 -1.72906
2.83431 4.60172 -1.72806
2.81831 4.60872 -1.72806
2.80831 4.62472 -1.73006
2.80131 4.62872 -1.73006
2.78231 4.63072 -1.72806
2.76831 4.63972 -1.72806
0.241311 5.24372 -1.67506
0.233311 5.24372 -1.67506
0.218311 5.27272 -1.68506
0.201311 5.26772 -1.68306
0.185311 5.27572 -1.68606
0.169311 5.28972 -1.69006
0.152311 5.27872 -1.68606
0.077311 5.28672 -1.68806
4.63731 -2.91728 -1.75306
4.64731 -2.90228 -1.75306
4.68531 -2.91628 -1.76706
4.70031 -2.90528 -1.76906
4.71631 -2.89528 -1.77206
4.72231 -2.87828 -1.77106
4.73131 -2.86328 -1.77106
4.74131 -2.84928 -1.77106
4.78031 -2.78128 -1.77106
4.78231 -2.76228 -1.76806
4.80331 -2.75428 -1.77306
4.80531 -2.73628 -1.77106
4.81631 -2.73228 -1.77306
4.81731 -2.71228 -1.77006
4.82531 -2.69728 -1.77006
4.82731 -2.67828 -1.76806
4.84031 -2.66628 -1.76906
4.84431 -2.64828 -1.76806
4.84931 -2.63028 -1.76606
4.87131 -2.63328 -1.77306
4.86831 -2.61128 -1.76906
4.87631 -2.59628 -1.76906
4.88431 -2.58128 -1.76906
4.89731 -2.56828 -1.77106
4.89831 -2.54928 -1.76806
4.90831 -2.53428 -1.76906
4.90931 -2.52528 -1.76806
4.90531 -2.50328 -1.76306
4.92531 -2.49428 -1.76806
4.94131 -2.48328 -1.77106
4.94231 -2.46428 -1.76806
4.94631 -2.44728 -1.76706
4.94831 -2.43828 -1.76606
4.95931 -2.42428 -1.76806
4.96031 -2.40528 -1.76506
4.97431 -2.39328 -1.76806
4.98531 -2.37928 -1.76906
4.98831 -2.36128 -1.76706
4.99331 -2.34428 -1.76606
5.00631 -2.34128 -1.76906
5.00831 -2.32228 -1.76806
5.03431 -2.31528 -1.77506
5.02631 -2.29328 -1.76906
5.03631 -2.27828 -1.77006
5.05031 -2.26628 -1.77306
5.05631 -2.24928 -1.77206
5.05931 -2.24128 -1.77206
5.06531 -2.22428 -1.77106
5.07031 -2.20828 -1.77106
5.08031 -2.17428 -1.76906
5.08931 -2.15928 -1.77006
5.09431 -2.14228 -1.76906
5.09531 -2.13428 -1.76906
5.10531 -2.11928 -1.77006
5.11431 -2.10428 -1.77106
5.11931 -2.08728 -1.77006
5.13231 -2.07428 -1.77306
5.13231 -2.05528 -1.77006
5.14031 -2.03928 -1.77106
5.15431 -2.03528 -1.77506
5.14231 -2.01228 -1.76806
5.15231 -1.99728 -1.76906
5.17331 -1.98728 -1.77506
5.16631 -1.96628 -1.77006
5.17831 -1.95128 -1.77206
5.18431 -1.93528 -1.77206
5.18531 -1.92628 -1.77106
5.18931 -1.90928 -1.77106
5.20131 -1.89528 -1.77306
5.20331 -1.87728 -1.77106
5.20931 -1.86128 -1.77106
5.22031 -1.84728 -1.77306
5.22231 -1.82928 -1.77206
5.22231 -1.81928 -1.77106
5.22731 -1.80328 -1.77106
5.23531 -1.78728 -1.77106
5.23731 -1.77028 -1.77006
5.23931 -1.75228 -1.76906
5.24231 -1.73528 -1.76806
5.24831 -1.71828 -1.76806
5.24931 -1.71028 -1.76806
5.25231 -1.69228 -1.76706
5.26131 -1.67728 -1.76806
5.26331 -1.65928 -1.76706
5.27731 -1.64628 -1.77006
5.27531 -1.62728 -1.76806
5.28931 -1.56828 -1.76606
5.35831 -1.35328 -1.76906
5.46631 -0.967277 -1.77806
5.48331 -0.837277 -1.77706
5.48631 -0.802277 -1.77606
5.49431 -0.786277 -1.77806
5.49731 -0.751277 -1.77706
5.49931 -0.743277 -1.77706
5.50331 -0.726277 -1.77806
5.50231 -0.690277 -1.77606
5.49631 -0.611277 -1.77106
5.51131 -0.499277 -1.77206
5.52431 -0.413277 -1.77406
5.51931 -0.403277 -1.77206
5.52631 -0.387277 -1.77406
5.53231 -0.352277 -1.77506
5.53131 -0.335277 -1.77506
5.52431 -0.317277 -1.77206
5.52931 -0.291277 -1.77306
5.53731 -0.256277 -1.77506
5.53831 -0.239277 -1.77506
5.54631 -0.222277 -1.77806
5.53931 -0.204277 -1.77506
5.54231 -0.187277 -1.77606
5.54231 -0.178277 -1.77606
5.55431 -0.161277 -1.78006
5.56431 -0.144277 -1.78306
5.56031 -0.126277 -1.78206
5.55131 -0.109277 -1.77806
5.56531 -0.0922769 -1.78306
5.56531 -0.0742769 -1.78306
5.55631 -0.0652769 -1.78006
5.56331 -0.0482769 -1.78206
5.56531 -0.0302769 -1.78306
5.57131 -0.0132769 -1.78506
4.59531 2.80272 -1.77606
4.57531 2.81072 -1.77206
4.57931 2.83272 -1.77706
4.56131 2.84172 -1.77306
4.54131 2.84872 -1.76806
4.53731 2.86572 -1.77006
4.52331 2.87672 -1.76806
4.52631 2.88872 -1.77206
4.50631 2.89572 -1.76706
4.49231 2.90772 -1.76506
4.47831 2.91772 -1.76306
4.47431 2.93572 -1.76506
4.47131 2.95372 -1.76806
4.46531 2.96972 -1.76906
4.45531 2.97372 -1.76706
4.46031 2.99672 -1.77306
4.43631 3.00172 -1.76706
4.41931 3.00972 -1.76406
4.42131 3.03172 -1.76806
4.41031 3.04472 -1.76806
4.38331 3.04572 -1.76006
4.38131 3.06572 -1.76406
4.35931 3.06072 -1.75606
4.36231 3.08272 -1.76206
4.35431 3.09772 -1.76206
4.33531 3.10472 -1.75806
4.32731 3.11972 -1.75906
4.31831 3.13372 -1.76006
4.30731 3.13672 -1.75706
4.29131 3.14572 -1.75406
4.29231 3.16672 -1.75906
4.28831 3.18472 -1.76206
4.26931 3.19172 -1.75806
4.26631 3.21072 -1.76106
4.24031 3.21072 -1.75406
4.23531 3.21772 -1.75406
4.24031 3.24272 -1.76006
4.22531 3.25272 -1.75806
4.20731 3.25972 -1.75506
4.20731 3.28172 -1.76006
4.19131 3.28972 -1.75706
4.17631 3.29972 -1.75506
4.17631 3.30972 -1.75706
4.16131 3.31872 -1.75506
4.15231 3.33372 -1.75606
4.15231 3.35472 -1.76006
4.11931 3.34972 -1.75006
4.10931 3.36272 -1.75006
4.10431 3.38072 -1.75306
4.08131 3.41572 -1.75506
4.05831 3.41772 -1.74906
4.04431 3.42872 -1.74806
4.04631 3.45172 -1.75406
4.02731 3.45772 -1.75006
4.02331 3.46472 -1.75006
4.01631 3.48072 -1.75206
3.99531 3.48472 -1.74806
3.98931 3.50172 -1.75006
3.98031 3.51672 -1.75106
3.94731 3.53072 -1.74606
3.93031 3.54972 -1.74606
3.88731 3.59972 -1.74606
3.86831 3.61672 -1.74606
3.85731 3.62972 -1.74606
3.84631 3.64172 -1.74606
3.83331 3.65172 -1.74506
3.79431 3.68372 -1.74306
3.78831 3.70172 -1.74606
3.77031 3.71872 -1.74606
3.75731 3.72972 -1.74506
3.74231 3.73772 -1.74306
3.71931 3.76172 -1.74406
3.71031 3.77672 -1.74506
3.70031 3.77872 -1.74306
3.69131 3.79272 -1.74406
3.67531 3.79972 -1.74206
3.67131 3.81972 -1.74606
3.65131 3.82272 -1.74206
3.63431 3.82872 -1.74006
3.63031 3.84872 -1.74406
3.61831 3.84872 -1.74106
3.60531 3.85872 -1.74006
3.59631 3.87272 -1.74206
3.57831 3.87872 -1.73906
3.56931 3.89272 -1.74006
3.55431 3.90072 -1.73906
3.49231 3.96872 -1.74206
3.47031 3.96872 -1.73706
3.46031 3.98272 -1.73806
3.45231 3.98672 -1.73806
3.44631 4.00472 -1.74106
3.43331 4.01472 -1.74106
3.41631 4.01972 -1.73806
