0.835225 3.89585 -1.70823
0.828225 3.89585 -1.70723
0.804225 3.90285 -1.70823
0.792225 3.90485 -1.70823
0.768225 3.91385 -1.71023
0.756225 3.91585 -1.71023
0.749225 3.91385 -1.70823
0.736225 3.91385 -1.70723
0.723225 3.91285 -1.70623
0.712225 3.92185 -1.70923
0.699225 3.91885 -1.70723
0.669225 3.92785 -1.70823
0.631225 3.92685 -1.70523
0.619225 3.93385 -1.70723
0.607225 3.93785 -1.70823
0.589225 3.94085 -1.70823
0.514225 3.94785 -1.70723
0.471225 3.95685 -1.70823
0.458225 3.95785 -1.70823
0.445225 3.95585 -1.70723
0.433225 3.95685 -1.70723
0.427225 3.95985 -1.70723
0.414225 3.95885 -1.70723
0.402225 3.96285 -1.70723
0.389225 3.95685 -1.70423
0.365225 3.96585 -1.70723
0.346225 3.96185 -1.70523
0.321225 3.96985 -1.70723
0.308225 3.96685 -1.70623
0.283225 3.96385 -1.70323
0.271225 3.96585 -1.70423
0.252225 3.97085 -1.70623
0.240225 3.97185 -1.70623
0.215225 3.97185 -1.70523
0.202225 3.97385 -1.70623
0.159225 3.97185 -1.70423
0.146225 3.97285 -1.70423
0.134225 3.97285 -1.70423
0.108225 3.96885 -1.70223
0.0962247 3.97085 -1.70223
0.0902247 3.97285 -1.70323
0.0772247 3.97485 -1.70423
0.0652247 3.96585 -1.70023
0.0272247 3.97585 -1.70423
0.0152247 3.97685 -1.70523
0.00922474 3.97585 -1.70423
3.04122 -2.79515 -1.77523
2.91922 -2.76915 -1.76823
7.34422 -5.13115 0.503771
7.41022 -5.14215 0.505771
7.47022 -5.15015 0.507771
7.54322 -5.16415 0.509771
7.68322 -5.20715 0.514771
7.75222 -5.21815 0.516771
7.83422 -5.23715 0.519771
7.90522 -5.24915 0.521771
7.97222 -5.25715 0.523771
8.05223 -5.27315 0.526771
8.12422 -5.30215 0.528771
8.20823 -5.32015 0.531771
8.28022 -5.32915 0.533771
8.36722 -5.34815 0.536771
8.45522 -5.36715 0.539771
8.53823 -5.38215 0.541771
8.69722 -5.42515 0.547771
8.78123 -5.43815 0.549771
8.87523 -5.45715 0.552771
8.97223 -5.47815 0.556771
9.06322 -5.49415 0.559771
9.16222 -5.51515 0.562771
9.35223 -5.56915 0.568771
9.44322 -5.58315 0.571771
9.54422 -5.60215 0.574771
10.0742 -5.72215 0.592771
10.1902 -5.74515 0.596771
10.3112 -5.77015 0.600771
10.9442 -5.92115 0.621771
11.0722 -5.94515 0.625771
11.1982 -5.96815 0.629771
7.22422 -5.09115 0.442771
7.27722 -5.11215 0.444771
7.34422 -5.12415 0.446771
7.41322 -5.13815 0.447771
7.48122 -5.15115 0.449771
7.54722 -5.16115 0.451771
7.63122 -5.18415 0.453771
7.69822 -5.19515 0.455771
7.75422 -5.21515 0.456771
7.83722 -5.23515 0.459771
7.90322 -5.24415 0.460771
7.98522 -5.26215 0.462771
8.06623 -5.28015 0.465771
8.13622 -5.29015 0.466771
8.29422 -5.33715 0.471771
8.36423 -5.34615 0.472771
8.44923 -5.36215 0.475771
8.53522 -5.38015 0.477771
8.87422 -5.45915 0.486771
8.96123 -5.47415 0.488771
9.06723 -5.50015 0.491771
9.54123 -5.60615 0.504771
9.64822 -5.62915 0.507771
9.74522 -5.64515 0.509771
9.86923 -5.67515 0.512771
10.3022 -5.77515 0.524771
10.4232 -5.80115 0.527771
10.5422 -5.82415 0.531771
10.6712 -5.85215 0.534771
10.7992 -5.87915 0.537771
11.1752 -5.97015 0.548771
11.3062 -5.99515 0.551771
7.25422 -5.10815 0.401771
7.59322 -5.18715 0.409771
7.66222 -5.19915 0.410771
7.73522 -5.21215 0.412771
7.86522 -5.24615 0.415771
8.02623 -5.28015 0.418771
8.11022 -5.29915 0.420771
8.18923 -5.31315 0.422771
8.25823 -5.32115 0.423771
8.42122 -5.37015 0.427771
8.50023 -5.38315 0.428771
8.59223 -5.40315 0.430771
8.68023 -5.42015 0.432771
8.76723 -5.43615 0.434771
8.86823 -5.45915 0.436771
8.93822 -5.48315 0.438771
9.04523 -5.50915 0.440771
9.13622 -5.52515 0.442771
9.23423 -5.54515 0.445771
9.32923 -5.56215 0.447771
9.42723 -5.58015 0.449771
9.52623 -5.59815 0.451771
9.62823 -5.63715 0.453771
9.72723 -5.65415 0.456771
9.84723 -5.68215 0.458771
9.95222 -5.70115 0.460771
10.0642 -5.72215 0.463771
10.1762 -5.74415 0.465771
10.3042 -5.77315 0.468771
10.5432 -5.84115 0.474771
10.6652 -5.86515 0.476771
10.7922 -5.89015 0.479771
10.9142 -5.91215 0.482771
11.0492 -5.94015 0.485771
11.1842 -5.96715 0.488771
7.27722 -5.10815 0.334771
7.33722 -5.11615 0.335771
7.40922 -5.13215 0.336771
7.46622 -5.15515 0.337771
7.53822 -5.17015 0.338771
7.61722 -5.18915 0.339771
7.69322 -5.20615 0.340771
7.76722 -5.22115 0.341771
7.83222 -5.22915 0.342771
7.91522 -5.24815 0.343771
7.97622 -5.27115 0.344771
8.04823 -5.28315 0.345771
8.12123 -5.29515 0.346771
8.20022 -5.31015 0.347771
8.27223 -5.32015 0.348771
8.35423 -5.33615 0.349771
8.51723 -5.38415 0.352771
8.60522 -5.40215 0.353771
8.68523 -5.41515 0.354771
8.77223 -5.43115 0.356771
8.96222 -5.47215 0.358771
9.13523 -5.51915 0.361771
9.23623 -5.54115 0.363771
9.33123 -5.55815 0.364771
9.43723 -5.58215 0.365771
9.53823 -5.60115 0.367771
9.83922 -5.67515 0.371771
9.94722 -5.69615 0.373771
10.0592 -5.71815 0.375771
10.1772 -5.74415 0.376771
10.3032 -5.77315 0.378771
10.5302 -5.83515 0.382771
10.6462 -5.85615 0.384771
10.7772 -5.88415 0.385771
10.9002 -5.90815 0.387771
11.0332 -5.93515 0.389771
11.1632 -5.96015 0.391771
8.77423 -5.44315 0.303771
9.95823 -5.70715 0.314771
10.0892 -5.74015 0.316771
10.6672 -5.86915 0.321771
7.18322 -5.08215 0.226771
7.25822 -5.10115 0.226771
7.32922 -5.11815 0.226771
7.38222 -5.13715 0.226771
7.45722 -5.15515 0.226771
7.52622 -5.16815 0.227771
7.58022 -5.17015 0.227771
7.66522 -5.19415 0.227771
7.73822 -5.20815 0.227771
7.79922 -5.21415 0.227771
7.86922 -5.24215 0.228771
7.95222 -5.26215 0.228771
8.02023 -5.27115 0.228771
8.09822 -5.28715 0.228771
8.18423 -5.30615 0.229771
8.25222 -5.31415 0.229771
8.32823 -5.34415 0.229771
8.41523 -5.36415 0.229771
8.49022 -5.37415 0.229771
8.57722 -5.39215 0.230771
8.66922 -5.41215 0.230771
8.93923 -5.48415 0.231771
9.02623 -5.49915 0.231771
9.12623 -5.52015 0.231771
9.22523 -5.54115 0.232771
9.31623 -5.55615 0.232771
9.41823 -5.57715 0.232771
9.52122 -5.59915 0.233771
9.60822 -5.62915 0.233771
9.72523 -5.65815 0.233771
9.83323 -5.67915 0.234771
9.93622 -5.69715 0.234771
10.0462 -5.71915 0.234771
10.1732 -5.74915 0.235771
10.2852 -5.77015 0.235771
10.7602 -5.88315 0.236771
10.9062 -5.91915 0.237771
11.0362 -5.94515 0.237771
11.1692 -5.97215 0.238771
7.19022 -5.09115 0.128771
7.25222 -5.10115 0.127771
7.31822 -5.11415 0.127771
7.39222 -5.13115 0.126771
7.44422 -5.15015 0.126771
7.57422 -5.17015 0.125771
7.65422 -5.19015 0.124771
7.72822 -5.20515 0.124771
7.79922 -5.21815 0.123771
7.87222 -5.23115 0.122771
7.93522 -5.25515 0.122771
8.01923 -5.27515 0.121771
8.08922 -5.28515 0.121771
8.17422 -5.30415 0.120771
8.25823 -5.32215 0.120771
8.33022 -5.33215 0.119771
8.49323 -5.38015 0.118771
8.56223 -5.38715 0.117771
8.65623 -5.40815 0.117771
8.74522 -5.42615 0.116771
8.84122 -5.44715 0.115771
9.11722 -5.52015 0.113771
9.21523 -5.54015 0.112771
9.31522 -5.56015 0.111771
9.40823 -5.57615 0.111771
9.51322 -5.59815 0.110771
9.61022 -5.61515 0.109771
9.81122 -5.67115 0.108771
9.92023 -5.69315 0.107771
10.0372 -5.71915 0.106771
10.1472 -5.74015 0.105771
10.2702 -5.76715 0.104771
10.3942 -5.79415 0.103771
10.5212 -5.82215 0.102771
10.6242 -5.85715 0.101771
10.7552 -5.88615 0.100771
10.8942 -5.91815 0.0997711
11.0132 -5.93815 0.0987711
11.1412 -5.96215 0.0977711
11.2792 -5.99115 0.0967711
7.25022 -5.09515 0.0727711
7.32222 -5.11115 0.0717711
7.40722 -5.13515 0.0707712
7.45722 -5.15215 0.0707712
7.52722 -5.16615 0.0697711
7.59722 -5.17815 0.0687711
7.68222 -5.20115 0.0677711
7.74922 -5.21015 0.0667711
7.82522 -5.22615 0.0657711
7.90122 -5.24115 0.0647711
7.97022 -5.26815 0.0637711
8.04222 -5.27915 0.0627711
8.12022 -5.29415 0.0617712
8.20623 -5.31215 0.0607711
8.29323 -5.33215 0.0587712
8.37422 -5.34715 0.0577712
8.46222 -5.36515 0.0567711
8.54023 -5.39515 0.0557712
8.61923 -5.40815 0.0547712
8.71622 -5.43015 0.0537711
8.80323 -5.44615 0.0517711
8.90623 -5.47015 0.0507712
8.99623 -5.48715 0.0497711
9.09622 -5.50815 0.0487712
9.17823 -5.53815 0.0467712
9.27623 -5.55715 0.0457712
9.37623 -5.57715 0.0447711
9.48223 -5.59915 0.0427711
9.57923 -5.61515 0.0417712
9.67922 -5.63315 0.0407711
9.79023 -5.65715 0.0387711
9.88622 -5.69115 0.0377712
10.0052 -5.71715 0.0357712
10.1202 -5.74115 0.0337711
10.2392 -5.76615 0.0327712
10.3612 -5.79115 0.0307711
10.4842 -5.81615 0.0297711
10.6122 -5.84415 0.0277711
11.1282 -5.96815 0.0207711
11.2612 -5.99415 0.0187711
8.11522 -5.30215 -0.00622885
8.59422 -5.40715 -0.0162289
8.69223 -5.43115 -0.0182289
9.71823 -5.65815 -0.0392288
9.93423 -5.70115 -0.0432288
7.56422 -5.18015 -0.0972289
8.15923 -5.31215 -0.115229
7.11822 -5.06815 -0.558229
7.11522 -5.06915 -0.610229
10.3442 -5.79315 -0.972229
10.4702 -5.82015 -0.984229
10.5742 -5.83415 -0.994229
10.8202 -5.90315 -1.01823
10.9472 -5.92815 -1.03023
11.0962 -5.96315 -1.04523
11.2232 -5.98615 -1.05723
6.75522 -4.98215 -0.684229
9.19722 -5.53715 -0.928229
9.28423 -5.55015 -0.937229
9.35923 -5.57515 -0.945229
9.44923 -5.58815 -0.954229
9.54323 -5.60415 -0.963229
9.65022 -5.62615 -0.974229
10.0772 -5.72915 -1.01823
10.2032 -5.75815 -1.03123
10.3182 -5.78115 -1.04223
10.4352 -5.80415 -1.05423
10.5562 -5.82815 -1.06623
10.6872 -5.85715 -1.08023
10.8142 -5.88315 -1.09323
10.9452 -5.93215 -1.10723
11.0742 -5.95715 -1.12023
11.2102 -5.98615 -1.13423
6.67422 -4.97615 -0.731229
6.71722 -4.97515 -0.735229
6.78222 -5.00615 -0.743229
8.59622 -5.40815 -0.935229
8.69123 -5.42915 -0.945229
8.74022 -5.44015 -0.950229
8.83123 -5.45815 -0.960229
8.92323 -5.47615 -0.969229
9.00823 -5.48915 -0.978229
9.09523 -5.50315 -0.987229
9.19823 -5.52615 -0.998229
9.38622 -5.57815 -1.01923
9.48822 -5.59815 -1.03023
9.59122 -5.61815 -1.04123
9.69623 -5.63915 -1.05223
9.80923 -5.66315 -1.06423
9.92222 -5.68615 -1.07723
10.1392 -5.74715 -1.10123
10.2562 -5.77015 -1.11323
10.3852 -5.80015 -1.12723
10.5162 -5.82915 -1.14223
10.6532 -5.86115 -1.15723
10.7802 -5.88715 -1.17023
10.9072 -5.91115 -1.18423
6.63122 -4.96215 -0.778229
6.76222 -4.99415 -0.792229
8.03123 -5.27915 -0.933229
8.11223 -5.29715 -0.942229
8.18223 -5.30615 -0.950229
8.25523 -5.31715 -0.958229
8.32522 -5.34415 -0.966229
8.40223 -5.35615 -0.975229
8.47122 -5.36315 -0.982229
8.56522 -5.38515 -0.993229
8.90722 -5.46615 -1.03223
9.00323 -5.48515 -1.04223
9.09923 -5.50615 -1.05323
9.59923 -5.62515 -1.11123
9.70423 -5.64615 -1.12323
9.81322 -5.66915 -1.13523
9.92222 -5.69115 -1.14723
10.0352 -5.71415 -1.16023
10.1532 -5.73915 -1.17423
10.2812 -5.77015 -1.18823
10.9132 -5.92415 -1.26223
11.0502 -5.95415 -1.27823
6.65022 -4.97515 -0.828229
6.70422 -4.98315 -0.834229
6.75922 -4.99115 -0.840229
6.80922 -5.01115 -0.847229
6.86122 -5.01615 -0.852229
7.32422 -5.12715 -0.906229
7.38822 -5.13615 -0.913229
7.45622 -5.14915 -0.921229
7.51722 -5.15615 -0.928229
7.59222 -5.17215 -0.937229
7.65922 -5.18315 -0.944229
7.72722 -5.21115 -0.953229
7.79622 -5.22115 -0.961229
7.87522 -5.23915 -0.970229
7.94622 -5.25015 -0.978229
8.03123 -5.26915 -0.988229
8.25422 -5.32315 -1.01523
8.32923 -5.33415 -1.02323
8.42523 -5.35815 -1.03523
8.50723 -5.37215 -1.04423
8.59723 -5.39115 -1.05523
8.86123 -5.45915 -1.08623
8.95722 -5.48015 -1.09823
9.05622 -5.50115 -1.11023
9.14822 -5.51715 -1.12023
9.35023 -5.55915 -1.14423
9.55323 -5.61815 -1.16923
9.65823 -5.63915 -1.18223
9.77723 -5.66715 -1.19623
9.87722 -5.68315 -1.20823
9.99922 -5.71115 -1.22223
10.1332 -5.74515 -1.23923
10.2422 -5.76415 -1.25223
8.50823 -5.37515 -1.09623
9.13822 -5.51815 -1.17423
9.24022 -5.54015 -1.18723
9.33623 -5.55815 -1.19823
9.44223 -5.58115 -1.21223
9.54823 -5.60415 -1.22523
9.65522 -5.62615 -1.23823
9.77223 -5.65415 -1.25323
9.86223 -5.68515 -1.26523
9.98923 -5.71715 -1.28123
10.1042 -5.74115 -1.29523
10.2202 -5.76515 -1.31023
10.3442 -5.79215 -1.32523
10.4732 -5.82215 -1.34123
6.74722 -4.99915 -0.941229
6.94622 -5.02915 -0.966229
7.02022 -5.04815 -0.975229
7.08422 -5.06115 -0.983229
7.20222 -5.09315 -0.999229
7.27322 -5.10915 -1.00823
7.33822 -5.12015 -1.01623
7.41522 -5.13915 -1.02623
7.49122 -5.15715 -1.03623
7.55322 -5.16515 -1.04323
7.62522 -5.17915 -1.05223
7.68922 -5.20415 -1.06123
7.76522 -5.22015 -1.07123
7.84922 -5.24015 -1.08223
7.92822 -5.25715 -1.09223
7.99522 -5.26515 -1.10023
8.06822 -5.27615 -1.10923
8.16123 -5.30015 -1.12123
8.22122 -5.32115 -1.13023
8.31322 -5.34315 -1.14223
8.40123 -5.36215 -1.15323
8.48223 -5.37615 -1.16323
8.56923 -5.39415 -1.17523
8.66022 -5.41315 -1.18623
8.74823 -5.42915 -1.19723
8.83422 -5.46315 -1.21023
9.02623 -5.50315 -1.23523
9.11623 -5.51915 -1.24623
9.22523 -5.54515 -1.26123
9.33022 -5.56715 -1.27423
10.0832 -5.73915 -1.37423
6.77622 -5.00415 -1.00223
6.83322 -5.01315 -1.00923
6.88422 -5.01715 -1.01623
6.92822 -5.03315 -1.02223
6.98222 -5.04015 -1.02923
7.03722 -5.04515 -1.03523
7.11422 -5.06715 -1.04623
7.17822 -5.07915 -1.05523
7.24422 -5.09215 -1.06323
7.31422 -5.10715 -1.07223
7.37222 -5.13115 -1.08123
7.43322 -5.13915 -1.08923
7.50822 -5.15615 -1.09923
7.57822 -5.17015 -1.10823
7.65222 -5.18515 -1.11823
7.73822 -5.20915 -1.13023
7.81922 -5.22715 -1.14123
7.87122 -5.24515 -1.14923
7.96422 -5.27015 -1.16223
8.02623 -5.27615 -1.17023
8.11322 -5.29615 -1.18123
8.18923 -5.31015 -1.19123
8.26723 -5.32415 -1.20223
8.34223 -5.35415 -1.21323
8.51923 -5.39315 -1.23723
8.60122 -5.40715 -1.24823
8.68923 -5.42515 -1.26023
8.77423 -5.44015 -1.27123
8.86623 -5.45815 -1.28423
9.24423 -5.55315 -1.33623
9.34822 -5.57615 -1.35123
9.43822 -5.59015 -1.36323
9.56223 -5.62315 -1.38023
6.68222 -4.97515 -1.02723
6.73622 -4.98315 -1.03423
6.81922 -5.01015 -1.04623
6.86222 -5.00915 -1.05123
6.90822 -5.02615 -1.05823
6.96422 -5.03315 -1.06523
7.02622 -5.04415 -1.07323
7.27022 -5.09815 -1.10723
7.35122 -5.12015 -1.11823
7.42122 -5.13415 -1.12823
7.48822 -5.14515 -1.13723
7.56922 -5.16615 -1.14823
7.71722 -5.19615 -1.16923
7.78622 -5.22415 -1.17923
7.85522 -5.23515 -1.18923
7.93622 -5.25215 -1.20023
8.01523 -5.26915 -1.21123
8.26122 -5.31915 -1.24523
8.33523 -5.34715 -1.25623
8.41323 -5.36015 -1.26723
8.51023 -5.38415 -1.28123
8.59422 -5.39915 -1.29223
8.68723 -5.41915 -1.30523
8.77522 -5.43615 -1.31823
8.87422 -5.45915 -1.33223
9.15322 -5.53015 -1.37223
9.24823 -5.54815 -1.38523
9.36123 -5.57615 -1.40123
9.45722 -5.59215 -1.41523
10.0002 -5.72315 -1.49323
10.1162 -5.74715 -1.50923
10.3692 -5.80415 -1.54623
6.85322 -5.02215 -1.11223
6.90422 -5.02715 -1.11923
6.94622 -5.02515 -1.12423
7.00922 -5.05315 -1.13423
7.06622 -5.06115 -1.14223
7.13022 -5.07415 -1.15123
7.19922 -5.08915 -1.16123
7.26522 -5.10215 -1.17023
7.33322 -5.11515 -1.18023
7.40622 -5.13215 -1.19123
7.45822 -5.15015 -1.19923
7.53622 -5.17015 -1.21023
7.60922 -5.18515 -1.22123
7.67822 -5.19715 -1.23123
7.76122 -5.21815 -1.24323
7.84022 -5.23615 -1.25523
7.91022 -5.24715 -1.26523
8.05422 -5.28815 -1.28623
8.13323 -5.30415 -1.29823
8.21123 -5.31815 -1.30923
8.29823 -5.33815 -1.32223
8.38723 -5.35915 -1.33523
8.47423 -5.37715 -1.34823
6.55622 -4.94215 -1.18623
6.59422 -4.95415 -1.19223
6.65222 -4.96515 -1.20123
6.71722 -4.98015 -1.21023
6.77922 -4.99315 -1.22023
6.83822 -5.00315 -1.22823
7.89322 -5.23715 -1.38723
8.73522 -5.42415 -1.51523
5.78622 -4.78615 -1.14923
5.93122 -4.81215 -1.17123
5.99222 -4.83115 -1.18123
6.03022 -4.83115 -1.18623
6.07022 -4.84715 -1.19323
6.17722 -4.87015 -1.20923
6.22222 -4.87415 -1.21623
6.28122 -4.88915 -1.22523
6.33022 -4.89615 -1.23223
6.39222 -4.91215 -1.24223
6.48922 -4.93815 -1.25823
6.55022 -4.95215 -1.26823
6.61422 -4.96815 -1.27823
6.67722 -4.98315 -1.28823
6.72922 -4.98915 -1.29523
6.88622 -5.02315 -1.32023
6.93222 -5.02315 -1.32623
7.17322 -5.07915 -1.36523
7.24522 -5.09715 -1.37723
7.31422 -5.11115 -1.38823
7.38222 -5.12415 -1.39823
7.45722 -5.14215 -1.41023
7.53622 -5.16215 -1.42323
7.65322 -5.19015 -1.44223
7.73522 -5.21015 -1.45523
7.80722 -5.22315 -1.46723
7.88722 -5.24115 -1.48023
5.34422 -4.67715 -1.14323
5.42322 -4.70115 -1.15623
5.47522 -4.71515 -1.16523
5.69622 -4.76615 -1.20123
5.73822 -4.77115 -1.20723
5.79422 -4.78615 -1.21723
5.83522 -4.78915 -1.22223
5.89422 -4.80715 -1.23323
5.94622 -4.81815 -1.24123
5.97822 -4.82815 -1.24723
6.02722 -4.83615 -1.25423
6.08722 -4.85315 -1.26423
6.13022 -4.85615 -1.27123
6.18622 -4.86815 -1.28023
6.24022 -4.87915 -1.28923
6.29922 -4.89315 -1.29823
6.45822 -4.93515 -1.32523
6.51622 -4.94615 -1.33523
6.57722 -4.96015 -1.34523
6.62822 -4.96515 -1.35223
6.68722 -4.97715 -1.36223
6.90322 -5.02015 -1.39823
7.13522 -5.06915 -1.43623
4.80022 -4.55215 -1.10623
4.88222 -4.57215 -1.11923
5.23222 -4.66115 -1.17823
5.28122 -4.67415 -1.18723
5.32522 -4.68415 -1.19423
5.36622 -4.69115 -1.20023
5.41322 -4.70215 -1.20823
5.44422 -4.69915 -1.21223
5.58022 -4.74115 -1.23623
5.67722 -4.76315 -1.25323
5.72222 -4.77015 -1.26023
5.76922 -4.77915 -1.26823
5.90322 -4.81315 -1.29123
5.95022 -4.82115 -1.29923
5.99022 -4.82215 -1.30423
6.04522 -4.83515 -1.31423
6.09722 -4.84615 -1.32323
6.13822 -4.86315 -1.33123
6.36522 -4.91515 -1.36923
6.41022 -4.91715 -1.37623
6.46622 -4.92815 -1.38623
6.50822 -4.94415 -1.39423
6.55522 -4.94815 -1.40123
6.62922 -4.97115 -1.41423
6.82222 -5.01715 -1.44823
6.87322 -5.02115 -1.45623
6.89322 -5.02015 -1.45923
4.39322 -4.46515 -1.09623
5.97122 -4.82615 -1.37023
7.16122 -5.09115 -1.58523
7.22122 -5.09915 -1.59523
4.04422 -4.40115 -1.11123
4.07622 -4.40815 -1.11623
4.10222 -4.40815 -1.12023
4.22422 -4.44115 -1.14223
4.25322 -4.44415 -1.14723
4.32522 -4.46315 -1.16023
4.37822 -4.47515 -1.16923
4.41122 -4.48115 -1.17523
4.44722 -4.49015 -1.18123
4.51122 -4.49815 -1.19223
4.55322 -4.51115 -1.20023
4.57522 -4.51915 -1.20423
4.68422 -4.54015 -1.22323
4.75722 -4.55415 -1.23623
4.79122 -4.55815 -1.24123
4.94022 -4.59815 -1.26923
4.97622 -4.60215 -1.27523
5.01922 -4.61315 -1.28323
5.25722 -4.66815 -1.32723
5.28922 -4.66815 -1.33223
3.43322 -4.25115 -1.05723
3.46922 -4.26815 -1.06523
2.45122 -4.03215 -0.978229
2.46322 -4.03815 -0.981229
2.48622 -4.04715 -0.985229
2.52422 -4.05115 -0.991229
2.54022 -4.04815 -0.992229
2.87922 -4.12515 -1.05023
2.91022 -4.14115 -1.05723
2.92922 -4.14215 -1.06023
3.03122 -4.17215 -1.07923
3.04522 -4.17815 -1.08323
3.16322 -4.19815 -1.10223
3.22422 -4.21015 -1.11323
3.25222 -4.21815 -1.11923
3.27722 -4.22415 -1.12323
3.30522 -4.23215 -1.12923
3.34922 -4.24615 -1.13823
3.42722 -4.26215 -1.15223
3.44822 -4.26015 -1.15423
3.50822 -4.27915 -1.16723
3.57522 -4.29115 -1.17923
3.60822 -4.30215 -1.18623
3.63722 -4.31015 -1.19123
3.66622 -4.31715 -1.19723
3.68722 -4.31415 -1.20023
3.88822 -4.36415 -1.23923
3.99922 -4.39015 -1.26023
4.27522 -4.44615 -1.31423
4.67422 -4.53515 -1.39423
4.71522 -4.54615 -1.40223
4.78822 -4.55815 -1.41623
5.06222 -4.62415 -1.47323
1.77522 -3.89315 -0.956229
1.80022 -3.88315 -0.957229
1.98922 -3.92715 -0.987229
2.18822 -3.97215 -1.02023
2.21022 -3.98215 -1.02523
2.26422 -3.98915 -1.03323
2.28922 -4.00415 -1.04023
2.30422 -4.01515 -1.04423
2.32222 -4.01615 -1.04723
2.33422 -4.00915 -1.04723
2.37322 -4.01615 -1.05323
2.39722 -4.02915 -1.05923
2.44422 -4.03415 -1.06623
2.46922 -4.04715 -1.07223
2.49022 -4.05215 -1.07623
2.52422 -4.05115 -1.08023
2.56222 -4.06815 -1.08923
2.58322 -4.07315 -1.09323
2.59722 -4.06715 -1.09323
2.62122 -4.07515 -1.09823
2.68822 -4.08015 -1.10823
2.74122 -4.10315 -1.12023
2.76322 -4.10915 -1.12523
2.78622 -4.11515 -1.12923
2.80422 -4.11415 -1.13223
2.82522 -4.13015 -1.13823
2.84522 -4.13115 -1.14123
2.88222 -4.12915 -1.14623
2.90822 -4.13915 -1.15123
2.93222 -4.14415 -1.15623
2.94922 -4.14115 -1.15823
2.97622 -4.16415 -1.16723
2.99422 -4.16115 -1.16823
3.03922 -4.16915 -1.17723
3.07022 -4.18315 -1.18423
3.09022 -4.18215 -1.18723
3.11822 -4.19315 -1.19323
3.12222 -4.18515 -1.19223
3.18222 -4.20815 -1.20623
3.22222 -4.20715 -1.21223
3.27522 -4.22015 -1.22223
3.37122 -4.24615 -1.24223
3.49022 -4.27015 -1.26623
3.52422 -4.28415 -1.27423
3.56522 -4.27815 -1.27923
3.60822 -4.30215 -1.29123
3.67922 -4.31715 -1.30523
3.73522 -4.32715 -1.31623
3.79922 -4.34615 -1.33023
3.82222 -4.34415 -1.33423
3.84122 -4.35115 -1.33823
3.90322 -4.36615 -1.35123
3.99022 -4.37915 -1.36823
4.01622 -4.39415 -1.37523
4.04722 -4.39915 -1.38223
4.07322 -4.40015 -1.38623
4.11222 -4.41415 -1.39523
4.17122 -4.42015 -1.40623
4.20122 -4.42415 -1.41223
4.24422 -4.44115 -1.42323
4.26422 -4.44815 -1.42823
4.29522 -4.45215 -1.43423
4.35922 -4.46215 -1.44723
4.40122 -4.47615 -1.45623
4.43222 -4.48015 -1.46323
4.45222 -4.48515 -1.46723
4.49522 -4.50015 -1.47723
1.38322 -3.79115 -0.937229
1.39022 -3.79315 -0.938229
1.40622 -3.79915 -0.941229
1.44922 -3.80615 -0.947229
1.84322 -3.89415 -1.00823
1.86122 -3.90115 -1.01223
1.87722 -3.90315 -1.01423
1.89822 -3.91515 -1.01923
1.90722 -3.91715 -1.02123
1.92422 -3.92215 -1.02423
1.94022 -3.92315 -1.02623
1.95822 -3.92915 -1.02923
1.97522 -3.93115 -1.03223
1.99322 -3.93715 -1.03523
2.00522 -3.93115 -1.03523
2.01722 -3.93815 -1.03823
2.03322 -3.94015 -1.04123
2.05722 -3.95615 -1.04723
2.07222 -3.95315 -1.04823
2.09222 -3.96215 -1.05323
2.10822 -3.96215 -1.05523
2.11822 -3.96615 -1.05723
2.13822 -3.97515 -1.06223
2.15122 -3.96815 -1.06223
2.17322 -3.98015 -1.06723
2.19522 -3.99015 -1.07223
2.20922 -3.98515 -1.07323
2.22622 -3.98615 -1.07523
2.24022 -3.99615 -1.07923
2.25522 -3.99415 -1.08123
2.27522 -4.00115 -1.08523
2.29522 -4.00715 -1.08923
2.31522 -4.01215 -1.09223
2.33222 -4.01315 -1.09523
2.34722 -4.01015 -1.09623
2.36022 -4.01715 -1.09923
2.38422 -4.02915 -1.10523
2.40222 -4.03215 -1.10823
2.42122 -4.03415 -1.11123
2.44222 -4.04015 -1.11623
2.45722 -4.03715 -1.11723
2.48522 -4.05415 -1.12523
2.53522 -4.06415 -1.13423
2.61422 -4.07615 -1.14723
2.64922 -4.08815 -1.15523
2.71322 -4.10215 -1.16723
2.73622 -4.11015 -1.17223
2.75722 -4.11415 -1.17623
2.83522 -4.13215 -1.19123
2.90022 -4.14315 -1.20323
3.05022 -4.17415 -1.23223
3.11522 -4.19315 -1.24723
3.16222 -4.20215 -1.25623
3.18222 -4.20115 -1.25923
3.25022 -4.22215 -1.27423
3.27722 -4.22915 -1.27923
3.29622 -4.22615 -1.28223
3.32322 -4.23415 -1.28823
3.35422 -4.24615 -1.29523
3.37722 -4.24815 -1.30023
3.52822 -4.28515 -1.33223
3.59922 -4.30215 -1.34723
3.62422 -4.30415 -1.35123
3.68322 -4.32015 -1.36523
3.71322 -4.32715 -1.37123
3.86522 -4.35115 -1.40223
3.90522 -4.36815 -1.41223
3.92022 -4.37215 -1.41523
3.95222 -4.38015 -1.42323
4.04822 -4.40215 -1.44423
4.07922 -4.40815 -1.45023
4.10622 -4.40915 -1.45523
4.18922 -4.42915 -1.47423
4.32422 -4.45915 -1.50423
1.34822 -3.79815 -0.981229
1.38422 -3.80415 -0.985229
1.39522 -3.79715 -0.985229
1.43122 -3.82115 -0.994229
1.44022 -3.80815 -0.992229
1.51422 -3.83915 -1.00723
1.52622 -3.83215 -1.00623
1.54422 -3.84315 -1.01123
1.56722 -3.84715 -1.01423
2.66922 -4.09415 -1.21323
3.25622 -4.22415 -1.33423
4.00122 -4.39115 -1.49923
1.49822 -3.83115 -1.04023
1.70522 -3.87015 -1.07223
1.96622 -3.92015 -1.11623
2.06722 -3.94815 -1.13623
2.09922 -3.95115 -1.14123
2.11822 -3.95615 -1.14423
2.13622 -3.96015 -1.14823
2.14622 -3.96315 -1.15023
2.16922 -3.97715 -1.15623
2.18422 -3.97515 -1.15823
2.20322 -3.98015 -1.16223
2.22622 -3.99115 -1.16823
2.27122 -3.99715 -1.17523
2.28922 -4.00015 -1.17823
2.30422 -3.99815 -1.18023
2.32622 -4.00715 -1.18523
2.37122 -4.01215 -1.19323
2.39122 -4.01715 -1.19723
2.43222 -4.02815 -1.20523
2.45022 -4.03015 -1.20923
2.46922 -4.03215 -1.21223
2.54022 -4.04915 -1.22623
2.56022 -4.05315 -1.23023
2.58622 -4.06615 -1.23723
2.62322 -4.06715 -1.24323
2.63622 -4.07315 -1.24623
2.66222 -4.08615 -1.25323
2.68222 -4.08815 -1.25723
2.70722 -4.09815 -1.26323
2.72722 -4.10115 -1.26723
2.74822 -4.10515 -1.27123
2.76722 -4.10415 -1.27423
2.78822 -4.10815 -1.27823
2.80522 -4.12015 -1.28423
2.82122 -4.11615 -1.28523
2.84822 -4.12815 -1.29223
2.86622 -4.12515 -1.29423
2.89022 -4.13215 -1.30023
2.90922 -4.13215 -1.30323
2.92822 -4.14515 -1.30923
2.94622 -4.14415 -1.31223
2.97122 -4.15015 -1.31723
2.98922 -4.14815 -1.32023
3.01222 -4.15315 -1.32523
3.04622 -4.17215 -1.33423
3.06322 -4.16815 -1.33723
3.08022 -4.17815 -1.34123
3.09922 -4.17615 -1.34423
3.12022 -4.17715 -1.34823
3.14622 -4.18415 -1.35423
3.16922 -4.18815 -1.35923
3.40222 -4.24315 -1.41123
3.43122 -4.25215 -1.41823
3.46022 -4.26015 -1.42523
3.47922 -4.25615 -1.42723
3.50922 -4.26615 -1.43523
3.53622 -4.27115 -1.44123
3.57922 -4.28215 -1.45123
3.60622 -4.28715 -1.45723
3.76222 -4.31915 -1.49223
3.79522 -4.33115 -1.50123
3.82422 -4.33615 -1.50723
3.85322 -4.34115 -1.51423
3.96222 -4.36715 -1.54023
1.39122 -3.79315 -1.05923
1.40522 -3.79615 -1.06123
1.42022 -3.79915 -1.06423
1.49022 -3.81915 -1.07623
1.50522 -3.82415 -1.07923
1.51822 -3.82115 -1.08023
1.53822 -3.83515 -1.08623
1.55922 -3.83515 -1.08823
1.57522 -3.84115 -1.09123
1.60422 -3.84215 -1.09523
1.63622 -3.84915 -1.10023
1.65122 -3.85115 -1.10323
1.66422 -3.86415 -1.10823
1.68222 -3.87115 -1.11123
1.69422 -3.86815 -1.11223
1.71122 -3.87315 -1.11523
1.75922 -3.88115 -1.12323
1.79822 -3.88415 -1.12923
1.86922 -3.90815 -1.14423
1.87522 -3.90515 -1.14423
1.89222 -3.91015 -1.14723
1.90822 -3.91115 -1.14923
1.92822 -3.92015 -1.15423
1.96722 -3.93715 -1.16423
2.26722 -4.00115 -1.22123
2.81922 -4.11415 -1.33423
2.94422 -4.13915 -1.36123
3.08022 -4.17615 -1.39223
3.09722 -4.17115 -1.39423
3.35922 -4.23815 -1.45623
3.40822 -4.24315 -1.46623
3.46022 -4.25315 -1.47823
3.51422 -4.27815 -1.49323
3.53122 -4.27115 -1.49523
3.56022 -4.27815 -1.50123
3.58722 -4.28315 -1.50823
3.69022 -4.30915 -1.53323
3.72322 -4.31915 -1.54123
1.96122 -3.91915 -1.19023
2.01722 -3.93815 -1.20223
2.07822 -3.94915 -1.21423
2.16122 -3.97015 -1.23123
2.19522 -3.97315 -1.23723
2.21422 -3.97815 -1.24123
2.27922 -3.99215 -1.25423
2.32422 -4.01315 -1.26623
2.37722 -4.01715 -1.27523
2.39522 -4.01815 -1.27823
2.41222 -4.03215 -1.28423
2.42522 -4.02615 -1.28423
2.44822 -4.03515 -1.29023
2.46822 -4.03915 -1.29423
2.48822 -4.04415 -1.29923
2.50422 -4.04115 -1.30023
2.52722 -4.05015 -1.30623
2.54022 -4.05715 -1.31023
2.56222 -4.06415 -1.31523
2.57722 -4.05915 -1.31623
2.60122 -4.06915 -1.32323
2.62722 -4.08115 -1.33023
2.64822 -4.08615 -1.33523
2.66622 -4.08615 -1.33723
2.67722 -4.08815 -1.34023
2.70222 -4.09915 -1.34723
2.72422 -4.10515 -1.35223
2.74922 -4.11415 -1.35823
2.77122 -4.11915 -1.36323
2.78022 -4.10415 -1.36123
2.80522 -4.11315 -1.36723
2.81922 -4.12015 -1.37123
2.86822 -4.13715 -1.38423
2.88822 -4.13715 -1.38723
2.91122 -4.14215 -1.39223
2.93122 -4.14415 -1.39623
2.94822 -4.15415 -1.40123
2.97422 -4.16315 -1.40823
3.04622 -4.18015 -1.42523
3.06422 -4.17815 -1.42723
3.08322 -4.17615 -1.43023
3.10222 -4.18815 -1.43723
3.12422 -4.19115 -1.44123
3.14722 -4.19415 -1.44623
3.17122 -4.19915 -1.45123
3.19522 -4.20315 -1.45723
3.21822 -4.20615 -1.46223
3.24022 -4.20715 -1.46623
3.25622 -4.21415 -1.47023
3.28622 -4.22715 -1.47923
3.31322 -4.23315 -1.48523
3.33422 -4.23315 -1.48923
3.35622 -4.23315 -1.49323
3.38222 -4.23915 -1.49923
3.41322 -4.25115 -1.50823
3.53522 -4.27815 -1.53723
3.56222 -4.28315 -1.54323
3.59522 -4.29615 -1.55223
3.60722 -4.29615 -1.55523
3.64022 -4.30815 -1.56423
2.82722 -4.11815 -1.43323
2.85122 -4.12515 -1.43923
2.90022 -4.14015 -1.45123
17.8762 1.62385 0.807771
17.5602 1.70585 0.797771
16.9402 1.83285 0.776771
16.8052 1.87185 0.772771
16.6482 1.90685 0.767771
16.4992 1.94185 0.762771
16.3602 1.97785 0.757771
15.9692 2.05685 0.745771
15.8142 2.08785 0.740771
19.1632 1.33185 0.727771
17.9052 1.61385 0.694771
16.9502 1.82485 0.668771
16.7932 1.86185 0.664771
15.9532 2.04885 0.642771
15.8102 2.08185 0.638771
21.2912 0.852851 0.685771
21.0712 0.910851 0.680771
20.8442 0.965851 0.675771
20.6132 1.01985 0.669771
20.2032 1.09485 0.660771
19.7752 1.19585 0.650771
19.5672 1.24485 0.646771
19.3682 1.29285 0.641771
19.1802 1.33985 0.637771
18.6272 1.44785 0.625771
18.4472 1.49185 0.621771
18.2752 1.53585 0.617771
18.1102 1.57885 0.613771
17.6222 1.67485 0.602771
17.4552 1.71485 0.599771
16.4122 1.94985 0.576771
16.2632 1.98385 0.572771
16.1362 2.01885 0.570771
15.8552 2.08485 0.563771
24.0362 0.232851 0.564771
23.7372 0.304852 0.560771
23.4822 0.375851 0.556771
22.0972 0.667851 0.535771
21.8492 0.728851 0.531771
20.6822 0.983851 0.514771
20.4592 1.03785 0.510771
20.2622 1.09285 0.507771
20.0432 1.14385 0.504771
18.8312 1.40285 0.486771
18.6472 1.44885 0.483771
17.9572 1.59485 0.473771
17.7952 1.63685 0.471771
17.6362 1.67885 0.468771
17.0042 1.80785 0.459771
16.6942 1.88185 0.454771
16.5492 1.91785 0.452771
16.4022 1.95385 0.450771
16.1342 1.99985 0.446771
15.9892 2.03285 0.444771
15.8562 2.06685 0.442771
16.0842 2.00885 0.362771
15.9572 2.04385 0.361771
24.8982 0.0468515 0.159771
23.6792 0.303851 0.161771
23.3922 0.373852 0.161771
23.1002 0.440852 0.162771
22.8312 0.507851 0.162771
22.5552 0.571851 0.163771
21.5462 0.782851 0.164771
21.3322 0.841851 0.164771
20.2362 1.08385 0.166771
20.0002 1.13385 0.166771
18.9772 1.37385 0.168771
18.8392 1.39285 0.168771
18.6452 1.43785 0.168771
18.4832 1.48285 0.169771
17.6362 1.66585 0.170771
17.4852 1.70685 0.170771
17.3072 1.74385 0.171771
17.1422 1.78085 0.171771
16.9832 1.81885 0.171771
16.5872 1.90685 0.172771
16.4302 1.94085 0.172771
24.0752 0.209851 0.00777115
23.7782 0.282851 0.00977115
23.4792 0.352851 0.0127711
21.5962 0.767851 0.0277711
20.2492 1.07185 0.0377712
20.0382 1.12485 0.0397712
18.8312 1.38485 0.0487712
18.6432 1.42985 0.0507712
17.7822 1.61885 0.0567711
17.6182 1.65985 0.0577712
17.4672 1.70085 0.0597712
17.3432 1.71685 0.0607711
16.5332 1.90085 0.0667711
16.3962 1.93685 0.0677711
23.9592 0.234851 -0.138229
23.6522 0.305851 -0.134229
23.3792 0.374851 -0.130229
23.0762 0.441851 -0.126229
21.5002 0.781851 -0.104229
21.2742 0.840851 -0.101229
20.1812 1.08185 -0.0862289
19.9622 1.13285 -0.0832289
19.7672 1.18385 -0.0802289
18.8012 1.39185 -0.0672289
18.6012 1.43585 -0.0642289
18.4472 1.48185 -0.0622289
17.7692 1.62285 -0.0532289
17.5902 1.66185 -0.0502288
17.4382 1.70285 -0.0482288
17.2512 1.73885 -0.0452289
16.5222 1.90085 -0.0362289
16.3752 1.93585 -0.0342289
16.2472 1.97185 -0.0322288
24.7782 0.0598515 -0.322229
23.5572 0.316851 -0.297229
23.2622 0.385852 -0.291229
22.9842 0.453851 -0.285229
22.6972 0.519851 -0.279229
21.4202 0.795851 -0.252229
21.1602 0.852851 -0.247229
20.0822 1.09485 -0.225229
19.8622 1.14585 -0.220229
19.6432 1.19585 -0.216229
18.7052 1.40485 -0.196229
18.5232 1.45085 -0.192229
18.3332 1.49385 -0.189229
18.1672 1.53785 -0.185229
17.5162 1.67785 -0.172229
17.3532 1.71785 -0.169229
17.0382 1.79485 -0.162229
16.5862 1.87985 -0.153229
16.3102 1.95285 -0.147229
16.1612 1.98685 -0.144229
16.0272 2.02185 -0.142229
23.7652 0.267852 -0.423229
23.4602 0.337851 -0.415229
23.1892 0.406852 -0.408229
22.9122 0.473852 -0.401229
21.6062 0.750851 -0.367229
21.3582 0.808851 -0.361229
20.0572 1.10585 -0.327229
19.8282 1.15485 -0.321229
18.8692 1.36585 -0.297229
18.6892 1.41185 -0.292229
18.5172 1.45685 -0.288229
17.8492 1.60085 -0.271229
17.6572 1.63985 -0.266229
17.5282 1.68285 -0.262229
17.3302 1.71885 -0.257229
16.5792 1.87985 -0.238229
16.4482 1.91685 -0.235229
16.3122 1.95285 -0.232229
16.2022 1.96585 -0.229229
15.9302 2.03385 -0.222229
15.7652 2.06285 -0.218229
18.1922 1.51285 -0.388229
17.2152 1.73285 -0.357229
16.1912 1.96585 -0.326229
16.0562 2.00085 -0.322229
24.7212 0.0558515 -0.757229
23.8372 0.240851 -0.723229
23.5282 0.310851 -0.711229
23.2512 0.379851 -0.700229
22.9482 0.446851 -0.689229
22.7072 0.512851 -0.680229
22.4082 0.576851 -0.668229
21.6692 0.726851 -0.640229
21.1752 0.842851 -0.621229
20.0942 1.08385 -0.580229
19.8712 1.13385 -0.571229
19.6732 1.18385 -0.564229
18.7462 1.39385 -0.529229
18.5622 1.43785 -0.522229
18.3922 1.48285 -0.515229
18.1902 1.52385 -0.508229
17.8722 1.58185 -0.496229
17.7102 1.62285 -0.490229
17.5502 1.66385 -0.484229
17.3812 1.70285 -0.477229
17.2212 1.74185 -0.471229
17.0482 1.77785 -0.465229
16.8962 1.81585 -0.459229
16.3472 1.93785 -0.439229
24.0142 0.196851 -0.872229
17.9342 1.56585 -0.605229
17.7682 1.60785 -0.598229
16.8192 1.81685 -0.557229
16.1222 1.97385 -0.527229
15.9842 2.00785 -0.521229
24.2482 0.140851 -1.02223
23.9262 0.213851 -1.00623
23.6402 0.285852 -0.992229
18.7792 1.37485 -0.750229
17.5762 1.64585 -0.691229
16.6662 1.85085 -0.647229
15.8412 2.03585 -0.607229
23.5062 0.302851 -1.13423
23.2032 0.371852 -1.11723
19.8212 1.13285 -0.928229
18.6882 1.39385 -0.865229
18.4922 1.43785 -0.854229
17.6432 1.62385 -0.807229
17.4662 1.66285 -0.797229
17.3262 1.70485 -0.789229
16.4272 1.90485 -0.740229
16.2762 1.93985 -0.732229
15.7452 2.05285 -0.703229
23.5762 0.284851 -1.26423
23.2992 0.353851 -1.24723
23.0232 0.421851 -1.23023
22.7342 0.487852 -1.21223
21.4622 0.762851 -1.13423
21.2222 0.820851 -1.11923
20.9842 0.877851 -1.10523
20.7562 0.932851 -1.09123
19.7002 1.16385 -1.02623
19.5032 1.21285 -1.01423
18.9542 1.32785 -0.981229
18.7782 1.37485 -0.970229
18.5892 1.41885 -0.959229
18.4112 1.46385 -0.948229
18.2352 1.50685 -0.937229
17.7242 1.60385 -0.906229
17.5602 1.64485 -0.896229
17.4122 1.68585 -0.887229
17.2552 1.72485 -0.878229
17.0952 1.76285 -0.868229
16.9372 1.79985 -0.859229
16.6502 1.84885 -0.842229
16.5112 1.88585 -0.833229
16.3612 1.92085 -0.824229
24.2732 0.121851 -1.47623
23.9732 0.195851 -1.45523
22.5642 0.504851 -1.35923
19.1572 1.27685 -1.12723
18.9802 1.32485 -1.11523
17.8982 1.56185 -1.04223
17.7362 1.60385 -1.03123
17.1142 1.73885 -0.989229
16.9422 1.77585 -0.978229
16.7932 1.81385 -0.968229
16.6412 1.84985 -0.958229
15.9552 2.00385 -0.912229
15.8202 2.03785 -0.903229
15.6672 2.06785 -0.893229
23.0832 0.384851 -1.50823
22.7992 0.450852 -1.48723
22.5482 0.516851 -1.46923
22.2672 0.579851 -1.44823
21.7352 0.701851 -1.40923
21.2972 0.787851 -1.37723
21.0652 0.845851 -1.36023
20.8332 0.901851 -1.34323
20.6072 0.955851 -1.32723
20.3772 1.00985 -1.31023
19.7752 1.13485 -1.26623
19.5802 1.18485 -1.25223
19.3852 1.23385 -1.23823
18.6402 1.39185 -1.18423
18.4752 1.43785 -1.17223
18.2872 1.48085 -1.15923
18.1202 1.52385 -1.14623
17.4802 1.66285 -1.10023
17.3282 1.70285 -1.09023
17.1662 1.74185 -1.07823
16.4272 1.90085 -1.02523
16.2762 1.93485 -1.01423
16.1492 1.97085 -1.00523
21.6152 0.714851 -1.54223
21.3962 0.774851 -1.52523
20.2462 1.02185 -1.43323
20.0372 1.07385 -1.41723
19.8372 1.12585 -1.40123
19.0612 1.29385 -1.34023
18.8722 1.34085 -1.32523
18.6912 1.38685 -1.31123
18.4962 1.43085 -1.29523
17.9852 1.53485 -1.25523
17.8232 1.57785 -1.24223
17.6522 1.61885 -1.22923
17.5072 1.66085 -1.21823
17.0322 1.75185 -1.18123
16.8812 1.78985 -1.16923
16.7272 1.82685 -1.15723
16.5822 1.86385 -1.14623
16.4342 1.89985 -1.13423
16.0312 1.98185 -1.10323
15.8862 2.01485 -1.09223
15.7592 2.04885 -1.08223
19.8032 1.12685 -1.51223
19.5962 1.17685 -1.49523
19.0652 1.29485 -1.45023
18.8552 1.33885 -1.43223
18.6712 1.38485 -1.41723
18.4742 1.42885 -1.40023
18.3112 1.47385 -1.38623
17.8032 1.57285 -1.34323
17.6552 1.61485 -1.33123
17.4832 1.65485 -1.31723
17.3312 1.69485 -1.30423
17.0372 1.74685 -1.27923
16.8752 1.78385 -1.26623
16.7192 1.81985 -1.25323
16.5902 1.85885 -1.24223
16.4542 1.89585 -1.23123
16.3032 1.92985 -1.21823
16.0272 1.97385 -1.19523
15.9162 2.01085 -1.18623
15.7522 2.03985 -1.17223
17.0362 1.74385 -1.38123
16.8832 1.78185 -1.36723
16.3192 1.90485 -1.31723
16.1782 1.93985 -1.30523
16.0362 1.97485 -1.29223
15.9132 2.00985 -1.28123
10.7572 2.98085 0.578771
7.75022 3.64185 0.490771
7.59822 3.67285 0.486771
7.52022 3.69285 0.483771
7.43922 3.71085 0.481771
7.36122 3.72985 0.479771
11.9872 2.69185 0.537771
11.8972 2.71185 0.535771
11.8142 2.73185 0.533771
11.7302 2.75085 0.531771
11.6572 2.77285 0.529771
11.5022 2.79385 0.525771
11.3402 2.83085 0.521771
11.2652 2.84985 0.519771
11.1882 2.86785 0.517771
11.1172 2.88685 0.515771
10.8362 2.94185 0.508771
10.7692 2.95985 0.507771
10.6942 2.97585 0.505771
10.2992 3.05985 0.495771
10.2362 3.07585 0.493771
11.1272 2.89085 0.461771
11.0582 2.90985 0.460771
10.6472 2.99885 0.451771
10.5782 3.01485 0.450771
7.73422 3.64385 0.394771
7.69022 3.65285 0.393771
7.53822 3.68285 0.390771
12.0202 2.68285 0.386771
11.9402 2.70485 0.385771
11.8632 2.72685 0.384771
11.4682 2.80785 0.378771
11.3752 2.82385 0.377771
11.3202 2.84785 0.376771
11.2372 2.86485 0.375771
11.1562 2.88185 0.374771
10.9572 2.92285 0.371771
10.8942 2.94285 0.370771
10.8152 2.95785 0.369771
10.4882 3.02885 0.365771
10.4212 3.04485 0.364771
10.3532 3.06085 0.363771
10.1562 3.10685 0.360771
10.0552 3.12885 0.359771
7.93022 3.58585 0.331771
7.84522 3.60785 0.330771
7.80122 3.61685 0.330771
7.75922 3.62685 0.329771
7.71322 3.63585 0.328771
7.68922 3.63885 0.328771
7.64922 3.64985 0.328771
7.60322 3.65685 0.327771
7.56222 3.66685 0.327771
7.52822 3.67985 0.326771
7.48722 3.68885 0.326771
7.44122 3.69585 0.325771
7.36922 3.70285 0.324771
7.33522 3.71585 0.324771
7.29522 3.72385 0.323771
12.0332 2.68585 0.323771
11.9552 2.70685 0.322771
11.8602 2.72485 0.321771
11.7092 2.74785 0.320771
11.6462 2.77185 0.319771
11.5582 2.78885 0.318771
11.4892 2.80985 0.318771
11.3982 2.82585 0.317771
11.3252 2.84585 0.316771
11.1942 2.86785 0.315771
11.1192 2.88585 0.314771
10.9652 2.91985 0.313771
10.7002 2.97485 0.311771
10.5652 3.00885 0.309771
10.2632 3.07985 0.307771
10.1892 3.09185 0.306771
10.0662 3.12385 0.305771
7.81722 3.62185 0.285771
7.72822 3.63885 0.285771
7.58522 3.67385 0.283771
7.50222 3.69185 0.283771
14.4962 2.13785 0.244771
14.8482 2.05985 0.174771
14.7052 2.08685 0.174771
14.7822 2.05585 0.0797711
11.9992 2.68585 0.100771
11.9202 2.68885 0.101771
11.8462 2.71085 0.101771
11.7652 2.73185 0.102771
11.6802 2.75085 0.102771
11.6022 2.77085 0.103771
11.5252 2.79085 0.104771
11.4362 2.80785 0.104771
11.3722 2.81085 0.105771
11.2202 2.84885 0.106771
11.1392 2.86585 0.106771
11.0722 2.88585 0.107771
11.0012 2.90385 0.107771
10.8622 2.92285 0.108771
10.7912 2.93985 0.109771
10.7292 2.95985 0.109771
10.6492 2.97385 0.110771
10.5792 2.98985 0.110771
10.5082 3.00585 0.111771
10.3312 3.04385 0.112771
10.2692 3.06085 0.113771
10.2022 3.07585 0.113771
10.1332 3.08985 0.113771
10.0742 3.10685 0.114771
7.85022 3.60085 0.129771
7.81322 3.61385 0.129771
7.75822 3.61785 0.130771
7.71722 3.62885 0.130771
7.66822 3.63485 0.130771
7.51822 3.66585 0.131771
7.49422 3.68385 0.131771
7.44422 3.68785 0.131771
7.39522 3.69285 0.132771
7.30022 3.71785 0.132771
14.7992 2.05385 -0.0122289
14.5072 2.12985 -0.00822885
11.9582 2.68385 0.0257712
11.8712 2.70385 0.0267711
11.7922 2.72485 0.0277711
11.6982 2.74085 0.0287711
11.6372 2.76585 0.0297711
11.5472 2.78185 0.0307711
11.4762 2.80285 0.0317711
11.3192 2.82085 0.0337711
11.2482 2.84085 0.0347712
11.1672 2.85785 0.0357712
11.0982 2.87685 0.0367712
11.0202 2.89285 0.0377712
10.9682 2.91685 0.0377712
10.8942 2.91485 0.0387711
10.8272 2.93385 0.0397712
10.7622 2.95185 0.0407711
10.6792 2.96485 0.0417712
10.6202 2.98485 0.0427711
10.5412 2.99785 0.0437712
10.4802 3.01585 0.0447711
10.3682 3.03685 0.0457712
10.2932 3.04985 0.0467712
10.2372 3.06785 0.0477712
10.1782 3.08485 0.0477712
10.1072 3.09785 0.0487712
10.0512 3.11585 0.0497711
10.0142 3.12085 0.0507712
14.8472 2.04085 -0.117229
14.7082 2.06885 -0.114229
14.5882 2.09885 -0.112229
11.8192 2.72385 -0.0572288
11.2672 2.84185 -0.0472289
11.1232 2.87985 -0.0442288
10.7742 2.95385 -0.0372288
10.7032 2.97085 -0.0362289
10.3202 3.05785 -0.0292289
10.2512 3.07285 -0.0272289
10.1202 3.10285 -0.0252289
7.83322 3.60785 0.0157711
7.79322 3.61885 0.0167711
7.58922 3.65585 0.0197711
7.54922 3.66585 0.0207711
7.46522 3.68385 0.0227711
7.34922 3.71385 0.0237712
7.31622 3.71185 0.0247711
7.29022 3.72685 0.0247711
7.21022 3.74385 0.0267711
14.9642 2.00485 -0.197229
14.8602 2.03785 -0.194229
14.7412 2.06885 -0.191229
14.5372 2.10985 -0.186229
11.9222 2.69485 -0.122229
11.3892 2.81885 -0.109229
11.3102 2.83685 -0.107229
10.8772 2.92785 -0.0972289
10.3532 3.04885 -0.0852289
7.67822 3.64085 -0.0252289
7.59022 3.65785 -0.0232289
7.55722 3.67085 -0.0222289
7.36922 3.70885 -0.0182289
7.33022 3.71885 -0.0182289
14.5122 2.11285 -0.273229
11.9822 2.68285 -0.197229
11.8872 2.70185 -0.194229
11.7382 2.72585 -0.189229
11.6692 2.74885 -0.187229
11.5772 2.76585 -0.185229
11.4212 2.80485 -0.180229
11.2692 2.84285 -0.176229
11.1992 2.84385 -0.173229
11.1182 2.86085 -0.171229
11.0652 2.88485 -0.170229
10.9802 2.89985 -0.167229
10.9152 2.91885 -0.165229
10.8342 2.93485 -0.163229
10.7732 2.95385 -0.161229
10.7052 2.95385 -0.159229
10.6452 2.97385 -0.157229
10.5672 2.98785 -0.155229
10.5032 3.00585 -0.153229
10.4362 3.02185 -0.151229
10.3792 3.04085 -0.150229
10.3042 3.05385 -0.148229
10.2672 3.06085 -0.147229
10.1862 3.07185 -0.144229
10.1422 3.09285 -0.143229
10.0712 3.10685 -0.141229
7.90322 3.58085 -0.0812289
7.85522 3.58885 -0.0802289
7.69722 3.61985 -0.0762289
7.65222 3.62785 -0.0752289
7.61122 3.63785 -0.0742289
7.57522 3.64985 -0.0732289
7.35122 3.70085 -0.0672289
14.8922 2.02385 -0.383229
14.7642 2.05385 -0.379229
14.6272 2.08185 -0.374229
7.90322 3.58685 -0.139229
7.29622 3.71885 -0.120229
7.26322 3.73085 -0.119229
12.0282 2.66685 -0.352229
11.9362 2.68585 -0.349229
11.7682 2.72585 -0.342229
11.5472 2.77085 -0.333229
11.4622 2.78885 -0.329229
11.3102 2.82785 -0.323229
11.0232 2.88585 -0.311229
10.9582 2.90585 -0.309229
10.8722 2.91885 -0.305229
10.8142 2.94085 -0.303229
10.7342 2.95485 -0.300229
10.6082 2.97485 -0.294229
10.5452 2.99285 -0.292229
10.4722 3.00785 -0.289229
10.1112 3.09485 -0.275229
10.0322 3.10585 -0.272229
7.92122 3.56785 -0.191229
7.89322 3.58585 -0.190229
7.85322 3.59685 -0.189229
7.80522 3.60485 -0.187229
7.76822 3.61785 -0.186229
7.74122 3.61985 -0.185229
7.68422 3.62285 -0.182229
7.65722 3.63985 -0.181229
7.61622 3.64985 -0.180229
7.46422 3.67885 -0.175229
7.42822 3.68985 -0.173229
7.38622 3.69785 -0.172229
7.34722 3.70785 -0.170229
7.31122 3.71885 -0.169229
7.27022 3.72685 -0.168229
7.21022 3.73885 -0.166229
14.5012 2.11685 -0.540229
12.0472 2.65385 -0.424229
11.8562 2.68985 -0.415229
11.7682 2.70885 -0.411229
11.7052 2.73285 -0.408229
11.6272 2.75285 -0.405229
11.1632 2.84685 -0.383229
11.0812 2.86285 -0.379229
10.7392 2.93585 -0.364229
10.6782 2.95485 -0.361229
10.5992 2.96885 -0.357229
10.3682 3.02785 -0.347229
10.2982 3.04185 -0.344229
10.2342 3.05785 -0.341229
10.1692 3.07285 -0.338229
9.99423 3.10585 -0.330229
8.07123 3.53085 -0.247229
8.03323 3.54385 -0.246229
7.91422 3.56585 -0.241229
7.82822 3.58585 -0.237229
7.74422 3.60585 -0.234229
7.63822 3.62985 -0.229229
7.59922 3.64085 -0.228229
7.52222 3.66185 -0.225229
7.24922 3.71285 -0.214229
14.8212 2.02885 -0.651229
14.5242 2.10485 -0.635229
12.0222 2.66385 -0.501229
11.9632 2.67085 -0.498229
11.8772 2.69085 -0.494229
11.7892 2.70985 -0.489229
11.7082 2.73085 -0.485229
11.6272 2.75085 -0.481229
11.4662 2.78885 -0.472229
11.4002 2.79185 -0.469229
11.3352 2.81385 -0.465229
11.2542 2.83185 -0.461229
11.1762 2.84985 -0.457229
11.1012 2.86785 -0.453229
11.0322 2.88685 -0.450229
10.9572 2.90385 -0.446229
10.8872 2.90385 -0.442229
10.8222 2.92385 -0.439229
10.7572 2.94185 -0.436229
10.6762 2.95685 -0.431229
10.6222 2.97785 -0.429229
10.5532 2.99385 -0.425229
10.4792 3.00885 -0.422229
10.4262 3.01185 -0.419229
10.3632 3.02885 -0.416229
10.2962 3.04485 -0.412229
10.2382 3.06285 -0.409229
9.99022 3.10885 -0.397229
9.92323 3.12285 -0.393229
9.86423 3.13785 -0.390229
9.81423 3.15685 -0.388229
9.75523 3.17085 -0.385229
9.69522 3.18585 -0.382229
9.58123 3.19885 -0.376229
9.53022 3.21485 -0.374229
9.47622 3.22985 -0.371229
9.41722 3.24285 -0.368229
9.35923 3.25685 -0.365229
9.30422 3.26985 -0.363229
9.25222 3.28485 -0.360229
9.20522 3.28485 -0.358229
9.16123 3.30185 -0.356229
9.09822 3.31085 -0.353229
9.04523 3.32385 -0.350229
8.99522 3.33785 -0.348229
8.85822 3.36685 -0.341229
8.80422 3.37885 -0.338229
8.74722 3.38785 -0.336229
8.70123 3.40185 -0.333229
8.64622 3.41185 -0.331229
8.60723 3.42785 -0.329229
8.55422 3.43785 -0.326229
8.51122 3.43685 -0.324229
8.46723 3.44985 -0.322229
8.42823 3.46485 -0.320229
8.38122 3.47585 -0.318229
8.32722 3.48485 -0.316229
8.28323 3.49685 -0.314229
8.20222 3.50885 -0.310229
8.16523 3.52385 -0.308229
8.11423 3.53185 -0.305229
8.07222 3.54385 -0.304229
8.02023 3.55185 -0.301229
7.98022 3.56385 -0.299229
7.94922 3.56485 -0.298229
7.89922 3.57285 -0.295229
7.85922 3.58385 -0.294229
7.81922 3.59585 -0.292229
7.78022 3.60785 -0.290229
7.73122 3.61485 -0.288229
7.69022 3.62485 -0.286229
7.65922 3.62585 -0.284229
7.61422 3.63285 -0.282229
7.57522 3.64385 -0.280229
7.54022 3.65685 -0.279229
7.49622 3.66485 -0.277229
7.46522 3.67885 -0.276229
7.42322 3.68685 -0.274229
7.34822 3.69385 -0.270229
7.31922 3.70785 -0.269229
7.27722 3.71485 -0.267229
7.23322 3.72185 -0.265229
7.18622 3.72585 -0.263229
7.15522 3.73885 -0.262229
14.8872 2.00685 -0.735229
14.7762 2.03885 -0.728229
14.6512 2.06785 -0.721229
14.5322 2.09785 -0.714229
11.7112 2.73385 -0.549229
11.1042 2.86885 -0.515229
10.6912 2.95885 -0.492229
9.76423 3.16885 -0.440229
8.52322 3.44585 -0.374229
8.13723 3.52885 -0.354229
8.08823 3.53785 -0.351229
7.53022 3.66585 -0.323229
7.48922 3.67485 -0.321229
7.30422 3.71185 -0.312229
7.26522 3.72185 -0.310229
11.9872 2.65685 -0.651229
11.9042 2.67785 -0.645229
11.8262 2.69885 -0.640229
11.7422 2.71885 -0.635229
11.6652 2.73985 -0.630229
11.5822 2.75885 -0.625229
11.5162 2.76285 -0.621229
11.4302 2.77985 -0.615229
11.3632 2.80185 -0.611229
11.2692 2.81685 -0.605229
11.2192 2.84185 -0.602229
11.1292 2.85585 -0.596229
11.0622 2.87585 -0.592229
10.9842 2.87485 -0.587229
10.9322 2.89785 -0.584229
10.8422 2.91085 -0.578229
10.7732 2.92885 -0.574229
10.7202 2.95085 -0.571229
10.6412 2.96485 -0.566229
10.5742 2.98185 -0.562229
10.5202 2.98485 -0.558229
10.4472 2.99985 -0.554229
10.3802 3.01585 -0.550229
10.3172 3.03285 -0.546229
10.2502 3.04885 -0.542229
10.1882 3.06485 -0.538229
10.1332 3.08385 -0.535229
10.0672 3.08085 -0.530229
10.0112 3.09885 -0.527229
9.95423 3.11485 -0.524229
9.89122 3.12985 -0.520229
9.82823 3.14385 -0.516229
9.77023 3.15985 -0.512229
9.70522 3.17185 -0.508229
9.65722 3.17285 -0.505229
9.59923 3.18785 -0.502229
9.54222 3.20285 -0.498229
9.48322 3.21585 -0.495229
9.42523 3.22985 -0.491229
9.37222 3.24385 -0.488229
9.27522 3.25985 -0.482229
9.15923 3.28385 -0.475229
9.10723 3.29785 -0.472229
9.04823 3.30885 -0.469229
9.00523 3.32585 -0.466229
8.96323 3.32585 -0.464229
8.86123 3.35185 -0.458229
8.81423 3.36585 -0.455229
8.75622 3.37585 -0.452229
8.71023 3.38985 -0.449229
8.66623 3.40385 -0.446229
8.57623 3.41585 -0.441229
8.52822 3.42785 -0.438229
8.47523 3.43685 -0.435229
8.44022 3.45385 -0.433229
8.39622 3.46685 -0.431229
8.33823 3.47385 -0.427229
8.26723 3.49085 -0.423229
8.20423 3.49485 -0.419229
8.16022 3.50585 -0.417229
8.13323 3.52485 -0.416229
8.07423 3.52985 -0.412229
8.03222 3.54185 -0.410229
7.99922 3.54185 -0.408229
7.91422 3.56485 -0.403229
7.86922 3.57385 -0.401229
7.77722 3.59185 -0.395229
7.74222 3.60485 -0.394229
7.63622 3.62885 -0.388229
7.58722 3.63485 -0.385229
7.54522 3.64485 -0.382229
7.51222 3.65785 -0.381229
7.46322 3.66285 -0.378229
7.40422 3.67785 -0.375229
7.28422 3.70385 -0.368229
7.20222 3.71985 -0.364229
7.18122 3.72385 -0.362229
14.8962 2.00585 -0.914229
14.8372 2.02185 -0.910229
14.6932 2.04885 -0.900229
14.5912 2.08085 -0.893229
14.8232 2.02385 -1.00723
14.7042 2.05485 -0.998229
11.8732 2.68585 -0.783229
11.3302 2.80885 -0.743229
11.2572 2.82785 -0.738229
10.8922 2.90185 -0.711229
10.8312 2.92185 -0.707229
10.7602 2.93885 -0.702229
10.4342 3.00985 -0.678229
10.3632 3.02485 -0.673229
10.2352 3.05785 -0.664229
10.0012 3.10885 -0.647229
9.94022 3.12385 -0.643229
9.47822 3.22685 -0.610229
9.16222 3.29785 -0.588229
8.85122 3.36085 -0.566229
8.80523 3.37485 -0.563229
8.70423 3.39985 -0.556229
8.37722 3.47085 -0.534229
8.20423 3.50585 -0.523229
8.10723 3.52585 -0.516229
8.02623 3.55085 -0.511229
7.77522 3.60185 -0.494229
7.69122 3.62185 -0.489229
7.60722 3.62685 -0.483229
7.42022 3.68285 -0.471229
7.35322 3.69285 -0.467229
7.30922 3.69985 -0.464229
7.26222 3.70485 -0.461229
7.23422 3.71885 -0.459229
14.8272 2.01285 -1.09323
14.7082 2.04385 -1.08323
14.5772 2.07185 -1.07323
14.5202 2.08685 -1.06823
11.9042 2.67385 -0.856229
11.8302 2.69585 -0.850229
11.7422 2.71485 -0.843229
11.5772 2.75285 -0.830229
11.4162 2.79085 -0.817229
11.3542 2.79385 -0.812229
11.2702 2.81085 -0.805229
11.2112 2.83285 -0.801229
11.1282 2.84985 -0.794229
10.9892 2.88685 -0.784229
10.8542 2.90585 -0.773229
10.7932 2.92585 -0.768229
10.7172 2.94085 -0.762229
10.6542 2.95985 -0.757229
10.5872 2.97685 -0.752229
10.3952 3.01085 -0.737229
10.3282 3.02685 -0.732229
10.2022 3.05885 -0.723229
10.1412 3.07585 -0.718229
9.95522 3.10385 -0.703229
9.90322 3.12185 -0.700229
9.83623 3.13485 -0.694229
9.77723 3.14985 -0.690229
9.72223 3.16585 -0.686229
9.65923 3.17885 -0.681229
9.60923 3.19585 -0.677229
9.57022 3.19885 -0.674229
9.49823 3.20785 -0.669229
9.44623 3.22385 -0.665229
9.39822 3.23985 -0.662229
9.33722 3.25185 -0.657229
9.27623 3.26285 -0.652229
