1.91826 4.2171 -1.69842
1.89926 4.2091 -1.69242
1.89326 4.2141 -1.69342
1.88526 4.2321 -1.69842
1.86526 4.2221 -1.69142
1.85726 4.2401 -1.69642
1.84026 4.2371 -1.69342
1.83026 4.2501 -1.69642
1.81626 4.2541 -1.69542
1.80826 4.2531 -1.69442
1.79526 4.2611 -1.69442
1.77926 4.2611 -1.69242
1.76826 4.2721 -1.69442
1.75626 4.2811 -1.69642
1.74326 4.2861 -1.69642
1.72726 4.2871 -1.69442
1.72026 4.2881 -1.69342
1.70726 4.2951 -1.69442
1.69226 4.2961 -1.69242
1.68226 4.3101 -1.69642
1.66426 4.3051 -1.69142
1.65526 4.3211 -1.69642
1.64226 4.3301 -1.69742
1.63726 4.3361 -1.69942
1.61926 4.3301 -1.69442
1.60526 4.3341 -1.69442
1.58926 4.3321 -1.69142
1.58226 4.3561 -1.69942
1.56226 4.3431 -1.69142
1.55226 4.3571 -1.69542
1.54526 4.3591 -1.69542
1.52926 4.3571 -1.69242
1.52126 4.3801 -1.69942
1.50926 4.3881 -1.70142
1.48526 4.3641 -1.68942
1.47926 4.3901 -1.69842
1.46726 4.4021 -1.70142
1.46026 4.4041 -1.70142
1.44026 4.3891 -1.69342
1.43126 4.4101 -1.69942
1.41926 4.4181 -1.70142
1.40526 4.4241 -1.70242
1.39326 4.4321 -1.70342
1.37426 4.4221 -1.69742
1.36526 4.4151 -1.69442
1.35426 4.4301 -1.69842
1.34126 4.4361 -1.69942
1.32626 4.4371 -1.69742
1.29726 4.4421 -1.69642
1.28326 4.4461 -1.69642
1.27726 4.4531 -1.69842
1.26026 4.4461 -1.69442
1.24926 4.4611 -1.69842
1.23626 4.4671 -1.69942
1.21626 4.4491 -1.69042
1.20526 4.4641 -1.69442
1.19626 4.4871 -1.70242
1.18226 4.4641 -1.69242
1.16926 4.4691 -1.69342
1.15826 4.4871 -1.69942
1.14226 4.4821 -1.69542
1.12926 4.4891 -1.69642
1.11626 4.4981 -1.69942
1.10326 4.5051 -1.70042
1.09326 4.4941 -1.69542
1.08126 4.5071 -1.69942
1.06626 4.5081 -1.69842
1.04826 4.4931 -1.69142
1.03626 4.5081 -1.69542
1.02426 4.5181 -1.69842
1.01126 4.5301 -1.70242
1.00226 4.5211 -1.69742
0.986262 4.5191 -1.69542
0.970262 4.5111 -1.69142
0.960262 4.5341 -1.69942
0.942262 4.5191 -1.69142
0.930262 4.5311 -1.69542
0.915262 4.5321 -1.69442
0.907262 4.5301 -1.69342
0.893262 4.5341 -1.69442
0.879262 4.5371 -1.69442
0.862262 4.5251 -1.68842
0.851262 4.5441 -1.69442
0.823262 4.5511 -1.69542
0.813262 4.5381 -1.68942
0.801262 4.5531 -1.69442
0.785262 4.5471 -1.69142
0.772262 4.5561 -1.69442
0.758262 4.5631 -1.69542
0.742262 4.5561 -1.69142
0.728262 4.5541 -1.69042
0.723262 4.5701 -1.69642
0.706262 4.5601 -1.69142
0.694262 4.5731 -1.69542
0.678262 4.5661 -1.69142
0.663262 4.5661 -1.69142
0.648262 4.5631 -1.68842
0.636262 4.5771 -1.69442
0.626262 4.5641 -1.68842
0.614262 4.5791 -1.69342
0.599262 4.5771 -1.69142
0.584262 4.5711 -1.68842
0.571262 4.5901 -1.69542
0.555262 4.5791 -1.69042
0.542262 4.5901 -1.69442
0.534262 4.5851 -1.69142
0.520262 4.5901 -1.69342
0.505262 4.5861 -1.69142
0.491262 4.5901 -1.69142
0.477262 4.5911 -1.69142
0.462262 4.5931 -1.69142
0.448262 4.5941 -1.69142
0.441262 4.6001 -1.69442
0.426262 4.5921 -1.69042
0.413262 4.6101 -1.69642
0.397262 4.5971 -1.69142
0.383262 4.6071 -1.69442
0.369262 4.6101 -1.69542
0.353262 4.5931 -1.68842
0.347262 4.6061 -1.69342
0.332262 4.6041 -1.69142
0.318262 4.6161 -1.69642
0.302262 4.5891 -1.68542
0.288262 4.5991 -1.68842
0.274262 4.6131 -1.69442
0.259262 4.6031 -1.68942
0.252262 4.5981 -1.68742
0.238262 4.6081 -1.69142
0.223262 4.5991 -1.68742
0.209262 4.6111 -1.69142
0.195262 4.6141 -1.69242
0.180262 4.6121 -1.69142
0.166262 4.6111 -1.69142
0.158262 4.6091 -1.69042
0.144262 4.6061 -1.68842
0.129262 4.6141 -1.69142
0.115262 4.6071 -1.68842
0.100262 4.6241 -1.69542
0.0862622 4.6061 -1.68842
0.0712622 4.6001 -1.68642
0.0572622 4.6041 -1.68742
0.0502622 4.6121 -1.69042
0.0352622 4.6141 -1.69142
0.0212622 4.6031 -1.68642
0.00626224 4.6051 -1.68742
3.71626 -3.0619 -1.76942
3.72526 -3.0489 -1.76842
3.74926 -3.0489 -1.77642
3.74826 -3.0289 -1.77142
3.76826 -3.0249 -1.77642
3.76826 -3.0159 -1.77342
3.77626 -3.0029 -1.77342
3.78126 -2.9869 -1.77142
3.80726 -2.9879 -1.77942
3.81526 -2.9749 -1.77842
3.82126 -2.9609 -1.77642
3.82726 -2.9459 -1.77542
3.83326 -2.9419 -1.77642
3.84426 -2.9309 -1.77642
3.85926 -2.9229 -1.77942
3.86226 -2.9059 -1.77642
3.87626 -2.8979 -1.77942
3.89326 -2.8719 -1.77842
3.89026 -2.8599 -1.77442
3.90026 -2.8489 -1.77542
3.90126 -2.8319 -1.77142
3.90726 -2.8169 -1.77042
3.92226 -2.8089 -1.77342
3.92626 -2.7939 -1.77142
3.94326 -2.7869 -1.77442
3.95026 -2.7829 -1.77642
3.94826 -2.7629 -1.77142
3.96026 -2.7519 -1.77242
3.97526 -2.7439 -1.77542
3.96026 -2.7159 -1.76442
3.98026 -2.7109 -1.76942
3.98526 -2.6959 -1.76842
3.98026 -2.6839 -1.76342
4.00226 -2.6809 -1.77042
3.99826 -2.6599 -1.76442
4.00726 -2.6469 -1.76442
4.02026 -2.6379 -1.76642
4.03726 -2.6309 -1.77142
4.02726 -2.6059 -1.76242
4.03526 -2.6029 -1.76442
4.05126 -2.5949 -1.76842
4.06126 -2.5839 -1.76842
4.06026 -2.5649 -1.76442
4.08426 -2.5619 -1.77142
4.07626 -2.5389 -1.76442
4.08826 -2.5379 -1.76842
4.10826 -2.5329 -1.77342
4.10726 -2.5139 -1.76942
4.09426 -2.4889 -1.76042
4.11126 -2.4809 -1.76442
4.11926 -2.4679 -1.76442
4.12726 -2.4559 -1.76442
4.13126 -2.4489 -1.76442
4.13826 -2.4359 -1.76442
4.15226 -2.4269 -1.76742
4.16526 -2.4159 -1.76942
4.15826 -2.3949 -1.76342
4.16726 -2.3829 -1.76342
4.18426 -2.3749 -1.76842
4.17026 -2.3589 -1.76042
4.17726 -2.3459 -1.76042
4.18826 -2.3339 -1.76142
4.18926 -2.3179 -1.75842
4.20926 -2.3109 -1.76442
4.21226 -2.2959 -1.76242
4.21926 -2.2819 -1.76242
4.23226 -2.2809 -1.76642
4.24126 -2.2689 -1.76742
4.24526 -2.2529 -1.76642
4.25526 -2.2419 -1.76742
4.25926 -2.2269 -1.76642
4.26926 -2.2149 -1.76742
4.25926 -2.1929 -1.76042
4.25826 -2.1839 -1.75842
4.28326 -2.1799 -1.76642
4.28526 -2.1639 -1.76342
4.28726 -2.1479 -1.76142
4.28526 -2.1299 -1.75842
4.30526 -2.1229 -1.76342
4.31726 -2.1119 -1.76642
4.31526 -2.1029 -1.76342
4.32326 -2.0899 -1.76442
4.32526 -2.0739 -1.76242
4.32826 -2.0589 -1.76042
4.34326 -2.0489 -1.76442
4.34626 -2.0339 -1.76342
4.33226 -2.0199 -1.75542
4.36026 -2.0159 -1.76542
4.36026 -1.9989 -1.76242
4.36826 -1.9859 -1.76342
4.35726 -1.9649 -1.75542
4.37726 -1.9569 -1.76142
4.37126 -1.9379 -1.75642
4.38126 -1.9339 -1.75942
4.39626 -1.9239 -1.76342
4.40226 -1.9109 -1.76342
4.40926 -1.8969 -1.76342
4.41026 -1.8809 -1.76142
4.40226 -1.8619 -1.75542
4.41826 -1.8519 -1.76042
4.43326 -1.8499 -1.76542
4.42026 -1.8289 -1.75742
4.44326 -1.8219 -1.76442
4.43526 -1.8019 -1.75842
4.43726 -1.7869 -1.75742
4.45726 -1.7779 -1.76342
4.46626 -1.7659 -1.76442
4.46026 -1.7549 -1.76042
4.46226 -1.7399 -1.75942
4.45926 -1.7229 -1.75542
4.46926 -1.7109 -1.75842
4.47626 -1.6969 -1.75842
4.48226 -1.6829 -1.75842
4.48726 -1.6689 -1.75842
4.49526 -1.6639 -1.76042
4.49626 -1.6479 -1.75942
4.49626 -1.6319 -1.75742
4.49826 -1.6169 -1.75542
4.50826 -1.6049 -1.75842
4.51326 -1.5909 -1.75842
4.51926 -1.5849 -1.75942
4.52126 -1.5689 -1.75842
4.52426 -1.5549 -1.75742
4.52526 -1.5389 -1.75542
4.52526 -1.5229 -1.75342
4.52426 -1.5069 -1.75142
4.54526 -1.4979 -1.75842
4.55826 -1.4939 -1.76242
4.54826 -1.4759 -1.75642
4.55626 -1.4619 -1.75842
4.56826 -1.4499 -1.76042
4.55726 -1.4309 -1.75442
4.55826 -1.4159 -1.75242
4.56226 -1.4009 -1.75242
4.56226 -1.3939 -1.75242
4.57726 -1.3819 -1.75642
4.57626 -1.3659 -1.75442
4.57226 -1.3489 -1.75042
4.58026 -1.3359 -1.75242
4.59826 -1.3259 -1.75842
4.59126 -1.3079 -1.75342
4.58326 -1.2979 -1.74942
4.59026 -1.2849 -1.75042
4.60026 -1.2719 -1.75242
4.61326 -1.2599 -1.75642
4.61726 -1.2449 -1.75642
4.61026 -1.2279 -1.75242
4.61026 -1.2119 -1.75042
4.61926 -1.2069 -1.75342
4.61426 -1.1899 -1.75042
4.62326 -1.1769 -1.75242
4.63226 -1.1639 -1.75442
4.63726 -1.1499 -1.75542
4.64326 -1.1359 -1.75542
4.65626 -1.1229 -1.75942
4.64826 -1.1139 -1.75542
4.65526 -1.0999 -1.75742
4.66826 -1.0869 -1.76042
4.64826 -1.0669 -1.75142
4.66426 -1.0559 -1.75642
4.65826 -1.0389 -1.75242
4.67226 -1.0269 -1.75742
4.66626 -1.0179 -1.75442
4.67326 -1.0039 -1.75542
4.66026 -0.9859 -1.74942
4.66126 -0.9709 -1.74842
4.67326 -0.9579 -1.75242
4.66726 -0.9419 -1.74842
4.67426 -0.9279 -1.75042
4.69726 -0.9239 -1.75842
4.68526 -0.9069 -1.75242
4.69526 -0.8939 -1.75542
4.70026 -0.8789 -1.75642
4.69026 -0.8619 -1.75142
4.68226 -0.8449 -1.74742
4.69526 -0.8329 -1.75142
4.70226 -0.8259 -1.75342
4.71626 -0.8129 -1.75842
4.70026 -0.7949 -1.75042
4.70226 -0.7809 -1.75042
4.69726 -0.7649 -1.74742
4.73126 -0.7549 -1.76042
4.69526 -0.7339 -1.74442
4.70926 -0.7289 -1.75042
4.72626 -0.7159 -1.75542
4.73026 -0.7009 -1.75642
4.72326 -0.6849 -1.75242
4.72126 -0.6699 -1.75142
4.72326 -0.6549 -1.75142
4.72626 -0.6479 -1.75242
4.73626 -0.6339 -1.75542
4.74326 -0.6199 -1.75742
4.73026 -0.6029 -1.75142
4.72726 -0.5879 -1.74942
4.74126 -0.5739 -1.75442
4.73226 -0.5579 -1.75042
4.73826 -0.5509 -1.75242
4.73526 -0.5359 -1.75042
4.74726 -0.5219 -1.75442
4.74526 -0.5069 -1.75242
4.74926 -0.4919 -1.75342
4.75026 -0.4769 -1.75342
4.75426 -0.4619 -1.75442
4.75626 -0.4549 -1.75542
4.76326 -0.4409 -1.75742
4.76126 -0.4249 -1.75542
4.75726 -0.4099 -1.75342
4.76826 -0.3809 -1.75742
4.76326 -0.3729 -1.75542
4.77126 -0.3429 -1.75742
4.76126 -0.3269 -1.75242
3.51126 2.8861 -1.72142
3.47126 2.9361 -1.72142
3.46326 2.9481 -1.72242
3.43626 2.9631 -1.71842
3.43626 2.9721 -1.72042
3.41626 2.9921 -1.71942
3.40626 3.0031 -1.71942
3.37926 3.0171 -1.71542
3.37526 3.0321 -1.71842
3.35226 3.0411 -1.71342
3.34726 3.0551 -1.71542
3.34226 3.0691 -1.71842
3.32826 3.0761 -1.71542
3.31326 3.0811 -1.71242
3.29926 3.0981 -1.71342
3.29526 3.1141 -1.71642
3.28726 3.1251 -1.71742
3.26926 3.1281 -1.71242
3.25526 3.1341 -1.71042
3.25426 3.1541 -1.71542
3.24126 3.1511 -1.71142
3.23126 3.1611 -1.71142
3.22826 3.1781 -1.71542
3.21726 3.1871 -1.71442
3.20526 3.1951 -1.71342
3.19426 3.2041 -1.71242
3.17526 3.2051 -1.70742
3.16626 3.2061 -1.70542
3.16526 3.2251 -1.71042
3.15226 3.2321 -1.70942
3.13226 3.2321 -1.70342
3.13326 3.2531 -1.70942
3.12326 3.2631 -1.70942
3.11026 3.2701 -1.70842
3.11026 3.2811 -1.71142
3.09726 3.2881 -1.70942
3.08426 3.2951 -1.70842
3.08026 3.3111 -1.71242
3.06026 3.3101 -1.70642
3.04726 3.3171 -1.70442
3.04526 3.3361 -1.70942
3.04226 3.3431 -1.71142
3.02626 3.3461 -1.70742
3.01326 3.3531 -1.70642
3.00626 3.3671 -1.70842
2.99026 3.3701 -1.70542
2.98126 3.3811 -1.70642
2.96926 3.3891 -1.70542
2.95926 3.3881 -1.70242
2.95726 3.4071 -1.70742
2.94226 3.4121 -1.70542
2.92826 3.4171 -1.70342
2.92326 3.4341 -1.70642
2.91126 3.4411 -1.70642
2.90026 3.4501 -1.70642
2.89326 3.4521 -1.70442
2.88326 3.4631 -1.70542
2.87726 3.4771 -1.70842
2.86526 3.4851 -1.70742
2.85726 3.4981 -1.70942
2.84526 3.5061 -1.70942
2.83426 3.5151 -1.70942
2.82526 3.5151 -1.70642
2.81226 3.5211 -1.70542
2.80326 3.5331 -1.70642
2.79326 3.5431 -1.70742
2.78126 3.5501 -1.70642
2.77326 3.5631 -1.70942
2.75726 3.5661 -1.70642
2.75326 3.5721 -1.70642
2.73926 3.5781 -1.70542
2.73126 3.5901 -1.70742
2.71526 3.5931 -1.70442
2.70226 3.5991 -1.70342
2.68626 3.6011 -1.70042
2.68026 3.6171 -1.70342
2.66926 3.6141 -1.70042
2.66226 3.6281 -1.70342
2.64726 3.6321 -1.70042
2.63926 3.6451 -1.70342
2.63026 3.6561 -1.70442
2.61726 3.6631 -1.70342
2.61126 3.6651 -1.70342
2.60026 3.6751 -1.70342
2.58926 3.6831 -1.70342
2.57526 3.6881 -1.70242
2.56426 3.6981 -1.70342
2.55126 3.7031 -1.70142
2.54126 3.7141 -1.70342
2.52626 3.7171 -1.70042
2.52226 3.7241 -1.70242
2.51326 3.7351 -1.70342
2.49726 3.7371 -1.70042
2.48626 3.7471 -1.70142
2.47426 3.7541 -1.70142
2.45626 3.7531 -1.69742
2.45226 3.7711 -1.70242
2.44226 3.7691 -1.69942
2.42626 3.7701 -1.69642
2.42226 3.7901 -1.70242
2.40326 3.7871 -1.69742
2.39626 3.8021 -1.70042
2.37526 3.7961 -1.69442
2.36926 3.8131 -1.69842
2.36226 3.8151 -1.69742
2.34626 3.8161 -1.69442
2.33526 3.8251 -1.69542
2.32326 3.8321 -1.69542
2.31426 3.8441 -1.69742
2.29826 3.8451 -1.69442
2.28326 3.8481 -1.69242
2.28326 3.8611 -1.69742
2.26826 3.8631 -1.69442
2.25926 3.8751 -1.69742
2.24326 3.8761 -1.69442
2.23226 3.8841 -1.69442
2.22426 3.8991 -1.69842
2.20926 3.9011 -1.69642
2.20326 3.9051 -1.69642
2.19026 3.9101 -1.69542
2.17426 3.9111 -1.69242
2.16326 3.9211 -1.69442
2.15426 3.9341 -1.69742
2.13826 3.9331 -1.69342
2.12626 3.9411 -1.69442
2.12326 3.9511 -1.69742
2.10926 3.9541 -1.69542
2.09426 3.9561 -1.69342
2.08326 3.9641 -1.69442
2.07226 3.9741 -1.69542
2.06026 3.9821 -1.69642
2.04926 3.9901 -1.69742
2.04126 3.9901 -1.69542
2.02826 3.9961 -1.69542
2.01626 4.0041 -1.69642
2.00526 4.0141 -1.69742
1.99026 4.0141 -1.69442
1.98526 4.0361 -1.70242
1.96826 4.0331 -1.69742
1.96126 4.0361 -1.69742
1.94826 4.0401 -1.69742
1.93526 4.0461 -1.69742
1.92326 4.0541 -1.69742
1.91026 4.0601 -1.69742
1.90126 4.0731 -1.70042
1.88726 4.0771 -1.70042
1.87926 4.0771 -1.69842
1.86526 4.0791 -1.69742
1.85026 4.0821 -1.69542
1.84326 4.0991 -1.70042
1.82526 4.0931 -1.69542
1.81226 4.0991 -1.69542
1.80226 4.1111 -1.69842
1.79526 4.1131 -1.69742
1.78426 4.1231 -1.70042
1.76726 4.1191 -1.69542
1.75526 4.1281 -1.69742
1.74526 4.1401 -1.70042
1.72826 4.1351 -1.69542
1.71626 4.1441 -1.69742
1.71126 4.1501 -1.69842
1.69726 4.1541 -1.69742
1.68526 4.1611 -1.69842
1.67726 4.1781 -1.70342
1.65326 4.1571 -1.69242
1.64726 4.1801 -1.70042
1.63626 4.1901 -1.70242
1.62726 4.1861 -1.69942
1.61526 4.1941 -1.70042
1.60526 4.2081 -1.70442
1.58626 4.1981 -1.69742
1.57426 4.2061 -1.69942
1.56426 4.2201 -1.70342
1.54726 4.2141 -1.69842
1.53926 4.2131 -1.69742
1.53126 4.2321 -1.70342
1.51426 4.2281 -1.69942
1.50126 4.2311 -1.69842
1.49026 4.2421 -1.70142
1.47426 4.2401 -1.69842
1.45926 4.2411 -1.69742
1.45726 4.2561 -1.70242
1.43926 4.2481 -1.69742
1.42526 4.2511 -1.69642
1.41826 4.2731 -1.70342
1.40126 4.2671 -1.69942
1.38926 4.2751 -1.70042
1.37526 4.2791 -1.70042
1.36426 4.2671 -1.69442
1.35426 4.2821 -1.69942
1.34226 4.2911 -1.70142
1.32826 4.2921 -1.70042
1.31426 4.2961 -1.70042
1.30126 4.3001 -1.70042
1.28526 4.2971 -1.69742
1.27926 4.3011 -1.69742
1.26626 4.3091 -1.69942
1.25326 4.3131 -1.69942
1.23926 4.3151 -1.69842
1.22826 4.3291 -1.70342
1.21026 4.3151 -1.69542
1.19626 4.3191 -1.69542
1.19526 4.3411 -1.70342
1.17526 4.3211 -1.69442
1.16226 4.3301 -1.69642
1.15126 4.3411 -1.69942
1.13526 4.3361 -1.69542
1.12126 4.3371 -1.69442
1.10926 4.3501 -1.69842
1.10126 4.3441 -1.69542
1.08726 4.3501 -1.69642
1.07526 4.3581 -1.69842
1.06126 4.3581 -1.69742
1.04626 4.3581 -1.69542
1.03326 4.3631 -1.69642
1.01726 4.3571 -1.69242
1.00926 4.3551 -1.69142
1.00026 4.3761 -1.69842
0.983262 4.3691 -1.69442
0.971262 4.3771 -1.69642
0.958262 4.3851 -1.69842
0.943262 4.3811 -1.69542
0.929262 4.3821 -1.69442
0.924262 4.3951 -1.69942
0.911262 4.3991 -1.70042
0.895262 4.3911 -1.69542
0.881262 4.3941 -1.69542
0.868262 4.4001 -1.69742
0.850262 4.3851 -1.68942
0.841262 4.4081 -1.69742
0.832262 4.4021 -1.69442
0.819262 4.4061 -1.69542
0.805262 4.4091 -1.69542
0.791262 4.4111 -1.69542
0.776262 4.4081 -1.69342
0.763262 4.4141 -1.69442
0.749262 4.4171 -1.69442
0.742262 4.4161 -1.69442
0.728262 4.4181 -1.69442
0.713262 4.4151 -1.69142
0.699262 4.4171 -1.69142
0.686262 4.4251 -1.69442
0.672262 4.4271 -1.69442
0.658262 4.4271 -1.69342
0.653262 4.4381 -1.69742
0.637262 4.4301 -1.69342
0.624262 4.4341 -1.69442
0.610262 4.4361 -1.69442
0.595262 4.4341 -1.69242
0.582262 4.4421 -1.69442
0.568262 4.4401 -1.69342
0.560262 4.4351 -1.69142
0.547262 4.4441 -1.69442
0.533262 4.4441 -1.69342
0.518262 4.4421 -1.69142
0.505262 4.4461 -1.69242
0.491262 4.4511 -1.69442
0.477262 4.4521 -1.69442
0.470262 4.4531 -1.69442
0.456262 4.4551 -1.69442
0.442262 4.4541 -1.69342
0.429262 4.4611 -1.69542
0.414262 4.4551 -1.69242
0.400262 4.4561 -1.69242
0.386262 4.4571 -1.69242
0.379262 4.4601 -1.69342
0.365262 4.4651 -1.69442
0.351262 4.4621 -1.69342
0.337262 4.4651 -1.69442
0.323262 4.4721 -1.69642
0.309262 4.4711 -1.69542
0.295262 4.4631 -1.69142
0.281262 4.4631 -1.69142
0.273262 4.4621 -1.69142
0.260262 4.4741 -1.69542
0.245262 4.4601 -1.68942
0.232262 4.4721 -1.69442
0.218262 4.4731 -1.69442
0.204262 4.4711 -1.69342
0.189262 4.4631 -1.68942
0.182262 4.4651 -1.69042
0.168262 4.4641 -1.68942
0.154262 4.4661 -1.69042
0.140262 4.4651 -1.68942
0.126262 4.4611 -1.68842
0.112262 4.4631 -1.68842
0.0982622 4.4661 -1.68942
0.0912622 4.4751 -1.69342
0.0772622 4.4601 -1.68742
0.0632622 4.4701 -1.69142
0.0492622 4.4721 -1.69142
0.0352622 4.4541 -1.68442
0.0212622 4.4671 -1.68942
0.00726224 4.4701 -1.69142
0.000262236 4.4571 -1.68542
3.51326 -3.0589 -1.76642
3.54626 -3.0489 -1.77442
3.55826 -3.0399 -1.77542
3.57826 -3.0479 -1.78342
3.57826 -3.0279 -1.77842
3.60426 -3.0119 -1.78242
3.60826 -2.9959 -1.77942
3.62826 -2.9739 -1.78042
3.63326 -2.9679 -1.78042
3.64626 -2.9599 -1.78242
3.64426 -2.9399 -1.77642
3.65826 -2.9319 -1.77842
3.68226 -2.9129 -1.78142
3.69126 -2.9019 -1.78142
3.69326 -2.8929 -1.78042
3.70526 -2.8839 -1.78142
3.70226 -2.8629 -1.77542
3.72326 -2.8419 -1.77742
3.73626 -2.8339 -1.77942
3.73626 -2.8059 -1.77242
3.74826 -2.7969 -1.77442
3.77026 -2.7949 -1.78042
3.76826 -2.7749 -1.77542
3.76826 -2.7569 -1.77142
3.79226 -2.7559 -1.77842
3.79326 -2.7389 -1.77442
3.79326 -2.7289 -1.77242
3.80726 -2.7029 -1.77142
3.82326 -2.6969 -1.77442
3.83126 -2.6849 -1.77442
3.83526 -2.6689 -1.77242
3.85026 -2.6709 -1.77742
3.85226 -2.6549 -1.77442
3.85626 -2.6389 -1.77242
3.86026 -2.6239 -1.77042
3.87526 -2.6169 -1.77442
3.87326 -2.5979 -1.76842
3.88726 -2.5899 -1.77142
3.89626 -2.5869 -1.77442
3.89326 -2.5669 -1.76842
3.90626 -2.5579 -1.77142
3.90926 -2.5429 -1.76842
3.91626 -2.5289 -1.76842
3.93326 -2.5229 -1.77242
3.93126 -2.5049 -1.76842
3.93226 -2.4959 -1.76642
3.94626 -2.4879 -1.76942
3.96026 -2.4799 -1.77242
3.96226 -2.4629 -1.76942
3.97126 -2.4519 -1.77042
3.97626 -2.4369 -1.76842
3.98726 -2.4269 -1.77042
3.99226 -2.4209 -1.77142
3.99826 -2.4079 -1.77042
4.01326 -2.3999 -1.77442
4.01526 -2.3839 -1.77142
4.01626 -2.3669 -1.76842
4.02526 -2.3559 -1.76842
4.03826 -2.3469 -1.77142
4.03926 -2.3389 -1.77042
4.05426 -2.3299 -1.77442
4.05726 -2.3149 -1.77142
4.06126 -2.2999 -1.77042
4.07126 -2.2889 -1.77142
4.08026 -2.2779 -1.77242
4.08226 -2.2619 -1.77042
4.08626 -2.2559 -1.77042
4.09126 -2.2419 -1.76942
4.10026 -2.2299 -1.77042
4.11026 -2.2189 -1.77142
4.12026 -2.2079 -1.77342
4.12626 -2.1939 -1.77242
4.12626 -2.1859 -1.77142
4.13126 -2.1719 -1.77042
4.14626 -2.1629 -1.77442
4.14826 -2.1469 -1.77142
4.15826 -2.1359 -1.77342
4.16026 -2.1199 -1.77142
4.16626 -2.1069 -1.77142
4.16126 -2.0969 -1.76742
4.17826 -2.0889 -1.77142
4.18326 -2.0749 -1.77142
4.19826 -2.0659 -1.77442
4.18726 -2.0439 -1.76742
4.20726 -2.0379 -1.77342
4.20026 -2.0179 -1.76742
4.20526 -2.0119 -1.76842
4.21626 -2.0009 -1.77042
4.21626 -1.9849 -1.76742
4.23226 -1.9759 -1.77142
4.23026 -1.9589 -1.76842
4.24126 -1.9479 -1.77042
4.24726 -1.9349 -1.77042
4.25226 -1.9289 -1.77142
4.25826 -1.9149 -1.77142
4.25926 -1.8999 -1.76842
4.27326 -1.8899 -1.77242
4.27626 -1.8749 -1.77142
4.28526 -1.8629 -1.77242
4.28126 -1.8449 -1.76842
4.28426 -1.8389 -1.76842
4.28826 -1.8239 -1.76742
4.29726 -1.8119 -1.76842
4.29426 -1.7949 -1.76542
4.30526 -1.7839 -1.76742
4.31426 -1.7719 -1.76842
4.31126 -1.7629 -1.76642
4.30826 -1.7459 -1.76242
4.32126 -1.7349 -1.76542
4.32926 -1.7229 -1.76742
4.32326 -1.7039 -1.76242
4.33326 -1.6929 -1.76442
4.33326 -1.6769 -1.76242
4.34626 -1.6749 -1.76642
4.34626 -1.6589 -1.76442
4.35026 -1.6449 -1.76342
4.36426 -1.6339 -1.76742
4.35726 -1.6159 -1.76242
4.35526 -1.5999 -1.75942
4.38426 -1.5949 -1.76942
4.36726 -1.5809 -1.76142
4.37426 -1.5679 -1.76242
4.38826 -1.5569 -1.76542
4.37726 -1.5379 -1.75942
4.38926 -1.5269 -1.76242
4.40126 -1.5149 -1.76542
4.39726 -1.4979 -1.76142
4.39926 -1.4909 -1.76142
4.40926 -1.4789 -1.76342
4.40326 -1.4619 -1.75942
4.40626 -1.4479 -1.75842
4.41726 -1.4359 -1.76142
4.42426 -1.4229 -1.76242
4.41226 -1.4039 -1.75542
4.43526 -1.4039 -1.76442
4.43126 -1.3869 -1.76042
4.42626 -1.3699 -1.75642
4.44526 -1.3609 -1.76242
4.44026 -1.3439 -1.75942
4.45226 -1.3319 -1.76242
4.45226 -1.3169 -1.76042
4.44526 -1.3069 -1.75642
4.45026 -1.2929 -1.75642
4.47126 -1.2849 -1.76442
4.46126 -1.2659 -1.75842
4.47026 -1.2539 -1.76042
4.48126 -1.2419 -1.76342
4.47626 -1.2249 -1.75942
4.47826 -1.2179 -1.75942
4.48926 -1.2059 -1.76242
4.48626 -1.1899 -1.75942
4.49526 -1.1779 -1.76242
4.50226 -1.1639 -1.76342
4.48426 -1.1449 -1.75442
4.51326 -1.1369 -1.76542
4.51326 -1.1289 -1.76442
4.50626 -1.1119 -1.75942
4.52026 -1.1009 -1.76442
4.52326 -1.0719 -1.76242
4.52826 -1.0579 -1.76342
4.52526 -1.0419 -1.76042
4.53226 -1.0359 -1.76242
4.53326 -1.0209 -1.76242
4.53926 -0.9779 -1.76042
4.54826 -0.9499 -1.76242
3.40826 2.8251 -1.71842
3.38326 2.8681 -1.72242
3.34126 2.8871 -1.71442
3.34026 2.9041 -1.71842
3.33026 2.9141 -1.71842
3.32926 2.9231 -1.72042
3.31026 2.9241 -1.71542
3.31226 2.9451 -1.72142
3.29526 2.9481 -1.71642
3.29026 2.9621 -1.71842
3.27626 2.9681 -1.71642
3.26126 2.9741 -1.71342
3.24926 2.9711 -1.70942
3.24726 2.9891 -1.71342
3.23726 2.9981 -1.71242
3.22726 3.0081 -1.71242
3.22326 3.0231 -1.71542
3.20426 3.0241 -1.71042
3.19326 3.0331 -1.70942
3.18226 3.0321 -1.70542
3.17626 3.0461 -1.70842
3.17226 3.0611 -1.71142
3.16026 3.0681 -1.70942
3.14226 3.0701 -1.70542
3.13926 3.0871 -1.70942
3.13126 3.0981 -1.70942
3.12626 3.1031 -1.70942
3.11526 3.1111 -1.70942
3.10026 3.1161 -1.70542
3.09326 3.1281 -1.70742
3.07526 3.1501 -1.70942
3.05426 3.1481 -1.70242
3.06126 3.1641 -1.70942
3.04526 3.1691 -1.70542
3.03026 3.1731 -1.70242
3.01826 3.1801 -1.70142
3.00826 3.1891 -1.70142
2.99726 3.1971 -1.70042
2.98926 3.2091 -1.70242
2.99426 3.2251 -1.70842
2.97926 3.2291 -1.70542
2.97126 3.2411 -1.70642
2.96026 3.2491 -1.70542
2.94526 3.2531 -1.70242
2.93826 3.2661 -1.70542
2.93026 3.2781 -1.70642
2.92026 3.2771 -1.70342
2.91226 3.2891 -1.70542
2.90226 3.2981 -1.70542
2.88726 3.3021 -1.70242
2.88126 3.3161 -1.70542
2.87326 3.3281 -1.70642
2.85926 3.3331 -1.70442
2.85226 3.3351 -1.70242
2.83726 3.3391 -1.70042
2.82926 3.3511 -1.70242
2.82726 3.3701 -1.70742
2.81126 3.3721 -1.70342
2.80526 3.3861 -1.70642
2.79726 3.3881 -1.70542
2.78326 3.3921 -1.70242
2.77426 3.4041 -1.70442
2.76826 3.4181 -1.70742
2.75826 3.4271 -1.70742
2.74926 3.4381 -1.70942
2.72926 3.4351 -1.70242
2.72326 3.4501 -1.70542
2.72326 3.4611 -1.70942
2.70426 3.4601 -1.70442
2.69526 3.4701 -1.70542
2.68726 3.4821 -1.70742
2.66426 3.4751 -1.69942
2.66826 3.5041 -1.70942
2.65426 3.5081 -1.70742
2.64526 3.5071 -1.70542
2.63826 3.5201 -1.70742
2.62026 3.5191 -1.70242
2.60626 3.5231 -1.70042
2.60526 3.5461 -1.70842
2.59026 3.5491 -1.70542
2.57626 3.5521 -1.70242
2.57126 3.5581 -1.70342
2.56326 3.5701 -1.70542
2.54826 3.5721 -1.70242
2.53526 3.5791 -1.70242
2.51826 3.5781 -1.69742
2.51126 3.5921 -1.70042
2.49326 3.5901 -1.69642
2.49526 3.6051 -1.70142
2.47826 3.6051 -1.69742
2.47426 3.6241 -1.70242
2.46626 3.6361 -1.70542
2.45026 3.6371 -1.70242
2.43426 3.6371 -1.69842
2.41826 3.6391 -1.69542
2.40226 3.6521 -1.69642
2.38126 3.6701 -1.69742
2.36926 3.6771 -1.69742
2.35426 3.6791 -1.69442
2.34226 3.6861 -1.69442
2.34226 3.6991 -1.69942
2.33026 3.7051 -1.69842
2.31426 3.7061 -1.69542
2.30726 3.7191 -1.69842
2.29326 3.7231 -1.69642
2.26726 3.7331 -1.69442
2.26526 3.7431 -1.69742
2.25526 3.7531 -1.69942
2.23626 3.7491 -1.69342
2.22926 3.7641 -1.69742
2.21326 3.7631 -1.69342
2.20526 3.7761 -1.69642
2.19126 3.7801 -1.69542
2.18626 3.7851 -1.69642
2.17626 3.7951 -1.69742
2.16926 3.8121 -1.70242
2.14926 3.8041 -1.69542
2.14326 3.8221 -1.70042
2.12326 3.8141 -1.69342
2.11726 3.8311 -1.69842
2.11326 3.8371 -1.69942
2.09426 3.8321 -1.69442
2.08426 3.8421 -1.69642
2.07726 3.8581 -1.70042
2.06126 3.8571 -1.69642
2.04726 3.8601 -1.69542
2.03726 3.8711 -1.69742
2.03926 3.8891 -1.70442
2.01926 3.8811 -1.69742
2.00826 3.8901 -1.69942
1.99326 3.8901 -1.69642
1.98926 3.9131 -1.70342
1.96826 3.9031 -1.69642
1.95626 3.9091 -1.69642
1.95726 3.9251 -1.70242
1.94326 3.9301 -1.70142
1.93326 3.9391 -1.70242
1.92026 3.9451 -1.70242
1.89826 3.9291 -1.69242
1.89026 3.9451 -1.69742
1.87926 3.9551 -1.69942
1.87426 3.9611 -1.70042
1.86326 3.9681 -1.70142
1.85126 3.9761 -1.70242
1.83626 3.9771 -1.69942
1.82226 3.9791 -1.69842
1.81126 3.9881 -1.69942
1.80226 4.0011 -1.70242
1.79426 4.0001 -1.70142
1.78426 4.0111 -1.70342
1.76526 4.0031 -1.69742
1.75726 4.0181 -1.70242
1.74226 4.0191 -1.69942
1.73226 4.0311 -1.70242
1.71726 4.0301 -1.69942
1.71226 4.0361 -1.70142
1.69926 4.0411 -1.70142
1.68626 4.0471 -1.70142
1.67226 4.0471 -1.69942
1.66426 4.0641 -1.70442
1.64426 4.0521 -1.69642
1.63526 4.0661 -1.70042
1.63026 4.0721 -1.70242
1.61426 4.0701 -1.69942
1.60126 4.0751 -1.69942
1.58726 4.0751 -1.69642
1.57526 4.0831 -1.69842
1.56626 4.0971 -1.70242
1.55526 4.1071 -1.70442
1.54426 4.0991 -1.69942
1.53026 4.0991 -1.69742
1.52126 4.1151 -1.70242
1.50826 4.1201 -1.70242
1.49326 4.1181 -1.69942
1.47826 4.1171 -1.69742
1.46626 4.1261 -1.69942
1.45726 4.1191 -1.69542
1.44326 4.1221 -1.69442
1.43026 4.1251 -1.69342
1.42326 4.1481 -1.70242
1.41126 4.1561 -1.70342
1.39326 4.1451 -1.69642
1.38326 4.1601 -1.70142
1.37626 4.1601 -1.70042
1.36026 4.1541 -1.69642
1.35126 4.1721 -1.70242
1.33426 4.1621 -1.69642
1.32126 4.1681 -1.69642
1.30826 4.1731 -1.69642
1.29926 4.1891 -1.70242
1.28726 4.1751 -1.69542
1.27426 4.1771 -1.69442
1.26626 4.2011 -1.70242
1.24926 4.1921 -1.69742
1.23526 4.1931 -1.69642
1.22226 4.1971 -1.69642
1.20926 4.2001 -1.69642
1.20026 4.1931 -1.69242
1.18826 4.2011 -1.69342
1.17526 4.2081 -1.69542
1.16226 4.2121 -1.69542
1.14726 4.2081 -1.69242
1.13526 4.2151 -1.69342
1.12426 4.2281 -1.69742
1.11526 4.2221 -1.69442
1.10426 4.2331 -1.69742
1.08726 4.2201 -1.69042
1.07526 4.2311 -1.69342
1.06126 4.2331 -1.69242
1.05026 4.2431 -1.69642
1.03526 4.2391 -1.69242
1.03026 4.2481 -1.69642
1.01426 4.2421 -1.69242
1.00226 4.2491 -1.69342
0.990262 4.2611 -1.69742
0.976262 4.2591 -1.69542
0.964262 4.2691 -1.69842
0.950262 4.2701 -1.69742
0.941262 4.2611 -1.69242
0.929262 4.2711 -1.69642
0.913262 4.2611 -1.69042
0.902262 4.2751 -1.69542
0.888262 4.2761 -1.69442
0.876262 4.2841 -1.69642
0.861262 4.2811 -1.69442
0.856262 4.2921 -1.69842
0.841262 4.2841 -1.69342
0.829262 4.2941 -1.69642
0.813262 4.2831 -1.69142
0.802262 4.3001 -1.69742
0.788262 4.2991 -1.69642
0.773262 4.2931 -1.69242
0.765262 4.2871 -1.68942
0.754262 4.3051 -1.69642
0.739262 4.2951 -1.69042
0.728262 4.3141 -1.69742
0.713262 4.3091 -1.69442
0.699262 4.3111 -1.69442
0.686262 4.3151 -1.69542
0.679262 4.3141 -1.69442
0.666262 4.3201 -1.69642
0.651262 4.3091 -1.69042
0.637262 4.3111 -1.69042
0.624262 4.3151 -1.69142
0.610262 4.3171 -1.69142
0.598262 4.3281 -1.69542
0.584262 4.3241 -1.69242
0.577262 4.3271 -1.69342
0.564262 4.3311 -1.69442
0.551262 4.3361 -1.69642
0.535262 4.3211 -1.68942
0.521262 4.3191 -1.68742
0.509262 4.3341 -1.69242
0.495262 4.3341 -1.69242
0.487262 4.3271 -1.68942
0.474262 4.3341 -1.69142
0.461262 4.3351 -1.69142
0.447262 4.3331 -1.68942
0.434262 4.3471 -1.69542
0.421262 4.3471 -1.69442
0.407262 4.3461 -1.69342
0.400262 4.3451 -1.69242
0.385262 4.3351 -1.68842
0.372262 4.3441 -1.69142
0.359262 4.3471 -1.69242
0.345262 4.3541 -1.69442
0.331262 4.3471 -1.69142
0.319262 4.3671 -1.69942
0.311262 4.3511 -1.69242
0.297262 4.3531 -1.69242
0.284262 4.3601 -1.69542
0.270262 4.3571 -1.69342
0.256262 4.3561 -1.69242
0.243262 4.3601 -1.69442
0.229262 4.3611 -1.69442
0.222262 4.3491 -1.68942
0.208262 4.3531 -1.69042
0.194262 4.3461 -1.68742
0.181262 4.3491 -1.68842
0.167262 4.3641 -1.69442
0.153262 4.3531 -1.68942
0.140262 4.3581 -1.69142
0.133262 4.3631 -1.69342
0.119262 4.3621 -1.69242
0.105262 4.3531 -1.68942
0.0922622 4.3611 -1.69242
0.0782622 4.3551 -1.68942
0.0642622 4.3521 -1.68842
0.0512622 4.3581 -1.69042
0.0442622 4.3671 -1.69442
0.0302622 4.3521 -1.68842
0.0172622 4.3511 -1.68742
0.00326224 4.3651 -1.69342
3.39026 -3.0099 -1.76342
3.41326 -2.9919 -1.76542
3.42226 -2.9819 -1.76542
3.45526 -2.9999 -1.78042
3.46626 -2.9909 -1.78142
3.51326 -2.9359 -1.78142
3.56326 -2.8749 -1.78142
3.61626 -2.7979 -1.77942
3.62126 -2.7919 -1.77942
3.62426 -2.7769 -1.77642
3.62926 -2.7629 -1.77442
3.64426 -2.7559 -1.77742
3.65426 -2.7459 -1.77842
3.66726 -2.7369 -1.78042
3.66526 -2.7179 -1.77542
3.66826 -2.7109 -1.77442
3.67926 -2.7019 -1.77642
3.69226 -2.6939 -1.77842
3.69826 -2.6799 -1.77642
3.70826 -2.6689 -1.77742
3.71326 -2.6559 -1.77642
3.72426 -2.6369 -1.77542
3.72826 -2.6219 -1.77342
3.73626 -2.6099 -1.77342
3.74726 -2.6009 -1.77442
3.75726 -2.5899 -1.77542
3.76426 -2.5769 -1.77442
3.76926 -2.5629 -1.77342
3.77726 -2.5599 -1.77542
3.78426 -2.5469 -1.77442
3.79626 -2.5389 -1.77642
3.79826 -2.5229 -1.77342
3.79426 -2.5029 -1.76742
3.82026 -2.5029 -1.77642
3.81526 -2.4829 -1.77042
3.83826 -2.4719 -1.77642
3.82926 -2.4489 -1.76742
3.84926 -2.4449 -1.77342
3.85026 -2.4289 -1.77042
3.86126 -2.4179 -1.77242
3.86926 -2.4149 -1.77442
3.87526 -2.4019 -1.77342
3.88326 -2.3899 -1.77342
3.88926 -2.3769 -1.77342
3.90826 -2.3549 -1.77542
3.91426 -2.3419 -1.77442
3.92126 -2.3379 -1.77642
3.92426 -2.3219 -1.77342
4.00026 -2.1929 -1.77442
3.99726 -2.1749 -1.77042
4.00826 -2.1729 -1.77342
4.02426 -2.1489 -1.77442
4.03426 -2.1219 -1.77342
4.04426 -2.1109 -1.77442
4.05426 -2.0909 -1.77442
4.14826 -1.8829 -1.77242
4.17026 -1.8069 -1.76742
4.18126 -1.7959 -1.77042
4.19826 -1.7639 -1.77142
4.20026 -1.7499 -1.77042
4.21126 -1.7229 -1.77042
4.21226 -1.7079 -1.76742
4.21726 -1.6949 -1.76742
4.22126 -1.6809 -1.76742
4.22026 -1.6729 -1.76542
4.22826 -1.6609 -1.76742
4.23026 -1.6459 -1.76542
4.24026 -1.6199 -1.76542
4.23926 -1.6039 -1.76242
4.25426 -1.5939 -1.76742
4.25026 -1.5849 -1.76342
4.24626 -1.5679 -1.76042
4.26826 -1.5609 -1.76742
4.26626 -1.5449 -1.76442
4.27826 -1.5339 -1.76742
4.27926 -1.5049 -1.76342
4.28526 -1.4989 -1.76542
4.29426 -1.4869 -1.76742
4.29226 -1.4709 -1.76442
4.29526 -1.4569 -1.76342
4.30726 -1.4459 -1.76742
4.29926 -1.4289 -1.76142
4.31226 -1.4179 -1.76542
4.31926 -1.4129 -1.76742
4.31926 -1.3979 -1.76542
4.31226 -1.3809 -1.76042
4.32326 -1.3539 -1.76142
4.31626 -1.3369 -1.75742
4.34026 -1.3299 -1.76542
4.33326 -1.3199 -1.76142
4.33226 -1.3049 -1.75942
4.33826 -1.2919 -1.76042
4.34426 -1.2789 -1.76042
4.35026 -1.2659 -1.76142
4.35326 -1.2519 -1.76142
4.35426 -1.2369 -1.76042
4.35226 -1.2289 -1.75842
4.36326 -1.2179 -1.76142
4.37126 -1.1899 -1.76142
4.37826 -1.1769 -1.76342
4.37126 -1.1609 -1.75842
4.38026 -1.1559 -1.76142
4.38026 -1.1409 -1.76042
4.38726 -1.1279 -1.76142
4.39126 -1.1149 -1.76142
4.39626 -1.1009 -1.76242
4.39426 -1.0859 -1.76042
3.45226 2.6511 -1.72542
3.42126 2.6781 -1.72242
3.40326 2.7081 -1.72442
3.39026 2.7151 -1.72142
3.38126 2.7251 -1.72142
3.36726 2.7311 -1.71842
3.35826 2.7421 -1.71842
3.35826 2.7591 -1.72342
3.34426 2.7651 -1.72042
3.33426 2.7661 -1.71742
3.32926 2.7801 -1.71942
3.32126 2.7901 -1.71942
3.30626 2.7961 -1.71642
3.29926 2.8081 -1.71742
3.27726 2.8071 -1.71042
3.28026 2.8271 -1.71642
3.27226 2.8301 -1.71442
3.25926 2.8361 -1.71242
3.26726 2.8611 -1.72142
3.24426 2.8591 -1.71442
3.23526 2.8701 -1.71442
3.22626 2.8801 -1.71442
3.21026 2.8841 -1.71042
3.20626 2.8891 -1.71042
3.19426 2.8961 -1.70842
3.18326 2.9051 -1.70742
3.17726 2.9181 -1.70942
3.17326 2.9321 -1.71242
3.14926 2.9291 -1.70442
3.14826 2.9461 -1.70842
3.14526 2.9521 -1.70942
3.13126 2.9581 -1.70742
3.12226 2.9681 -1.70742
3.10626 2.9721 -1.70342
3.09026 2.9941 -1.70442
3.07926 3.0021 -1.70442
3.08026 3.0121 -1.70742
3.06926 3.0201 -1.70642
3.05626 3.0261 -1.70442
3.04526 3.0341 -1.70342
3.03426 3.0431 -1.70242
3.02626 3.0541 -1.70342
3.01926 3.0661 -1.70442
3.01226 3.0691 -1.70442
3.01626 3.0921 -1.71142
2.99226 3.0871 -1.70342
2.98526 3.0991 -1.70442
2.97726 3.1111 -1.70642
2.96126 3.1131 -1.70242
2.95226 3.1231 -1.70242
2.94526 3.1261 -1.70142
2.94226 3.1421 -1.70542
2.92626 3.1441 -1.70142
2.90526 3.1611 -1.70042
2.87826 3.1831 -1.70042
2.86126 3.2031 -1.70142
2.85426 3.2171 -1.70442
2.83826 3.2191 -1.70042
2.83226 3.2321 -1.70242
2.81326 3.2411 -1.70042
2.79126 3.2571 -1.69942
2.78126 3.2661 -1.69942
2.75226 3.2951 -1.70042
2.74726 3.2991 -1.70042
2.73326 3.3031 -1.69842
2.72426 3.3131 -1.69942
2.71526 3.3231 -1.70042
2.70626 3.3331 -1.70042
2.69426 3.3401 -1.70042
2.68226 3.3471 -1.69942
2.68626 3.3631 -1.70542
2.67126 3.3661 -1.70242
2.63426 3.3831 -1.69842
2.61426 3.4031 -1.70042
2.60626 3.4031 -1.69742
2.58726 3.4221 -1.69942
2.53926 3.4481 -1.69642
2.53426 3.4521 -1.69642
2.51426 3.4711 -1.69742
2.50226 3.4771 -1.69742
2.48026 3.4931 -1.69742
2.46826 3.4991 -1.69642
2.46226 3.5031 -1.69642
2.37126 3.5721 -1.69842
2.31826 3.6021 -1.69742
2.29726 3.6181 -1.69742
2.17026 3.6831 -1.69342
2.16526 3.6861 -1.69342
2.15526 3.6961 -1.69442
2.10826 3.7231 -1.69442
2.08926 3.7291 -1.69342
2.07726 3.7361 -1.69342
2.06626 3.7431 -1.69342
2.06226 3.7631 -1.70042
2.01426 3.7751 -1.69442
2.00126 3.7781 -1.69342
1.99026 3.7861 -1.69342
1.97726 3.7901 -1.69342
1.97126 3.8081 -1.69842
1.95426 3.8041 -1.69342
1.94226 3.8101 -1.69342
1.93726 3.8171 -1.69542
1.92426 3.8191 -1.69342
1.89826 3.8281 -1.69242
1.88826 3.8371 -1.69342
1.87726 3.8471 -1.69542
1.85826 3.8541 -1.69442
1.84526 3.8581 -1.69342
1.82226 3.8711 -1.69442
1.81126 3.8801 -1.69642
1.79426 3.8761 -1.69142
1.78726 3.8911 -1.69642
1.77826 3.8891 -1.69342
1.75226 3.8971 -1.69242
1.74026 3.9021 -1.69242
1.71726 3.9171 -1.69342
1.70626 3.9251 -1.69542
1.69726 3.9211 -1.69242
1.68926 3.9371 -1.69742
1.67826 3.9441 -1.69742
1.66026 3.9371 -1.69242
1.64926 3.9441 -1.69342
1.62126 3.9471 -1.69042
1.61526 3.9521 -1.69042
1.60326 3.9571 -1.69042
1.57926 3.9681 -1.69142
1.56726 3.9751 -1.69242
1.54326 3.9881 -1.69342
1.53626 3.9891 -1.69342
1.52326 3.9901 -1.69142
1.51126 3.9991 -1.69342
1.50326 4.0151 -1.69842
1.48326 3.9991 -1.68942
1.47526 4.0161 -1.69442
1.46526 4.0291 -1.69842
1.45126 4.0111 -1.68942
1.44526 4.0311 -1.69642
1.43126 4.0321 -1.69442
1.41826 4.0371 -1.69442
1.40226 4.0321 -1.69042
1.39126 4.0401 -1.69242
1.37626 4.0391 -1.69042
1.37226 4.0481 -1.69342
1.36026 4.0531 -1.69342
1.34626 4.0551 -1.69242
1.33226 4.0541 -1.69042
1.32026 4.0601 -1.69042
1.30626 4.0611 -1.68942
1.27526 4.0761 -1.69142
1.23526 4.0811 -1.68842
1.20926 4.0891 -1.68842
1.20326 4.0921 -1.68942
1.16626 4.1071 -1.69042
1.15326 4.1121 -1.69142
1.12626 4.1141 -1.68942
1.08026 4.1261 -1.68942
1.06726 4.1281 -1.68842
1.05526 4.1351 -1.69042
1.04126 4.1331 -1.68742
1.03526 4.1381 -1.68942
1.02126 4.1361 -1.68742
1.00926 4.1461 -1.69042
0.995262 4.1421 -1.68742
0.982262 4.1471 -1.68742
0.969262 4.1501 -1.68742
0.958262 4.1601 -1.69042
0.950262 4.1581 -1.68942
0.938262 4.1651 -1.69042
0.924262 4.1621 -1.68842
0.912262 4.1711 -1.69042
0.898262 4.1681 -1.68842
0.871262 4.1741 -1.68842
0.865262 4.1771 -1.68942
0.851262 4.1761 -1.68742
0.839262 4.1821 -1.68942
0.825262 4.1791 -1.68742
0.799262 4.1861 -1.68742
0.788262 4.2001 -1.69242
0.772262 4.1891 -1.68742
0.766262 4.1921 -1.68742
0.740262 4.2011 -1.68942
0.727262 4.2031 -1.68942
0.713262 4.1981 -1.68642
0.699262 4.2001 -1.68642
0.687262 4.2061 -1.68742
0.680262 4.2091 -1.68842
0.667262 4.2091 -1.68742
0.654262 4.2131 -1.68842
0.640262 4.2131 -1.68742
0.627262 4.2151 -1.68742
0.615262 4.2211 -1.68942
0.594262 4.2171 -1.68642
0.541262 4.2271 -1.68742
0.514262 4.2311 -1.68742
0.508262 4.2331 -1.68842
0.482262 4.2381 -1.68942
0.467262 4.2321 -1.68642
0.456262 4.2481 -1.69242
0.441262 4.2351 -1.68642
0.428262 4.2401 -1.68742
0.381262 4.2471 -1.68842
0.368262 4.2421 -1.68642
0.355262 4.2491 -1.68842
0.341262 4.2431 -1.68542
0.335262 4.2501 -1.68842
0.235262 4.2591 -1.68942
0.221262 4.2511 -1.68542
0.194262 4.2591 -1.68842
0.181262 4.2581 -1.68742
0.168262 4.2641 -1.69042
0.161262 4.2551 -1.68642
0.147262 4.2541 -1.68542
0.134262 4.2621 -1.68842
0.121262 4.2601 -1.68742
0.107262 4.2551 -1.68542
0.0812622 4.2701 -1.69142
0.0742622 4.2561 -1.68542
0.0612622 4.2721 -1.69242
0.0472622 4.2561 -1.68542
0.0342622 4.2651 -1.68942
0.0202622 4.2561 -1.68542
0.00726224 4.2691 -1.69042
3.31126 -2.9859 -1.77042
3.32626 -2.9809 -1.77442
3.32426 -2.9609 -1.76742
3.33926 -2.9639 -1.77342
3.34926 -2.9549 -1.77442
3.36326 -2.9479 -1.77642
3.37226 -2.9369 -1.77642
3.38426 -2.9289 -1.77742
3.43226 -2.8869 -1.78142
3.52126 -2.7689 -1.77942
3.52026 -2.7589 -1.77642
3.53026 -2.7489 -1.77742
3.52726 -2.7289 -1.77042
3.52526 -2.7099 -1.76542
3.55726 -2.7159 -1.77742
3.55226 -2.6949 -1.77042
3.55626 -2.6809 -1.76842
3.56326 -2.6769 -1.77042
3.56626 -2.6619 -1.76742
3.58026 -2.6549 -1.77042
3.58326 -2.6389 -1.76742
3.59226 -2.6289 -1.76742
3.61126 -2.6249 -1.77342
3.61226 -2.6089 -1.76942
3.62526 -2.6089 -1.77442
3.62626 -2.5929 -1.77042
3.63126 -2.5789 -1.76842
3.64026 -2.5689 -1.76942
3.65026 -2.5579 -1.77042
3.65526 -2.5449 -1.76842
3.66326 -2.5419 -1.77042
3.66726 -2.5269 -1.76842
3.67226 -2.5139 -1.76742
3.68426 -2.5049 -1.76942
3.71026 -2.5059 -1.77842
3.70726 -2.4869 -1.77342
3.71426 -2.4749 -1.77242
3.72226 -2.4719 -1.77442
3.73126 -2.4609 -1.77542
3.73126 -2.4439 -1.77142
3.73326 -2.4289 -1.76842
3.75326 -2.4249 -1.77442
3.76726 -2.4169 -1.77742
3.76526 -2.3989 -1.77342
3.86326 -2.2459 -1.77442
3.84626 -2.2269 -1.76442
3.86426 -2.2219 -1.77042
3.85826 -2.2019 -1.76342
3.86826 -2.1919 -1.76542
3.88826 -2.1869 -1.77142
3.88226 -2.1599 -1.76342
3.88926 -2.1469 -1.76342
3.90226 -2.1389 -1.76742
3.91526 -2.1299 -1.77042
3.92326 -2.1189 -1.77042
3.92226 -2.1019 -1.76742
3.93826 -2.0949 -1.77142
3.94526 -2.0899 -1.77342
3.93526 -2.0689 -1.76542
3.94326 -2.0579 -1.76642
3.95326 -2.0469 -1.76742
3.95626 -2.0329 -1.76642
3.96426 -2.0209 -1.76742
3.97726 -2.0119 -1.77042
3.97226 -2.0019 -1.76642
3.97826 -1.9889 -1.76642
3.98426 -1.9769 -1.76642
3.99126 -1.9639 -1.76642
3.99426 -1.9499 -1.76442
4.00826 -1.9419 -1.76842
4.01626 -1.9299 -1.76942
4.01726 -1.9229 -1.76842
4.01326 -1.9049 -1.76342
4.02926 -1.8969 -1.76842
4.02826 -1.8819 -1.76542
4.02226 -1.8629 -1.76042
4.02226 -1.8479 -1.75642
4.04226 -1.8419 -1.76342
4.05026 -1.8379 -1.76642
4.04826 -1.8209 -1.76242
4.05226 -1.8079 -1.76142
4.05726 -1.7949 -1.76142
4.06026 -1.7809 -1.76042
4.06426 -1.7669 -1.75942
4.07426 -1.7569 -1.76142
4.07726 -1.7499 -1.76142
4.08126 -1.7369 -1.76042
4.09026 -1.7259 -1.76242
4.09026 -1.7109 -1.76042
4.10026 -1.6999 -1.76242
4.10626 -1.6869 -1.76242
4.10226 -1.6709 -1.75842
4.10726 -1.6649 -1.75942
4.11726 -1.6539 -1.76142
4.10726 -1.6349 -1.75442
4.11526 -1.6229 -1.75642
4.11526 -1.6079 -1.75342
4.12426 -1.5969 -1.75542
4.13226 -1.5849 -1.75642
4.13526 -1.5789 -1.75642
4.15226 -1.5699 -1.76242
4.14626 -1.5529 -1.75742
4.13926 -1.5359 -1.75242
4.14926 -1.5249 -1.75442
4.15726 -1.5129 -1.75642
4.15926 -1.4979 -1.75442
4.17026 -1.4949 -1.75842
4.16026 -1.4769 -1.75242
4.17026 -1.4659 -1.75442
4.17126 -1.4509 -1.75342
4.18126 -1.4399 -1.75542
4.18726 -1.4279 -1.75642
4.19526 -1.4159 -1.75742
4.18526 -1.4049 -1.75242
4.19026 -1.3919 -1.75242
4.20126 -1.3809 -1.75542
4.20726 -1.3679 -1.75642
4.20426 -1.3529 -1.75342
4.20926 -1.3399 -1.75342
4.22326 -1.3369 -1.75842
4.21026 -1.3179 -1.75042
4.22226 -1.3079 -1.75442
4.23026 -1.2949 -1.75642
4.23926 -1.2839 -1.75842
4.23526 -1.2679 -1.75442
4.24426 -1.2559 -1.75642
4.24426 -1.2489 -1.75642
4.23626 -1.2319 -1.75042
4.23626 -1.2169 -1.74942
4.26626 -1.2119 -1.76042
3.22126 2.7471 -1.71642
3.21826 2.7621 -1.71942
3.20126 2.7641 -1.71542
3.20226 2.7831 -1.72042
3.18926 2.7891 -1.71842
3.17626 2.7961 -1.71542
3.16926 2.7981 -1.71442
3.16426 2.8121 -1.71642
3.16026 2.8251 -1.71942
3.14926 2.8341 -1.71842
3.13226 2.8541 -1.71842
3.10626 2.8571 -1.71142
3.10526 2.8751 -1.71542
3.09326 2.8821 -1.71442
3.08726 2.8941 -1.71542
3.07526 2.9011 -1.71442
3.06326 2.9081 -1.71242
3.06026 2.9141 -1.71342
3.06026 2.9331 -1.71942
3.03426 2.9261 -1.70842
3.03926 2.9501 -1.71742
3.01526 2.9451 -1.70842
3.00726 2.9561 -1.70942
2.99926 2.9661 -1.71042
2.99926 2.9751 -1.71242
2.97626 2.9711 -1.70442
2.97326 2.9871 -1.70842
2.96326 2.9951 -1.70742
2.96026 3.0111 -1.71142
2.94626 3.0161 -1.70942
2.94026 3.0281 -1.71142
2.93426 3.0321 -1.71042
2.92526 3.0421 -1.71142
2.90826 3.0431 -1.70642
2.90426 3.0581 -1.70942
2.89126 3.0641 -1.70742
2.88126 3.0721 -1.70742
2.87126 3.0811 -1.70742
2.86426 3.0831 -1.70542
2.85926 3.0971 -1.70842
2.84226 3.0981 -1.70342
2.84826 3.1251 -1.71442
2.82326 3.1171 -1.70442
2.81526 3.1271 -1.70542
2.81726 3.1501 -1.71342
2.80726 3.1491 -1.71042
2.79026 3.1491 -1.70542
2.79526 3.1751 -1.71542
2.76226 3.1571 -1.70042
2.76326 3.1781 -1.70742
2.75726 3.1931 -1.71042
2.74426 3.1971 -1.70742
2.73326 3.1941 -1.70342
2.73626 3.2181 -1.71242
2.71226 3.2101 -1.70342
2.70326 3.2201 -1.70342
2.70526 3.2441 -1.71242
2.68226 3.2371 -1.70342
2.67926 3.2541 -1.70842
2.67826 3.2621 -1.71142
2.65626 3.2561 -1.70342
2.64626 3.2651 -1.70342
2.64126 3.2801 -1.70742
2.62726 3.2841 -1.70442
2.61226 3.2871 -1.70142
2.61526 3.3011 -1.70742
2.60126 3.3051 -1.70442
2.59226 3.3141 -1.70542
2.59526 3.3401 -1.71542
2.56926 3.3281 -1.70342
2.56526 3.3441 -1.70842
2.55526 3.3521 -1.70842
2.53826 3.3421 -1.70042
2.53126 3.3541 -1.70342
2.53526 3.3811 -1.71342
2.50326 3.3611 -1.69842
2.50026 3.3791 -1.70342
2.49126 3.3891 -1.70442
2.47526 3.3891 -1.70042
2.46926 3.4141 -1.70742
2.44926 3.4101 -1.70142
2.43526 3.4131 -1.69942
2.43426 3.4341 -1.70642
2.40726 3.4421 -1.70242
2.39726 3.4381 -1.69842
2.39126 3.4531 -1.70242
2.36526 3.4621 -1.69942
2.33126 3.4831 -1.69842
2.30026 3.4951 -1.69542
2.28226 3.5151 -1.69842
2.25826 3.5261 -1.69642
2.25426 3.5331 -1.69842
2.24226 3.5391 -1.69742
2.21926 3.5511 -1.69642
2.19626 3.5631 -1.69642
2.17926 3.5741 -1.69642
2.16126 3.5951 -1.70042
2.13926 3.6101 -1.70042
2.11026 3.6121 -1.69542
2.07126 3.6371 -1.69642
2.04726 3.6471 -1.69442
2.02926 3.6561 -1.69442
2.02126 3.6691 -1.69742
2.00826 3.6721 -1.69642
1.99926 3.6831 -1.69842
1.98326 3.6821 -1.69442
1.97126 3.6861 -1.69342
1.96026 3.7081 -1.70042
1.93526 3.7171 -1.69842
1.91026 3.7261 -1.69642
1.89226 3.7341 -1.69642
1.85726 3.7531 -1.69642
1.84126 3.7491 -1.69242
1.83426 3.7641 -1.69642
1.79126 3.7811 -1.69542
1.73226 3.8101 -1.69642
1.71226 3.8131 -1.69342
1.67326 3.8241 -1.69142
1.66226 3.8311 -1.69242
1.63126 3.8431 -1.69142
1.61026 3.8601 -1.69442
1.59526 3.8581 -1.69142
1.58726 3.8731 -1.69642
1.48626 3.9031 -1.69242
1.41226 3.9301 -1.69242
1.39726 3.9461 -1.69642
1.37126 3.9531 -1.69542
1.35526 3.9461 -1.69042
1.35026 3.9721 -1.70042
1.33326 3.9641 -1.69442
1.31326 3.9661 -1.69242
1.29926 3.9651 -1.69042
1.28926 3.9761 -1.69342
1.27526 3.9751 -1.69142
1.24926 3.9791 -1.68942
1.23026 3.9851 -1.68942
1.19326 4.0001 -1.69142
1.18026 4.0021 -1.69042
1.16726 4.0041 -1.68942
1.16426 4.0171 -1.69442
1.13826 4.0201 -1.69242
1.12326 4.0171 -1.68942
1.04126 4.0391 -1.68942
1.00326 4.0501 -1.69042
0.985262 4.0601 -1.69242
0.960262 4.0681 -1.69342
0.932262 4.0631 -1.68842
0.922262 4.0771 -1.69342
0.914262 4.0711 -1.69042
0.904262 4.0891 -1.69642
0.890262 4.0861 -1.69442
0.877262 4.0891 -1.69442
0.862262 4.0771 -1.68842
0.854262 4.1051 -1.69942
0.834262 4.1091 -1.69942
0.820262 4.1041 -1.69642
0.808262 4.1121 -1.69842
0.792262 4.0991 -1.69142
0.782262 4.1171 -1.69842
0.755262 4.1111 -1.69342
0.749262 4.1161 -1.69542
0.733262 4.1021 -1.68842
0.720262 4.1041 -1.68842
0.708262 4.1121 -1.69042
0.682262 4.1161 -1.69042
0.670262 4.1201 -1.69142
0.663262 4.1201 -1.69042
0.640262 4.1461 -1.70042
0.624262 4.1221 -1.68842
0.612262 4.1351 -1.69342
0.599262 4.1331 -1.69242
0.578262 4.1251 -1.68742
0.566262 4.1381 -1.69242
0.552262 4.1341 -1.68942
0.528262 4.1481 -1.69442
0.513262 4.1341 -1.68742
0.500262 4.1351 -1.68742
0.495262 4.1491 -1.69242
0.468262 4.1461 -1.69042
0.455262 4.1501 -1.69142
0.442262 4.1451 -1.68842
0.416262 4.1521 -1.69042
0.383262 4.1481 -1.68742
0.344262 4.1601 -1.69142
0.312262 4.1611 -1.69042
0.272262 4.1661 -1.69142
0.246262 4.1651 -1.69042
0.200262 4.1701 -1.69142
0.174262 4.1601 -1.68642
0.154262 4.1641 -1.68842
0.128262 4.1611 -1.68642
0.0302622 4.1651 -1.68742
3.21226 -2.9539 -1.77242
3.22126 -2.9439 -1.77242
3.21726 -2.9209 -1.76442
3.25326 -2.9359 -1.78042
3.26326 -2.9169 -1.77842
3.27126 -2.9049 -1.77742
3.28626 -2.8819 -1.77642
3.29526 -2.8719 -1.77642
3.30826 -2.8649 -1.77842
3.31026 -2.8579 -1.77642
3.31326 -2.8419 -1.77342
3.33226 -2.8399 -1.77942
3.32526 -2.8169 -1.77042
3.33426 -2.8059 -1.77042
3.34426 -2.7969 -1.77142
3.34326 -2.7869 -1.76842
3.35626 -2.7799 -1.77042
3.36926 -2.7729 -1.77242
3.37426 -2.7589 -1.77042
3.39726 -2.7599 -1.77842
3.39726 -2.7419 -1.77342
3.41126 -2.7359 -1.77642
3.39726 -2.7159 -1.76642
3.40926 -2.7089 -1.76842
3.41226 -2.6929 -1.76542
3.41826 -2.6809 -1.76442
3.43526 -2.6759 -1.76842
3.44026 -2.6629 -1.76742
3.44626 -2.6499 -1.76542
3.45426 -2.6479 -1.76842
3.46026 -2.6349 -1.76642
3.47826 -2.6319 -1.77242
3.46626 -2.6059 -1.76142
3.47226 -2.5939 -1.76042
3.48926 -2.5889 -1.76442
3.49226 -2.5739 -1.76142
3.69226 -2.3299 -1.77342
3.69726 -2.3169 -1.77242
3.71326 -2.3099 -1.77642
3.71126 -2.3019 -1.77442
3.71426 -2.2869 -1.77242
3.72226 -2.2599 -1.76842
3.73526 -2.2359 -1.76842
3.72126 -2.2119 -1.75742
3.72426 -2.2059 -1.75742
3.74726 -2.2039 -1.76542
3.74826 -2.1879 -1.76242
3.76126 -2.1799 -1.76542
3.78126 -2.1749 -1.77242
3.77326 -2.1549 -1.76442
3.76726 -2.1359 -1.75842
3.77426 -2.1319 -1.76042
3.78426 -2.1069 -1.75842
3.80326 -2.1019 -1.76442
3.96526 -1.8009 -1.76842
3.95926 -1.7829 -1.76342
3.95626 -1.7669 -1.75942
3.94826 -1.7489 -1.75342
3.97626 -1.6789 -1.75242
3.99726 -1.6219 -1.75142
4.01626 -1.5859 -1.75342
4.02926 -1.5259 -1.74942
4.04626 -1.4809 -1.74942
4.06526 -1.4229 -1.74842
4.07426 -1.3979 -1.74842
4.08026 -1.3719 -1.74742
4.09226 -1.3609 -1.75042
4.11726 -1.3189 -1.75542
4.11526 -1.2759 -1.74942
4.11926 -1.2629 -1.74942
4.13626 -1.2469 -1.75342
4.12726 -1.2299 -1.74842
4.14726 -1.2219 -1.75542
4.16026 -1.2119 -1.75942
2.77826 3.0301 -1.71942
2.76726 3.0381 -1.71842
2.75326 3.0511 -1.71842
2.74026 3.0551 -1.71642
2.72226 3.0741 -1.71742
2.70926 3.0801 -1.71542
2.69226 3.0901 -1.71442
2.68926 3.1051 -1.71842
2.66726 3.1191 -1.71642
2.65126 3.1211 -1.71242
2.63926 3.1361 -1.71442
2.63026 3.1451 -1.71442
2.60826 3.1591 -1.71342
2.60026 3.1701 -1.71442
2.57626 3.1811 -1.71142
2.57126 3.1851 -1.71142
2.54826 3.1981 -1.71042
2.54726 3.2171 -1.71642
2.53626 3.2241 -1.71542
2.52326 3.2281 -1.71342
2.51126 3.2341 -1.71242
2.51126 3.2441 -1.71542
2.49026 3.2391 -1.70842
2.48626 3.2541 -1.71242
2.47726 3.2631 -1.71342
2.46426 3.2681 -1.71142
2.45426 3.2761 -1.71142
2.44826 3.2891 -1.71442
2.44026 3.2891 -1.71242
2.42826 3.2951 -1.71142
2.41726 3.3011 -1.71042
2.40726 3.3101 -1.71142
2.39526 3.3151 -1.71042
2.39026 3.3291 -1.71442
2.37626 3.3321 -1.71142
2.36826 3.3321 -1.70942
2.36226 3.3471 -1.71342
2.34926 3.3501 -1.71042
2.33626 3.3541 -1.70942
2.32626 3.3611 -1.70942
2.31126 3.3631 -1.70542
2.30226 3.3731 -1.70742
2.29626 3.3751 -1.70642
2.28826 3.3871 -1.70942
2.27226 3.3851 -1.70442
2.26626 3.3991 -1.70842
2.25126 3.4001 -1.70542
2.24226 3.4091 -1.70542
2.23226 3.4181 -1.70642
2.22826 3.4231 -1.70742
2.21426 3.4251 -1.70542
2.20426 3.4331 -1.70542
2.19526 3.4431 -1.70742
2.18126 3.4461 -1.70542
2.17126 3.4531 -1.70542
2.15826 3.4561 -1.70342
2.16026 3.4721 -1.71042
2.14926 3.4791 -1.71042
2.12926 3.4701 -1.70142
2.12126 3.4811 -1.70442
2.11526 3.4971 -1.70942
2.09726 3.4911 -1.70242
2.08726 3.5001 -1.70342
2.08226 3.5041 -1.70442
2.06726 3.5051 -1.70142
2.06226 3.5211 -1.70542
2.05226 3.5291 -1.70642
2.03726 3.5291 -1.70342
2.02126 3.5271 -1.69942
2.02126 3.5401 -1.70442
2.00426 3.5351 -1.69842
1.99826 3.5511 -1.70342
1.98426 3.5521 -1.70142
1.97326 3.5591 -1.70142
1.96426 3.5681 -1.70242
1.95326 3.5761 -1.70342
1.94326 3.5831 -1.70442
1.93726 3.5871 -1.70442
1.92426 3.5881 -1.70142
1.90926 3.5871 -1.69842
1.90326 3.6031 -1.70342
1.89226 3.6111 -1.70442
1.87926 3.6131 -1.70242
1.86626 3.6161 -1.70142
1.86126 3.6201 -1.70142
1.85226 3.6311 -1.70442
1.84026 3.6351 -1.70342
1.82426 3.6311 -1.69842
1.81426 3.6401 -1.70042
1.80326 3.6481 -1.70142
1.79026 3.6501 -1.69942
1.79026 3.6641 -1.70542
1.77126 3.6531 -1.69742
1.76426 3.6691 -1.70142
1.74926 3.6681 -1.69842
1.74226 3.6831 -1.70342
1.72826 3.6821 -1.70042
1.72026 3.6961 -1.70442
1.70926 3.6871 -1.69842
1.69926 3.6951 -1.70042
1.68726 3.7011 -1.70042
1.67626 3.7081 -1.70142
1.66326 3.7101 -1.69942
1.65526 3.7231 -1.70342
1.64026 3.7221 -1.70042
1.63226 3.7191 -1.69742
1.62126 3.7241 -1.69742
1.60626 3.7231 -1.69442
1.59726 3.7351 -1.69742
1.58626 3.7411 -1.69842
1.57726 3.7511 -1.70142
1.56026 3.7441 -1.69542
1.55526 3.7481 -1.69642
1.54426 3.7551 -1.69742
1.53526 3.7671 -1.70042
1.52126 3.7661 -1.69742
1.50826 3.7691 -1.69742
1.49826 3.7781 -1.69842
1.48426 3.7791 -1.69742
1.48126 3.7881 -1.70042
1.46726 3.7871 -1.69742
