4.40622 -1.34796 -1.74677
4.41722 -1.30596 -1.74577
4.41222 -1.28996 -1.74177
4.42322 -1.26296 -1.74377
4.43122 -1.25796 -1.74577
4.43122 -1.22796 -1.74277
4.44222 -1.21596 -1.74577
4.44622 -1.18696 -1.74477
4.44722 -1.14996 -1.74077
4.46822 -1.10996 -1.74477
4.46822 -1.09496 -1.74377
4.47122 -1.08896 -1.74477
4.48322 -1.03196 -1.74377
3.43622 2.74904 -1.70877
3.38022 2.82004 -1.70977
3.36922 2.83704 -1.70977
3.35722 2.84504 -1.70877
3.33922 2.86604 -1.70877
3.32122 2.87004 -1.70377
3.30822 2.89404 -1.70577
3.29722 2.89404 -1.70277
3.29122 2.90704 -1.70477
3.27922 2.91504 -1.70277
3.27022 2.92504 -1.70277
3.26522 2.93904 -1.70577
3.24522 2.94004 -1.69977
3.24422 2.95704 -1.70377
3.24222 2.96504 -1.70577
3.22622 2.96904 -1.70177
3.21222 2.97504 -1.69977
3.20822 2.99004 -1.70277
3.19122 2.99304 -1.69777
3.18922 3.01004 -1.70277
3.17322 3.00404 -1.69577
3.16722 3.01804 -1.69777
3.16322 3.03304 -1.70077
3.16022 3.04904 -1.70477
3.14022 3.04904 -1.69877
3.12822 3.05604 -1.69677
3.12122 3.06804 -1.69877
3.11022 3.07704 -1.69777
3.10522 3.08204 -1.69777
3.08622 3.08204 -1.69277
3.08722 3.10204 -1.69877
3.07422 3.10904 -1.69677
3.06022 3.11404 -1.69377
3.05622 3.13004 -1.69777
3.05022 3.13404 -1.69677
3.02722 3.13004 -1.68977
3.03022 3.15304 -1.69677
3.01822 3.15904 -1.69577
3.00822 3.16904 -1.69577
3.00222 3.18204 -1.69777
2.98722 3.18604 -1.69477
2.98822 3.19804 -1.69877
2.97322 3.20204 -1.69577
2.96122 3.21004 -1.69477
2.95422 3.22204 -1.69677
2.94222 3.23004 -1.69577
2.92222 3.22804 -1.68977
2.91422 3.23804 -1.68977
2.91622 3.25104 -1.69477
2.89822 3.25204 -1.68977
2.89022 3.26404 -1.69177
2.89022 3.28404 -1.69777
2.86622 3.27804 -1.68977
2.86822 3.30104 -1.69677
2.85322 3.30404 -1.69377
2.85422 3.31604 -1.69777
2.83422 3.31304 -1.69177
2.82222 3.32104 -1.69077
2.80822 3.32504 -1.68877
2.80122 3.33904 -1.69077
2.79922 3.35704 -1.69677
2.78522 3.36204 -1.69377
2.77722 3.36304 -1.69277
2.76922 3.37504 -1.69377
2.75022 3.37404 -1.68877
2.74922 3.39404 -1.69477
2.73022 3.39204 -1.68977
2.72522 3.40804 -1.69277
2.71722 3.41904 -1.69477
2.70822 3.41904 -1.69277
2.70122 3.43204 -1.69477
2.68622 3.43604 -1.69277
2.67622 3.44504 -1.69277
2.65822 3.44404 -1.68777
2.64922 3.45604 -1.68977
2.64522 3.47304 -1.69377
2.63422 3.46904 -1.68977
2.62922 3.48504 -1.69377
2.61622 3.49004 -1.69277
2.60622 3.50004 -1.69277
2.59022 3.50204 -1.68977
2.57922 3.51004 -1.68977
2.57422 3.52604 -1.69377
2.56122 3.52004 -1.68877
2.55322 3.53204 -1.69077
2.53722 3.53404 -1.68777
2.53122 3.54804 -1.69077
2.52322 3.56104 -1.69277
2.50822 3.56404 -1.69077
2.50022 3.57604 -1.69277
2.49222 3.57704 -1.69177
2.48122 3.58504 -1.69177
2.47322 3.59704 -1.69377
2.45822 3.59904 -1.69077
2.44722 3.60804 -1.69177
2.44422 3.62804 -1.69777
2.42022 3.61704 -1.68877
2.42322 3.63404 -1.69477
2.40622 3.63304 -1.69077
2.39422 3.63904 -1.68977
2.38522 3.65004 -1.69177
2.37722 3.66404 -1.69477
2.35922 3.66004 -1.68977
2.35022 3.67204 -1.69177
2.33822 3.66704 -1.68677
2.33322 3.68304 -1.69177
2.32122 3.69104 -1.69177
2.31422 3.70604 -1.69577
2.30022 3.70804 -1.69277
2.29222 3.72204 -1.69677
2.27122 3.71304 -1.68877
2.27322 3.72904 -1.69477
2.25822 3.73204 -1.69277
2.24822 3.74204 -1.69377
2.23122 3.73904 -1.68977
2.22522 3.75604 -1.69377
2.21522 3.76604 -1.69577
2.20722 3.76704 -1.69377
2.18922 3.76404 -1.68977
2.18222 3.77904 -1.69277
2.16822 3.78104 -1.69077
2.15622 3.78704 -1.69077
2.15022 3.80604 -1.69677
2.13522 3.80604 -1.69277
2.12922 3.81104 -1.69377
2.11922 3.82104 -1.69577
2.10522 3.82404 -1.69377
2.09122 3.82604 -1.69177
2.08022 3.83404 -1.69277
2.06822 3.84204 -1.69277
2.05822 3.85204 -1.69477
2.04522 3.84204 -1.68877
2.04222 3.86604 -1.69677
2.02422 3.86104 -1.69177
2.01622 3.87604 -1.69577
2.00422 3.88204 -1.69577
1.99222 3.88904 -1.69577
1.97622 3.88604 -1.69177
1.97222 3.89504 -1.69377
1.96422 3.90904 -1.69777
1.94822 3.90904 -1.69477
1.93622 3.91504 -1.69477
1.92422 3.92104 -1.69477
1.91222 3.92804 -1.69577
1.89722 3.92804 -1.69277
1.89822 3.94604 -1.69977
1.88422 3.94804 -1.69777
1.86822 3.94704 -1.69477
1.85122 3.94304 -1.68977
1.84322 3.95904 -1.69477
1.82922 3.96204 -1.69277
1.82222 3.97904 -1.69877
1.81122 3.97204 -1.69377
1.79822 3.97604 -1.69277
1.78422 3.97804 -1.69177
1.77722 3.99504 -1.69677
1.75322 3.97404 -1.68477
1.74622 3.99304 -1.69077
1.74022 4.01404 -1.69777
1.72422 3.99404 -1.68777
1.71622 4.01004 -1.69277
1.70322 4.01504 -1.69277
1.68922 4.01704 -1.69077
1.68222 4.03504 -1.69677
1.66822 4.03804 -1.69577
1.65022 4.03004 -1.68977
1.64822 4.04404 -1.69477
1.63422 4.04404 -1.69277
1.62422 4.05604 -1.69577
1.60922 4.05604 -1.69277
1.59822 4.06604 -1.69577
1.57922 4.05604 -1.68877
1.57022 4.06904 -1.69277
1.54822 4.06804 -1.68877
1.54222 4.09204 -1.69677
1.52822 4.09304 -1.69577
1.51022 4.08404 -1.68977
1.49922 4.09404 -1.69177
1.48522 4.09704 -1.69077
1.48122 4.10504 -1.69277
1.47122 4.12004 -1.69777
1.45522 4.11604 -1.69377
1.44122 4.11504 -1.69177
1.42922 4.12304 -1.69277
1.41222 4.11504 -1.68777
1.40022 4.12104 -1.68877
1.39822 4.13804 -1.69477
1.38422 4.14004 -1.69377
1.37022 4.14104 -1.69277
1.35122 4.12604 -1.68377
1.35022 4.16704 -1.69977
1.33222 4.15704 -1.69377
1.32022 4.16504 -1.69577
1.31222 4.16304 -1.69377
1.29522 4.15304 -1.68777
1.28222 4.15704 -1.68777
1.27622 4.18404 -1.69777
1.25622 4.16704 -1.68877
1.24722 4.18404 -1.69377
1.23422 4.18904 -1.69477
1.22422 4.17704 -1.68877
1.21022 4.17904 -1.68777
1.20122 4.19904 -1.69477
1.18422 4.18804 -1.68877
1.17422 4.20404 -1.69377
1.16122 4.20604 -1.69277
1.14722 4.20604 -1.69177
1.13922 4.20604 -1.69077
1.12922 4.21904 -1.69477
1.11322 4.21304 -1.69077
1.10222 4.22604 -1.69477
1.08922 4.23104 -1.69577
1.07322 4.22404 -1.69077
1.06022 4.22904 -1.69177
1.05622 4.24004 -1.69577
1.04222 4.24104 -1.69477
1.02822 4.23904 -1.69277
1.01722 4.25304 -1.69677
1.00322 4.25604 -1.69677
0.988216 4.24804 -1.69277
0.973216 4.24404 -1.68977
0.966216 4.24404 -1.68877
0.953216 4.25104 -1.68977
0.940216 4.25404 -1.68977
0.929216 4.26904 -1.69577
0.914216 4.26504 -1.69277
0.902216 4.27504 -1.69577
0.887216 4.26904 -1.69177
0.879216 4.26304 -1.68877
0.870216 4.29104 -1.69977
0.855216 4.28504 -1.69577
0.842216 4.28904 -1.69677
0.825216 4.27504 -1.68977
0.814216 4.29104 -1.69477
0.802216 4.30004 -1.69777
0.795216 4.29804 -1.69677
0.781216 4.29704 -1.69477
0.769216 4.30804 -1.69877
0.755216 4.31104 -1.69877
0.740216 4.30204 -1.69377
0.726216 4.30304 -1.69277
0.714216 4.31404 -1.69677
0.707216 4.31704 -1.69777
0.692216 4.30604 -1.69277
0.681216 4.32704 -1.69977
0.665216 4.31304 -1.69277
0.653216 4.32204 -1.69677
0.637216 4.31104 -1.69077
0.624216 4.31904 -1.69277
0.618216 4.32004 -1.69277
0.604216 4.31804 -1.69177
0.591216 4.32904 -1.69577
0.577216 4.32704 -1.69377
0.563216 4.32904 -1.69377
0.550216 4.33404 -1.69577
0.536216 4.32904 -1.69277
0.530216 4.33504 -1.69477
0.514216 4.32204 -1.68877
0.503216 4.34004 -1.69577
0.488216 4.33404 -1.69277
0.475216 4.34104 -1.69477
0.462216 4.34304 -1.69477
0.449216 4.35204 -1.69777
0.441216 4.34104 -1.69277
0.427216 4.34604 -1.69477
0.414216 4.35104 -1.69677
0.400216 4.35304 -1.69677
0.386216 4.34804 -1.69377
0.373216 4.35104 -1.69477
0.359216 4.34904 -1.69277
0.353216 4.35704 -1.69677
0.339216 4.35404 -1.69477
0.325216 4.35704 -1.69577
0.312216 4.36204 -1.69677
0.298216 4.36604 -1.69877
0.284216 4.36404 -1.69677
0.270216 4.36404 -1.69677
0.263216 4.35604 -1.69277
0.250216 4.37304 -1.69977
0.236216 4.35704 -1.69277
0.222216 4.36504 -1.69677
0.209216 4.36804 -1.69677
0.195216 4.35704 -1.69277
0.181216 4.37104 -1.69777
0.174216 4.36404 -1.69477
0.160216 4.36104 -1.69277
0.147216 4.37004 -1.69677
0.133216 4.37304 -1.69777
0.119216 4.36404 -1.69377
0.106216 4.37504 -1.69877
0.0922156 4.37404 -1.69777
0.0852156 4.37804 -1.69977
0.0722156 4.38704 -1.70277
0.0582156 4.35904 -1.69177
0.0442156 4.37304 -1.69677
0.0302156 4.37804 -1.69977
0.0162156 4.36404 -1.69277
0.00321564 4.37304 -1.69677
3.27022 -3.13196 -1.76077
3.28022 -3.12196 -1.76077
3.34022 -3.07096 -1.76477
3.43022 -2.96996 -1.76477
3.44922 -2.94796 -1.76477
3.48122 -2.90996 -1.76477
3.49922 -2.88796 -1.76477
3.50622 -2.86596 -1.76077
3.52522 -2.84496 -1.76177
3.53622 -2.81696 -1.75777
3.55322 -2.81296 -1.76277
3.55522 -2.79596 -1.75877
3.56822 -2.79696 -1.76377
3.56822 -2.77896 -1.75877
3.59122 -2.76096 -1.76177
3.59022 -2.74196 -1.75677
3.60422 -2.73496 -1.75977
3.61322 -2.72396 -1.75977
3.61822 -2.71896 -1.76077
3.62722 -2.70796 -1.76077
3.62322 -2.68796 -1.75477
3.63522 -2.67796 -1.75577
3.64222 -2.66596 -1.75477
3.65822 -2.65996 -1.75877
3.65722 -2.64196 -1.75477
3.66122 -2.63596 -1.75477
3.67722 -2.62996 -1.75777
3.67022 -2.60796 -1.75077
3.68622 -2.60196 -1.75477
3.69722 -2.59196 -1.75577
3.70222 -2.57796 -1.75477
3.71222 -2.56796 -1.75477
3.71722 -2.56296 -1.75577
3.73022 -2.55396 -1.75777
3.72122 -2.53096 -1.74977
3.75022 -2.53396 -1.76077
3.75722 -2.52096 -1.75977
3.75922 -2.50496 -1.75677
3.75622 -2.49496 -1.75377
3.77222 -2.48796 -1.75777
3.76922 -2.46996 -1.75177
3.78022 -2.45996 -1.75377
3.79122 -2.44996 -1.75477
3.79722 -2.43696 -1.75477
3.80922 -2.42796 -1.75677
3.81022 -2.41996 -1.75477
3.81422 -2.40596 -1.75377
3.83522 -2.38596 -1.75677
3.83222 -2.36696 -1.75177
3.85022 -2.36196 -1.75677
3.86322 -2.34496 -1.75777
3.87822 -2.31996 -1.75777
3.90722 -2.27096 -1.75777
3.95222 -2.18296 -1.75577
3.96822 -2.15896 -1.75677
4.19922 -1.61896 -1.74977
4.19922 -1.60396 -1.74777
4.21422 -1.57896 -1.74977
4.21622 -1.56496 -1.74777
4.22222 -1.55196 -1.74877
4.22722 -1.53896 -1.74877
4.25322 -1.46596 -1.74877
4.26322 -1.43196 -1.74777
4.27022 -1.40396 -1.74777
4.27022 -1.37496 -1.74377
4.28022 -1.35596 -1.74477
4.28722 -1.34296 -1.74677
4.29022 -1.32896 -1.74577
4.30022 -1.30296 -1.74677
4.30422 -1.28196 -1.74577
4.30722 -1.25296 -1.74377
4.32822 -1.20096 -1.74577
4.33322 -1.17996 -1.74577
4.33922 -1.15296 -1.74477
4.34922 -1.11196 -1.74477
3.39822 2.66004 -1.71077
3.38122 2.68204 -1.71077
3.37722 2.68704 -1.71077
3.35422 2.70404 -1.70777
3.34022 2.71004 -1.70477
3.33122 2.73704 -1.70877
3.32422 2.74904 -1.70977
3.31722 2.75204 -1.70777
3.29122 2.74804 -1.69877
3.29422 2.76804 -1.70477
3.28822 2.78104 -1.70677
3.27222 2.78504 -1.70277
3.25922 2.79204 -1.70077
3.25522 2.79704 -1.70077
3.23622 2.79904 -1.69477
3.23622 2.81604 -1.69977
3.22722 2.82604 -1.69977
3.21222 2.83104 -1.69677
3.20322 2.84204 -1.69677
3.18722 2.84604 -1.69277
3.18722 2.86304 -1.69777
3.17722 2.86304 -1.69377
3.16822 2.87304 -1.69377
3.16122 2.88504 -1.69577
3.14722 2.89004 -1.69277
3.14322 2.90504 -1.69577
3.13022 2.91104 -1.69377
3.12722 2.91704 -1.69377
3.11522 2.92504 -1.69277
3.10722 2.93604 -1.69377
3.10522 2.95204 -1.69777
3.08622 2.95304 -1.69177
3.06722 2.97204 -1.69177
3.06722 2.98104 -1.69377
3.01422 3.02304 -1.69077
3.00722 3.03504 -1.69277
2.99822 3.05504 -1.69577
2.98322 3.05904 -1.69277
2.98522 3.08004 -1.69977
2.96322 3.07604 -1.69177
2.95322 3.08604 -1.69177
2.94022 3.09104 -1.68977
2.93922 3.09904 -1.69177
2.92822 3.10704 -1.69077
2.91922 3.11804 -1.69177
2.91222 3.13004 -1.69377
2.89822 3.13504 -1.69077
2.88622 3.14104 -1.68977
2.88122 3.15604 -1.69277
2.87122 3.15504 -1.68977
2.86322 3.16604 -1.69077
2.85022 3.17104 -1.68877
2.83222 3.19204 -1.69077
2.82122 3.19904 -1.68977
2.81622 3.21404 -1.69277
2.80522 3.21104 -1.68877
2.79722 3.22304 -1.69077
2.78222 3.22604 -1.68777
2.77522 3.23904 -1.68977
2.76322 3.24504 -1.68777
2.73722 3.26604 -1.68777
2.72822 3.27604 -1.68877
2.71822 3.28504 -1.68877
2.70822 3.29404 -1.68877
2.69622 3.30104 -1.68777
2.68822 3.31204 -1.68977
2.67522 3.31704 -1.68777
2.63722 3.34504 -1.68777
2.61622 3.36204 -1.68777
2.60622 3.37004 -1.68777
2.56822 3.39704 -1.68677
2.56022 3.40904 -1.68877
2.54622 3.41304 -1.68677
2.51922 3.43304 -1.68677
2.49922 3.45004 -1.68777
2.44322 3.49904 -1.69077
2.42722 3.49904 -1.68677
2.41922 3.51104 -1.68877
2.39522 3.52304 -1.68777
2.38822 3.52504 -1.68677
2.37722 3.53304 -1.68677
2.37022 3.54604 -1.68977
2.35522 3.54804 -1.68677
2.33322 3.56404 -1.68777
2.32822 3.56804 -1.68777
2.31822 3.57704 -1.68777
2.30822 3.58704 -1.68977
2.29222 3.58604 -1.68577
2.28622 3.60104 -1.68977
2.26922 3.60104 -1.68577
2.25822 3.60804 -1.68577
2.26222 3.62704 -1.69377
2.24422 3.62304 -1.68777
2.23522 3.63304 -1.68977
2.22122 3.63704 -1.68777
2.21322 3.64904 -1.69077
2.19822 3.65104 -1.68777
2.19122 3.66404 -1.69077
2.18422 3.66604 -1.69077
2.16822 3.66504 -1.68677
2.15822 3.67504 -1.68777
2.14822 3.68504 -1.68977
2.13722 3.69204 -1.68977
2.12422 3.69704 -1.68877
2.11022 3.69904 -1.68677
2.11322 3.71804 -1.69377
2.09522 3.71304 -1.68877
2.08822 3.72804 -1.69277
2.07322 3.72804 -1.68977
2.06322 3.73804 -1.69077
2.04822 3.73904 -1.68877
2.03622 3.74404 -1.68777
2.03222 3.75104 -1.68977
2.01622 3.75004 -1.68677
2.00722 3.76204 -1.68877
1.99422 3.76604 -1.68777
1.98822 3.78204 -1.69277
1.97122 3.77904 -1.68777
1.96122 3.79004 -1.69077
1.94922 3.78104 -1.68477
1.93922 3.79104 -1.68677
1.93222 3.80704 -1.69077
1.91522 3.80304 -1.68677
1.90322 3.80904 -1.68677
1.89022 3.81204 -1.68477
1.88322 3.82704 -1.68977
1.87222 3.82004 -1.68477
1.83822 3.84304 -1.68777
1.81622 3.85904 -1.68977
1.80022 3.85704 -1.68577
1.79422 3.86004 -1.68577
1.77222 3.87404 -1.68777
1.76122 3.88304 -1.68877
1.74822 3.88704 -1.68777
1.72322 3.89604 -1.68777
1.71722 3.90004 -1.68777
1.70122 3.89704 -1.68377
1.69522 3.91604 -1.69077
1.68022 3.91504 -1.68777
1.65122 3.91704 -1.68377
1.64122 3.92504 -1.68477
1.63522 3.93004 -1.68577
1.62422 3.93804 -1.68777
1.61022 3.94004 -1.68577
1.59722 3.94304 -1.68477
1.56022 3.95804 -1.68477
1.54322 3.97004 -1.68777
1.52022 3.98404 -1.68877
1.50622 3.98504 -1.68777
1.48222 3.99604 -1.68777
1.47522 3.99704 -1.68777
1.44822 4.00104 -1.68477
1.43622 4.00704 -1.68577
1.42222 4.00804 -1.68377
1.40922 4.01204 -1.68377
1.40122 4.02904 -1.68977
1.38322 4.03704 -1.69077
1.36722 4.03404 -1.68777
1.35422 4.03504 -1.68577
1.34322 4.04504 -1.68777
1.32622 4.03804 -1.68377
1.31422 4.04404 -1.68377
1.30922 4.04804 -1.68477
1.29522 4.05104 -1.68377
1.28522 4.06304 -1.68777
1.27022 4.05904 -1.68377
1.25822 4.06404 -1.68477
1.24622 4.07404 -1.68777
1.23322 4.07604 -1.68677
1.22822 4.08104 -1.68777
1.21722 4.09204 -1.69077
1.20422 4.09404 -1.69077
1.18622 4.08204 -1.68377
1.17422 4.08704 -1.68377
1.16322 4.10004 -1.68777
1.15222 4.10904 -1.69077
1.14322 4.10204 -1.68677
1.13122 4.10904 -1.68777
1.11622 4.10504 -1.68477
1.10622 4.11804 -1.68877
1.09222 4.11604 -1.68677
1.07922 4.12104 -1.68777
1.06522 4.11904 -1.68477
1.05822 4.11904 -1.68377
1.04722 4.12904 -1.68777
1.03322 4.13104 -1.68677
1.02222 4.14104 -1.68977
1.00722 4.13704 -1.68677
0.995216 4.14204 -1.68777
0.986216 4.16104 -1.69377
0.976216 4.14904 -1.68777
0.963216 4.15204 -1.68777
0.953216 4.16904 -1.69377
0.937216 4.15904 -1.68877
0.924216 4.16404 -1.68977
0.910216 4.16304 -1.68777
0.896216 4.16104 -1.68577
0.890216 4.16404 -1.68677
0.878216 4.17404 -1.68977
0.863216 4.16404 -1.68377
0.853216 4.18304 -1.69077
0.838216 4.17704 -1.68777
0.823216 4.17004 -1.68377
0.812216 4.18204 -1.68777
0.807216 4.19204 -1.69077
0.793216 4.18904 -1.68877
0.781216 4.20104 -1.69277
0.767216 4.19804 -1.69077
0.751216 4.18604 -1.68377
0.739216 4.19504 -1.68777
0.728216 4.20704 -1.69077
0.719216 4.19704 -1.68677
0.707216 4.20304 -1.68777
0.693216 4.20104 -1.68677
0.680216 4.20404 -1.68677
0.667216 4.21104 -1.68877
0.655216 4.21704 -1.69077
0.640216 4.21204 -1.68777
0.633216 4.21104 -1.68677
0.620216 4.21104 -1.68577
0.609216 4.22704 -1.69177
0.594216 4.21704 -1.68677
0.580216 4.21804 -1.68677
0.566216 4.21504 -1.68377
0.547216 4.22504 -1.68777
0.535216 4.23004 -1.68877
0.522216 4.23504 -1.69077
0.509216 4.24204 -1.69277
0.496216 4.24404 -1.69277
0.482216 4.24004 -1.69077
0.469216 4.24104 -1.69077
0.462216 4.24004 -1.68977
0.449216 4.24404 -1.69077
0.436216 4.25404 -1.69377
0.423216 4.25604 -1.69377
0.408216 4.24604 -1.68977
0.395216 4.24504 -1.68877
0.382216 4.25204 -1.69077
0.375216 4.25104 -1.69077
0.362216 4.25204 -1.69077
0.349216 4.25504 -1.69077
0.335216 4.25404 -1.69077
0.322216 4.25504 -1.69077
0.308216 4.25804 -1.69077
0.295216 4.25504 -1.68977
0.288216 4.25804 -1.69077
0.275216 4.26404 -1.69277
0.261216 4.25704 -1.68977
0.248216 4.25504 -1.68777
0.235216 4.26604 -1.69277
0.222216 4.27404 -1.69577
0.209216 4.27304 -1.69477
0.202216 4.27404 -1.69477
0.188216 4.27404 -1.69477
0.175216 4.27304 -1.69377
0.161216 4.25504 -1.68677
0.148216 4.27204 -1.69377
0.135216 4.28504 -1.69877
0.121216 4.27504 -1.69377
0.114216 4.27104 -1.69277
0.101216 4.26604 -1.69077
0.0882156 4.27004 -1.69177
0.0742156 4.27204 -1.69277
0.0602156 4.26104 -1.68777
0.0472156 4.27804 -1.69477
0.0342156 4.28204 -1.69677
0.0272156 4.28404 -1.69777
0.0142156 4.27804 -1.69477
0.000215645 4.27704 -1.69377
3.17522 -3.08796 -1.75877
3.25822 -3.02296 -1.76477
3.26222 -3.00796 -1.76177
3.31522 -2.95196 -1.76277
3.32522 -2.94296 -1.76377
3.33222 -2.92996 -1.76177
3.36722 -2.89596 -1.76377
3.37022 -2.87996 -1.76077
3.37622 -2.86696 -1.75877
3.39122 -2.86096 -1.76177
3.40122 -2.85196 -1.76277
3.40522 -2.83596 -1.75977
3.46922 -2.76296 -1.76077
3.49622 -2.73096 -1.76177
3.50222 -2.71796 -1.76077
3.50622 -2.70396 -1.75777
3.51222 -2.68996 -1.75677
3.52522 -2.69196 -1.76077
3.51422 -2.66596 -1.75077
3.52622 -2.65696 -1.75277
3.53222 -2.64496 -1.75177
3.53822 -2.63196 -1.74977
3.54722 -2.62196 -1.75077
3.55522 -2.61796 -1.75277
3.56122 -2.60596 -1.75177
3.57722 -2.59996 -1.75577
3.58222 -2.58696 -1.75377
3.58722 -2.57296 -1.75277
3.58922 -2.55796 -1.74977
3.60622 -2.55296 -1.75377
3.61022 -2.54696 -1.75377
3.61722 -2.53496 -1.75377
3.62622 -2.52496 -1.75377
3.63322 -2.51196 -1.75377
3.63722 -2.49896 -1.75177
3.65022 -2.48996 -1.75377
3.66122 -2.48096 -1.75577
3.65422 -2.46796 -1.74977
3.66822 -2.45996 -1.75377
3.66922 -2.44496 -1.74977
3.68522 -2.43796 -1.75377
3.69422 -2.42796 -1.75477
3.69822 -2.41396 -1.75377
3.70122 -2.39996 -1.75077
3.72022 -2.38696 -1.75477
3.73622 -2.37996 -1.75877
3.81722 -2.21796 -1.75277
3.81722 -2.20296 -1.74977
3.82922 -2.19296 -1.75177
3.82022 -2.17196 -1.74377
3.83122 -2.17096 -1.74777
3.85522 -2.13596 -1.74977
3.86222 -2.12396 -1.74977
3.87322 -2.11496 -1.75177
3.87622 -2.10896 -1.75177
3.88522 -2.09696 -1.75277
3.88622 -2.08296 -1.74977
3.89922 -2.07396 -1.75377
3.90422 -2.06096 -1.75277
3.90622 -2.04596 -1.74977
3.92222 -2.03896 -1.75477
3.92322 -2.01596 -1.75077
3.92822 -2.00296 -1.74977
3.93622 -1.99096 -1.75077
3.94122 -1.97796 -1.74977
3.95222 -1.96796 -1.75277
3.95322 -1.94496 -1.74877
3.96522 -1.93596 -1.75177
3.96522 -1.92096 -1.74877
3.96922 -1.90696 -1.74777
3.97922 -1.89596 -1.74977
3.98122 -1.88196 -1.74777
3.99922 -1.87496 -1.75377
3.98522 -1.86096 -1.74577
3.98222 -1.84496 -1.74177
4.00022 -1.83796 -1.74677
4.01422 -1.82896 -1.75077
4.01022 -1.81196 -1.74677
4.01422 -1.79796 -1.74577
4.03322 -1.79196 -1.75177
4.02022 -1.77896 -1.74477
4.02622 -1.76596 -1.74477
4.04022 -1.75696 -1.74877
4.03022 -1.73796 -1.74177
4.03622 -1.72496 -1.74177
4.05022 -1.71596 -1.74577
4.05022 -1.70096 -1.74277
4.04922 -1.69296 -1.74177
4.06122 -1.68296 -1.74477
4.08022 -1.67596 -1.75077
4.06322 -1.65396 -1.74077
4.08422 -1.64796 -1.74777
4.07722 -1.62996 -1.74277
4.08622 -1.62596 -1.74577
4.07822 -1.60796 -1.73977
4.08422 -1.59596 -1.73977
4.09522 -1.58496 -1.74277
4.10522 -1.57396 -1.74477
4.11322 -1.56296 -1.74677
4.10822 -1.54596 -1.74177
4.11722 -1.54196 -1.74477
4.10622 -1.52296 -1.73777
4.10822 -1.50896 -1.73577
4.12822 -1.50196 -1.74277
4.13322 -1.48896 -1.74277
4.13222 -1.47396 -1.74077
4.12622 -1.45696 -1.73577
4.13422 -1.45296 -1.73877
4.13722 -1.43896 -1.73777
4.14622 -1.42796 -1.73977
4.15422 -1.41596 -1.74177
4.14622 -1.39896 -1.73577
4.16122 -1.38896 -1.74077
4.15922 -1.37396 -1.73777
4.15622 -1.36596 -1.73577
4.17422 -1.35696 -1.74177
4.18022 -1.34496 -1.74277
4.18222 -1.33096 -1.74177
4.18322 -1.31696 -1.73977
4.18222 -1.30196 -1.73777
4.19522 -1.29196 -1.74177
4.20022 -1.28596 -1.74277
4.18822 -1.26796 -1.73577
4.19222 -1.25496 -1.73577
4.21422 -1.24696 -1.74377
4.20022 -1.22796 -1.73577
4.20922 -1.20996 -1.73777
3.19722 2.74304 -1.70777
3.18022 2.74604 -1.70377
3.16822 2.75304 -1.70077
3.15922 2.76304 -1.70077
3.15222 2.77404 -1.70177
3.14622 2.77704 -1.70077
3.13622 2.78604 -1.70077
3.13122 2.80004 -1.70277
3.12622 2.81304 -1.70477
3.11822 2.82304 -1.70477
3.10122 2.82504 -1.70077
3.09022 2.83404 -1.69977
3.08422 2.83704 -1.69877
3.08522 2.85604 -1.70377
3.07322 2.86304 -1.70277
3.06022 2.86904 -1.70077
3.06322 2.89004 -1.70777
3.03822 2.88404 -1.69777
3.04222 2.89704 -1.70277
3.02322 2.89704 -1.69677
3.02722 2.91904 -1.70477
3.00222 2.91304 -1.69577
3.00122 2.93104 -1.70077
2.98822 2.93604 -1.69777
2.97922 2.94604 -1.69777
2.97422 2.95004 -1.69777
2.97122 2.96604 -1.70177
2.95422 2.96804 -1.69677
2.95022 2.98204 -1.70077
2.93522 2.98604 -1.69677
2.92922 2.99804 -1.69877
2.92422 3.01204 -1.70177
2.92122 3.01804 -1.70277
2.90222 3.01804 -1.69677
2.89222 3.02604 -1.69677
2.88122 3.03404 -1.69577
2.88322 3.05504 -1.70277
2.86222 3.05204 -1.69577
2.86322 3.07304 -1.70277
2.85122 3.06904 -1.69777
2.84522 3.08204 -1.70077
2.83822 3.09404 -1.70177
2.81822 3.09204 -1.69577
2.80622 3.09804 -1.69377
2.81022 3.12204 -1.70277
2.78422 3.11304 -1.69277
2.78922 3.12804 -1.69877
2.78022 3.13804 -1.69977
2.75922 3.13304 -1.69177
2.76322 3.15804 -1.70077
2.75022 3.16304 -1.69877
2.73422 3.16504 -1.69477
2.72022 3.16904 -1.69277
2.72922 3.19004 -1.70177
2.70022 3.17604 -1.68877
2.70022 3.19604 -1.69577
2.69422 3.21004 -1.69877
2.66622 3.21704 -1.69277
2.65722 3.22704 -1.69377
2.64722 3.22504 -1.69077
2.64022 3.25804 -1.69977
2.60822 3.26004 -1.69177
2.61622 3.29104 -1.70377
2.59222 3.27204 -1.69177
2.58922 3.28904 -1.69677
2.57622 3.29404 -1.69477
2.56022 3.29504 -1.69077
2.54822 3.30004 -1.68877
2.54922 3.32204 -1.69677
2.52922 3.31904 -1.69077
2.53222 3.33304 -1.69677
2.51822 3.33604 -1.69377
2.51122 3.34904 -1.69677
2.49022 3.34304 -1.68877
2.49922 3.37804 -1.70377
2.47022 3.36004 -1.68977
2.45922 3.36704 -1.68877
2.46322 3.38404 -1.69677
2.43022 3.40604 -1.69577
2.39922 3.40704 -1.68877
2.39922 3.43004 -1.69677
2.38522 3.42104 -1.68977
2.37222 3.42604 -1.68877
2.36722 3.44104 -1.69277
2.35422 3.44504 -1.69077
2.33922 3.44704 -1.68777
2.33322 3.46204 -1.69177
2.33022 3.46804 -1.69277
2.31322 3.46604 -1.68877
2.30822 3.48304 -1.69277
2.29422 3.48504 -1.69077
2.28022 3.48804 -1.68877
2.27722 3.50804 -1.69477
2.25722 3.50104 -1.68777
2.24622 3.50804 -1.68777
2.24822 3.52404 -1.69377
2.23722 3.53104 -1.69377
2.22222 3.53204 -1.69077
2.21622 3.54604 -1.69477
2.20222 3.54904 -1.69277
2.18422 3.55704 -1.69177
2.17022 3.55904 -1.68877
2.15722 3.56304 -1.68777
2.15222 3.57904 -1.69277
2.14222 3.58904 -1.69377
2.11422 3.59304 -1.68877
2.10622 3.59204 -1.68677
2.10022 3.60804 -1.69177
2.08622 3.61004 -1.68877
2.05122 3.62804 -1.68877
2.04122 3.63704 -1.68977
2.03122 3.66004 -1.69677
2.00322 3.66304 -1.69177
1.98522 3.65804 -1.68577
1.97622 3.66904 -1.68877
1.96222 3.68304 -1.69077
1.93322 3.68504 -1.68577
1.91322 3.70204 -1.68877
1.88222 3.71404 -1.68677
1.86122 3.73104 -1.68877
1.79922 3.76704 -1.69177
1.76122 3.78104 -1.68977
1.73322 3.78204 -1.68477
1.72922 3.78904 -1.68777
1.70322 3.79504 -1.68477
1.67922 3.80404 -1.68477
1.67122 3.81904 -1.68877
1.65522 3.81404 -1.68477
1.64922 3.81704 -1.68477
1.62622 3.82904 -1.68477
1.61422 3.83604 -1.68577
1.59122 3.84904 -1.68777
1.58122 3.85804 -1.68877
1.57122 3.85004 -1.68477
1.55822 3.85504 -1.68477
1.52322 3.87304 -1.68577
1.51022 3.87404 -1.68477
1.49822 3.87904 -1.68477
1.49422 3.88604 -1.68677
1.47122 3.90104 -1.68877
1.45822 3.90204 -1.68777
1.43422 3.91304 -1.68877
1.42022 3.91404 -1.68677
1.41722 3.92504 -1.69077
1.40022 3.91704 -1.68477
1.38822 3.92104 -1.68477
1.37922 3.93604 -1.68977
1.36522 3.93304 -1.68677
1.35622 3.95004 -1.69277
1.34322 3.95204 -1.69177
1.33622 3.95104 -1.68977
1.32122 3.94604 -1.68577
1.30822 3.95104 -1.68577
1.30022 3.96704 -1.69177
1.28422 3.96104 -1.68677
1.27322 3.97004 -1.68877
1.26422 3.96104 -1.68477
1.25222 3.96904 -1.68577
1.24022 3.97304 -1.68577
1.22922 3.98404 -1.68877
1.20822 4.00204 -1.69377
1.18922 3.98604 -1.68477
1.18822 4.00604 -1.69277
1.17222 3.99504 -1.68677
1.16222 4.01104 -1.69277
1.14622 4.00304 -1.68677
1.13522 4.01104 -1.68877
1.12122 4.01004 -1.68677
1.10922 4.01304 -1.68677
1.10622 4.02904 -1.69277
1.09222 4.02504 -1.68977
1.08422 4.04704 -1.69777
1.06622 4.03004 -1.68877
1.05422 4.03604 -1.68977
1.04022 4.03504 -1.68877
1.03122 4.05504 -1.69577
1.02122 4.04004 -1.68877
1.01222 4.05904 -1.69577
0.996216 4.05004 -1.68977
0.984216 4.05304 -1.68977
0.970216 4.05104 -1.68777
0.961216 4.07404 -1.69677
0.951216 4.08504 -1.70077
0.944216 4.08704 -1.70077
0.929216 4.08104 -1.69677
0.915216 4.07704 -1.69277
0.906216 4.09804 -1.70077
0.887216 4.07204 -1.68877
0.880216 4.10004 -1.69977
0.865216 4.09304 -1.69577
0.858216 4.09304 -1.69477
0.843216 4.08304 -1.68877
0.835216 4.11304 -1.70077
0.817216 4.09004 -1.68977
0.808216 4.10904 -1.69677
0.795216 4.11504 -1.69877
0.779216 4.10104 -1.69177
0.772216 4.09504 -1.68877
0.763216 4.12304 -1.69977
0.746216 4.10204 -1.68877
0.732216 4.09904 -1.68677
0.724216 4.12404 -1.69677
0.706216 4.09904 -1.68477
0.696216 4.11804 -1.69277
0.688216 4.11004 -1.68877
0.676216 4.11604 -1.68977
0.662216 4.11604 -1.68877
0.654216 4.14504 -1.70077
0.636216 4.11604 -1.68777
0.623216 4.11804 -1.68777
0.612216 4.13304 -1.69277
0.604216 4.12704 -1.68977
0.591216 4.12904 -1.68977
0.579216 4.13804 -1.69277
0.566216 4.13404 -1.69077
0.552216 4.12704 -1.68677
0.542216 4.15404 -1.69777
0.526216 4.13404 -1.68877
0.521216 4.14704 -1.69377
0.509216 4.15404 -1.69677
0.494216 4.14504 -1.69177
0.481216 4.14704 -1.69177
0.470216 4.15904 -1.69677
0.455216 4.14804 -1.69077
0.443216 4.16004 -1.69577
0.437216 4.16804 -1.69877
0.421216 4.14004 -1.68577
0.409216 4.15104 -1.68977
0.397216 4.16504 -1.69577
0.384216 4.15704 -1.69177
0.370216 4.15204 -1.68877
0.359216 4.17404 -1.69777
0.350216 4.14704 -1.68577
0.339216 4.17504 -1.69777
0.325216 4.16904 -1.69477
0.311216 4.14804 -1.68477
0.299216 4.17304 -1.69577
0.286216 4.16504 -1.69177
0.273216 4.16704 -1.69277
0.266216 4.16004 -1.68877
0.253216 4.17804 -1.69677
0.240216 4.16404 -1.68977
0.227216 4.17604 -1.69477
0.215216 4.19504 -1.70277
0.200216 4.17004 -1.69177
0.187216 4.17004 -1.69177
0.181216 4.18304 -1.69677
0.154216 4.16604 -1.68877
0.142216 4.17604 -1.69277
0.128216 4.16104 -1.68677
0.115216 4.17304 -1.69177
0.102216 4.17504 -1.69277
0.0952156 4.17004 -1.68977
0.0822156 4.17404 -1.69177
0.0692156 4.17604 -1.69277
0.0562156 4.17204 -1.69077
0.0432156 4.17604 -1.69277
0.0302156 4.17104 -1.68977
0.0172156 4.18204 -1.69477
0.0102156 4.17304 -1.69077
3.03222 -3.05596 -1.74777
3.06322 -3.06696 -1.76077
3.07122 -3.05596 -1.75977
3.07322 -3.03896 -1.75477
3.09122 -3.04696 -1.76277
3.12622 -3.02396 -1.76677
3.13822 -2.97896 -1.75777
3.15022 -2.97996 -1.76177
3.15122 -2.96296 -1.75677
3.16722 -2.95896 -1.76077
3.18022 -2.95296 -1.76277
3.19122 -2.94396 -1.76377
3.20122 -2.93496 -1.76477
3.21222 -2.92696 -1.76477
3.20822 -2.91396 -1.76077
3.22322 -2.90896 -1.76377
3.21722 -2.88496 -1.75477
3.23022 -2.87896 -1.75777
3.23822 -2.86796 -1.75677
3.24722 -2.85696 -1.75677
3.25422 -2.84596 -1.75577
3.26722 -2.84796 -1.76077
3.27522 -2.83696 -1.75977
3.27122 -2.81596 -1.75277
3.29022 -2.81396 -1.75777
3.28622 -2.79296 -1.75077
3.29222 -2.77996 -1.74977
3.29922 -2.77696 -1.75077
3.31622 -2.77396 -1.75577
3.31922 -2.75896 -1.75277
3.33622 -2.75496 -1.75777
3.33622 -2.73796 -1.75277
3.36122 -2.73996 -1.76177
3.34522 -2.70996 -1.74777
3.35622 -2.70996 -1.75177
3.36822 -2.70196 -1.75377
3.37922 -2.69396 -1.75477
3.39322 -2.68796 -1.75777
3.38722 -2.66596 -1.74977
3.40622 -2.66296 -1.75577
3.40522 -2.64496 -1.75077
3.41022 -2.63996 -1.75077
3.41222 -2.62496 -1.74777
3.42322 -2.61596 -1.74977
3.44522 -2.61496 -1.75677
3.43422 -2.58996 -1.74577
3.44322 -2.58096 -1.74677
3.44922 -2.57596 -1.74777
3.47522 -2.57896 -1.75777
3.65922 -2.30896 -1.75777
3.67722 -2.27296 -1.75577
3.68922 -2.24796 -1.75377
3.69122 -2.23396 -1.75177
3.69322 -2.21096 -1.74777
3.71722 -2.19396 -1.75277
3.71322 -2.17596 -1.74677
3.72722 -2.16796 -1.75077
3.73222 -2.15596 -1.74977
3.72022 -2.14096 -1.74277
3.72722 -2.12896 -1.74277
3.73222 -2.11696 -1.74177
3.74022 -2.10596 -1.74277
3.75322 -2.09796 -1.74577
3.76922 -2.09096 -1.74977
3.92222 -1.76696 -1.74577
3.92722 -1.75396 -1.74577
3.91822 -1.72096 -1.73677
3.91522 -1.70496 -1.73277
3.92222 -1.69296 -1.73377
3.92922 -1.68196 -1.73477
3.94722 -1.66696 -1.73877
3.94522 -1.63796 -1.73377
3.97322 -1.59796 -1.73877
3.99322 -1.53396 -1.73577
3.99622 -1.49896 -1.73177
4.01622 -1.47796 -1.73677
4.01222 -1.44096 -1.72977
4.03322 -1.41996 -1.73477
4.03122 -1.39096 -1.73077
4.03822 -1.36496 -1.72977
4.06122 -1.36496 -1.73877
4.05222 -1.33396 -1.73077
4.05622 -1.32096 -1.73077
4.07722 -1.29996 -1.73677
4.07422 -1.27796 -1.73277
4.07322 -1.26296 -1.73077
4.08622 -1.25296 -1.73477
4.07922 -1.23696 -1.72977
4.10622 -1.23096 -1.73977
4.08722 -1.21196 -1.72977
4.10622 -1.20996 -1.73777
2.94422 2.84104 -1.71077
2.93522 2.85004 -1.71077
2.83722 2.93404 -1.70677
2.81922 2.95204 -1.70677
2.81022 2.96104 -1.70677
2.79722 2.97504 -1.70777
2.78122 2.97804 -1.70377
2.76922 3.00204 -1.70777
2.75622 3.00604 -1.70577
2.74022 3.01804 -1.70477
2.73722 3.03304 -1.70877
2.70922 3.04104 -1.70277
2.70122 3.05104 -1.70377
2.69522 3.06304 -1.70577
2.68622 3.06404 -1.70377
2.67822 3.07304 -1.70477
2.65322 3.08304 -1.70077
2.64922 3.09804 -1.70477
2.64322 3.11104 -1.70677
2.62622 3.11104 -1.70177
2.61722 3.11104 -1.69977
2.61322 3.12604 -1.70377
2.59122 3.11904 -1.69477
2.58922 3.13704 -1.70077
2.58522 3.15204 -1.70477
2.56722 3.15004 -1.69877
2.56422 3.16704 -1.70377
2.56022 3.17204 -1.70477
2.54222 3.17004 -1.69877
2.53422 3.18104 -1.70077
2.53022 3.19604 -1.70477
2.51022 3.19104 -1.69777
2.50322 3.20304 -1.69977
2.49722 3.21504 -1.70177
2.49222 3.21904 -1.70177
2.48322 3.22904 -1.70277
2.47522 3.23904 -1.70477
2.46122 3.24304 -1.70177
2.44822 3.24604 -1.69977
2.44322 3.26104 -1.70377
2.42822 3.25204 -1.69677
2.41922 3.26104 -1.69777
2.41622 3.27904 -1.70277
2.39922 3.27704 -1.69777
2.39322 3.29104 -1.70177
2.39022 3.30904 -1.70677
2.37322 3.30604 -1.70177
2.35822 3.30704 -1.69777
2.35422 3.31204 -1.69877
2.34322 3.32004 -1.69877
2.33522 3.33004 -1.70077
2.32922 3.34304 -1.70377
2.31922 3.35204 -1.70477
2.31022 3.36104 -1.70577
2.30322 3.36304 -1.70477
2.29222 3.36904 -1.70377
2.27822 3.37204 -1.70177
2.26922 3.38004 -1.70177
2.26022 3.39004 -1.70377
2.23922 3.40404 -1.70377
2.23422 3.40904 -1.70477
2.22022 3.41004 -1.70177
2.21322 3.42304 -1.70477
2.20022 3.42704 -1.70277
2.19322 3.44004 -1.70577
2.18122 3.44604 -1.70577
2.16922 3.44904 -1.70377
2.16022 3.44804 -1.70177
2.15022 3.45704 -1.70177
2.13322 3.45204 -1.69677
2.12622 3.46504 -1.69977
2.11522 3.47204 -1.69977
2.10122 3.47404 -1.69777
2.09522 3.48804 -1.70177
2.08822 3.49004 -1.70077
2.07822 3.49704 -1.70077
2.06522 3.50004 -1.69877
2.05322 3.50504 -1.69777
2.04222 3.51104 -1.69777
2.03222 3.51904 -1.69877
2.01822 3.52104 -1.69677
2.01222 3.52404 -1.69677
2.00622 3.53804 -1.70077
1.99322 3.54104 -1.69877
1.98022 3.54404 -1.69777
1.96522 3.54404 -1.69377
1.95822 3.55804 -1.69777
1.93922 3.55004 -1.69077
1.94422 3.57204 -1.70077
1.93022 3.57404 -1.69777
1.91822 3.57804 -1.69777
1.90922 3.58704 -1.69877
1.89522 3.58904 -1.69677
1.88422 3.59404 -1.69677
1.86922 3.59404 -1.69277
1.86522 3.60004 -1.69477
1.85222 3.60304 -1.69277
1.84222 3.61204 -1.69477
1.83322 3.62104 -1.69677
1.81922 3.62204 -1.69377
1.80722 3.62604 -1.69277
1.79922 3.63904 -1.69777
1.79022 3.63604 -1.69377
1.77822 3.64004 -1.69277
1.76722 3.64504 -1.69277
1.75422 3.64904 -1.69277
1.74622 3.66104 -1.69577
1.73422 3.66704 -1.69577
1.72022 3.66604 -1.69277
1.71522 3.67004 -1.69277
1.70522 3.67904 -1.69477
1.69322 3.68404 -1.69477
1.68322 3.69304 -1.69677
1.67322 3.70104 -1.69777
1.65922 3.70104 -1.69577
1.65122 3.71304 -1.69877
1.64022 3.70604 -1.69377
1.63022 3.71404 -1.69577
1.61522 3.71304 -1.69277
1.60522 3.71904 -1.69277
1.59422 3.72604 -1.69377
1.58522 3.74004 -1.69777
1.57222 3.74104 -1.69677
1.56622 3.74404 -1.69677
1.55422 3.74704 -1.69577
1.53922 3.74504 -1.69277
1.53122 3.75804 -1.69677
1.52122 3.76604 -1.69777
1.50922 3.77304 -1.69877
1.50022 3.78304 -1.70177
1.49022 3.77504 -1.69677
1.48022 3.78604 -1.69977
1.46722 3.78704 -1.69777
1.45622 3.79404 -1.69877
1.44122 3.79104 -1.69577
1.43222 3.80304 -1.69877
1.42722 3.80704 -1.69977
1.41222 3.80404 -1.69677
1.40222 3.81404 -1.69877
1.39122 3.82004 -1.69977
1.37522 3.81404 -1.69477
1.36422 3.82204 -1.69677
1.35422 3.83004 -1.69777
1.34522 3.82504 -1.69477
1.33722 3.83904 -1.69977
1.32522 3.84404 -1.69977
1.31422 3.85104 -1.70177
1.29822 3.84304 -1.69577
1.28922 3.85804 -1.70077
1.27622 3.86004 -1.69977
1.27022 3.86204 -1.69977
1.25822 3.86604 -1.69977
1.24522 3.86804 -1.69877
1.23522 3.87704 -1.70177
1.22022 3.87404 -1.69777
1.21022 3.88504 -1.70177
1.19722 3.88504 -1.69977
1.19222 3.89004 -1.70177
1.17922 3.89104 -1.69977
1.16822 3.89804 -1.70177
1.15522 3.90204 -1.70177
1.14322 3.90504 -1.70177
1.13222 3.91404 -1.70377
1.11922 3.91404 -1.70177
1.11422 3.91904 -1.70377
1.09922 3.91204 -1.69877
1.08622 3.91604 -1.69877
1.07722 3.93004 -1.70377
1.06122 3.92104 -1.69777
1.04722 3.91904 -1.69577
1.03922 3.93804 -1.70277
1.03022 3.92704 -1.69777
1.01822 3.93004 -1.69777
1.00922 3.94604 -1.70277
0.995216 3.94504 -1.70177
0.960216 3.96204 -1.70477
0.953216 3.96104 -1.70377
0.928216 3.96704 -1.70377
0.915216 3.96704 -1.70177
0.890216 3.97204 -1.70177
0.860216 3.98504 -1.70477
0.846216 3.98204 -1.70177
0.822216 3.98904 -1.70277
0.809216 3.99204 -1.70277
0.789216 3.99004 -1.70077
0.778216 4.00104 -1.70477
0.751216 3.99504 -1.69977
0.738216 3.99604 -1.69877
0.728216 4.01104 -1.70477
0.713216 4.00204 -1.69977
0.707216 4.00204 -1.69877
0.695216 4.01104 -1.70177
0.682216 4.00804 -1.69977
0.670216 4.01404 -1.70177
0.659216 4.02304 -1.70477
0.644216 4.01204 -1.69877
0.629216 4.00304 -1.69377
0.625216 4.01304 -1.69777
0.610216 4.00104 -1.69177
0.599216 4.01704 -1.69777
0.588216 4.02604 -1.70177
0.573216 4.01404 -1.69477
0.562216 4.02604 -1.69977
0.549216 4.02804 -1.69977
0.542216 4.02004 -1.69577
0.530216 4.02904 -1.69877
0.518216 4.03804 -1.70177
0.504216 4.02804 -1.69777
0.493216 4.03704 -1.70077
0.479216 4.03504 -1.69877
0.467216 4.03504 -1.69777
0.461216 4.04304 -1.70177
0.448216 4.03904 -1.69877
0.435216 4.04004 -1.69877
0.422216 4.04204 -1.69877
0.410216 4.05004 -1.70177
0.397216 4.04404 -1.69877
0.385216 4.05304 -1.70177
0.378216 4.04804 -1.69977
0.366216 4.05404 -1.70177
0.353216 4.05004 -1.69977
0.341216 4.06204 -1.70477
0.327216 4.05004 -1.69877
0.315216 4.05704 -1.70177
0.302216 4.05604 -1.70077
0.295216 4.05504 -1.69977
0.283216 4.05704 -1.70077
0.270216 4.06204 -1.70177
0.258216 4.06504 -1.70277
0.244216 4.05804 -1.69977
0.231216 4.05304 -1.69777
0.219216 4.06304 -1.70177
0.212216 4.05804 -1.69877
0.200216 4.06604 -1.70177
0.187216 4.06304 -1.70077
0.174216 4.05804 -1.69777
0.162216 4.06404 -1.70077
0.136216 4.06504 -1.70077
0.130216 4.06504 -1.70077
0.117216 4.06604 -1.70077
0.104216 4.06004 -1.69777
0.0912156 4.06804 -1.70177
0.0792156 4.06604 -1.70077
0.0662156 4.06704 -1.70077
0.0532156 4.07104 -1.70177
0.0472156 4.07204 -1.70277
0.0342156 4.07104 -1.70177
0.0212156 4.07404 -1.70377
0.00821565 4.07104 -1.70177
2.86222 -3.04196 -1.74977
2.87522 -3.03696 -1.75177
2.90922 -3.05296 -1.76677
2.90122 -3.03496 -1.75877
2.92122 -3.03696 -1.76577
2.55122 3.06104 -1.70877
2.43422 3.15504 -1.70877
2.38822 3.18704 -1.70777
2.35722 3.20804 -1.70777
2.29222 3.25704 -1.70777
2.27722 3.26804 -1.70777
2.26722 3.27504 -1.70777
2.18922 3.32804 -1.70777
2.14122 3.35804 -1.70777
2.13122 3.36504 -1.70777
2.04822 3.41004 -1.70577
2.03822 3.41604 -1.70577
2.02822 3.42404 -1.70677
1.99922 3.43704 -1.70477
1.97922 3.45204 -1.70677
1.94022 3.47204 -1.70577
1.92522 3.47004 -1.70177
1.91922 3.48604 -1.70677
1.89422 3.49104 -1.70277
1.88422 3.49904 -1.70377
1.87122 3.50204 -1.70277
1.86422 3.50104 -1.70077
1.84822 3.52404 -1.70677
1.83322 3.52404 -1.70277
1.82522 3.53404 -1.70577
1.80222 3.54404 -1.70477
1.79622 3.54704 -1.70477
1.78622 3.55404 -1.70577
1.76322 3.56504 -1.70577
1.75022 3.56604 -1.70277
1.72922 3.58004 -1.70477
1.69822 3.58904 -1.70277
1.65922 3.60904 -1.70277
1.64922 3.61604 -1.70377
1.63822 3.62104 -1.70377
1.18422 3.79704 -1.70577
1.11722 3.81204 -1.70277
1.08122 3.82404 -1.70377
1.06922 3.82704 -1.70377
1.05122 3.83204 -1.70377
1.00222 3.84304 -1.70277
0.979216 3.85304 -1.70477
0.972216 3.85104 -1.70277
0.947216 3.85404 -1.70177
0.912216 3.86804 -1.70377
0.845216 3.88104 -1.70277
0.815216 3.89104 -1.70477
0.803216 3.89604 -1.70577
0.778216 3.90104 -1.70577
0.766216 3.90104 -1.70477
0.735216 3.90904 -1.70577
0.710216 3.91004 -1.70377
0.696216 3.89904 -1.69777
0.674216 3.92004 -1.70577
0.662216 3.92204 -1.70577
0.643216 3.92204 -1.70377
0.630216 3.92404 -1.70377
0.606216 3.93104 -1.70577
0.594216 3.93304 -1.70577
0.581216 3.93504 -1.70577
0.574216 3.92704 -1.70177
0.562216 3.93204 -1.70277
0.550216 3.93204 -1.70277
0.538216 3.93704 -1.70377
0.524216 3.93004 -1.69977
0.513216 3.93904 -1.70277
0.500216 3.93504 -1.70077
0.495216 3.94504 -1.70477
0.482216 3.94604 -1.70477
0.469216 3.94404 -1.70277
0.457216 3.94204 -1.70177
0.445216 3.95204 -1.70577
0.431216 3.94104 -1.69977
0.419216 3.94604 -1.70177
0.389216 3.95804 -1.70577
0.333216 3.96304 -1.70577
0.283216 3.96604 -1.70477
0.258216 3.96704 -1.70477
0.252216 3.96804 -1.70477
0.227216 3.97104 -1.70577
0.190216 3.97304 -1.70577
0.146216 3.97504 -1.70577
2.73122 -3.02296 -1.74977
2.75122 -3.02596 -1.75677
2.77322 -3.03096 -1.76577
2.78422 -3.02396 -1.76577
2.62022 -3.01096 -1.75377
2.62922 -3.00296 -1.75377
2.64122 -3.00696 -1.75877
2.66122 -3.01096 -1.76677
20.8082 0.32004 0.904226
20.4452 0.41104 0.892226
20.2252 0.47004 0.884226
19.1962 0.71604 0.850226
18.9882 0.76804 0.843226
18.5932 0.86804 0.830226
17.8862 1.03104 0.806226
17.5502 1.12204 0.795226
16.9212 1.26804 0.774226
15.0072 1.74004 0.711226
14.8552 1.77004 0.706226
20.7542 0.32904 0.770226
20.5092 0.39004 0.763226
19.4422 0.64604 0.734226
19.2562 0.70104 0.729226
17.8892 1.01904 0.692226
17.0732 1.21604 0.670226
16.9232 1.25904 0.666226
16.7762 1.30104 0.662226
16.3632 1.39904 0.651226
15.3602 1.63204 0.624226
15.2282 1.66604 0.621226
15.0952 1.70004 0.617226
14.9912 1.73604 0.614226
14.8402 1.76604 0.610226
22.5482 -0.10496 0.819226
22.0182 0.0180396 0.701226
21.0032 0.28004 0.678226
19.4402 0.65504 0.642226
17.9222 1.02504 0.608226
17.6082 1.09004 0.601226
17.4472 1.13404 0.597226
17.2812 1.17804 0.594226
16.5382 1.36104 0.577226
16.3782 1.40004 0.574226
16.2162 1.43704 0.570226
16.0662 1.47404 0.567226
15.6682 1.56104 0.558226
15.5302 1.59704 0.555226
14.7802 1.77704 0.538226
23.7032 -0.38796 0.739226
23.3782 -0.30896 0.732226
23.0832 -0.23296 0.725226
22.8112 -0.15896 0.719226
22.0952 0.00803959 0.535226
20.5902 0.36504 0.512226
20.3732 0.42504 0.509226
20.1182 0.48404 0.505226
19.3182 0.67804 0.493226
19.1102 0.73104 0.490226
18.9052 0.78304 0.487226
17.8072 1.04704 0.470226
17.6182 1.09204 0.467226
17.1342 1.19804 0.460226
16.9732 1.24104 0.458226
16.8232 1.28304 0.455226
16.4202 1.38304 0.449226
16.2322 1.41904 0.447226
16.0802 1.45604 0.444226
15.9422 1.49504 0.442226
15.8002 1.53204 0.440226
15.4882 1.60004 0.436226
15.2712 1.65104 0.432226
15.1412 1.68504 0.430226
15.0162 1.71904 0.429226
14.8892 1.75204 0.427226
14.7572 1.78404 0.425226
22.9282 -0.20896 0.548226
22.6432 -0.13496 0.543226
22.3652 -0.0629604 0.539226
20.1312 0.48404 0.402226
19.3902 0.64804 0.394226
19.2102 0.70204 0.393226
18.6492 0.82804 0.387226
17.8702 1.01704 0.379226
17.0782 1.21404 0.371226
16.9172 1.25504 0.370226
16.7612 1.29604 0.368226
15.8722 1.50304 0.359226
15.7302 1.53904 0.358226
15.3762 1.62604 0.355226
15.2532 1.66104 0.353226
15.1212 1.69404 0.352226
14.8632 1.76004 0.350226
22.7322 -0.16396 0.428226
22.4352 -0.0919604 0.425226
22.1812 -0.0209604 0.422226
18.6142 0.84804 0.257226
21.7622 0.0720396 0.164226
21.5122 0.13904 0.164226
18.7022 0.82304 0.168226
17.6412 1.08004 0.170226
16.3822 1.39004 0.172226
15.5622 1.59004 0.173226
23.7472 -0.40396 0.161226
21.8402 0.0560396 0.0252259
20.6012 0.34504 0.0352259
20.3662 0.40604 0.0362259
20.1202 0.46404 0.0382259
19.3102 0.65904 0.0452259
19.1242 0.71304 0.0462259
18.9002 0.76504 0.0482259
18.6192 0.84204 0.0502259
17.7982 1.03004 0.0562259
17.6252 1.07604 0.0582259
17.4622 1.12104 0.0592259
16.9822 1.22504 0.0632259
16.8302 1.26704 0.0642259
16.6762 1.30904 0.0652259
16.5232 1.34904 0.0662259
16.3752 1.38904 0.0672259
15.7872 1.51504 0.0722259
15.6572 1.55204 0.0732259
15.5232 1.58904 0.0742259
15.2782 1.63704 0.0762259
15.1582 1.67204 0.0772259
15.0312 1.70604 0.0782259
14.9032 1.73904 0.0792259
14.7722 1.77104 0.0802259
22.9542 -0.23096 0.0162259
22.6612 -0.15696 0.0182259
22.3892 -0.0839604 0.0202259
22.1242 -0.0129604 0.0232259
22.0402 0.00603959 -0.111774
21.7462 0.0740396 -0.107774
20.5272 0.35804 -0.0907741
20.2902 0.41804 -0.0877741
20.1032 0.47704 -0.0847741
19.2572 0.66804 -0.0737741
19.0672 0.72104 -0.0707741
18.8492 0.77204 -0.0677741
18.6602 0.82204 -0.0647741
17.9372 0.98704 -0.0547741
17.7842 1.03504 -0.0527741
17.6002 1.07904 -0.0507741
17.4422 1.12404 -0.0477741
17.2672 1.16704 -0.0457741
17.1282 1.18504 -0.0437741
16.9622 1.22604 -0.0417741
16.8092 1.26804 -0.0397741
16.6552 1.30904 -0.0377741
16.5142 1.35004 -0.0357741
16.3562 1.38804 -0.0337741
15.7742 1.51304 -0.0257741
15.6302 1.54904 -0.0237741
15.5342 1.58804 -0.0217741
15.3972 1.62304 -0.0197741
15.2822 1.63504 -0.0187741
15.1512 1.66904 -0.0167741
15.0232 1.70204 -0.0147741
14.8942 1.73504 -0.0137741
14.7582 1.76604 -0.0117741
22.8412 -0.20796 -0.123774
22.5722 -0.13496 -0.119774
22.2942 -0.0639604 -0.115774
21.9172 0.0210396 -0.262774
21.6492 0.0890396 -0.257774
21.3992 0.15604 -0.252774
21.0962 0.22004 -0.245774
19.1692 0.68504 -0.205774
18.9732 0.73804 -0.201774
18.7752 0.78904 -0.197774
17.8742 1.00604 -0.178774
17.6832 1.05104 -0.174774
17.5302 1.09704 -0.171774
17.3512 1.14104 -0.167774
17.1912 1.18504 -0.164774
16.8782 1.24404 -0.158774
16.7152 1.28504 -0.154774
16.5672 1.32604 -0.151774
16.4312 1.36804 -0.149774
16.0042 1.45904 -0.140774
15.8582 1.49704 -0.137774
15.7202 1.53404 -0.134774
15.5902 1.57104 -0.131774
15.4252 1.60304 -0.128774
15.0722 1.68704 -0.121774
14.9482 1.72104 -0.118774
14.8252 1.75404 -0.116774
23.9282 -0.46796 -0.305774
23.6242 -0.38696 -0.298774
22.4692 -0.11996 -0.274774
22.1892 -0.0489604 -0.268774
21.8652 0.0390396 -0.373774
21.6032 0.10604 -0.367774
20.6352 0.32704 -0.341774
20.3862 0.38704 -0.335774
20.1832 0.44604 -0.330774
19.3472 0.63904 -0.308774
19.1772 0.69404 -0.304774
18.9332 0.74404 -0.297774
17.8542 1.00904 -0.270774
17.0622 1.20604 -0.249774
16.8812 1.24604 -0.245774
16.7512 1.28904 -0.241774
16.5882 1.32904 -0.237774
16.1172 1.44304 -0.225774
15.8472 1.49404 -0.218774
15.7172 1.53104 -0.215774
15.5872 1.56804 -0.212774
15.1032 1.68604 -0.200774
14.8372 1.75104 -0.193774
24.1472 -0.52396 -0.433774
23.8462 -0.44296 -0.425774
22.6922 -0.17296 -0.395774
22.3972 -0.10096 -0.387774
22.1352 -0.0299604 -0.380774
21.1992 0.19004 -0.482774
20.0872 0.46504 -0.447774
19.3522 0.63204 -0.423774
17.3722 1.11704 -0.361774
17.2052 1.16004 -0.356774
17.0532 1.20404 -0.351774
16.8962 1.24704 -0.346774
16.6032 1.30404 -0.337774
15.9742 1.45804 -0.317774
15.8422 1.49604 -0.313774
15.3392 1.62004 -0.297774
15.2112 1.65504 -0.293774
15.0862 1.69004 -0.290774
23.3562 -0.34396 -0.551774
23.0712 -0.26696 -0.542774
22.7882 -0.19196 -0.533774
21.9112 0.0130396 -0.649774
21.6692 0.0800396 -0.639774
21.4012 0.14604 -0.629774
20.2402 0.42304 -0.584774
20.0032 0.48104 -0.575774
19.8042 0.53804 -0.568774
19.5742 0.59304 -0.559774
18.9822 0.72304 -0.536774
18.7722 0.77404 -0.528774
18.5702 0.82404 -0.521774
17.7482 1.03804 -0.489774
16.7752 1.27104 -0.453774
16.6322 1.31204 -0.447774
16.4482 1.35004 -0.440774
15.4652 1.58604 -0.403774
14.8732 1.73704 -0.381774
24.2272 -0.55396 -0.738774
23.9232 -0.47196 -0.726774
23.6112 -0.39196 -0.714774
22.2052 -0.0569604 -0.660774
20.5772 0.33504 -0.720774
20.3402 0.39504 -0.709774
19.2842 0.64904 -0.663774
19.0682 0.70204 -0.653774
18.3372 0.87804 -0.621774
18.1452 0.92604 -0.612774
17.9862 0.97504 -0.606774
17.8112 1.02204 -0.598774
17.3142 1.13004 -0.576774
17.1372 1.17304 -0.568774
16.9762 1.21604 -0.561774
16.8142 1.25804 -0.554774
16.6692 1.30004 -0.548774
16.5332 1.31504 -0.542774
16.3762 1.35504 -0.535774
16.2262 1.39404 -0.529774
16.0842 1.43304 -0.523774
15.9502 1.47204 -0.517774
15.8072 1.50904 -0.511774
15.6602 1.54504 -0.504774
15.5392 1.55804 -0.499774
15.4052 1.59304 -0.493774
15.2782 1.62904 -0.488774
15.1522 1.66404 -0.482774
15.0312 1.69904 -0.477774
14.9012 1.73204 -0.472774
24.1272 -0.52196 -0.878774
22.9082 -0.24196 -0.823774
22.6512 -0.16796 -0.812774
22.3462 -0.0949604 -0.798774
20.5302 0.34204 -0.836774
20.2962 0.40104 -0.824774
19.0382 0.70404 -0.761774
18.8562 0.75604 -0.752774
18.1392 0.92604 -0.717774
17.9442 0.97304 -0.707774
17.7952 1.02004 -0.700774
17.5972 1.06404 -0.690774
17.1262 1.17004 -0.666774
16.9482 1.21104 -0.658774
16.8112 1.25404 -0.651774
16.6442 1.29404 -0.643774
16.5062 1.33604 -0.636774
16.0722 1.42704 -0.615774
15.9282 1.46404 -0.608774
15.7682 1.49904 -0.600774
15.6522 1.53804 -0.594774
15.1402 1.65504 -0.569774
15.0152 1.68904 -0.563774
14.8912 1.72204 -0.557774
14.7632 1.75404 -0.551774
22.8392 -0.22696 -0.951774
22.5782 -0.15396 -0.938774
22.2912 -0.0819604 -0.924774
22.0212 -0.0119604 -0.910774
21.8792 0.00903959 -1.04277
21.6252 0.0770396 -1.02877
20.4082 0.36304 -0.959774
20.1832 0.42204 -0.946774
19.9502 0.48104 -0.933774
18.9192 0.72504 -0.876774
18.7432 0.77704 -0.866774
18.5492 0.82804 -0.855774
18.0302 0.94704 -0.826774
17.8392 0.99404 -0.815774
17.6812 1.04104 -0.807774
17.4942 1.08504 -0.796774
17.0172 1.19104 -0.770774
16.8502 1.23204 -0.760774
16.7002 1.27404 -0.752774
16.5512 1.31604 -0.744774
16.3892 1.35504 -0.735774
15.9742 1.44804 -0.712774
15.8192 1.48404 -0.703774
15.7012 1.52304 -0.697774
15.5472 1.55704 -0.689774
15.4312 1.59504 -0.682774
15.1872 1.64204 -0.669774
15.0602 1.67704 -0.662774
14.9462 1.71204 -0.656774
14.7992 1.74204 -0.648774
24.1942 -0.56296 -1.17377
23.8792 -0.47996 -1.15577
23.5592 -0.39996 -1.13777
22.1522 -0.0609604 -1.05877
21.6932 0.0560396 -1.14777
20.5022 0.34104 -1.07477
20.2922 0.40104 -1.06177
20.0472 0.45904 -1.04677
19.6112 0.57204 -1.01977
19.0232 0.70304 -0.983774
18.8212 0.75504 -0.971774
18.4552 0.85604 -0.948774
17.7772 1.01904 -0.907774
16.4972 1.33504 -0.829774
15.6512 1.53804 -0.778774
15.3772 1.60804 -0.762774
23.9692 -0.50096 -1.28877
23.6602 -0.41996 -1.26977
21.9862 -0.0119604 -1.16577
20.5612 0.33304 -1.22177
19.6712 0.53604 -1.16077
19.4582 0.59204 -1.14577
19.2422 0.64604 -1.13177
19.0352 0.69904 -1.11677
18.4872 0.82504 -1.07977
18.3012 0.87504 -1.06677
18.1342 0.92404 -1.05577
17.9402 0.97104 -1.04277
17.5912 1.06404 -1.01877
17.4402 1.08204 -1.00877
17.2732 1.12704 -0.997774
17.1142 1.17004 -0.986774
16.9612 1.21404 -0.976774
16.3562 1.35204 -0.935774
16.2152 1.39204 -0.926774
16.0652 1.43004 -0.916774
15.9352 1.46904 -0.907774
15.7882 1.50604 -0.897774
15.5202 1.55504 -0.879774
15.3822 1.59004 -0.870774
15.2442 1.62404 -0.861774
15.1382 1.66104 -0.854774
15.0062 1.69504 -0.845774
14.8812 1.72804 -0.837774
24.0142 -0.52096 -1.45977
23.1682 -0.31996 -1.40077
22.8832 -0.24296 -1.38077
22.5952 -0.16896 -1.36077
22.3202 -0.0969604 -1.34277
21.5282 0.0870396 -1.39377
21.2692 0.15204 -1.37477
20.7172 0.27804 -1.33377
19.9012 0.48504 -1.27377
19.6982 0.54104 -1.25977
19.4852 0.59604 -1.24377
18.5302 0.82804 -1.17377
17.4842 1.08304 -1.09777
17.3192 1.12704 -1.08577
19.1232 0.66504 -1.34277
18.9322 0.71904 -1.32777
18.7402 0.77104 -1.31277
18.2082 0.89304 -1.26977
18.0282 0.94104 -1.25577
17.8502 0.98804 -1.24177
17.6792 1.03504 -1.22877
17.1792 1.14204 -1.18877
17.0132 1.18404 -1.17577
16.8682 1.22804 -1.16477
16.7132 1.27004 -1.15277
16.1412 1.40604 -1.10777
16.0002 1.44404 -1.09677
15.8582 1.48204 -1.08577
15.2012 1.63904 -1.03477
15.0772 1.67304 -1.02477
