3.68817 4.03197 -0.0796632
3.66817 4.03597 -0.0796632
3.49317 4.08097 -0.0746632
3.29517 4.12897 -0.0706632
3.12217 4.17397 -0.0666632
3.03817 4.19897 -0.0656632
2.23117 4.39697 -0.0526632
1.77217 4.51597 -0.0486632
1.69117 4.53997 -0.0486632
1.64617 4.54997 -0.0486632
1.63017 4.54797 -0.0476632
1.56417 4.56897 -0.0476632
1.52617 4.57297 -0.0476632
1.49717 4.58297 -0.0476632
4.30617 3.88597 -0.133663
4.29017 3.88297 -0.132663
4.27917 3.89797 -0.132663
4.25817 3.90297 -0.132663
4.22517 3.89797 -0.130663
4.21717 3.91497 -0.131663
4.19217 3.91597 -0.129663
4.17017 3.92097 -0.129663
4.16117 3.92497 -0.129663
4.13617 3.92597 -0.128663
4.12117 3.93597 -0.127663
4.10317 3.94297 -0.127663
4.07617 3.94197 -0.126663
4.05617 3.94797 -0.125663
4.03917 3.95697 -0.125663
4.02517 3.95497 -0.124663
4.01117 3.96597 -0.124663
3.98117 3.96197 -0.123663
3.96317 3.96897 -0.122663
3.77317 4.02397 -0.117663
3.75217 4.02797 -0.116663
3.73317 4.03197 -0.116663
3.70917 4.03197 -0.115663
3.69317 4.03897 -0.115663
3.67017 4.04097 -0.114663
3.66017 4.04197 -0.113663
3.63917 4.04497 -0.113663
3.62817 4.05697 -0.113663
3.60317 4.05497 -0.112663
3.58617 4.06197 -0.112663
3.56617 4.06497 -0.111663
3.54817 4.06997 -0.110663
3.53517 4.06797 -0.110663
3.52217 4.07897 -0.110663
3.50417 4.08397 -0.109663
3.49117 4.09497 -0.109663
3.46817 4.09397 -0.108663
3.44717 4.09497 -0.108663
3.43417 4.10597 -0.108663
3.40117 4.10597 -0.107663
3.38017 4.10697 -0.106663
3.37017 4.12097 -0.106663
3.34917 4.12197 -0.105663
3.33217 4.12797 -0.105663
3.31717 4.13497 -0.105663
3.30417 4.13297 -0.104663
3.28617 4.13697 -0.104663
3.27117 4.14397 -0.104663
3.25517 4.15097 -0.103663
3.23317 4.14997 -0.103663
3.21317 4.15097 -0.102663
3.19717 4.15797 -0.102663
3.19017 4.16097 -0.102663
3.17417 4.16797 -0.101663
3.15517 4.16997 -0.101663
3.13817 4.17497 -0.100663
3.11817 4.17597 -0.100663
3.10817 4.18997 -0.100663
3.08717 4.18897 -0.0996632
3.07817 4.18997 -0.0996632
3.06417 4.19797 -0.0996632
3.04617 4.20097 -0.0996632
3.02517 4.20097 -0.0986632
3.01017 4.20797 -0.0986632
2.99517 4.21497 -0.0986632
2.97517 4.21497 -0.0976632
2.96417 4.21297 -0.0966632
2.94717 4.21797 -0.0966632
2.93617 4.22997 -0.0966632
2.91717 4.23097 -0.0966632
2.90517 4.24197 -0.0966632
2.87917 4.23297 -0.0956632
2.86817 4.24497 -0.0956632
2.85717 4.24297 -0.0946632
2.83817 4.24397 -0.0946632
2.82417 4.25097 -0.0946632
2.80517 4.25197 -0.0936632
2.79517 4.26497 -0.0936632
2.77717 4.26697 -0.0936632
2.76217 4.25997 -0.0926632
2.74817 4.26697 -0.0926632
2.73817 4.28097 -0.0926632
2.71717 4.27797 -0.0926632
2.70017 4.28097 -0.0916632
2.68917 4.29297 -0.0926632
2.67217 4.29597 -0.0916632
2.66117 4.29397 -0.0916632
2.64117 4.29197 -0.0906632
2.63017 4.30297 -0.0906632
2.61317 4.30697 -0.0906632
2.60017 4.31497 -0.0906632
2.58617 4.32297 -0.0906632
2.56717 4.32297 -0.0896632
2.55917 4.32297 -0.0896632
2.54017 4.32297 -0.0896632
2.52417 4.32697 -0.0886632
2.51117 4.33497 -0.0886632
2.49617 4.34097 -0.0886632
2.47717 4.33997 -0.0886632
2.46417 4.34797 -0.0886632
2.45417 4.34697 -0.0876632
2.44217 4.35797 -0.0886632
2.40717 4.35897 -0.0876632
2.39317 4.36697 -0.0876632
2.37917 4.37197 -0.0876632
2.36017 4.37097 -0.0866632
2.35617 4.37997 -0.0866632
2.33817 4.37997 -0.0866632
2.32317 4.38397 -0.0866632
2.30717 4.38797 -0.0856632
2.28917 4.38597 -0.0856632
2.27917 4.40097 -0.0856632
2.26317 4.40397 -0.0856632
2.25417 4.40397 -0.0856632
2.23517 4.40097 -0.0846632
2.22017 4.40597 -0.0846632
2.20717 4.41497 -0.0846632
2.19317 4.42197 -0.0846632
2.17417 4.41797 -0.0846632
2.16017 4.42497 -0.0846632
2.15217 4.42597 -0.0836632
2.10917 4.44297 -0.0836632
2.07817 4.44997 -0.0836632
2.06317 4.45497 -0.0836632
2.05017 4.44597 -0.0826632
2.02217 4.45697 -0.0826632
2.00917 4.46697 -0.0826632
1.96317 4.47597 -0.0826632
1.92417 4.48197 -0.0816632
1.91117 4.49197 -0.0816632
1.89317 4.48897 -0.0816632
1.87917 4.49497 -0.0816632
1.86717 4.50397 -0.0816632
1.85717 4.50197 -0.0806632
1.84217 4.50597 -0.0806632
1.82717 4.50997 -0.0806632
1.81217 4.51297 -0.0806632
1.79717 4.51497 -0.0806632
1.75917 4.52397 -0.0806632
1.74317 4.52597 -0.0796632
1.73017 4.53297 -0.0796632
1.71317 4.53297 -0.0796632
1.68417 4.54197 -0.0796632
1.67117 4.54897 -0.0796632
1.64617 4.54897 -0.0796632
1.62917 4.54697 -0.0786632
1.61417 4.54997 -0.0786632
1.60317 4.56197 -0.0796632
1.57417 4.57197 -0.0796632
1.56817 4.57697 -0.0796632
1.54717 4.56497 -0.0786632
1.53617 4.57697 -0.0786632
1.52117 4.57997 -0.0786632
1.49017 4.58397 -0.0786632
1.47417 4.58297 -0.0776632
1.46617 4.58497 -0.0776632
1.45417 4.59697 -0.0786632
1.43917 4.59997 -0.0786632
1.41317 4.61597 -0.0786632
1.39317 4.60397 -0.0776632
1.35817 4.61797 -0.0776632
1.28417 4.63297 -0.0776632
1.20217 4.65097 -0.0776632
1.19617 4.65697 -0.0776632
1.18217 4.66397 -0.0776632
1.16717 4.66597 -0.0776632
1.13717 4.66897 -0.0776632
1.10717 4.67497 -0.0776632
1.05617 4.68797 -0.0776632
1.02817 4.70097 -0.0776632
1.01417 4.70997 -0.0786632
0.961168 4.71097 -0.0776632
0.910168 4.72497 -0.0776632
0.880168 4.73297 -0.0776632
0.865168 4.73497 -0.0776632
0.852168 4.74397 -0.0786632
0.822168 4.75097 -0.0786632
0.815168 4.75397 -0.0786632
0.755168 4.76397 -0.0786632
0.689168 4.78597 -0.0796632
0.674168 4.78497 -0.0786632
0.645168 4.79497 -0.0796632
0.630168 4.80097 -0.0796632
0.525168 4.82297 -0.0796632
0.511168 4.82897 -0.0806632
0.495168 4.82797 -0.0806632
0.450168 4.83897 -0.0806632
0.435168 4.84197 -0.0806632
0.428168 4.84897 -0.0806632
0.398168 4.85497 -0.0816632
0.383168 4.85897 -0.0816632
0.353168 4.86297 -0.0816632
0.338168 4.86597 -0.0816632
0.315168 4.87197 -0.0816632
0.300168 4.87597 -0.0816632
0.270168 4.88597 -0.0826632
0.217168 4.89897 -0.0826632
0.133168 4.92797 -0.0846632
0.117168 4.92997 -0.0846632
0.0711679 4.93297 -0.0846632
0.0321679 4.94597 -0.0856632
0.0171679 4.94997 -0.0856632
0.00116793 4.95397 -0.0856632
3.52917 4.08497 -0.139663
3.51317 4.07797 -0.138663
3.50217 4.09197 -0.139663
3.48217 4.09397 -0.138663
3.46417 4.09897 -0.137663
3.44517 4.10197 -0.137663
3.43017 4.11097 -0.137663
3.40617 4.10797 -0.136663
3.40217 4.11597 -0.136663
3.36217 4.12097 -0.134663
3.34617 4.12597 -0.134663
3.29417 4.14197 -0.133663
3.27717 4.13297 -0.132663
3.26117 4.13997 -0.131663
3.24217 4.14297 -0.131663
3.23417 4.15897 -0.131663
3.21017 4.15497 -0.130663
3.19017 4.15497 -0.129663
3.16617 4.16597 -0.129663
3.14517 4.16397 -0.128663
3.13317 4.17597 -0.128663
3.11517 4.17897 -0.128663
3.07917 4.18597 -0.127663
3.06517 4.19397 -0.127663
3.03517 4.19397 -0.126663
3.01617 4.19497 -0.125663
3.00517 4.20797 -0.125663
2.98417 4.20597 -0.124663
2.97317 4.21797 -0.125663
2.95917 4.21297 -0.124663
2.94617 4.22297 -0.124663
2.10417 4.43497 -0.109663
2.05717 4.44397 -0.108663
1.99217 4.46697 -0.108663
1.93817 4.47797 -0.107663
1.90617 4.48297 -0.107663
1.87717 4.49097 -0.107663
1.85417 4.49597 -0.106663
1.82417 4.50397 -0.106663
1.81217 4.51497 -0.106663
1.78017 4.51697 -0.106663
1.75817 4.52397 -0.106663
1.72817 4.52897 -0.105663
1.67117 4.55197 -0.105663
1.66217 4.54897 -0.105663
1.63117 4.55197 -0.105663
1.60417 4.56797 -0.105663
1.57317 4.56997 -0.104663
1.56617 4.57497 -0.105663
1.50617 4.58597 -0.104663
1.49317 4.59297 -0.104663
1.47817 4.59797 -0.104663
1.45617 4.60297 -0.104663
1.41117 4.61197 -0.104663
1.39417 4.60697 -0.103663
1.37917 4.61097 -0.103663
1.37317 4.61697 -0.103663
1.36017 4.62597 -0.104663
1.34217 4.61797 -0.103663
1.33117 4.63597 -0.104663
1.30117 4.63797 -0.103663
1.22117 4.66197 -0.104663
1.18417 4.66997 -0.103663
1.16917 4.67297 -0.103663
1.14117 4.68397 -0.104663
1.12517 4.68397 -0.103663
1.09617 4.69497 -0.104663
1.08517 4.68097 -0.103663
1.07417 4.69997 -0.104663
1.05917 4.70197 -0.104663
1.04217 4.69497 -0.103663
1.02817 4.70197 -0.103663
1.01317 4.70197 -0.103663
0.999168 4.70897 -0.103663
0.978168 4.72097 -0.104663
0.963168 4.72197 -0.104663
0.934168 4.73397 -0.104663
0.919168 4.73297 -0.104663
0.905168 4.74197 -0.104663
0.896168 4.73497 -0.104663
0.867168 4.74697 -0.104663
0.853168 4.75097 -0.104663
0.807168 4.75697 -0.104663
0.786168 4.76697 -0.104663
0.755168 4.76597 -0.104663
0.740168 4.76997 -0.104663
0.727168 4.78197 -0.105663
0.712168 4.78297 -0.105663
0.704168 4.78397 -0.105663
0.689168 4.78797 -0.105663
0.674168 4.78597 -0.104663
0.660168 4.79997 -0.105663
0.630168 4.80197 -0.105663
0.614168 4.79997 -0.105663
0.607168 4.80497 -0.105663
0.577168 4.80897 -0.105663
0.563168 4.81697 -0.105663
0.548168 4.81997 -0.106663
0.533168 4.82797 -0.106663
0.518168 4.82997 -0.106663
0.481168 4.84097 -0.106663
0.466168 4.84297 -0.106663
0.450168 4.84397 -0.106663
0.436168 4.85197 -0.107663
0.427168 4.84197 -0.106663
0.413168 4.85397 -0.107663
0.368168 4.86697 -0.107663
0.352168 4.86397 -0.107663
0.338168 4.87797 -0.108663
0.323168 4.88497 -0.108663
0.314168 4.87497 -0.108663
0.299168 4.87397 -0.108663
0.254168 4.89097 -0.108663
0.238168 4.89297 -0.109663
0.223168 4.89597 -0.109663
0.200168 4.89897 -0.109663
0.185168 4.90397 -0.109663
0.170168 4.90997 -0.109663
0.139168 4.91497 -0.110663
0.131168 4.92897 -0.110663
0.116168 4.93397 -0.111663
0.0851679 4.93397 -0.111663
0.0541679 4.93497 -0.111663
0.0151679 4.95497 -0.112663
4.23817 3.89697 -0.202663
4.18217 3.90697 -0.200663
4.17017 3.91997 -0.200663
4.13017 3.93297 -0.198663
4.08817 3.94197 -0.197663
4.05217 3.94497 -0.195663
4.01217 3.95497 -0.193663
3.70117 4.03597 -0.183663
3.68717 4.03297 -0.182663
3.66317 4.03297 -0.181663
3.65717 4.05097 -0.181663
3.60017 4.06497 -0.179663
3.57117 4.05797 -0.178663
3.56417 4.06197 -0.178663
3.54717 4.06897 -0.177663
3.52617 4.07097 -0.176663
3.44917 4.08497 -0.174663
3.44117 4.08897 -0.174663
3.36817 4.10497 -0.171663
3.27017 4.12997 -0.168663
3.19317 4.15297 -0.166663
3.17817 4.15897 -0.166663
3.11317 4.16897 -0.164663
2.95117 4.20897 -0.160663
2.86417 4.23997 -0.158663
2.81217 4.24797 -0.156663
2.79317 4.24897 -0.156663
2.63117 4.28997 -0.152663
2.49517 4.32497 -0.149663
2.45617 4.33497 -0.149663
2.32517 4.37097 -0.147663
2.19217 4.40197 -0.144663
2.15417 4.41197 -0.144663
2.10817 4.42297 -0.143663
2.02617 4.44797 -0.142663
1.98717 4.45397 -0.141663
1.84417 4.48897 -0.140663
1.77617 4.50597 -0.139663
1.73617 4.52797 -0.140663
1.69517 4.52597 -0.138663
1.65117 4.53997 -0.138663
1.60717 4.55197 -0.138663
1.52717 4.57497 -0.138663
1.49217 4.59097 -0.138663
1.44917 4.60497 -0.138663
1.43117 4.59797 -0.137663
1.41117 4.61197 -0.138663
1.36717 4.62297 -0.138663
1.32117 4.62697 -0.137663
1.28517 4.63697 -0.137663
1.24117 4.64897 -0.137663
1.20517 4.65997 -0.137663
1.16117 4.67297 -0.137663
1.12417 4.67997 -0.137663
1.07817 4.68297 -0.137663
0.982168 4.70197 -0.136663
0.967168 4.70697 -0.137663
0.517168 4.81997 -0.139663
0.473168 4.82997 -0.140663
0.209168 4.89497 -0.143663
0.171168 4.90597 -0.144663
0.125168 4.91997 -0.144663
0.0401679 4.93697 -0.146663
2.58917 4.31597 -0.177663
0.330168 4.87897 -0.167663
0.216168 4.90897 -0.168663
0.0471679 4.95097 -0.171663
4.02217 3.94897 -0.259663
3.71217 4.03197 -0.246663
3.68917 4.03197 -0.245663
3.65117 4.04197 -0.244663
3.64017 4.04197 -0.243663
3.62317 4.04897 -0.243663
3.59917 4.04797 -0.241663
3.58517 4.05797 -0.241663
3.56717 4.06397 -0.240663
3.53417 4.06397 -0.239663
3.52017 4.07297 -0.239663
3.49517 4.07097 -0.237663
3.48017 4.07897 -0.237663
3.45917 4.08097 -0.236663
3.44217 4.08697 -0.235663
3.43117 4.09897 -0.236663
3.41717 4.09497 -0.235663
3.40117 4.10297 -0.234663
3.37717 4.09997 -0.233663
3.36617 4.11397 -0.233663
3.35017 4.11997 -0.233663
3.33217 4.12397 -0.232663
3.31117 4.12497 -0.231663
3.28217 4.12797 -0.230663
3.26417 4.13197 -0.229663
3.22517 4.13697 -0.228663
3.21417 4.14897 -0.228663
3.19617 4.15197 -0.227663
3.18417 4.15097 -0.226663
3.16717 4.15597 -0.226663
3.15017 4.15997 -0.225663
3.13317 4.16497 -0.225663
3.11517 4.16897 -0.224663
3.09917 4.17497 -0.224663
3.08617 4.18497 -0.224663
3.05717 4.18697 -0.223663
3.03817 4.18797 -0.222663
3.02717 4.20097 -0.222663
3.00717 4.20097 -0.221663
2.99317 4.20797 -0.221663
2.97417 4.20997 -0.220663
2.96817 4.21597 -0.220663
2.93217 4.22197 -0.219663
2.89817 4.22797 -0.218663
2.87717 4.22597 -0.217663
2.86317 4.23497 -0.217663
2.85217 4.23297 -0.216663
2.82217 4.24597 -0.216663
2.80917 4.25497 -0.216663
2.78617 4.24797 -0.214663
2.77717 4.26397 -0.215663
2.75717 4.26297 -0.214663
2.75117 4.26897 -0.214663
2.73017 4.26497 -0.213663
2.71617 4.27197 -0.213663
2.68317 4.28097 -0.212663
2.66817 4.28597 -0.212663
2.65517 4.29597 -0.212663
2.62517 4.29097 -0.210663
2.60817 4.29497 -0.210663
2.59517 4.30397 -0.210663
2.57917 4.30697 -0.209663
2.56317 4.31197 -0.209663
2.54417 4.30997 -0.208663
2.54317 4.32397 -0.209663
2.50617 4.32297 -0.208663
2.49517 4.33597 -0.208663
2.48117 4.34397 -0.208663
2.46417 4.34497 -0.207663
2.45717 4.34797 -0.207663
2.43317 4.33897 -0.206663
2.42017 4.34597 -0.206663
2.40517 4.35197 -0.206663
2.36317 4.37297 -0.205663
2.35317 4.37097 -0.205663
2.33917 4.37697 -0.205663
2.30417 4.37897 -0.204663
2.25817 4.38997 -0.203663
2.25117 4.39397 -0.203663
2.23617 4.39897 -0.203663
2.22117 4.40397 -0.202663
2.20617 4.40797 -0.202663
2.19117 4.41297 -0.202663
2.17317 4.41297 -0.201663
2.13417 4.42097 -0.200663
2.09217 4.43997 -0.200663
2.07617 4.44197 -0.200663
1.82417 4.49697 -0.196663
1.66417 4.54797 -0.195663
1.60417 4.56097 -0.195663
1.45517 4.59397 -0.193663
1.44117 4.60097 -0.193663
1.41117 4.60597 -0.193663
1.38317 4.61797 -0.193663
1.35917 4.61697 -0.193663
1.30217 4.63797 -0.193663
1.28817 4.64197 -0.193663
1.27817 4.63597 -0.192663
1.25017 4.64797 -0.193663
1.21917 4.64797 -0.192663
1.20617 4.65897 -0.193663
1.18917 4.65197 -0.192663
1.17017 4.66897 -0.193663
1.13917 4.66997 -0.192663
1.10817 4.67097 -0.192663
1.09717 4.68897 -0.193663
1.08617 4.67497 -0.192663
1.05817 4.68897 -0.192663
1.04517 4.69797 -0.193663
1.02917 4.69597 -0.192663
1.00017 4.70597 -0.193663
0.994168 4.71497 -0.193663
0.977168 4.70897 -0.192663
0.964168 4.71797 -0.193663
0.947168 4.71297 -0.192663
0.919168 4.72497 -0.193663
0.898168 4.73697 -0.193663
0.869168 4.74397 -0.194663
0.854168 4.74897 -0.194663
0.838168 4.74397 -0.193663
0.823168 4.74797 -0.193663
0.809168 4.75697 -0.194663
0.801168 4.75197 -0.193663
0.787168 4.76197 -0.194663
0.757168 4.76497 -0.194663
0.728168 4.77797 -0.194663
0.713168 4.77997 -0.194663
0.704168 4.77097 -0.194663
0.676168 4.78997 -0.195663
0.632168 4.80397 -0.195663
0.625168 4.80497 -0.195663
0.610168 4.80797 -0.196663
0.565168 4.81997 -0.196663
0.498168 4.83297 -0.196663
0.483168 4.83897 -0.197663
0.468168 4.84597 -0.197663
0.453168 4.84397 -0.197663
0.438168 4.85297 -0.198663
0.423168 4.85297 -0.197663
0.400168 4.85797 -0.198663
0.385168 4.86597 -0.198663
0.355168 4.87197 -0.199663
0.287168 4.88597 -0.199663
0.188168 4.91297 -0.201663
0.173168 4.91597 -0.201663
0.119168 4.93297 -0.203663
0.0731679 4.94397 -0.203663
0.0571679 4.94397 -0.203663
3.70917 4.02497 -0.277663
3.66017 4.03497 -0.275663
3.62917 4.05197 -0.275663
3.57117 4.06297 -0.272663
3.52617 4.07597 -0.270663
3.44317 4.09497 -0.267663
3.42617 4.10097 -0.266663
3.40717 4.10397 -0.265663
3.38517 4.10397 -0.264663
3.37117 4.11297 -0.264663
3.33717 4.12297 -0.263663
3.32317 4.11897 -0.262663
3.31117 4.13097 -0.262663
3.27617 4.14097 -0.261663
3.22317 4.15297 -0.259663
3.19617 4.15797 -0.258663
3.17817 4.16197 -0.257663
3.14617 4.17397 -0.256663
3.12417 4.17297 -0.255663
3.10817 4.17797 -0.254663
3.10117 4.18197 -0.254663
3.08317 4.18597 -0.254663
3.05117 4.19697 -0.253663
3.01317 4.19997 -0.251663
2.99617 4.20397 -0.251663
2.98517 4.20297 -0.250663
2.93917 4.22097 -0.249663
2.92117 4.22297 -0.248663
2.90517 4.22897 -0.248663
2.89217 4.23797 -0.248663
2.88017 4.23497 -0.247663
2.86017 4.23397 -0.246663
2.84317 4.23797 -0.246663
2.81317 4.24997 -0.245663
2.78217 4.26097 -0.244663
2.77517 4.26597 -0.244663
2.75517 4.26297 -0.243663
2.73917 4.26797 -0.243663
2.72217 4.27097 -0.242663
2.71017 4.28197 -0.243663
2.66617 4.28597 -0.241663
2.65117 4.29197 -0.241663
2.63517 4.29597 -0.240663
2.60617 4.30897 -0.240663
2.58517 4.30497 -0.239663
2.53417 4.32597 -0.238663
2.51817 4.33097 -0.238663
2.49917 4.32997 -0.237663
2.48717 4.33897 -0.237663
2.47817 4.33997 -0.237663
2.45817 4.33697 -0.235663
2.44417 4.34297 -0.235663
2.43017 4.35097 -0.235663
2.40017 4.36097 -0.235663
2.37717 4.36697 -0.234663
2.32717 4.37297 -0.233663
2.31517 4.38397 -0.233663
2.29917 4.38597 -0.233663
2.27517 4.39097 -0.232663
2.22517 4.39497 -0.230663
2.21317 4.40497 -0.231663
2.17117 4.40797 -0.229663
2.14117 4.41597 -0.229663
2.08317 4.43897 -0.228663
2.05917 4.44197 -0.228663
1.92917 4.46897 -0.225663
1.88417 4.48197 -0.225663
1.86317 4.49097 -0.225663
1.78117 4.51097 -0.224663
1.73817 4.52797 -0.224663
1.72417 4.53097 -0.224663
1.68417 4.53497 -0.223663
1.65417 4.53997 -0.222663
1.64217 4.55097 -0.223663
1.61017 4.55197 -0.222663
1.57017 4.55297 -0.221663
1.56017 4.56897 -0.222663
1.51217 4.56997 -0.221663
1.47417 4.57597 -0.220663
1.46417 4.59397 -0.221663
1.45017 4.59897 -0.221663
1.40617 4.61097 -0.221663
1.39717 4.60697 -0.221663
1.38017 4.60397 -0.220663
1.36917 4.61997 -0.221663
1.35117 4.60997 -0.220663
1.32117 4.61697 -0.220663
1.31017 4.63297 -0.221663
1.29917 4.62297 -0.220663
1.28817 4.63897 -0.221663
1.27317 4.64297 -0.221663
1.24217 4.64097 -0.220663
1.22817 4.64897 -0.220663
1.21317 4.65097 -0.220663
1.20717 4.65597 -0.220663
1.19017 4.65397 -0.220663
1.17417 4.65197 -0.219663
1.16317 4.66897 -0.221663
1.14617 4.66097 -0.220663
1.11117 4.67797 -0.220663
1.09617 4.67997 -0.220663
1.08117 4.68097 -0.220663
1.06617 4.68397 -0.220663
1.05217 4.69197 -0.220663
1.03617 4.69097 -0.220663
1.02317 4.70197 -0.221663
1.01617 4.70597 -0.221663
1.00017 4.70297 -0.220663
0.986168 4.70597 -0.220663
0.972168 4.71497 -0.221663
0.957168 4.71997 -0.221663
0.927168 4.72197 -0.221663
0.903168 4.71797 -0.220663
0.890168 4.73097 -0.221663
0.876168 4.73797 -0.221663
0.861168 4.73997 -0.221663
0.845168 4.73297 -0.220663
0.837168 4.73497 -0.220663
0.808168 4.74597 -0.221663
0.793168 4.74597 -0.221663
0.779168 4.75497 -0.221663
0.765168 4.76097 -0.221663
0.750168 4.76297 -0.221663
0.742168 4.76297 -0.221663
0.727168 4.76297 -0.221663
0.714168 4.78297 -0.223663
0.699168 4.78497 -0.223663
0.685168 4.78897 -0.223663
0.669168 4.78697 -0.222663
0.654168 4.78997 -0.222663
0.639168 4.78997 -0.222663
0.631168 4.79097 -0.222663
0.616168 4.78897 -0.222663
0.601168 4.79597 -0.222663
0.586168 4.79797 -0.222663
0.571168 4.80197 -0.223663
0.542168 4.80997 -0.223663
0.535168 4.81797 -0.224663
0.520168 4.81797 -0.223663
0.505168 4.82597 -0.224663
0.490168 4.83097 -0.224663
0.475168 4.82897 -0.224663
0.460168 4.83997 -0.225663
0.452168 4.83097 -0.224663
0.438168 4.84797 -0.225663
0.407168 4.84097 -0.225663
0.393168 4.86197 -0.226663
0.377168 4.84897 -0.225663
0.363168 4.86797 -0.227663
0.355168 4.86297 -0.226663
0.340168 4.86597 -0.226663
0.324168 4.86697 -0.226663
0.309168 4.86797 -0.226663
0.294168 4.87297 -0.227663
0.264168 4.88697 -0.228663
0.249168 4.88897 -0.228663
0.226168 4.88897 -0.228663
0.211168 4.90297 -0.229663
0.180168 4.90197 -0.229663
0.164168 4.90297 -0.229663
0.149168 4.90897 -0.229663
0.142168 4.91397 -0.229663
0.126168 4.91197 -0.229663
0.0951679 4.92497 -0.230663
0.0801679 4.93097 -0.231663
0.0571679 4.93097 -0.231663
4.29417 3.88097 -0.339663
4.27517 3.88797 -0.338663
4.24017 3.89297 -0.336663
4.22117 3.89997 -0.335663
4.19817 3.90397 -0.334663
4.13617 3.91997 -0.331663
4.10817 3.92997 -0.330663
4.08417 3.93197 -0.328663
4.05917 3.93197 -0.327663
4.04817 3.94597 -0.327663
4.02717 3.94997 -0.326663
3.98717 3.94797 -0.323663
3.97117 3.95797 -0.322663
3.93417 3.96997 -0.321663
3.70317 4.03097 -0.310663
3.68217 4.03397 -0.309663
3.65917 4.03397 -0.308663
3.64517 4.04397 -0.307663
3.62017 4.04197 -0.306663
3.60817 4.04197 -0.305663
3.59317 4.04997 -0.305663
3.57217 4.05197 -0.304663
3.55417 4.05797 -0.303663
3.53617 4.06297 -0.302663
3.51917 4.06897 -0.302663
3.50117 4.07397 -0.301663
3.49417 4.07797 -0.301663
3.46917 4.07597 -0.299663
3.45017 4.07897 -0.298663
3.43217 4.08397 -0.297663
3.42317 4.09897 -0.298663
3.40217 4.10097 -0.297663
3.37817 4.09697 -0.295663
3.36917 4.09997 -0.295663
3.31617 4.11397 -0.293663
3.30217 4.12297 -0.293663
3.28017 4.12297 -0.291663
3.26517 4.12997 -0.291663
3.25217 4.12697 -0.290663
3.22017 4.13997 -0.289663
3.20117 4.14197 -0.288663
3.18817 4.15197 -0.288663
3.16617 4.15097 -0.287663
3.15217 4.15897 -0.287663
3.14217 4.15897 -0.286663
3.12517 4.16497 -0.286663
3.08817 4.16997 -0.284663
1.89717 4.46797 -0.253663
1.86817 4.47797 -0.253663
1.84317 4.49697 -0.254663
1.81517 4.48897 -0.252663
1.78617 4.49897 -0.252663
1.75817 4.50997 -0.252663
1.72717 4.51497 -0.251663
1.67517 4.52597 -0.251663
1.64617 4.53697 -0.251663
1.60917 4.54597 -0.250663
1.51217 4.56697 -0.249663
1.48717 4.58497 -0.250663
1.43117 4.58397 -0.249663
1.41617 4.58697 -0.248663
1.30717 4.61697 -0.248663
1.18217 4.64697 -0.248663
1.13117 4.65897 -0.248663
1.11717 4.66497 -0.248663
0.897168 4.71997 -0.249663
0.676168 4.77297 -0.250663
0.588168 4.79597 -0.251663
0.401168 4.84397 -0.254663
0.281168 4.87397 -0.256663
0.250168 4.87997 -0.256663
0.220168 4.88497 -0.257663
0.182168 4.90497 -0.258663
4.25517 3.88997 -0.374663
4.20717 3.89497 -0.371663
4.16217 3.91397 -0.369663
4.10617 3.90997 -0.364663
4.05417 3.93497 -0.363663
4.02317 3.94097 -0.361663
3.98017 3.94797 -0.358663
3.93817 3.95597 -0.356663
3.91117 3.97797 -0.356663
1.22917 4.63197 -0.278663
4.26017 3.86797 -0.408663
4.24717 3.88097 -0.408663
4.22817 3.88797 -0.407663
4.21217 3.88497 -0.406663
4.19317 3.89297 -0.405663
4.17517 3.90097 -0.404663
4.16017 3.91097 -0.404663
4.14117 3.91797 -0.403663
4.10917 3.91297 -0.400663
4.09417 3.92297 -0.400663
4.08417 3.92497 -0.399663
4.05617 3.92297 -0.397663
4.03917 3.93097 -0.396663
4.02217 3.93997 -0.396663
3.99317 3.93597 -0.393663
3.97317 3.94197 -0.392663
3.95817 3.95097 -0.392663
3.95117 3.95597 -0.391663
3.93017 3.95997 -0.390663
3.91617 3.97097 -0.390663
3.74117 4.00297 -0.380663
3.71917 4.00497 -0.378663
3.63617 4.02697 -0.374663
3.60017 4.03797 -0.372663
3.58817 4.03797 -0.372663
1.45517 4.57497 -0.309663
1.32417 4.61097 -0.309663
1.19917 4.63897 -0.308663
1.03917 4.67897 -0.308663
0.995168 4.68897 -0.308663
4.20217 3.89997 -0.444663
4.18217 3.90597 -0.443663
3.99617 3.94797 -0.431663
3.97917 3.95597 -0.431663
3.68317 4.02297 -0.413663
3.63017 4.04097 -0.411663
3.61617 4.03797 -0.409663
3.60017 4.04697 -0.409663
3.57917 4.04697 -0.407663
3.56217 4.05397 -0.407663
3.54817 4.06397 -0.406663
3.52017 4.05697 -0.404663
3.49917 4.07197 -0.404663
3.45717 4.07397 -0.401663
3.44317 4.08297 -0.401663
3.42717 4.09097 -0.400663
3.40417 4.08897 -0.398663
3.38017 4.09897 -0.397663
3.36517 4.10697 -0.397663
3.34517 4.10997 -0.396663
3.33317 4.11997 -0.396663
3.30617 4.11297 -0.393663
3.29317 4.12397 -0.393663
3.26917 4.13297 -0.393663
3.24617 4.13097 -0.391663
3.22717 4.13297 -0.390663
3.19817 4.14997 -0.389663
3.16917 4.15197 -0.388663
3.14517 4.14797 -0.386663
3.13117 4.15597 -0.385663
3.11317 4.15997 -0.384663
3.09717 4.16497 -0.384663
3.08117 4.17097 -0.383663
3.06017 4.16997 -0.382663
3.05917 4.18197 -0.383663
3.00617 4.19197 -0.380663
2.98517 4.18997 -0.379663
2.96817 4.19397 -0.378663
2.95017 4.19697 -0.377663
2.94317 4.19997 -0.377663
2.88017 4.22197 -0.375663
2.86117 4.22197 -0.374663
2.85217 4.23797 -0.375663
2.83517 4.22797 -0.373663
2.79017 4.24597 -0.372663
2.75317 4.24697 -0.369663
2.73517 4.26297 -0.370663
2.71317 4.25797 -0.368663
2.69717 4.26297 -0.368663
2.68017 4.26497 -0.367663
2.66417 4.26997 -0.366663
2.63317 4.27997 -0.365663
2.62717 4.28497 -0.366663
2.61017 4.28697 -0.365663
2.57617 4.29097 -0.363663
2.54417 4.29897 -0.362663
2.52217 4.30897 -0.362663
2.50517 4.30997 -0.361663
2.49117 4.31797 -0.361663
2.45917 4.32497 -0.360663
2.42917 4.33497 -0.359663
2.37717 4.35297 -0.358663
2.32217 4.36597 -0.357663
2.29117 4.37397 -0.356663
2.25617 4.37397 -0.354663
2.18617 4.38897 -0.352663
2.13617 4.40897 -0.352663
2.11817 4.40697 -0.351663
2.05817 4.42197 -0.349663
2.00717 4.44097 -0.349663
1.99217 4.44397 -0.348663
1.96017 4.44697 -0.347663
1.94717 4.45497 -0.347663
1.94117 4.46197 -0.348663
1.89417 4.46697 -0.346663
1.86317 4.47097 -0.345663
1.84817 4.47497 -0.345663
1.84117 4.47997 -0.345663
1.83117 4.49497 -0.347663
1.81517 4.49497 -0.346663
1.79817 4.49597 -0.345663
1.78117 4.49397 -0.344663
1.76617 4.49597 -0.344663
1.75317 4.50497 -0.344663
1.74717 4.50897 -0.345663
1.73017 4.50697 -0.344663
1.71617 4.51297 -0.344663
1.70417 4.52397 -0.344663
1.69117 4.53297 -0.345663
1.67017 4.52097 -0.343663
1.65917 4.53397 -0.344663
1.65117 4.53497 -0.343663
1.63317 4.53097 -0.342663
1.62317 4.54697 -0.344663
1.60817 4.54797 -0.343663
1.59317 4.55297 -0.343663
1.57817 4.55597 -0.343663
1.56017 4.54997 -0.342663
1.55417 4.55597 -0.342663
1.53817 4.55497 -0.341663
1.52617 4.56597 -0.342663
1.51217 4.57297 -0.342663
1.49817 4.57697 -0.342663
1.48117 4.57397 -0.341663
1.46717 4.58097 -0.342663
1.46017 4.58297 -0.342663
1.44217 4.57597 -0.340663
1.43017 4.58897 -0.341663
1.41517 4.59297 -0.341663
1.39917 4.58997 -0.340663
1.38417 4.59397 -0.340663
1.37017 4.59997 -0.341663
1.36317 4.60297 -0.341663
1.34817 4.60297 -0.340663
1.33517 4.61497 -0.341663
1.30717 4.62697 -0.341663
1.29217 4.62697 -0.341663
1.27617 4.62597 -0.340663
1.26717 4.62397 -0.340663
1.25417 4.63097 -0.340663
1.23817 4.63197 -0.340663
1.22417 4.63497 -0.340663
1.21117 4.64497 -0.341663
1.17917 4.64297 -0.339663
1.17417 4.65397 -0.341663
1.15717 4.64797 -0.339663
1.14317 4.65597 -0.340663
1.12917 4.66097 -0.340663
1.08617 4.67597 -0.341663
1.06217 4.67297 -0.340663
1.04817 4.67997 -0.340663
1.03317 4.67797 -0.339663
1.00517 4.69397 -0.341663
0.982168 4.69297 -0.340663
0.967168 4.69397 -0.340663
0.923168 4.70697 -0.340663
0.858168 4.72897 -0.341663
0.828168 4.73197 -0.341663
0.652168 4.77997 -0.343663
0.621168 4.77997 -0.343663
0.599168 4.78697 -0.343663
0.510168 4.80897 -0.345663
0.308168 4.85797 -0.348663
0.179168 4.89197 -0.351663
0.0941679 4.91497 -0.353663
4.19417 3.89997 -0.479663
4.01817 3.94297 -0.467663
3.97617 3.95097 -0.465663
3.93917 3.96397 -0.463663
3.92717 3.96397 -0.462663
3.72517 4.01797 -0.450663
3.70317 4.01897 -0.448663
3.68517 4.02497 -0.447663
3.67017 4.02197 -0.446663
3.64717 4.02197 -0.444663
3.63717 4.03597 -0.444663
3.60817 4.02997 -0.442663
3.59217 4.03697 -0.441663
3.57617 4.04497 -0.440663
3.56117 4.05297 -0.440663
3.55117 4.05397 -0.439663
3.51517 4.06497 -0.437663
3.49317 4.06497 -0.436663
3.47717 4.07297 -0.435663
3.46117 4.07897 -0.435663
3.44517 4.07397 -0.433663
3.41017 4.08497 -0.431663
3.39817 4.09597 -0.431663
3.38217 4.10397 -0.431663
3.35317 4.09397 -0.428663
3.33617 4.09997 -0.427663
3.32717 4.10197 -0.427663
3.31117 4.10797 -0.426663
3.29517 4.11497 -0.426663
3.27717 4.11997 -0.425663
3.25717 4.11997 -0.423663
3.24617 4.13397 -0.424663
3.22217 4.12997 -0.422663
3.21617 4.13497 -0.422663
3.19817 4.13897 -0.421663
3.16217 4.14597 -0.419663
3.14817 4.15497 -0.419663
3.12817 4.15497 -0.417663
3.11617 4.16597 -0.417663
3.10117 4.15997 -0.416663
3.08417 4.16497 -0.415663
3.06617 4.16797 -0.414663
3.05217 4.17597 -0.414663
3.03117 4.17497 -0.412663
3.01617 4.18297 -0.412663
2.99717 4.18397 -0.411663
2.98817 4.18597 -0.410663
2.96017 4.20097 -0.410663
2.93917 4.19897 -0.408663
2.89217 4.21697 -0.407663
2.88217 4.21597 -0.406663
2.86417 4.21897 -0.405663
2.85017 4.22597 -0.405663
2.79917 4.23597 -0.403663
2.78117 4.23797 -0.402663
2.63517 4.27497 -0.396663
2.62317 4.28497 -0.396663
2.58917 4.29097 -0.395663
2.57317 4.29397 -0.394663
2.56517 4.29597 -0.394663
2.54817 4.29897 -0.393663
2.53217 4.30197 -0.393663
2.51917 4.31197 -0.393663
2.50317 4.31497 -0.392663
2.49017 4.32397 -0.393663
2.47417 4.32697 -0.392663
2.46017 4.31897 -0.390663
2.44517 4.32497 -0.390663
2.41317 4.33097 -0.389663
2.39917 4.33697 -0.389663
2.38217 4.33897 -0.388663
2.37617 4.34497 -0.388663
2.36017 4.34697 -0.387663
2.34317 4.34897 -0.387663
2.31217 4.35697 -0.386663
2.29717 4.36097 -0.385663
2.28517 4.37097 -0.386663
2.25917 4.37297 -0.385663
2.24717 4.38197 -0.385663
2.21317 4.38397 -0.383663
2.20217 4.39597 -0.384663
2.18517 4.39797 -0.383663
2.17617 4.39697 -0.383663
2.15917 4.39697 -0.382663
2.14317 4.39897 -0.381663
2.12917 4.40497 -0.381663
2.11417 4.40997 -0.381663
2.09917 4.41497 -0.381663
2.08417 4.41797 -0.380663
2.08217 4.43197 -0.382663
2.06417 4.42897 -0.380663
2.04917 4.43397 -0.380663
2.03517 4.44097 -0.380663
2.01417 4.43297 -0.378663
2.00117 4.44097 -0.379663
1.98717 4.44697 -0.379663
1.98017 4.44997 -0.379663
1.96717 4.45797 -0.379663
1.94917 4.45497 -0.378663
1.93417 4.45897 -0.377663
1.92217 4.46897 -0.378663
1.90217 4.46197 -0.376663
1.88817 4.46797 -0.376663
1.88517 4.47997 -0.377663
1.86717 4.47697 -0.376663
1.85317 4.48297 -0.376663
1.83817 4.48497 -0.376663
1.82417 4.49297 -0.376663
1.81117 4.49997 -0.376663
1.79417 4.49997 -0.376663
1.78717 4.50097 -0.375663
1.74317 4.51597 -0.375663
1.72617 4.51397 -0.374663
1.69417 4.51597 -0.373663
1.69217 4.53097 -0.375663
1.67717 4.53297 -0.374663
1.65917 4.52897 -0.373663
1.64517 4.53597 -0.373663
1.63217 4.54297 -0.373663
1.61517 4.54197 -0.373663
1.60317 4.55297 -0.373663
1.59517 4.55397 -0.373663
1.53717 4.56997 -0.373663
1.49417 4.56097 -0.370663
1.48417 4.57897 -0.372663
1.45517 4.58797 -0.372663
1.43917 4.58897 -0.371663
1.41117 4.59997 -0.372663
1.40217 4.59597 -0.371663
1.38917 4.60397 -0.371663
1.37417 4.60697 -0.371663
1.35817 4.60497 -0.370663
1.34417 4.61297 -0.371663
1.32917 4.61597 -0.371663
1.31517 4.61997 -0.371663
1.30817 4.62397 -0.371663
1.29117 4.61797 -0.370663
1.27617 4.61997 -0.370663
1.24717 4.62997 -0.370663
1.21217 4.64397 -0.370663
1.19917 4.65297 -0.371663
1.16917 4.66097 -0.371663
1.12617 4.67197 -0.371663
1.11817 4.67297 -0.371663
1.10117 4.66497 -0.370663
1.08617 4.66697 -0.369663
1.07417 4.68397 -0.371663
1.05817 4.68097 -0.370663
1.04417 4.68597 -0.370663
1.02917 4.68797 -0.370663
1.02217 4.69297 -0.371663
1.00517 4.68697 -0.370663
0.993168 4.69997 -0.371663
0.978168 4.70497 -0.371663
0.964168 4.71197 -0.371663
0.950168 4.71597 -0.372663
0.932168 4.70397 -0.370663
0.910168 4.70797 -0.370663
0.898168 4.72697 -0.372663
0.883168 4.73097 -0.372663
0.867168 4.72797 -0.371663
0.854168 4.73897 -0.372663
0.846168 4.73597 -0.372663
0.832168 4.74497 -0.372663
0.816168 4.74297 -0.372663
0.786168 4.74497 -0.371663
0.772168 4.75097 -0.372663
0.757168 4.75497 -0.372663
0.736168 4.76497 -0.373663
0.721168 4.76897 -0.373663
0.706168 4.76897 -0.373663
0.692168 4.77697 -0.373663
0.675168 4.76997 -0.372663
0.660168 4.77397 -0.373663
0.648168 4.79097 -0.374663
0.640168 4.79197 -0.374663
0.624168 4.78697 -0.373663
0.610168 4.79597 -0.374663
0.594168 4.79397 -0.374663
0.580168 4.80197 -0.375663
0.564168 4.79797 -0.374663
0.558168 4.81097 -0.375663
0.542168 4.80097 -0.374663
0.513168 4.81397 -0.375663
0.498168 4.82097 -0.376663
0.483168 4.82097 -0.376663
0.468168 4.82397 -0.376663
0.460168 4.82097 -0.375663
0.445168 4.82597 -0.376663
0.430168 4.82997 -0.376663
0.415168 4.83297 -0.376663
0.400168 4.83397 -0.376663
0.386168 4.84897 -0.378663
0.370168 4.84497 -0.377663
0.348168 4.85797 -0.379663
0.333168 4.85697 -0.378663
0.302168 4.85897 -0.378663
0.287168 4.86597 -0.379663
0.272168 4.86697 -0.379663
0.257168 4.86997 -0.379663
0.250168 4.87397 -0.380663
0.234168 4.87897 -0.380663
0.189168 4.89097 -0.381663
0.174168 4.89497 -0.382663
0.166168 4.89797 -0.382663
0.151168 4.89797 -0.382663
0.136168 4.90697 -0.383663
0.120168 4.91297 -0.384663
0.105168 4.90697 -0.383663
0.0891679 4.91597 -0.384663
0.0741679 4.91597 -0.384663
0.0661679 4.92397 -0.385663
0.0511679 4.92797 -0.385663
0.0361679 4.93797 -0.386663
0.0201679 4.94197 -0.387663
0.00516793 4.93997 -0.387663
1.51917 4.56897 -0.400663
1.12417 4.66997 -0.398663
1.09417 4.67297 -0.398663
0.890168 4.72997 -0.400663
0.875168 4.73097 -0.399663
0.823168 4.74397 -0.400663
0.698168 4.77397 -0.401663
0.676168 4.78197 -0.402663
0.645168 4.78397 -0.401663
0.616168 4.79797 -0.403663
0.587168 4.80497 -0.403663
0.549168 4.80797 -0.403663
0.467168 4.82997 -0.405663
0.422168 4.83997 -0.405663
0.369168 4.84897 -0.406663
0.354168 4.86197 -0.407663
0.339168 4.86497 -0.407663
0.309168 4.86897 -0.408663
0.286168 4.86997 -0.408663
0.256168 4.88397 -0.409663
0.240168 4.88297 -0.409663
0.226168 4.89497 -0.410663
0.210168 4.88797 -0.409663
0.172168 4.89197 -0.410663
0.126168 4.90697 -0.411663
0.0411679 4.93997 -0.415663
0.0101679 4.94597 -0.416663
0.00216793 4.94797 -0.416663
4.27617 3.85997 -0.546663
4.20517 3.88197 -0.541663
4.14117 3.89497 -0.536663
4.09317 3.91097 -0.533663
4.02717 3.92197 -0.528663
3.99917 3.93197 -0.526663
3.96317 3.94497 -0.524663
3.71017 4.00997 -0.508663
3.66817 4.01397 -0.504663
3.64217 4.02397 -0.503663
3.13517 4.15897 -0.511663
2.97417 4.19997 -0.503663
2.88117 4.22097 -0.498663
2.84817 4.22997 -0.497663
2.63117 4.28897 -0.488663
0.445168 4.83497 -0.464663
0.332168 4.86197 -0.466663
2.24817 4.38497 -0.507663
3.39117 4.09297 -0.625663
3.16217 4.15097 -0.610663
2.95617 4.20097 -0.597663
2.89017 4.21897 -0.594663
2.63517 4.28097 -0.580663
2.62117 4.28697 -0.580663
2.58517 4.28997 -0.578663
0.996168 4.69297 -0.545663
0.929168 4.70397 -0.545663
0.688168 4.77197 -0.549663
0.644168 4.78197 -0.549663
0.591168 4.79297 -0.550663
0.532168 4.80597 -0.551663
0.398168 4.84397 -0.555663
0.323168 4.85997 -0.556663
0.270168 4.87097 -0.558663
0.217168 4.88297 -0.559663
1.04217 4.67097 -0.690663
0.903168 4.70797 -0.691663
0.742168 4.74997 -0.693663
0.587168 4.78697 -0.696663
0.521168 4.80497 -0.698663
0.491168 4.81197 -0.698663
0.468168 4.81597 -0.699663
0.453168 4.81597 -0.698663
0.439168 4.82497 -0.700663
0.424168 4.82597 -0.700663
0.379168 4.83997 -0.701663
0.371168 4.84097 -0.701663
0.341168 4.84897 -0.702663
0.311168 4.85097 -0.702663
0.296168 4.85797 -0.703663
0.281168 4.85697 -0.703663
0.258168 4.86397 -0.704663
0.243168 4.87197 -0.705663
0.228168 4.87297 -0.705663
0.129168 4.90197 -0.710663
3.62717 4.01697 -0.883663
3.60517 4.01797 -0.881663
3.57817 4.01297 -0.877663
3.56417 4.02297 -0.877663
3.55017 4.03297 -0.876663
3.53717 4.03097 -0.874663
3.51417 4.02997 -0.871663
3.49517 4.03397 -0.870663
3.46217 4.04697 -0.867663
3.44917 4.05797 -0.867663
3.42917 4.05897 -0.865663
3.40017 4.06297 -0.862663
3.38017 4.06697 -0.861663
3.36617 4.07597 -0.860663
3.34917 4.07997 -0.859663
3.32817 4.08197 -0.857663
3.31017 4.08597 -0.855663
3.28117 4.08897 -0.852663
3.26317 4.09297 -0.851663
3.24617 4.09797 -0.849663
3.23017 4.10497 -0.849663
3.21417 4.10997 -0.847663
3.19717 4.11597 -0.846663
3.18717 4.11597 -0.845663
3.17217 4.12297 -0.845663
3.15417 4.12697 -0.843663
3.13717 4.13197 -0.842663
3.12117 4.13697 -0.841663
3.08317 4.14097 -0.837663
3.07417 4.14197 -0.837663
3.06317 4.15497 -0.837663
3.04117 4.15197 -0.834663
3.02617 4.15797 -0.834663
3.01517 4.17097 -0.834663
2.99517 4.17097 -0.832663
2.98217 4.16797 -0.830663
2.96617 4.17197 -0.829663
2.95217 4.17997 -0.829663
2.93517 4.18397 -0.828663
2.91817 4.18897 -0.827663
2.90317 4.19497 -0.826663
2.88817 4.20097 -0.825663
2.88017 4.20397 -0.825663
2.86017 4.20297 -0.823663
2.84217 4.20497 -0.821663
2.82817 4.21297 -0.821663
2.81017 4.21497 -0.819663
2.79217 4.21597 -0.818663
2.77717 4.22297 -0.817663
2.76617 4.21997 -0.816663
2.75717 4.23597 -0.817663
2.73417 4.22997 -0.814663
2.71917 4.23497 -0.813663
2.70817 4.24697 -0.814663
2.69117 4.24997 -0.813663
2.67717 4.25697 -0.813663
2.66517 4.25297 -0.811663
2.64917 4.25797 -0.810663
2.63417 4.26297 -0.809663
2.61717 4.26597 -0.808663
2.60217 4.27097 -0.807663
2.58517 4.27397 -0.806663
2.57117 4.27997 -0.806663
2.56317 4.28297 -0.806663
2.54817 4.28697 -0.805663
2.52917 4.28697 -0.803663
2.51717 4.29697 -0.804663
2.50117 4.30097 -0.803663
2.48117 4.29697 -0.800663
2.46617 4.30297 -0.800663
2.46117 4.30997 -0.801663
2.44717 4.31597 -0.800663
2.42917 4.31697 -0.799663
2.41317 4.31997 -0.798663
2.40017 4.32897 -0.798663
2.38417 4.33097 -0.797663
2.36617 4.33197 -0.796663
2.35717 4.32997 -0.794663
2.34317 4.33797 -0.794663
2.27917 4.34997 -0.791663
2.26717 4.35997 -0.792663
2.24417 4.36597 -0.790663
2.22517 4.36197 -0.788663
2.19217 4.36597 -0.786663
2.17917 4.37397 -0.786663
2.16917 4.38797 -0.788663
2.15317 4.37397 -0.784663
2.14417 4.38897 -0.786663
2.13117 4.39797 -0.786663
2.10917 4.38897 -0.783663
2.09617 4.39697 -0.784663
2.06617 4.40497 -0.782663
2.05717 4.40297 -0.781663
2.02717 4.40997 -0.780663
2.01317 4.41597 -0.780663
2.00017 4.42497 -0.781663
1.98017 4.41797 -0.778663
1.96917 4.43197 -0.780663
1.94717 4.43697 -0.779663
1.93117 4.43997 -0.778663
1.90017 4.44297 -0.776663
1.88517 4.44697 -0.776663
1.86217 4.44997 -0.775663
1.84717 4.45397 -0.774663
1.83617 4.46697 -0.776663
1.81717 4.46197 -0.774663
1.80217 4.46397 -0.773663
1.79317 4.48297 -0.776663
1.76417 4.47297 -0.772663
1.75417 4.48797 -0.774663
1.70717 4.49297 -0.772663
1.67117 4.50197 -0.771663
1.62517 4.51097 -0.769663
1.58217 4.52397 -0.769663
1.51417 4.53497 -0.767663
1.50317 4.54897 -0.769663
1.48617 4.54397 -0.767663
1.46317 4.54697 -0.766663
1.42017 4.56097 -0.766663
1.40717 4.56897 -0.767663
1.39717 4.56397 -0.765663
1.31017 4.58497 -0.765663
1.21617 4.60897 -0.764663
1.18017 4.62297 -0.765663
1.13617 4.63197 -0.765663
1.11517 4.63697 -0.765663
1.09917 4.63697 -0.764663
1.07117 4.64697 -0.765663
0.962168 4.67697 -0.766663
0.852168 4.70197 -0.766663
0.838168 4.70897 -0.767663
0.801168 4.71497 -0.767663
0.786168 4.71597 -0.767663
0.772168 4.72397 -0.768663
0.758168 4.72597 -0.768663
0.691168 4.73897 -0.768663
0.647168 4.74897 -0.769663
0.640168 4.75197 -0.769663
0.625168 4.75597 -0.770663
0.611168 4.76297 -0.771663
0.596168 4.76497 -0.771663
0.551168 4.77297 -0.771663
0.530168 4.78697 -0.773663
0.500168 4.78797 -0.773663
0.485168 4.79397 -0.774663
0.470168 4.79497 -0.774663
0.455168 4.80097 -0.774663
0.440168 4.80397 -0.775663
0.419168 4.81397 -0.776663
0.403168 4.81297 -0.776663
0.389168 4.82197 -0.777663
0.374168 4.82497 -0.778663
0.359168 4.82997 -0.778663
0.351168 4.83097 -0.778663
0.336168 4.82997 -0.778663
0.322168 4.84297 -0.780663
0.307168 4.84597 -0.781663
0.291168 4.84497 -0.780663
0.276168 4.85197 -0.781663
0.261168 4.85197 -0.781663
0.254168 4.85697 -0.782663
0.239168 4.86097 -0.783663
0.224168 4.86997 -0.784663
0.208168 4.86297 -0.783663
0.193168 4.87497 -0.785663
0.178168 4.87397 -0.785663
0.163168 4.86997 -0.784663
0.148168 4.88897 -0.787663
0.140168 4.89497 -0.788663
0.125168 4.88897 -0.787663
0.110168 4.89397 -0.788663
0.0951679 4.90597 -0.790663
0.0791679 4.90997 -0.791663
0.0641679 4.91197 -0.791663
0.0251679 4.92197 -0.793663
0.0101679 4.92197 -0.793663
3.47717 4.04897 -0.917663
3.23017 4.11397 -0.896663
3.00017 4.17397 -0.879663
2.89317 4.20197 -0.871663
2.76617 4.22797 -0.862663
2.73617 4.23997 -0.861663
2.69717 4.25097 -0.858663
2.67817 4.25097 -0.856663
2.64217 4.25297 -0.853663
2.63117 4.26497 -0.854663
2.61617 4.27097 -0.853663
2.60017 4.27397 -0.852663
2.57417 4.27597 -0.850663
2.55617 4.27797 -0.848663
2.47317 4.30597 -0.845663
2.45817 4.30997 -0.844663
2.42717 4.31897 -0.843663
2.38417 4.32197 -0.839663
2.37217 4.33097 -0.840663
2.33917 4.33597 -0.837663
2.31217 4.34997 -0.837663
2.29217 4.34697 -0.835663
2.28717 4.35197 -0.835663
2.25217 4.35297 -0.832663
2.23917 4.36197 -0.833663
2.22617 4.36997 -0.833663
2.21017 4.37197 -0.832663
2.18817 4.37897 -0.831663
2.15817 4.38697 -0.830663
2.12717 4.39497 -0.829663
2.09617 4.39997 -0.827663
2.08717 4.39997 -0.826663
2.07417 4.40797 -0.827663
2.05717 4.40697 -0.825663
2.04217 4.41197 -0.825663
2.02317 4.40797 -0.823663
2.01317 4.42097 -0.824663
1.97217 4.42397 -0.821663
1.96217 4.43697 -0.823663
1.94217 4.42897 -0.820663
1.92817 4.43697 -0.820663
1.90117 4.45097 -0.821663
1.89017 4.44497 -0.819663
1.87817 4.45397 -0.819663
1.84817 4.46097 -0.818663
1.83517 4.46997 -0.819663
1.80317 4.47097 -0.817663
1.79817 4.47897 -0.818663
1.76817 4.48497 -0.817663
1.75317 4.48797 -0.816663
1.73717 4.48797 -0.815663
1.72117 4.48997 -0.815663
1.71317 4.49097 -0.814663
1.69917 4.49597 -0.814663
1.68617 4.50297 -0.815663
1.67117 4.50697 -0.814663
1.63917 4.50597 -0.812663
1.62617 4.51697 -0.813663
1.61817 4.51597 -0.812663
1.60117 4.51297 -0.811663
1.58917 4.52397 -0.812663
1.57717 4.53397 -0.813663
1.55917 4.52997 -0.811663
1.54617 4.53697 -0.812663
1.53317 4.54497 -0.812663
1.52517 4.54597 -0.812663
1.50917 4.54697 -0.811663
1.49617 4.55497 -0.812663
1.48017 4.55397 -0.811663
1.45017 4.55997 -0.810663
1.43017 4.56997 -0.811663
1.39917 4.57397 -0.810663
1.38517 4.57597 -0.809663
1.37017 4.58097 -0.809663
1.35717 4.58997 -0.810663
1.34117 4.58897 -0.809663
1.29117 4.60497 -0.810663
1.26117 4.60997 -0.809663
1.24817 4.61697 -0.810663
1.22517 4.61897 -0.809663
1.19617 4.62697 -0.809663
1.05817 4.66397 -0.810663
1.05117 4.66397 -0.809663
1.00717 4.67597 -0.810663
0.897168 4.69997 -0.810663
0.773168 4.73397 -0.812663
0.764168 4.72597 -0.810663
0.721168 4.74197 -0.812663
0.677168 4.75897 -0.814663
0.654168 4.75597 -0.813663
0.640168 4.76397 -0.814663
0.559168 4.78797 -0.817663
0.477168 4.80797 -0.819663
0.432168 4.81697 -0.820663
0.418168 4.82197 -0.821663
0.387168 4.81897 -0.819663
0.380168 4.83297 -0.822663
0.365168 4.83197 -0.822663
0.350168 4.83497 -0.822663
0.320168 4.83697 -0.822663
0.305168 4.84997 -0.824663
0.290168 4.85497 -0.825663
0.237168 4.85997 -0.826663
0.107168 4.89997 -0.832663
3.60617 4.01797 -0.992663
3.41417 4.06697 -0.974663
3.39017 4.06497 -0.970663
3.36117 4.06897 -0.967663
3.34917 4.08097 -0.968663
3.29617 4.09397 -0.963663
3.25417 4.10697 -0.960663
3.19517 4.11297 -0.953663
3.16517 4.12697 -0.952663
3.14617 4.12897 -0.950663
3.14017 4.13597 -0.950663
3.12317 4.13897 -0.948663
3.10417 4.14097 -0.946663
3.09017 4.14897 -0.946663
3.06917 4.14997 -0.943663
3.05517 4.15797 -0.943663
3.02117 4.15097 -0.938663
3.00717 4.16097 -0.938663
2.97817 4.17497 -0.937663
2.96217 4.18097 -0.936663
2.93517 4.18397 -0.933663
2.92017 4.19097 -0.933663
2.88317 4.19397 -0.929663
2.85017 4.20197 -0.926663
2.82817 4.21197 -0.925663
2.76417 4.23097 -0.921663
2.72917 4.23497 -0.918663
2.70117 4.23597 -0.915663
2.68617 4.24197 -0.915663
2.65717 4.25497 -0.914663
2.64217 4.25997 -0.913663
2.62517 4.26297 -0.912663
2.61817 4.26697 -0.912663
2.60317 4.27197 -0.911663
2.58717 4.27697 -0.910663
2.56717 4.27397 -0.907663
2.55017 4.27697 -0.906663
2.53917 4.28797 -0.907663
2.51517 4.29297 -0.905663
2.49217 4.28597 -0.902663
2.48217 4.29897 -0.903663
2.46517 4.30097 -0.902663
2.43417 4.30997 -0.900663
2.41617 4.30897 -0.898663
2.41117 4.31597 -0.899663
2.39817 4.32397 -0.899663
2.37617 4.31797 -0.896663
2.36517 4.32797 -0.896663
2.34517 4.32597 -0.894663
2.33417 4.33597 -0.895663
2.31917 4.34197 -0.894663
2.30717 4.33497 -0.892663
2.29217 4.34097 -0.892663
2.27817 4.34797 -0.892663
2.26217 4.34997 -0.890663
2.24717 4.35497 -0.890663
2.23517 4.36397 -0.890663
2.21817 4.36597 -0.889663
2.20817 4.36197 -0.888663
2.19217 4.36597 -0.887663
2.17717 4.36897 -0.886663
2.16517 4.37897 -0.887663
2.14817 4.38097 -0.886663
2.13517 4.38797 -0.886663
2.11017 4.38897 -0.884663
2.09617 4.39497 -0.884663
2.08117 4.39997 -0.883663
2.06217 4.39597 -0.881663
2.05217 4.40997 -0.882663
2.03317 4.40497 -0.880663
2.02217 4.41697 -0.881663
2.01017 4.40997 -0.879663
2.00017 4.42497 -0.881663
1.98517 4.42897 -0.880663
1.96917 4.42997 -0.879663
1.95317 4.43297 -0.878663
1.93817 4.43497 -0.878663
1.91717 4.44397 -0.878663
1.90017 4.44297 -0.876663
1.88417 4.44597 -0.875663
1.87017 4.45097 -0.875663
1.85517 4.45397 -0.874663
1.84117 4.45897 -0.874663
1.83317 4.46097 -0.874663
1.81817 4.46297 -0.873663
1.80417 4.46997 -0.874663
1.78917 4.47397 -0.873663
1.77517 4.47797 -0.873663
1.76017 4.48197 -0.872663
1.74017 4.47197 -0.869663
1.73517 4.48097 -0.870663
1.72017 4.48397 -0.870663
1.70517 4.48597 -0.869663
1.69317 4.49697 -0.870663
1.67717 4.49697 -0.869663
1.66417 4.50597 -0.870663
1.65017 4.51097 -0.870663
1.64117 4.50797 -0.869663
1.62417 4.50597 -0.867663
1.61217 4.51797 -0.869663
1.59717 4.51897 -0.868663
1.58317 4.52397 -0.868663
1.55317 4.53097 -0.867663
1.54417 4.52897 -0.866663
1.52917 4.53197 -0.866663
1.51817 4.54397 -0.867663
1.50217 4.54497 -0.867663
1.48817 4.54997 -0.867663
1.47317 4.55297 -0.866663
1.43617 4.56097 -0.865663
1.42217 4.56697 -0.866663
1.40717 4.56997 -0.865663
1.39417 4.57597 -0.866663
1.35617 4.58297 -0.865663
1.34117 4.58497 -0.865663
1.31117 4.58797 -0.863663
1.29817 4.59797 -0.865663
1.26817 4.60197 -0.864663
1.26017 4.60197 -0.863663
1.23317 4.61397 -0.864663
1.21717 4.61397 -0.863663
1.20417 4.62297 -0.865663
1.17317 4.62297 -0.863663
1.16717 4.63097 -0.864663
1.13717 4.63397 -0.863663
1.10817 4.63897 -0.863663
1.09317 4.64297 -0.863663
1.05717 4.65497 -0.864663
1.04417 4.66397 -0.865663
1.02817 4.66197 -0.864663
1.01217 4.65697 -0.862663
0.983168 4.66697 -0.863663
0.976168 4.66897 -0.863663
0.963168 4.67897 -0.865663
0.933168 4.68297 -0.864663
0.903168 4.68497 -0.863663
0.887168 4.68397 -0.863663
0.883168 4.70097 -0.866663
0.866168 4.69197 -0.863663
0.851168 4.69497 -0.863663
0.839168 4.71097 -0.866663
0.823168 4.70597 -0.865663
0.808168 4.70897 -0.865663
0.795168 4.71897 -0.866663
0.789168 4.72797 -0.868663
0.773168 4.72797 -0.867663
0.757168 4.72497 -0.866663
0.715168 4.74497 -0.869663
0.700168 4.74597 -0.869663
0.690168 4.73297 -0.866663
0.678168 4.75297 -0.869663
0.663168 4.75097 -0.869663
0.647168 4.74497 -0.867663
0.633168 4.75697 -0.869663
0.618168 4.76097 -0.869663
0.596168 4.76397 -0.869663
0.581168 4.76597 -0.869663
0.565168 4.76397 -0.869663
0.551168 4.77097 -0.870663
0.536168 4.77097 -0.869663
0.521168 4.77697 -0.870663
0.507168 4.77997 -0.871663
0.499168 4.78497 -0.871663
0.470168 4.79797 -0.874663
0.455168 4.79697 -0.873663
0.426168 4.80597 -0.874663
0.417168 4.80097 -0.873663
0.403168 4.80597 -0.874663
0.388168 4.81497 -0.876663
0.358168 4.81697 -0.876663
0.343168 4.82397 -0.877663
0.306168 4.83097 -0.878663
0.291168 4.83897 -0.879663
0.261168 4.84697 -0.880663
0.193168 4.85597 -0.882663
0.178168 4.85997 -0.882663
0.132168 4.87797 -0.886663
0.0791679 4.88697 -0.887663
0.0641679 4.89897 -0.890663
0.0481679 4.89497 -0.889663
2.73317 4.23197 -1.05266
2.58217 4.27097 -1.04166
2.46117 4.29697 -1.03266
2.44817 4.30497 -1.03266
2.32217 4.33197 -1.02466
2.29217 4.34197 -1.02266
2.24617 4.35397 -1.02066
2.19217 4.36597 -1.01766
2.14717 4.37797 -1.01466
1.98017 4.41797 -1.00666
1.93417 4.42697 -1.00466
1.92917 4.43397 -1.00566
1.89817 4.43897 -1.00366
1.85417 4.45097 -1.00266
1.81717 4.45997 -1.00166
1.80317 4.46597 -1.00166
1.77317 4.47297 -1.00066
1.73517 4.47997 -0.998663
1.72017 4.48297 -0.997663
1.69217 4.49197 -0.997663
1.67517 4.49197 -0.996663
1.64517 4.49497 -0.994663
1.63617 4.49397 -0.993663
1.60717 4.50097 -0.992663
1.59617 4.51697 -0.995663
1.56417 4.51597 -0.992663
1.54917 4.51897 -0.991663
1.54617 4.53197 -0.994663
1.52917 4.52797 -0.992663
1.51417 4.53097 -0.991663
1.50217 4.54297 -0.993663
1.47217 4.54597 -0.992663
1.45717 4.54897 -0.991663
1.44817 4.54797 -0.991663
1.43117 4.54097 -0.988663
1.40317 4.55397 -0.989663
1.39017 4.55997 -0.989663
1.36217 4.57397 -0.991663
1.35317 4.56897 -0.989663
1.34017 4.57697 -0.990663
1.32417 4.57697 -0.989663
1.30817 4.57397 -0.987663
1.29617 4.58597 -0.989663
1.27917 4.58197 -0.987663
1.27317 4.58797 -0.988663
1.26117 4.59897 -0.990663
1.24517 4.59797 -0.988663
1.23117 4.60497 -0.989663
1.20117 4.60697 -0.988663
1.18817 4.61697 -0.989663
1.17217 4.61697 -0.988663
1.16317 4.61097 -0.987663
1.15017 4.61997 -0.988663
1.13617 4.62597 -0.988663
1.12317 4.63497 -0.990663
1.10617 4.62897 -0.987663
1.09417 4.64197 -0.990663
1.07817 4.63997 -0.988663
1.07017 4.63797 -0.987663
1.05617 4.64697 -0.989663
1.04017 4.64397 -0.987663
1.02517 4.64497 -0.987663
1.01217 4.65597 -0.989663
0.997168 4.65397 -0.987663
0.975168 4.66197 -0.988663
0.946168 4.66997 -0.989663
0.933168 4.67897 -0.990663
0.917168 4.67797 -0.989663
0.903168 4.68097 -0.989663
0.895168 4.68197 -0.989663
0.880168 4.68097 -0.988663
0.866168 4.68797 -0.989663
0.852168 4.69397 -0.990663
0.836168 4.69097 -0.989663
0.823168 4.70097 -0.991663
0.808168 4.70197 -0.990663
0.794168 4.70997 -0.991663
0.785168 4.70197 -0.989663
0.772168 4.71397 -0.991663
0.756168 4.71297 -0.991663
0.742168 4.71697 -0.991663
0.727168 4.72297 -0.992663
