0.914137 -5.27805 -1.54294
0.934138 -5.29005 -1.54794
0.949138 -5.27805 -1.54494
0.970138 -5.25605 -1.53994
0.990138 -5.26805 -1.54494
1.00814 -5.27205 -1.54694
1.02714 -5.28405 -1.55194
1.03914 -5.25905 -1.54494
1.06114 -5.28105 -1.55294
1.06614 -5.26305 -1.54794
1.08414 -5.26505 -1.54894
1.09814 -5.25105 -1.54594
1.11614 -5.25605 -1.54894
1.13214 -5.24706 -1.54694
1.14914 -5.24905 -1.54894
1.17114 -5.26805 -1.55594
1.17514 -5.24605 -1.54894
1.19814 -5.27205 -1.55894
1.21014 -5.24706 -1.55194
1.22514 -5.23805 -1.55094
1.23914 -5.22305 -1.54694
1.26614 -5.26405 -1.56094
1.27614 -5.23205 -1.55194
1.28514 -5.23505 -1.55394
1.30814 -5.25705 -1.56194
0.233138 -5.17506 -1.54294
0.242138 -5.17506 -1.54294
0.348138 -5.17605 -1.54594
0.364138 -5.17905 -1.54694
0.380138 -5.17605 -1.54594
0.397138 -5.17805 -1.54794
0.430138 -5.18205 -1.54894
0.454138 -5.17605 -1.54794
0.470138 -5.17805 -1.54894
0.503138 -5.17305 -1.54894
0.519138 -5.16605 -1.54694
0.535138 -5.16206 -1.54594
0.551138 -5.16605 -1.54794
0.560138 -5.16905 -1.54894
0.575137 -5.16206 -1.54794
0.591138 -5.15605 -1.54594
0.609138 -5.16505 -1.54994
0.624138 -5.15605 -1.54794
0.641137 -5.15605 -1.54794
0.656138 -5.14805 -1.54594
0.684138 -5.17105 -1.55494
0.764138 -5.15605 -1.55394
0.787138 -5.13905 -1.54894
0.0151375 -4.98705 -1.53894
0.0311375 -4.99106 -1.53994
0.0461375 -4.98905 -1.53994
0.0621375 -4.99305 -1.54094
0.0781375 -4.99605 -1.54194
0.0931375 -4.99205 -1.54094
0.101138 -4.99405 -1.54194
0.117138 -4.99905 -1.54294
0.133138 -4.98905 -1.53994
0.149138 -4.99605 -1.54294
0.164138 -4.99405 -1.54194
0.179138 -4.98005 -1.53794
0.195138 -4.98205 -1.53794
0.203138 -4.98705 -1.53994
0.219138 -4.98305 -1.53894
0.234138 -4.98406 -1.53994
0.250138 -4.99106 -1.54194
0.282138 -4.99305 -1.54294
0.298138 -4.99405 -1.54394
0.306138 -4.99106 -1.54294
0.321138 -4.98605 -1.54194
0.337138 -4.98505 -1.54194
0.352138 -4.98605 -1.54294
0.368138 -4.98505 -1.54294
0.384138 -4.98205 -1.54194
0.399138 -4.98105 -1.54194
0.408138 -4.99205 -1.54594
0.423138 -4.98505 -1.54394
0.439138 -4.98705 -1.54494
0.456138 -4.99305 -1.54794
0.471138 -4.98406 -1.54494
0.486138 -4.97905 -1.54394
0.502137 -4.98305 -1.54594
0.542138 -4.98605 -1.54794
0.557137 -4.97905 -1.54694
0.572138 -4.97505 -1.54594
0.589137 -4.97706 -1.54694
0.604137 -4.97405 -1.54694
0.612137 -4.97405 -1.54694
0.628138 -4.97405 -1.54794
0.645137 -4.98205 -1.55094
0.660138 -4.97806 -1.54994
0.675138 -4.97405 -1.54994
0.692137 -4.97706 -1.55194
0.714137 -4.96705 -1.54894
0.731138 -4.97005 -1.55094
0.746137 -4.96805 -1.55094
0.762138 -4.96705 -1.55194
0.779137 -4.97205 -1.55394
0.796138 -4.97706 -1.55694
0.811137 -4.97305 -1.55594
0.819138 -4.97005 -1.55494
0.836138 -4.97605 -1.55894
0.850138 -4.96406 -1.55494
0.866138 -4.96205 -1.55494
0.882138 -4.96305 -1.55694
0.899137 -4.96905 -1.55994
0.913137 -4.95905 -1.55694
0.931138 -4.96505 -1.55994
0.936137 -4.94905 -1.55494
0.953138 -4.95505 -1.55894
0.972138 -4.96705 -1.56394
0.988137 -4.96805 -1.56494
1.00114 -4.95405 -1.56094
1.02214 -4.97605 -1.56994
1.02314 -4.94105 -1.55894
1.04014 -4.94605 -1.56094
1.06014 -4.96105 -1.56694
1.07114 -4.94105 -1.56194
1.10614 -4.95106 -1.56694
0.000137524 -4.88205 -1.54894
0.0151375 -4.89505 -1.55394
0.0301375 -4.89906 -1.55494
0.0461375 -4.88905 -1.55194
0.0531375 -4.88605 -1.55094
0.0691375 -4.88905 -1.55194
0.0841375 -4.88705 -1.55094
0.0991375 -4.88905 -1.55194
0.115138 -4.89005 -1.55294
0.130138 -4.89005 -1.55294
0.146138 -4.89105 -1.55294
0.153138 -4.90005 -1.55594
0.169138 -4.89605 -1.55494
0.184138 -4.87705 -1.54894
0.199138 -4.89105 -1.55394
0.214138 -4.87405 -1.54794
0.230138 -4.87705 -1.54894
0.245138 -4.87805 -1.54994
0.253138 -4.89405 -1.55594
0.269138 -4.89505 -1.55594
0.284138 -4.89305 -1.55594
0.300138 -4.89605 -1.55694
0.314138 -4.87805 -1.55094
0.330138 -4.87805 -1.55194
0.345138 -4.88305 -1.55394
0.354138 -4.89405 -1.55794
0.368138 -4.88105 -1.55394
0.385138 -4.89906 -1.55994
0.399138 -4.88105 -1.55394
0.414138 -4.87405 -1.55294
0.431138 -4.89505 -1.55994
0.446138 -4.89005 -1.55894
0.470138 -4.89206 -1.55994
0.486138 -4.90305 -1.56494
0.498138 -4.87005 -1.55394
0.513138 -4.86305 -1.55194
0.0101375 -4.77505 -1.56194
0.0171375 -4.76006 -1.55694
0.0321375 -4.77105 -1.56094
0.0471375 -4.77105 -1.56094
0.0621375 -4.76706 -1.55894
0.0771375 -4.76305 -1.55794
0.0931375 -4.78205 -1.56494
0.107138 -4.76805 -1.55994
0.115138 -4.77406 -1.56194
0.130138 -4.77406 -1.56194
0.144138 -4.76006 -1.55694
0.160138 -4.77406 -1.56294
0.175138 -4.77406 -1.56294
0.190138 -4.77305 -1.56294
0.205138 -4.76905 -1.56094
0.213138 -4.77406 -1.56294
0.227138 -4.77005 -1.56194
0.242138 -4.76905 -1.56194
0.258138 -4.77805 -1.56494
0.272138 -4.76905 -1.56294
0.288138 -4.78205 -1.56694
0.303138 -4.76905 -1.56294
0.318138 -4.77205 -1.56494
0.326138 -4.78305 -1.56894
0.340138 -4.76305 -1.56194
0.354138 -4.74905 -1.55694
0.370138 -4.76805 -1.56494
0.384138 -4.75805 -1.56094
0.400138 -4.76006 -1.56294
0.408138 -4.76905 -1.56594
0.424138 -4.77505 -1.56894
0.438138 -4.76805 -1.56694
0.454138 -4.77505 -1.56894
0.468138 -4.76405 -1.56594
0.483138 -4.76605 -1.56694
0.500138 -4.77905 -1.57294
0.507138 -4.77305 -1.57094
0.522138 -4.77105 -1.57094
0.538137 -4.77705 -1.57294
0.552137 -4.76805 -1.57094
0.565138 -4.75505 -1.56694
0.582138 -4.76605 -1.57094
0.595138 -4.75105 -1.56694
0.605138 -4.76706 -1.57294
0.621137 -4.77305 -1.57494
0.634138 -4.75805 -1.57094
0.649137 -4.75406 -1.56994
0.664137 -4.75705 -1.57194
0.679138 -4.75305 -1.57094
0.696137 -4.76205 -1.57494
0.703138 -4.75905 -1.57494
0.719137 -4.76305 -1.57694
0.733137 -4.75705 -1.57494
0.751137 -4.76905 -1.58094
0.762138 -4.74805 -1.57394
0.777138 -4.74205 -1.57294
0.794138 -4.75105 -1.57694
0.800138 -4.74605 -1.57494
0.813138 -4.73205 -1.57094
0.830137 -4.73905 -1.57494
0.847138 -4.75105 -1.57994
0.860138 -4.73406 -1.57494
0.874138 -4.73105 -1.57494
0.889138 -4.72605 -1.57394
0.895137 -4.71605 -1.57094
0.913137 -4.73005 -1.57694
0.926138 -4.71905 -1.57394
0.145138 -4.69105 -1.57194
0.308138 -4.69205 -1.57494
0.337138 -4.68505 -1.57294
0.352138 -4.69705 -1.57794
0.452138 -4.65005 -1.56394
0.0411375 -4.42805 -1.56994
0.118138 -4.42905 -1.57094
0.195138 -4.43405 -1.57294
0.334138 -4.43106 -1.57594
0.348138 -4.43005 -1.57594
0.427138 -4.44905 -1.58594
0.516137 -4.42705 -1.58094
0.597138 -4.45005 -1.59294
0.607138 -4.41905 -1.58194
0.626137 -4.45605 -1.59694
0.0341375 -4.33405 -1.58094
0.0881375 -4.33005 -1.57894
0.0951375 -4.33306 -1.58094
0.108138 -4.32805 -1.57794
0.135138 -4.32705 -1.57794
0.149138 -4.33405 -1.58094
0.176138 -4.32705 -1.57894
0.184138 -4.33605 -1.58294
0.211138 -4.33105 -1.58094
0.238138 -4.33205 -1.58194
0.266138 -4.34105 -1.58594
0.272138 -4.33005 -1.58194
0.326138 -4.32606 -1.58194
0.340138 -4.32905 -1.58294
0.354138 -4.33105 -1.58494
0.361138 -4.33605 -1.58694
0.375138 -4.32905 -1.58494
0.430138 -4.33405 -1.58894
0.443138 -4.32905 -1.58694
0.450138 -4.33005 -1.58794
0.465138 -4.33906 -1.59194
0.478138 -4.33405 -1.59094
0.491138 -4.32305 -1.58694
0.505138 -4.32606 -1.58894
0.519138 -4.32805 -1.58994
0.534137 -4.33705 -1.59394
0.540138 -4.33306 -1.59294
0.554138 -4.33306 -1.59394
0.567137 -4.32405 -1.59094
0.581137 -4.32505 -1.59194
0.595138 -4.32905 -1.59394
0.608137 -4.32405 -1.59294
0.622137 -4.32205 -1.59294
0.631137 -4.33505 -1.59894
0.643138 -4.32205 -1.59394
0.656138 -4.31705 -1.59294
0.682137 -4.31105 -1.59194
0.696137 -4.30705 -1.59094
0.720138 -4.32705 -1.60094
0.730138 -4.30705 -1.59394
0.839137 -4.32505 -1.60794
0.853137 -4.32205 -1.60794
0.881137 -4.32405 -1.61094
0.904137 -4.29605 -1.60194
0.914137 -4.31306 -1.60994
0.922137 -4.28305 -1.59894
0.00813752 -4.21406 -1.58694
0.0221375 -4.21605 -1.58694
0.0481375 -4.20705 -1.58394
0.0551375 -4.21605 -1.58694
0.0681375 -4.21205 -1.58594
0.0811375 -4.21205 -1.58594
0.0941375 -4.21305 -1.58694
0.108138 -4.21105 -1.58594
0.134138 -4.21805 -1.58894
0.141138 -4.22706 -1.59294
0.154138 -4.21505 -1.58794
0.168138 -4.22005 -1.58994
0.182138 -4.24905 -1.60194
0.222138 -4.24205 -1.59994
0.228138 -4.23105 -1.59594
0.241138 -4.23005 -1.59594
0.255138 -4.23305 -1.59694
0.280138 -4.21305 -1.58994
0.306138 -4.20905 -1.58894
0.314138 -4.23105 -1.59794
0.329138 -4.24106 -1.60194
0.341138 -4.22905 -1.59794
0.354138 -4.22706 -1.59794
0.369138 -4.23905 -1.60294
0.381138 -4.22706 -1.59894
0.396138 -4.24405 -1.60594
0.401138 -4.23105 -1.60094
0.429138 -4.23705 -1.60494
0.453138 -4.21205 -1.59594
0.466138 -4.20505 -1.59294
0.480138 -4.21105 -1.59594
0.488138 -4.22505 -1.60194
0.529137 -4.22605 -1.60494
0.571137 -4.23705 -1.61094
0.00213752 -4.12005 -1.59094
0.00913752 -4.11606 -1.58894
0.0221375 -4.11805 -1.58994
0.0611375 -4.12105 -1.59094
0.0871375 -4.11905 -1.59094
0.0931375 -4.12605 -1.59394
0.255138 -4.12305 -1.59494
0.275138 -4.12005 -1.59494
0.302138 -4.13605 -1.60194
0.315138 -4.13005 -1.59994
0.327138 -4.12505 -1.59794
0.340138 -4.12805 -1.59994
0.354138 -4.12805 -1.60094
0.360138 -4.12805 -1.60094
0.373138 -4.12906 -1.60094
0.387138 -4.13305 -1.60394
0.399138 -4.12405 -1.60094
0.412138 -4.12105 -1.59994
0.425138 -4.12005 -1.59994
0.431138 -4.12105 -1.60094
0.457138 -4.11606 -1.59994
0.474138 -4.14805 -1.61394
0.483138 -4.11505 -1.60094
0.510137 -4.12105 -1.60394
0.517138 -4.12605 -1.60694
0.530137 -4.12405 -1.60694
0.545138 -4.13605 -1.61194
0.556138 -4.11705 -1.60494
0.599137 -4.14305 -1.61794
0.605138 -4.13805 -1.61694
0.618137 -4.13605 -1.61694
0.631137 -4.13105 -1.61494
0.641137 -4.11606 -1.60994
0.656138 -4.12105 -1.61294
0.683138 -4.12605 -1.61694
0.787138 -4.11005 -1.61694
0.797137 -4.09405 -1.61194
0.809138 -4.08605 -1.60994
0.823138 -4.08906 -1.61194
0.836138 -4.08705 -1.61194
0.849137 -4.08805 -1.61394
0.859138 -4.10105 -1.61994
0.873138 -4.10505 -1.62294
0.886137 -4.10306 -1.62294
0.0201375 -4.05006 -1.59694
0.0771375 -4.05606 -1.59994
0.0901375 -4.06905 -1.60494
0.103138 -4.07405 -1.60794
0.155138 -4.07805 -1.60994
0.174138 -4.07006 -1.60694
0.186138 -4.05505 -1.60094
0.199138 -4.06205 -1.60394
0.213138 -4.08306 -1.61294
0.282138 -4.06605 -1.60794
0.295138 -4.06905 -1.60894
0.309138 -4.07305 -1.61194
0.315138 -4.07105 -1.61094
0.328138 -4.07205 -1.61194
0.340138 -4.06905 -1.61094
0.351138 -4.04605 -1.60194
0.379138 -4.06505 -1.61094
0.391138 -4.05505 -1.60694
0.397138 -4.05105 -1.60494
0.411138 -4.06205 -1.61094
0.424138 -4.06505 -1.61194
0.436138 -4.05805 -1.60994
0.448138 -4.05105 -1.60794
0.461138 -4.05505 -1.60994
0.474138 -4.05505 -1.61094
0.358138 -3.96705 -1.60694
0.464138 -3.96005 -1.60894
0.521138 -3.96005 -1.61194
0.537138 -3.98805 -1.62494
0.548137 -3.97205 -1.61894
0.560138 -3.96805 -1.61794
0.567137 -3.97105 -1.61894
0.578138 -3.96205 -1.61594
0.592138 -3.96705 -1.61894
0.604137 -3.96205 -1.61794
0.615138 -3.95105 -1.61394
0.632138 -3.97905 -1.62694
0.644138 -3.97605 -1.62594
0.781138 -3.95105 -1.62594
0.847138 -3.92605 -1.62194
0.859138 -3.92405 -1.62194
0.871137 -3.91705 -1.61994
0.904137 -3.92105 -1.62494
0.934138 -3.93705 -1.63394
0.0241375 -3.86105 -1.60694
0.0421375 -3.85905 -1.60594
0.0541375 -3.86805 -1.60994
0.0781375 -3.86405 -1.60894
0.0911375 -3.87605 -1.61394
0.280138 -3.87305 -1.61694
0.318138 -3.88805 -1.62494
0.340138 -3.86005 -1.61294
0.354138 -3.88705 -1.62594
0.371138 -3.86305 -1.61594
0.396138 -3.87005 -1.61994
0.408138 -3.86505 -1.61794
0.422138 -3.88205 -1.62594
0.433138 -3.87705 -1.62494
0.438138 -3.86505 -1.61994
0.450138 -3.86005 -1.61794
0.475138 -3.86305 -1.62094
0.487138 -3.85905 -1.61994
0.499138 -3.86005 -1.62094
0.513138 -3.87405 -1.62794
0.518138 -3.85905 -1.62194
0.542138 -3.85405 -1.62094
0.577138 -3.84505 -1.61894
0.593138 -3.86805 -1.63094
0.600138 -3.87505 -1.63394
1.36414 -3.73705 -1.65894
1.37214 -3.72205 -1.65394
1.38514 -3.72105 -1.65594
1.38814 -3.71205 -1.65194
1.39814 -3.70405 -1.65094
1.41414 -3.71005 -1.65594
1.42214 -3.69705 -1.65194
1.43914 -3.70505 -1.65694
1.45214 -3.70505 -1.65994
1.46014 -3.69005 -1.65494
1.46814 -3.69305 -1.65694
1.48514 -3.70405 -1.66494
1.49214 -3.68705 -1.65894
1.49814 -3.66705 -1.65194
1.51514 -3.67805 -1.65894
1.52314 -3.66505 -1.65494
1.54014 -3.67205 -1.66094
1.54514 -3.66905 -1.66094
1.55314 -3.65405 -1.65594
1.57014 -3.66305 -1.66194
1.58114 -3.65805 -1.66194
1.59114 -3.64805 -1.65994
1.60114 -3.63905 -1.65794
1.61214 -3.63405 -1.65794
1.61614 -3.62705 -1.65594
1.63914 -3.61805 -1.65694
0.0321375 -3.77905 -1.61294
0.0441375 -3.77505 -1.61194
0.0561375 -3.77905 -1.61294
0.0681375 -3.78405 -1.61594
0.0741375 -3.77805 -1.61294
0.0851375 -3.77405 -1.61194
0.121138 -3.78105 -1.61494
0.134138 -3.79305 -1.62094
0.145138 -3.79105 -1.61994
0.152138 -3.79605 -1.62294
0.163138 -3.78605 -1.61794
0.175138 -3.78105 -1.61594
0.187138 -3.78705 -1.61894
0.198138 -3.77905 -1.61594
0.211138 -3.78405 -1.61794
0.224138 -3.79805 -1.62494
0.229138 -3.79005 -1.62194
0.241138 -3.78605 -1.61994
0.253138 -3.79205 -1.62294
0.265138 -3.78805 -1.62194
0.277138 -3.78705 -1.62194
0.288138 -3.77905 -1.61794
0.300138 -3.78405 -1.62094
0.306138 -3.78505 -1.62194
0.318138 -3.78405 -1.62194
0.330138 -3.78505 -1.62294
0.341138 -3.77505 -1.61794
0.354138 -3.78405 -1.62294
0.366138 -3.78705 -1.62494
0.378138 -3.78405 -1.62394
0.384138 -3.78505 -1.62494
0.396138 -3.78405 -1.62494
0.407138 -3.77405 -1.62094
0.422138 -3.79805 -1.63294
0.555138 -3.79205 -1.63794
0.613137 -3.77505 -1.63394
0.620138 -3.78005 -1.63694
0.629138 -3.76105 -1.62894
0.643138 -3.77205 -1.63494
0.654137 -3.76505 -1.63294
0.668137 -3.77905 -1.63994
0.681138 -3.77805 -1.64094
0.690138 -3.76405 -1.63494
0.704138 -3.77005 -1.63894
0.710137 -3.76905 -1.63894
0.721138 -3.76305 -1.63794
0.729137 -3.74205 -1.62794
0.742137 -3.75005 -1.63294
0.754138 -3.74405 -1.63194
0.768138 -3.75205 -1.63694
0.801138 -3.76405 -1.64494
0.814138 -3.76505 -1.64694
0.822138 -3.74605 -1.63894
0.837138 -3.76005 -1.64694
0.847138 -3.75005 -1.64294
0.852138 -3.74305 -1.64094
0.862137 -3.73505 -1.63794
0.876137 -3.74205 -1.64194
0.883138 -3.71905 -1.63294
0.900137 -3.73605 -1.64194
0.912138 -3.73505 -1.64294
0.923137 -3.72805 -1.64194
1.49914 -3.61005 -1.67194
1.53314 -3.59705 -1.67294
1.55014 -3.59005 -1.67294
1.55714 -3.57505 -1.66794
1.57014 -3.57305 -1.66994
1.57414 -3.55305 -1.66194
1.58914 -3.55705 -1.66694
1.59614 -3.54205 -1.66194
1.61614 -3.54105 -1.66494
1.62714 -3.53705 -1.66594
1.63614 -3.52705 -1.66294
1.64714 -3.52005 -1.66194
1.65714 -3.51405 -1.66194
1.72114 -3.49305 -1.66594
0.159138 -3.72305 -1.62894
0.170138 -3.72305 -1.62894
0.182138 -3.72605 -1.62994
0.193138 -3.71405 -1.62494
0.200138 -3.73005 -1.63294
0.212138 -3.72805 -1.63194
0.223138 -3.72005 -1.62894
0.234138 -3.71705 -1.62794
0.247138 -3.72705 -1.63294
0.259138 -3.73205 -1.63494
0.271138 -3.73705 -1.63794
0.277138 -3.73605 -1.63794
0.300138 -3.73605 -1.63894
0.311138 -3.72605 -1.63394
0.323138 -3.72705 -1.63494
0.365138 -3.73205 -1.63994
0.376138 -3.72405 -1.63594
0.424138 -3.72805 -1.63994
0.429138 -3.71805 -1.63594
0.440138 -3.71505 -1.63494
0.465138 -3.72105 -1.63994
0.530137 -3.72005 -1.64294
0.912138 -3.67105 -1.65494
0.921138 -3.65605 -1.64894
0.945138 -3.65505 -1.65094
0.955137 -3.64905 -1.64994
0.961138 -3.64705 -1.64994
0.975138 -3.65305 -1.65394
0.985138 -3.64605 -1.65194
1.01814 -3.63205 -1.64994
1.03314 -3.63905 -1.65494
1.03914 -3.64105 -1.65594
1.05214 -3.64105 -1.65794
1.06214 -3.63205 -1.65594
1.07514 -3.63605 -1.65894
1.08714 -3.63305 -1.65894
1.09614 -3.62405 -1.65594
1.11014 -3.62805 -1.65994
1.11614 -3.62605 -1.65994
1.13814 -3.61905 -1.65994
1.15214 -3.62405 -1.66394
1.16414 -3.62005 -1.66394
1.25014 -3.59505 -1.66594
1.26214 -3.59505 -1.66694
1.27814 -3.58505 -1.66594
1.31114 -3.57005 -1.66394
1.32314 -3.56905 -1.66594
1.33514 -3.56805 -1.66694
1.33914 -3.55905 -1.66394
1.35214 -3.56005 -1.66694
1.36614 -3.56405 -1.67094
1.37814 -3.56205 -1.67194
1.38814 -3.55405 -1.66994
1.40114 -3.55505 -1.67294
1.44214 -3.54405 -1.67494
1.47514 -3.53005 -1.67494
1.48614 -3.52405 -1.67394
1.50314 -3.51905 -1.67494
1.51614 -3.51905 -1.67794
1.52814 -3.51705 -1.67894
1.53814 -3.50905 -1.67794
1.55114 -3.50805 -1.67894
1.56514 -3.49505 -1.67694
1.57514 -3.48905 -1.67594
1.58514 -3.48105 -1.67394
1.59414 -3.47205 -1.67294
1.60614 -3.46905 -1.67294
1.61914 -3.46905 -1.67594
1.62914 -3.46205 -1.67494
1.63214 -3.45505 -1.67294
1.64314 -3.44905 -1.67294
1.65414 -3.44405 -1.67294
1.66814 -3.44605 -1.67594
1.67514 -3.43205 -1.67194
1.68514 -3.42505 -1.67094
1.69814 -3.42505 -1.67294
1.70314 -3.42205 -1.67294
1.71314 -3.41505 -1.67294
1.73614 -3.40805 -1.67394
1.74414 -3.39705 -1.67194
2.66114 5.96994 0.423059
2.24914 5.95195 0.417059
2.23214 5.96495 0.417059
7.31414 5.99395 0.461059
7.26314 5.99095 0.460059
7.21614 5.98994 0.459059
7.17514 5.99395 0.459059
7.12314 5.98994 0.457059
7.08214 5.99295 0.457059
7.05214 5.98695 0.456059
6.92114 5.98895 0.453059
6.79114 5.98994 0.450059
6.55514 5.98595 0.446059
6.32414 5.97995 0.441059
6.28614 5.98195 0.440059
6.10814 5.97895 0.436059
6.06914 5.97895 0.436059
6.03014 5.97795 0.435059
3.46614 5.96095 0.391059
2.96814 5.95795 0.385059
2.94214 5.95295 0.384059
2.69314 5.95995 0.381059
2.64614 5.95694 0.381059
2.62314 5.95395 0.380059
2.47714 5.95095 0.379059
2.44514 5.95095 0.378059
2.31814 5.96095 0.377059
2.23914 5.95095 0.376059
7.29214 5.99895 0.344059
7.06314 5.99895 0.342059
6.99614 5.99995 0.341059
6.89514 5.98895 0.340059
6.69614 5.98495 0.337059
6.65914 5.98994 0.337059
6.57714 5.99095 0.336059
6.46014 5.99695 0.335059
6.39814 5.99594 0.334059
6.35014 5.98895 0.333059
6.31414 5.99195 0.333059
6.26914 5.98695 0.333059
6.23314 5.99095 0.332059
6.19814 5.99495 0.332059
6.13114 5.98595 0.331059
6.09214 5.98595 0.331059
6.02214 5.99195 0.330059
5.98114 5.98994 0.329059
5.90114 5.98395 0.329059
5.87914 5.98095 0.328059
5.84914 5.98795 0.328059
5.80414 5.97895 0.327059
5.76614 5.97695 0.327059
3.57114 5.97095 0.307059
3.54414 5.96795 0.306059
3.51914 5.96895 0.306059
3.49214 5.96595 0.306059
3.48014 5.96595 0.306059
3.45614 5.96895 0.306059
3.42814 5.96395 0.305059
3.40714 5.97095 0.305059
3.38314 5.97095 0.305059
3.35414 5.96495 0.305059
3.33114 5.96795 0.305059
3.31614 5.96294 0.304059
3.29014 5.96095 0.304059
3.26514 5.95895 0.304059
3.24014 5.95895 0.304059
3.21714 5.95995 0.304059
3.19014 5.95395 0.303059
3.16914 5.96095 0.303059
3.15314 5.95395 0.303059
3.13214 5.95795 0.303059
3.10614 5.95595 0.303059
3.08614 5.96195 0.303059
3.06514 5.96795 0.303059
3.03614 5.95795 0.302059
3.01314 5.95895 0.302059
3.00314 5.96095 0.302059
2.97614 5.95495 0.302059
2.95614 5.96195 0.302059
2.93214 5.96095 0.302059
2.90914 5.96095 0.302059
2.88514 5.95895 0.301059
2.85914 5.95395 0.301059
2.83914 5.95895 0.301059
2.82814 5.95995 0.301059
2.80614 5.96395 0.301059
2.77914 5.95395 0.301059
2.75714 5.95595 0.301059
2.73614 5.95895 0.300059
2.71314 5.95795 0.300059
2.69814 5.94994 0.300059
2.67614 5.95295 0.300059
2.65114 5.94695 0.300059
2.63214 5.95295 0.300059
2.60914 5.95195 0.300059
2.58914 5.95694 0.299059
2.56414 5.95195 0.299059
2.54314 5.95495 0.299059
2.50714 5.94795 0.299059
2.48514 5.94895 0.299059
2.46414 5.94895 0.299059
2.44214 5.94895 0.299059
2.42214 5.95295 0.298059
2.39714 5.94595 0.298059
2.32114 5.95995 0.26506
2.25114 5.94394 0.26506
2.24114 5.94495 0.264059
2.00114 5.95795 0.220059
2.27714 5.94795 0.190059
7.35814 5.98294 0.124059
7.31514 5.98595 0.124059
7.26814 5.98595 0.12506
7.23514 5.97895 0.12506
7.19514 5.98395 0.12506
7.14114 5.97695 0.12606
7.10814 5.98795 0.12606
7.05714 5.98294 0.12606
7.01914 5.98795 0.12606
6.97514 5.98895 0.12706
6.94814 5.98495 0.12706
6.89314 5.97495 0.12706
6.86314 5.98795 0.12706
6.81414 5.98294 0.12806
6.77414 5.98595 0.12806
6.73514 5.98795 0.12806
6.69714 5.97395 0.12806
6.65714 5.97594 0.12806
6.63114 5.98994 0.12906
6.58214 5.98395 0.12906
6.53814 5.98195 0.12906
6.50314 5.98795 0.12906
6.46214 5.98795 0.130059
6.42814 5.97495 0.130059
6.39214 5.97895 0.130059
6.34814 5.97594 0.130059
6.31014 5.97795 0.130059
6.23514 5.98095 0.131059
6.18914 5.97495 0.131059
6.17614 5.98095 0.131059
6.12514 5.96895 0.132059
6.09114 5.97395 0.132059
6.05414 5.97495 0.132059
6.00814 5.96695 0.132059
5.97514 5.97195 0.132059
5.88214 5.97195 0.13306
5.85514 5.98195 0.13306
5.81514 5.97895 0.13306
5.77414 5.97395 0.13306
5.74014 5.97594 0.13406
5.70114 5.97395 0.13406
4.46914 5.97295 0.14006
4.43714 5.96994 0.14006
4.40014 5.95995 0.14106
3.68214 5.95095 0.144059
3.62614 5.96395 0.144059
3.46214 5.96595 0.145059
3.40914 5.95995 0.145059
3.32014 5.95694 0.145059
3.30114 5.96595 0.145059
3.27514 5.96395 0.145059
3.22714 5.96495 0.146059
3.13914 5.95795 0.146059
3.11114 5.94994 0.146059
3.06714 5.95694 0.146059
2.93714 5.95694 0.14706
2.85614 5.95694 0.14706
2.76514 5.95795 0.14706
2.64114 5.95895 0.14806
2.55914 5.94895 0.14806
2.53714 5.94994 0.14806
2.42814 5.95195 0.14806
2.39614 5.95395 0.14806
2.32614 5.94295 0.14906
2.23414 5.95495 0.14906
2.21214 5.95195 0.14906
10.1941 5.99695 0.0330595
9.44014 5.99995 0.0420595
7.35614 5.99195 0.0660595
7.30014 5.98395 0.0660595
7.27014 5.97895 0.0670595
7.22114 5.97695 0.0670595
7.09114 5.98195 0.0690595
7.04214 5.97895 0.0690595
7.01114 5.98994 0.0690595
6.93314 5.97995 0.0700595
6.84214 5.97695 0.0710595
6.80914 5.98495 0.0720595
6.76114 5.98195 0.0720595
6.71314 5.97594 0.0730595
6.69014 5.97495 0.0730595
6.56814 5.97795 0.0740595
6.51914 5.96994 0.0750595
6.48514 5.97695 0.0750595
6.45214 5.98395 0.0750595
6.37614 5.96895 0.0760595
6.33814 5.97095 0.0770595
6.21914 5.97095 0.0780595
6.17814 5.96795 0.0780595
5.90214 5.97594 0.0810595
3.88814 5.95195 0.0990595
2.70114 5.94295 0.10706
2.67014 5.94795 0.10706
2.62214 5.94095 0.10806
2.60314 5.94695 0.10806
2.47914 5.94095 0.10806
2.43514 5.93995 0.109059
2.26214 5.93895 0.109059
8.27914 5.98495 -0.0159405
7.13014 5.98595 0.0030595
6.04314 5.98294 0.0200595
5.96214 5.97695 0.0210595
5.79314 5.97495 0.0240595
5.61614 5.97795 0.0260595
5.33814 5.97695 0.0300595
5.08814 5.97594 0.0340595
5.05614 5.97594 0.0340595
4.87814 5.97295 0.0360595
4.41814 5.96395 0.0420595
4.31114 5.95595 0.0440595
4.20514 5.96495 0.0450595
4.10014 5.95495 0.0470595
4.05114 5.96495 0.0470595
3.94514 5.96795 0.0480595
3.89714 5.95694 0.0490595
3.84514 5.95895 0.0490595
3.79614 5.96495 0.0500595
3.75314 5.95895 0.0500595
3.70014 5.95895 0.0510595
3.58214 5.95395 0.0520595
3.53414 5.95895 0.0530595
3.48614 5.96395 0.0530595
3.39814 5.96395 0.0540595
3.34914 5.96395 0.0550595
3.21314 5.96195 0.0560595
3.16214 5.95694 0.0570595
3.07714 5.95395 0.0580595
3.03014 5.95395 0.0580595
2.98614 5.95995 0.0580595
2.93914 5.96095 0.0590595
2.51714 5.95395 0.0630595
2.48414 5.95495 0.0630595
2.41614 5.95095 0.0630595
2.37214 5.94895 0.0640595
2.34114 5.95295 0.0640595
2.25014 5.94095 0.0650595
10.1641 5.99995 -0.10994
8.85814 5.98595 -0.0809405
8.80414 5.98994 -0.0799405
8.75614 5.99695 -0.0789405
8.70114 5.99995 -0.0779405
8.65514 5.98795 -0.0769405
8.60414 5.99295 -0.0759405
2.56314 5.95595 0.0290595
2.49414 5.95095 0.0290595
2.44014 5.95195 0.0300595
2.37514 5.95195 0.0310595
2.31014 5.95195 0.0310595
2.21114 5.94195 0.0320595
9.32414 5.98695 -0.156941
9.28014 5.99995 -0.155941
9.20214 5.99195 -0.15394
9.08814 5.99895 -0.15094
8.96214 5.99695 -0.147941
8.93214 5.99795 -0.14694
8.86214 5.99095 -0.14494
8.74614 5.99395 -0.141941
8.42914 5.99395 -0.133941
8.37014 5.99195 -0.13194
8.12614 5.99295 -0.125941
8.07014 5.99195 -0.12394
7.96714 5.99295 -0.121941
7.77714 5.98595 -0.11694
7.73014 5.98795 -0.11594
7.67714 5.98595 -0.11394
7.63314 5.99095 -0.11294
7.58314 5.98994 -0.11194
7.48614 5.98994 -0.10894
7.45514 5.98495 -0.10894
7.40314 5.98195 -0.106941
7.36414 5.98895 -0.10594
7.31414 5.98695 -0.10494
7.22114 5.98695 -0.10294
7.19314 5.98294 -0.10194
7.14514 5.98095 -0.10094
7.05414 5.98095 -0.0989405
6.97014 5.98595 -0.0969405
6.89514 5.97795 -0.0949405
6.85414 5.97995 -0.0939405
6.80914 5.97895 -0.0929405
6.62214 5.98294 -0.0879405
6.57914 5.98195 -0.0869405
6.45214 5.97895 -0.0839405
6.34914 5.97695 -0.0819405
6.30614 5.97395 -0.0809405
6.22614 5.97395 -0.0789405
6.18814 5.97495 -0.0779405
6.15214 5.97795 -0.0769405
6.11214 5.97594 -0.0759405
6.07714 5.97995 -0.0759405
6.05214 5.97395 -0.0749405
6.00214 5.96195 -0.0729405
5.97414 5.97095 -0.0729405
5.94114 5.97594 -0.0719405
5.89714 5.96895 -0.0709405
5.86514 5.97495 -0.0709405
5.79914 5.96395 -0.0689405
5.76914 5.96994 -0.0679405
5.73714 5.97395 -0.0679405
5.69114 5.96495 -0.0669405
5.66214 5.97095 -0.0659405
5.63214 5.97695 -0.0649405
5.60214 5.96395 -0.0649405
5.57114 5.96895 -0.0639405
5.54214 5.97594 -0.0629405
5.49914 5.96695 -0.0619405
5.46714 5.96895 -0.0619405
5.43714 5.97495 -0.0609405
5.39614 5.96695 -0.0599405
5.37114 5.95895 -0.0589405
5.34614 5.96795 -0.0589405
5.30514 5.95995 -0.0579405
5.27514 5.96395 -0.0569405
5.24814 5.97195 -0.0569405
5.20714 5.96294 -0.0559405
5.17414 5.96294 -0.0549405
5.15814 5.96294 -0.0549405
5.09114 5.96095 -0.0539405
5.06314 5.96595 -0.0529405
5.02814 5.96395 -0.0519405
4.99714 5.96395 -0.0519405
4.97214 5.97195 -0.0509405
4.94414 5.95795 -0.0499405
4.91714 5.96294 -0.0499405
4.88614 5.96495 -0.0489405
4.85414 5.96294 -0.0489405
4.81714 5.95694 -0.0479405
4.79514 5.96695 -0.0479405
4.75514 5.95595 -0.0469405
4.72714 5.95995 -0.0459405
4.71814 5.96695 -0.0459405
4.67514 5.95195 -0.0449405
4.65214 5.95995 -0.0449405
4.62614 5.96495 -0.0439405
4.59014 5.95795 -0.0429405
4.56514 5.96395 -0.0429405
4.53414 5.96294 -0.0419405
4.51514 5.95694 -0.0419405
4.42914 5.95895 -0.0399405
4.39414 5.95195 -0.0389405
4.37014 5.95795 -0.0389405
4.34014 5.95694 -0.0389405
4.32014 5.94994 -0.0379405
4.29514 5.95395 -0.0379405
4.26414 5.95095 -0.0369405
4.23514 5.94994 -0.0359405
4.21014 5.95495 -0.0359405
4.18214 5.95495 -0.0359405
4.15714 5.95795 -0.0349405
4.14214 5.95595 -0.0349405
4.11214 5.95295 -0.0339405
4.08314 5.95095 -0.0339405
4.06214 5.96095 -0.0329405
4.03114 5.95495 -0.0329405
4.00214 5.95295 -0.0319405
3.97614 5.95495 -0.0319405
3.95914 5.94994 -0.0309405
3.93014 5.94795 -0.0309405
3.90814 5.95495 -0.0309405
3.88014 5.95195 -0.0299405
3.85014 5.94695 -0.0289405
3.82814 5.95495 -0.0289405
3.80214 5.95495 -0.0289405
3.78714 5.95195 -0.0279405
3.73214 5.94695 -0.0269405
3.70814 5.95095 -0.0269405
3.68614 5.95694 -0.0269405
3.66014 5.95694 -0.0259405
3.62914 5.94895 -0.0259405
3.61514 5.94695 -0.0249405
3.58814 5.94394 -0.0249405
3.53614 5.94295 -0.0239405
3.51414 5.94895 -0.0239405
3.46614 5.95195 -0.0229405
3.42614 5.94895 -0.0219405
3.40014 5.94595 -0.0219405
3.37414 5.94394 -0.0209405
3.34914 5.94394 -0.0209405
3.32914 5.95095 -0.0209405
3.29914 5.94295 -0.0199405
3.28714 5.94295 -0.0199405
3.26414 5.94595 -0.0199405
3.24114 5.94695 -0.0189405
3.21614 5.94495 -0.0189405
3.18914 5.94095 -0.0179405
3.16714 5.94394 -0.0179405
3.14414 5.94695 -0.0179405
3.05814 5.94195 -0.0169405
3.01014 5.93995 -0.0159405
2.98714 5.94095 -0.0149405
2.97514 5.93995 -0.0149405
2.95414 5.94595 -0.0149405
2.93014 5.94195 -0.0149405
2.90914 5.94795 -0.0149405
2.88514 5.94595 -0.0139405
2.86214 5.94595 -0.0139405
2.83914 5.94595 -0.0139405
2.81514 5.94394 -0.0129405
2.80114 5.93995 -0.0129405
2.77914 5.94095 -0.0129405
2.75714 5.94295 -0.0119405
2.73414 5.93995 -0.0119405
2.71414 5.94695 -0.0119405
2.69314 5.94994 -0.0119405
2.66814 5.94595 -0.0109405
2.65514 5.94095 -0.0109405
2.63614 5.94895 -0.0109405
2.61314 5.94695 -0.0109405
2.59014 5.94595 -0.0099405
2.56614 5.94095 -0.0099405
2.54314 5.93995 -0.0089405
2.52414 5.94595 -0.0089405
2.50914 5.93895 -0.0089405
2.49014 5.94495 -0.0089405
2.46514 5.93795 -0.0079405
2.42514 5.94595 -0.0079405
2.40214 5.94394 -0.0079405
2.38214 5.94795 -0.0079405
2.36814 5.94095 -0.0069405
2.34714 5.94095 -0.0069405
2.32514 5.94095 -0.0069405
2.23314 5.95195 -0.0059405
2.20914 5.94595 -0.0059405
10.4811 5.99795 -0.340941
10.4081 5.99995 -0.337941
9.93114 5.99995 -0.318941
9.85414 5.99594 -0.31594
9.54514 5.99495 -0.304941
9.47814 5.99495 -0.301941
9.41414 5.99594 -0.299941
9.11914 5.99095 -0.288941
9.05714 5.99195 -0.285941
8.93414 5.99195 -0.281941
8.60314 5.98795 -0.269941
8.40414 5.98895 -0.261941
8.29014 5.98695 -0.257941
7.66114 5.98595 -0.235941
7.39214 5.98495 -0.22594
7.34214 5.98294 -0.22494
7.03914 5.98095 -0.213941
6.99614 5.98195 -0.21294
6.90714 5.98095 -0.20994
6.86414 5.98195 -0.207941
6.52114 5.97895 -0.19694
6.48014 5.97895 -0.19594
6.25714 5.97795 -0.18794
6.17014 5.96994 -0.184941
6.13614 5.97395 -0.183941
6.10014 5.97594 -0.18294
6.06014 5.97395 -0.18194
5.99714 5.96895 -0.17994
5.96414 5.97395 -0.178941
5.89014 5.97395 -0.176941
5.81514 5.97295 -0.17394
5.68814 5.97295 -0.169941
5.49014 5.96895 -0.163941
5.35514 5.97095 -0.15994
5.32114 5.97095 -0.15894
5.26914 5.96895 -0.15794
5.19714 5.96294 -0.154941
4.68414 5.95495 -0.139941
4.58114 5.95895 -0.13794
4.54414 5.94994 -0.13594
4.23314 5.95895 -0.127941
4.20514 5.95895 -0.127941
4.05114 5.95795 -0.12394
3.96714 5.95495 -0.121941
3.93714 5.94994 -0.12094
3.85114 5.96095 -0.118941
3.65114 5.95495 -0.11394
3.57614 5.95895 -0.11194
3.55614 5.94695 -0.11194
3.50714 5.95095 -0.110941
3.42714 5.94195 -0.10894
3.37314 5.95595 -0.107941
3.16314 5.95095 -0.10294
2.96214 5.95095 -0.0989405
2.89814 5.93995 -0.0969405
12.7351 5.99795 -0.509941
12.6351 5.99995 -0.50594
12.5341 5.99895 -0.500941
10.4181 5.98595 -0.406941
10.3441 5.98695 -0.403941
10.1881 5.98195 -0.39694
9.87414 5.98595 -0.382941
9.80714 5.98795 -0.380941
9.73614 5.98595 -0.377941
9.67114 5.98795 -0.374941
9.60514 5.98895 -0.371941
9.54214 5.99095 -0.368941
9.49714 5.98395 -0.366941
9.43614 5.98695 -0.364941
9.36514 5.98294 -0.361941
9.29314 5.97695 -0.357941
9.23014 5.97795 -0.355941
9.17614 5.98395 -0.353941
9.13014 5.97495 -0.351941
9.01114 5.97695 -0.346941
8.95414 5.97995 -0.343941
8.89114 5.97795 -0.341941
8.83714 5.98195 -0.338941
8.78714 5.98895 -0.337941
8.67514 5.97195 -0.331941
8.56014 5.97195 -0.327941
8.50714 5.97495 -0.325941
8.46214 5.98294 -0.323941
8.41114 5.98695 -0.321941
8.36614 5.97395 -0.319941
8.31014 5.97395 -0.317941
8.25714 5.97495 -0.314941
8.20514 5.97594 -0.312941
8.15814 5.98195 -0.311941
8.10614 5.98195 -0.309941
8.05014 5.97995 -0.306941
8.01514 5.97395 -0.305941
7.96314 5.97395 -0.302941
7.91614 5.97695 -0.301941
7.87314 5.98294 -0.299941
7.80214 5.96795 -0.296941
7.76314 5.97695 -0.295941
7.72014 5.98294 -0.293941
7.66514 5.97795 -0.291941
7.62414 5.96595 -0.289941
7.58714 5.97495 -0.288941
7.48714 5.97195 -0.284941
7.44114 5.97395 -0.282941
7.38914 5.96994 -0.280941
7.35014 5.97695 -0.278941
7.32014 5.97195 -0.277941
7.27214 5.97095 -0.275941
7.22014 5.96495 -0.273941
7.18714 5.97695 -0.272941
7.08714 5.96895 -0.268941
7.06214 5.96695 -0.267941
7.01514 5.96395 -0.265941
6.97514 5.96795 -0.264941
6.93014 5.96795 -0.262941
6.87814 5.96095 -0.260941
6.83814 5.96395 -0.258941
6.69114 5.96495 -0.25394
6.60114 5.95995 -0.24994
6.57714 5.97495 -0.24994
6.51814 5.95995 -0.24694
6.45614 5.95895 -0.244941
6.34914 5.97195 -0.24094
6.30014 5.96294 -0.23894
6.23614 5.95795 -0.236941
6.19714 5.95795 -0.23494
6.12414 5.96195 -0.23294
6.08814 5.96395 -0.23194
6.04514 5.95895 -0.229941
6.01514 5.96695 -0.228941
5.96914 5.95895 -0.22694
5.91014 5.95595 -0.22494
5.84114 5.95995 -0.222941
5.76414 5.95595 -0.21994
5.73314 5.96095 -0.21894
5.71814 5.96395 -0.21894
5.67214 5.95295 -0.21694
5.64114 5.95795 -0.215941
5.60314 5.95495 -0.213941
5.56814 5.95495 -0.21294
5.53514 5.95595 -0.21194
5.50514 5.96195 -0.21094
5.48214 5.95595 -0.20994
5.44614 5.95395 -0.208941
5.41414 5.95595 -0.207941
5.34714 5.95694 -0.20594
5.32014 5.96495 -0.20494
5.28714 5.96495 -0.20394
5.19414 5.95395 -0.199941
5.13914 5.96495 -0.198941
4.96014 5.96195 -0.192941
4.92114 5.95295 -0.19094
4.88614 5.94795 -0.18994
4.85714 5.95095 -0.18894
4.78014 5.95195 -0.186941
4.75314 5.95595 -0.185941
4.65614 5.94795 -0.18294
4.61614 5.95395 -0.18194
4.55114 5.94795 -0.17994
4.49614 5.95295 -0.177941
4.46214 5.94595 -0.176941
4.44914 5.94795 -0.176941
4.27714 5.94795 -0.171941
4.12214 5.94695 -0.16694
4.09814 5.95095 -0.16694
4.05214 5.94394 -0.164941
3.94414 5.94495 -0.161941
3.91814 5.94495 -0.16094
3.87714 5.94394 -0.15994
3.82514 5.94595 -0.15894
3.79914 5.94595 -0.15794
3.67914 5.94095 -0.154941
3.63214 5.94895 -0.15394
3.57814 5.94295 -0.15194
3.55914 5.95395 -0.15194
3.54414 5.95095 -0.15094
3.51514 5.94295 -0.149941
3.48914 5.94195 -0.149941
3.46514 5.94394 -0.148941
3.44414 5.94994 -0.148941
3.41214 5.93795 -0.147941
3.39414 5.94994 -0.147941
3.37814 5.94394 -0.14694
3.35314 5.94195 -0.14594
3.32914 5.94394 -0.14594
3.30614 5.94495 -0.14494
3.27914 5.94195 -0.14394
3.26114 5.95395 -0.14494
3.23014 5.94095 -0.142941
3.22414 5.95095 -0.14394
3.20014 5.95295 -0.142941
3.17314 5.94695 -0.141941
3.14514 5.93895 -0.140941
3.12814 5.95095 -0.140941
3.10214 5.94595 -0.139941
3.07614 5.94195 -0.139941
3.07014 5.95395 -0.139941
3.03914 5.93995 -0.13894
2.99914 5.95395 -0.13794
2.95214 5.95295 -0.13694
2.91714 5.95195 -0.13694
2.84614 5.94895 -0.134941
2.80014 5.94695 -0.133941
2.74514 5.94994 -0.132941
2.72114 5.94795 -0.13194
2.67614 5.94895 -0.13094
2.59914 5.94994 -0.129941
2.51114 5.95095 -0.127941
2.43214 5.94695 -0.125941
2.38614 5.93995 -0.12494
2.20614 5.94495 -0.121941
12.4471 5.99395 -0.58494
12.3571 5.99795 -0.58094
12.2521 5.99495 -0.574941
12.1651 5.99995 -0.57094
11.9171 5.99495 -0.55794
10.4731 5.99295 -0.485941
10.3991 5.99395 -0.482941
10.3301 5.99695 -0.478941
10.2721 5.98595 -0.475941
10.1871 5.97995 -0.471941
9.91814 5.99095 -0.458941
9.72814 5.98095 -0.449941
9.66314 5.98294 -0.446941
9.59714 5.98395 -0.443941
9.53014 5.98495 -0.439941
9.46714 5.98695 -0.436941
9.35314 5.97695 -0.431941
9.28414 5.97395 -0.427941
9.22814 5.97895 -0.425941
9.16714 5.98095 -0.422941
9.10914 5.98395 -0.419941
9.04314 5.98095 -0.416941
8.99914 5.97295 -0.414941
8.94314 5.97594 -0.411941
8.88514 5.97795 -0.409941
8.82814 5.97995 -0.406941
8.77114 5.98195 -0.403941
8.71114 5.98095 -0.401941
8.65714 5.98495 -0.398941
8.62314 5.98195 -0.397941
8.55914 5.97695 -0.393941
8.49914 5.97495 -0.391941
8.45114 5.98095 -0.388941
8.39114 5.97895 -0.386941
8.34314 5.98395 -0.384941
8.29014 5.98595 -0.381941
8.23414 5.98495 -0.379941
8.18914 5.97195 -0.376941
8.14414 5.97895 -0.374941
8.08214 5.97195 -0.371941
8.03414 5.97594 -0.369941
7.99314 5.98495 -0.368941
7.93614 5.98095 -0.365941
7.88514 5.98195 -0.363941
7.84914 5.97395 -0.361941
7.79014 5.96795 -0.358941
7.74314 5.97095 -0.356941
7.70214 5.97795 -0.354941
7.64414 5.97195 -0.35294
7.59414 5.97095 -0.349941
7.56514 5.96795 -0.348941
7.51814 5.96994 -0.346941
7.46714 5.96695 -0.344941
7.42514 5.97195 -0.342941
7.36714 5.96395 -0.339941
7.32314 5.96695 -0.337941
7.28714 5.97594 -0.336941
7.24714 5.96195 -0.334941
7.20414 5.96495 -0.332941
7.16714 5.97195 -0.331941
7.11914 5.96994 -0.328941
7.06814 5.96595 -0.326941
7.03214 5.97395 -0.325941
6.98014 5.96695 -0.322941
6.91214 5.96595 -0.319941
6.81914 5.96095 -0.31594
6.77914 5.96395 -0.314941
6.73514 5.96294 -0.312941
6.69514 5.96495 -0.310941
6.66914 5.96095 -0.309941
6.58314 5.95895 -0.305941
6.54914 5.96595 -0.304941
6.46214 5.96095 -0.300941
6.42414 5.96395 -0.299941
6.37914 5.95995 -0.297941
6.27514 5.95595 -0.292941
6.23414 5.95495 -0.291941
6.19814 5.95795 -0.289941
6.16114 5.95995 -0.288941
6.11814 5.95495 -0.286941
6.02214 5.95595 -0.282941
5.94514 5.95395 -0.279941
5.87414 5.95694 -0.276941
5.78014 5.95495 -0.272941
5.51514 5.95795 -0.262941
5.43814 5.94994 -0.259941
5.40614 5.95195 -0.258941
5.25414 5.95195 -0.252941
5.21914 5.94994 -0.251941
5.18514 5.94795 -0.24994
5.16914 5.94895 -0.24994
5.10514 5.95095 -0.24694
5.07114 5.94895 -0.24594
5.04414 5.95595 -0.244941
5.01214 5.95495 -0.243941
4.97914 5.95395 -0.242941
4.83614 5.95195 -0.237941
4.79914 5.94595 -0.235941
4.72514 5.94895 -0.23394
4.60214 5.94695 -0.228941
4.52614 5.94495 -0.22694
4.41314 5.94994 -0.222941
3.18014 5.93694 -0.184941
2.64614 5.93595 -0.171941
2.53814 5.94394 -0.169941
2.50414 5.94095 -0.16894
2.39214 5.93495 -0.16594
2.35814 5.92994 -0.164941
4.47014 5.95694 -0.264941
4.41314 5.95795 -0.262941
4.34014 5.95694 -0.259941
4.30714 5.95095 -0.258941
4.25614 5.95895 -0.256941
4.19514 5.95095 -0.254941
4.17114 5.95694 -0.25394
4.12114 5.94394 -0.251941
4.09714 5.94994 -0.250941
4.03514 5.93995 -0.24894
3.86214 5.94195 -0.242941
3.76914 5.93995 -0.23994
3.71714 5.93995 -0.237941
3.67314 5.95295 -0.236941
3.62714 5.93995 -0.23494
3.57914 5.94495 -0.23394
3.52814 5.94495 -0.23194
3.47914 5.94595 -0.230941
3.44114 5.94495 -0.228941
3.39114 5.94394 -0.22794
3.37114 5.95295 -0.22794
3.34114 5.94295 -0.22594
3.31814 5.94595 -0.22594
3.08214 5.95295 -0.21894
3.00314 5.93795 -0.215941
2.99414 5.94195 -0.215941
2.96714 5.93595 -0.214941
2.94614 5.93995 -0.214941
2.92214 5.93795 -0.213941
2.90114 5.94394 -0.213941
2.87814 5.94195 -0.21294
2.85514 5.94394 -0.21194
2.81514 5.93195 -0.21094
2.79714 5.94095 -0.21094
2.77514 5.94195 -0.20994
2.74914 5.93595 -0.208941
2.72714 5.93795 -0.208941
2.68714 5.94695 -0.207941
2.64814 5.93595 -0.206941
2.62914 5.94295 -0.20594
2.60714 5.94295 -0.20594
2.58414 5.94195 -0.20494
2.55914 5.93595 -0.20394
2.53714 5.93495 -0.20394
2.52614 5.93495 -0.20294
2.48814 5.94895 -0.20294
2.44214 5.94394 -0.20194
2.41714 5.93495 -0.200941
2.39714 5.94095 -0.200941
2.38314 5.93195 -0.199941
2.36414 5.93694 -0.199941
10.3881 5.98795 -0.629941
10.3141 5.98895 -0.62494
9.91514 5.98895 -0.601941
9.83814 5.98495 -0.59694
9.77114 5.98695 -0.592941
9.71014 5.99095 -0.58994
9.63714 5.98795 -0.58594
9.59214 5.98095 -0.58294
9.52414 5.98095 -0.578941
9.45814 5.98095 -0.574941
9.39514 5.98294 -0.57094
9.33314 5.98395 -0.56794
9.27014 5.98595 -0.56394
9.20114 5.98195 -0.55994
9.16014 5.97594 -0.55694
9.09614 5.97495 -0.55394
9.03914 5.97895 -0.550941
8.97714 5.97795 -0.546941
8.85914 5.98095 -0.53994
8.69714 5.97195 -0.53094
8.64814 5.97895 -0.527941
8.58514 5.97495 -0.52494
8.52614 5.97395 -0.52094
8.47614 5.97895 -0.518941
8.42614 5.98294 -0.51594
8.33314 5.97695 -0.509941
8.27214 5.97295 -0.50694
8.22214 5.97594 -0.503941
8.17414 5.98095 -0.50194
8.12014 5.98095 -0.498941
7.97414 5.96994 -0.489941
7.92614 5.97395 -0.487941
7.87914 5.97695 -0.48494
7.82814 5.97795 -0.482941
7.77414 5.97594 -0.479941
7.72514 5.97695 -0.476941
7.67414 5.97594 -0.473941
7.64214 5.96994 -0.471941
7.59514 5.97195 -0.469941
7.54214 5.96895 -0.466941
7.49814 5.97295 -0.463941
7.45614 5.97795 -0.461941
7.40414 5.97495 -0.458941
7.36514 5.96294 -0.456941
7.32314 5.96695 -0.454941
7.27414 5.96495 -0.451941
7.23514 5.97095 -0.449941
7.19014 5.97195 -0.447941
7.14814 5.97594 -0.445941
7.10014 5.97395 -0.442941
7.06214 5.96095 -0.44094
7.01514 5.95895 -0.437941
6.97114 5.95995 -0.435941
6.92814 5.96095 -0.433941
6.88614 5.96294 -0.431941
6.85014 5.96895 -0.429941
6.80414 5.96695 -0.427941
6.77614 5.96195 -0.425941
6.73814 5.96595 -0.423941
6.69514 5.96595 -0.421941
6.65714 5.96895 -0.419941
6.60714 5.96195 -0.416941
6.56814 5.96395 -0.414941
6.46314 5.96294 -0.409941
6.42814 5.96895 -0.407941
6.37914 5.95995 -0.405941
6.34114 5.96195 -0.403941
6.30414 5.96495 -0.401941
6.25414 5.95595 -0.398941
6.22714 5.96695 -0.397941
6.19914 5.95895 -0.395941
6.15414 5.95295 -0.393941
6.11714 5.95495 -0.391941
6.08714 5.96294 -0.390941
6.04414 5.95795 -0.388941
6.00614 5.95895 -0.386941
5.97814 5.96795 -0.385941
5.94214 5.94994 -0.382941
5.90614 5.95195 -0.381941
5.87714 5.96095 -0.380941
5.83214 5.95195 -0.377941
5.80314 5.95995 -0.376941
5.76914 5.96294 -0.375941
5.70514 5.95295 -0.371941
5.68114 5.96495 -0.371941
5.63714 5.95694 -0.368941
5.61014 5.96595 -0.367941
5.57114 5.96095 -0.365941
5.52714 5.95095 -0.363941
5.51014 5.95295 -0.362941
5.48114 5.95795 -0.361941
5.43914 5.94994 -0.35994
5.40314 5.94795 -0.357941
5.38014 5.96095 -0.356941
5.33714 5.95095 -0.354941
5.30914 5.95694 -0.353941
5.28514 5.94895 -0.351941
5.21714 5.94795 -0.348941
5.19114 5.95495 -0.347941
5.15514 5.95195 -0.346941
5.12214 5.95195 -0.344941
5.09814 5.96195 -0.344941
5.06814 5.94495 -0.341941
5.04014 5.95095 -0.340941
5.01114 5.95395 -0.339941
4.97214 5.94595 -0.337941
4.95014 5.95795 -0.337941
4.91814 5.95694 -0.335941
4.87614 5.94495 -0.333941
4.85714 5.95995 -0.333941
4.83514 5.95195 -0.332941
4.79914 5.94595 -0.330941
4.73714 5.94394 -0.327941
4.70914 5.94795 -0.326941
4.67814 5.94695 -0.325941
4.65314 5.95395 -0.324941
4.63514 5.95095 -0.323941
4.60314 5.94795 -0.321941
4.57014 5.94295 -0.320941
4.54714 5.95295 -0.319941
4.51814 5.95295 -0.318941
4.48314 5.94595 -0.316941
4.45714 5.95095 -0.31594
4.43814 5.94495 -0.314941
4.41014 5.94595 -0.313941
4.38214 5.94695 -0.312941
4.34914 5.94195 -0.311941
4.32214 5.94394 -0.310941
4.29514 5.94595 -0.309941
4.26714 5.94695 -0.307941
4.25514 5.94994 -0.307941
4.22114 5.94095 -0.305941
4.19414 5.94295 -0.304941
4.17014 5.94895 -0.304941
4.13814 5.94295 -0.302941
4.11614 5.95095 -0.302941
4.09014 5.95395 -0.301941
4.07114 5.94595 -0.300941
4.04314 5.94495 -0.299941
4.01914 5.94994 -0.298941
3.98514 5.94095 -0.296941
3.96514 5.94994 -0.296941
3.93814 5.95095 -0.295941
3.90614 5.94295 -0.293941
3.89614 5.94795 -0.293941
3.86814 5.94695 -0.292941
3.84114 5.94495 -0.291941
3.81614 5.94695 -0.290941
3.76314 5.94795 -0.288941
3.73914 5.95095 -0.287941
3.72914 5.95495 -0.287941
3.69714 5.94595 -0.286941
3.67514 5.95295 -0.285941
3.64914 5.95295 -0.284941
3.62214 5.94994 -0.283941
3.59814 5.95295 -0.283941
3.57014 5.94895 -0.281941
3.55314 5.94095 -0.280941
3.52914 5.94394 -0.279941
3.50714 5.94994 -0.279941
3.48414 5.95395 -0.279941
3.45514 5.94595 -0.277941
3.43214 5.94994 -0.276941
3.40514 5.94695 -0.275941
3.38614 5.93495 -0.274941
3.36514 5.94195 -0.274941
3.34314 5.94495 -0.273941
3.31914 5.94695 -0.272941
3.29114 5.93995 -0.27194
3.27014 5.94695 -0.27194
3.24414 5.94295 -0.270941
3.22914 5.93795 -0.269941
3.20514 5.93895 -0.268941
3.15614 5.93795 -0.267941
3.13014 5.93395 -0.265941
3.10614 5.93295 -0.265941
3.08514 5.93895 -0.264941
3.02314 5.93295 -0.262941
3.00114 5.93595 -0.262941
2.97714 5.93395 -0.261941
2.95214 5.93095 -0.260941
2.93014 5.93295 -0.259941
2.90814 5.93495 -0.259941
2.89414 5.93095 -0.258941
2.84914 5.93295 -0.257941
2.82514 5.93095 -0.256941
2.78114 5.93395 -0.25594
2.72214 5.92994 -0.25394
2.67714 5.92895 -0.251941
2.65914 5.93895 -0.252941
2.63414 5.93295 -0.251941
2.61614 5.94295 -0.251941
2.60314 5.93995 -0.250941
2.58114 5.94095 -0.250941
2.55514 5.93095 -0.24894
2.53414 5.93295 -0.24894
2.51414 5.93895 -0.24894
2.49014 5.93395 -0.24794
2.47214 5.94394 -0.24794
2.46014 5.93995 -0.24694
2.43614 5.93495 -0.24594
2.41414 5.93495 -0.24594
2.39214 5.93395 -0.244941
2.36914 5.93195 -0.243941
2.35114 5.94095 -0.244941
2.32814 5.93795 -0.243941
2.21314 5.94295 -0.24094
2.19014 5.93895 -0.23994
9.73514 5.98095 -0.72194
9.36514 5.97995 -0.69694
9.30714 5.98395 -0.69394
9.24114 5.98294 -0.68894
9.17214 5.97995 -0.68394
8.62214 5.97594 -0.64694
8.51314 5.97995 -0.639941
6.68214 5.96895 -0.52494
6.51514 5.96895 -0.514941
6.29214 5.96795 -0.50194
6.14614 5.95995 -0.492941
6.06814 5.95895 -0.487941
6.03514 5.96395 -0.485941
5.95114 5.95595 -0.480941
5.90114 5.96095 -0.478941
5.85914 5.95694 -0.475941
5.78114 5.95195 -0.470941
5.71814 5.96095 -0.467941
5.62814 5.96095 -0.462941
5.59114 5.95995 -0.460941
5.55514 5.95895 -0.458941
5.52114 5.95995 -0.457941
5.48614 5.95995 -0.455941
5.45114 5.95895 -0.453941
5.41814 5.95995 -0.451941
5.39614 5.95595 -0.449941
5.36614 5.95895 -0.448941
5.28914 5.94994 -0.443941
5.26114 5.95595 -0.442941
5.23214 5.95995 -0.441941
5.19214 5.95295 -0.438941
5.14214 5.95195 -0.436941
5.11314 5.95595 -0.434941
5.06814 5.94195 -0.431941
5.00714 5.94595 -0.428941
4.95814 5.94295 -0.426941
4.93914 5.95895 -0.426941
4.90014 5.94994 -0.423941
4.83214 5.94394 -0.419941
4.77514 5.94895 -0.417941
4.76614 5.95795 -0.417941
4.72714 5.94695 -0.414941
4.69714 5.94695 -0.413941
4.65914 5.93895 -0.410941
4.63614 5.94695 -0.410941
4.60714 5.94895 -0.408941
4.58014 5.95195 -0.407941
4.56214 5.94795 -0.406941
4.53014 5.94495 -0.404941
4.50214 5.94695 -0.403941
4.47314 5.94795 -0.402941
4.44714 5.95295 -0.401941
4.41714 5.95095 -0.399941
4.38514 5.94695 -0.397941
4.36514 5.93895 -0.39694
4.33914 5.94295 -0.395941
4.31014 5.94295 -0.394941
4.28214 5.94295 -0.392941
4.25714 5.94895 -0.392941
4.23314 5.95395 -0.391941
4.20314 5.95095 -0.389941
4.18514 5.94595 -0.388941
4.15514 5.94295 -0.386941
4.12614 5.94095 -0.385941
4.09814 5.94095 -0.384941
4.08114 5.95495 -0.384941
4.04414 5.94195 -0.381941
4.01814 5.94495 -0.380941
3.97814 5.94495 -0.379941
3.92314 5.94394 -0.376941
3.87114 5.94695 -0.374941
3.82614 5.93795 -0.371941
3.77514 5.93995 -0.369941
3.72514 5.94495 -0.368941
3.67114 5.94095 -0.365941
3.63714 5.94795 -0.364941
3.52714 5.93595 -0.35994
3.47714 5.93694 -0.357941
3.44714 5.94994 -0.356941
3.16114 5.94195 -0.345941
3.09914 5.93694 -0.342941
3.07614 5.93795 -0.341941
3.05214 5.93895 -0.340941
3.02514 5.93195 -0.339941
3.00514 5.93795 -0.339941
2.99014 5.93195 -0.338941
2.96714 5.93295 -0.337941
2.95014 5.94595 -0.337941
2.92614 5.94394 -0.336941
2.90014 5.93694 -0.335941
2.87614 5.93694 -0.334941
2.85314 5.93694 -0.333941
2.84214 5.93795 -0.333941
2.82314 5.94495 -0.333941
2.79614 5.93595 -0.331941
2.77514 5.94095 -0.331941
2.75114 5.93895 -0.330941
2.72814 5.93694 -0.329941
2.70814 5.94394 -0.329941
2.69614 5.94095 -0.328941
2.67014 5.93495 -0.327941
2.64814 5.93395 -0.326941
2.62614 5.93694 -0.326941
2.60614 5.94095 -0.325941
2.58414 5.94195 -0.325941
2.56114 5.93895 -0.324941
2.55014 5.93995 -0.323941
2.52714 5.93694 -0.322941
2.50614 5.94095 -0.322941
2.48514 5.94095 -0.321941
2.43914 5.93795 -0.320941
2.41614 5.93495 -0.319941
2.39714 5.94095 -0.319941
2.38714 5.94295 -0.318941
2.34314 5.94095 -0.317941
2.24214 5.93095 -0.313941
2.20314 5.94095 -0.313941
9.77814 5.98294 -0.79094
9.40614 5.98095 -0.763941
9.34414 5.98195 -0.759941
9.27314 5.97795 -0.75394
8.93114 5.97695 -0.72994
7.84414 5.97395 -0.65394
7.25514 5.96895 -0.61394
7.21114 5.96994 -0.61094
6.94914 5.95795 -0.592941
6.90714 5.95895 -0.58994
6.87014 5.96495 -0.58794
6.82614 5.96395 -0.58494
6.78114 5.96294 -0.58194
6.67414 5.96195 -0.574941
6.59014 5.96195 -0.569941
6.55014 5.96294 -0.56694
6.46514 5.95995 -0.56194
6.42814 5.96294 -0.55994
6.40214 5.95795 -0.55794
6.35914 5.95495 -0.55494
6.31414 5.94994 -0.551941
6.27914 5.95495 -0.54994
6.24614 5.96095 -0.54794
6.21014 5.96395 -0.54594
6.17014 5.96195 -0.54394
6.13414 5.96495 -0.54094
6.10114 5.95095 -0.53894
6.06514 5.95295 -0.53694
6.02214 5.94795 -0.53394
5.98714 5.94994 -0.53194
5.95414 5.95495 -0.52994
5.91714 5.95495 -0.527941
5.88114 5.95694 -0.52594
5.85814 5.95195 -0.523941
5.82714 5.95694 -0.52194
5.79014 5.95694 -0.51994
5.75814 5.96095 -0.51794
5.71714 5.95595 -0.51594
5.68014 5.95495 -0.51294
5.65114 5.96095 -0.51194
5.62914 5.95694 -0.509941
5.59114 5.95395 -0.50794
5.55614 5.95395 -0.50594
5.52414 5.95694 -0.503941
5.49214 5.95895 -0.50294
5.45014 5.95195 -0.499941
5.42314 5.95995 -0.498941
5.40314 5.95595 -0.496941
5.36314 5.94994 -0.494941
5.33414 5.95495 -0.492941
5.29714 5.94994 -0.490941
5.23514 5.95495 -0.487941
5.20514 5.95895 -0.485941
5.18714 5.95694 -0.48494
5.14314 5.94495 -0.481941
5.11414 5.94895 -0.479941
5.08114 5.94795 -0.47794
5.02414 5.95495 -0.475941
4.99214 5.95595 -0.473941
4.97814 5.95694 -0.472941
4.93914 5.94795 -0.470941
4.91214 5.95495 -0.469941
4.84714 5.95095 -0.465941
4.81714 5.95295 -0.463941
4.76614 5.94595 -0.460941
4.73814 5.94994 -0.459941
4.71114 5.95295 -0.458941
4.68414 5.95694 -0.456941
4.64414 5.94495 -0.453941
4.61714 5.94895 -0.452941
4.59014 5.95195 -0.451941
4.57114 5.94695 -0.450941
4.53514 5.93895 -0.447941
4.51314 5.94795 -0.447941
4.48314 5.94795 -0.445941
4.45914 5.95395 -0.444941
4.42514 5.94695 -0.442941
4.39814 5.94994 -0.441941
4.37914 5.94394 -0.44094
4.31814 5.93895 -0.436941
4.29714 5.94895 -0.436941
4.26614 5.94495 -0.434941
4.21014 5.94495 -0.431941
4.19514 5.94394 -0.430941
4.16714 5.94394 -0.429941
4.14014 5.94495 -0.428941
4.10914 5.93995 -0.426941
4.08714 5.94795 -0.425941
4.06214 5.95095 -0.424941
3.99514 5.95295 -0.421941
3.96314 5.94595 -0.419941
3.93114 5.93795 -0.417941
3.88314 5.94595 -0.415941
3.83014 5.94495 -0.413941
3.81114 5.93595 -0.411941
3.76614 5.94795 -0.410941
3.74014 5.94795 -0.409941
3.66414 5.95095 -0.406941
3.65114 5.95095 -0.405941
