8.55624 2.73189 0.5041
8.51525 2.74789 0.5031
8.47624 2.76489 0.5021
8.42825 2.76389 0.5001
8.36625 2.77189 0.4981
8.32125 2.78589 0.4971
8.28625 2.80389 0.4961
8.23925 2.81689 0.4951
8.19524 2.82989 0.4931
8.14425 2.84089 0.4921
8.10625 2.84189 0.4911
8.05525 2.85189 0.4891
5.97325 3.35889 0.4321
5.92925 3.37189 0.4311
5.89925 3.37889 0.4301
5.86325 3.38289 0.4291
5.79825 3.39389 0.4271
5.78425 3.39789 0.4271
5.75825 3.40689 0.4261
5.72325 3.41089 0.4251
5.69625 3.41789 0.4251
5.67525 3.42989 0.4241
5.64325 3.43489 0.4241
5.61925 3.44389 0.4231
5.57425 3.45289 0.4221
5.54125 3.45589 0.4211
5.51725 3.46489 0.4201
5.48525 3.46989 0.4201
5.46425 3.47989 0.4191
5.44525 3.49189 0.4191
5.42125 3.48889 0.4181
5.37625 3.50689 0.4171
5.28425 3.51889 0.4151
10.1322 2.35989 0.4361
10.0392 2.37089 0.4341
9.96924 2.38789 0.4331
9.91325 2.40689 0.4321
9.84325 2.42289 0.4301
9.79325 2.42689 0.4291
9.72725 2.44289 0.4281
9.60025 2.47489 0.4251
9.54325 2.49189 0.4241
9.48324 2.50789 0.4231
9.41825 2.52189 0.4211
9.37525 2.52589 0.4201
9.32125 2.54289 0.4191
9.25725 2.55689 0.4181
9.20125 2.57189 0.4171
9.14824 2.58789 0.4161
9.08825 2.60189 0.4151
9.03625 2.61789 0.4141
8.99325 2.62089 0.4131
8.93725 2.63489 0.4111
8.89425 2.65189 0.4111
8.82925 2.66289 0.4091
8.79224 2.68189 0.4091
8.73925 2.69589 0.4081
8.68124 2.70689 0.4061
8.63325 2.70689 0.4051
8.59624 2.72489 0.4051
8.52524 2.73189 0.4031
8.49325 2.75089 0.4031
8.43725 2.76189 0.4011
8.38824 2.77489 0.4011
8.34225 2.78889 0.4001
8.30525 2.79089 0.3991
8.25125 2.80189 0.3981
8.21025 2.81589 0.3971
8.17525 2.83289 0.3961
8.12224 2.84289 0.3951
8.08125 2.85689 0.3941
8.04924 2.85989 0.3941
5.97225 3.36789 0.3551
5.86625 3.39289 0.3541
12.5512 1.76189 0.3921
9.87825 2.40589 0.3531
9.81425 2.42289 0.3521
9.75025 2.43989 0.3521
9.69925 2.45989 0.3511
9.38525 2.52289 0.3471
9.33525 2.54089 0.3461
9.28625 2.55889 0.3451
9.17025 2.57389 0.3441
9.00525 2.61989 0.3411
8.88525 2.64589 0.3401
8.85225 2.65089 0.3391
8.74325 2.67889 0.3381
8.69724 2.69489 0.3371
8.63925 2.70689 0.3361
8.58625 2.71989 0.3361
8.55124 2.72389 0.3351
8.39625 2.76189 0.3331
8.34725 2.77589 0.3331
8.29725 2.78789 0.3321
8.25025 2.80089 0.3311
8.12224 2.82889 0.3301
8.02524 2.85189 0.3281
5.30325 3.50889 0.2951
12.5362 1.76089 0.3261
9.96424 2.38389 0.3021
9.90024 2.40189 0.3011
9.82925 2.41689 0.3011
9.53325 2.48689 0.2981
9.46924 2.50189 0.2971
9.41224 2.51789 0.2971
9.25624 2.55389 0.2951
9.19724 2.56889 0.2951
9.13624 2.58189 0.2941
9.08325 2.59789 0.2941
9.02125 2.61089 0.2931
8.93025 2.62989 0.2921
8.77925 2.67489 0.2911
8.72824 2.68989 0.2911
8.69125 2.70789 0.2901
8.58924 2.72089 0.2891
8.52125 2.72889 0.2891
8.49024 2.74789 0.2881
8.41924 2.75389 0.2881
8.39324 2.77489 0.2881
8.30025 2.78689 0.2871
8.24625 2.79789 0.2861
8.20325 2.81189 0.2861
8.16024 2.82589 0.2861
8.11724 2.83889 0.2851
8.07125 2.85089 0.2851
8.04624 2.85689 0.2851
5.99025 3.35089 0.2681
5.96925 3.36389 0.2681
5.93825 3.37089 0.2671
5.90625 3.36489 0.2671
5.87325 3.37089 0.2671
5.85025 3.38189 0.2671
5.82125 3.38889 0.2661
5.79525 3.39789 0.2661
5.77525 3.41089 0.2661
5.73425 3.41089 0.2661
5.72525 3.41789 0.2661
5.69525 3.42489 0.2651
5.66925 3.43289 0.2651
5.61425 3.44689 0.2651
5.57925 3.44989 0.2651
5.55825 3.44889 0.2641
5.53025 3.45589 0.2641
5.50625 3.46489 0.2641
5.47325 3.46789 0.2641
5.45425 3.47989 0.2641
5.42525 3.48489 0.2631
5.41225 3.50089 0.2631
5.38325 3.49389 0.2631
5.35925 3.50189 0.2631
5.33325 3.50889 0.2631
5.30025 3.51189 0.2631
12.5862 1.76189 0.1781
9.99924 2.38789 0.1821
9.63124 2.47589 0.1821
9.35225 2.54489 0.1821
9.28625 2.55889 0.1831
9.02125 2.62289 0.1831
8.95924 2.63489 0.1831
8.85625 2.66489 0.1831
8.65925 2.70889 0.1831
10.0602 2.35589 0.1161
8.63925 2.69789 0.1261
8.29924 2.77989 0.1281
8.24825 2.79189 0.1281
8.21125 2.80789 0.1291
8.07925 2.83389 0.1291
8.03425 2.84689 0.1301
5.95825 3.35189 0.1431
5.92125 3.35589 0.1431
5.90525 3.37189 0.1431
5.87525 3.37989 0.1441
5.83525 3.38089 0.1441
5.81825 3.38289 0.1441
5.73425 3.40689 0.1441
5.68225 3.42489 0.1451
5.55125 3.45489 0.1451
5.52525 3.46189 0.1461
5.46425 3.47289 0.1461
5.37725 3.50089 0.1461
5.33425 3.49689 0.1471
5.32425 3.51489 0.1471
5.29025 3.51589 0.1471
12.5042 1.77189 0.0200996
10.0262 2.36489 -0.0199004
9.97824 2.38689 -0.0189004
9.92025 2.38989 -0.0179004
9.84424 2.40389 -0.0159004
9.79025 2.42389 -0.0149004
9.72824 2.44089 -0.0139004
9.66625 2.45789 -0.0129004
9.60824 2.47489 -0.0119004
9.54424 2.49089 -0.0109004
9.50125 2.49589 -0.00990042
9.37724 2.52689 -0.00790042
9.31324 2.54089 -0.00590042
9.20325 2.57389 -0.00390042
9.14625 2.58889 -0.00290042
9.11225 2.59489 -0.00290042
9.04025 2.60489 -0.000900418
8.98925 2.62089 9.95817e-05
8.94524 2.63889 0.00109958
8.88124 2.65089 0.00209958
8.78825 2.66789 0.00409958
8.74125 2.68389 0.00409958
8.67924 2.69489 0.00609958
8.63824 2.71189 0.00609958
8.58224 2.72389 0.00709958
8.53325 2.73889 0.00809958
8.43824 2.75189 0.0100996
8.39425 2.76689 0.0110996
8.34925 2.78189 0.0120996
8.29424 2.79289 0.0130996
8.25025 2.80689 0.0130996
8.14525 2.82789 0.0150996
8.10124 2.82789 0.0160996
8.01925 2.85589 0.0180996
7.97625 2.86889 0.0180996
5.88325 3.37089 0.0540996
5.78125 3.39889 0.0550996
5.76025 3.41089 0.0560996
5.69225 3.41889 0.0570996
5.60925 3.44189 0.0580996
5.53225 3.45489 0.0590996
5.44925 3.47489 0.0610996
5.42225 3.49389 0.0610996
5.38325 3.49289 0.0620996
5.35525 3.49889 0.0620996
5.31125 3.51789 0.0630996
5.24725 3.53489 0.0630996
12.5682 1.73989 -0.1349
12.5482 1.75689 -0.1349
10.0192 2.37689 -0.0729004
9.96325 2.37989 -0.0709004
9.89725 2.39689 -0.0699004
9.83525 2.41389 -0.0679004
9.76725 2.42989 -0.0669004
9.71525 2.44889 -0.0659004
9.65125 2.46489 -0.0639004
9.53724 2.48389 -0.0609004
9.46725 2.49689 -0.0599004
9.41924 2.51589 -0.0579004
9.36125 2.53189 -0.0569004
9.30525 2.54789 -0.0559004
9.24325 2.56189 -0.0539004
9.14025 2.57989 -0.0519004
9.08424 2.59489 -0.0509004
9.03224 2.60989 -0.0489004
8.96624 2.62189 -0.0479004
8.92325 2.63989 -0.0469004
8.87125 2.65389 -0.0459004
8.81524 2.66789 -0.0439004
8.76624 2.66789 -0.0429004
8.71825 2.68289 -0.0419004
8.66924 2.69789 -0.0409004
8.62525 2.71289 -0.0399004
8.57224 2.72689 -0.0389004
8.43725 2.75589 -0.0359004
8.37924 2.76589 -0.0339004
8.34525 2.78389 -0.0339004
8.16525 2.82389 -0.0299004
8.11524 2.83489 -0.0279004
8.06425 2.84489 -0.0269004
7.97925 2.87089 -0.0249004
5.95725 3.35389 0.0170996
5.88925 3.36389 0.0190996
5.87025 3.37789 0.0190996
5.79825 3.38489 0.0210996
5.79525 3.39489 0.0210996
5.72225 3.40089 0.0220996
5.71325 3.41989 0.0220996
5.62425 3.43889 0.0240996
5.56725 3.43989 0.0250996
5.51725 3.45689 0.0260996
5.44625 3.47189 0.0270996
5.33725 3.49689 0.0290996
5.28825 3.51289 0.0300996
12.5082 1.76489 -0.2089
9.90225 2.38589 -0.1309
9.83825 2.40389 -0.1289
9.41224 2.50489 -0.1159
8.36724 2.75889 -0.0869004
10.0272 2.36589 -0.2019
9.96125 2.38289 -0.1999
9.78125 2.42089 -0.1929
9.73125 2.44089 -0.1919
9.64625 2.45189 -0.1889
9.60524 2.47289 -0.1869
9.53125 2.48589 -0.1849
9.42525 2.50589 -0.1809
9.36524 2.52089 -0.1789
9.30725 2.53689 -0.1769
9.26425 2.55589 -0.1759
9.19925 2.56889 -0.1729
9.08625 2.59889 -0.1689
9.04424 2.60189 -0.1679
8.97824 2.61389 -0.1659
8.93925 2.63289 -0.1639
8.87125 2.64289 -0.1619
8.73625 2.67689 -0.1569
8.66424 2.68489 -0.1549
8.64324 2.70789 -0.1539
8.56425 2.71189 -0.1509
8.48425 2.74589 -0.1489
8.38725 2.75789 -0.1449
8.35425 2.77589 -0.1439
8.28125 2.77989 -0.1419
8.21025 2.81389 -0.1399
8.11024 2.83589 -0.1359
8.08424 2.84189 -0.1349
8.02725 2.84989 -0.1329
7.85125 2.89889 -0.1279
7.73725 2.92489 -0.1239
7.65325 2.94789 -0.1209
7.60525 2.95689 -0.1199
7.48725 2.97889 -0.1159
7.45225 2.99189 -0.1149
7.41625 3.00489 -0.1139
7.25525 3.04489 -0.1079
7.22825 3.04689 -0.1069
7.14825 3.06589 -0.1049
7.11425 3.07889 -0.1039
7.07225 3.08589 -0.1019
7.01525 3.10089 -0.1009
6.96325 3.10389 -0.0989004
6.92125 3.11089 -0.0979004
6.85425 3.13289 -0.0959004
6.82425 3.14489 -0.0949004
6.79325 3.15589 -0.0939004
6.76425 3.15589 -0.0929004
6.72225 3.16189 -0.0909004
6.69425 3.17389 -0.0909004
6.64825 3.17789 -0.0889004
6.62525 3.19189 -0.0889004
6.59225 3.20189 -0.0879004
6.55725 3.20989 -0.0859004
6.50425 3.22189 -0.0849004
6.46225 3.22589 -0.0829004
6.44125 3.24089 -0.0829004
6.40625 3.24889 -0.0819004
6.36325 3.25189 -0.0809004
6.33425 3.26189 -0.0799004
6.31825 3.26689 -0.0789004
6.27725 3.27089 -0.0779004
6.24825 3.27989 -0.0769004
6.22025 3.28989 -0.0759004
6.17625 3.29189 -0.0749004
6.15725 3.30589 -0.0739004
6.13625 3.30789 -0.0739004
6.10825 3.31689 -0.0729004
6.06825 3.31989 -0.0719004
6.05025 3.33489 -0.0709004
6.02125 3.34289 -0.0709004
5.98025 3.34589 -0.0689004
5.96125 3.35889 -0.0689004
5.93225 3.35489 -0.0679004
5.90525 3.36489 -0.0669004
5.87425 3.37089 -0.0659004
5.85525 3.38389 -0.0659004
5.82525 3.39189 -0.0649004
5.77825 3.38889 -0.0629004
5.77025 3.39589 -0.0629004
5.73725 3.39989 -0.0619004
5.70725 3.40689 -0.0609004
5.68425 3.41789 -0.0609004
5.65825 3.42589 -0.0599004
5.62225 3.42789 -0.0589004
5.60825 3.44389 -0.0589004
5.58225 3.43989 -0.0579004
5.52625 3.45389 -0.0559004
5.50425 3.46289 -0.0559004
5.47425 3.46889 -0.0549004
5.44525 3.47389 -0.0539004
5.41625 3.47889 -0.0529004
5.40225 3.48189 -0.0529004
5.38625 3.49589 -0.0529004
5.34325 3.49189 -0.0509004
5.33225 3.50889 -0.0509004
5.29625 3.50889 -0.0499004
5.28325 3.52389 -0.0499004
12.5412 1.74189 -0.3689
10.1112 2.34589 -0.2669
10.0102 2.35589 -0.2629
9.94524 2.37389 -0.2599
9.88725 2.39289 -0.2579
9.81925 2.40889 -0.2549
9.76324 2.42789 -0.2529
9.64625 2.44789 -0.2479
9.58125 2.46289 -0.2449
9.51324 2.47789 -0.2429
9.45924 2.49589 -0.2409
9.40225 2.51289 -0.2379
9.29825 2.53189 -0.2339
9.17825 2.56189 -0.2289
9.12724 2.57889 -0.2269
9.06524 2.59189 -0.2249
9.01925 2.60989 -0.2229
8.80225 2.65289 -0.2139
8.74825 2.66589 -0.2119
8.70125 2.68189 -0.2099
8.65125 2.69689 -0.2079
8.60625 2.69789 -0.2069
8.55025 2.70989 -0.2039
8.51525 2.72789 -0.2029
8.46224 2.74089 -0.2009
8.41825 2.75589 -0.1989
8.37125 2.76989 -0.1979
8.27425 2.78089 -0.1939
8.23324 2.79689 -0.1919
8.19324 2.81089 -0.1909
8.14225 2.82289 -0.1889
8.09725 2.83589 -0.1869
8.04725 2.84689 -0.1849
8.00424 2.85989 -0.1829
7.97125 2.86289 -0.1819
7.93225 2.87689 -0.1809
7.88525 2.88789 -0.1789
7.83725 2.89889 -0.1769
7.79625 2.91089 -0.1759
7.72725 2.91389 -0.1729
7.68125 2.93789 -0.1709
7.57725 2.95289 -0.1669
7.55325 2.97089 -0.1659
7.43125 2.99089 -0.1619
7.37525 2.99589 -0.1589
7.27325 3.03389 -0.1559
7.15725 3.05289 -0.1509
7.12725 3.06589 -0.1499
7.09125 3.07789 -0.1489
7.04725 3.08489 -0.1479
7.00425 3.09289 -0.1459
6.98325 3.10989 -0.1449
6.74125 3.16889 -0.1369
6.66825 3.17389 -0.1339
6.58025 3.20789 -0.1309
6.53625 3.21189 -0.1289
6.48925 3.22689 -0.1279
6.38725 3.25189 -0.1239
6.33425 3.25089 -0.1219
5.95525 3.34689 -0.1089
5.93825 3.36189 -0.1089
5.89425 3.37389 -0.1069
5.81625 3.37789 -0.1049
5.78925 3.38689 -0.1039
5.77325 3.40189 -0.1029
5.69525 3.41689 -0.1009
5.67425 3.42889 -0.0999004
5.51225 3.46289 -0.0949004
5.35425 3.50589 -0.0899004
5.33125 3.50389 -0.0889004
5.31225 3.51489 -0.0889004
5.25225 3.52289 -0.0869004
5.22125 3.52589 -0.0859004
12.5002 1.76089 -0.4389
8.08724 2.83189 -0.2359
7.72625 2.91089 -0.2199
7.45225 2.98189 -0.2089
7.21625 3.03289 -0.1989
7.04425 3.07789 -0.1919
6.79925 3.13689 -0.1819
6.31625 3.25689 -0.1629
6.10325 3.30489 -0.1539
6.06625 3.32189 -0.1529
5.96825 3.34189 -0.1489
5.91325 3.35989 -0.1469
5.76725 3.38489 -0.1409
5.61925 3.42989 -0.1359
5.59625 3.43989 -0.1359
5.55825 3.44089 -0.1339
5.53225 3.44789 -0.1329
5.48525 3.45489 -0.1309
5.46425 3.46589 -0.1309
5.44925 3.47989 -0.1299
5.40925 3.47789 -0.1289
5.38625 3.48789 -0.1279
5.29125 3.50889 -0.1249
5.23125 3.51589 -0.1219
9.84025 2.39689 -0.3789
9.78024 2.41489 -0.3759
9.70825 2.42989 -0.3719
9.64225 2.44589 -0.3689
9.41224 2.49889 -0.3569
9.29624 2.53089 -0.3509
9.24325 2.54789 -0.3479
9.13925 2.56589 -0.3429
9.08525 2.58189 -0.3399
9.02125 2.59389 -0.3369
8.96725 2.60889 -0.3339
8.91825 2.62589 -0.3319
8.86225 2.63989 -0.3289
8.71125 2.66989 -0.3209
8.65724 2.68289 -0.3189
8.60824 2.69789 -0.3159
8.56425 2.71289 -0.3139
8.47324 2.72889 -0.3089
8.42225 2.74189 -0.3069
8.37625 2.75589 -0.3049
8.33125 2.76989 -0.3029
8.28224 2.78289 -0.2999
8.22824 2.79389 -0.2969
8.19225 2.79589 -0.2959
8.14124 2.80789 -0.2929
8.09525 2.81989 -0.2909
8.05624 2.83489 -0.2889
8.00325 2.84489 -0.2859
7.96225 2.85889 -0.2839
7.93125 2.87589 -0.2829
7.88325 2.87289 -0.2809
7.83825 2.88389 -0.2779
7.79725 2.89689 -0.2759
7.75825 2.91089 -0.2749
7.71225 2.92089 -0.2719
7.67125 2.93289 -0.2699
7.63025 2.94489 -0.2689
7.49925 2.96289 -0.2619
7.45825 2.97389 -0.2599
7.41925 2.98489 -0.2579
7.37225 2.99389 -0.2559
7.27125 3.01989 -0.2509
7.23025 3.02989 -0.2489
7.19625 3.04189 -0.2479
7.15425 3.05089 -0.2459
7.11525 3.06089 -0.2439
7.01225 3.08189 -0.2389
6.69925 3.16189 -0.2249
6.14025 3.29889 -0.1999
6.07925 3.31589 -0.1979
6.04725 3.32289 -0.1959
6.01625 3.33089 -0.1949
5.99925 3.33389 -0.1939
5.97225 3.34389 -0.1929
5.93225 3.34589 -0.1909
5.90825 3.35689 -0.1899
5.87825 3.36389 -0.1889
5.22425 3.51589 -0.1619
12.5492 1.74789 -0.5899
10.0262 2.35389 -0.4429
9.97425 2.37389 -0.4409
9.91625 2.39289 -0.4369
9.79825 2.41389 -0.4309
9.72725 2.42789 -0.4269
9.66525 2.44489 -0.4229
9.55325 2.47989 -0.4169
9.38325 2.51489 -0.4069
9.32724 2.53089 -0.4039
9.26925 2.54589 -0.4009
9.20924 2.56089 -0.3979
9.15324 2.57589 -0.3949
9.04224 2.60589 -0.3889
9.00025 2.60889 -0.3859
8.95724 2.62689 -0.3839
8.88824 2.63689 -0.3799
8.83625 2.65089 -0.3769
8.72925 2.67889 -0.3709
8.67725 2.69289 -0.3679
8.64425 2.69689 -0.3669
8.59624 2.71189 -0.3639
8.54025 2.72389 -0.3609
8.49724 2.73889 -0.3589
8.35824 2.76689 -0.3509
8.30525 2.77789 -0.3479
8.26124 2.79189 -0.3459
8.21825 2.80589 -0.3439
8.04025 2.84389 -0.3339
7.99525 2.85589 -0.3319
7.90825 2.88089 -0.3269
7.86325 2.89289 -0.3249
7.79425 2.90889 -0.3209
7.74525 2.91789 -0.3179
7.61725 2.95189 -0.3119
7.50525 2.97589 -0.3059
7.46725 2.98789 -0.3039
7.42325 2.99689 -0.3019
7.38625 3.00889 -0.2999
7.24225 3.04389 -0.2919
7.20125 3.05289 -0.2899
7.16025 3.06189 -0.2879
7.11825 3.06989 -0.2859
7.07525 3.07789 -0.2839
7.03625 3.08689 -0.2819
6.81525 3.13089 -0.2699
6.71225 3.17289 -0.2659
6.59225 3.19289 -0.2599
6.56125 3.20289 -0.2579
6.51525 3.20589 -0.2559
6.51025 3.21589 -0.2559
6.45825 3.21589 -0.2529
6.39225 3.23289 -0.2499
6.36025 3.24189 -0.2479
6.28725 3.26689 -0.2449
6.17925 3.28389 -0.2389
6.15125 3.29389 -0.2379
6.12125 3.30289 -0.2369
6.10225 3.30489 -0.2359
6.04225 3.32189 -0.2329
5.94525 3.34089 -0.2279
5.91425 3.34789 -0.2269
5.87725 3.36389 -0.2249
5.80925 3.37289 -0.2219
5.78525 3.38389 -0.2209
5.72925 3.39889 -0.2189
5.68225 3.40789 -0.2159
5.62325 3.41989 -0.2139
5.57025 3.43589 -0.2109
5.31325 3.51089 -0.1999
9.80624 2.40589 -0.5019
9.73324 2.41989 -0.4969
9.66724 2.43589 -0.4929
9.37724 2.50489 -0.4749
9.31124 2.51889 -0.4709
9.26124 2.53689 -0.4679
9.05424 2.58789 -0.4549
8.98625 2.59989 -0.4509
8.92624 2.61289 -0.4469
8.62424 2.68789 -0.4279
8.57024 2.70089 -0.4249
8.38624 2.74489 -0.4139
8.33625 2.75789 -0.4109
8.01824 2.83589 -0.3919
7.90025 2.86489 -0.3849
7.85525 2.87689 -0.3819
7.81225 2.88889 -0.3799
7.77125 2.90189 -0.3779
7.72325 2.91089 -0.3749
7.68225 2.92389 -0.3719
7.64925 2.92489 -0.3699
7.56025 2.94589 -0.3649
7.52825 2.96089 -0.3629
7.48425 2.97089 -0.3609
7.45425 2.98589 -0.3589
7.41125 2.99589 -0.3569
7.33225 3.00489 -0.3519
7.29125 3.01489 -0.3499
7.25225 3.02589 -0.3479
7.21325 3.03589 -0.3449
7.19325 3.05389 -0.3449
7.14825 3.06189 -0.3419
7.11025 3.05889 -0.3389
7.07925 3.07189 -0.3379
7.03125 3.07689 -0.3349
7.00425 3.09189 -0.3339
6.97325 3.10489 -0.3319
6.91425 3.10489 -0.3279
6.88825 3.11889 -0.3269
6.87225 3.12489 -0.3259
6.82725 3.13089 -0.3239
6.78125 3.13589 -0.3209
6.75325 3.14789 -0.3199
6.56125 3.19889 -0.3089
6.50025 3.21989 -0.3059
6.45925 3.22489 -0.3039
6.40825 3.23789 -0.3009
6.36425 3.24089 -0.2979
6.33325 3.24989 -0.2969
6.29625 3.25589 -0.2949
6.23525 3.27389 -0.2909
6.22425 3.28089 -0.2909
6.18725 3.28689 -0.2889
6.15425 3.29389 -0.2869
6.12425 3.30289 -0.2859
6.09525 3.31189 -0.2839
6.06025 3.31789 -0.2819
6.03025 3.32589 -0.2809
5.95025 3.34289 -0.2759
5.92725 3.35489 -0.2749
5.88525 3.35589 -0.2729
5.86825 3.37089 -0.2719
5.79425 3.38989 -0.2689
5.75125 3.38889 -0.2659
5.70425 3.40889 -0.2639
5.66225 3.40889 -0.2619
5.62225 3.42089 -0.2599
5.55025 3.44989 -0.2569
5.50625 3.44589 -0.2539
5.46925 3.45989 -0.2519
5.38925 3.48089 -0.2479
5.36325 3.48789 -0.2469
5.33725 3.49489 -0.2459
5.31725 3.49389 -0.2449
5.29125 3.49989 -0.2429
5.28025 3.51689 -0.2429
12.9472 1.63689 -0.7689
12.8372 1.66389 -0.7609
12.5682 1.72889 -0.7419
9.30124 2.53789 -0.5179
8.97425 2.61589 -0.4959
8.92225 2.63089 -0.4929
7.97225 2.86089 -0.4309
7.59025 2.95389 -0.4079
7.45925 2.98389 -0.3989
7.35225 3.00789 -0.3929
7.02525 3.09489 -0.3729
6.92425 3.11489 -0.3669
6.43225 3.23889 -0.3379
6.29925 3.27189 -0.3299
5.28925 3.50689 -0.2749
10.0382 2.35789 -0.6349
9.98625 2.36189 -0.6309
9.91625 2.37889 -0.6259
9.73524 2.43289 -0.6129
9.66924 2.44889 -0.6079
9.61724 2.45189 -0.6039
9.54025 2.46489 -0.5979
9.48725 2.48289 -0.5949
9.41024 2.49489 -0.5889
9.38124 2.51889 -0.5869
9.30824 2.53089 -0.5819
9.25224 2.54689 -0.5779
9.19825 2.54689 -0.5729
9.16325 2.56889 -0.5709
9.09124 2.57989 -0.5659
9.03724 2.59489 -0.5619
8.99224 2.61289 -0.5589
8.93124 2.62589 -0.5549
8.83424 2.64289 -0.5479
8.79325 2.66089 -0.5449
8.73324 2.67289 -0.5399
8.68124 2.68689 -0.5369
8.61925 2.69789 -0.5319
8.57825 2.71489 -0.5299
8.51725 2.72489 -0.5249
8.49924 2.73389 -0.5239
8.41424 2.73589 -0.5179
8.38325 2.75489 -0.5159
8.33125 2.76689 -0.5119
8.29025 2.78289 -0.5089
8.17025 2.81389 -0.5009
8.11024 2.82189 -0.4969
8.06124 2.83389 -0.4929
8.01725 2.84689 -0.4899
7.97625 2.86089 -0.4879
7.91825 2.86789 -0.4829
7.84825 2.88489 -0.4789
7.79225 2.89189 -0.4749
7.74825 2.90389 -0.4719
7.65525 2.92389 -0.4649
7.62725 2.94089 -0.4639
7.55525 2.95489 -0.4589
7.50025 2.95989 -0.4549
7.47025 2.97589 -0.4529
7.39025 2.99789 -0.4479
7.33625 3.00289 -0.4439
7.27025 3.01689 -0.4389
7.23125 3.02689 -0.4369
7.15225 3.04689 -0.4309
7.13125 3.06489 -0.4299
7.08825 3.07289 -0.4279
7.00825 3.07789 -0.4219
6.99325 3.09689 -0.4209
6.86325 3.11789 -0.4119
6.82325 3.13889 -0.4099
6.76625 3.13889 -0.4059
6.73125 3.14789 -0.4039
6.62725 3.17589 -0.3969
6.60425 3.17789 -0.3959
6.56725 3.18589 -0.3929
6.54325 3.19989 -0.3919
6.50025 3.20389 -0.3889
6.43525 3.22289 -0.3849
6.40425 3.23189 -0.3829
6.27925 3.25689 -0.3749
6.25025 3.26689 -0.3729
6.10425 3.30189 -0.3649
6.06925 3.30789 -0.3619
6.00825 3.32389 -0.3589
5.90225 3.35089 -0.3519
5.84625 3.36789 -0.3489
5.81025 3.37089 -0.3469
5.79225 3.37389 -0.3449
5.69325 3.41189 -0.3399
5.62225 3.41789 -0.3359
5.49525 3.44889 -0.3279
5.46425 3.45389 -0.3259
5.44125 3.46289 -0.3249
5.42725 3.46589 -0.3239
5.39825 3.47189 -0.3229
5.37525 3.48089 -0.3209
5.34625 3.48589 -0.3199
5.29425 3.49989 -0.3169
5.26625 3.50589 -0.3149
12.5412 1.73889 -0.8959
9.94625 2.36089 -0.6869
9.89025 2.38089 -0.6819
9.82224 2.39689 -0.6769
9.76324 2.41489 -0.6719
9.69324 2.42989 -0.6669
9.63525 2.44689 -0.6629
9.39824 2.49689 -0.6439
9.33625 2.51189 -0.6389
9.28224 2.52789 -0.6349
9.23024 2.54489 -0.6309
9.06425 2.57589 -0.6179
9.02524 2.59489 -0.6149
8.96025 2.60689 -0.6099
8.90825 2.62189 -0.6059
8.86724 2.63989 -0.6029
8.70125 2.66489 -0.5899
8.64925 2.67889 -0.5859
8.60324 2.69389 -0.5829
8.56025 2.70989 -0.5799
8.51025 2.72289 -0.5759
8.47324 2.72589 -0.5729
8.42124 2.73789 -0.5689
8.36125 2.74789 -0.5649
8.31524 2.76189 -0.5609
8.26725 2.77389 -0.5579
8.21624 2.78589 -0.5539
8.15024 2.80589 -0.5489
8.09624 2.81589 -0.5449
8.05225 2.82889 -0.5419
8.01124 2.84289 -0.5389
7.96125 2.85289 -0.5349
7.92625 2.86789 -0.5329
7.88925 2.86889 -0.5299
7.83725 2.87789 -0.5259
7.79525 2.88989 -0.5229
7.76125 2.90489 -0.5199
7.71525 2.91489 -0.5169
7.67025 2.92589 -0.5139
7.63025 2.93789 -0.5109
7.59525 2.93789 -0.5079
7.56225 2.95289 -0.5059
7.52525 2.96489 -0.5029
7.47125 2.97089 -0.4989
7.42825 2.98089 -0.4959
7.40125 2.99689 -0.4939
7.35425 3.00489 -0.4909
7.32025 3.00389 -0.4879
7.27825 3.01289 -0.4849
7.24125 3.02489 -0.4819
7.20525 3.03689 -0.4799
7.17925 3.05189 -0.4789
7.13925 3.06089 -0.4759
7.07725 3.07389 -0.4709
7.02525 3.07789 -0.4669
6.99225 3.08889 -0.4649
6.95625 3.09989 -0.4629
6.91825 3.10789 -0.4599
6.89325 3.12289 -0.4589
6.86125 3.12189 -0.4559
6.78225 3.13689 -0.4499
6.75625 3.15089 -0.4489
6.72225 3.16089 -0.4469
6.67225 3.17489 -0.4429
6.62425 3.17789 -0.4389
6.55725 3.19689 -0.4349
6.51525 3.20089 -0.4319
6.49625 3.21689 -0.4309
6.44025 3.22689 -0.4269
6.40325 3.23389 -0.4249
6.37325 3.24389 -0.4229
6.35125 3.25689 -0.4219
6.28425 3.27289 -0.4169
6.22725 3.27989 -0.4129
6.19425 3.28789 -0.4109
6.16625 3.29789 -0.4089
6.13825 3.30689 -0.4069
6.10825 3.31589 -0.4049
6.04425 3.32989 -0.4009
6.01725 3.32789 -0.3989
5.95725 3.34289 -0.3949
5.87625 3.37089 -0.3899
5.79825 3.38689 -0.3849
5.74425 3.40389 -0.3819
5.64025 3.42589 -0.3749
12.5412 1.72989 -0.9719
10.0702 2.34389 -0.7579
9.99724 2.35989 -0.7519
9.91924 2.37489 -0.7459
9.89025 2.38389 -0.7429
9.76124 2.41789 -0.7319
9.68624 2.43189 -0.7259
9.55124 2.46289 -0.7149
9.49924 2.48089 -0.7099
9.45024 2.48489 -0.7059
9.32524 2.51489 -0.6959
9.25924 2.52789 -0.6899
9.20924 2.54589 -0.6859
9.13824 2.55689 -0.6799
9.01425 2.59889 -0.6699
8.93925 2.60789 -0.6639
8.88525 2.62289 -0.6599
8.83025 2.63689 -0.6549
8.79224 2.65589 -0.6519
8.68225 2.66789 -0.6429
8.63025 2.68189 -0.6389
8.57724 2.69489 -0.6339
8.53825 2.71189 -0.6319
8.47925 2.72289 -0.6269
8.42624 2.73589 -0.6219
8.39625 2.73989 -0.6199
8.26025 2.78289 -0.6089
8.19825 2.79089 -0.6039
8.14425 2.80089 -0.5999
8.12224 2.82189 -0.5979
7.98025 2.84289 -0.5869
7.85125 2.88189 -0.5769
7.78825 2.88689 -0.5709
7.59025 2.93689 -0.5559
7.54725 2.94689 -0.5529
7.50225 2.97089 -0.5499
7.41725 2.99089 -0.5429
7.32425 3.00789 -0.5359
7.27225 3.01289 -0.5319
7.25825 3.02089 -0.5309
7.22125 3.03189 -0.5279
7.18425 3.04289 -0.5249
6.80525 3.12689 -0.4959
6.71225 3.14789 -0.4889
6.64225 3.16589 -0.4839
6.57125 3.18389 -0.4789
6.41525 3.22189 -0.4679
6.38925 3.23389 -0.4659
6.35925 3.24389 -0.4639
6.17025 3.28289 -0.4509
6.13325 3.28889 -0.4479
6.06025 3.31089 -0.4429
6.02525 3.31689 -0.4399
5.99925 3.32689 -0.4389
5.96625 3.33389 -0.4359
5.94025 3.34389 -0.4349
5.91525 3.34189 -0.4329
5.76925 3.38089 -0.4229
5.72225 3.38989 -0.4189
5.69825 3.39889 -0.4179
5.66525 3.40389 -0.4159
5.63725 3.41189 -0.4139
5.61325 3.42089 -0.4119
5.58825 3.42989 -0.4109
5.51425 3.44489 -0.4059
5.48225 3.44989 -0.4029
5.45325 3.45489 -0.4009
5.40325 3.47089 -0.3979
5.38525 3.47189 -0.3969
5.36325 3.48089 -0.3959
5.33725 3.48789 -0.3939
5.31625 3.49889 -0.3929
5.28325 3.50089 -0.3909
12.4942 1.73989 -1.0479
9.94425 2.36689 -0.8129
9.56824 2.45189 -0.7789
9.17325 2.55089 -0.7439
8.85324 2.62589 -0.7159
8.74724 2.65489 -0.7069
8.40024 2.73689 -0.6759
8.32325 2.75489 -0.6699
8.23225 2.78189 -0.6619
8.18025 2.79289 -0.6579
8.13325 2.80589 -0.6539
7.91125 2.85389 -0.6349
7.86925 2.86689 -0.6309
7.82425 2.87789 -0.6279
7.66425 2.91489 -0.6139
7.62125 2.92589 -0.6109
7.57725 2.93589 -0.6069
7.55425 2.94089 -0.6049
7.34825 2.99389 -0.5879
7.31725 3.00789 -0.5859
7.12525 3.04689 -0.5699
7.08725 3.05689 -0.5669
7.04825 3.06589 -0.5639
6.99325 3.08189 -0.5589
6.91925 3.10089 -0.5529
6.87925 3.10789 -0.5499
6.84925 3.12089 -0.5479
6.81225 3.12989 -0.5449
6.75125 3.13989 -0.5399
6.68925 3.16289 -0.5349
6.64725 3.16789 -0.5319
6.57525 3.18389 -0.5259
6.49325 3.20789 -0.5199
6.38825 3.23089 -0.5119
6.35125 3.23689 -0.5089
6.27325 3.25889 -0.5029
6.24025 3.26689 -0.4999
6.20325 3.27189 -0.4969
5.80125 3.36889 -0.4679
5.77525 3.37789 -0.4659
5.59725 3.42789 -0.4529
5.43825 3.46089 -0.4419
12.5012 1.73489 -1.1259
9.91924 2.36689 -0.8729
9.79825 2.40289 -0.8619
9.43025 2.48689 -0.8269
9.36225 2.50089 -0.8199
9.21725 2.53989 -0.8069
9.10025 2.56989 -0.7959
9.03024 2.58089 -0.7889
8.97624 2.59589 -0.7839
8.78024 2.64489 -0.7659
8.72225 2.65789 -0.7599
8.67124 2.67189 -0.7559
8.58125 2.68889 -0.7469
8.38225 2.74289 -0.7289
8.33025 2.75489 -0.7249
8.15425 2.79689 -0.7089
8.10425 2.80889 -0.7039
8.06124 2.82189 -0.6999
7.88725 2.85989 -0.6839
7.84225 2.87189 -0.6809
7.75925 2.89689 -0.6729
7.63625 2.91989 -0.6619
7.51725 2.95589 -0.6519
7.46725 2.96389 -0.6469
7.27925 3.00889 -0.6309
7.23425 3.01789 -0.6269
7.06125 3.06389 -0.6119
7.01925 3.07189 -0.6079
6.94525 3.09189 -0.6019
6.74025 3.14189 -0.5849
6.07625 3.30189 -0.5309
9.96725 2.35189 -0.9449
9.89824 2.36789 -0.9379
9.84025 2.38689 -0.9319
9.77125 2.40289 -0.9249
9.66525 2.42489 -0.9139
9.60725 2.44189 -0.9089
9.55725 2.46089 -0.9039
9.48225 2.47389 -0.8959
9.42225 2.48989 -0.8899
9.38424 2.49489 -0.8859
9.31725 2.50789 -0.8789
9.26725 2.52589 -0.8739
9.20125 2.53889 -0.8679
9.16424 2.55989 -0.8649
9.10725 2.57489 -0.8589
9.00525 2.59089 -0.8479
8.94925 2.60589 -0.8429
8.90125 2.62189 -0.8379
8.85225 2.63789 -0.8339
8.79624 2.65089 -0.8279
8.74825 2.66589 -0.8239
8.71025 2.66989 -0.8199
8.65425 2.68189 -0.8139
8.61024 2.69789 -0.8099
8.55725 2.71089 -0.8049
8.50725 2.72389 -0.7999
8.18324 2.80489 -0.7689
8.13124 2.81589 -0.7639
8.04325 2.82689 -0.7549
8.01324 2.84489 -0.7519
7.94125 2.84689 -0.7449
7.90625 2.86289 -0.7419
7.81525 2.88489 -0.7329
7.76725 2.89489 -0.7289
7.75825 2.90589 -0.7279
7.70325 2.91289 -0.7229
7.66425 2.92489 -0.7189
7.58125 2.94789 -0.7109
7.54225 2.95989 -0.7079
7.49925 2.97089 -0.7039
7.46125 2.96889 -0.6999
7.39725 2.99689 -0.6939
7.31525 3.01689 -0.6869
7.22725 3.03389 -0.6779
7.20925 3.03989 -0.6769
7.15625 3.04389 -0.6719
7.08725 3.06689 -0.6659
7.01325 3.08689 -0.6589
6.95525 3.10089 -0.6539
6.79725 3.13189 -0.6389
6.77125 3.14589 -0.6369
6.69625 3.14989 -0.6299
6.63225 3.16989 -0.6239
6.61325 3.18689 -0.6229
6.55625 3.18489 -0.6179
6.52025 3.20489 -0.6149
6.48325 3.21189 -0.6119
6.44625 3.21889 -0.6079
6.41325 3.22789 -0.6049
6.38025 3.23589 -0.6029
6.34925 3.24489 -0.5999
6.31025 3.24989 -0.5959
6.28725 3.25089 -0.5939
6.26025 3.26189 -0.5919
6.22525 3.26789 -0.5889
6.20425 3.28189 -0.5879
6.17125 3.28889 -0.5849
6.14325 3.29889 -0.5829
6.12725 3.30289 -0.5809
6.08725 3.30589 -0.5769
6.06125 3.31689 -0.5749
6.01925 3.31789 -0.5719
5.96925 3.33889 -0.5679
5.93925 3.34689 -0.5649
5.92025 3.34889 -0.5639
5.88725 3.35489 -0.5609
5.86025 3.36289 -0.5589
5.82025 3.36389 -0.5549
5.80925 3.38289 -0.5549
5.76625 3.38189 -0.5509
5.75425 3.38689 -0.5499
5.70525 3.40589 -0.5459
5.65025 3.42089 -0.5419
5.60525 3.41789 -0.5369
5.54825 3.44289 -0.5329
5.49325 3.45689 -0.5289
5.44825 3.45289 -0.5249
5.43925 3.47089 -0.5249
5.40325 3.47189 -0.5209
5.39325 3.47689 -0.5209
5.31325 3.49689 -0.5149
5.27725 3.49689 -0.5109
9.12325 2.55389 -0.9179
8.95924 2.59989 -0.9009
8.64525 2.67189 -0.8689
8.59424 2.68689 -0.8629
8.40524 2.72989 -0.8439
8.36724 2.74589 -0.8399
8.31124 2.75689 -0.8339
8.26225 2.76989 -0.8289
8.13325 2.79789 -0.8159
8.08525 2.80989 -0.8109
8.03724 2.82189 -0.8059
7.99625 2.83589 -0.8029
7.96325 2.85289 -0.7989
7.87125 2.86189 -0.7899
7.83425 2.87589 -0.7859
7.77825 2.88389 -0.7799
7.73925 2.89689 -0.7769
7.70625 2.91189 -0.7739
7.65625 2.92089 -0.7689
7.62325 2.92289 -0.7649
7.59225 2.93789 -0.7619
7.53625 2.94389 -0.7559
7.50325 2.95789 -0.7529
7.46025 2.96889 -0.7489
7.42125 2.97989 -0.7459
7.38725 2.97989 -0.7419
7.35225 2.99289 -0.7389
7.30925 3.00289 -0.7339
7.27025 3.01389 -0.7309
7.24625 3.02989 -0.7289
7.19125 3.03389 -0.7229
7.15925 3.04689 -0.7199
7.12725 3.04689 -0.7169
7.05325 3.06789 -0.7099
7.02025 3.07989 -0.7069
6.98325 3.08989 -0.7029
6.95125 3.10189 -0.6999
6.91825 3.11289 -0.6969
6.87325 3.10589 -0.6919
6.83625 3.11589 -0.6889
6.81025 3.12989 -0.6869
6.76225 3.13389 -0.6819
6.73325 3.14589 -0.6789
6.70525 3.15889 -0.6769
6.65725 3.16189 -0.6719
6.63925 3.16589 -0.6699
6.61225 3.17889 -0.6679
6.57325 3.18589 -0.6639
6.54025 3.19489 -0.6609
6.51225 3.20689 -0.6589
6.46925 3.21089 -0.6549
6.44325 3.21089 -0.6519
6.41525 3.22189 -0.6499
6.37725 3.22789 -0.6459
6.35225 3.24089 -0.6439
6.30825 3.24389 -0.6399
6.28825 3.25789 -0.6379
6.25325 3.26489 -0.6349
6.22825 3.26489 -0.6329
6.20425 3.27689 -0.6309
6.16925 3.28389 -0.6269
6.13725 3.29189 -0.6249
6.11325 3.30389 -0.6229
6.08725 3.31389 -0.6209
6.05925 3.31189 -0.6179
6.03325 3.32189 -0.6159
5.99825 3.32789 -0.6119
5.97225 3.33789 -0.6099
5.94225 3.34589 -0.6079
5.91325 3.35389 -0.6049
5.87625 3.35789 -0.6019
5.86425 3.36289 -0.6009
5.84125 3.37389 -0.5989
5.79125 3.36989 -0.5939
5.77525 3.38489 -0.5929
5.74425 3.39089 -0.5899
5.70325 3.39089 -0.5859
5.68525 3.40489 -0.5849
5.65925 3.40189 -0.5819
5.60725 3.41889 -0.5779
5.57425 3.42289 -0.5749
5.52725 3.44189 -0.5719
5.50025 3.44889 -0.5689
5.48225 3.44989 -0.5679
5.42425 3.46089 -0.5629
5.39625 3.46789 -0.5599
5.36825 3.47389 -0.5579
5.34725 3.48389 -0.5569
5.32325 3.49189 -0.5549
5.31425 3.49889 -0.5539
5.28225 3.50089 -0.5509
12.5222 1.73689 -1.3619
10.0092 2.34389 -1.0719
9.93624 2.35989 -1.0639
9.88624 2.38089 -1.0579
9.81524 2.39589 -1.0499
9.75825 2.39789 -1.0429
9.69825 2.41589 -1.0369
9.63824 2.43289 -1.0299
9.56925 2.44689 -1.0219
9.50624 2.46289 -1.0149
9.45224 2.47989 -1.0089
9.39425 2.49689 -1.0029
9.29424 2.51689 -0.9919
9.23725 2.53189 -0.9859
9.17725 2.54689 -0.9789
9.12125 2.56189 -0.9729
9.07125 2.57789 -0.9679
9.01925 2.59389 -0.9619
8.97925 2.59789 -0.9569
8.91525 2.60989 -0.9499
8.86225 2.62389 -0.9439
8.81524 2.63989 -0.9399
8.76525 2.65489 -0.9339
8.71525 2.66989 -0.9289
8.61325 2.68289 -0.9169
8.56925 2.69789 -0.9129
8.52125 2.71289 -0.9079
8.47624 2.72789 -0.9029
8.42325 2.73889 -0.8969
8.32825 2.76589 -0.8869
8.28825 2.76689 -0.8819
8.23625 2.77889 -0.8769
8.18824 2.79089 -0.8719
8.15324 2.80789 -0.8679
8.05624 2.83089 -0.8579
8.02824 2.83489 -0.8549
7.97625 2.84489 -0.8489
7.92925 2.85589 -0.8439
7.88925 2.86889 -0.8399
7.80225 2.89289 -0.8309
7.73025 2.90789 -0.8239
7.69325 2.92189 -0.8199
7.64225 2.92889 -0.8139
7.60325 2.94189 -0.8109
7.55825 2.95189 -0.8059
7.45425 2.97789 -0.7949
7.40225 2.98489 -0.7899
7.37125 2.99889 -0.7869
7.28425 3.01689 -0.7779
7.25325 3.02989 -0.7749
7.18525 3.04189 -0.7679
7.15025 3.05289 -0.7639
7.10825 3.06189 -0.7599
7.06925 3.07089 -0.7559
6.97125 3.09289 -0.7459
6.93525 3.10389 -0.7429
6.90225 3.11489 -0.7389
6.82325 3.13089 -0.7309
6.73425 3.15389 -0.7229
6.69925 3.16289 -0.7189
6.66025 3.16989 -0.7149
6.62025 3.17589 -0.7109
6.56025 3.19789 -0.7059
6.52525 3.19389 -0.7019
6.46925 3.21689 -0.6969
6.43125 3.22289 -0.6929
6.40125 3.23289 -0.6899
6.37225 3.24289 -0.6879
6.33925 3.25089 -0.6839
6.31925 3.25389 -0.6819
6.28625 3.26189 -0.6789
6.24325 3.26389 -0.6749
6.21825 3.27589 -0.6729
6.15425 3.29189 -0.6669
6.13125 3.30389 -0.6649
6.07425 3.30989 -0.6589
5.98425 3.33389 -0.6509
5.89925 3.34789 -0.6419
5.82425 3.37789 -0.6359
5.73225 3.39689 -0.6279
5.72025 3.40189 -0.6269
5.68725 3.40689 -0.6239
5.66325 3.41589 -0.6219
5.57825 3.43689 -0.6139
5.53925 3.44789 -0.6109
5.51125 3.45489 -0.6079
5.45725 3.46889 -0.6039
5.42625 3.47389 -0.6009
5.38525 3.48289 -0.5969
5.35325 3.48589 -0.5939
5.27225 3.50389 -0.5869
8.82125 2.62889 -0.9869
8.57524 2.68889 -0.9589
8.23625 2.76989 -0.9209
8.18525 2.78189 -0.9159
7.92125 2.84589 -0.8859
7.87725 2.85789 -0.8819
7.67225 2.90789 -0.8589
7.63025 2.91889 -0.8549
7.58325 2.92889 -0.8499
7.43325 2.96589 -0.8329
7.35325 2.98789 -0.8249
6.91525 3.09389 -0.7789
6.87825 3.10289 -0.7749
6.41425 3.21689 -0.7279
6.32825 3.23589 -0.7189
6.29525 3.24489 -0.7159
6.22925 3.25989 -0.7089
6.20125 3.27089 -0.7059
6.05625 3.30489 -0.6919
5.94525 3.32989 -0.6809
5.82725 3.36089 -0.6699
5.79425 3.36689 -0.6669
5.71925 3.38389 -0.6599
5.69725 3.39489 -0.6579
5.48025 3.44389 -0.6379
5.45325 3.45089 -0.6349
5.41125 3.46089 -0.6309
5.30325 3.48589 -0.6219
5.28325 3.49689 -0.6199
5.26825 3.49889 -0.6189
12.5312 1.71689 -1.5159
9.98625 2.35389 -1.1939
9.92124 2.37189 -1.1859
9.74625 2.41089 -1.1639
9.67725 2.42589 -1.1549
9.61625 2.44189 -1.1479
9.55124 2.45689 -1.1399
9.34525 2.51389 -1.1149
9.27625 2.52589 -1.1069
9.22225 2.54289 -1.0999
8.95325 2.60489 -1.0679
8.89824 2.61889 -1.0609
8.59824 2.69189 -1.0249
7.96125 2.85289 -0.9509
9.94024 2.34789 -1.2569
9.80925 2.38289 -1.2399
9.67124 2.41389 -1.2219
9.32125 2.49989 -1.1769
9.27025 2.51689 -1.1709
9.20825 2.53189 -1.1629
9.06625 2.56989 -1.1449
8.99325 2.57989 -1.1349
8.95325 2.59889 -1.1299
8.89725 2.61289 -1.1229
8.85124 2.61489 -1.1169
8.80124 2.62989 -1.1109
8.74724 2.64389 -1.1039
8.69524 2.65789 -1.0979
8.63725 2.67089 -1.0909
8.58724 2.68489 -1.0839
8.53724 2.69889 -1.0779
8.50725 2.70389 -1.0739
8.46424 2.71989 -1.0689
8.42325 2.73589 -1.0649
8.36024 2.74489 -1.0559
8.24125 2.77789 -1.0419
8.19825 2.79189 -1.0369
8.13725 2.79989 -1.0289
8.10225 2.81689 -1.0249
8.05225 2.82789 -1.0189
7.91925 2.85189 -1.0019
7.84425 2.87989 -0.9939
7.77925 2.88489 -0.9849
7.73825 2.89689 -0.9799
7.69525 2.90889 -0.9749
7.65125 2.91989 -0.9699
7.62425 2.92389 -0.9669
7.59325 2.93889 -0.9629
7.54725 2.94889 -0.9579
7.50425 2.95889 -0.9529
7.47125 2.97289 -0.9489
7.36525 2.99889 -0.9359
7.31725 3.00589 -0.9309
7.16025 3.04789 -0.9119
7.06125 3.07189 -0.9009
6.84325 3.11889 -0.8749
6.78025 3.14189 -0.8689
6.54125 3.19589 -0.8409
6.36025 3.24489 -0.8209
5.91225 3.35389 -0.7729
5.88125 3.36089 -0.7699
5.77925 3.38689 -0.7589
5.68825 3.40689 -0.7489
5.46025 3.46089 -0.7259
5.38125 3.48189 -0.7179
5.28925 3.50589 -0.7089
10.0312 2.33989 -1.3149
9.96025 2.35689 -1.3059
9.88725 2.37189 -1.2959
9.81824 2.38789 -1.2869
9.76824 2.40789 -1.2799
9.70125 2.42389 -1.2709
9.65125 2.42689 -1.2649
9.57524 2.43989 -1.2539
9.52925 2.45989 -1.2479
9.47725 2.47789 -1.2419
9.35625 2.50889 -1.2259
9.25624 2.52889 -1.2119
9.19724 2.54389 -1.2049
9.08724 2.57489 -1.1909
8.57925 2.69389 -1.1239
8.53924 2.70989 -1.1189
7.61025 2.93689 -1.0019
7.29625 3.01389 -0.9639
7.14625 3.04389 -0.9449
7.07625 3.06689 -0.9369
7.03725 3.07589 -0.9329
6.90725 3.10989 -0.9169
6.86925 3.11889 -0.9129
6.82825 3.12589 -0.9079
6.75525 3.14389 -0.8989
6.72225 3.15389 -0.8949
6.44025 3.22089 -0.8629
6.33825 3.24389 -0.8509
6.26025 3.26589 -0.8419
6.19525 3.28189 -0.8349
6.12925 3.29689 -0.8269
6.09825 3.30389 -0.8239
6.01125 3.31889 -0.8139
5.99425 3.33389 -0.8129
5.96125 3.33989 -0.8089
5.90425 3.35589 -0.8029
5.88725 3.35889 -0.8009
5.84925 3.36089 -0.7959
5.82125 3.36989 -0.7929
5.79925 3.38089 -0.7909
5.58325 3.43289 -0.7679
5.45525 3.46189 -0.7549
5.42625 3.46689 -0.7509
5.33625 3.49289 -0.7419
9.97025 2.34389 -1.3799
9.85324 2.36589 -1.3639
9.79424 2.38489 -1.3559
9.72324 2.39989 -1.3459
9.65625 2.41589 -1.3359
9.60025 2.43389 -1.3289
9.37024 2.48589 -1.2969
9.25725 2.51889 -1.2809
9.20924 2.53689 -1.2749
9.10524 2.55489 -1.2599
9.05525 2.57189 -1.2539
8.98825 2.58289 -1.2439
8.93624 2.59889 -1.2369
8.88824 2.61589 -1.2309
8.82724 2.62789 -1.2219
8.78325 2.62989 -1.2159
8.74425 2.64789 -1.2109
8.68525 2.65989 -1.2029
8.64124 2.67689 -1.1969
8.59325 2.69089 -1.1909
8.53924 2.70389 -1.1839
8.48925 2.71789 -1.1769
8.44724 2.71889 -1.1709
8.39124 2.73089 -1.1629
8.35124 2.74689 -1.1579
8.30325 2.75989 -1.1519
8.24524 2.76989 -1.1439
8.20325 2.78389 -1.1379
8.16024 2.79789 -1.1329
8.06625 2.80889 -1.1199
8.02425 2.82289 -1.1139
7.97825 2.83489 -1.1079
7.94325 2.85089 -1.1039
7.90025 2.86389 -1.0989
7.85425 2.87489 -1.0929
7.82225 2.87689 -1.0879
7.78125 2.88989 -1.0829
7.73125 2.89889 -1.0759
7.68325 2.90889 -1.0699
7.65225 2.92489 -1.0659
7.59525 2.92989 -1.0579
7.57025 2.93489 -1.0549
7.53825 2.94989 -1.0509
7.49225 2.95889 -1.0449
7.44425 2.96689 -1.0389
7.40925 2.97989 -1.0349
7.36125 2.98789 -1.0279
7.33225 3.00289 -1.0249
7.29625 3.00189 -1.0199
7.26325 3.01489 -1.0159
7.22425 3.02589 -1.0109
7.18925 3.03789 -1.0069
7.14325 3.04489 -1.0009
7.04225 3.06789 -0.9879
7.01525 3.08189 -0.9849
6.93925 3.10089 -0.9759
6.82525 3.12789 -0.9619
6.79125 3.12589 -0.9569
6.76225 3.13789 -0.9529
6.69225 3.15689 -0.9449
6.60425 3.17989 -0.9339
6.56725 3.18789 -0.9299
6.53225 3.19589 -0.9249
6.50325 3.20689 -0.9219
6.47025 3.21589 -0.9179
6.37525 3.23189 -0.9059
6.34725 3.24289 -0.9029
6.19225 3.27589 -0.8849
6.16525 3.28589 -0.8819
6.13525 3.29489 -0.8779
6.10725 3.30489 -0.8749
5.99325 3.32889 -0.8619
5.92825 3.34289 -0.8539
5.79225 3.37489 -0.8379
5.76625 3.38389 -0.8359
5.73825 3.39189 -0.8319
5.65525 3.41489 -0.8229
5.58425 3.43289 -0.8159
5.49825 3.45189 -0.8059
5.43025 3.46989 -0.7989
5.31825 3.49289 -0.7859
9.76525 2.39589 -1.4799
9.71025 2.41489 -1.4729
9.58724 2.44789 -1.4549
9.46924 2.46489 -1.4369
9.41724 2.48289 -1.4299
9.35025 2.49689 -1.4199
9.30025 2.51489 -1.4139
9.18725 2.54589 -1.3979
9.12224 2.54289 -1.3879
9.07825 2.56089 -1.3819
9.01925 2.57489 -1.3729
8.97324 2.59189 -1.3669
8.77824 2.63989 -1.3389
8.72025 2.65289 -1.3309
8.67025 2.66689 -1.3239
8.48324 2.71089 -1.2979
8.39025 2.73989 -1.2849
8.34225 2.75289 -1.2789
8.29125 2.76489 -1.2709
8.16224 2.79289 -1.2539
8.11425 2.80489 -1.2469
8.06124 2.81489 -1.2389
8.01324 2.82589 -1.2329
7.97225 2.83989 -1.2269
7.93325 2.85389 -1.2219
7.88225 2.86289 -1.2149
7.84825 2.86489 -1.2099
7.80525 2.87689 -1.2049
7.76925 2.89089 -1.1999
7.64125 2.92589 -1.1829
7.57225 2.93989 -1.1739
7.53225 2.95189 -1.1679
7.44925 2.97289 -1.1569
7.29625 3.00489 -1.1369
7.22025 3.02689 -1.1269
7.04325 3.06989 -1.1039
7.00425 3.07889 -1.0989
6.96825 3.08889 -1.0939
6.89225 3.10689 -1.0839
6.80125 3.12989 -1.0719
6.76125 3.13789 -1.0669
6.59925 3.17589 -1.0459
6.50125 3.20389 -1.0349
6.38525 3.23389 -1.0199
6.31725 3.24989 -1.0119
6.22025 3.27389 -0.9999
6.13525 3.29089 -0.9889
6.01425 3.32289 -0.9749
6.00025 3.32789 -0.9729
5.96525 3.33289 -0.9689
5.93125 3.33789 -0.9639
5.87925 3.35789 -0.9589
5.81725 3.37089 -0.9509
5.79325 3.36889 -0.9479
5.77525 3.38289 -0.9459
5.71725 3.39689 -0.9389
5.65025 3.40489 -0.9309
5.63725 3.40989 -0.9299
5.60325 3.41289 -0.9249
5.58225 3.42389 -0.9229
5.55525 3.43089 -0.9199
9.60225 2.42589 -1.5539
9.47824 2.45789 -1.5349
9.14725 2.54189 -1.4849
9.09525 2.55889 -1.4769
8.94225 2.59189 -1.4539
8.88624 2.60689 -1.4449
8.83125 2.62089 -1.4369
8.77725 2.63489 -1.4289
8.73324 2.65189 -1.4229
8.68124 2.66589 -1.4149
8.63725 2.66689 -1.4079
8.58424 2.68089 -1.3999
8.53425 2.69489 -1.3929
8.49325 2.71089 -1.3869
8.43425 2.72189 -1.3779
8.39225 2.73689 -1.3719
8.33825 2.74889 -1.3639
8.28524 2.74589 -1.3559
8.24825 2.76289 -1.3509
8.20825 2.77789 -1.3449
8.14824 2.78689 -1.3359
8.11225 2.80289 -1.3309
8.06625 2.81489 -1.3239
8.00624 2.82289 -1.3149
7.96825 2.82389 -1.3089
7.93025 2.83789 -1.3039
7.87625 2.84689 -1.2959
7.83625 2.86089 -1.2899
7.80325 2.87589 -1.2859
7.74725 2.88389 -1.2779
7.70725 2.89589 -1.2719
7.68025 2.89989 -1.2679
7.63425 2.90989 -1.2619
7.58625 2.91989 -1.2549
7.56025 2.93689 -1.2519
7.50325 2.94189 -1.2429
7.47425 2.95789 -1.2389
7.44525 2.95989 -1.2349
7.39425 2.96689 -1.2269
7.35325 2.97789 -1.2219
7.32225 2.99189 -1.2179
7.28325 3.00289 -1.2119
7.25225 3.01689 -1.2079
7.17025 3.02289 -1.1959
7.13525 3.03489 -1.1909
7.10625 3.04789 -1.1879
7.06225 3.05589 -1.1809
7.02325 3.06589 -1.1759
6.99925 3.08089 -1.1729
6.95325 3.08689 -1.1669
6.92525 3.08789 -1.1619
6.89725 3.10189 -1.1589
6.84825 3.10589 -1.1519
6.82025 3.11889 -1.1479
6.78525 3.12889 -1.1439
6.74825 3.13789 -1.1389
6.71525 3.14789 -1.1339
6.69125 3.14989 -1.1309
6.65025 3.15589 -1.1249
6.61925 3.16689 -1.1209
6.59025 3.17889 -1.1179
6.55125 3.18489 -1.1119
6.51125 3.19089 -1.1069
6.48625 3.19189 -1.1029
6.44825 3.19889 -1.0979
6.41525 3.20689 -1.0929
6.39125 3.22089 -1.0909
6.35425 3.22689 -1.0859
6.32325 3.23689 -1.0819
6.29725 3.24789 -1.0789
6.27125 3.24689 -1.0749
6.24525 3.25889 -1.0719
6.21225 3.26689 -1.0669
6.17725 3.27289 -1.0629
6.14925 3.28289 -1.0589
6.11125 3.28789 -1.0539
6.08525 3.28589 -1.0499
6.06225 3.29889 -1.0479
6.03325 3.30789 -1.0439
6.00025 3.31389 -1.0399
5.97925 3.32689 -1.0379
5.95025 3.33589 -1.0339
5.91025 3.33789 -1.0279
5.88925 3.33789 -1.0249
5.86325 3.34789 -1.0219
5.82725 3.35189 -1.0169
5.79825 3.35889 -1.0139
5.77425 3.36989 -1.0109
5.73725 3.37289 -1.0059
5.72025 3.38689 -1.0049
5.69425 3.38389 -1.0009
5.66325 3.38989 -0.9969
5.64625 3.40289 -0.9949
5.61125 3.40689 -0.9909
5.58925 3.41689 -0.9879
5.55825 3.42289 -0.9839
5.53025 3.42989 -0.9809
5.51025 3.42889 -0.9779
5.48625 3.43789 -0.9749
5.46025 3.44589 -0.9719
5.43025 3.45089 -0.9689
5.40825 3.46089 -0.9669
5.37725 3.46489 -0.9629
5.35625 3.47589 -0.9609
5.33625 3.47489 -0.9579
5.31725 3.48589 -0.9559
9.03425 2.57689 -1.5509
8.61225 2.67589 -1.4839
8.57125 2.69289 -1.4779
8.46424 2.71789 -1.4609
8.38424 2.73489 -1.4489
8.32925 2.74589 -1.4399
8.27725 2.75789 -1.4319
8.17924 2.78189 -1.4169
8.14324 2.79789 -1.4119
8.06124 2.81189 -1.3989
8.01725 2.82489 -1.3919
7.97425 2.83789 -1.3859
7.92825 2.84989 -1.3789
7.87525 2.85889 -1.3709
7.76225 2.88589 -1.3529
7.72225 2.89889 -1.3479
7.66825 2.90589 -1.3389
7.63225 2.91989 -1.3339
7.55125 2.94289 -1.3219
7.48725 2.95889 -1.3129
7.43825 2.96589 -1.3049
7.39925 2.97789 -1.2989
7.36125 2.98889 -1.2939
7.32025 2.99889 -1.2879
7.25425 3.01189 -1.2779
7.21125 3.02089 -1.2709
6.99825 3.07389 -1.2399
6.96725 3.08589 -1.2359
6.92825 3.09489 -1.2299
6.89325 3.10489 -1.2259
6.79725 3.12589 -1.2119
6.75725 3.13289 -1.2059
6.72925 3.14589 -1.2019
6.58525 3.17989 -1.1819
6.56425 3.18189 -1.1779
6.52625 3.18889 -1.1729
6.49625 3.19989 -1.1689
6.46125 3.20789 -1.1639
6.42125 3.21289 -1.1579
6.39925 3.22689 -1.1559
6.34225 3.23489 -1.1469
6.31625 3.24689 -1.1439
6.13925 3.29089 -1.1199
5.87725 3.35489 -1.0849
5.74425 3.38689 -1.0669
5.65825 3.40789 -1.0559
5.58425 3.42389 -1.0459
5.55525 3.42989 -1.0419
8.50525 2.69289 -1.5329
8.44524 2.70289 -1.5229
8.35025 2.73089 -1.5079
8.30025 2.74389 -1.4999
6.68225 3.13889 -1.2489
6.59925 3.16389 -1.2369
6.55725 3.16889 -1.2299
6.52725 3.17989 -1.2259
6.49925 3.19189 -1.2219
6.45925 3.19789 -1.2159
6.43525 3.19889 -1.2119
6.40425 3.20789 -1.2079
6.36925 3.21589 -1.2029
6.31225 3.23689 -1.1949
6.27525 3.24389 -1.1899
6.24425 3.25189 -1.1849
6.22025 3.25189 -1.1809
6.19025 3.26189 -1.1769
6.16425 3.27289 -1.1739
6.12525 3.27689 -1.1679
6.09725 3.28689 -1.1639
6.06625 3.29489 -1.1599
6.05025 3.29889 -1.1579
6.01425 3.30289 -1.1519
5.99025 3.31489 -1.1489
5.96425 3.32489 -1.1459
5.93325 3.33189 -1.1419
5.90225 3.33889 -1.1369
5.87425 3.34789 -1.1339
5.84825 3.34589 -1.1289
5.82725 3.35789 -1.1269
5.78825 3.35989 -1.1209
5.76225 3.36889 -1.1179
5.73925 3.37989 -1.1149
5.70225 3.38189 -1.1089
5.68125 3.39389 -1.1069
5.65425 3.38989 -1.1029
5.51425 3.42589 -1.0839
5.49225 3.43589 -1.0809
5.48525 3.44389 -1.0809
5.44525 3.44289 -1.0749
5.39925 3.46089 -1.0689
5.33725 3.46989 -1.0609
5.32425 3.47289 -1.0589
8.41924 2.71389 -1.5969
8.37724 2.72989 -1.5899
7.65425 2.89789 -1.4689
7.61325 2.90989 -1.4629
7.59225 2.91489 -1.4589
7.55425 2.92789 -1.4529
7.51525 2.93989 -1.4469
7.48325 2.95389 -1.4419
7.33925 2.98989 -1.4189
7.29325 2.99789 -1.4109
6.96125 3.08089 -1.3579
6.86225 3.10089 -1.3419
6.82225 3.10889 -1.3359
6.79225 3.12089 -1.3319
6.75225 3.12789 -1.3249
6.72525 3.14089 -1.3219
6.63625 3.16289 -1.3079
6.59825 3.16989 -1.3019
6.56325 3.17889 -1.2959
6.52825 3.18689 -1.2909
6.43325 3.21589 -1.2769
6.40925 3.21589 -1.2729
6.36725 3.21989 -1.2659
6.20125 3.27189 -1.2419
6.10025 3.29189 -1.2259
6.07625 3.30289 -1.2229
5.99825 3.32189 -1.2119
5.93825 3.33689 -1.2029
5.84525 3.35789 -1.1899
5.77125 3.37589 -1.1789
5.68525 3.39689 -1.1669
5.60125 3.40689 -1.1539
5.58725 3.42289 -1.1529
5.49825 3.43889 -1.1399
5.42625 3.45389 -1.1299
5.39725 3.45889 -1.1259
5.37325 3.46789 -1.1229
5.32525 3.48389 -1.1169
7.51425 2.93989 -1.5409
6.85725 3.10289 -1.4299
6.81725 3.11089 -1.4229
6.78025 3.11989 -1.4169
6.71525 3.12889 -1.4059
6.68325 3.13889 -1.3999
6.66225 3.15489 -1.3979
6.61025 3.15589 -1.3879
6.57825 3.16689 -1.3839
6.55125 3.17889 -1.3799
6.50925 3.18389 -1.3719
6.45725 3.19589 -1.3639
6.38225 3.20989 -1.3509
6.35825 3.22289 -1.3479
6.32525 3.23089 -1.3429
6.29425 3.22789 -1.3369
6.27025 3.24089 -1.3339
6.23025 3.24489 -1.3269
6.19925 3.25389 -1.3219
6.18525 3.27089 -1.3209
6.14025 3.27189 -1.3129
6.10925 3.28089 -1.3079
6.08725 3.28089 -1.3039
6.05925 3.29089 -1.2999
6.03325 3.30089 -1.2969
6.00225 3.30889 -1.2919
5.96125 3.31089 -1.2849
5.94225 3.32489 -1.2829
5.91825 3.33589 -1.2789
5.88425 3.32889 -1.2729
5.85825 3.33889 -1.2689
5.83225 3.34789 -1.2649
5.80325 3.35589 -1.2609
5.76525 3.35889 -1.2549
5.74825 3.37289 -1.2529
5.71225 3.37589 -1.2469
5.66725 3.38589 -1.2399
5.63825 3.39289 -1.2359
5.57825 3.40489 -1.2259
5.51425 3.42589 -1.2179
5.39825 3.44889 -1.1999
5.37625 3.45789 -1.1969
3.24125 4.01289 0.3411
3.22525 4.01889 0.3411
3.20825 4.02389 0.3411
3.19825 4.02489 0.3411
3.18325 4.03089 0.3411
3.16325 4.03189 0.3401
3.14825 4.03889 0.3401
3.12625 4.03789 0.3401
3.11025 4.04289 0.3401
3.09925 4.04089 0.3401
3.08425 4.04789 0.3391
3.06425 4.04789 0.3391
3.05125 4.05789 0.3391
3.03625 4.06389 0.3391
3.02325 4.07289 0.3391
3.00425 4.07489 0.3391
2.99325 4.07289 0.3391
2.95525 4.07589 0.3381
2.94125 4.08289 0.3381
2.92725 4.09089 0.3381
2.91225 4.09689 0.3381
2.89925 4.10589 0.3381
2.88625 4.10089 0.3371
2.87425 4.11189 0.3371
2.85425 4.11089 0.3371
2.83525 4.10989 0.3371
0.829245 4.61289 0.3281
0.815245 4.62089 0.3291
0.808245 4.62289 0.3291
0.781245 4.63689 0.3291
0.736245 4.63689 0.3291
0.708245 4.64889 0.3291
0.701245 4.65189 0.3291
0.657245 4.66289 0.3291
0.578245 4.68089 0.3291
0.563245 4.68489 0.3291
0.535245 4.69589 0.3301
0.513245 4.70289 0.3301
0.484245 4.70589 0.3301
0.455245 4.71489 0.3301
0.418245 4.71789 0.3301
0.388245 4.72489 0.3301
0.375245 4.74189 0.3301
0.359245 4.73089 0.3301
0.345245 4.73989 0.3301
0.338245 4.75089 0.3301
0.323245 4.74589 0.3301
0.293245 4.74789 0.3301
0.249245 4.75989 0.3311
0.241245 4.76689 0.3311
0.212245 4.77989 0.3311
0.197245 4.78489 0.3311
0.183245 4.79089 0.3311
0.167245 4.78989 0.3311
0.152245 4.79389 0.3311
0.145245 4.78989 0.3311
0.100245 4.80589 0.3321
0.0852454 4.81389 0.3321
0.0552454 4.81589 0.3321
0.0472454 4.80989 0.3321
0.0322454 4.82889 0.3321
0.0172454 4.82689 0.3321
0.00224535 4.83089 0.3321
0.818245 4.63289 0.3061
0.804245 4.63789 0.3061
0.774245 4.64089 0.3061
0.760245 4.64289 0.3061
0.724245 4.65489 0.3071
0.710245 4.65889 0.3071
0.695245 4.66089 0.3071
0.681245 4.66889 0.3071
0.666245 4.66689 0.3071
0.630245 4.67789 0.3071
0.558245 4.69789 0.3071
0.550245 4.70089 0.3071
0.536245 4.70189 0.3071
0.492245 4.71689 0.3071
0.463245 4.71789 0.3071
0.397245 4.73789 0.3081
0.331245 4.75489 0.3081
0.316245 4.75989 0.3081
0.286245 4.76589 0.3081
0.271245 4.77089 0.3081
0.264245 4.76689 0.3081
0.234245 4.77689 0.3081
0.219245 4.78589 0.3081
0.175245 4.79589 0.3091
0.122245 4.80689 0.3091
0.0772454 4.82189 0.3091
3.25225 4.01589 0.2771
3.23525 4.02089 0.2771
3.21825 4.02489 0.2771
3.20025 4.02889 0.2771
3.18025 4.02989 0.2771
3.17325 4.03489 0.2771
3.15525 4.03689 0.2771
3.13925 4.04389 0.2771
3.11925 4.04389 0.2761
3.08825 4.05489 0.2761
3.05525 4.05189 0.2761
3.04025 4.05889 0.2761
3.02025 4.05889 0.2761
2.99625 4.07889 0.2761
2.97625 4.07889 0.2761
2.95725 4.07989 0.2751
2.94525 4.07689 0.2751
2.93125 4.08389 0.2751
2.91725 4.09189 0.2751
2.90225 4.09789 0.2751
2.88525 4.10189 0.2751
2.86825 4.10489 0.2751
2.84825 4.10389 0.2751
2.84125 4.10789 0.2751
2.82325 4.10889 0.2751
0.821245 4.61889 0.2701
0.791245 4.61989 0.2701
0.756245 4.63189 0.2701
0.727245 4.63689 0.2701
0.698245 4.64489 0.2701
0.684245 4.65089 0.2701
0.634245 4.66189 0.2701
0.619245 4.66389 0.2701
0.605245 4.66989 0.2701
0.590245 4.67189 0.2701
0.583245 4.67489 0.2701
0.497245 4.70089 0.2711
0.489245 4.69589 0.2711
0.460245 4.70689 0.2711
0.431245 4.71589 0.2711
0.365245 4.73489 0.2711
0.351245 4.73789 0.2711
0.336245 4.73889 0.2711
0.321245 4.74589 0.2711
0.299245 4.75389 0.2711
0.240245 4.76089 0.2711
0.225245 4.76989 0.2711
0.210245 4.77089 0.2711
0.203245 4.78089 0.2711
0.188245 4.78289 0.2721
0.173245 4.78189 0.2711
0.159245 4.79089 0.2721
0.128245 4.79089 0.2721
0.106245 4.79589 0.2721
0.0762454 4.80689 0.2721
0.0612454 4.81289 0.2721
