4.92814 2.75284 -1.6351
4.90814 2.76184 -1.6311
4.91214 2.78484 -1.6351
4.89614 2.78584 -1.6311
4.89114 2.80384 -1.6321
4.87514 2.81484 -1.6301
4.86014 2.82684 -1.6281
4.85414 2.84384 -1.6291
4.86514 2.87084 -1.6361
4.82614 2.86784 -1.6251
4.84314 2.88884 -1.6331
4.82914 2.90084 -1.6311
4.81714 2.91384 -1.6301
4.81614 2.93384 -1.6331
4.79314 2.94084 -1.6281
4.78114 2.95384 -1.6271
4.76214 2.96284 -1.6231
4.77714 2.98284 -1.6311
4.75814 2.99184 -1.6271
4.76414 3.01684 -1.6331
4.74014 3.02284 -1.6281
4.73414 3.03984 -1.6291
4.71814 3.04984 -1.6261
4.72814 3.07784 -1.6331
4.70514 3.07384 -1.6271
4.69714 3.08884 -1.6281
4.69414 3.10784 -1.6301
4.68614 3.12384 -1.6311
4.67414 3.13784 -1.6301
4.66914 3.15584 -1.6321
4.64914 3.17384 -1.6301
4.63214 3.20584 -1.6311
4.56614 3.27684 -1.6271
4.55714 3.29284 -1.6281
4.53914 3.30184 -1.6251
5.67514 -2.21016 -1.7721
5.66814 -2.18716 -1.7681
5.68314 -2.17216 -1.7711
5.67614 -2.14916 -1.7661
5.69214 -2.13416 -1.7691
5.67514 -2.11816 -1.7621
5.69414 -2.10516 -1.7661
5.68814 -2.08316 -1.7621
5.71114 -2.07016 -1.7681
5.70514 -2.04816 -1.7641
5.73114 -2.03716 -1.7701
5.72314 -2.01416 -1.7651
5.71914 -2.00316 -1.7631
5.73414 -1.98816 -1.7661
5.72814 -1.96516 -1.7621
5.76914 -1.95916 -1.7731
5.74714 -1.93216 -1.7641
5.75714 -1.91516 -1.7651
5.75614 -1.89416 -1.7631
5.77314 -1.89016 -1.7681
5.76114 -1.86616 -1.7621
5.76114 -1.84616 -1.7601
5.77614 -1.83116 -1.7631
5.77314 -1.81016 -1.7601
5.79014 -1.79516 -1.7641
5.78514 -1.78416 -1.7611
5.80214 -1.76916 -1.7651
5.78514 -1.74416 -1.7581
5.81214 -1.71316 -1.7631
5.79914 -1.68916 -1.7571
5.82314 -1.67616 -1.7631
5.81114 -1.66316 -1.7581
5.82714 -1.64816 -1.7621
5.82114 -1.60616 -1.7561
5.84214 -1.57316 -1.7601
5.84514 -1.55416 -1.7591
5.83414 -1.52216 -1.7531
5.85914 -1.50816 -1.7601
5.85314 -1.48716 -1.7561
5.86614 -1.47116 -1.7591
5.86514 -1.45116 -1.7581
5.85714 -1.43916 -1.7541
5.88214 -1.36716 -1.7561
5.88114 -1.32816 -1.7531
5.88514 -1.32016 -1.7541
5.88914 -1.28216 -1.7531
5.89314 -1.26316 -1.7531
5.31414 1.59384 -1.6631
5.31614 1.61284 -1.6651
5.29114 1.70484 -1.6661
5.28814 1.72184 -1.6671
5.27314 1.73584 -1.6641
5.27514 1.75484 -1.6661
5.27514 1.77284 -1.6681
5.26914 1.78984 -1.6681
5.24914 1.80184 -1.6631
5.24614 1.80984 -1.6631
5.25114 1.82984 -1.6671
5.23014 1.84084 -1.6621
5.23814 1.86184 -1.6661
5.20914 1.87084 -1.6591
5.21214 1.88984 -1.6621
5.20514 1.89684 -1.6601
5.20514 1.91484 -1.6621
5.20214 1.93284 -1.6631
5.19314 1.94784 -1.6621
5.18814 1.96484 -1.6631
5.17714 1.97884 -1.6611
5.16714 1.99384 -1.6601
5.16414 2.00184 -1.6601
5.16314 2.02084 -1.6621
5.12814 2.06284 -1.6561
5.11814 2.09584 -1.6571
5.11114 2.10284 -1.6561
5.10814 2.12084 -1.6571
5.09314 2.13284 -1.6541
5.08214 2.14684 -1.6531
5.06914 2.17884 -1.6531
5.07414 2.19084 -1.6561
5.07114 2.20784 -1.6571
5.05214 2.23784 -1.6561
5.00514 2.32184 -1.6531
4.97414 2.36484 -1.6501
4.96714 2.38984 -1.6511
4.95614 2.40384 -1.6501
4.93414 2.43184 -1.6481
4.92914 2.44884 -1.6491
4.92014 2.47284 -1.6491
4.90314 2.48384 -1.6461
4.87914 2.50984 -1.6431
4.87814 2.52884 -1.6461
4.86714 2.56184 -1.6481
4.85614 2.56584 -1.6451
4.82814 2.59084 -1.6411
4.83714 2.61484 -1.6471
4.80714 2.65784 -1.6451
4.78414 2.69384 -1.6451
4.75214 2.73584 -1.6421
4.73714 2.75684 -1.6421
4.73014 2.77284 -1.6421
4.67414 2.84884 -1.6391
4.68414 -3.79816 -1.8171
4.71514 -3.81116 -1.8271
4.72114 -3.79116 -1.8251
4.73614 -3.77916 -1.8261
4.75814 -3.77216 -1.8301
4.76514 -3.75416 -1.8281
4.77414 -3.73616 -1.8271
4.79214 -3.72616 -1.8301
4.79614 -3.71716 -1.8291
4.79614 -3.69316 -1.8241
4.80714 -3.67816 -1.8241
4.81414 -3.65916 -1.8221
4.81714 -3.63716 -1.8191
4.82814 -3.62216 -1.8191
4.82014 -3.60416 -1.8131
4.83414 -3.59116 -1.8141
4.82714 -3.56216 -1.8071
5.35314 -2.46416 -1.7731
5.51114 -2.10916 -1.7761
5.53414 -2.05816 -1.7771
5.53814 -2.04016 -1.7761
5.54014 -2.03116 -1.7761
5.54314 -2.01216 -1.7741
5.54514 -1.99316 -1.7731
5.00914 1.83084 -1.6551
5.01014 1.84884 -1.6581
4.99214 1.85984 -1.6541
4.98114 1.87384 -1.6521
4.99014 1.88684 -1.6561
4.97714 1.89984 -1.6541
4.95514 1.90884 -1.6481
4.96314 1.92984 -1.6531
4.95414 1.94384 -1.6521
4.93514 1.95484 -1.6471
4.93614 1.97284 -1.6501
4.91814 1.99284 -1.6471
4.90814 2.00684 -1.6451
4.89414 2.03684 -1.6451
4.88514 2.05184 -1.6441
4.88114 2.07684 -1.6461
4.87814 2.09384 -1.6471
4.85614 2.10184 -1.6421
4.85214 2.11884 -1.6431
4.86314 2.14184 -1.6491
4.83914 2.15784 -1.6441
4.83614 2.17484 -1.6451
4.81914 2.18584 -1.6421
4.81314 2.20184 -1.6421
4.82214 2.22384 -1.6481
4.80314 2.23284 -1.6441
4.80114 2.25084 -1.6451
4.80114 2.25984 -1.6471
4.77714 2.26684 -1.6401
4.76414 2.27884 -1.6381
4.76614 2.29884 -1.6421
4.75014 2.30884 -1.6381
4.74114 2.32284 -1.6381
4.74014 2.34184 -1.6401
4.72714 2.34384 -1.6371
4.72414 2.36084 -1.6381
4.71514 2.37484 -1.6381
4.70814 2.38984 -1.6381
4.70014 2.40484 -1.6381
4.68614 2.41584 -1.6351
4.68414 2.42384 -1.6361
4.67314 2.43684 -1.6351
4.67014 2.45484 -1.6371
4.65414 2.46484 -1.6331
4.64414 2.47884 -1.6331
4.64214 2.49584 -1.6351
4.62914 2.50784 -1.6331
4.63314 2.51984 -1.6361
4.63414 2.53884 -1.6391
4.61714 2.54884 -1.6361
4.60814 2.56184 -1.6351
4.60414 2.57984 -1.6371
4.59114 2.59084 -1.6351
4.58114 2.59484 -1.6331
4.57114 2.60784 -1.6321
4.56114 2.62084 -1.6321
4.55414 2.63684 -1.6321
4.54114 2.64784 -1.6301
4.54114 2.66684 -1.6331
4.53314 2.68084 -1.6331
4.51214 2.67884 -1.6271
4.51714 2.70084 -1.6321
4.50714 2.71384 -1.6321
4.49014 2.72284 -1.6281
4.49614 2.74584 -1.6341
4.48414 2.75784 -1.6331
4.46914 2.76784 -1.6301
4.46514 2.77484 -1.6301
4.45714 2.78984 -1.6311
4.44514 2.80184 -1.6301
4.43514 2.81484 -1.6291
4.43414 2.83384 -1.6321
4.41414 2.84084 -1.6281
4.41814 2.86284 -1.6331
4.40714 2.86584 -1.6301
4.39614 2.87884 -1.6301
4.39514 2.89784 -1.6331
4.38014 2.90684 -1.6301
4.36114 2.91484 -1.6271
4.36014 2.93384 -1.6301
4.35714 2.95184 -1.6321
4.33714 2.94784 -1.6261
4.34114 2.97084 -1.6321
4.33714 2.98784 -1.6331
4.31314 2.99184 -1.6281
4.31914 3.01584 -1.6341
4.29414 3.01884 -1.6281
4.28714 3.02284 -1.6271
4.28514 3.04184 -1.6301
4.26714 3.04984 -1.6271
4.25614 3.06284 -1.6261
4.25014 3.07784 -1.6271
4.24214 3.09284 -1.6281
4.22314 3.09884 -1.6241
4.23214 3.11584 -1.6301
4.20614 3.11784 -1.6231
4.20114 3.13484 -1.6251
4.20514 3.15784 -1.6311
4.19114 3.16784 -1.6291
4.17014 3.17284 -1.6251
4.17414 3.18584 -1.6281
4.15614 3.19384 -1.6251
4.15414 3.21184 -1.6281
4.13914 3.22184 -1.6271
4.13814 3.24184 -1.6301
4.13214 3.25884 -1.6321
4.47814 -3.71216 -1.8161
4.48014 -3.69016 -1.8111
4.48914 -3.68516 -1.8131
4.51014 -3.67916 -1.8171
4.51014 -3.65616 -1.8121
4.52514 -3.64416 -1.8131
4.55414 -3.64416 -1.8211
4.54014 -3.60916 -1.8101
4.56314 -3.59316 -1.8131
4.60214 -3.50816 -1.8061
5.06314 -2.61716 -1.7771
5.09314 -2.56216 -1.7771
5.10614 -2.52816 -1.7761
5.11914 -2.48516 -1.7741
5.13214 -2.45116 -1.7731
5.14414 -2.43716 -1.7741
5.14814 -2.41916 -1.7731
5.16114 -2.40516 -1.7751
5.15714 -2.39416 -1.7721
5.17114 -2.36116 -1.7721
5.17614 -2.34416 -1.7711
5.18414 -2.32816 -1.7711
5.18214 -2.30716 -1.7681
5.19814 -2.30516 -1.7721
5.24914 -2.16116 -1.7691
5.24714 -2.14116 -1.7661
5.24814 -2.12316 -1.7641
5.26714 -2.11116 -1.7691
5.28914 -2.07216 -1.7711
5.28414 -2.03216 -1.7641
5.29414 -2.01716 -1.7651
5.30414 -2.00116 -1.7671
5.29814 -1.99016 -1.7641
5.31014 -1.97516 -1.7651
5.31114 -1.95616 -1.7641
5.32014 -1.94116 -1.7651
5.31914 -1.92216 -1.7621
5.33114 -1.90716 -1.7641
5.33514 -1.88916 -1.7641
5.33414 -1.88016 -1.7621
5.34914 -1.86616 -1.7651
5.34214 -1.84516 -1.7611
5.35014 -1.82916 -1.7621
5.37214 -1.81716 -1.7671
5.37214 -1.79916 -1.7651
5.36714 -1.77816 -1.7621
5.38614 -1.77516 -1.7671
5.36114 -1.74816 -1.7571
5.37314 -1.73416 -1.7591
5.39114 -1.72116 -1.7641
5.38414 -1.70016 -1.7591
5.39714 -1.68516 -1.7621
5.40114 -1.67716 -1.7621
5.38314 -1.65316 -1.7541
5.40414 -1.64116 -1.7601
5.41914 -1.62716 -1.7631
5.40214 -1.60416 -1.7551
5.41414 -1.58916 -1.7581
5.43714 -1.57716 -1.7641
5.42014 -1.56316 -1.7571
5.41214 -1.54216 -1.7531
5.43914 -1.53116 -1.7601
5.41614 -1.50616 -1.7511
5.43714 -1.49416 -1.7571
5.45314 -1.48016 -1.7601
5.45214 -1.46116 -1.7591
5.43814 -1.44816 -1.7531
5.46014 -1.43616 -1.7591
5.44814 -1.41516 -1.7541
5.45514 -1.39816 -1.7541
5.46814 -1.38316 -1.7571
5.46114 -1.36316 -1.7541
5.46714 -1.35516 -1.7551
5.47714 -1.34016 -1.7571
5.47414 -1.32116 -1.7541
5.47814 -1.28516 -1.7531
5.47714 -1.26716 -1.7511
5.49414 -1.25316 -1.7551
5.48514 -1.22316 -1.7501
4.96014 1.67784 -1.6721
4.95314 1.69284 -1.6711
4.93614 1.69584 -1.6661
4.93014 1.71184 -1.6661
4.92014 1.72484 -1.6641
4.91614 1.74084 -1.6651
4.90714 1.75584 -1.6631
4.90514 1.77184 -1.6651
4.89914 1.77884 -1.6631
4.88414 1.79084 -1.6601
4.88214 1.80684 -1.6621
4.88214 1.82484 -1.6631
4.85514 1.83184 -1.6561
4.83814 1.84284 -1.6521
4.83214 1.85884 -1.6521
4.82214 1.86284 -1.6491
4.81614 1.89584 -1.6511
4.80814 1.90984 -1.6511
4.80614 1.92684 -1.6521
4.80314 1.94284 -1.6531
4.78514 1.95284 -1.6491
4.79414 1.96584 -1.6531
4.77914 1.97684 -1.6501
4.77414 1.99284 -1.6511
4.76814 2.00784 -1.6511
4.75514 2.01984 -1.6481
4.74314 2.03284 -1.6461
4.75814 2.05684 -1.6541
4.73914 2.07484 -1.6511
4.72714 2.08784 -1.6491
4.71014 2.09784 -1.6451
4.73314 2.12584 -1.6561
4.70414 2.13084 -1.6471
4.68914 2.13284 -1.6431
4.69114 2.15084 -1.6461
4.69214 2.16984 -1.6491
4.67514 2.17984 -1.6451
4.67214 2.19584 -1.6471
4.65614 2.20684 -1.6431
4.66014 2.22584 -1.6471
4.64214 2.22684 -1.6421
4.64714 2.24684 -1.6471
4.63514 2.25984 -1.6451
4.62514 2.27184 -1.6431
4.61414 2.28484 -1.6421
4.60014 2.29584 -1.6401
4.61014 2.30984 -1.6451
4.59914 2.32284 -1.6431
4.59714 2.33984 -1.6451
4.58614 2.35284 -1.6441
4.57214 2.36384 -1.6421
4.56314 2.37684 -1.6411
4.56414 2.39584 -1.6441
4.55514 2.40084 -1.6421
4.55114 2.41684 -1.6431
4.53714 2.42684 -1.6411
4.52614 2.43984 -1.6401
4.52114 2.45584 -1.6411
4.52414 2.47484 -1.6451
4.50614 2.48384 -1.6411
4.50714 2.49384 -1.6431
4.49914 2.50784 -1.6431
4.47314 2.51184 -1.6361
4.48214 2.53484 -1.6421
4.47014 2.54784 -1.6411
4.46514 2.56384 -1.6421
4.45914 2.57784 -1.6431
4.45314 2.58484 -1.6421
4.43914 2.59484 -1.6401
4.43014 2.60884 -1.6401
4.43214 2.62784 -1.6431
4.40714 2.63284 -1.6371
4.41114 2.65284 -1.6421
4.39414 2.66184 -1.6381
4.39814 2.67384 -1.6421
4.38214 2.68284 -1.6381
4.38314 2.70284 -1.6421
4.36014 2.70684 -1.6361
4.36714 2.73084 -1.6431
4.35414 2.74184 -1.6411
4.34614 2.74684 -1.6401
4.33614 2.75884 -1.6391
4.33514 2.77784 -1.6421
4.31714 2.78484 -1.6381
4.30514 2.79684 -1.6371
4.30314 2.81384 -1.6401
4.28914 2.82484 -1.6381
4.29314 2.83684 -1.6411
4.29014 2.85384 -1.6431
4.25814 2.87184 -1.6381
4.24214 2.88084 -1.6351
4.23314 2.89384 -1.6351
4.24014 2.90784 -1.6401
4.22914 2.92084 -1.6391
4.22314 2.93584 -1.6401
4.20414 2.94284 -1.6361
4.18714 2.96984 -1.6371
4.17314 2.98984 -1.6371
4.16914 3.00584 -1.6391
4.15114 3.01384 -1.6361
4.14314 3.02784 -1.6361
4.13114 3.03884 -1.6351
4.12314 3.05284 -1.6361
4.11314 3.06584 -1.6361
4.10514 3.06984 -1.6341
4.10014 3.08584 -1.6361
4.08414 3.09484 -1.6341
4.06914 3.10284 -1.6311
4.05814 3.13484 -1.6351
4.04214 3.14284 -1.6331
4.04214 3.15284 -1.6341
4.03214 3.16584 -1.6341
3.48514 3.69684 -1.6191
4.33514 -3.61516 -1.8111
4.41814 -3.48916 -1.8061
4.75614 -2.90916 -1.7871
4.83514 -2.75316 -1.7831
4.93614 -2.52916 -1.7781
4.97614 -2.44216 -1.7761
4.98314 -2.42616 -1.7761
5.10314 -2.16516 -1.7761
5.10014 -2.09816 -1.7671
5.10314 -2.08016 -1.7651
5.11514 -2.02916 -1.7631
5.11514 -2.01016 -1.7601
5.12614 -1.99616 -1.7621
5.12414 -1.98616 -1.7601
5.14614 -1.97616 -1.7661
5.12914 -1.95116 -1.7581
5.14114 -1.93716 -1.7591
5.14814 -1.92216 -1.7601
5.14914 -1.90416 -1.7581
5.17014 -1.90216 -1.7651
5.16014 -1.88016 -1.7591
5.15714 -1.86116 -1.7561
5.17714 -1.84916 -1.7611
5.17614 -1.83116 -1.7581
5.21314 -1.82616 -1.7701
5.18314 -1.79716 -1.7571
5.18814 -1.78916 -1.7581
5.18614 -1.77116 -1.7551
5.20314 -1.75816 -1.7591
5.20114 -1.73916 -1.7561
5.23914 -1.73416 -1.7681
5.20814 -1.70516 -1.7551
5.21414 -1.68916 -1.7551
5.21614 -1.68116 -1.7551
5.24114 -1.67116 -1.7621
5.22314 -1.64716 -1.7541
5.25514 -1.63916 -1.7631
5.25914 -1.62216 -1.7631
5.23714 -1.59716 -1.7531
5.23714 -1.58816 -1.7521
5.24614 -1.57316 -1.7541
5.27314 -1.56316 -1.7611
5.27914 -1.54716 -1.7621
5.28814 -1.53116 -1.7631
5.25614 -1.50416 -1.7501
5.29014 -1.49616 -1.7611
5.28714 -1.48616 -1.7591
5.29314 -1.47016 -1.7591
5.28914 -1.45116 -1.7561
5.27114 -1.42816 -1.7491
5.31114 -1.42116 -1.7611
5.31014 -1.40316 -1.7591
5.30514 -1.38416 -1.7561
5.31214 -1.37716 -1.7581
5.30214 -1.35616 -1.7521
5.29514 -1.33716 -1.7491
5.29814 -1.32016 -1.7481
5.28514 -1.29916 -1.7421
5.29814 -1.28416 -1.7451
5.30614 -1.26916 -1.7471
5.29914 -1.25816 -1.7431
5.31414 -1.24416 -1.7471
5.31214 -1.22616 -1.7451
5.31214 -1.20916 -1.7441
5.32014 -1.19316 -1.7451
5.32014 -1.17516 -1.7441
5.33114 -1.16016 -1.7471
5.33614 -1.15316 -1.7481
5.33314 -1.13416 -1.7451
5.34514 -1.11916 -1.7491
5.34014 -1.10116 -1.7451
5.33914 -1.08316 -1.7441
5.34814 -1.06716 -1.7461
5.34614 -1.05816 -1.7451
5.36314 -1.04416 -1.7491
5.35914 -0.973159 -1.7431
4.78414 1.71784 -1.6721
4.77814 1.73284 -1.6721
4.76214 1.76084 -1.6701
4.74814 1.79884 -1.6701
4.72114 1.82184 -1.6641
4.71914 1.83784 -1.6651
4.71414 1.85384 -1.6661
4.70914 1.86884 -1.6661
4.69514 1.87184 -1.6621
4.69314 1.88784 -1.6631
4.68314 1.90084 -1.6621
4.67214 1.91384 -1.6601
4.66614 1.92884 -1.6601
4.66014 1.94284 -1.6601
4.65914 1.95084 -1.6611
4.65414 1.96684 -1.6611
4.64514 1.97984 -1.6601
4.62514 1.98784 -1.6551
4.63214 2.00884 -1.6601
4.62614 2.02284 -1.6601
4.62114 2.03884 -1.6611
4.61314 2.04384 -1.6591
4.60514 2.05684 -1.6581
4.59314 2.06884 -1.6561
4.57614 2.07884 -1.6521
4.57314 2.09484 -1.6531
4.58014 2.11584 -1.6591
4.56014 2.12384 -1.6531
4.55614 2.13084 -1.6531
4.55014 2.14484 -1.6531
4.54314 2.15984 -1.6531
4.53414 2.17284 -1.6531
4.51714 2.18184 -1.6491
4.51614 2.19884 -1.6511
4.52014 2.21884 -1.6551
4.51414 2.22384 -1.6541
4.49814 2.23384 -1.6511
4.49414 2.24984 -1.6521
4.48714 2.26384 -1.6521
4.48214 2.27884 -1.6531
4.46814 2.28984 -1.6501
4.45114 2.29884 -1.6461
4.46414 2.31384 -1.6531
4.45214 2.32584 -1.6511
4.44914 2.34184 -1.6531
4.42414 2.34684 -1.6451
4.43114 2.36784 -1.6511
4.41914 2.37984 -1.6491
4.41514 2.38684 -1.6491
4.40914 2.40084 -1.6501
4.40214 2.41484 -1.6501
4.39414 2.42884 -1.6501
4.38314 2.44084 -1.6491
4.36914 2.45084 -1.6461
4.36814 2.46784 -1.6491
4.36014 2.47284 -1.6471
4.36114 2.49184 -1.6511
4.34514 2.50084 -1.6471
4.34214 2.51684 -1.6491
4.33514 2.53184 -1.6501
4.32314 2.54284 -1.6481
4.31714 2.54784 -1.6471
4.30614 2.55984 -1.6461
4.30414 2.57684 -1.6491
4.28614 2.60284 -1.6481
4.26814 2.61084 -1.6441
4.26414 2.63584 -1.6471
4.25614 2.64884 -1.6471
4.24714 2.66284 -1.6471
4.23114 2.68884 -1.6471
4.14314 2.79184 -1.6421
4.10614 2.85184 -1.6431
4.06114 2.86784 -1.6331
4.07314 2.89584 -1.6421
4.05414 2.92084 -1.6421
4.04014 2.92984 -1.6401
4.02414 2.94784 -1.6391
3.99814 2.98684 -1.6401
3.98314 2.99484 -1.6371
3.96214 3.01884 -1.6361
3.95414 3.02184 -1.6351
3.93014 3.06284 -1.6371
3.90614 3.08384 -1.6351
3.90514 3.09284 -1.6361
3.78614 3.22784 -1.6341
3.70214 3.30984 -1.6311
3.66414 3.34884 -1.6301
3.47514 3.52384 -1.6251
3.40514 3.59684 -1.6261
3.34214 3.64284 -1.6231
3.33614 3.64784 -1.6231
3.32414 3.65884 -1.6231
3.31414 3.66984 -1.6241
3.29514 3.67184 -1.6201
3.28514 3.68384 -1.6201
3.27714 3.69884 -1.6221
3.26514 3.69684 -1.6191
3.26114 3.71484 -1.6231
3.24414 3.71984 -1.6201
3.23014 3.72684 -1.6191
3.21714 3.73584 -1.6181
3.20414 3.74484 -1.6181
3.19214 3.75484 -1.6181
3.18314 3.75484 -1.6161
3.16414 3.75684 -1.6121
3.15514 3.77084 -1.6141
3.14314 3.78084 -1.6141
1.23714 4.70784 -1.5971
4.08714 -3.67516 -1.8171
4.10614 -3.66816 -1.8201
4.10914 -3.65916 -1.8191
4.12314 -3.64916 -1.8201
4.14714 -3.64716 -1.8261
4.18114 -3.59616 -1.8231
4.19014 -3.58116 -1.8221
4.20114 -3.54516 -1.8171
4.20614 -3.52716 -1.8141
4.22414 -3.51916 -1.8181
4.23414 -3.50516 -1.8171
4.22514 -3.48616 -1.8101
4.24914 -3.48416 -1.8161
4.26114 -3.47216 -1.8171
4.27214 -3.45816 -1.8171
4.27714 -3.44016 -1.8141
4.28014 -3.42116 -1.8111
4.28814 -3.40516 -1.8101
4.29614 -3.40016 -1.8111
4.30314 -3.38316 -1.8091
4.31514 -3.37116 -1.8101
4.33414 -3.36416 -1.8141
4.33314 -3.34216 -1.8081
4.33414 -3.32116 -1.8041
4.34714 -3.32016 -1.8081
4.35414 -3.30416 -1.8061
4.35914 -3.28616 -1.8041
4.37414 -3.27616 -1.8061
4.38414 -3.26216 -1.8061
4.39714 -3.25016 -1.8071
4.40714 -3.23616 -1.8071
4.40814 -3.22616 -1.8051
4.41514 -3.21016 -1.8041
4.42014 -3.19316 -1.8021
4.43314 -3.18116 -1.8031
4.44214 -3.16616 -1.8021
4.44714 -3.14916 -1.8001
4.46014 -3.13716 -1.8021
4.45714 -3.12516 -1.7981
4.47314 -3.11516 -1.8011
4.49414 -3.10816 -1.8061
4.49414 -3.08816 -1.8021
4.50114 -3.07216 -1.8001
4.50914 -3.05616 -1.8001
4.51814 -3.05216 -1.8021
4.52214 -3.03416 -1.7991
4.53014 -3.01916 -1.7981
4.53714 -3.00416 -1.7981
4.54814 -2.99016 -1.7981
4.56614 -2.98116 -1.8021
4.57214 -2.96516 -1.8001
4.56914 -2.95216 -1.7971
4.58314 -2.94116 -1.7991
4.58614 -2.92316 -1.7961
4.59514 -2.90816 -1.7961
4.60214 -2.89316 -1.7961
4.61014 -2.87716 -1.7951
4.62014 -2.86416 -1.7961
4.61714 -2.85216 -1.7921
4.62914 -2.83916 -1.7941
4.63614 -2.82416 -1.7931
4.65114 -2.81316 -1.7961
4.65414 -2.79416 -1.7931
4.66914 -2.78416 -1.7961
4.67014 -2.77416 -1.7941
4.67114 -2.75516 -1.7911
4.68614 -2.74416 -1.7941
4.69314 -2.72816 -1.7931
4.69614 -2.71116 -1.7911
4.70514 -2.69616 -1.7911
4.72214 -2.68616 -1.7941
4.71314 -2.67116 -1.7891
4.72614 -2.65916 -1.7911
4.72814 -2.64016 -1.7881
4.74114 -2.62816 -1.7901
4.75414 -2.61616 -1.7921
4.75614 -2.59816 -1.7901
4.76214 -2.58216 -1.7891
4.76514 -2.57316 -1.7881
4.77614 -2.56016 -1.7901
4.77914 -2.54216 -1.7881
4.78514 -2.52716 -1.7871
4.79114 -2.51116 -1.7861
4.79414 -2.49316 -1.7841
4.80014 -2.48616 -1.7851
4.81614 -2.47616 -1.7881
4.81714 -2.45716 -1.7861
4.82114 -2.44016 -1.7841
4.83114 -2.42616 -1.7851
4.82814 -2.40616 -1.7811
4.85914 -2.40216 -1.7901
4.84814 -2.38716 -1.7841
4.85014 -2.36916 -1.7821
4.87714 -2.34416 -1.7871
4.87114 -2.32316 -1.7821
4.88714 -2.31116 -1.7851
4.88714 -2.29316 -1.7821
4.89714 -2.28816 -1.7851
4.90114 -2.25316 -1.7811
4.91414 -2.24016 -1.7831
4.92414 -2.20716 -1.7821
4.91714 -2.19516 -1.7781
4.94014 -2.18616 -1.7841
4.94714 -2.17116 -1.7841
4.94514 -2.15216 -1.7801
4.95814 -2.13916 -1.7831
4.96214 -2.12216 -1.7821
4.96114 -2.10316 -1.7791
4.97114 -2.09816 -1.7821
4.97114 -2.08016 -1.7791
4.97214 -2.06216 -1.7771
4.98414 -2.04916 -1.7791
4.97614 -2.02716 -1.7741
4.98314 -2.01216 -1.7741
4.99414 -1.99816 -1.7761
4.99914 -1.99116 -1.7771
4.99814 -1.97316 -1.7741
5.01514 -1.96116 -1.7781
5.01814 -1.94416 -1.7771
5.01714 -1.92516 -1.7741
5.02414 -1.90116 -1.7731
5.03014 -1.88516 -1.7731
5.03814 -1.85216 -1.7721
5.03514 -1.83316 -1.7691
5.05214 -1.80316 -1.7711
5.05314 -1.79516 -1.7701
5.06814 -1.74716 -1.7691
5.07714 -1.73216 -1.7711
5.07714 -1.71416 -1.7691
5.08714 -1.67316 -1.7671
5.09514 -1.65816 -1.7691
5.11414 -1.56716 -1.7651
5.12414 -1.53516 -1.7651
5.12314 -1.51716 -1.7631
3.95414 -3.65216 -1.8211
3.97614 -3.65016 -1.8261
3.98714 -3.64916 -1.8291
4.00914 -3.62216 -1.8291
4.02014 -3.61016 -1.8291
4.02214 -3.58816 -1.8241
4.03714 -3.57916 -1.8261
4.05414 -3.57116 -1.8291
4.05414 -3.56016 -1.8261
4.06914 -3.55116 -1.8281
4.06614 -3.52616 -1.8211
4.08614 -3.49816 -1.8201
4.09914 -3.47616 -1.8181
4.11314 -3.46616 -1.8201
4.11214 -3.44316 -1.8141
4.13014 -3.43616 -1.8181
4.12214 -3.40716 -1.8091
4.14714 -3.40616 -1.8161
4.15514 -3.39116 -1.8141
4.15914 -3.38316 -1.8141
4.17014 -3.37016 -1.8141
4.18514 -3.36116 -1.8161
4.17514 -3.33116 -1.8061
4.18714 -3.31916 -1.8071
4.19714 -3.30616 -1.8071
4.22414 -3.30516 -1.8141
4.20714 -3.28116 -1.8041
4.23014 -3.27916 -1.8101
4.23014 -3.25716 -1.8061
4.25114 -3.25216 -1.8101
4.25414 -3.23316 -1.8071
4.27714 -3.23016 -1.8131
4.27014 -3.21416 -1.8081
4.28014 -3.20016 -1.8081
4.29614 -3.19116 -1.8101
4.30514 -3.17716 -1.8101
4.30014 -3.15216 -1.8031
4.34014 -3.16116 -1.8161
4.32114 -3.12616 -1.8041
4.33214 -3.12416 -1.8061
4.34214 -3.11016 -1.8061
4.35114 -3.09616 -1.8061
4.36314 -3.08416 -1.8071
4.37214 -3.07016 -1.8071
4.36814 -3.04716 -1.8011
4.39014 -3.04216 -1.8061
4.39014 -3.03116 -1.8041
4.41014 -3.02516 -1.8091
4.41214 -3.00616 -1.8061
4.42914 -2.99716 -1.8091
4.41214 -2.96516 -1.7971
4.44714 -2.96816 -1.8081
4.43614 -2.95116 -1.8021
4.45714 -2.94516 -1.8071
4.44914 -2.92016 -1.7991
4.46614 -2.91116 -1.8031
4.46914 -2.89316 -1.8001
4.48314 -2.88216 -1.8021
4.48614 -2.86416 -1.7991
4.50014 -2.86316 -1.8041
4.50214 -2.84516 -1.8011
4.52114 -2.83616 -1.8051
4.52014 -2.81616 -1.8011
4.53814 -2.78816 -1.8011
4.55414 -2.77816 -1.8041
4.55614 -2.76916 -1.8031
4.55814 -2.73216 -1.7971
4.56914 -2.69916 -1.7941
4.59014 -2.69316 -1.7991
4.59014 -2.68316 -1.7971
4.59714 -2.66716 -1.7971
4.59814 -2.64916 -1.7941
4.61514 -2.63916 -1.7971
4.59914 -2.61116 -1.7871
4.63614 -2.59416 -1.7961
4.63114 -2.58116 -1.7921
4.65214 -2.57416 -1.7971
4.65814 -2.55816 -1.7971
4.65614 -2.53816 -1.7931
4.66114 -2.50216 -1.7881
4.68214 -2.49516 -1.7931
4.67714 -2.48316 -1.7901
4.69114 -2.45316 -1.7891
4.71614 -2.42816 -1.7931
4.71314 -2.39816 -1.7871
4.73414 -2.37216 -1.7901
4.76214 -2.31216 -1.7891
4.75614 -2.28116 -1.7831
4.77514 -2.27216 -1.7871
4.78914 -2.24216 -1.7871
4.77814 -2.21816 -1.7801
4.79714 -2.19916 -1.7831
4.81514 -2.17116 -1.7851
4.82514 -2.14016 -1.7841
4.83214 -2.11516 -1.7831
4.84614 -2.04916 -1.7781
4.86714 -1.99516 -1.7771
4.87714 -1.92816 -1.7721
4.93614 -1.77416 -1.7721
4.94014 -1.74016 -1.7691
4.97014 -1.62116 -1.7661
5.02914 -1.35616 -1.7591
4.49014 1.78284 -1.6701
4.48214 1.79684 -1.6691
4.46814 1.80684 -1.6661
4.45514 1.80984 -1.6621
4.44714 1.83884 -1.6631
4.44614 1.85484 -1.6651
4.42514 1.86284 -1.6591
4.43114 1.88184 -1.6641
4.41514 1.89084 -1.6601
4.41814 1.90084 -1.6621
4.40414 1.91084 -1.6591
4.40114 1.92684 -1.6601
4.39514 1.93984 -1.6601
4.38114 1.94984 -1.6571
4.38614 1.96984 -1.6621
4.37614 1.97284 -1.6591
4.35514 1.99684 -1.6551
4.36414 2.01784 -1.6621
4.34814 2.02684 -1.6581
4.33314 2.03584 -1.6541
4.33014 2.05084 -1.6551
4.33914 2.06384 -1.6601
4.32014 2.07184 -1.6551
4.31014 2.08384 -1.6541
4.32414 2.10684 -1.6621
4.31114 2.11684 -1.6601
4.30214 2.12984 -1.6591
4.28714 2.13884 -1.6551
4.29114 2.14984 -1.6581
4.27514 2.15884 -1.6551
4.25014 2.17884 -1.6501
4.26814 2.20584 -1.6601
4.24314 2.20984 -1.6531
4.23114 2.22884 -1.6521
4.24214 2.25184 -1.6601
4.20914 2.25084 -1.6491
4.18514 2.25484 -1.6421
4.18214 2.28784 -1.6461
4.18214 2.29584 -1.6481
4.19314 2.31884 -1.6551
4.17214 2.32484 -1.6501
4.14514 2.32684 -1.6421
4.15914 2.35184 -1.6511
4.14014 2.35884 -1.6461
4.14314 2.37684 -1.6501
4.12814 2.37684 -1.6451
4.13314 2.39784 -1.6511
4.09814 2.39384 -1.6391
4.11614 2.42284 -1.6501
4.09414 2.42684 -1.6441
4.09114 2.44284 -1.6461
4.08614 2.44784 -1.6451
4.08914 2.46784 -1.6501
4.07214 2.47484 -1.6461
4.05614 2.48284 -1.6421
4.06414 2.50484 -1.6491
4.03014 2.50084 -1.6371
4.03714 2.52384 -1.6441
4.04314 2.53584 -1.6491
4.01614 2.53684 -1.6401
4.01914 2.57384 -1.6491
4.00814 2.58484 -1.6471
3.99514 2.59384 -1.6451
3.99014 2.60884 -1.6461
3.97914 2.61084 -1.6441
3.95814 2.63284 -1.6421
3.94714 2.64284 -1.6401
3.95414 2.66584 -1.6471
3.93514 2.67084 -1.6421
3.94014 2.69284 -1.6491
3.92414 2.68984 -1.6431
3.91514 2.70284 -1.6431
3.88814 2.70184 -1.6351
3.88614 2.71884 -1.6371
3.89614 2.74384 -1.6461
3.86014 2.73584 -1.6331
3.86114 2.74684 -1.6361
3.85914 2.76284 -1.6391
3.84114 2.76884 -1.6351
3.83514 2.78284 -1.6361
3.83114 2.79884 -1.6381
3.81014 2.80184 -1.6331
3.81714 2.82484 -1.6401
3.79914 2.83884 -1.6371
3.78114 2.84384 -1.6331
3.77314 2.85684 -1.6341
3.76314 2.86784 -1.6331
3.76714 2.88984 -1.6401
3.73414 2.87384 -1.6261
3.73114 2.89084 -1.6291
3.72214 2.90184 -1.6291
3.72014 2.91984 -1.6331
3.70714 2.92784 -1.6311
3.71514 2.95384 -1.6391
3.69314 2.95484 -1.6331
3.69014 2.96184 -1.6331
3.68614 2.97784 -1.6361
3.67414 2.98684 -1.6351
3.65314 2.98884 -1.6291
3.65214 3.00784 -1.6331
3.63514 3.01284 -1.6301
3.62314 3.02184 -1.6281
3.62514 3.03384 -1.6321
3.63214 3.05884 -1.6401
3.61214 3.06184 -1.6351
3.60414 3.07384 -1.6351
3.58414 3.07684 -1.6311
3.58614 3.09784 -1.6361
3.56514 3.09884 -1.6311
3.57714 3.11984 -1.6391
3.55014 3.11584 -1.6311
3.54514 3.13084 -1.6331
3.52614 3.13484 -1.6281
3.51914 3.14784 -1.6301
3.50814 3.15784 -1.6291
3.50114 3.17184 -1.6311
3.49614 3.17684 -1.6311
3.49114 3.19284 -1.6331
3.47914 3.20184 -1.6321
3.46614 3.20984 -1.6311
3.43614 3.20284 -1.6211
3.43914 3.22484 -1.6271
3.43214 3.22884 -1.6261
3.42514 3.24284 -1.6281
3.42514 3.26384 -1.6331
3.40014 3.25984 -1.6261
3.39114 3.27184 -1.6261
3.38514 3.28684 -1.6281
3.37314 3.29584 -1.6281
3.35114 3.30484 -1.6241
3.34614 3.32084 -1.6271
3.33314 3.32884 -1.6261
3.33214 3.34884 -1.6311
3.30814 3.34584 -1.6241
3.29014 3.35884 -1.6221
3.29614 3.38584 -1.6311
3.27014 3.38084 -1.6231
3.26014 3.39184 -1.6241
3.24914 3.40084 -1.6231
3.23314 3.40584 -1.6201
3.23514 3.41884 -1.6241
3.20814 3.41084 -1.6151
3.21214 3.43784 -1.6241
3.19814 3.44384 -1.6221
3.18914 3.45684 -1.6231
3.17014 3.45684 -1.6181
3.17214 3.48184 -1.6261
3.14814 3.46584 -1.6151
3.15914 3.49984 -1.6271
3.13114 3.49184 -1.6181
3.12414 3.50584 -1.6201
3.11714 3.51984 -1.6221
3.10114 3.52384 -1.6201
3.09114 3.53484 -1.6201
3.08514 3.53984 -1.6201
3.07314 3.54784 -1.6201
3.06714 3.56284 -1.6221
3.05414 3.57184 -1.6221
3.03514 3.57084 -1.6171
3.02214 3.57884 -1.6161
3.01714 3.59584 -1.6201
3.01414 3.60284 -1.6211
2.99414 3.60284 -1.6161
2.99014 3.62084 -1.6201
2.96814 3.61684 -1.6141
2.95614 3.62584 -1.6141
2.95014 3.64184 -1.6171
2.93114 3.62984 -1.6091
2.92014 3.63884 -1.6091
2.92114 3.66484 -1.6171
2.89814 3.65884 -1.6101
2.88914 3.67084 -1.6111
2.89814 3.70684 -1.6241
2.86614 3.68884 -1.6111
2.85714 3.69084 -1.6101
2.85614 3.71284 -1.6161
2.84014 3.71584 -1.6131
2.82014 3.71384 -1.6081
2.81014 3.72484 -1.6091
2.80614 3.74384 -1.6141
2.80214 3.75184 -1.6151
2.79114 3.76184 -1.6161
2.66514 3.82484 -1.6081
2.66114 3.84384 -1.6131
2.65014 3.85384 -1.6131
2.63114 3.83884 -1.6051
2.62214 3.85184 -1.6071
2.61814 3.87284 -1.6131
2.58614 3.87684 -1.6071
2.57314 3.88484 -1.6071
2.56114 3.89284 -1.6071
2.55714 3.89984 -1.6081
2.54014 3.89984 -1.6051
2.53314 3.91784 -1.6091
2.52714 3.93484 -1.6131
2.50514 3.92684 -1.6061
2.48614 3.92584 -1.6021
2.48514 3.95084 -1.6101
2.47314 3.94484 -1.6061
2.46914 3.96684 -1.6121
2.45814 3.97684 -1.6131
2.44414 3.98284 -1.6121
2.43314 3.99184 -1.6131
2.41414 3.98784 -1.6081
2.41014 3.99684 -1.6101
2.39514 3.99984 -1.6081
2.38614 4.01384 -1.6111
2.37014 4.01584 -1.6081
2.36214 4.02984 -1.6111
2.34414 4.02984 -1.6081
2.33214 4.03884 -1.6081
2.31914 4.02884 -1.6031
2.29514 4.04684 -1.6041
2.27714 4.04384 -1.6001
2.27714 4.07384 -1.6101
2.26314 4.07984 -1.6091
2.25014 4.08484 -1.6081
2.24314 4.08884 -1.6081
3.83114 -3.56416 -1.8181
3.83014 -3.54116 -1.8121
3.85714 -3.54416 -1.8201
3.85914 -3.53416 -1.8181
3.86714 -3.49716 -1.8111
3.88114 -3.48716 -1.8121
3.88614 -3.47016 -1.8101
3.90114 -3.46216 -1.8121
3.90514 -3.44316 -1.8081
3.92014 -3.44616 -1.8131
3.92214 -3.42616 -1.8091
3.94114 -3.39916 -1.8081
3.96614 -3.39916 -1.8141
4.03314 -3.28416 -1.8061
4.08214 -3.19816 -1.8011
4.08214 -3.18816 -1.7991
4.10214 -3.16216 -1.7991
4.17514 -3.04416 -1.7941
4.18714 -3.03316 -1.7951
4.21314 -3.00116 -1.7961
4.23114 -2.97516 -1.7961
4.24114 -2.94216 -1.7921
4.27514 -2.93516 -1.8011
4.29414 -2.85016 -1.7891
4.31114 -2.85216 -1.7941
4.30414 -2.82816 -1.7871
4.31414 -2.81516 -1.7881
4.34914 -2.78016 -1.7921
4.36414 -2.72316 -1.7851
4.38314 -2.69616 -1.7861
4.39214 -2.68316 -1.7861
4.38614 -2.67016 -1.7821
4.40914 -2.64616 -1.7851
4.42314 -2.61616 -1.7831
4.43314 -2.59516 -1.7831
4.45814 -2.57116 -1.7861
4.45414 -2.53216 -1.7781
4.47614 -2.50816 -1.7811
4.49614 -2.47316 -1.7811
4.49214 -2.45216 -1.7761
4.49814 -2.43716 -1.7751
4.51614 -2.42816 -1.7791
4.52514 -2.41516 -1.7801
4.51914 -2.40316 -1.7761
4.52614 -2.38916 -1.7761
4.53814 -2.35816 -1.7741
4.54814 -2.32716 -1.7721
4.55514 -2.30416 -1.7711
4.57114 -2.29416 -1.7741
4.58014 -2.28016 -1.7751
4.58514 -2.26516 -1.7741
4.59414 -2.25216 -1.7751
4.58914 -2.23116 -1.7701
4.59814 -2.22716 -1.7721
4.60114 -2.19316 -1.7681
4.61514 -2.18216 -1.7711
4.62014 -2.14916 -1.7671
4.63214 -2.13716 -1.7701
4.62314 -2.12416 -1.7651
4.63314 -2.11116 -1.7661
4.66514 -2.07216 -1.7711
4.67314 -2.05816 -1.7721
4.67614 -2.03316 -1.7691
4.67314 -1.99716 -1.7631
4.68514 -1.98516 -1.7651
4.68714 -1.95116 -1.7611
4.71414 -1.95416 -1.7701
4.69614 -1.92916 -1.7611
4.70414 -1.91516 -1.7611
4.71014 -1.90016 -1.7611
4.71214 -1.88416 -1.7601
4.73914 -1.87716 -1.7681
4.71914 -1.85216 -1.7581
4.72714 -1.84716 -1.7601
4.75214 -1.83916 -1.7671
4.73514 -1.81616 -1.7581
4.73214 -1.79816 -1.7551
4.74414 -1.78516 -1.7581
4.74814 -1.77016 -1.7571
4.77714 -1.76316 -1.7661
4.76914 -1.75216 -1.7621
4.78314 -1.74016 -1.7651
4.76014 -1.71516 -1.7541
4.78014 -1.70516 -1.7601
4.78914 -1.69116 -1.7611
4.80514 -1.68016 -1.7651
4.78814 -1.66616 -1.7581
4.78814 -1.64916 -1.7561
4.78714 -1.63216 -1.7541
4.80714 -1.62216 -1.7591
4.79214 -1.60016 -1.7521
4.81514 -1.59116 -1.7581
4.80714 -1.57216 -1.7541
4.81314 -1.56516 -1.7551
4.81514 -1.54916 -1.7541
4.81214 -1.53216 -1.7511
4.85114 -1.52716 -1.7641
4.82214 -1.50116 -1.7511
4.83414 -1.48816 -1.7541
4.83714 -1.47316 -1.7531
4.83714 -1.46516 -1.7521
4.86014 -1.45516 -1.7591
4.84614 -1.43416 -1.7521
4.84914 -1.41816 -1.7521
4.86314 -1.40616 -1.7551
4.85414 -1.38716 -1.7501
4.86414 -1.38116 -1.7531
4.85714 -1.36316 -1.7491
4.89414 -1.35716 -1.7611
4.86414 -1.33216 -1.7481
4.87914 -1.32016 -1.7521
4.85614 -1.29716 -1.7421
4.88014 -1.28716 -1.7491
4.89314 -1.28216 -1.7541
4.88914 -1.26516 -1.7511
4.88814 -1.24816 -1.7491
4.89614 -1.21716 -1.7491
4.91014 -1.20516 -1.7531
4.89614 -1.18516 -1.7461
4.90714 -1.17916 -1.7491
4.90114 -1.16216 -1.7461
4.90114 -1.14616 -1.7451
4.91814 -1.13316 -1.7491
4.91214 -1.11616 -1.7461
4.92514 -1.10216 -1.7491
4.91214 -1.09116 -1.7441
4.93214 -1.07916 -1.7501
4.93314 -1.06316 -1.7491
4.92914 -1.04616 -1.7471
4.92714 -1.03016 -1.7451
4.93914 -1.01616 -1.7481
4.92914 -0.974159 -1.7411
4.95714 -0.947159 -1.7491
4.96914 -0.812159 -1.7451
4.28214 1.89084 -1.6681
4.28014 1.90584 -1.6691
4.26514 1.91484 -1.6661
4.10214 2.21084 -1.6601
4.10014 2.22684 -1.6621
4.08814 2.23684 -1.6601
4.07814 2.24784 -1.6591
4.04914 2.27384 -1.6541
4.04514 2.28784 -1.6551
4.03414 2.31584 -1.6561
4.02814 2.32884 -1.6571
4.00514 2.34984 -1.6541
4.00514 2.35784 -1.6551
4.00214 2.37284 -1.6571
3.99014 2.38284 -1.6551
3.97614 2.39184 -1.6521
3.96414 2.41884 -1.6541
3.96014 2.43284 -1.6551
3.94314 2.44884 -1.6531
3.92914 2.45684 -1.6501
3.92514 2.48884 -1.6551
3.91514 2.49984 -1.6541
3.90214 2.51684 -1.6541
3.87714 2.55284 -1.6531
3.79014 2.66984 -1.6511
3.77414 2.67684 -1.6471
3.76714 2.68984 -1.6481
3.75414 2.69784 -1.6461
3.75014 2.71284 -1.6481
3.74314 2.71684 -1.6461
3.73414 2.72884 -1.6461
3.72714 2.74184 -1.6471
3.70914 2.74684 -1.6431
3.70414 2.76084 -1.6441
3.70314 2.77784 -1.6481
3.68514 2.78284 -1.6441
3.68314 2.79084 -1.6451
3.67314 2.80084 -1.6441
3.66914 2.81584 -1.6461
3.65814 2.82584 -1.6461
3.64414 2.83284 -1.6431
3.64114 2.84884 -1.6461
3.63014 2.85984 -1.6451
3.62714 2.86584 -1.6461
3.61714 2.87684 -1.6451
3.58814 2.90984 -1.6441
3.57714 2.91984 -1.6441
3.56714 2.92984 -1.6431
3.56114 2.93384 -1.6421
3.55014 2.94384 -1.6411
3.54214 2.95584 -1.6421
3.39014 3.12084 -1.6401
3.13814 3.34884 -1.6331
3.11214 3.37484 -1.6341
3.09514 3.37784 -1.6301
3.07314 3.39584 -1.6291
3.06614 3.40984 -1.6321
3.04914 3.42284 -1.6311
3.03314 3.42684 -1.6281
3.01014 3.44484 -1.6271
3.00314 3.45784 -1.6291
2.97714 3.47284 -1.6271
2.96914 3.47484 -1.6261
2.96514 3.49084 -1.6291
2.94414 3.48884 -1.6241
2.93414 3.49984 -1.6241
2.93314 3.51984 -1.6301
2.91114 3.51684 -1.6241
2.90814 3.52384 -1.6251
2.88814 3.54484 -1.6271
2.88214 3.55984 -1.6291
2.86714 3.56484 -1.6271
2.85214 3.56884 -1.6251
2.84014 3.57684 -1.6241
2.84114 3.58984 -1.6291
2.81914 3.58584 -1.6221
2.81214 3.59884 -1.6241
2.80314 3.61084 -1.6261
2.78114 3.60584 -1.6191
2.77414 3.62084 -1.6221
2.76714 3.63584 -1.6251
2.75614 3.63184 -1.6221
2.74314 3.63984 -1.6211
2.73714 3.65584 -1.6241
2.71714 3.65184 -1.6191
2.70414 3.65884 -1.6181
2.70314 3.68084 -1.6241
2.67914 3.67284 -1.6171
2.67414 3.67884 -1.6171
2.66814 3.69484 -1.6211
2.64914 3.69284 -1.6161
2.63714 3.70084 -1.6161
2.63514 3.72084 -1.6221
2.62214 3.72784 -1.6211
2.60814 3.73284 -1.6191
2.60314 3.73884 -1.6201
2.59014 3.74484 -1.6191
2.57614 3.75084 -1.6181
2.56814 3.76284 -1.6201
2.55114 3.76384 -1.6171
2.53914 3.77184 -1.6171
2.53614 3.77984 -1.6191
2.52414 3.78784 -1.6191
2.50614 3.78684 -1.6151
2.50114 3.80484 -1.6191
2.48914 3.81284 -1.6191
2.47714 3.82084 -1.6191
2.47114 3.83784 -1.6241
2.45914 3.83284 -1.6191
2.44214 3.83284 -1.6161
2.43214 3.84284 -1.6171
2.42314 3.85584 -1.6191
2.40914 3.85984 -1.6181
2.39814 3.86884 -1.6191
2.38614 3.87684 -1.6191
2.37514 3.87284 -1.6151
2.37014 3.89284 -1.6211
2.35114 3.88884 -1.6161
2.34514 3.90584 -1.6201
2.32114 3.92184 -1.6211
2.30814 3.92784 -1.6201
2.30214 3.93184 -1.6201
2.28614 3.93184 -1.6171
2.27514 3.94284 -1.6191
2.26214 3.94784 -1.6181
2.25014 3.95684 -1.6191
2.23814 3.96384 -1.6191
2.23314 3.97084 -1.6201
2.21714 3.97084 -1.6171
2.20814 3.98484 -1.6201
2.19614 3.99184 -1.6201
2.18114 3.99384 -1.6181
2.16714 3.99884 -1.6171
2.15014 3.99684 -1.6141
2.14814 4.00884 -1.6171
2.13314 4.01084 -1.6151
2.12414 4.02384 -1.6181
2.10914 4.02584 -1.6161
2.09814 4.03584 -1.6171
2.08514 4.04184 -1.6171
2.07014 4.04384 -1.6151
2.06614 4.05184 -1.6171
2.05214 4.05684 -1.6171
2.03914 4.06184 -1.6161
2.02414 4.06484 -1.6151
2.01314 4.07384 -1.6161
2.00014 4.08084 -1.6161
1.98614 4.08384 -1.6151
1.98414 4.09484 -1.6181
1.97214 4.10284 -1.6191
1.95514 4.10184 -1.6161
1.94114 4.10484 -1.6151
1.93114 4.11784 -1.6171
1.91714 4.12084 -1.6161
1.90414 4.12684 -1.6161
1.88414 4.13584 -1.6161
1.87314 4.14484 -1.6171
1.85414 4.13684 -1.6121
1.84114 4.14284 -1.6121
1.82714 4.14684 -1.6111
1.81314 4.15084 -1.6101
1.80614 4.15184 -1.6101
1.79714 4.16784 -1.6141
1.78114 4.16684 -1.6111
1.76814 4.17184 -1.6111
1.75114 4.16884 -1.6071
1.74314 4.18684 -1.6121
1.72014 4.16784 -1.6021
1.71814 4.18084 -1.6071
1.70514 4.18684 -1.6071
1.69314 4.19484 -1.6081
1.67614 4.19184 -1.6051
1.66614 4.20584 -1.6081
1.65014 4.20384 -1.6051
1.63714 4.20884 -1.6051
1.63414 4.22084 -1.6091
1.61714 4.21484 -1.6051
1.60914 4.23384 -1.6101
1.59514 4.23784 -1.6101
1.56414 4.23484 -1.6051
1.56014 4.24484 -1.6071
1.54214 4.23884 -1.6031
1.53014 4.24584 -1.6041
1.51614 4.24984 -1.6041
1.50214 4.25284 -1.6031
1.48814 4.25584 -1.6021
1.47714 4.26584 -1.6051
1.46914 4.26484 -1.6031
1.45514 4.26984 -1.6031
1.44114 4.27084 -1.6021
1.42714 4.27484 -1.6021
1.41314 4.27584 -1.6001
1.39914 4.27884 -1.6001
1.38614 4.28684 -1.6011
1.37814 4.28284 -1.5991
1.33914 4.29984 -1.6001
1.32514 4.30184 -1.6001
1.31214 4.30984 -1.6011
1.29814 4.31184 -1.6001
1.29114 4.31384 -1.6001
1.27714 4.31684 -1.6001
1.26514 4.32584 -1.6021
1.23514 4.32284 -1.5971
1.22314 4.33384 -1.6001
1.21014 4.33784 -1.6001
1.20114 4.33284 -1.5971
1.19014 4.34484 -1.6011
1.17814 4.35584 -1.6041
1.16414 4.35784 -1.6031
1.14614 4.34684 -1.5971
1.13414 4.35484 -1.5991
1.12714 4.35584 -1.5991
1.11614 4.37084 -1.6031
1.09914 4.36284 -1.5991
1.08414 4.36084 -1.5971
1.07314 4.37584 -1.6011
1.05814 4.37184 -1.5981
1.04514 4.37884 -1.6001
1.04114 4.39084 -1.6041
1.01014 4.38284 -1.5981
0.999135 4.39884 -1.6031
0.982135 4.38884 -1.5981
0.968135 4.39184 -1.5981
0.957135 4.40784 -1.6031
0.937135 4.41584 -1.6051
0.922135 4.41384 -1.6021
0.909135 4.41784 -1.6031
0.893135 4.41384 -1.6001
0.883135 4.43284 -1.6071
0.869135 4.43384 -1.6061
0.858135 4.41884 -1.6001
0.847135 4.43384 -1.6051
0.831135 4.42384 -1.6001
0.816135 4.42284 -1.5981
0.787135 4.42484 -1.5971
0.777135 4.44484 -1.6041
0.769135 4.43884 -1.6011
0.753136 4.43184 -1.5971
0.740135 4.43784 -1.5991
0.728135 4.45184 -1.6031
0.713135 4.45184 -1.6021
0.698135 4.44284 -1.5981
0.686135 4.45784 -1.6031
0.678135 4.45584 -1.6021
0.663135 4.44884 -1.5981
0.651136 4.46384 -1.6031
0.635135 4.45584 -1.6001
0.621135 4.45784 -1.6001
0.609136 4.47184 -1.6041
0.594135 4.46784 -1.6021
0.587135 4.46684 -1.6011
0.574135 4.47784 -1.6051
0.559135 4.47084 -1.6011
0.547135 4.48884 -1.6071
0.532135 4.48284 -1.6051
0.518135 4.48484 -1.6051
0.504135 4.49184 -1.6071
0.497136 4.49484 -1.6071
0.483136 4.49584 -1.6071
0.468136 4.49184 -1.6051
0.454136 4.48984 -1.6041
0.440136 4.48884 -1.6031
0.426136 4.49284 -1.6041
0.419136 4.50084 -1.6071
0.405136 4.50184 -1.6071
0.391136 4.50084 -1.6061
0.377136 4.50384 -1.6071
0.363136 4.51084 -1.6091
0.348136 4.50284 -1.6051
0.335136 4.51884 -1.6111
0.328136 4.51584 -1.6101
0.313136 4.50184 -1.6041
0.299136 4.50284 -1.6041
0.284136 4.50384 -1.6041
0.270136 4.50784 -1.6051
0.257136 4.51884 -1.6091
0.242135 4.51584 -1.6071
0.235135 4.51584 -1.6071
0.221135 4.51284 -1.6061
0.207135 4.51384 -1.6061
0.193135 4.51984 -1.6081
0.179136 4.51984 -1.6081
0.164136 4.51384 -1.6051
0.150136 4.51784 -1.6071
0.143136 4.51584 -1.6061
0.129135 4.51984 -1.6071
0.114136 4.51284 -1.6051
0.101136 4.52484 -1.6091
0.0861355 4.51384 -1.6051
0.0721355 4.51984 -1.6071
0.0581355 4.52484 -1.6091
0.0511355 4.51784 -1.6061
0.0371355 4.52384 -1.6081
0.0221355 4.51984 -1.6071
0.0081355 4.52384 -1.6081
3.60614 -3.55616 -1.8131
3.62114 -3.54816 -1.8151
3.63214 -3.53716 -1.8151
3.63114 -3.52516 -1.8121
3.64814 -3.51916 -1.8151
3.66314 -3.51116 -1.8171
3.67014 -3.49616 -1.8151
3.67714 -3.48016 -1.8131
3.69814 -3.47916 -1.8181
3.70414 -3.46216 -1.8151
3.71314 -3.46016 -1.8181
3.72014 -3.44516 -1.8151
3.72314 -3.42516 -1.8111
3.72914 -3.41016 -1.8091
3.74714 -3.40416 -1.8131
3.74914 -3.38516 -1.8081
3.76114 -3.38516 -1.8121
3.77014 -3.35116 -1.8051
3.78114 -3.33916 -1.8051
3.82614 -3.30416 -1.8101
3.82314 -3.28116 -1.8031
3.83614 -3.27216 -1.8051
3.84414 -3.25716 -1.8031
3.86014 -3.22916 -1.8011
3.88014 -3.22616 -1.8061
3.88914 -3.20216 -1.8031
3.90414 -3.19416 -1.8051
3.92214 -3.14716 -1.8001
3.92314 -3.13816 -1.7981
3.93214 -3.12516 -1.7981
3.94814 -3.11816 -1.8001
3.97514 -3.09916 -1.8041
3.97714 -3.08016 -1.8001
3.97814 -3.06116 -1.7961
3.99714 -3.04616 -1.7981
4.01814 -3.00216 -1.7951
4.02714 -2.99016 -1.7951
4.03414 -2.97516 -1.7931
4.04714 -2.97516 -1.7981
4.04614 -2.95416 -1.7931
4.06214 -2.94616 -1.7961
4.06314 -2.92816 -1.7921
4.07214 -2.91516 -1.7921
4.08014 -2.90116 -1.7911
4.08614 -2.89616 -1.7921
4.09214 -2.88116 -1.7911
4.11614 -2.84016 -1.7891
4.13114 -2.83116 -1.7921
4.14014 -2.81816 -1.7921
4.14014 -2.80916 -1.7901
4.14714 -2.79516 -1.7891
4.16714 -2.78916 -1.7941
4.16514 -2.76916 -1.7891
4.16714 -2.75116 -1.7861
4.17914 -2.74016 -1.7881
4.18514 -2.73516 -1.7881
4.18814 -2.71816 -1.7861
4.21614 -2.71816 -1.7951
4.20214 -2.69016 -1.7851
4.21114 -2.67716 -1.7851
4.23214 -2.67216 -1.7911
4.23414 -2.65416 -1.7881
4.23014 -2.64316 -1.7841
4.24314 -2.63216 -1.7861
4.24814 -2.61716 -1.7851
4.25514 -2.60316 -1.7841
4.26314 -2.58916 -1.7841
4.26514 -2.57216 -1.7811
4.27414 -2.56016 -1.7821
4.28314 -2.55616 -1.7841
4.29814 -2.54616 -1.7871
4.28914 -2.52316 -1.7801
4.29614 -2.50916 -1.7791
4.30714 -2.49716 -1.7811
4.31014 -2.48116 -1.7781
4.31914 -2.46816 -1.7791
4.32814 -2.46416 -1.7811
4.33214 -2.44916 -1.7801
4.33714 -2.43316 -1.7781
4.34914 -2.40416 -1.7771
4.36114 -2.39316 -1.7791
4.37314 -2.39116 -1.7831
4.36414 -2.36816 -1.7761
4.37814 -2.35816 -1.7781
4.38014 -2.32316 -1.7731
4.39714 -2.31516 -1.7771
4.39614 -2.29616 -1.7741
4.40814 -2.29416 -1.7771
4.40814 -2.27716 -1.7741
4.41114 -2.26016 -1.7721
4.42114 -2.24816 -1.7741
4.42514 -2.23216 -1.7721
4.43514 -2.22016 -1.7741
4.43914 -2.20516 -1.7721
4.46014 -2.20716 -1.7801
4.45414 -2.18616 -1.7741
4.44614 -2.16516 -1.7681
4.46414 -2.15616 -1.7731
4.47114 -2.14216 -1.7731
4.47614 -2.12816 -1.7721
4.47814 -2.12016 -1.7711
4.48314 -2.10516 -1.7711
4.49414 -2.09316 -1.7731
4.48914 -2.07316 -1.7681
4.50114 -2.06216 -1.7701
4.50214 -2.04516 -1.7681
4.50014 -2.02716 -1.7641
4.51114 -2.02416 -1.7681
4.53814 -2.01916 -1.7761
4.52814 -1.99716 -1.7691
4.52514 -1.97916 -1.7661
4.53814 -1.96816 -1.7691
4.54414 -1.95416 -1.7691
4.55214 -1.94016 -1.7691
4.54814 -1.93016 -1.7661
4.56714 -1.92116 -1.7711
4.56214 -1.90216 -1.7671
4.56814 -1.88816 -1.7671
4.57414 -1.87316 -1.7671
4.57814 -1.85816 -1.7661
4.57614 -1.84916 -1.7641
4.58914 -1.83716 -1.7671
4.59114 -1.82216 -1.7661
4.58614 -1.80316 -1.7611
4.59714 -1.79116 -1.7641
4.60614 -1.77716 -1.7651
4.61014 -1.76216 -1.7641
4.61414 -1.75616 -1.7651
4.62514 -1.74316 -1.7671
4.62014 -1.72516 -1.7631
4.62714 -1.71116 -1.7641
4.63614 -1.69816 -1.7651
4.64714 -1.68516 -1.7671
4.63814 -1.66516 -1.7611
4.63714 -1.65716 -1.7601
4.64614 -1.64316 -1.7611
4.65314 -1.62916 -1.7621
4.66514 -1.61716 -1.7651
4.66514 -1.60116 -1.7631
4.66814 -1.58616 -1.7621
4.68414 -1.58316 -1.7681
4.67514 -1.56316 -1.7621
4.67114 -1.54616 -1.7591
4.68714 -1.53516 -1.7631
4.69014 -1.51916 -1.7621
4.68914 -1.50316 -1.7601
4.69614 -1.48916 -1.7611
4.70014 -1.48216 -1.7611
4.69214 -1.46316 -1.7561
4.70214 -1.45016 -1.7591
4.70514 -1.43516 -1.7581
4.70714 -1.41916 -1.7571
4.71214 -1.40516 -1.7571
4.71614 -1.39016 -1.7571
4.70914 -1.38016 -1.7541
4.73214 -1.37016 -1.7611
4.72314 -1.35216 -1.7561
4.73514 -1.33916 -1.7591
4.72614 -1.32016 -1.7541
4.73614 -1.30716 -1.7561
4.74914 -1.30316 -1.7601
4.73714 -1.28316 -1.7541
4.75214 -1.25516 -1.7561
4.75014 -1.22316 -1.7531
4.75314 -1.20016 -1.7521
4.77114 -1.18916 -1.7571
4.77314 -1.17316 -1.7561
4.77114 -1.14116 -1.7531
4.76514 -1.10816 -1.7481
4.78314 -1.10416 -1.7541
4.78314 -1.08816 -1.7531
4.77714 -1.05516 -1.7481
4.78914 -1.02716 -1.7501
4.80414 -0.943159 -1.7491
4.02014 2.12084 -1.6651
3.99814 2.15784 -1.6641
3.96614 2.19684 -1.6601
3.90614 2.30184 -1.6601
3.88914 2.30884 -1.6561
3.88814 2.33284 -1.6601
3.86914 2.33784 -1.6551
3.86014 2.34984 -1.6551
3.84814 2.37584 -1.6561
3.82214 2.37584 -1.6471
3.82314 2.38484 -1.6491
3.82214 2.41784 -1.6561
3.81814 2.43184 -1.6571
3.80814 2.44284 -1.6571
3.79414 2.45084 -1.6541
3.78014 2.48384 -1.6561
3.74514 2.52884 -1.6551
3.73614 2.53884 -1.6541
3.70514 2.56084 -1.6491
3.67514 2.60984 -1.6501
3.65314 2.63684 -1.6491
3.58214 2.73384 -1.6491
3.55114 2.77284 -1.6491
3.14414 3.18384 -1.6371
3.08714 3.23584 -1.6361
3.08214 3.24084 -1.6361
3.05214 3.25084 -1.6311
3.05214 3.27084 -1.6371
3.04214 3.28084 -1.6371
3.02814 3.28584 -1.6351
3.01414 3.29184 -1.6331
2.99814 3.30584 -1.6331
2.97114 3.33784 -1.6351
2.94114 3.35684 -1.6331
2.91614 3.37084 -1.6311
2.90814 3.38284 -1.6321
2.89114 3.38484 -1.6281
2.88814 3.40284 -1.6331
2.87714 3.41184 -1.6331
2.86414 3.40784 -1.6281
2.84214 3.42384 -1.6281
2.83814 3.44184 -1.6321
2.82614 3.44884 -1.6311
2.81814 3.46084 -1.6331
2.79414 3.45384 -1.6251
2.79714 3.46884 -1.6301
2.78414 3.47584 -1.6291
2.76814 3.47684 -1.6251
2.76514 3.49584 -1.6311
2.74914 3.49884 -1.6281
2.73614 3.50484 -1.6261
2.72314 3.52184 -1.6281
2.71314 3.53184 -1.6291
2.70414 3.54384 -1.6311
2.67714 3.53084 -1.6201
2.67814 3.55584 -1.6281
2.66214 3.55684 -1.6251
2.65814 3.56384 -1.6261
2.64014 3.56284 -1.6221
2.63014 3.57284 -1.6231
2.62914 3.59484 -1.6291
2.60814 3.58984 -1.6231
2.60414 3.60784 -1.6281
2.58914 3.61084 -1.6251
2.58214 3.61284 -1.6241
2.57314 3.62384 -1.6251
2.56014 3.63084 -1.6251
2.54314 3.63084 -1.6211
2.53214 3.63884 -1.6211
2.52014 3.64684 -1.6211
2.51014 3.65584 -1.6221
2.50814 3.66684 -1.6251
2.48914 3.66184 -1.6191
2.48114 3.67584 -1.6221
2.47314 3.68784 -1.6241
2.45314 3.68384 -1.6181
2.44514 3.69784 -1.6211
2.44014 3.70184 -1.6211
2.43114 3.71384 -1.6231
2.41514 3.71484 -1.6201
2.41014 3.73184 -1.6251
2.39714 3.73784 -1.6241
2.38714 3.74884 -1.6251
2.37014 3.74784 -1.6221
2.36914 3.75784 -1.6251
2.35214 3.75784 -1.6211
2.32614 3.76984 -1.6201
2.30814 3.79384 -1.6241
2.29214 3.79384 -1.6211
2.28514 3.79484 -1.6201
2.27314 3.80184 -1.6201
2.26814 3.82184 -1.6251
2.25414 3.82584 -1.6241
2.23614 3.82184 -1.6191
2.22714 3.83384 -1.6211
2.21514 3.84184 -1.6221
2.21114 3.84884 -1.6231
2.19314 3.84384 -1.6181
2.18714 3.86284 -1.6231
2.15814 3.86784 -1.6201
2.14414 3.87184 -1.6181
2.12914 3.87284 -1.6161
2.12814 3.88484 -1.6201
2.11314 3.88684 -1.6171
2.10314 3.89784 -1.6201
2.09614 3.91484 -1.6241
2.07814 3.90984 -1.6191
2.06614 3.91584 -1.6191
2.05214 3.92084 -1.6181
2.05214 3.93584 -1.6231
2.02414 3.94184 -1.6201
2.01414 3.95284 -1.6231
1.99814 3.95284 -1.6201
1.98414 3.95384 -1.6171
1.94214 3.98084 -1.6201
1.90714 4.00384 -1.6221
1.89514 4.00984 -1.6221
1.88714 4.01084 -1.6211
1.86114 4.02084 -1.6201
1.83514 4.02984 -1.6191
1.82314 4.03684 -1.6201
1.79114 4.05084 -1.6201
1.77814 4.05684 -1.6201
1.75114 4.06284 -1.6171
1.72914 4.06584 -1.6151
1.71914 4.07584 -1.6171
1.70414 4.07784 -1.6161
1.69314 4.08684 -1.6171
1.67914 4.08884 -1.6161
1.66314 4.08684 -1.6131
1.65414 4.10084 -1.6171
1.64814 4.10584 -1.6171
1.63414 4.10684 -1.6161
1.62314 4.11884 -1.6191
1.60514 4.10984 -1.6131
1.59314 4.11684 -1.6141
1.58014 4.12184 -1.6141
1.56614 4.12484 -1.6131
1.56314 4.13684 -1.6171
1.54914 4.13784 -1.6151
1.53414 4.13784 -1.6131
1.52314 4.14784 -1.6151
1.51014 4.15184 -1.6151
1.48614 4.16884 -1.6181
1.47814 4.16784 -1.6171
1.46314 4.16484 -1.6141
1.45114 4.17484 -1.6161
1.43514 4.17084 -1.6121
1.42514 4.18184 -1.6151
1.40914 4.17784 -1.6121
1.40514 4.19084 -1.6161
1.39114 4.18984 -1.6141
1.37414 4.18384 -1.6091
1.36614 4.20584 -1.6171
1.35114 4.20284 -1.6141
1.33614 4.20184 -1.6121
1.32114 4.20084 -1.6091
1.31714 4.20984 -1.6121
1.30114 4.20684 -1.6091
1.29114 4.21984 -1.6131
1.27714 4.22184 -1.6121
1.26314 4.22384 -1.6121
1.25014 4.22584 -1.6111
1.23714 4.23384 -1.6121
1.23014 4.23384 -1.6121
1.21514 4.23184 -1.6091
1.20314 4.23984 -1.6111
1.18714 4.23284 -1.6071
1.17614 4.24684 -1.6111
1.16314 4.24884 -1.6101
1.14914 4.25084 -1.6091
1.14814 4.27384 -1.6181
1.13314 4.27284 -1.6161
1.11514 4.25984 -1.6091
1.10314 4.26884 -1.6121
1.09014 4.27384 -1.6121
1.07614 4.27584 -1.6121
1.06314 4.27884 -1.6121
1.05814 4.28784 -1.6151
1.04114 4.27684 -1.6091
1.02814 4.28384 -1.6101
1.01814 4.29784 -1.6151
1.00014 4.28384 -1.6081
0.990135 4.30184 -1.6141
0.977135 4.30484 -1.6141
0.968135 4.29884 -1.6111
0.954135 4.29884 -1.6091
0.944135 4.31784 -1.6161
0.929136 4.31384 -1.6131
0.914135 4.31084 -1.6111
0.903135 4.32484 -1.6151
0.885135 4.30784 -1.6071
0.881135 4.32184 -1.6121
0.868135 4.32784 -1.6141
0.854135 4.32684 -1.6121
0.838135 4.31684 -1.6071
0.827136 4.33284 -1.6121
0.810135 4.32084 -1.6071
0.796135 4.32084 -1.6061
0.792135 4.33684 -1.6121
0.774135 4.31584 -1.6021
0.766135 4.34584 -1.6131
0.750135 4.33484 -1.6081
0.736135 4.33984 -1.6091
0.725136 4.35284 -1.6131
0.716136 4.34484 -1.6091
0.703135 4.35084 -1.6111
0.688136 4.34484 -1.6081
0.661135 4.34584 -1.6071
0.649135 4.36284 -1.6121
0.636135 4.36884 -1.6141
0.629135 4.36784 -1.6131
0.613135 4.35284 -1.6071
0.601135 4.36984 -1.6121
0.587135 4.36784 -1.6111
0.574135 4.37684 -1.6141
0.559135 4.36984 -1.6101
0.545135 4.36784 -1.6091
0.539135 4.37784 -1.6121
0.525135 4.37184 -1.6091
0.511135 4.37184 -1.6091
0.497136 4.37684 -1.6101
0.483136 4.37284 -1.6081
0.470136 4.38384 -1.6121
0.456136 4.37984 -1.6091
0.450135 4.38784 -1.6121
0.435136 4.38184 -1.6091
0.422136 4.39384 -1.6141
0.407136 4.37884 -1.6071
0.394136 4.38784 -1.6101
0.380136 4.39284 -1.6121
0.366136 4.38384 -1.6081
0.361136 4.40484 -1.6161
0.346135 4.39884 -1.6131
0.332135 4.38884 -1.6091
0.304136 4.39484 -1.6101
0.291136 4.39884 -1.6121
0.277136 4.40384 -1.6131
0.270136 4.40784 -1.6151
0.256136 4.40284 -1.6121
0.243135 4.41184 -1.6151
0.229135 4.42184 -1.6191
0.215135 4.40884 -1.6141
0.201136 4.40384 -1.6121
0.194136 4.40784 -1.6131
0.180136 4.41584 -1.6161
0.166135 4.40984 -1.6131
0.152135 4.40284 -1.6101
0.139135 4.40884 -1.6121
0.125135 4.40484 -1.6111
0.111136 4.41484 -1.6151
0.0971355 4.40384 -1.6101
0.0901355 4.41684 -1.6151
0.0761355 4.40584 -1.6111
0.0621355 4.40984 -1.6121
0.0491355 4.41984 -1.6161
0.0351355 4.41584 -1.6151
0.0211355 4.41584 -1.6151
0.0141355 4.42584 -1.6181
0.000135501 4.40184 -1.6091
3.44914 -3.54416 -1.8211
