1.46 3.81292 -1.61339
1.448 3.81692 -1.61339
1.436 3.81992 -1.61239
1.412 3.82892 -1.61239
1.405 3.82992 -1.61139
1.393 3.83392 -1.61139
1.382 3.84192 -1.61339
1.368 3.84092 -1.61139
1.362 3.86292 -1.61839
1.345 3.85292 -1.61239
1.333 3.85692 -1.61239
1.314 3.85992 -1.61139
1.305 3.87292 -1.61439
1.271 3.89392 -1.61839
1.211 3.89692 -1.61239
1.204 3.91492 -1.61839
1.189 3.90992 -1.61439
1.176 3.91192 -1.61439
1.174 3.92792 -1.62039
1.145 3.92092 -1.61439
1.131 3.91892 -1.61139
1.119 3.92292 -1.61139
1.106 3.92492 -1.61139
1.095 3.93292 -1.61339
1.087 3.92992 -1.61139
1.051 3.94192 -1.61139
1.038 3.94292 -1.61139
1.028 3.95692 -1.61539
1.019 3.94792 -1.61139
0.902004 3.98192 -1.61339
0.574004 4.04192 -1.61339
0.467004 4.05792 -1.61439
0.365004 4.06992 -1.61439
0.340004 4.07992 -1.61839
0.269004 4.08292 -1.61739
0.243004 4.08492 -1.61739
0.218004 4.09192 -1.61939
0.198004 4.08692 -1.61739
0.185004 4.08592 -1.61639
0.160004 4.08692 -1.61639
0.147004 4.08792 -1.61639
0.0440041 4.09392 -1.61839
2.967 -3.51108 -1.83039
2.994 -3.49808 -1.83339
3 -3.48308 -1.83039
3.001 -3.47308 -1.82739
3.056 -3.42708 -1.82739
3.063 -3.41308 -1.82539
3.068 -3.40708 -1.82439
3.108 -3.36508 -1.82339
3.171 -3.29608 -1.82039
3.373 -3.05308 -1.80939
3.497 -2.89508 -1.80639
3.505 -2.88308 -1.80539
3.534 -2.88908 -1.81639
3.544 -2.88808 -1.81939
3.547 -2.87208 -1.81639
3.562 -2.86608 -1.81939
3.544 -2.83208 -1.80439
3.598 -2.73908 -1.79839
3.702 -2.58708 -1.79539
3.704 -2.56208 -1.79039
3.755 -2.48608 -1.79039
3.771 -2.46208 -1.79039
3.788 -2.43908 -1.79139
3.791 -2.41608 -1.78739
3.825 -2.42108 -1.80039
3.839 -2.41308 -1.80339
3.833 -2.39208 -1.79639
3.853 -2.38808 -1.80239
3.871 -2.25808 -1.78139
3.874 -2.25208 -1.78139
3.876 -2.23708 -1.77839
3.891 -2.23008 -1.78239
3.897 -2.21608 -1.78239
3.928 -2.20208 -1.79039
3.914 -2.18608 -1.78239
3.914 -2.17008 -1.77839
3.93 -2.14608 -1.77939
3.933 -2.13208 -1.77839
3.933 -2.11608 -1.77539
3.938 -2.10308 -1.77439
3.961 -2.09108 -1.78039
3.964 -2.07708 -1.77839
3.961 -2.05908 -1.77439
3.974 -2.05008 -1.77739
3.987 -2.04108 -1.78039
3.992 -2.02808 -1.77939
3.988 -2.01808 -1.77639
3.99 -2.00308 -1.77439
3.998 -1.99108 -1.77539
3.997 -1.97608 -1.77139
4.012 -1.96708 -1.77539
4.02 -1.95508 -1.77639
4.019 -1.93908 -1.77339
4.035 -1.94008 -1.77939
4.033 -1.92308 -1.77539
4.031 -1.90608 -1.77139
4.032 -1.89108 -1.76939
4.043 -1.88108 -1.77139
4.049 -1.86808 -1.77139
4.06 -1.86608 -1.77539
4.047 -1.84408 -1.76739
4.063 -1.83608 -1.77139
4.076 -1.82708 -1.77539
4.07 -1.80808 -1.76939
4.08 -1.79808 -1.77139
4.083 -1.78408 -1.77039
4.082 -1.77608 -1.76839
4.084 -1.76108 -1.76739
4.103 -1.75408 -1.77339
4.095 -1.73608 -1.76739
4.099 -1.72208 -1.76639
4.116 -1.71408 -1.77139
4.12 -1.70108 -1.77139
4.118 -1.69208 -1.76839
4.123 -1.67908 -1.76839
4.121 -1.66308 -1.76539
4.13 -1.65208 -1.76739
4.138 -1.64008 -1.76839
4.132 -1.62208 -1.76339
4.144 -1.62008 -1.76839
4.146 -1.60508 -1.76639
4.155 -1.59408 -1.76839
4.151 -1.57708 -1.76439
4.159 -1.56608 -1.76539
4.162 -1.55208 -1.76439
4.162 -1.53708 -1.76239
4.173 -1.53408 -1.76639
4.168 -1.51708 -1.76139
4.172 -1.50408 -1.76139
4.186 -1.49408 -1.76539
4.18 -1.47708 -1.76139
4.197 -1.46808 -1.76639
4.193 -1.45208 -1.76239
4.186 -1.44208 -1.75839
4.198 -1.43108 -1.76139
4.192 -1.41408 -1.75739
4.21 -1.40608 -1.76339
4.213 -1.39208 -1.76239
4.219 -1.38008 -1.76339
4.218 -1.36508 -1.76139
4.227 -1.36008 -1.76439
4.219 -1.34308 -1.75839
4.227 -1.33108 -1.76039
4.229 -1.31708 -1.75939
4.23 -1.30308 -1.75739
4.23 -1.28808 -1.75639
4.241 -1.28408 -1.76039
4.245 -1.27108 -1.76039
4.246 -1.25708 -1.75839
4.241 -1.24108 -1.75439
4.246 -1.22808 -1.75539
4.257 -1.21608 -1.75839
3.415 2.25392 -1.65639
3.407 2.26292 -1.65539
3.403 2.27592 -1.65739
3.376 2.27292 -1.64739
3.381 2.29192 -1.65339
3.373 2.30292 -1.65339
3.364 2.30392 -1.65039
3.353 2.31192 -1.64839
3.355 2.32892 -1.65339
3.345 2.33792 -1.65139
3.327 2.34092 -1.64639
3.324 2.35392 -1.64839
3.322 2.36092 -1.64939
3.31 2.36792 -1.64739
3.303 2.37792 -1.64739
3.286 2.38192 -1.64239
3.29 2.40092 -1.64839
3.286 2.41392 -1.65039
3.267 2.41492 -1.64439
3.274 2.42892 -1.65039
3.254 2.42892 -1.64339
3.249 2.44192 -1.64439
3.246 2.45492 -1.64739
3.231 2.45992 -1.64339
3.226 2.47192 -1.64439
3.232 2.48492 -1.65039
3.092 2.65192 -1.64839
3.075 2.65392 -1.64439
3.064 2.66192 -1.64239
3.057 2.66392 -1.64039
3.05 2.67492 -1.64139
3.036 2.69592 -1.64339
3.032 2.70992 -1.64539
3.02 2.71692 -1.64439
3.015 2.72892 -1.64539
3.006 2.72992 -1.64339
2.998 2.73892 -1.64339
2.978 2.73792 -1.63639
2.976 2.75392 -1.64039
2.965 2.76092 -1.63939
2.956 2.76992 -1.63939
2.957 2.77992 -1.64239
2.951 2.79192 -1.64439
2.938 2.79692 -1.64139
2.93 2.80592 -1.64139
2.918 2.81292 -1.64039
2.911 2.82292 -1.64039
2.906 2.83592 -1.64339
2.9 2.83992 -1.64239
2.89 2.84692 -1.64139
2.885 2.85992 -1.64439
2.868 2.86192 -1.63939
2.846 2.87592 -1.63639
2.831 2.88792 -1.63639
2.83 2.90492 -1.64039
2.81 2.90292 -1.63439
2.811 2.92192 -1.64039
2.802 2.93092 -1.64039
2.788 2.93492 -1.63739
2.782 2.93792 -1.63639
2.782 2.95592 -1.64239
2.765 2.95592 -1.63739
2.751 2.95992 -1.63439
2.754 2.98192 -1.64239
2.726 2.98892 -1.63639
2.708 2.99792 -1.63439
2.706 3.01492 -1.63939
2.687 3.03192 -1.63939
2.677 3.03892 -1.63839
2.667 3.05692 -1.64139
2.65 3.05692 -1.63639
2.645 3.07092 -1.64039
2.617 3.07592 -1.63339
2.594 3.08792 -1.63139
2.599 3.10492 -1.63839
2.581 3.10292 -1.63239
2.574 3.11392 -1.63439
2.55 3.10492 -1.62539
2.561 3.13892 -1.63939
2.531 3.12092 -1.62539
2.527 3.12692 -1.62539
2.531 3.15192 -1.63539
2.51 3.14492 -1.62739
2.492 3.14292 -1.62139
2.503 3.17792 -1.63639
2.474 3.16192 -1.62339
2.471 3.17792 -1.62839
2.473 3.19092 -1.63239
2.45 3.18192 -1.62439
2.439 3.18892 -1.62339
2.436 3.20492 -1.62839
2.418 3.20192 -1.62239
2.409 3.21092 -1.62339
2.403 3.22492 -1.62639
2.391 3.21792 -1.62139
2.382 3.22692 -1.62139
2.379 3.24492 -1.62739
2.348 3.24492 -1.61939
2.348 3.26792 -1.62739
2.322 3.26292 -1.61939
2.327 3.29192 -1.63039
2.299 3.29592 -1.62539
2.285 3.29792 -1.62239
2.272 3.30092 -1.62039
2.268 3.30592 -1.62139
2.263 3.32192 -1.62539
2.226 3.33392 -1.62139
2.203 3.34492 -1.61939
2.199 3.34992 -1.62039
2.175 3.35892 -1.61739
2.164 3.36592 -1.61739
2.161 3.38492 -1.62439
2.145 3.38292 -1.61939
2.14 3.39892 -1.62439
2.129 3.39292 -1.61939
2.11 3.41092 -1.62139
2.094 3.40792 -1.61739
2.083 3.41492 -1.61739
2.076 3.42692 -1.62039
2.06 3.43692 -1.62039
2.051 3.44692 -1.62139
2.016 3.46092 -1.61939
2.002 3.46292 -1.61739
1.993 3.47192 -1.61839
1.994 3.48692 -1.62439
1.964 3.48492 -1.61739
1.945 3.50192 -1.61939
1.931 3.51592 -1.62139
1.904 3.51792 -1.61739
1.862 3.54692 -1.61939
1.846 3.55692 -1.62039
1.83 3.55492 -1.61639
1.799 3.57492 -1.61739
1.786 3.57892 -1.61739
1.77 3.58692 -1.61739
1.748 3.59992 -1.61739
1.641 3.65392 -1.61939
1.61 3.66192 -1.61739
1.596 3.66192 -1.61439
1.586 3.66992 -1.61639
1.576 3.67692 -1.61739
1.569 3.67692 -1.61639
1.546 3.68692 -1.61639
1.502 3.71292 -1.61939
1.481 3.70992 -1.61439
1.47 3.71792 -1.61639
1.457 3.71892 -1.61439
1.425 3.74092 -1.61839
1.406 3.74292 -1.61639
1.384 3.75492 -1.61739
1.346 3.76292 -1.61539
1.329 3.76892 -1.61539
1.309 3.78892 -1.62139
1.292 3.77992 -1.61439
1.284 3.79392 -1.61939
1.266 3.79792 -1.61839
1.219 3.81692 -1.62039
1.196 3.82892 -1.62139
1.175 3.82492 -1.61739
1.161 3.82192 -1.61439
1.139 3.83492 -1.61739
1.109 3.84492 -1.61739
1.096 3.84692 -1.61739
1.073 3.85692 -1.61839
1.018 3.86792 -1.61739
1.004 3.86792 -1.61539
0.995004 3.88392 -1.62139
0.952004 3.89092 -1.61939
0.926004 3.88992 -1.61639
0.914004 3.89392 -1.61739
0.884004 3.90292 -1.61739
0.846004 3.90892 -1.61739
0.813004 3.93292 -1.62439
0.779004 3.92692 -1.61839
0.743004 3.93992 -1.62139
0.723004 3.93192 -1.61639
0.712004 3.93992 -1.61839
0.678004 3.96592 -1.62739
0.649004 3.94492 -1.61639
0.643004 3.95192 -1.61839
0.606004 3.95892 -1.61939
0.568004 3.96092 -1.61739
0.500004 3.96892 -1.61739
0.469004 3.97792 -1.61939
0.401004 3.98692 -1.62039
0.350004 3.98792 -1.61839
0.331004 3.98992 -1.61839
2.878 -3.44908 -1.82939
3.482 -2.73008 -1.80039
3.525 -2.66708 -1.79839
3.712 -2.36708 -1.79039
3.721 -2.35608 -1.79139
3.725 -2.34208 -1.78939
3.744 -2.30508 -1.78839
3.765 -2.27808 -1.78939
3.775 -2.23608 -1.78439
3.802 -2.16408 -1.77839
3.975 -1.81308 -1.77639
3.979 -1.80008 -1.77539
3.988 -1.72108 -1.76539
3.998 -1.65908 -1.75839
4.022 -1.64008 -1.76539
4.066 -1.51808 -1.76339
4.052 -1.49108 -1.75439
4.057 -1.47808 -1.75439
4.069 -1.43908 -1.75339
4.07 -1.41808 -1.75039
4.086 -1.39508 -1.75439
4.078 -1.37808 -1.74839
4.09 -1.36808 -1.75139
4.107 -1.34508 -1.75539
4.091 -1.33308 -1.74739
4.117 -1.32608 -1.75739
4.114 -1.29708 -1.75239
4.117 -1.28408 -1.75139
4.122 -1.27108 -1.75239
4.112 -1.26108 -1.74639
4.127 -1.23708 -1.75039
4.134 -1.22508 -1.75139
4.149 -1.21608 -1.75639
3.14 2.40292 -1.65039
3.143 2.41992 -1.65639
3.107 2.46292 -1.65539
3.098 2.47192 -1.65439
2.98 2.60092 -1.65139
2.973 2.61192 -1.65239
2.578 2.97892 -1.64439
2.55 2.99292 -1.64139
2.544 3.00492 -1.64339
2.523 3.01892 -1.64139
2.509 3.02192 -1.63939
2.492 3.02992 -1.63739
2.483 3.03892 -1.63739
2.48 3.05392 -1.64139
2.462 3.05192 -1.63639
2.457 3.06492 -1.63939
2.45 3.07592 -1.64139
2.433 3.07492 -1.63639
2.426 3.07592 -1.63439
2.421 3.08892 -1.63739
2.401 3.08392 -1.63039
2.393 3.09392 -1.63239
2.389 3.10892 -1.63639
2.374 3.10892 -1.63239
2.368 3.11092 -1.63139
2.363 3.12492 -1.63439
2.341 3.11592 -1.62539
2.333 3.12592 -1.62739
2.33 3.14192 -1.63239
2.313 3.14092 -1.62739
2.305 3.14992 -1.62839
2.304 3.15892 -1.63139
2.294 3.16592 -1.63139
2.28 3.16792 -1.62839
2.274 3.18092 -1.63139
2.262 3.18492 -1.62939
2.253 3.19392 -1.63039
2.243 3.20092 -1.63039
2.237 3.20292 -1.62939
2.227 3.20992 -1.62939
2.22 3.22092 -1.63239
2.21 3.22792 -1.63239
2.197 3.23192 -1.63039
2.184 3.23392 -1.62839
2.174 3.24092 -1.62839
2.167 3.24192 -1.62639
2.161 3.25392 -1.62939
2.146 3.25492 -1.62639
2.134 3.25892 -1.62439
2.13 3.27492 -1.62939
2.118 3.27792 -1.62839
2.11 3.28892 -1.63039
2.106 3.29392 -1.63139
2.086 3.28592 -1.62339
2.081 3.30092 -1.62839
2.066 3.29992 -1.62439
2.063 3.31692 -1.62939
2.047 3.31592 -1.62539
2.042 3.31892 -1.62539
2.033 3.32692 -1.62639
2.027 3.34092 -1.63039
2.016 3.34592 -1.62939
2.002 3.34792 -1.62739
1.988 3.34792 -1.62439
1.983 3.36392 -1.62839
1.972 3.35692 -1.62439
1.963 3.36692 -1.62539
1.954 3.37392 -1.62639
1.941 3.37692 -1.62439
1.933 3.38792 -1.62739
1.922 3.39292 -1.62639
1.911 3.39892 -1.62639
1.902 3.39492 -1.62339
1.898 3.41192 -1.62839
1.884 3.41192 -1.62539
1.877 3.42592 -1.62939
1.862 3.42392 -1.62539
1.849 3.42492 -1.62339
1.839 3.43192 -1.62439
1.832 3.43292 -1.62339
1.819 3.43392 -1.62039
1.797 3.44592 -1.62039
1.786 3.44992 -1.62039
1.777 3.45792 -1.62139
1.765 3.46192 -1.62039
1.748 3.46892 -1.62039
1.739 3.47892 -1.62239
1.728 3.48492 -1.62239
1.715 3.48492 -1.62039
1.71 3.50192 -1.62539
1.701 3.49792 -1.62239
1.692 3.50892 -1.62439
1.681 3.51192 -1.62439
1.669 3.51592 -1.62339
1.658 3.52292 -1.62439
1.647 3.52792 -1.62439
1.635 3.52992 -1.62239
1.632 3.53692 -1.62439
1.619 3.53892 -1.62339
1.609 3.54692 -1.62439
1.6 3.55592 -1.62639
1.583 3.54892 -1.62039
1.577 3.56592 -1.62639
1.563 3.56392 -1.62339
1.56 3.57192 -1.62539
1.546 3.57092 -1.62339
1.539 3.58492 -1.62739
1.523 3.57892 -1.62239
1.514 3.58892 -1.62439
1.503 3.59392 -1.62439
1.494 3.60392 -1.62739
1.486 3.60292 -1.62539
1.474 3.60392 -1.62439
1.461 3.60492 -1.62239
1.454 3.61992 -1.62739
1.439 3.61592 -1.62339
1.431 3.62892 -1.62739
1.417 3.62692 -1.62439
1.412 3.63092 -1.62439
1.399 3.63192 -1.62339
1.387 3.63392 -1.62239
1.374 3.63292 -1.62039
1.365 3.64492 -1.62339
1.355 3.65192 -1.62439
1.343 3.65692 -1.62439
1.337 3.65692 -1.62439
1.325 3.65892 -1.62339
1.314 3.66692 -1.62439
1.301 3.66592 -1.62239
1.29 3.66992 -1.62239
1.28 3.67892 -1.62439
1.275 3.68292 -1.62539
1.263 3.68692 -1.62539
1.253 3.69592 -1.62839
1.242 3.70192 -1.62839
1.228 3.69892 -1.62539
1.216 3.70092 -1.62439
1.205 3.70592 -1.62539
1.199 3.70592 -1.62439
1.187 3.70992 -1.62439
1.176 3.71692 -1.62639
1.164 3.71892 -1.62539
1.152 3.72092 -1.62439
1.142 3.73192 -1.62839
1.129 3.72792 -1.62439
1.122 3.72792 -1.62439
1.11 3.73192 -1.62439
1.099 3.73492 -1.62439
1.09 3.74892 -1.62839
1.078 3.75092 -1.62839
1.062 3.73992 -1.62139
1.051 3.74492 -1.62239
1.05 3.76592 -1.63139
1.032 3.74692 -1.62039
1.023 3.75892 -1.62439
1.011 3.76392 -1.62539
0.999004 3.76292 -1.62439
0.988004 3.76992 -1.62539
0.980004 3.78892 -1.63339
0.969004 3.77092 -1.62439
0.957004 3.77192 -1.62339
0.949004 3.79092 -1.63039
0.934004 3.78192 -1.62439
0.921004 3.77892 -1.62239
0.911004 3.79292 -1.62739
0.896004 3.78292 -1.62139
0.890004 3.78092 -1.62039
0.883004 3.80492 -1.62939
0.866004 3.78692 -1.62039
0.855004 3.79492 -1.62239
0.846004 3.80792 -1.62739
0.830004 3.79492 -1.62039
0.821004 3.80992 -1.62539
0.817004 3.82192 -1.63039
0.801004 3.80492 -1.62139
0.790004 3.81092 -1.62339
0.779004 3.81992 -1.62639
0.765004 3.81192 -1.62139
0.754004 3.81792 -1.62339
0.742004 3.81992 -1.62339
0.736004 3.82292 -1.62439
0.724004 3.82392 -1.62339
0.714004 3.83892 -1.62839
0.699004 3.82492 -1.62139
0.687004 3.82692 -1.62139
0.678004 3.84692 -1.62939
0.669004 3.82792 -1.62039
0.657004 3.83392 -1.62239
0.648004 3.85192 -1.62939
0.632004 3.83092 -1.61939
0.621004 3.83792 -1.62139
0.610004 3.84592 -1.62439
0.590004 3.83792 -1.61939
0.580004 3.85192 -1.62439
0.567004 3.84992 -1.62339
0.555004 3.84792 -1.62139
0.544004 3.85692 -1.62439
0.518004 3.85192 -1.62039
0.512004 3.85392 -1.62139
0.489004 3.86292 -1.62439
0.477004 3.86792 -1.62539
0.464004 3.86192 -1.62239
0.452004 3.86392 -1.62239
0.441004 3.87192 -1.62539
0.434004 3.86592 -1.62239
0.422004 3.86892 -1.62339
0.410004 3.87192 -1.62439
0.397004 3.86992 -1.62239
0.386004 3.87592 -1.62439
0.374004 3.88292 -1.62739
0.360004 3.87092 -1.62139
0.343004 3.88192 -1.62539
0.330004 3.87392 -1.62139
0.307004 3.88492 -1.62539
0.294004 3.87692 -1.62139
0.276004 3.88692 -1.62539
0.263004 3.88092 -1.62239
0.215004 3.88592 -1.62339
0.202004 3.88692 -1.62339
0.184004 3.88592 -1.62239
0.172004 3.89192 -1.62439
0.105004 3.89792 -1.62639
0.0920041 3.89292 -1.62439
0.0800041 3.89092 -1.62339
0.0680041 3.90192 -1.62839
0.0370041 3.89492 -1.62439
0.0130041 3.89492 -1.62439
2.752 -3.38608 -1.83239
2.762 -3.37808 -1.83239
2.779 -3.37608 -1.83639
2.782 -3.35908 -1.83239
2.794 -3.35108 -1.83239
2.808 -3.34708 -1.83539
2.823 -3.34408 -1.83839
2.82 -3.32908 -1.83239
2.841 -3.33308 -1.84039
2.847 -3.31808 -1.83639
2.852 -3.30308 -1.83239
2.87 -3.30308 -1.83839
2.873 -3.28608 -1.83339
2.88 -3.28308 -1.83439
2.894 -3.27808 -1.83639
2.898 -3.26208 -1.83239
2.905 -3.24908 -1.83039
2.923 -3.24908 -1.83639
2.926 -3.23208 -1.83139
2.93 -3.22608 -1.83039
2.94 -3.21708 -1.83039
2.95 -3.20708 -1.83039
2.957 -3.19408 -1.82839
2.965 -3.18308 -1.82739
2.973 -3.17108 -1.82539
2.982 -3.16108 -1.82439
2.995 -3.16508 -1.83039
2.99 -3.14008 -1.82039
3.014 -3.14508 -1.82939
3.019 -3.13008 -1.82639
3.023 -3.11608 -1.82339
3.027 -3.09908 -1.81939
3.042 -3.09508 -1.82239
3.053 -3.09708 -1.82639
3.061 -3.08608 -1.82539
3.071 -3.07608 -1.82539
3.073 -3.05908 -1.82039
3.08 -3.04708 -1.81939
3.095 -3.04208 -1.82239
3.092 -3.02108 -1.81539
3.112 -3.03008 -1.82339
3.122 -3.02208 -1.82439
3.127 -3.00708 -1.82139
3.136 -2.99708 -1.82139
3.152 -2.99308 -1.82539
3.15 -2.97208 -1.81839
3.159 -2.97208 -1.82139
3.171 -2.96508 -1.82339
3.177 -2.95108 -1.82039
3.187 -2.94208 -1.82139
3.197 -2.93208 -1.82139
3.198 -2.91508 -1.81639
3.21 -2.90708 -1.81839
3.215 -2.90308 -1.81939
3.218 -2.88708 -1.81539
3.239 -2.88808 -1.82239
3.243 -2.87308 -1.81939
3.254 -2.86508 -1.82039
3.254 -2.84608 -1.81539
3.275 -2.84708 -1.82239
3.271 -2.83508 -1.81739
3.277 -2.82208 -1.81539
3.297 -2.82108 -1.82239
3.29 -2.79608 -1.81239
3.294 -2.78308 -1.81039
3.317 -2.78408 -1.81839
3.31 -2.76908 -1.81139
3.313 -2.75408 -1.80839
3.551 -2.41708 -1.80239
3.56 -2.40708 -1.80339
3.558 -2.39008 -1.79839
3.566 -2.37908 -1.79839
3.584 -2.37508 -1.80439
3.572 -2.35008 -1.79339
3.592 -2.35608 -1.80239
3.6 -2.34408 -1.80239
3.593 -2.32408 -1.79539
3.611 -2.32008 -1.80139
3.783 -1.97608 -1.79039
3.781 -1.96008 -1.78639
3.836 -1.84608 -1.78539
2.387 3.01292 -1.64539
2.364 3.02292 -1.64239
2.34 3.04092 -1.64239
2.333 3.05092 -1.64439
2.299 3.07692 -1.64439
2.288 3.08292 -1.64339
2.275 3.08492 -1.64039
2.266 3.09192 -1.64039
2.254 3.09692 -1.63939
2.244 3.10392 -1.63939
2.23 3.11392 -1.63939
2.224 3.12692 -1.64239
2.214 3.13392 -1.64239
2.204 3.14092 -1.64239
2.193 3.14592 -1.64139
2.185 3.15592 -1.64339
2.175 3.15192 -1.63939
2.163 3.15592 -1.63739
2.158 3.16892 -1.64039
2.144 3.16992 -1.63739
2.14 3.18492 -1.64239
2.125 3.18492 -1.63839
2.117 3.19392 -1.64039
2.106 3.18792 -1.63539
2.102 3.20592 -1.64039
2.087 3.20292 -1.63539
2.074 3.20492 -1.63339
2.069 3.22092 -1.63839
2.061 3.22992 -1.64039
2.046 3.22892 -1.63539
2.046 3.23992 -1.64039
2.029 3.23592 -1.63439
2.023 3.24792 -1.63739
2.016 3.26092 -1.64039
2.003 3.26192 -1.63839
1.991 3.26592 -1.63639
1.983 3.27492 -1.63839
1.976 3.27592 -1.63739
1.965 3.28092 -1.63639
1.956 3.28892 -1.63739
1.939 3.28392 -1.63139
1.939 3.30692 -1.64039
1.922 3.30192 -1.63539
1.917 3.30492 -1.63539
1.908 3.31492 -1.63639
1.894 3.31392 -1.63339
1.884 3.31992 -1.63339
1.878 3.33392 -1.63739
1.862 3.32992 -1.63239
1.855 3.34192 -1.63539
1.848 3.34192 -1.63439
1.834 3.34192 -1.63039
1.824 3.34692 -1.63039
1.816 3.35792 -1.63339
1.812 3.37592 -1.64039
1.802 3.38392 -1.64039
1.787 3.38092 -1.63639
1.779 3.37792 -1.63339
1.765 3.37692 -1.63039
1.753 3.38092 -1.62939
1.744 3.38892 -1.63039
1.738 3.40492 -1.63539
1.725 3.40492 -1.63339
1.715 3.41192 -1.63439
1.706 3.40692 -1.63039
1.698 3.41692 -1.63239
1.687 3.42192 -1.63239
1.677 3.42892 -1.63339
1.668 3.43792 -1.63539
1.651 3.42992 -1.62839
1.642 3.43992 -1.63039
1.635 3.43892 -1.62939
1.625 3.44592 -1.63039
1.608 3.46592 -1.63539
1.598 3.47292 -1.63539
1.588 3.47892 -1.63639
1.577 3.48392 -1.63639
1.568 3.47992 -1.63339
1.558 3.48492 -1.63339
1.548 3.49292 -1.63539
1.529 3.50992 -1.63839
1.516 3.51092 -1.63639
1.487 3.51992 -1.63539
1.478 3.52892 -1.63739
1.438 3.54192 -1.63539
1.429 3.55092 -1.63839
1.407 3.55992 -1.63839
1.394 3.55992 -1.63539
1.373 3.57192 -1.63739
1.366 3.57192 -1.63639
1.311 3.59492 -1.63739
1.298 3.59592 -1.63539
1.237 3.62092 -1.63739
1.22 3.62692 -1.63739
1.208 3.63092 -1.63739
1.186 3.63792 -1.63739
1.173 3.63792 -1.63539
1.151 3.64892 -1.63739
1.143 3.64392 -1.63439
1.119 3.64792 -1.63239
1.11 3.65592 -1.63539
1.086 3.65992 -1.63339
1.076 3.66992 -1.63639
1.056 3.66492 -1.63139
1.044 3.66792 -1.63139
1.022 3.67592 -1.63239
1.009 3.67392 -1.63039
1.001 3.69092 -1.63639
0.994004 3.68792 -1.63439
0.982004 3.69092 -1.63439
0.973004 3.70392 -1.63939
0.956004 3.68592 -1.62939
0.945004 3.69092 -1.63039
0.937004 3.70992 -1.63739
0.927004 3.69392 -1.62939
0.895004 3.71492 -1.63539
0.883004 3.71592 -1.63439
0.874004 3.72692 -1.63839
0.859004 3.71592 -1.63139
0.854004 3.72092 -1.63339
0.841004 3.72192 -1.63239
0.827004 3.71292 -1.62739
0.817004 3.72292 -1.63039
0.809004 3.74192 -1.63839
0.793004 3.72492 -1.62939
0.782004 3.73092 -1.63039
0.780004 3.74792 -1.63839
0.765004 3.73792 -1.63239
0.752004 3.73292 -1.62939
0.743004 3.74992 -1.63539
0.730004 3.74692 -1.63339
0.718004 3.74392 -1.63039
0.708004 3.75792 -1.63639
0.701004 3.75092 -1.63239
0.689004 3.75092 -1.63139
0.678004 3.75892 -1.63439
0.663004 3.74592 -1.62739
0.653004 3.75392 -1.63039
0.641004 3.75592 -1.63039
0.629004 3.75592 -1.62939
0.623004 3.75692 -1.62939
0.612004 3.76592 -1.63239
0.599004 3.76092 -1.62939
0.587004 3.75892 -1.62739
0.576004 3.76792 -1.63039
0.564004 3.76592 -1.62939
0.552004 3.76792 -1.62939
0.545004 3.76492 -1.62739
0.534004 3.76692 -1.62739
0.524004 3.78292 -1.63439
0.513004 3.79192 -1.63739
0.499004 3.77892 -1.63039
0.488004 3.78992 -1.63539
0.476004 3.79292 -1.63539
0.470004 3.79192 -1.63539
0.458004 3.78792 -1.63239
0.448004 3.80692 -1.64039
0.434004 3.79292 -1.63339
0.422004 3.79592 -1.63439
0.412004 3.80792 -1.63939
0.406004 3.80992 -1.64039
0.393004 3.80292 -1.63539
0.381004 3.79992 -1.63439
0.369004 3.80092 -1.63439
0.356004 3.79492 -1.63039
0.345004 3.80392 -1.63439
0.333004 3.80292 -1.63339
0.327004 3.80692 -1.63539
0.315004 3.80592 -1.63439
0.303004 3.80292 -1.63239
0.292004 3.81892 -1.63939
0.268004 3.82392 -1.64039
0.255004 3.80692 -1.63239
0.250004 3.81992 -1.63839
0.237004 3.81492 -1.63539
0.225004 3.81192 -1.63439
0.214004 3.81992 -1.63739
0.201004 3.81392 -1.63439
0.189004 3.80692 -1.63039
0.178004 3.82392 -1.63839
0.171004 3.81192 -1.63239
0.159004 3.81392 -1.63339
0.136004 3.82792 -1.63939
0.124004 3.82592 -1.63839
0.112004 3.82992 -1.64039
0.0990041 3.82092 -1.63539
0.0930041 3.82292 -1.63639
0.0810041 3.82392 -1.63639
0.0690041 3.82192 -1.63539
0.0570041 3.81692 -1.63339
0.0450041 3.82592 -1.63739
0.0330041 3.82592 -1.63739
0.0210041 3.81892 -1.63439
0.0150041 3.82792 -1.63839
0.00300406 3.82292 -1.63539
2.474 -3.46308 -1.83339
2.486 -3.45708 -1.83439
2.508 -3.46508 -1.84339
2.525 -3.45308 -1.84339
2.542 -3.45408 -1.84839
2.556 -3.45008 -1.85039
2.567 -3.44208 -1.85039
2.587 -3.42508 -1.84939
2.647 -3.37008 -1.84639
2.667 -3.35208 -1.84539
2.676 -3.34208 -1.84439
2.688 -3.33508 -1.84539
2.693 -3.31908 -1.84139
2.705 -3.31408 -1.84339
2.713 -3.31208 -1.84439
2.72 -3.29908 -1.84239
2.728 -3.28808 -1.84039
2.783 -3.23908 -1.83939
2.801 -3.21908 -1.83839
2.811 -3.21008 -1.83839
2.829 -3.18908 -1.83639
2.831 -3.18208 -1.83439
2.849 -3.16208 -1.83339
2.861 -3.15508 -1.83439
2.87 -3.14508 -1.83439
2.878 -3.13508 -1.83339
2.885 -3.13208 -1.83439
2.897 -3.12508 -1.83539
2.892 -3.10008 -1.82539
2.909 -3.09908 -1.83039
2.921 -3.09208 -1.83239
2.928 -3.08108 -1.83039
2.939 -3.07308 -1.83139
2.948 -3.07208 -1.83439
2.946 -3.05108 -1.82639
2.958 -3.04408 -1.82839
2.969 -3.03608 -1.82939
2.977 -3.02608 -1.82839
2.988 -3.01808 -1.82939
3 -3.01108 -1.83039
3.005 -3.00608 -1.83039
3.013 -2.99508 -1.82939
3.032 -2.97608 -1.82939
3.047 -2.94508 -1.82539
3.062 -2.94008 -1.82839
3.077 -2.91908 -1.82639
3.088 -2.91008 -1.82739
3.118 -2.87508 -1.82639
3.123 -2.86108 -1.82439
3.215 -2.74708 -1.82039
3.281 -2.65608 -1.81739
3.337 -2.55608 -1.80939
3.343 -2.55308 -1.81039
3.354 -2.54508 -1.81239
0.914004 3.63292 -1.64039
0.879004 3.63992 -1.63939
0.852004 3.64992 -1.64139
0.841004 3.65492 -1.64239
0.794004 3.66092 -1.64039
0.719004 3.67692 -1.64039
0.702004 3.68192 -1.64139
0.668004 3.69192 -1.64239
0.638004 3.69292 -1.64139
0.627004 3.69892 -1.64239
0.592004 3.70492 -1.64239
0.580004 3.70492 -1.64239
0.540004 3.71292 -1.64239
0.505004 3.71792 -1.64239
0.259004 3.74792 -1.64539
0.0290041 3.76092 -1.64739
0.0170041 3.75492 -1.64439
0.00600406 3.76092 -1.64739
2.348 -3.43608 -1.83339
2.365 -3.43808 -1.83839
2.38 -3.43608 -1.84239
2.395 -3.43508 -1.84539
2.419 -3.42408 -1.84839
2.426 -3.42208 -1.84939
2.44 -3.39608 -1.84339
2.451 -3.39008 -1.84439
2.514 -3.35308 -1.84739
2.534 -3.33508 -1.84639
2.59 -3.29008 -1.84539
2.595 -3.27408 -1.84139
2.642 -3.23908 -1.84239
2.67 -3.21108 -1.84039
2.746 -3.13908 -1.83839
2.751 -3.12508 -1.83439
2.764 -3.11908 -1.83639
2.769 -3.10408 -1.83339
2.78 -3.09708 -1.83339
2.789 -3.08808 -1.83339
2.793 -3.08308 -1.83339
2.8 -3.07108 -1.83139
2.812 -3.06508 -1.83339
2.822 -3.05608 -1.83339
2.831 -3.04708 -1.83339
2.84 -3.03708 -1.83239
2.844 -3.03308 -1.83239
2.855 -3.02508 -1.83339
2.862 -3.01308 -1.83139
2.87 -3.00308 -1.83039
2.881 -2.99508 -1.83139
2.896 -2.97308 -1.82839
2.905 -2.97308 -1.83139
2.922 -2.95308 -1.83039
2.943 -2.91908 -1.82639
2.955 -2.91208 -1.82739
2.976 -2.88808 -1.82739
2.998 -2.85408 -1.82339
3.082 -2.75508 -1.82139
3.111 -2.72008 -1.82039
11.456 1.83592 0.591607
17.673 0.422922 0.684607
17.477 0.473922 0.679607
17.282 0.522922 0.674607
16.41 0.729922 0.650607
8.745 2.45392 0.448607
8.383 2.53892 0.439607
8.133 2.58992 0.433607
8.089 2.60392 0.432607
8.031 2.61292 0.431607
7.956 2.62992 0.429607
7.813 2.66592 0.425607
7.767 2.67692 0.424607
7.732 2.69192 0.424607
7.596 2.71192 0.420607
7.468 2.74692 0.417607
7.351 2.76992 0.414607
7.264 2.78992 0.412607
7.229 2.80292 0.412607
7.192 2.81392 0.411607
7.155 2.81292 0.410607
7.121 2.82592 0.409607
7.039 2.84392 0.407607
7.006 2.85692 0.407607
6.961 2.86392 0.405607
6.935 2.86592 0.405607
6.909 2.88092 0.404607
11.472 1.85092 0.463607
8.949 2.40692 0.339607
8.91 2.42692 0.338607
8.739 2.46892 0.336607
8.644 2.48692 0.335607
8.592 2.50092 0.334607
8.484 2.52792 0.332607
8.43 2.54092 0.332607
8.376 2.55292 0.331607
8.282 2.56792 0.330607
8.239 2.58292 0.329607
8.184 2.59392 0.328607
8.133 2.60592 0.328607
7.995 2.63192 0.326607
7.943 2.64192 0.325607
7.9 2.65592 0.324607
7.845 2.66492 0.324607
7.75 2.68692 0.322607
7.717 2.70292 0.322607
7.677 2.70292 0.322607
7.623 2.71092 0.321607
7.581 2.72292 0.320607
7.538 2.73492 0.320607
7.488 2.74292 0.319607
7.453 2.75692 0.319607
7.415 2.76892 0.318607
7.338 2.77992 0.317607
7.253 2.80092 0.316607
7.141 2.83492 0.315607
7.104 2.83392 0.314607
7.071 2.84692 0.314607
7.027 2.85492 0.313607
6.988 2.86492 0.313607
6.955 2.87692 0.312607
6.888 2.88692 0.311607
11.45 1.84492 0.314607
8.882 2.43492 0.290607
8.77 2.46292 0.289607
8.745 2.47092 0.289607
8.67 2.47892 0.288607
8.574 2.50992 0.288607
8.378 2.55192 0.286607
8.275 2.57692 0.285607
8.166 2.59892 0.284607
7.993 2.64092 0.282607
7.727 2.70092 0.280607
11.396 1.85192 0.233607
6.854 2.88092 0.220607
4.847 3.34892 0.215607
4.822 3.35392 0.215607
4.795 3.35792 0.215607
4.761 3.36792 0.215607
4.726 3.36492 0.215607
4.7 3.36992 0.215607
4.683 3.37992 0.215607
4.658 3.38392 0.215607
4.642 3.39492 0.215607
4.626 3.39392 0.215607
4.597 3.39592 0.215607
4.582 3.40592 0.215607
4.557 3.40992 0.215607
4.53 3.41192 0.215607
4.509 3.41892 0.215607
4.488 3.42492 0.215607
4.469 3.42292 0.215607
4.454 3.43292 0.215607
4.432 3.43792 0.214607
4.387 3.44792 0.214607
4.36 3.44892 0.214607
4.348 3.45092 0.214607
4.325 3.45492 0.214607
4.311 3.46592 0.214607
4.266 3.47392 0.214607
4.242 3.47692 0.214607
4.23 3.48892 0.214607
4.209 3.48292 0.214607
4.198 3.49692 0.214607
4.178 3.50192 0.214607
11.489 1.84692 0.178607
11.405 1.84892 0.105607
8.798 2.44692 0.124607
8.742 2.46092 0.124607
8.688 2.47492 0.125607
8.628 2.48792 0.125607
8.534 2.50492 0.126607
8.484 2.51892 0.126607
8.424 2.52992 0.127607
8.386 2.54692 0.127607
8.337 2.56192 0.127607
8.276 2.57092 0.128607
8.243 2.57492 0.128607
8.178 2.58292 0.128607
8.083 2.60992 0.129607
8.05 2.62692 0.129607
8.002 2.63892 0.130607
7.915 2.65292 0.130607
7.869 2.66492 0.130607
7.78 2.68892 0.131607
7.715 2.69392 0.132607
7.68 2.70892 0.132607
7.634 2.70692 0.132607
7.584 2.71592 0.132607
7.57 2.73792 0.133607
7.499 2.73892 0.133607
7.433 2.76792 0.133607
7.361 2.76792 0.134607
7.345 2.77492 0.134607
7.295 2.78292 0.134607
7.233 2.81092 0.135607
7.174 2.81392 0.135607
7.125 2.83392 0.136607
7.083 2.84292 0.136607
6.968 2.87392 0.137607
8.669 2.47592 0.069607
8.611 2.48792 0.070607
8.461 2.51692 0.072607
8.407 2.52892 0.073607
8.355 2.54192 0.073607
8.319 2.55892 0.074607
8.03 2.62292 0.077607
7.965 2.62892 0.078607
7.892 2.64592 0.079607
7.761 2.68292 0.080607
7.701 2.68992 0.081607
7.496 2.73692 0.084607
7.143 2.82492 0.088607
7.03 2.84392 0.089607
6.99 2.85292 0.090607
6.953 2.86392 0.090607
6.929 2.87892 0.090607
4.807 3.35692 0.113607
4.72 3.38492 0.114607
4.635 3.40192 0.115607
4.441 3.44392 0.117607
4.397 3.45492 0.117607
4.323 3.47392 0.118607
4.258 3.48792 0.118607
4.243 3.48692 0.119607
4.226 3.49492 0.119607
18.634 0.226922 -0.195393
8.904 2.43092 0.002607
8.854 2.44692 0.002607
8.511 2.51192 0.009607
8.472 2.52992 0.010607
8.405 2.53892 0.011607
8.366 2.55592 0.012607
8.177 2.59692 0.015607
8.118 2.60692 0.016607
8.075 2.62092 0.017607
7.979 2.64592 0.019607
7.906 2.66292 0.020607
7.85 2.67192 0.021607
7.796 2.68092 0.022607
7.58 2.72792 0.026607
7.538 2.73992 0.027607
7.302 2.79792 0.031607
7.062 2.84792 0.035607
8.89 2.43292 -0.045393
8.831 2.44692 -0.043393
8.779 2.46192 -0.042393
8.723 2.47592 -0.041393
8.667 2.48892 -0.039393
8.515 2.51792 -0.036393
8.471 2.53292 -0.035393
8.415 2.54492 -0.034393
8.365 2.55892 -0.032393
8.215 2.58292 -0.029393
8.178 2.59992 -0.028393
8.076 2.62292 -0.026393
7.855 2.67392 -0.021393
7.803 2.68392 -0.019393
7.549 2.74192 -0.014393
7.507 2.75292 -0.013393
7.307 2.79692 -0.008393
11.41 1.84992 -0.175393
8.877 2.42392 -0.099393
8.823 2.43892 -0.098393
8.559 2.49792 -0.090393
8.511 2.51292 -0.089393
8.447 2.52292 -0.087393
8.391 2.53492 -0.085393
8.207 2.57892 -0.080393
8.151 2.58992 -0.078393
8.099 2.60092 -0.077393
7.922 2.64092 -0.072393
7.875 2.65392 -0.071393
7.829 2.66592 -0.069393
7.785 2.67792 -0.068393
7.654 2.70092 -0.064393
7.563 2.72292 -0.062393
7.53 2.73792 -0.061393
7.448 2.74792 -0.059393
7.409 2.75992 -0.058393
7.367 2.77092 -0.057393
7.322 2.77992 -0.055393
7.289 2.79392 -0.054393
7.253 2.80592 -0.054393
7.213 2.80392 -0.052393
7.174 2.81492 -0.051393
7.139 2.82692 -0.050393
7.108 2.84092 -0.050393
7.064 2.84892 -0.048393
7.023 2.85892 -0.047393
6.981 2.86692 -0.046393
6.95 2.86792 -0.045393
4.605 3.40992 0.011607
4.503 3.43492 0.013607
4.358 3.46792 0.016607
11.455 1.84592 -0.252393
8.935 2.41892 -0.162393
8.831 2.44992 -0.158393
8.804 2.45792 -0.157393
8.727 2.46592 -0.155393
8.683 2.48292 -0.153393
8.633 2.49792 -0.151393
8.429 2.53892 -0.144393
8.385 2.55392 -0.143393
8.329 2.56592 -0.141393
8.15 2.60792 -0.135393
8.098 2.61992 -0.133393
8.042 2.62892 -0.131393
7.994 2.64092 -0.130393
7.823 2.67992 -0.124393
7.638 2.72392 -0.118393
7.546 2.74392 -0.115393
7.521 2.74892 -0.114393
7.466 2.75492 -0.112393
4.967 3.31092 -0.035393
8.931 2.41792 -0.217393
8.874 2.43292 -0.215393
8.814 2.44592 -0.212393
8.764 2.46192 -0.210393
8.719 2.46492 -0.208393
8.669 2.47992 -0.206393
8.619 2.49492 -0.205393
8.563 2.50792 -0.202393
8.508 2.52092 -0.200393
8.405 2.54892 -0.196393
8.363 2.54992 -0.194393
8.315 2.56392 -0.192393
8.265 2.57792 -0.190393
8.217 2.59092 -0.189393
8.167 2.60392 -0.187393
8.113 2.61492 -0.185393
8.028 2.62892 -0.181393
7.984 2.64292 -0.179393
7.887 2.66592 -0.176393
7.707 2.70092 -0.169393
7.18 2.82592 -0.149393
7.059 2.85592 -0.144393
6.953 2.87692 -0.140393
8.498 2.51992 -0.251393
8.44 2.53192 -0.248393
8.373 2.53992 -0.245393
8.239 2.56992 -0.239393
8.208 2.58792 -0.238393
8.143 2.59592 -0.235393
8.087 2.60592 -0.232393
7.91 2.64492 -0.224393
7.774 2.67992 -0.219393
7.509 2.73392 -0.207393
7.41 2.76392 -0.203393
7.278 2.79292 -0.197393
7.226 2.79892 -0.195393
7.172 2.81692 -0.193393
7.133 2.82692 -0.191393
7.095 2.83792 -0.189393
7.055 2.84692 -0.188393
7.003 2.85192 -0.185393
6.972 2.86492 -0.184393
6.901 2.87392 -0.181393
6.822 2.89092 -0.178393
6.755 2.91192 -0.175393
6.733 2.92792 -0.174393
6.653 2.92992 -0.171393
6.622 2.94092 -0.170393
6.582 2.94792 -0.168393
6.542 2.95492 -0.166393
6.511 2.96492 -0.165393
6.387 2.99392 -0.160393
6.351 3.00092 -0.158393
6.338 3.01892 -0.158393
6.303 3.02692 -0.157393
6.268 3.02192 -0.155393
6.231 3.02892 -0.154393
6.168 3.04492 -0.151393
6.149 3.05992 -0.151393
6.102 3.06092 -0.148393
6.086 3.06492 -0.148393
6.043 3.06692 -0.146393
6.024 3.08092 -0.145393
6.002 3.09292 -0.145393
5.917 3.09692 -0.141393
5.904 3.11292 -0.141393
5.887 3.11592 -0.140393
5.856 3.12292 -0.139393
5.823 3.12892 -0.138393
5.695 3.16392 -0.133393
5.661 3.16792 -0.131393
5.449 3.21992 -0.124393
5.36 3.23592 -0.120393
5.294 3.25292 -0.118393
4.1 3.52692 -0.077393
8.951 2.40792 -0.330393
8.895 2.42292 -0.327393
8.831 2.43492 -0.324393
8.791 2.45392 -0.322393
8.72 2.46392 -0.318393
8.677 2.48192 -0.316393
8.631 2.48292 -0.314393
8.518 2.50892 -0.308393
8.475 2.52592 -0.306393
8.415 2.53692 -0.303393
8.36 2.54892 -0.300393
8.323 2.56592 -0.299393
8.271 2.56492 -0.296393
8.223 2.57792 -0.293393
8.175 2.59092 -0.291393
8.127 2.60392 -0.289393
8.086 2.61992 -0.287393
8.034 2.63092 -0.284393
7.996 2.63192 -0.282393
7.942 2.64192 -0.279393
7.9 2.65592 -0.277393
7.855 2.66892 -0.275393
7.802 2.67792 -0.273393
7.718 2.70392 -0.269393
7.625 2.71192 -0.264393
7.588 2.72592 -0.262393
7.545 2.73692 -0.260393
7.501 2.74792 -0.258393
7.453 2.75692 -0.255393
7.384 2.77192 -0.252393
7.327 2.77692 -0.249393
7.292 2.78992 -0.248393
7.212 2.81192 -0.244393
7.128 2.83092 -0.240393
7.118 2.83992 -0.239393
7.055 2.84092 -0.236393
7.04 2.85992 -0.236393
6.985 2.86392 -0.233393
6.948 2.87392 -0.231393
6.915 2.88592 -0.230393
6.837 2.89192 -0.226393
6.799 2.90092 -0.224393
6.768 2.91292 -0.223393
6.725 2.91992 -0.221393
6.683 2.92692 -0.219393
6.639 2.93192 -0.217393
6.473 2.96992 -0.209393
6.462 2.98892 -0.209393
6.432 2.98792 -0.207393
6.401 2.99792 -0.206393
6.373 3.00992 -0.205393
6.279 3.01292 -0.200393
6.244 3.02092 -0.198393
6.224 3.03592 -0.198393
6.099 3.05792 -0.192393
6.062 3.06392 -0.190393
6.033 3.07292 -0.189393
6.006 3.08292 -0.188393
5.979 3.08192 -0.186393
5.893 3.10792 -0.183393
5.868 3.11792 -0.182393
5.83 3.12192 -0.180393
5.807 3.13392 -0.179393
5.785 3.13292 -0.178393
5.747 3.13592 -0.176393
5.721 3.14592 -0.175393
5.701 3.15792 -0.175393
5.672 3.16492 -0.173393
5.636 3.16792 -0.172393
5.612 3.17792 -0.171393
5.591 3.17792 -0.170393
5.574 3.19192 -0.169393
5.538 3.19492 -0.168393
5.511 3.20192 -0.166393
5.485 3.20992 -0.165393
5.458 3.21692 -0.164393
5.435 3.21592 -0.163393
5.386 3.23292 -0.161393
5.263 3.26092 -0.156393
5.21 3.27392 -0.154393
5.093 3.30192 -0.149393
8.901 2.42892 -0.377393
8.855 2.44592 -0.375393
8.746 2.45992 -0.368393
8.703 2.47792 -0.366393
8.642 2.48892 -0.363393
8.592 2.50392 -0.360393
8.529 2.51492 -0.356393
8.482 2.52992 -0.354393
8.431 2.52892 -0.351393
8.392 2.54592 -0.349393
8.346 2.55992 -0.346393
8.294 2.57292 -0.344393
8.24 2.58392 -0.341393
8.14 2.60892 -0.335393
8.062 2.62592 -0.331393
8.017 2.63892 -0.329393
7.967 2.64992 -0.326393
7.791 2.68592 -0.316393
7.748 2.69892 -0.314393
7.696 2.70792 -0.311393
7.497 2.75692 -0.301393
7.364 2.78592 -0.293393
7.243 2.80592 -0.287393
7.205 2.81692 -0.285393
7.174 2.82992 -0.283393
7.043 2.85592 -0.277393
6.941 2.87792 -0.271393
6.826 2.90492 -0.265393
6.743 2.91992 -0.261393
6.689 2.93392 -0.258393
6.611 2.94892 -0.254393
6.525 2.95992 -0.250393
6.418 2.99592 -0.245393
6.38 3.00292 -0.243393
6.341 3.00892 -0.241393
6.284 3.01792 -0.238393
6.255 3.02792 -0.236393
6.233 3.04092 -0.235393
6.162 3.05492 -0.232393
6.133 3.06392 -0.231393
6.093 3.06792 -0.228393
6.066 3.06692 -0.227393
6.034 3.07392 -0.225393
6.008 3.08392 -0.224393
5.97 3.08892 -0.222393
5.908 3.10392 -0.219393
5.867 3.11692 -0.217393
5.824 3.11792 -0.215393
5.797 3.12592 -0.214393
5.768 3.13392 -0.212393
5.737 3.13992 -0.211393
5.709 3.14892 -0.210393
5.689 3.14892 -0.209393
5.579 3.17992 -0.204393
5.458 3.21392 -0.198393
5.428 3.21892 -0.197393
5.399 3.22492 -0.195393
5.373 3.23192 -0.194393
5.346 3.23892 -0.193393
5.326 3.23792 -0.192393
5.305 3.24792 -0.191393
5.183 3.27392 -0.186393
5.127 3.28392 -0.183393
5.11 3.29592 -0.183393
5.08 3.29892 -0.181393
5.016 3.31292 -0.178393
4.994 3.32092 -0.177393
4.971 3.32892 -0.177393
4.943 3.33192 -0.175393
4.919 3.33892 -0.174393
4.811 3.36492 -0.170393
11.405 1.85992 -0.602393
8.743 2.45592 -0.432393
8.697 2.47192 -0.429393
8.637 2.48492 -0.425393
8.491 2.51592 -0.416393
8.439 2.52892 -0.413393
8.324 2.55192 -0.406393
8.239 2.56892 -0.401393
8.197 2.58392 -0.398393
8.135 2.59292 -0.394393
8.047 2.62092 -0.389393
8.004 2.63492 -0.387393
7.866 2.65892 -0.378393
7.825 2.67192 -0.376393
7.777 2.68392 -0.373393
7.735 2.69592 -0.370393
7.656 2.70992 -0.366393
7.619 2.72392 -0.364393
7.575 2.73492 -0.361393
7.535 2.74692 -0.359393
7.492 2.75792 -0.356393
7.444 2.76692 -0.353393
7.408 2.76692 -0.351393
7.368 2.77892 -0.349393
7.321 2.78792 -0.346393
7.281 2.79892 -0.344393
7.246 2.81192 -0.342393
7.165 2.83192 -0.337393
7.138 2.83492 -0.335393
7.096 2.84392 -0.333393
7.011 2.86192 -0.328393
6.978 2.87392 -0.326393
6.936 2.88192 -0.324393
6.867 2.89192 -0.320393
6.834 2.90292 -0.318393
6.742 2.91492 -0.312393
6.72 2.92992 -0.311393
6.657 2.93992 -0.308393
6.628 2.95192 -0.306393
6.542 2.96392 -0.301393
6.512 2.97492 -0.300393
6.446 2.99392 -0.296393
6.418 2.99392 -0.294393
6.354 3.01292 -0.291393
6.316 3.01892 -0.289393
6.248 3.03492 -0.285393
6.233 3.03992 -0.284393
6.16 3.05292 -0.280393
6.129 3.06092 -0.278393
6.02 3.09092 -0.272393
5.989 3.09792 -0.271393
5.954 3.10392 -0.269393
5.861 3.12692 -0.264393
5.809 3.13492 -0.261393
5.778 3.14192 -0.259393
5.754 3.15192 -0.258393
5.722 3.15792 -0.257393
5.691 3.16392 -0.255393
5.619 3.18192 -0.251393
5.557 3.19392 -0.248393
5.448 3.21192 -0.242393
5.403 3.23192 -0.240393
5.252 3.26592 -0.232393
5.192 3.27392 -0.229393
5.102 3.29692 -0.225393
11.481 1.85392 -0.664393
8.893 2.44092 -0.487393
8.834 2.45392 -0.483393
8.682 2.48492 -0.473393
8.373 2.55292 -0.452393
8.217 2.58992 -0.442393
7.994 2.64392 -0.428393
7.944 2.65492 -0.425393
7.676 2.71292 -0.407393
7.633 2.72492 -0.405393
7.43 2.77092 -0.392393
7.19 2.82292 -0.377393
21.973 -0.532078 -1.42739
11.435 1.86092 -0.737393
8.932 2.42992 -0.550393
8.852 2.43792 -0.544393
8.817 2.45792 -0.542393
8.742 2.46692 -0.536393
8.619 2.49092 -0.528393
8.6 2.49992 -0.526393
8.548 2.51492 -0.523393
8.431 2.53792 -0.514393
8.39 2.55492 -0.511393
8.332 2.56592 -0.507393
8.233 2.57792 -0.500393
8.186 2.59192 -0.497393
8.133 2.60292 -0.493393
8.036 2.62792 -0.486393
7.935 2.65092 -0.479393
7.902 2.65392 -0.476393
7.85 2.66392 -0.473393
7.812 2.67792 -0.470393
7.773 2.69292 -0.468393
7.715 2.69992 -0.464393
7.627 2.70992 -0.457393
7.587 2.72292 -0.454393
7.55 2.73592 -0.452393
7.5 2.74492 -0.448393
7.456 2.75592 -0.445393
7.427 2.77092 -0.444393
7.379 2.77992 -0.440393
7.339 2.77792 -0.437393
7.3 2.78992 -0.435393
7.227 2.81392 -0.430393
7.135 2.83092 -0.424393
7.127 2.83992 -0.423393
7.07 2.84392 -0.419393
7.004 2.86792 -0.415393
6.96 2.87592 -0.412393
6.917 2.88392 -0.409393
6.884 2.89592 -0.407393
6.858 2.89792 -0.405393
6.804 2.89992 -0.401393
6.779 2.91492 -0.400393
6.74 2.92292 -0.397393
6.709 2.93492 -0.395393
6.602 2.95092 -0.388393
6.536 2.97092 -0.384393
6.463 2.98692 -0.379393
6.378 3.00892 -0.373393
6.345 3.01792 -0.371393
6.308 3.02492 -0.369393
6.241 3.04092 -0.365393
6.204 3.04792 -0.362393
6.183 3.04892 -0.361393
6.123 3.06792 -0.357393
6.081 3.07092 -0.354393
6.052 3.07992 -0.353393
6.026 3.09092 -0.351393
5.988 3.09492 -0.349393
5.967 3.09692 -0.347393
5.943 3.10792 -0.346393
5.869 3.11692 -0.341393
5.847 3.12792 -0.340393
5.812 3.13392 -0.337393
5.788 3.13192 -0.336393
5.77 3.14592 -0.335393
5.742 3.15392 -0.333393
5.702 3.15592 -0.331393
5.682 3.16792 -0.330393
5.6 3.18092 -0.324393
5.536 3.19092 -0.320393
5.461 3.21692 -0.316393
5.42 3.22692 -0.314393
5.381 3.22692 -0.311393
5.364 3.23992 -0.310393
5.212 3.27292 -0.301393
21.281 -0.366078 -1.51639
20.44 -0.190078 -1.44839
20.191 -0.124078 -1.42839
18.983 0.153922 -1.44039
8.731 2.46492 -0.588393
8.679 2.47992 -0.584393
8.616 2.49092 -0.579393
8.576 2.49392 -0.576393
8.416 2.53292 -0.564393
8.365 2.54592 -0.560393
8.324 2.56292 -0.557393
8.28 2.56292 -0.553393
8.138 2.60292 -0.542393
8.077 2.61092 -0.538393
8.027 2.62292 -0.534393
7.988 2.63792 -0.531393
7.9 2.64992 -0.524393
7.853 2.66092 -0.521393
7.81 2.67392 -0.518393
7.76 2.68392 -0.514393
7.722 2.69792 -0.511393
7.638 2.70892 -0.505393
7.605 2.72392 -0.502393
7.564 2.73592 -0.499393
7.518 2.74592 -0.496393
7.471 2.75492 -0.492393
7.426 2.76492 -0.489393
7.398 2.76792 -0.487393
7.352 2.77692 -0.484393
7.31 2.78692 -0.480393
7.273 2.79892 -0.478393
7.194 2.82092 -0.472393
7.15 2.82892 -0.469393
7.133 2.83492 -0.468393
7.09 2.84392 -0.465393
7.039 2.84892 -0.461393
7.01 2.86292 -0.459393
6.966 2.86992 -0.456393
6.896 2.89192 -0.451393
6.864 2.89092 -0.448393
6.824 2.89992 -0.445393
6.76 2.92292 -0.441393
6.723 2.93192 -0.438393
6.659 2.94092 -0.434393
6.622 2.94892 -0.431393
6.589 2.95892 -0.429393
6.483 2.98492 -0.422393
6.36 3.01292 -0.413393
6.322 3.01892 -0.410393
20.424 -0.186078 -1.56439
19.289 0.0859218 -1.58139
8.911 2.41892 -0.657393
8.702 2.46592 -0.639393
8.646 2.47992 -0.635393
8.546 2.50992 -0.627393
8.399 2.53792 -0.615393
8.233 2.57392 -0.601393
8.103 2.60392 -0.590393
7.957 2.63992 -0.579393
7.729 2.68692 -0.560393
7.684 2.69892 -0.557393
7.663 2.71792 -0.555393
7.596 2.72192 -0.550393
7.578 2.72892 -0.548393
7.498 2.75292 -0.542393
7.433 2.75592 -0.537393
7.4 2.77092 -0.534393
7.346 2.77692 -0.530393
7.298 2.78492 -0.526393
7.07 2.83992 -0.508393
6.972 2.86392 -0.501393
6.927 2.87192 -0.497393
6.889 2.88092 -0.494393
6.858 2.89392 -0.492393
6.819 2.90292 -0.489393
6.71 2.91892 -0.481393
6.67 2.92692 -0.478393
6.637 2.93692 -0.475393
6.602 2.94692 -0.473393
6.483 2.97992 -0.464393
6.435 2.98292 -0.460393
6.404 2.99292 -0.458393
6.369 3.00092 -0.455393
6.284 3.02192 -0.449393
6.239 3.02392 -0.445393
6.206 3.03292 -0.443393
6.175 3.04192 -0.441393
6.148 3.05192 -0.439393
6.121 3.05092 -0.437393
6.09 3.05992 -0.435393
6.063 3.06992 -0.433393
6.03 3.07792 -0.430393
5.996 3.08392 -0.428393
5.965 3.09192 -0.426393
5.943 3.10392 -0.424393
5.922 3.10492 -0.423393
5.884 3.10892 -0.420393
5.853 3.11592 -0.418393
5.825 3.12492 -0.416393
5.791 3.12992 -0.413393
5.764 3.13892 -0.411393
5.74 3.14992 -0.410393
5.714 3.14692 -0.408393
5.69 3.15692 -0.406393
5.657 3.16292 -0.404393
5.599 3.17692 -0.400393
5.579 3.18792 -0.399393
5.553 3.18492 -0.397393
5.529 3.19492 -0.395393
5.481 3.21392 -0.392393
5.451 3.21892 -0.390393
5.374 3.23092 -0.384393
5.355 3.24292 -0.384393
5.294 3.25092 -0.379393
4.714 3.38892 -0.342393
20.783 -0.269078 -1.71839
19.176 0.105922 -1.69239
11.401 1.85992 -0.943393
8.951 2.41292 -0.719393
7.891 2.65192 -0.626393
7.843 2.66292 -0.622393
7.632 2.71192 -0.604393
7.585 2.72192 -0.600393
7.38 2.76592 -0.583393
7.337 2.77592 -0.579393
7.295 2.78592 -0.576393
7.27 2.78992 -0.574393
7.192 2.81092 -0.567393
7.151 2.82192 -0.564393
7.111 2.83092 -0.560393
7.069 2.83992 -0.557393
7.052 2.84592 -0.556393
6.96 2.85992 -0.548393
6.933 2.87392 -0.546393
6.887 2.87992 -0.542393
6.854 2.89192 -0.539393
6.819 2.90192 -0.537393
6.795 2.90392 -0.534393
6.753 2.91092 -0.531393
6.714 2.91992 -0.528393
6.68 2.92892 -0.525393
6.649 2.94092 -0.523393
6.608 2.94792 -0.519393
6.572 2.95592 -0.516393
6.542 2.95492 -0.514393
6.513 2.96592 -0.512393
6.484 2.97692 -0.509393
6.442 2.98292 -0.506393
6.418 2.99592 -0.504393
6.387 3.00592 -0.502393
6.341 3.00892 -0.498393
6.288 3.01992 -0.494393
6.252 3.02592 -0.491393
6.235 3.04192 -0.490393
6.2 3.04992 -0.487393
6.162 3.05492 -0.484393
6.136 3.05392 -0.482393
6.1 3.05892 -0.479393
6.065 3.06592 -0.476393
6.04 3.07692 -0.474393
6.004 3.08192 -0.471393
5.974 3.09092 -0.469393
5.954 3.10392 -0.468393
5.918 3.09692 -0.465393
5.894 3.10792 -0.463393
5.858 3.11192 -0.460393
5.834 3.12292 -0.459393
5.796 3.12592 -0.455393
5.781 3.14092 -0.455393
5.752 3.13692 -0.452393
5.724 3.14492 -0.450393
5.661 3.15692 -0.445393
5.63 3.16292 -0.443393
5.603 3.17092 -0.441393
5.583 3.18192 -0.440393
5.532 3.18692 -0.436393
5.487 3.20792 -0.433393
5.421 3.21492 -0.428393
5.331 3.24092 -0.421393
5.28 3.25492 -0.418393
5.24 3.25292 -0.414393
5.214 3.25992 -0.413393
5.165 3.28592 -0.410393
5.121 3.27992 -0.406393
5.109 3.29492 -0.406393
5.072 3.29392 -0.403393
5.067 3.30192 -0.403393
5.021 3.31692 -0.400393
4.936 3.32692 -0.393393
4.922 3.33992 -0.393393
4.878 3.34392 -0.390393
4.823 3.35092 -0.385393
4.676 3.39192 -0.376393
4.651 3.39592 -0.374393
4.62 3.39492 -0.372393
4.571 3.41492 -0.369393
4.55 3.42192 -0.368393
4.516 3.41792 -0.365393
4.496 3.42492 -0.364393
4.479 3.43392 -0.363393
4.456 3.42792 -0.361393
4.445 3.44192 -0.361393
4.422 3.44592 -0.359393
4.408 3.45692 -0.359393
4.372 3.45092 -0.356393
4.355 3.45992 -0.355393
4.335 3.46592 -0.354393
4.323 3.46792 -0.353393
4.298 3.46992 -0.351393
4.277 3.47492 -0.350393
4.256 3.48092 -0.349393
4.239 3.48892 -0.348393
4.218 3.49292 -0.347393
4.201 3.50092 -0.346393
4.18 3.49492 -0.344393
4.158 3.49892 -0.342393
4.118 3.50992 -0.340393
17.751 0.429922 -1.66239
11.402 1.85892 -1.01539
8.544 2.50192 -0.738393
8.433 2.52692 -0.728393
7.767 2.67992 -0.666393
7.645 2.70492 -0.655393
7.355 2.77392 -0.629393
7.307 2.78192 -0.625393
7.267 2.79292 -0.621393
7.23 2.80492 -0.618393
7.119 2.82692 -0.608393
7.08 2.83692 -0.605393
7.04 2.84692 -0.601393
7.003 2.85792 -0.598393
6.954 2.86292 -0.594393
6.936 2.86892 -0.592393
6.896 2.87792 -0.589393
6.856 2.88692 -0.585393
6.819 2.89692 -0.582393
6.784 2.90692 -0.579393
6.74 2.91392 -0.575393
6.704 2.92292 -0.572393
6.577 2.95392 -0.561393
6.546 2.96492 -0.559393
6.497 2.96792 -0.554393
6.445 2.98092 -0.550393
6.408 2.98892 -0.547393
6.381 2.99992 -0.545393
6.344 3.00792 -0.542393
6.309 3.01592 -0.539393
6.28 3.02592 -0.536393
6.249 3.02292 -0.533393
6.216 3.03092 -0.531393
6.188 3.04192 -0.529393
6.155 3.04992 -0.526393
6.121 3.05692 -0.523393
6.092 3.06692 -0.521393
6.066 3.06592 -0.518393
6.033 3.07292 -0.515393
6.007 3.08392 -0.514393
5.971 3.08892 -0.510393
5.94 3.09692 -0.508393
5.914 3.10692 -0.506393
5.882 3.11392 -0.503393
5.83 3.12192 -0.499393
5.796 3.12692 -0.496393
5.768 3.13592 -0.494393
5.75 3.14892 -0.493393
5.715 3.15392 -0.490393
5.684 3.15992 -0.488393
5.665 3.16092 -0.486393
5.631 3.16592 -0.483393
5.604 3.17392 -0.481393
5.583 3.18492 -0.480393
5.551 3.18992 -0.477393
5.52 3.19592 -0.475393
5.498 3.20592 -0.473393
5.471 3.20192 -0.470393
5.423 3.21992 -0.467393
5.391 3.22392 -0.464393
5.363 3.22992 -0.462393
5.343 3.24092 -0.461393
5.316 3.23592 -0.458393
5.289 3.24292 -0.456393
5.265 3.25092 -0.455393
5.234 3.25492 -0.452393
5.214 3.26492 -0.451393
5.185 3.26992 -0.449393
5.161 3.27792 -0.447393
5.148 3.27992 -0.446393
5.117 3.28392 -0.443393
5.093 3.29092 -0.442393
5.068 3.29692 -0.440393
5.043 3.30392 -0.438393
5.017 3.30992 -0.436393
5 3.30992 -0.435393
4.985 3.32192 -0.434393
4.95 3.32092 -0.431393
4.931 3.33092 -0.430393
4.912 3.34092 -0.429393
4.882 3.34292 -0.426393
4.861 3.35192 -0.425393
4.843 3.35092 -0.423393
4.821 3.35792 -0.422393
4.801 3.36592 -0.421393
4.747 3.37292 -0.417393
4.731 3.38492 -0.416393
4.705 3.38792 -0.414393
4.693 3.39092 -0.413393
4.669 3.39592 -0.411393
4.602 3.41392 -0.407393
4.555 3.42392 -0.404393
4.541 3.42492 -0.403393
4.494 3.43392 -0.399393
4.476 3.44292 -0.398393
4.43 3.45192 -0.395393
4.398 3.46092 -0.393393
4.373 3.46392 -0.391393
4.353 3.46992 -0.390393
4.309 3.47992 -0.387393
4.234 3.49692 -0.382393
4.212 3.50092 -0.381393
4.14 3.51892 -0.376393
16.464 0.727922 -1.63739
8.929 2.41792 -0.835393
8.87 2.43192 -0.829393
8.811 2.44492 -0.823393
8.715 2.46292 -0.814393
8.667 2.47792 -0.809393
8.613 2.49192 -0.804393
8.546 2.50192 -0.797393
8.498 2.51692 -0.792393
8.447 2.52992 -0.787393
8.355 2.54492 -0.778393
8.307 2.55892 -0.773393
8.255 2.57092 -0.768393
8.202 2.58292 -0.763393
8.158 2.59692 -0.759393
8.125 2.60092 -0.755393
8.075 2.61292 -0.751393
7.966 2.63292 -0.740393
7.924 2.64592 -0.736393
7.884 2.65992 -0.732393
7.825 2.66692 -0.726393
7.806 2.67392 -0.724393
7.717 2.69792 -0.716393
7.666 2.70692 -0.711393
7.57 2.72692 -0.702393
7.499 2.74092 -0.695393
7.417 2.76392 -0.687393
7.349 2.79092 -0.681393
7.263 2.80992 -0.673393
7.181 2.81692 -0.665393
7.072 2.85092 -0.655393
6.919 2.87792 -0.640393
6.89 2.89092 -0.638393
6.813 2.90892 -0.631393
6.782 2.92092 -0.628393
6.746 2.91792 -0.624393
6.714 2.92892 -0.622393
6.677 2.93792 -0.618393
6.642 2.94692 -0.615393
6.604 2.95492 -0.612393
6.575 2.96692 -0.609393
6.54 2.96292 -0.605393
6.51 2.97492 -0.603393
6.478 2.98392 -0.600393
6.447 2.99392 -0.598393
6.407 2.99992 -0.594393
6.376 3.00992 -0.591393
6.341 3.01792 -0.588393
6.318 3.01892 -0.586393
6.291 3.02992 -0.584393
6.225 3.04692 -0.578393
6.142 3.05392 -0.570393
6.087 3.06192 -0.565393
6.069 3.07692 -0.564393
6.025 3.07792 -0.560393
5.962 3.09292 -0.554393
5.911 3.11392 -0.550393
5.897 3.11792 -0.549393
5.854 3.11892 -0.545393
5.796 3.13492 -0.540393
5.774 3.14592 -0.538393
5.736 3.14892 -0.535393
5.719 3.15092 -0.533393
5.7 3.16392 -0.532393
5.664 3.16792 -0.529393
5.603 3.17892 -0.524393
5.576 3.18692 -0.521393
5.533 3.19692 -0.518393
5.492 3.19592 -0.514393
5.479 3.21192 -0.514393
5.452 3.21892 -0.511393
5.423 3.22492 -0.509393
5.394 3.22992 -0.506393
