3.98895 3.09187 -1.60721
3.96795 3.09687 -1.60321
3.96195 3.11087 -1.60421
3.94695 3.11987 -1.60221
3.95095 3.14287 -1.60821
3.95295 3.15487 -1.61121
3.93495 3.16087 -1.60721
3.93095 3.19787 -1.61421
3.90995 3.20187 -1.61021
3.90895 3.22187 -1.61421
3.89295 3.22887 -1.61121
3.89095 3.23787 -1.61321
3.87795 3.24787 -1.61121
3.86895 3.26087 -1.61221
3.83995 3.27787 -1.60821
3.81995 3.31287 -1.61121
3.79695 3.33587 -1.61021
3.78695 3.34687 -1.61021
3.76295 3.36887 -1.60921
3.75595 3.37287 -1.60821
3.74395 3.38387 -1.60721
3.73595 3.39787 -1.60921
3.71295 3.39787 -1.60321
3.70395 3.41087 -1.60421
3.68795 3.41787 -1.60121
3.66395 3.41787 -1.59521
3.66695 3.43087 -1.59921
3.65795 3.44387 -1.60021
3.65095 3.45887 -1.60221
3.63195 3.46287 -1.59821
3.60095 3.47687 -1.59321
4.96395 -2.33113 -1.75621
5.04095 -2.11113 -1.75021
5.06595 -2.04613 -1.74921
5.08995 -1.93613 -1.74321
5.10195 -1.92213 -1.74521
5.11495 -1.88213 -1.74521
5.14295 -1.85513 -1.75021
5.12695 -1.83113 -1.74321
5.15195 -1.79513 -1.74721
5.14495 -1.77413 -1.74221
5.15595 -1.74213 -1.74221
5.17395 -1.73013 -1.74721
5.16795 -1.70113 -1.74121
5.17495 -1.68513 -1.74221
5.18595 -1.65313 -1.74221
5.17995 -1.63313 -1.73821
5.17595 -1.61413 -1.73521
5.18495 -1.57213 -1.73421
5.18395 -1.53613 -1.73021
5.18695 -1.51913 -1.72921
5.19495 -1.50413 -1.73021
5.21295 -1.44713 -1.73121
5.21195 -1.42913 -1.72921
5.20795 -1.41013 -1.72621
5.21495 -1.40413 -1.72821
5.21695 -1.36913 -1.72521
5.21695 -1.35213 -1.72421
5.22895 -1.33713 -1.72721
5.22995 -1.30213 -1.72421
5.23895 -1.29613 -1.72721
5.24495 -1.28013 -1.72721
5.25295 -1.26413 -1.72921
5.24895 -1.24613 -1.72621
5.26995 -1.23413 -1.73221
5.26095 -1.21413 -1.72721
5.26995 -1.19913 -1.72921
5.25895 -1.18713 -1.72521
5.27895 -1.17513 -1.73021
5.28695 -1.15913 -1.73221
5.27695 -1.13913 -1.72721
5.28595 -1.12413 -1.72921
5.29895 -1.10913 -1.73221
5.29695 -1.10013 -1.73121
5.30595 -1.08513 -1.73321
5.29495 -1.06513 -1.72821
5.30395 -1.05013 -1.73021
5.31095 -1.03413 -1.73121
5.31395 -1.01713 -1.73121
5.30395 -0.998132 -1.72721
5.31695 -0.992132 -1.73021
5.31595 -0.974132 -1.72921
5.31895 -0.958132 -1.72921
5.32595 -0.941132 -1.73021
5.32495 -0.924132 -1.72921
5.32395 -0.907132 -1.72821
5.32695 -0.864132 -1.72721
4.73095 1.60687 -1.64221
4.09595 2.70287 -1.61021
4.05095 2.77587 -1.61221
4.02295 2.80287 -1.60921
4.00295 2.84587 -1.61221
3.98495 2.87987 -1.61421
3.96395 2.88387 -1.60821
3.94895 2.89187 -1.60621
3.94495 2.90887 -1.60821
3.93895 2.92287 -1.61021
3.92095 2.93787 -1.60821
3.89795 2.97887 -1.61021
3.87795 2.98287 -1.60521
3.87295 2.99787 -1.60721
3.86895 3.01487 -1.61021
3.85895 3.01687 -1.60721
3.84095 3.04187 -1.60821
3.82695 3.05087 -1.60621
3.82395 3.08787 -1.61321
3.80295 3.08987 -1.60821
3.79795 3.09587 -1.60821
3.79795 3.11587 -1.61221
3.77795 3.11987 -1.60821
3.76795 3.13187 -1.60821
3.76595 3.14987 -1.61121
3.73995 3.14787 -1.60421
3.73695 3.15487 -1.60421
3.74095 3.17887 -1.61121
3.72095 3.18187 -1.60621
3.71095 3.19387 -1.60621
3.71195 3.21487 -1.61221
3.68095 3.20787 -1.60221
3.68195 3.22987 -1.60721
3.68695 3.24387 -1.61221
3.66795 3.24787 -1.60821
3.65195 3.25487 -1.60521
3.64895 3.27287 -1.60821
3.63595 3.28187 -1.60721
3.61695 3.28487 -1.60321
3.61095 3.30087 -1.60521
3.59495 3.29587 -1.60021
3.59095 3.31387 -1.60321
3.58395 3.32787 -1.60421
3.57095 3.33587 -1.60321
3.55695 3.34487 -1.60221
3.54795 3.35687 -1.60221
3.53595 3.36687 -1.60221
3.52695 3.36887 -1.60021
3.51495 3.37787 -1.59921
3.50695 3.39187 -1.60021
3.49195 3.39887 -1.59921
3.48595 3.41387 -1.60021
3.47795 3.42787 -1.60221
3.46395 3.43587 -1.60021
3.45195 3.43487 -1.59721
3.44395 3.44787 -1.59921
3.43195 3.45787 -1.59821
3.42695 3.47487 -1.60121
3.40895 3.47787 -1.59721
3.39595 3.48687 -1.59721
3.37995 3.49187 -1.59421
3.37995 3.50287 -1.59721
3.36895 3.51387 -1.59721
3.35895 3.52587 -1.59721
4.82495 -2.27313 -1.76021
4.84395 -2.26413 -1.76521
4.84495 -2.22713 -1.75921
4.86395 -2.21713 -1.76421
4.84695 -2.20013 -1.75621
4.84495 -2.18113 -1.75321
4.87095 -2.17413 -1.76021
4.86695 -2.15513 -1.75621
4.86695 -2.13613 -1.75321
4.88895 -2.12813 -1.75921
4.87795 -2.10513 -1.75321
4.88495 -2.09913 -1.75421
4.90595 -2.08913 -1.75921
4.89695 -2.06713 -1.75321
4.89995 -2.05013 -1.75221
4.91795 -2.04013 -1.75721
4.91195 -2.02013 -1.75221
4.90995 -2.01013 -1.75021
4.93395 -2.00113 -1.75721
4.92495 -1.98013 -1.75121
4.93795 -1.96713 -1.75321
4.95095 -1.95413 -1.75621
4.94995 -1.93613 -1.75321
4.94495 -1.91613 -1.74921
4.96595 -1.91513 -1.75621
4.95795 -1.89413 -1.75121
4.96195 -1.87813 -1.75021
4.97895 -1.86613 -1.75421
4.97695 -1.84813 -1.75121
4.96895 -1.82713 -1.74621
4.99095 -1.81713 -1.75221
4.98995 -1.80813 -1.75121
4.99195 -1.79113 -1.74921
5.00295 -1.77713 -1.75121
5.00695 -1.76113 -1.75121
5.00495 -1.74313 -1.74821
5.01795 -1.73013 -1.75121
5.01195 -1.71913 -1.74721
5.01895 -1.70413 -1.74821
5.03695 -1.69213 -1.75321
5.02795 -1.67113 -1.74721
5.03595 -1.65713 -1.74921
5.04495 -1.64213 -1.75021
5.04695 -1.62513 -1.74921
5.04195 -1.61513 -1.74621
5.05195 -1.60113 -1.74821
5.04795 -1.58213 -1.74521
5.05195 -1.56613 -1.74421
5.06895 -1.55413 -1.74921
5.05895 -1.53313 -1.74321
5.06795 -1.51913 -1.74521
5.07195 -1.51113 -1.74521
5.07295 -1.49413 -1.74421
5.08295 -1.48013 -1.74621
5.07895 -1.46113 -1.74321
5.09395 -1.44813 -1.74721
5.08195 -1.42813 -1.74121
5.08695 -1.42013 -1.74121
5.08495 -1.40313 -1.73921
5.09695 -1.38913 -1.74221
5.08095 -1.36713 -1.73521
5.09495 -1.35413 -1.73821
5.09695 -1.33713 -1.73721
5.10895 -1.32313 -1.74021
5.11095 -1.31513 -1.74021
5.09995 -1.29513 -1.73521
5.10795 -1.28013 -1.73621
5.12295 -1.25013 -1.73921
5.11595 -1.23113 -1.73521
5.13295 -1.22713 -1.74021
5.13295 -1.21013 -1.73921
4.62995 1.59787 -1.64821
4.62895 1.62987 -1.65121
4.61195 1.64887 -1.64821
4.62095 1.66787 -1.65321
4.59495 1.67487 -1.64521
4.58795 1.70487 -1.64621
4.59495 1.72387 -1.65121
4.57295 1.72387 -1.64321
4.58495 1.74487 -1.65021
4.56895 1.75587 -1.64621
4.56295 1.76987 -1.64621
4.52095 1.79487 -1.63521
4.53695 1.81687 -1.64321
4.51895 1.82687 -1.63921
4.51595 1.84187 -1.64021
4.50495 1.85387 -1.63821
4.51495 1.87487 -1.64421
4.49195 1.88187 -1.63721
4.48895 1.88887 -1.63721
4.48095 1.90187 -1.63721
4.46495 1.91187 -1.63321
4.47295 1.93187 -1.63821
4.45295 1.93987 -1.63321
4.46695 1.96287 -1.64121
4.43695 1.96587 -1.63121
4.45095 1.98087 -1.63821
4.42895 1.98787 -1.63221
4.43295 2.00687 -1.63621
4.42195 2.01787 -1.63421
4.41895 2.03387 -1.63521
4.39395 2.03887 -1.62821
4.40095 2.05887 -1.63321
4.40295 2.06787 -1.63521
4.38095 2.07487 -1.62921
4.37595 2.08887 -1.63021
4.36595 2.10187 -1.62921
4.36795 2.11887 -1.63221
4.36595 2.13487 -1.63421
4.35095 2.15387 -1.63221
4.33795 2.16387 -1.62921
4.33595 2.17987 -1.63121
4.31895 2.18887 -1.62721
4.31495 2.20387 -1.62921
4.30995 2.21787 -1.62921
4.31795 2.23087 -1.63421
4.29095 2.23387 -1.62621
4.29895 2.25487 -1.63221
4.28095 2.26287 -1.62721
4.27695 2.27787 -1.62921
4.27495 2.29387 -1.63121
4.26395 2.29687 -1.62821
4.26195 2.31287 -1.63021
4.25095 2.32487 -1.62921
4.25095 2.34187 -1.63121
4.23495 2.35087 -1.62821
4.22795 2.36387 -1.62821
4.21195 2.37287 -1.62521
4.23095 2.39187 -1.63421
4.19695 2.39087 -1.62321
4.21095 2.41587 -1.63221
4.19395 2.42387 -1.62821
4.17995 2.43287 -1.62521
4.17395 2.44687 -1.62621
4.17195 2.46387 -1.62921
4.16395 2.46787 -1.62721
4.16695 2.48687 -1.63121
4.14295 2.49087 -1.62521
4.15495 2.51487 -1.63321
4.12895 2.51787 -1.62521
4.13395 2.53887 -1.63121
4.11195 2.54287 -1.62521
4.10295 2.54587 -1.62321
4.11695 2.57287 -1.63221
4.08795 2.57287 -1.62321
4.08495 2.58887 -1.62521
4.07695 2.60187 -1.62521
4.06695 2.61287 -1.62521
4.04895 2.61987 -1.62121
4.06895 2.64187 -1.63121
4.03795 2.63987 -1.62121
4.03995 2.65887 -1.62521
4.02695 2.66887 -1.62321
4.01495 2.67887 -1.62221
3.99995 2.68787 -1.61921
4.01995 2.70887 -1.62921
3.99195 2.70887 -1.62121
3.97295 2.71487 -1.61621
3.98895 2.74387 -1.62721
3.96295 2.74487 -1.62021
3.95795 2.75887 -1.62121
3.95395 2.77487 -1.62321
3.94295 2.77687 -1.62121
3.92795 2.78487 -1.61821
3.90895 2.80887 -1.61721
3.92295 2.83687 -1.62721
3.90395 2.84187 -1.62321
3.89895 2.85687 -1.62521
3.88095 2.85387 -1.61821
3.86495 2.87887 -1.61921
3.85995 2.89487 -1.62121
3.84795 2.90387 -1.62021
3.83895 2.91587 -1.62021
3.83395 2.92287 -1.62021
3.82995 2.93787 -1.62221
3.80395 2.93687 -1.61421
3.80495 2.97587 -1.62321
3.79195 2.98587 -1.62221
3.78295 2.99787 -1.62221
3.75395 3.00387 -1.61521
3.74495 3.03587 -1.62021
3.71595 3.05087 -1.61521
3.70895 3.07387 -1.61821
3.70495 3.09087 -1.62121
3.69095 3.09887 -1.61921
3.66695 3.11787 -1.61721
3.65595 3.12787 -1.61621
3.65195 3.14487 -1.61921
3.61095 3.17987 -1.61621
3.54995 3.25687 -1.61821
3.53695 3.26487 -1.61721
3.44695 3.33587 -1.61121
4.71595 -2.24313 -1.76421
4.71295 -2.22313 -1.76021
4.73095 -2.22313 -1.76621
4.72495 -2.20213 -1.76021
4.74395 -2.19313 -1.76521
4.73195 -2.16913 -1.75821
4.76095 -2.16513 -1.76621
4.75695 -2.14513 -1.76221
4.74795 -2.12313 -1.75621
4.77795 -2.12713 -1.76621
4.78395 -2.11213 -1.76621
4.76195 -2.08413 -1.75521
4.79195 -2.08013 -1.76421
4.78095 -2.05713 -1.75821
4.79795 -2.04713 -1.76221
4.78895 -2.02513 -1.75621
4.80595 -2.02313 -1.76121
4.79995 -2.00313 -1.75621
4.82195 -1.99413 -1.76221
4.81095 -1.97213 -1.75621
4.83495 -1.96413 -1.76221
4.83695 -1.94713 -1.76121
4.83695 -1.93813 -1.76021
4.82495 -1.91613 -1.75321
4.84295 -1.88813 -1.75521
4.86295 -1.86113 -1.75821
4.85595 -1.83213 -1.75221
4.87795 -1.80513 -1.75621
4.87495 -1.78713 -1.75321
4.88095 -1.75413 -1.75121
4.89195 -1.74113 -1.75321
4.88895 -1.73113 -1.75121
4.89795 -1.70013 -1.75021
4.91395 -1.67113 -1.75221
4.91295 -1.64413 -1.74921
4.92995 -1.63313 -1.75421
4.90895 -1.60913 -1.74321
4.92895 -1.58113 -1.74721
4.93895 -1.55013 -1.74721
4.94295 -1.52613 -1.74621
4.95495 -1.47913 -1.74521
4.96395 -1.45613 -1.74621
4.97195 -1.44113 -1.74721
4.96395 -1.42213 -1.74321
4.98195 -1.39313 -1.74621
4.97795 -1.35913 -1.74121
4.98695 -1.31913 -1.74121
5.00195 -1.29013 -1.74321
4.99895 -1.27213 -1.74121
5.00295 -1.23113 -1.73921
5.01295 -1.20013 -1.73921
3.28695 3.28187 -1.60221
3.27495 3.30187 -1.60421
3.24895 3.31687 -1.60121
3.23295 3.34287 -1.60421
3.21995 3.35987 -1.60521
3.19295 3.37387 -1.60221
3.15395 3.39687 -1.59821
3.14895 3.40187 -1.59821
3.12895 3.42287 -1.59921
3.12095 3.43487 -1.60021
3.11395 3.44887 -1.60221
3.09595 3.45187 -1.59921
3.08795 3.46487 -1.60021
3.08595 3.47387 -1.60221
3.07195 3.47887 -1.60021
3.06395 3.49287 -1.60221
3.05295 3.50287 -1.60221
3.04195 3.51187 -1.60221
3.03295 3.52287 -1.60321
3.01995 3.53087 -1.60221
3.01595 3.53787 -1.60321
3.01195 3.55587 -1.60721
2.99495 3.55787 -1.60421
2.97395 3.55587 -1.59821
2.97595 3.58087 -1.60621
2.95795 3.58187 -1.60221
2.94395 3.58787 -1.60021
2.93495 3.58787 -1.59821
2.93095 3.62987 -1.60921
2.91095 3.62887 -1.60421
2.90495 3.64387 -1.60721
2.89795 3.65887 -1.61021
2.87395 3.66387 -1.60621
2.86795 3.67987 -1.60921
2.85595 3.68887 -1.60921
2.83595 3.68587 -1.60421
2.81495 3.68287 -1.59821
2.81095 3.70187 -1.60321
2.79995 3.69887 -1.59921
2.79195 3.71287 -1.60221
2.78895 3.73287 -1.60721
2.76795 3.72987 -1.60221
2.74895 3.72787 -1.59721
2.74495 3.74687 -1.60221
2.71895 3.73587 -1.59321
2.70195 3.74987 -1.59321
4.62695 -2.02913 -1.75221
4.66395 -1.93313 -1.75021
4.66695 -1.90013 -1.74721
4.69695 -1.81913 -1.74621
4.70995 -1.76413 -1.74321
4.72495 -1.70313 -1.74021
4.74895 -1.65213 -1.74321
4.76595 -1.56713 -1.73821
4.76795 -1.53413 -1.73621
4.76595 -1.51713 -1.73321
4.79595 -1.50213 -1.74221
4.79495 -1.43613 -1.73421
4.80095 -1.38013 -1.73121
4.80895 -1.36613 -1.73221
4.81395 -1.35113 -1.73221
4.81095 -1.31813 -1.72821
4.81295 -1.31013 -1.72821
4.82295 -1.28013 -1.72921
4.83595 -1.26813 -1.73221
4.83295 -1.25113 -1.72921
4.83495 -1.23513 -1.72921
4.82795 -1.21713 -1.72521
4.84795 -1.21413 -1.73121
4.84595 -1.19713 -1.72921
4.83695 -1.17913 -1.72521
4.84295 -1.16413 -1.72521
4.84295 -1.14813 -1.72421
4.84495 -1.13313 -1.72321
4.86795 -1.13013 -1.73121
4.86595 -1.11313 -1.72921
4.86395 -1.09713 -1.72721
4.85495 -1.07913 -1.72321
4.87995 -1.06813 -1.73121
4.87295 -1.05113 -1.72721
4.89795 -1.04013 -1.73521
4.88995 -1.03013 -1.73121
4.89495 -1.01513 -1.73221
4.88795 -0.998132 -1.72821
4.89795 -0.984132 -1.73121
4.90295 -0.969132 -1.73121
4.90195 -0.953132 -1.73021
4.89795 -0.936132 -1.72721
4.90395 -0.913132 -1.72821
4.91295 -0.899132 -1.73021
4.91895 -0.884132 -1.73121
4.91295 -0.851132 -1.72721
4.91495 -0.828132 -1.72721
4.91595 -0.812132 -1.72621
4.25395 1.76087 -1.63921
4.21795 1.83187 -1.63721
3.49795 2.88287 -1.61221
3.48595 2.89187 -1.61021
3.42695 2.96187 -1.61021
3.41395 2.97087 -1.60921
3.41395 2.97987 -1.61121
3.40495 2.99087 -1.61121
3.39195 2.99887 -1.61021
3.38595 3.01187 -1.61121
3.37295 3.01987 -1.61021
3.36295 3.02887 -1.60921
3.34995 3.03687 -1.60721
3.34495 3.04287 -1.60721
3.34095 3.05787 -1.61021
3.33295 3.06987 -1.61121
3.32495 3.08187 -1.61221
3.32095 3.09687 -1.61521
3.29995 3.09687 -1.60921
3.29595 3.10387 -1.61021
3.28295 3.10987 -1.60721
3.27095 3.11887 -1.60721
3.26195 3.12987 -1.60721
3.24895 3.13687 -1.60521
3.24295 3.15087 -1.60721
3.23595 3.16387 -1.60921
3.22995 3.16787 -1.60821
3.21695 3.17487 -1.60721
3.20395 3.18287 -1.60521
3.19595 3.19387 -1.60621
3.18395 3.20287 -1.60521
3.17795 3.21687 -1.60721
3.16795 3.22687 -1.60721
3.16695 3.23587 -1.61021
3.15195 3.23987 -1.60721
3.15095 3.25987 -1.61221
3.13195 3.26087 -1.60721
3.12495 3.27387 -1.60921
3.12095 3.29087 -1.61221
3.09995 3.28987 -1.60721
3.09895 3.29787 -1.60921
3.09595 3.31587 -1.61321
3.08495 3.32487 -1.61221
3.07495 3.33587 -1.61321
3.07595 3.35787 -1.61921
3.05795 3.35887 -1.61521
3.04095 3.36187 -1.61221
3.03195 3.38287 -1.61521
3.01495 3.38587 -1.61221
2.99995 3.41087 -1.61521
2.98895 3.42087 -1.61521
2.97295 3.43487 -1.61521
2.96295 3.44587 -1.61621
2.93795 3.45987 -1.61421
2.93095 3.47287 -1.61621
2.87895 3.51187 -1.61521
2.86395 3.51587 -1.61221
2.83995 3.53087 -1.61121
2.81395 3.55587 -1.61221
2.80795 3.57087 -1.61521
2.78295 3.58587 -1.61421
2.77395 3.58587 -1.61221
2.74895 3.59987 -1.61021
2.73495 3.60587 -1.60921
2.73195 3.62487 -1.61421
2.71095 3.62087 -1.60821
2.70495 3.63587 -1.61121
2.69695 3.63687 -1.61021
2.67795 3.63687 -1.60521
2.67295 3.65187 -1.60921
2.66095 3.66087 -1.60921
2.64295 3.65987 -1.60521
2.62995 3.66687 -1.60421
2.62695 3.68587 -1.60921
2.61395 3.68087 -1.60521
2.60495 3.69187 -1.60621
2.59595 3.70487 -1.60821
2.57695 3.70187 -1.60321
2.56695 3.71187 -1.60421
2.56195 3.73087 -1.60921
2.54795 3.73387 -1.60721
2.54195 3.73787 -1.60721
2.52795 3.74287 -1.60521
2.51795 3.75387 -1.60721
2.49895 3.75087 -1.60221
2.49595 3.77087 -1.60721
2.47995 3.77287 -1.60521
2.46695 3.77887 -1.60421
2.46295 3.78587 -1.60521
2.44295 3.78087 -1.60021
2.43195 3.78987 -1.60021
2.41995 3.79787 -1.60021
2.40595 3.80187 -1.59921
2.39495 3.81187 -1.60021
2.37695 3.80987 -1.59521
3.56195 -3.57913 -1.80821
3.57395 -3.56913 -1.80821
3.60195 -3.54113 -1.80821
4.51995 -1.86713 -1.74721
4.52495 -1.84513 -1.74621
4.52895 -1.83013 -1.74521
4.53795 -1.81713 -1.74721
4.55595 -1.78313 -1.74821
4.55795 -1.75113 -1.74421
4.55895 -1.73413 -1.74221
4.56095 -1.71913 -1.74121
4.56895 -1.70613 -1.74221
4.57795 -1.69213 -1.74421
4.57695 -1.66813 -1.74021
4.58995 -1.65613 -1.74321
4.58395 -1.63813 -1.73921
4.59495 -1.62513 -1.74121
4.60295 -1.61213 -1.74221
4.60695 -1.59713 -1.74221
4.59695 -1.58513 -1.73721
4.60495 -1.57213 -1.73821
4.62095 -1.56113 -1.74221
4.61695 -1.54413 -1.73921
4.61995 -1.52913 -1.73821
4.62795 -1.51513 -1.73921
4.62195 -1.50513 -1.73621
4.62295 -1.48913 -1.73421
4.63995 -1.47913 -1.73921
4.63595 -1.46113 -1.73621
4.64195 -1.44713 -1.73721
4.65395 -1.43513 -1.73921
4.64695 -1.41713 -1.73521
4.65895 -1.41213 -1.73921
4.65195 -1.39513 -1.73421
4.65795 -1.38013 -1.73521
4.66995 -1.36813 -1.73821
4.65795 -1.34913 -1.73221
4.68595 -1.34113 -1.74121
4.66995 -1.32813 -1.73421
4.66795 -1.31213 -1.73221
4.67395 -1.29813 -1.73221
4.67795 -1.28313 -1.73221
4.67295 -1.26613 -1.72921
4.68295 -1.25313 -1.73121
4.68495 -1.23713 -1.73021
4.70495 -1.23513 -1.73721
4.69595 -1.21713 -1.73221
4.71095 -1.20513 -1.73721
4.69795 -1.18613 -1.73021
4.72395 -1.17713 -1.73921
4.70395 -1.15613 -1.73021
4.72595 -1.14613 -1.73721
4.71995 -1.13613 -1.73421
4.71495 -1.11913 -1.73021
4.72895 -1.10713 -1.73421
4.74095 -1.09413 -1.73821
4.73195 -1.07713 -1.73321
4.73895 -1.06213 -1.73421
4.73995 -1.03913 -1.73321
4.75895 -0.981132 -1.73521
4.76295 -0.951132 -1.73421
4.76495 -0.912132 -1.73221
4.12795 1.74887 -1.64121
4.06095 1.87287 -1.63621
4.02095 1.95387 -1.63621
3.95895 2.05687 -1.63221
3.87895 2.18887 -1.62921
3.85495 2.22287 -1.62821
3.82995 2.26487 -1.62821
3.77095 2.35187 -1.62521
3.75295 2.37387 -1.62421
3.73295 2.40187 -1.62321
3.72695 2.41487 -1.62421
3.63995 2.53287 -1.62221
3.62395 2.54687 -1.62021
3.61395 2.55687 -1.61921
3.59195 2.59187 -1.62021
3.56695 2.63487 -1.62221
3.55495 2.64287 -1.62021
3.54495 2.65287 -1.61921
3.54395 2.66987 -1.62321
3.53495 2.67187 -1.62021
3.52795 2.68387 -1.62121
3.51095 2.68787 -1.61721
3.51295 2.70687 -1.62221
3.50695 2.72087 -1.62321
3.48995 2.74287 -1.62321
3.47095 2.73687 -1.61621
3.46995 2.75287 -1.62021
3.46995 2.77087 -1.62421
3.44395 2.76787 -1.61521
3.44795 2.78887 -1.62221
3.43495 2.79687 -1.62021
3.42795 2.79987 -1.61821
3.41895 2.80987 -1.61821
3.39995 2.81287 -1.61321
3.40495 2.83487 -1.62021
3.40695 2.85487 -1.62521
3.38595 2.85587 -1.62021
3.38295 2.87087 -1.62321
3.37095 2.86987 -1.61921
3.35695 2.87587 -1.61621
3.35695 2.89487 -1.62121
3.34795 2.90587 -1.62121
3.33895 2.91587 -1.62121
3.31995 2.91787 -1.61621
3.32795 2.94287 -1.62521
3.31495 2.94087 -1.62021
3.31395 2.95887 -1.62521
3.30295 2.96787 -1.62421
3.29395 2.97787 -1.62421
3.27895 2.98387 -1.62121
3.26495 2.98987 -1.61921
3.25895 3.00287 -1.62021
3.24995 3.00387 -1.61821
3.25395 3.02687 -1.62521
3.23595 3.02987 -1.62121
3.22095 3.03487 -1.61821
3.22695 3.05887 -1.62621
3.19195 3.04487 -1.61221
3.18195 3.05487 -1.61221
3.18395 3.06587 -1.61621
3.17295 3.07487 -1.61521
3.16695 3.08887 -1.61721
3.16795 3.10887 -1.62321
3.14195 3.10287 -1.61521
3.14195 3.12187 -1.62021
3.14395 3.13387 -1.62321
3.12195 3.13187 -1.61721
3.11595 3.14587 -1.61921
3.10695 3.15687 -1.62021
3.09495 3.16387 -1.61821
3.09095 3.17987 -1.62221
3.08295 3.19087 -1.62321
3.06595 3.18387 -1.61621
3.05595 3.21387 -1.62221
3.04395 3.22087 -1.62021
3.02195 3.21787 -1.61421
3.02095 3.23687 -1.61921
3.01195 3.24787 -1.62021
3.00995 3.25687 -1.62221
2.98895 3.25387 -1.61521
2.97695 3.26187 -1.61521
2.97495 3.27987 -1.61921
2.96395 3.28887 -1.61921
2.95295 3.29687 -1.61821
2.94795 3.30087 -1.61821
2.94095 3.31487 -1.62021
2.92895 3.32287 -1.62021
2.90795 3.34087 -1.62021
2.89895 3.35187 -1.62021
2.88395 3.35487 -1.61721
2.85095 3.36987 -1.61421
2.83595 3.39487 -1.61721
2.78895 3.43687 -1.61821
2.76795 3.43187 -1.61221
2.75595 3.46287 -1.61821
2.71695 3.49087 -1.61721
2.68295 3.51487 -1.61721
2.65095 3.52987 -1.61421
2.64195 3.54187 -1.61521
2.63195 3.55087 -1.61621
2.60795 3.56587 -1.61521
2.59595 3.57287 -1.61521
2.59195 3.57987 -1.61621
2.57895 3.58487 -1.61521
2.56595 3.58987 -1.61321
2.55295 3.59687 -1.61221
2.53895 3.59987 -1.61021
2.53295 3.61587 -1.61421
2.52895 3.62287 -1.61521
2.51395 3.62487 -1.61221
2.48895 3.63687 -1.61121
2.48195 3.65287 -1.61521
2.46495 3.65087 -1.61021
2.45295 3.65887 -1.61021
2.44595 3.66087 -1.60921
2.43395 3.66687 -1.60921
2.42195 3.67487 -1.60921
2.40695 3.67587 -1.60621
2.40395 3.69787 -1.61221
2.38695 3.69587 -1.60821
2.37295 3.69987 -1.60721
2.36595 3.70287 -1.60621
2.35995 3.71787 -1.60921
2.33695 3.70787 -1.60121
2.32895 3.72187 -1.60421
2.31595 3.72587 -1.60321
2.30895 3.74087 -1.60721
2.29195 3.73987 -1.60321
2.29695 3.76087 -1.61121
2.27595 3.75387 -1.60421
2.26395 3.75987 -1.60421
2.25395 3.76987 -1.60521
2.23595 3.76687 -1.60121
2.22695 3.77887 -1.60321
2.21095 3.77787 -1.59921
2.20495 3.78187 -1.59921
3.40495 -3.54313 -1.80921
3.41995 -3.53613 -1.81121
3.43595 -3.53113 -1.81421
3.44995 -3.48913 -1.80621
3.46695 -3.48513 -1.80921
3.48195 -3.45613 -1.80621
3.50695 -3.43713 -1.80721
3.59995 -3.31413 -1.80121
3.65195 -3.24613 -1.79821
3.65795 -3.23113 -1.79621
3.67795 -3.22813 -1.80121
3.69195 -3.20013 -1.79821
4.17695 -2.36213 -1.76421
4.18595 -2.35013 -1.76421
4.33495 -2.00413 -1.75521
4.36095 -1.91013 -1.74921
4.37495 -1.88313 -1.75021
4.37695 -1.86813 -1.74821
4.39095 -1.86513 -1.75321
4.38295 -1.84613 -1.74721
4.40295 -1.82213 -1.75121
4.40895 -1.80813 -1.75121
4.41795 -1.79513 -1.75221
4.41695 -1.78713 -1.75121
4.41895 -1.77213 -1.74921
4.41795 -1.75513 -1.74621
4.41995 -1.74013 -1.74521
4.44295 -1.73313 -1.75221
4.42495 -1.71013 -1.74321
4.43395 -1.69713 -1.74421
4.43895 -1.69113 -1.74521
4.45295 -1.68013 -1.74821
4.44795 -1.66313 -1.74421
4.46095 -1.65213 -1.74821
4.46495 -1.63713 -1.74721
4.48195 -1.62713 -1.75221
4.47395 -1.61713 -1.74821
4.46195 -1.59613 -1.74021
4.47195 -1.58413 -1.74321
4.46595 -1.56713 -1.73821
4.47995 -1.55613 -1.74221
4.48695 -1.54213 -1.74321
4.49995 -1.53113 -1.74621
4.50995 -1.52613 -1.74921
4.51595 -1.51313 -1.75021
4.51795 -1.49713 -1.74821
4.50595 -1.47813 -1.74221
4.50195 -1.46113 -1.73821
4.50695 -1.44713 -1.73821
4.52895 -1.43813 -1.74521
4.52795 -1.43013 -1.74421
4.52695 -1.41413 -1.74221
4.51295 -1.39413 -1.73521
4.54595 -1.38913 -1.74621
4.53595 -1.37013 -1.74021
4.53695 -1.35513 -1.73921
4.55595 -1.34513 -1.74521
4.55195 -1.33613 -1.74321
4.52595 -1.31313 -1.73021
4.55195 -1.30513 -1.73921
4.54495 -1.28813 -1.73521
4.55995 -1.27613 -1.73921
4.55495 -1.26013 -1.73521
4.54395 -1.24113 -1.72921
4.54995 -1.23513 -1.73121
4.55695 -1.22213 -1.73221
4.56695 -1.20913 -1.73521
4.56295 -1.19313 -1.73221
4.57595 -1.18113 -1.73521
4.57595 -1.16513 -1.73421
4.56895 -1.15613 -1.73021
4.58295 -1.14413 -1.73521
4.58495 -1.12913 -1.73421
4.59895 -1.11813 -1.73821
4.60995 -1.10513 -1.74121
4.59195 -1.08513 -1.73221
4.60195 -1.07313 -1.73521
4.61295 -1.06713 -1.73921
4.60195 -1.05013 -1.73321
4.61095 -1.03613 -1.73521
4.61195 -1.02113 -1.73521
4.61495 -1.00713 -1.73521
4.62795 -0.994132 -1.73821
4.62295 -0.978132 -1.73521
4.62895 -0.972132 -1.73721
4.61895 -0.955132 -1.73221
4.62995 -0.927132 -1.73421
4.63095 -0.912132 -1.73321
4.61895 -0.887132 -1.72721
3.97395 1.78787 -1.64621
3.96595 1.79887 -1.64521
3.97195 1.81687 -1.65121
3.94995 1.82187 -1.64321
3.93595 1.83087 -1.63921
3.93195 1.84387 -1.64021
3.92095 1.85387 -1.63821
3.91495 1.87387 -1.63921
3.90595 1.88387 -1.63821
3.89595 1.90987 -1.63921
3.88995 1.92187 -1.63921
3.87895 1.93187 -1.63621
3.87595 1.93787 -1.63621
3.75395 2.14187 -1.63221
3.73195 2.17687 -1.63121
3.71395 2.21387 -1.63321
3.70595 2.21687 -1.63021
3.69495 2.24187 -1.63221
3.68195 2.24987 -1.62921
3.66795 2.27287 -1.62921
3.65895 2.28287 -1.62821
3.64095 2.31187 -1.62821
3.62795 2.33587 -1.62921
3.61395 2.34287 -1.62621
3.59695 2.37187 -1.62721
3.58695 2.38187 -1.62521
3.58395 2.39587 -1.62721
3.57495 2.40587 -1.62721
3.56495 2.42387 -1.62721
3.56495 2.43987 -1.63121
3.53995 2.45587 -1.62721
3.51695 2.47287 -1.62321
3.51995 2.49187 -1.62821
3.50795 2.49187 -1.62421
3.50695 2.50687 -1.62721
3.49395 2.51487 -1.62521
3.48295 2.52387 -1.62421
3.47795 2.53687 -1.62521
3.46295 2.54287 -1.62121
3.47095 2.55687 -1.62721
3.45495 2.56187 -1.62421
3.44895 2.57387 -1.62421
3.43895 2.58387 -1.62421
3.43595 2.59787 -1.62621
3.41995 2.60287 -1.62221
3.41795 2.61787 -1.62521
3.41795 2.62687 -1.62721
3.40695 2.63487 -1.62621
3.40095 2.64787 -1.62721
3.39495 2.65987 -1.62821
3.38295 2.66887 -1.62721
3.37795 2.68187 -1.62821
3.36895 2.69187 -1.62821
3.36395 2.69587 -1.62721
3.35095 2.70287 -1.62521
3.35395 2.72287 -1.63121
3.33095 2.72187 -1.62421
3.32695 2.73587 -1.62621
3.31495 2.74387 -1.62421
3.30795 2.75587 -1.62521
3.31095 2.76687 -1.62921
3.30095 2.77587 -1.62821
3.29295 2.78687 -1.62921
3.27895 2.79287 -1.62621
3.27695 2.80887 -1.63021
3.26295 2.81487 -1.62721
3.25495 2.82587 -1.62721
3.25595 2.83587 -1.63021
3.23495 2.83487 -1.62421
3.22595 2.84587 -1.62421
3.22695 2.86387 -1.62921
3.20895 2.86687 -1.62421
3.19895 2.87587 -1.62421
3.20095 2.88687 -1.62721
3.18095 2.88687 -1.62121
3.17595 2.90087 -1.62421
3.17295 2.91587 -1.62721
3.15695 2.91987 -1.62321
3.14695 2.92887 -1.62321
3.14495 2.94587 -1.62721
3.13995 2.95087 -1.62721
3.11995 2.94987 -1.62121
3.12295 2.97187 -1.62721
3.09995 2.96887 -1.62021
3.10295 2.98987 -1.62721
3.09395 2.99987 -1.62721
3.08095 3.00687 -1.62521
3.07095 3.00587 -1.62221
3.06595 3.01987 -1.62421
3.04795 3.02187 -1.62021
3.03495 3.02687 -1.61821
3.03995 3.05087 -1.62621
3.01595 3.04587 -1.61821
3.01395 3.05387 -1.61921
3.01195 3.07087 -1.62421
2.99495 3.07287 -1.61921
2.98695 3.08487 -1.62121
2.98795 3.10487 -1.62721
2.95995 3.09487 -1.61621
2.95295 3.10687 -1.61821
2.94795 3.11187 -1.61821
2.93795 3.12087 -1.61821
2.93095 3.13287 -1.61921
2.92395 3.14487 -1.62121
2.90395 3.14287 -1.61521
2.90195 3.16087 -1.61921
2.89895 3.17787 -1.62421
2.88895 3.17687 -1.62121
2.88395 3.19187 -1.62421
2.86495 3.19087 -1.61821
2.85495 3.19987 -1.61821
2.84395 3.20787 -1.61821
2.83395 3.21587 -1.61821
2.82695 3.22887 -1.62021
2.82395 3.23487 -1.62121
2.81595 3.24687 -1.62221
2.79995 3.24887 -1.61821
2.79295 3.26187 -1.62121
2.77095 3.27787 -1.62021
2.75995 3.28487 -1.61921
2.75295 3.28787 -1.61821
2.74495 3.29987 -1.62021
2.73695 3.31087 -1.62121
2.72295 3.31487 -1.61921
2.71695 3.32787 -1.62121
2.70595 3.33687 -1.62121
2.69695 3.34687 -1.62221
2.69195 3.35087 -1.62221
2.66995 3.36787 -1.62221
2.65895 3.37487 -1.62121
2.64195 3.37587 -1.61821
2.61795 3.39887 -1.61921
2.59995 3.41987 -1.62121
2.58595 3.42387 -1.61921
2.57695 3.43487 -1.62121
2.55995 3.43387 -1.61621
2.56195 3.44787 -1.62121
2.54495 3.44687 -1.61721
2.53195 3.45187 -1.61521
2.52195 3.46187 -1.61621
2.51595 3.47687 -1.62021
2.49795 3.47487 -1.61521
2.48595 3.48087 -1.61421
2.48095 3.48587 -1.61521
2.47395 3.49887 -1.61721
2.46095 3.50287 -1.61521
2.44995 3.51087 -1.61521
2.44095 3.52187 -1.61721
2.43195 3.53287 -1.61821
2.41595 3.53387 -1.61521
2.40995 3.53587 -1.61521
2.39995 3.54487 -1.61521
2.38895 3.55287 -1.61521
2.37695 3.55987 -1.61521
2.36695 3.56887 -1.61621
2.35395 3.57387 -1.61521
2.34295 3.58087 -1.61521
2.33595 3.58287 -1.61421
2.32395 3.58887 -1.61321
2.31795 3.60387 -1.61721
2.30095 3.60387 -1.61321
2.28995 3.61087 -1.61321
2.27195 3.60887 -1.60921
2.26495 3.62187 -1.61221
2.25595 3.62087 -1.60921
2.24595 3.62887 -1.61021
2.23995 3.64387 -1.61421
2.22295 3.64287 -1.61021
2.21595 3.65687 -1.61321
2.20295 3.66187 -1.61221
2.19495 3.66087 -1.61021
2.18295 3.66787 -1.61021
2.16995 3.67087 -1.60921
2.15695 3.67687 -1.60821
2.14595 3.68287 -1.60821
2.13395 3.68987 -1.60821
2.11995 3.69387 -1.60721
2.11695 3.69987 -1.60821
2.10295 3.70287 -1.60721
2.09095 3.70987 -1.60721
2.07995 3.71687 -1.60721
2.06295 3.71487 -1.60321
2.05295 3.72287 -1.60421
2.03995 3.72787 -1.60321
2.03495 3.73287 -1.60421
2.02595 3.74387 -1.60621
2.01295 3.74887 -1.60521
1.99995 3.75187 -1.60421
1.98895 3.75987 -1.60421
1.97295 3.75787 -1.60121
1.96395 3.76987 -1.60421
1.95395 3.76487 -1.60021
1.94595 3.77787 -1.60321
1.93595 3.78687 -1.60421
1.92095 3.78887 -1.60221
1.90995 3.79587 -1.60321
1.89295 3.79187 -1.59821
1.88495 3.80487 -1.60121
1.87795 3.80587 -1.60121
1.86595 3.81187 -1.60121
1.84995 3.81087 -1.59821
1.83895 3.81887 -1.59821
1.82795 3.82587 -1.59921
1.81895 3.83787 -1.60221
1.81095 3.83587 -1.60021
1.80095 3.84687 -1.60221
1.78595 3.84587 -1.59921
1.77595 3.85687 -1.60121
1.75995 3.85387 -1.59821
1.74795 3.85887 -1.59821
1.73695 3.86587 -1.59821
1.73095 3.86887 -1.59821
1.71795 3.87287 -1.59821
3.15995 -3.57513 -1.81321
3.17195 -3.56613 -1.81321
3.17495 -3.55813 -1.81221
3.18495 -3.54713 -1.81121
3.19895 -3.54013 -1.81321
3.20995 -3.53013 -1.81321
3.21795 -3.51713 -1.81121
3.23095 -3.50813 -1.81221
3.23495 -3.49113 -1.80821
3.23795 -3.48313 -1.80721
3.26095 -3.48513 -1.81321
3.28795 -3.44913 -1.81021
3.29695 -3.42513 -1.80621
3.30595 -3.41413 -1.80521
3.32595 -3.39213 -1.80421
3.33595 -3.38013 -1.80421
3.35695 -3.35913 -1.80421
3.36895 -3.33913 -1.80221
3.39195 -3.32013 -1.80321
3.41695 -3.28213 -1.79921
3.42095 -3.27513 -1.79921
3.43395 -3.26713 -1.80021
3.43995 -3.25213 -1.79821
3.49995 -3.17613 -1.79521
3.52695 -3.16113 -1.79921
3.54495 -3.12713 -1.79521
3.56995 -3.08913 -1.79321
3.58895 -3.06713 -1.79321
3.59495 -3.06213 -1.79321
3.60895 -3.03513 -1.79021
3.62295 -3.02713 -1.79321
3.62795 -3.01213 -1.79021
3.64495 -2.99713 -1.79221
3.66695 -2.95813 -1.78921
3.68995 -2.93913 -1.79121
3.68895 -2.91913 -1.78621
3.69795 -2.91713 -1.78821
3.71895 -2.89613 -1.79021
3.71895 -2.87713 -1.78521
3.74195 -2.85713 -1.78721
3.74495 -2.84113 -1.78421
3.74795 -2.83413 -1.78421
3.75495 -2.82113 -1.78321
3.77395 -2.79813 -1.78421
3.79095 -2.79213 -1.78721
3.78595 -2.77013 -1.78121
3.81095 -2.76113 -1.78721
3.81495 -2.72713 -1.78021
3.83195 -2.72213 -1.78421
3.84095 -2.68313 -1.77821
3.84795 -2.67013 -1.77821
3.85795 -2.65913 -1.77821
3.86395 -2.64513 -1.77721
3.86895 -2.63013 -1.77521
3.88495 -2.60613 -1.77521
3.88795 -2.59913 -1.77521
3.89595 -2.58713 -1.77521
3.90695 -2.57613 -1.77621
3.92195 -2.55113 -1.77521
3.93595 -2.54213 -1.77821
3.92595 -2.52713 -1.77221
3.95295 -2.51013 -1.77721
3.95895 -2.49613 -1.77621
3.95395 -2.47613 -1.77021
3.96195 -2.46313 -1.77021
3.96595 -2.44913 -1.76921
3.97295 -2.44513 -1.77021
3.97995 -2.43113 -1.76921
3.98895 -2.42013 -1.77021
3.99195 -2.40413 -1.76821
4.00195 -2.39313 -1.76921
4.00795 -2.38013 -1.76921
4.01595 -2.36713 -1.76921
4.01595 -2.35913 -1.76721
4.03195 -2.35113 -1.77121
4.04295 -2.32413 -1.76921
4.04595 -2.30813 -1.76721
4.05095 -2.29513 -1.76621
4.05995 -2.28313 -1.76721
4.06695 -2.27813 -1.76921
4.06595 -2.26113 -1.76521
4.07495 -2.24913 -1.76621
4.07695 -2.23413 -1.76321
4.09295 -2.22613 -1.76821
4.09095 -2.20813 -1.76321
4.10095 -2.20513 -1.76621
4.14495 -2.12913 -1.76821
4.14195 -2.10313 -1.76221
4.15295 -2.09213 -1.76421
4.15495 -2.07713 -1.76221
4.16895 -2.06813 -1.76621
4.16795 -2.05113 -1.76221
4.16695 -2.03413 -1.75921
4.17595 -2.03013 -1.76121
4.17895 -2.01513 -1.76021
4.18795 -2.00413 -1.76121
4.19595 -1.99213 -1.76221
4.19695 -1.97613 -1.76021
4.20495 -1.96413 -1.76021
4.20695 -1.95613 -1.76021
4.22495 -1.94813 -1.76521
4.21195 -1.92713 -1.75721
4.21495 -1.91213 -1.75521
4.23595 -1.90513 -1.76221
4.23895 -1.89113 -1.76021
4.23795 -1.87413 -1.75721
4.24195 -1.86813 -1.75821
4.24995 -1.85613 -1.75921
4.25195 -1.84113 -1.75721
4.26095 -1.82913 -1.75921
4.25995 -1.81313 -1.75621
4.27495 -1.80313 -1.76021
4.27195 -1.79413 -1.75721
4.28795 -1.78513 -1.76221
4.28695 -1.76913 -1.75921
4.28595 -1.75213 -1.75621
4.29995 -1.74213 -1.76021
4.28995 -1.72213 -1.75321
4.29995 -1.71113 -1.75521
4.29895 -1.70313 -1.75421
4.32195 -1.69613 -1.76121
4.31895 -1.67913 -1.75721
4.31695 -1.66313 -1.75421
4.32895 -1.65213 -1.75721
4.32395 -1.63513 -1.75321
4.33095 -1.62213 -1.75421
4.33995 -1.61713 -1.75721
4.32395 -1.59613 -1.74821
4.34195 -1.58713 -1.75321
4.35895 -1.57813 -1.75821
4.35195 -1.56013 -1.75321
4.35795 -1.54713 -1.75421
4.35795 -1.52313 -1.75121
4.36095 -1.50913 -1.75021
4.38295 -1.48613 -1.75521
4.38395 -1.47113 -1.75421
4.38495 -1.44013 -1.75021
4.38995 -1.43513 -1.75121
4.39395 -1.40513 -1.74921
4.39795 -1.39213 -1.74921
4.41095 -1.36513 -1.75121
4.41095 -1.35813 -1.75021
4.41595 -1.32913 -1.74821
4.42895 -1.27213 -1.74721
4.42695 -1.24913 -1.74421
4.42995 -1.16813 -1.73721
4.45595 -1.13013 -1.74221
3.85595 1.78087 -1.64521
3.84895 1.80787 -1.64821
3.83695 1.81687 -1.64521
3.81995 1.83087 -1.64121
3.82095 1.84587 -1.64421
3.80095 1.86587 -1.64021
3.71795 2.00187 -1.63521
3.61695 2.15787 -1.63121
3.60295 2.18087 -1.63121
3.58395 2.22287 -1.63321
3.55895 2.24587 -1.62921
3.54395 2.26887 -1.62921
3.53995 2.28187 -1.63121
3.52895 2.28987 -1.62921
3.51895 2.31487 -1.63121
3.51395 2.31887 -1.63021
3.51095 2.33387 -1.63221
3.50195 2.34387 -1.63221
3.49195 2.35287 -1.63021
3.47495 2.37287 -1.62921
3.46895 2.38487 -1.63021
3.46495 2.39087 -1.63021
3.46095 2.40387 -1.63221
3.44695 2.40987 -1.62921
3.44595 2.42487 -1.63221
3.42795 2.42887 -1.62621
3.43195 2.44787 -1.63221
3.42695 2.46087 -1.63421
3.40695 2.45387 -1.62621
3.40195 2.46687 -1.62721
3.38395 2.48587 -1.62621
3.37895 2.49887 -1.62721
3.37495 2.51287 -1.62921
3.35895 2.51687 -1.62521
3.36095 2.52687 -1.62821
3.34795 2.53387 -1.62621
3.34195 2.54587 -1.62621
3.33695 2.55787 -1.62821
3.33395 2.57287 -1.63121
3.31295 2.57387 -1.62421
3.31295 2.58187 -1.62621
3.29695 2.58587 -1.62221
3.28995 2.59687 -1.62321
3.27795 2.62087 -1.62521
3.27095 2.63287 -1.62621
3.26295 2.64287 -1.62621
3.25895 2.64787 -1.62621
3.25195 2.65987 -1.62621
3.24495 2.67087 -1.62721
3.23795 2.68187 -1.62821
3.21795 2.68287 -1.62221
3.21495 2.69787 -1.62521
3.20795 2.70887 -1.62621
3.20095 2.71187 -1.62421
3.19495 2.72387 -1.62621
3.17995 2.72787 -1.62221
3.17495 2.74187 -1.62421
3.17095 2.75487 -1.62621
3.16795 2.76987 -1.62921
3.15595 2.76887 -1.62621
3.14595 2.77787 -1.62521
3.13095 2.78187 -1.62121
3.12195 2.79087 -1.62121
3.11095 2.79887 -1.61921
3.11095 2.81687 -1.62521
3.09595 2.82087 -1.62121
3.08295 2.81787 -1.61621
3.09195 2.84387 -1.62621
3.06795 2.83987 -1.61821
3.06995 2.85987 -1.62421
3.06195 2.86987 -1.62521
3.04195 2.86987 -1.61921
3.02695 2.87287 -1.61521
3.03695 2.89187 -1.62321
3.01395 2.88887 -1.61621
3.01595 2.90787 -1.62221
3.00195 2.91287 -1.61921
2.98695 2.91687 -1.61621
2.98095 2.92887 -1.61721
2.97295 2.93887 -1.61821
2.97095 2.94687 -1.61921
2.95995 2.95487 -1.61921
2.94795 2.96087 -1.61721
2.94095 2.97287 -1.61921
2.93795 2.98887 -1.62321
2.91595 2.98487 -1.61521
2.91495 3.00187 -1.61921
2.91195 3.00887 -1.62121
2.90495 3.02087 -1.62321
2.88595 3.01987 -1.61621
2.88995 3.04387 -1.62521
2.87895 3.05087 -1.62421
2.87495 3.06587 -1.62721
2.84595 3.05387 -1.61621
2.85795 3.07587 -1.62621
2.83395 3.06987 -1.61721
2.82095 3.09487 -1.62121
2.81795 3.11087 -1.62521
2.80095 3.11087 -1.62021
2.79095 3.10987 -1.61721
2.78795 3.12687 -1.62221
2.76495 3.12087 -1.61321
2.76395 3.13887 -1.61921
2.75595 3.15087 -1.62021
2.74295 3.15487 -1.61821
2.74195 3.17487 -1.62421
2.72895 3.16887 -1.61921
2.73195 3.19287 -1.62721
2.71095 3.18887 -1.62021
2.70995 3.20787 -1.62621
2.69095 3.20587 -1.62021
2.67395 3.20587 -1.61621
2.66295 3.21287 -1.61521
2.65695 3.21587 -1.61421
2.65895 3.23987 -1.62321
2.63995 3.23687 -1.61621
2.64095 3.25887 -1.62421
2.62495 3.25987 -1.62021
2.61695 3.27187 -1.62221
2.59995 3.27087 -1.61721
2.59195 3.27087 -1.61521
2.59295 3.29387 -1.62321
2.57595 3.29287 -1.61821
2.56695 3.30387 -1.61921
2.55695 3.31187 -1.61921
2.53895 3.30987 -1.61421
2.53295 3.32387 -1.61721
2.53695 3.33887 -1.62321
2.51895 3.33787 -1.61921
2.50895 3.34587 -1.61921
2.49395 3.34787 -1.61621
2.47995 3.35187 -1.61321
2.47195 3.36187 -1.61521
2.46995 3.38187 -1.62121
2.45395 3.37087 -1.61321
2.45195 3.39087 -1.61921
2.43395 3.38787 -1.61421
2.42195 3.39387 -1.61321
2.41895 3.41187 -1.61921
2.40095 3.40887 -1.61321
2.39795 3.41687 -1.61621
2.38695 3.42287 -1.61521
2.37695 3.43187 -1.61621
2.36695 3.44087 -1.61621
2.34895 3.43787 -1.61121
2.34395 3.45487 -1.61621
2.32495 3.44987 -1.61021
2.32895 3.46687 -1.61621
2.31495 3.46987 -1.61421
2.30295 3.47587 -1.61321
2.28995 3.47987 -1.61221
2.28695 3.49887 -1.61821
2.26895 3.49587 -1.61321
2.25895 3.50387 -1.61321
2.25295 3.50587 -1.61321
2.24395 3.51587 -1.61421
2.22395 3.50887 -1.60721
2.21795 3.52387 -1.61121
2.20295 3.52487 -1.60821
2.20195 3.54887 -1.61621
2.18995 3.55387 -1.61621
2.17195 3.53687 -1.60621
2.16195 3.54587 -1.60621
2.14895 3.54887 -1.60521
2.13795 3.55587 -1.60521
2.13095 3.57087 -1.60921
2.11595 3.57087 -1.60621
2.10595 3.59187 -1.61121
2.08895 3.58887 -1.60621
2.07495 3.59087 -1.60421
2.06395 3.59687 -1.60421
2.05395 3.60687 -1.60621
2.03895 3.60487 -1.60221
2.03395 3.60987 -1.60321
2.02595 3.62287 -1.60621
2.00995 3.62087 -1.60221
2.00495 3.63887 -1.60721
1.98795 3.63487 -1.60321
1.96895 3.65387 -1.60621
1.95795 3.64787 -1.60121
1.95295 3.66687 -1.60721
1.94295 3.67487 -1.60821
1.92895 3.67587 -1.60621
1.91395 3.67487 -1.60321
1.90795 3.69287 -1.60821
1.88995 3.68687 -1.60321
1.88595 3.70787 -1.61021
1.87595 3.70087 -1.60521
1.86295 3.70487 -1.60421
1.85095 3.71087 -1.60421
1.83795 3.71387 -1.60321
1.82895 3.72387 -1.60521
1.81795 3.73187 -1.60621
1.81095 3.73087 -1.60421
1.79695 3.73387 -1.60321
1.78695 3.74187 -1.60421
1.77695 3.75087 -1.60621
1.76495 3.75687 -1.60621
1.75795 3.77287 -1.61021
1.74395 3.77287 -1.60821
1.73495 3.76887 -1.60521
1.72395 3.77787 -1.60621
1.70895 3.77487 -1.60321
1.70395 3.79687 -1.61021
1.68495 3.78487 -1.60321
1.67095 3.78587 -1.60021
1.65395 3.79487 -1.60121
1.62395 3.82587 -1.60821
1.60795 3.82087 -1.60321
1.59995 3.83587 -1.60821
1.58595 3.83587 -1.60621
1.58495 3.84987 -1.61121
1.56895 3.84687 -1.60721
1.55495 3.84487 -1.60421
1.53795 3.83887 -1.60021
1.44895 3.87787 -1.60121
1.44095 3.89487 -1.60621
1.42395 3.88487 -1.60021
1.42195 3.89987 -1.60621
1.41095 3.90787 -1.60721
1.39195 3.89287 -1.59921
1.37995 3.89687 -1.59921
1.37395 3.91887 -1.60621
1.35595 3.90787 -1.60021
1.35295 3.91887 -1.60321
1.34195 3.92787 -1.60621
1.32895 3.92887 -1.60421
1.31395 3.92587 -1.60121
1.30695 3.94587 -1.60821
1.29295 3.94487 -1.60621
1.28095 3.94987 -1.60621
1.27495 3.95387 -1.60721
1.26395 3.96287 -1.61021
1.24795 3.95487 -1.60421
1.23895 3.96987 -1.60921
1.22595 3.97187 -1.60821
1.21295 3.97387 -1.60721
1.20495 3.99187 -1.61321
1.19395 3.97887 -1.60721
1.17595 3.96487 -1.60021
1.16695 3.97787 -1.60321
1.15595 3.98887 -1.60621
1.14295 3.98987 -1.60621
1.12995 3.99387 -1.60621
1.11695 3.99387 -1.60421
1.11395 4.00787 -1.61021
1.09995 4.00587 -1.60721
1.08795 4.01187 -1.60821
1.07595 4.01687 -1.60921
1.05895 4.00387 -1.60221
1.04895 4.01587 -1.60621
1.03495 4.01387 -1.60321
1.03195 4.03187 -1.61021
1.01895 4.03187 -1.60921
1.00495 4.03087 -1.60721
0.991949 4.03087 -1.60621
0.979949 4.03587 -1.60621
0.965949 4.03687 -1.60621
0.952949 4.03587 -1.60421
0.946949 4.03787 -1.60421
0.934949 4.04587 -1.60621
0.922949 4.05287 -1.60821
0.909949 4.05387 -1.60721
0.894949 4.04587 -1.60321
0.884949 4.05887 -1.60721
0.871949 4.06187 -1.60721
0.865949 4.06487 -1.60821
0.851949 4.06387 -1.60621
0.840949 4.07587 -1.61021
0.826949 4.07087 -1.60721
0.814949 4.07787 -1.60921
0.802949 4.08387 -1.61021
0.787949 4.07687 -1.60621
0.781949 4.07887 -1.60621
0.769949 4.08587 -1.60921
0.753949 4.07087 -1.60121
0.743949 4.09087 -1.60921
0.729949 4.08287 -1.60421
0.717949 4.08987 -1.60621
0.710949 4.08787 -1.60521
0.697949 4.08987 -1.60521
0.684949 4.09387 -1.60621
0.672949 4.09587 -1.60621
0.659949 4.09787 -1.60621
0.647949 4.10587 -1.60821
0.634949 4.10987 -1.60921
0.620949 4.10387 -1.60621
0.612949 4.09387 -1.60121
0.599949 4.09587 -1.60121
0.587949 4.10487 -1.60421
0.575949 4.10887 -1.60521
0.561949 4.10887 -1.60421
0.548949 4.10487 -1.60221
0.541949 4.10087 -1.60021
0.529949 4.11487 -1.60521
0.516949 4.11287 -1.60321
0.504949 4.11787 -1.60521
0.490949 4.11787 -1.60421
0.477949 4.11387 -1.60221
0.464949 4.11687 -1.60321
0.460949 4.13787 -1.61121
0.446949 4.12887 -1.60621
0.433949 4.13187 -1.60721
0.419949 4.12587 -1.60421
0.407949 4.13087 -1.60621
0.394949 4.13587 -1.60721
0.380949 4.13187 -1.60521
0.374949 4.13387 -1.60621
0.361949 4.13887 -1.60721
0.347949 4.12887 -1.60321
0.335949 4.13487 -1.60521
0.322949 4.13287 -1.60321
0.308949 4.12787 -1.60121
0.290949 4.14787 -1.60921
0.276949 4.13987 -1.60521
0.264949 4.14987 -1.60921
0.251949 4.14287 -1.60621
0.237949 4.13687 -1.60321
0.224949 4.13887 -1.60321
0.212949 4.15287 -1.60921
0.205949 4.15087 -1.60821
0.192949 4.15187 -1.60821
0.179949 4.13787 -1.60221
0.166949 4.14587 -1.60521
0.153949 4.14287 -1.60321
0.140949 4.15787 -1.61021
0.127949 4.15787 -1.61021
0.120949 4.15687 -1.60921
0.107949 4.14987 -1.60621
0.0949491 4.14387 -1.60321
0.0819491 4.14787 -1.60521
0.0689491 4.15187 -1.60621
0.0559491 4.14287 -1.60321
0.0499491 4.15587 -1.60821
0.0359491 4.14487 -1.60321
0.0229491 4.15087 -1.60621
0.00994912 4.15487 -1.60721
3.05495 -3.52313 -1.81721
3.06195 -3.51913 -1.81821
3.07195 -3.50813 -1.81721
3.08695 -3.50313 -1.81921
3.08895 -3.48313 -1.81421
3.09695 -3.47113 -1.81321
3.10595 -3.45813 -1.81121
3.12195 -3.45413 -1.81421
3.12395 -3.44613 -1.81321
3.12995 -3.43113 -1.81021
3.13495 -3.41513 -1.80621
3.15395 -3.41413 -1.81121
3.15495 -3.39313 -1.80521
3.17095 -3.38913 -1.80821
3.18295 -3.38013 -1.80921
3.19295 -3.38113 -1.81221
3.20895 -3.35513 -1.80921
3.21795 -3.34413 -1.80821
3.22195 -3.32713 -1.80421
3.23095 -3.31613 -1.80321
3.23895 -3.31313 -1.80521
3.24595 -3.29913 -1.80321
3.26295 -3.29513 -1.80621
3.26795 -3.28013 -1.80321
3.28195 -3.27313 -1.80621
3.28195 -3.25313 -1.80021
3.30095 -3.24113 -1.80221
3.31095 -3.23113 -1.80221
3.32095 -3.22013 -1.80221
3.32895 -3.20713 -1.80021
3.34295 -3.18113 -1.79721
3.35395 -3.18113 -1.80021
3.35995 -3.16713 -1.79821
3.37095 -3.15713 -1.79921
3.38495 -3.15113 -1.80121
3.38795 -3.13413 -1.79721
3.40995 -3.11513 -1.79921
3.41695 -3.09113 -1.79421
3.43495 -3.08813 -1.79921
3.44595 -3.07813 -1.80021
3.44595 -3.05913 -1.79421
3.45895 -3.05213 -1.79721
3.46195 -3.03513 -1.79321
3.47195 -3.03413 -1.79621
3.48195 -3.02313 -1.79621
3.48695 -3.00913 -1.79321
3.50295 -2.98413 -1.79221
3.51395 -2.97513 -1.79321
3.51895 -2.95113 -1.78821
3.53295 -2.94313 -1.79021
3.54495 -2.93513 -1.79221
3.54695 -2.91813 -1.78821
3.55895 -2.90913 -1.79021
3.57095 -2.90013 -1.79121
3.56695 -2.88713 -1.78721
3.57595 -2.87613 -1.78721
3.58895 -2.86813 -1.78921
3.59495 -2.85513 -1.78721
3.60095 -2.84113 -1.78621
3.61195 -2.83113 -1.78721
3.62495 -2.82313 -1.78921
3.62195 -2.81213 -1.78521
3.63095 -2.80013 -1.78521
3.64095 -2.79013 -1.78621
3.65295 -2.78113 -1.78721
3.65995 -2.76813 -1.78721
3.66595 -2.75413 -1.78521
3.66395 -2.74413 -1.78221
3.67595 -2.73513 -1.78421
3.71195 -2.72613 -1.79321
3.69795 -2.69813 -1.78221
3.70095 -2.68213 -1.77921
3.70795 -2.66913 -1.77821
3.71495 -2.66613 -1.78021
3.71695 -2.65013 -1.77721
3.72695 -2.63913 -1.77721
3.74095 -2.63213 -1.78121
3.74095 -2.61413 -1.77621
3.76595 -2.61313 -1.78421
3.76795 -2.59713 -1.78121
3.77495 -2.57613 -1.77921
3.77895 -2.56113 -1.77721
3.78095 -2.54513 -1.77421
3.80095 -2.54213 -1.78021
3.80995 -2.53113 -1.78121
3.80395 -2.51013 -1.77421
3.81895 -2.51113 -1.77921
3.82095 -2.49513 -1.77621
3.83795 -2.48913 -1.78121
3.82895 -2.46613 -1.77221
3.84395 -2.45913 -1.77621
3.85195 -2.44713 -1.77621
3.86495 -2.44613 -1.78121
3.87595 -2.43613 -1.78221
3.86295 -2.41113 -1.77221
3.87995 -2.40513 -1.77721
3.88795 -2.39313 -1.77721
3.88395 -2.37413 -1.77121
3.89495 -2.36413 -1.77321
3.90495 -2.36113 -1.77621
3.91195 -2.34913 -1.77621
3.90795 -2.33013 -1.77121
3.91895 -2.32013 -1.77221
3.92295 -2.30513 -1.77121
3.92995 -2.29313 -1.77121
3.93895 -2.28213 -1.77121
3.94595 -2.27713 -1.77321
3.94995 -2.26313 -1.77121
3.96195 -2.25313 -1.77421
3.95695 -2.23513 -1.76821
3.98195 -2.23213 -1.77721
3.97895 -2.21413 -1.77221
3.97295 -2.20313 -1.76821
3.98495 -2.19313 -1.77021
3.98895 -2.16213 -1.76521
4.01195 -2.15913 -1.77321
4.01495 -2.14413 -1.77121
4.02195 -2.12413 -1.77021
4.02195 -2.10813 -1.76721
4.03695 -2.08313 -1.76821
4.04395 -2.07013 -1.76821
4.04995 -2.05813 -1.76821
4.05795 -2.05413 -1.77021
4.05795 -2.03813 -1.76721
4.06595 -2.02613 -1.76821
4.07395 -2.01413 -1.76821
4.06995 -1.99613 -1.76421
4.08795 -1.98913 -1.76921
4.08595 -1.97213 -1.76521
4.08395 -1.96313 -1.76321
4.10195 -1.95613 -1.76821
4.11495 -1.94613 -1.77121
4.10595 -1.92613 -1.76421
4.11395 -1.91413 -1.76521
4.11595 -1.90013 -1.76421
4.12895 -1.89013 -1.76721
4.13395 -1.88413 -1.76821
4.12895 -1.86713 -1.76321
4.14595 -1.84313 -1.76521
4.13995 -1.82513 -1.76021
4.14895 -1.81313 -1.76121
4.16295 -1.80413 -1.76521
4.15395 -1.79213 -1.76021
4.15295 -1.77613 -1.75721
4.16895 -1.76713 -1.76121
4.16595 -1.75113 -1.75821
4.17795 -1.74013 -1.76121
4.18495 -1.72813 -1.76121
4.17995 -1.71113 -1.75721
4.17495 -1.70113 -1.75321
4.19695 -1.69413 -1.76121
4.18995 -1.67613 -1.75521
4.20295 -1.66613 -1.75821
4.21095 -1.65413 -1.76021
4.20595 -1.63713 -1.75521
4.21395 -1.63213 -1.75821
4.21695 -1.61813 -1.75721
4.20995 -1.60113 -1.75221
4.23095 -1.59313 -1.75821
4.23195 -1.57913 -1.75721
4.23395 -1.56413 -1.75521
4.23995 -1.55113 -1.75621
4.24395 -1.54513 -1.75721
4.22995 -1.52513 -1.74821
4.25195 -1.51813 -1.75621
4.24995 -1.50213 -1.75321
4.25295 -1.48813 -1.75221
4.25895 -1.47513 -1.75321
4.26795 -1.46313 -1.75521
4.25795 -1.45213 -1.74921
4.26395 -1.44013 -1.75021
4.26695 -1.42613 -1.74921
4.28695 -1.38813 -1.75221
4.28395 -1.37913 -1.75021
4.28095 -1.36413 -1.74721
4.29795 -1.35413 -1.75221
4.29695 -1.33913 -1.75021
4.29195 -1.32313 -1.74621
4.30095 -1.31113 -1.74821
4.30695 -1.29813 -1.74921
4.30795 -1.29013 -1.74821
4.32295 -1.23613 -1.74821
4.31995 -1.22113 -1.74521
4.31695 -1.20513 -1.74221
4.31995 -1.19913 -1.74321
4.33495 -1.17313 -1.74621
4.34095 -1.14613 -1.74521
4.33695 -1.13013 -1.74221
4.33495 -1.10813 -1.73921
3.72595 1.82587 -1.64121
3.71695 1.84287 -1.64121
3.51495 2.16187 -1.63221
3.45395 2.26187 -1.63221
3.43695 2.28187 -1.63121
3.42395 2.30387 -1.63221
3.37595 2.35787 -1.62821
3.36695 2.37487 -1.62821
3.31695 2.44287 -1.62821
3.24995 2.51387 -1.62421
3.22495 2.54287 -1.62321
3.22795 2.56187 -1.62921
3.20595 2.56987 -1.62421
3.17195 2.60787 -1.62321
3.13195 2.65087 -1.62121
3.10095 2.68387 -1.62121
3.06695 2.73887 -1.62521
3.04695 2.74787 -1.62121
3.03495 2.75387 -1.61921
3.02995 2.76687 -1.62121
3.00995 2.78287 -1.62021
2.99695 2.78887 -1.61821
2.97395 2.81087 -1.61721
2.96795 2.82287 -1.61821
2.95995 2.83387 -1.61921
2.94195 2.85187 -1.61921
2.93095 2.85887 -1.61821
2.93295 2.86987 -1.62121
2.91995 2.87487 -1.61921
2.87695 2.90487 -1.61521
2.88395 2.92087 -1.62221
2.86295 2.93687 -1.62121
2.82495 2.95287 -1.61421
2.80995 2.96487 -1.61421
2.77495 3.00287 -1.61521
2.74995 3.02287 -1.61421
2.72895 3.03887 -1.61421
2.71895 3.04587 -1.61321
2.71395 3.05987 -1.61621
2.70095 3.06487 -1.61421
2.67395 3.08287 -1.61221
2.65495 3.09987 -1.61221
2.65095 3.11487 -1.61621
2.63595 3.11787 -1.61321
2.63595 3.13687 -1.61921
2.62395 3.13287 -1.61421
2.62095 3.14987 -1.61921
2.60295 3.14787 -1.61421
2.59295 3.15587 -1.61421
2.57995 3.15987 -1.61121
2.57595 3.17487 -1.61521
2.56295 3.17987 -1.61421
2.55595 3.18187 -1.61221
2.54995 3.19387 -1.61421
2.54095 3.20287 -1.61521
2.53295 3.21387 -1.61721
2.52295 3.22187 -1.61721
2.50095 3.21587 -1.60921
2.49795 3.22187 -1.61121
2.49695 3.24187 -1.61721
2.48195 3.24187 -1.61321
2.47095 3.24987 -1.61321
2.46795 3.26687 -1.61821
2.46495 3.28487 -1.62321
2.43895 3.27187 -1.61221
2.43395 3.27587 -1.61221
2.41995 3.27687 -1.60921
2.41295 3.28887 -1.61121
2.40395 3.29987 -1.61321
2.39095 3.30287 -1.61121
2.37695 3.30587 -1.60821
2.37095 3.31887 -1.61121
2.36795 3.32587 -1.61321
2.35295 3.32787 -1.61021
2.34695 3.34087 -1.61321
2.33495 3.34687 -1.61221
2.33395 3.36787 -1.61921
2.31295 3.35987 -1.61121
2.30195 3.36587 -1.61121
2.29495 3.36787 -1.61021
2.28595 3.37587 -1.61121
2.26995 3.37587 -1.60721
2.26295 3.38787 -1.60921
2.25395 3.39787 -1.61121
2.24195 3.40287 -1.61021
2.23395 3.41387 -1.61121
2.22295 3.40887 -1.60721
2.21995 3.42887 -1.61421
2.20095 3.42187 -1.60721
2.19495 3.43587 -1.61121
2.18695 3.44787 -1.61321
2.16795 3.45287 -1.61121
2.14395 3.46387 -1.60921
2.12895 3.46387 -1.60621
2.12395 3.47987 -1.61121
2.10795 3.47787 -1.60621
2.09895 3.48687 -1.60721
2.08995 3.48587 -1.60521
2.08095 3.49587 -1.60721
2.06995 3.50187 -1.60721
2.05995 3.50987 -1.60721
2.04695 3.51387 -1.60621
2.02695 3.52987 -1.60721
2.01395 3.53287 -1.60621
2.00795 3.53587 -1.60621
1.99695 3.54187 -1.60621
1.98395 3.54487 -1.60421
1.97295 3.55087 -1.60421
1.96295 3.55887 -1.60521
1.95295 3.56887 -1.60721
1.93495 3.57487 -1.60521
1.92395 3.58087 -1.60521
1.91195 3.58687 -1.60521
1.90095 3.59287 -1.60521
1.88895 3.59687 -1.60421
1.87795 3.60387 -1.60521
1.87395 3.60887 -1.60621
1.86095 3.61287 -1.60521
1.84995 3.61887 -1.60521
1.83595 3.61987 -1.60321
1.82695 3.63087 -1.60521
1.81395 3.63287 -1.60421
1.80295 3.63887 -1.60421
1.79995 3.64687 -1.60621
1.78495 3.64587 -1.60321
1.76195 3.65687 -1.60321
1.75395 3.66887 -1.60621
1.73195 3.68287 -1.60721
1.72595 3.68387 -1.60721
1.68695 3.69187 -1.60321
