4.41806 -2.05711 -1.74148
4.42805 -2.04511 -1.74248
4.44105 -2.03411 -1.74548
4.44405 -2.01911 -1.74448
4.43905 -2.00811 -1.74048
4.44305 -1.99311 -1.73948
4.45005 -1.97911 -1.73948
4.45106 -1.96311 -1.73748
4.46905 -1.95411 -1.74248
4.47806 -1.94111 -1.74448
4.47106 -1.92111 -1.73848
4.48105 -1.91711 -1.74148
4.48305 -1.90211 -1.73948
4.48205 -1.88511 -1.73748
4.49805 -1.87511 -1.74148
4.51105 -1.86411 -1.74448
4.50005 -1.84211 -1.73748
4.51105 -1.83911 -1.74048
4.50805 -1.82111 -1.73748
4.51905 -1.80911 -1.73948
4.51105 -1.78911 -1.73348
4.52905 -1.78011 -1.73848
4.52905 -1.76411 -1.73648
4.54505 -1.75411 -1.74048
4.53405 -1.74111 -1.73448
4.54505 -1.72911 -1.73748
4.54306 -1.71211 -1.73448
4.55905 -1.70211 -1.73848
4.55405 -1.68311 -1.73448
4.55205 -1.66611 -1.73148
4.56605 -1.65511 -1.73448
4.55505 -1.64311 -1.72948
4.56705 -1.63111 -1.73248
4.57006 -1.61611 -1.73148
4.58205 -1.60411 -1.73448
4.58405 -1.58911 -1.73248
4.59606 -1.57711 -1.73548
4.59005 -1.55911 -1.73148
4.60805 -1.55711 -1.73748
4.59405 -1.53611 -1.73048
4.60206 -1.52311 -1.73148
4.59606 -1.50511 -1.72748
4.60605 -1.49211 -1.72948
4.60906 -1.47711 -1.72848
4.61905 -1.47211 -1.73148
4.60906 -1.45311 -1.72548
4.62605 -1.44211 -1.73048
4.62906 -1.42711 -1.73048
4.63305 -1.41311 -1.73048
4.63205 -1.39611 -1.72748
4.64605 -1.38511 -1.73148
4.63905 -1.37511 -1.72748
4.63805 -1.35811 -1.72548
4.63705 -1.34211 -1.72348
4.64405 -1.32911 -1.72548
4.64305 -1.31211 -1.72248
4.65605 -1.30011 -1.72648
4.65305 -1.29211 -1.72448
4.65105 -1.27511 -1.72248
4.66105 -1.26211 -1.72448
4.67405 -1.25011 -1.72748
4.68705 -1.23811 -1.73148
4.67605 -1.21911 -1.72548
4.67805 -1.20411 -1.72548
4.67605 -1.19611 -1.72348
4.69105 -1.18411 -1.72748
4.68405 -1.16611 -1.72348
4.69305 -1.15311 -1.72548
4.70405 -1.14011 -1.72848
4.70405 -1.12411 -1.72748
4.70505 -1.10911 -1.72648
4.70905 -1.08711 -1.72548
4.72005 -1.02711 -1.72548
4.74706 -0.831111 -1.72048
4.24005 1.54189 -1.65248
4.22106 1.54989 -1.64648
4.20705 1.55989 -1.64248
4.18005 1.57989 -1.63548
3.47906 2.67189 -1.60348
3.31405 2.84789 -1.59648
3.31405 2.86589 -1.60148
3.30306 2.86589 -1.59848
3.27606 2.89689 -1.59848
3.26206 2.90289 -1.59548
3.25706 2.91689 -1.59748
3.25306 2.93189 -1.60048
3.23606 2.92589 -1.59348
3.23206 2.94089 -1.59648
3.22006 2.94789 -1.59548
3.20806 2.95589 -1.59348
3.20906 2.97489 -1.59948
3.18806 2.97489 -1.59348
3.17905 2.98489 -1.59348
3.18006 2.99489 -1.59648
3.16106 2.99589 -1.59148
3.16106 3.01489 -1.59648
3.15406 3.02689 -1.59748
3.13406 3.02689 -1.59148
3.12706 3.03889 -1.59348
3.13006 3.05189 -1.59748
3.11406 3.05489 -1.59348
3.10306 3.06389 -1.59348
3.09906 3.07889 -1.59648
3.08806 3.08689 -1.59548
3.08306 3.10189 -1.59848
3.06906 3.10789 -1.59648
3.06306 3.11089 -1.59548
3.05006 3.11689 -1.59348
3.04606 3.13289 -1.59648
3.03906 3.14489 -1.59848
3.01506 3.13989 -1.59048
3.01506 3.15989 -1.59648
3.00606 3.16089 -1.59348
2.99406 3.16789 -1.59248
2.99206 3.18489 -1.59648
2.97505 3.18789 -1.59348
2.96806 3.19989 -1.59448
2.96306 3.21489 -1.59748
2.94106 3.21189 -1.59148
2.94306 3.22289 -1.59448
2.94106 3.24189 -1.59948
2.92806 3.24889 -1.59848
2.91306 3.25189 -1.59548
2.90206 3.25989 -1.59448
2.88206 3.25789 -1.58848
2.88406 3.28089 -1.59648
2.88006 3.28689 -1.59648
2.86206 3.28689 -1.59248
2.85406 3.29889 -1.59348
2.84005 3.30389 -1.59148
2.82405 3.30589 -1.58848
2.83106 3.33589 -1.59948
2.80705 3.32789 -1.59048
2.81006 3.34189 -1.59548
2.80006 3.35189 -1.59648
2.78306 3.35189 -1.59148
2.78506 3.37689 -1.59948
2.75906 3.36689 -1.59048
2.76105 3.39189 -1.59848
2.73106 3.37489 -1.58548
2.74406 3.40289 -1.59748
2.72906 3.40589 -1.59448
2.71505 3.40989 -1.59248
2.69806 3.41089 -1.58848
2.67706 3.42789 -1.58848
2.67306 3.44489 -1.59348
2.66905 3.45089 -1.59348
2.65806 3.45889 -1.59348
2.65006 3.47189 -1.59648
2.63806 3.47889 -1.59548
2.62406 3.48289 -1.59348
2.60606 3.48189 -1.58848
2.60106 3.49789 -1.59248
2.57906 3.50189 -1.58848
2.57405 3.51889 -1.59348
2.56405 3.52889 -1.59348
2.55106 3.53389 -1.59248
2.54105 3.54389 -1.59348
2.52306 3.55389 -1.59248
2.51105 3.55989 -1.59148
2.49805 3.56489 -1.59048
2.48406 3.56989 -1.58848
2.48106 3.58889 -1.59348
2.46706 3.59289 -1.59248
2.45906 3.59389 -1.59148
2.44806 3.60189 -1.59148
2.41206 3.62089 -1.58948
2.39806 3.62389 -1.58748
4.21406 -2.20411 -1.74748
4.20806 -2.18411 -1.74148
4.23005 -2.17811 -1.74848
4.22505 -2.16711 -1.74448
4.22806 -2.15211 -1.74348
4.25005 -2.14611 -1.74948
4.24706 -2.12811 -1.74548
4.25005 -2.11311 -1.74348
4.25505 -2.09911 -1.74348
4.25305 -2.09011 -1.74048
4.26605 -2.08011 -1.74348
4.28605 -2.07311 -1.74948
4.28305 -2.05411 -1.74548
4.28905 -2.04111 -1.74548
4.28905 -2.02411 -1.74248
4.29306 -2.01011 -1.74148
4.29805 -2.00411 -1.74248
4.30805 -1.99211 -1.74348
4.31405 -1.97911 -1.74348
4.32205 -1.96611 -1.74448
4.32705 -1.95111 -1.74348
4.32905 -1.93611 -1.74248
4.32505 -1.91811 -1.73748
4.34305 -1.91811 -1.74448
4.34305 -1.90111 -1.74148
4.35505 -1.89111 -1.74448
4.35805 -1.87611 -1.74348
4.36405 -1.86211 -1.74348
4.37005 -1.84811 -1.74348
4.37005 -1.83211 -1.74048
4.36305 -1.82111 -1.73648
4.38905 -1.81611 -1.74548
4.39805 -1.80411 -1.74648
4.38705 -1.78311 -1.73948
4.38405 -1.76611 -1.73548
4.40506 -1.75811 -1.74248
4.40405 -1.75011 -1.74048
4.39906 -1.73211 -1.73648
4.40805 -1.71911 -1.73748
4.42506 -1.71011 -1.74348
4.43106 -1.69611 -1.74348
4.41505 -1.67411 -1.73448
4.42405 -1.66211 -1.73548
4.44805 -1.66311 -1.74448
4.43705 -1.64311 -1.73748
4.45305 -1.63311 -1.74248
4.45405 -1.61711 -1.74048
4.45806 -1.60311 -1.74048
4.45505 -1.58611 -1.73748
4.46005 -1.58011 -1.73748
4.45905 -1.56411 -1.73548
4.46605 -1.55111 -1.73648
4.46406 -1.53411 -1.73348
4.47905 -1.52411 -1.73748
4.46305 -1.50311 -1.72948
4.48505 -1.49411 -1.73648
4.47305 -1.48311 -1.73048
4.49905 -1.47611 -1.73948
4.48406 -1.45511 -1.73148
4.49605 -1.44311 -1.73448
4.48305 -1.42411 -1.72748
4.50705 -1.41611 -1.73548
4.48805 -1.39411 -1.72548
4.51305 -1.39411 -1.73548
4.48905 -1.37211 -1.72348
4.51305 -1.36311 -1.73148
4.51706 -1.34911 -1.73148
4.51305 -1.33211 -1.72748
4.52205 -1.32011 -1.72948
4.52605 -1.30611 -1.72948
4.51405 -1.29411 -1.72448
4.52305 -1.28211 -1.72648
4.52005 -1.26511 -1.72348
4.53505 -1.25411 -1.72748
4.51706 -1.23411 -1.71948
4.54105 -1.22511 -1.72748
4.54105 -1.21011 -1.72548
4.53905 -1.20211 -1.72448
4.55205 -1.19011 -1.72748
4.56105 -1.17711 -1.72948
4.55205 -1.16011 -1.72448
4.56306 -1.13211 -1.72648
4.55205 -1.12211 -1.72148
4.57405 -1.11211 -1.72848
4.56805 -1.09511 -1.72448
4.55505 -1.07711 -1.71848
4.58205 -1.05311 -1.72648
4.58705 -1.03911 -1.72748
4.58105 -1.01511 -1.72248
4.57205 -0.998111 -1.71748
4.59105 -0.972111 -1.72248
4.60105 -0.891111 -1.72048
4.06405 1.58089 -1.64848
4.02305 1.59389 -1.63448
4.01505 1.60489 -1.63348
3.97906 1.68589 -1.63248
3.30405 2.67489 -1.60448
3.24906 2.72489 -1.59948
3.22606 2.74889 -1.59848
3.20205 2.77989 -1.59948
3.17606 2.80189 -1.59748
3.16806 2.81289 -1.59848
3.15006 2.83289 -1.59848
3.14605 2.84589 -1.60048
3.13106 2.85089 -1.59748
3.12506 2.86389 -1.59848
3.11606 2.86489 -1.59648
3.10106 2.88689 -1.59848
3.09005 2.89489 -1.59748
3.07006 2.91189 -1.59548
3.05306 2.92389 -1.59448
3.04806 2.93689 -1.59648
3.02506 2.95289 -1.59448
3.02006 2.96589 -1.59648
3.00706 2.98089 -1.59748
3.00206 2.99489 -1.59948
2.98106 2.99189 -1.59248
2.97706 3.00689 -1.59548
2.97006 3.01889 -1.59748
2.95406 3.02189 -1.59348
2.94406 3.03089 -1.59348
2.94106 3.03689 -1.59448
2.93205 3.04789 -1.59548
2.91605 3.04989 -1.59148
2.92106 3.07389 -1.59948
2.90106 3.07189 -1.59348
2.89506 3.08489 -1.59548
2.88906 3.09889 -1.59848
2.87706 3.09489 -1.59348
2.86606 3.10289 -1.59248
2.85706 3.11289 -1.59348
2.85005 3.12489 -1.59548
2.83406 3.12689 -1.59148
2.83306 3.14489 -1.59648
2.81206 3.14189 -1.58948
2.81306 3.15289 -1.59348
2.80806 3.16689 -1.59648
2.79906 3.17789 -1.59748
2.78306 3.17889 -1.59348
2.77906 3.19489 -1.59748
2.75805 3.19089 -1.59048
2.75805 3.21089 -1.59648
2.75506 3.21789 -1.59848
2.73805 3.21889 -1.59348
2.72806 3.22689 -1.59348
2.71505 3.23289 -1.59248
2.70106 3.23689 -1.58948
2.69706 3.25289 -1.59348
2.68905 3.26389 -1.59548
2.68106 3.26389 -1.59248
2.67306 3.27489 -1.59448
2.66406 3.28489 -1.59548
2.65306 3.29289 -1.59548
2.64305 3.30189 -1.59548
2.62706 3.30289 -1.59148
2.62606 3.31289 -1.59448
2.61606 3.32089 -1.59448
2.60506 3.32889 -1.59448
2.59106 3.33289 -1.59248
2.58106 3.34089 -1.59248
2.57506 3.35489 -1.59548
2.56606 3.36389 -1.59548
2.55506 3.36089 -1.59248
2.55506 3.38389 -1.59948
2.53906 3.38489 -1.59548
2.53006 3.39389 -1.59648
2.49906 3.41889 -1.59748
2.48505 3.43389 -1.59848
2.43406 3.46589 -1.59748
4.12805 -2.08811 -1.75448
4.14005 -2.06911 -1.75548
4.14305 -2.05511 -1.75448
4.15405 -2.04411 -1.75648
4.15705 -2.02911 -1.75448
4.15905 -2.01411 -1.75248
4.16806 -2.00211 -1.75448
4.16206 -1.99111 -1.74948
4.17805 -1.98311 -1.75448
4.18205 -1.96911 -1.75348
4.20806 -1.90911 -1.75248
4.21205 -1.89511 -1.75148
4.20305 -1.87511 -1.74548
4.21406 -1.86411 -1.74748
4.22505 -1.85311 -1.74948
4.25505 -1.77911 -1.74848
4.26305 -1.74311 -1.74648
4.38405 -1.31911 -1.73548
3.93306 1.61789 -1.64848
3.91905 1.62689 -1.64448
3.88706 1.62789 -1.63248
3.88806 1.63489 -1.63348
3.29306 2.52389 -1.60548
3.09906 2.74489 -1.60148
2.92306 2.90789 -1.59448
2.83705 2.98689 -1.59348
2.83005 2.99789 -1.59448
2.81705 3.00289 -1.59248
2.80806 3.01189 -1.59248
2.79706 3.01989 -1.59148
2.78606 3.02689 -1.59048
2.78405 3.03389 -1.59248
2.77606 3.04389 -1.59348
2.76206 3.04889 -1.59048
2.75906 3.06389 -1.59448
2.74206 3.06489 -1.59048
2.73106 3.07189 -1.58948
2.71906 3.08789 -1.59048
2.70906 3.09589 -1.59048
2.69706 3.10189 -1.58948
2.69606 3.11989 -1.59448
2.67706 3.11889 -1.58948
2.65306 3.13989 -1.58948
2.64806 3.15389 -1.59248
2.64206 3.16789 -1.59548
2.62305 3.16389 -1.58948
2.62606 3.18789 -1.59748
2.60706 3.18489 -1.59148
2.60606 3.19489 -1.59448
2.59106 3.19589 -1.59048
2.58406 3.20789 -1.59348
2.57206 3.21389 -1.59148
2.56405 3.22489 -1.59348
2.55405 3.23289 -1.59348
2.55405 3.25389 -1.60048
2.53306 3.23689 -1.58948
2.52806 3.25289 -1.59348
2.51706 3.25889 -1.59248
2.50906 3.26989 -1.59348
2.50006 3.27889 -1.59448
2.49505 3.29389 -1.59848
2.47006 3.28289 -1.58848
2.46806 3.29089 -1.59048
2.45806 3.29889 -1.59048
2.45106 3.31089 -1.59348
2.44006 3.31889 -1.59348
2.43205 3.32989 -1.59448
2.41806 3.33289 -1.59248
2.41106 3.34489 -1.59448
2.40506 3.34689 -1.59348
2.39906 3.36089 -1.59748
2.38706 3.36689 -1.59648
2.37706 3.37589 -1.59748
2.36806 3.38489 -1.59748
2.35306 3.38589 -1.59448
2.34206 3.40489 -1.59848
2.31906 3.41589 -1.59748
2.28105 3.42989 -1.59348
2.27406 3.44189 -1.59548
2.19205 3.48289 -1.59148
2.12906 3.52889 -1.59348
2.11305 3.53889 -1.59348
2.05806 3.57289 -1.59448
2.03906 3.57989 -1.59348
2.01706 3.59389 -1.59348
1.96506 3.61889 -1.59248
1.90106 3.65089 -1.59148
1.80106 3.69689 -1.59048
1.79006 3.70389 -1.59048
1.70006 3.73989 -1.58848
1.58906 3.77489 -1.58348
1.54606 3.80489 -1.58748
1.48306 3.80389 -1.57748
1.47306 3.81389 -1.58048
1.46006 3.81589 -1.57948
1.45106 3.82789 -1.58248
1.44406 3.82789 -1.58148
1.42906 3.82389 -1.57748
1.41806 3.82989 -1.57848
1.40806 3.84189 -1.58148
1.39406 3.83889 -1.57848
1.37906 3.83689 -1.57548
1.37406 3.84189 -1.57748
1.34906 3.84689 -1.57548
1.34306 3.86889 -1.58348
1.32906 3.86989 -1.58148
1.31306 3.85989 -1.57548
1.30206 3.86789 -1.57748
1.29706 3.87289 -1.57848
1.28206 3.86989 -1.57548
1.27206 3.88089 -1.57848
1.26006 3.88289 -1.57748
1.24506 3.87989 -1.57448
1.23506 3.88889 -1.57748
1.22406 3.89889 -1.57948
1.21706 3.89689 -1.57748
1.20706 3.90789 -1.58148
1.19406 3.90989 -1.58048
1.18106 3.90989 -1.57848
1.16706 3.90789 -1.57648
4.04005 -2.01311 -1.75548
4.16206 -1.67311 -1.74448
4.18005 -1.62711 -1.74448
4.20106 -1.55211 -1.74148
4.21605 -1.50511 -1.74048
4.21905 -1.49111 -1.73948
4.22305 -1.47811 -1.73948
4.27205 -1.28711 -1.73448
4.27505 -1.25211 -1.73148
2.93205 2.79889 -1.60048
2.88006 2.84489 -1.59848
2.84306 2.87089 -1.59548
2.80906 2.89989 -1.59448
2.73006 2.97389 -1.59448
2.69806 2.99489 -1.59148
2.65406 3.03189 -1.59048
2.63706 3.04989 -1.59148
2.64006 3.06389 -1.59748
2.61206 3.06989 -1.59148
2.60506 3.08089 -1.59348
2.59705 3.09089 -1.59448
2.58206 3.09289 -1.59048
2.58005 3.10989 -1.59548
2.56606 3.10389 -1.59048
2.56705 3.12489 -1.59748
2.54906 3.12289 -1.59148
2.54506 3.13789 -1.59548
2.52406 3.13189 -1.58748
2.51706 3.14389 -1.59048
2.50606 3.15089 -1.58948
2.49805 3.14989 -1.58748
2.49805 3.17089 -1.59448
2.48006 3.16889 -1.58848
2.47706 3.18489 -1.59348
2.45906 3.18289 -1.58748
2.45006 3.19189 -1.58848
2.43706 3.19489 -1.58648
2.44106 3.21089 -1.59248
2.42706 3.21389 -1.59048
2.41506 3.21889 -1.58848
2.40506 3.22589 -1.58848
2.39506 3.23389 -1.58848
2.39106 3.24989 -1.59348
2.38406 3.26189 -1.59548
2.38006 3.26689 -1.59648
2.35906 3.25989 -1.58848
2.35306 3.27289 -1.59148
2.33906 3.27489 -1.58848
2.34206 3.30089 -1.59848
2.32306 3.29689 -1.59248
2.31705 3.30989 -1.59548
2.30705 3.30589 -1.59148
2.30006 3.31789 -1.59448
2.28506 3.31889 -1.59048
2.28206 3.33689 -1.59648
2.26805 3.33989 -1.59448
2.25805 3.34689 -1.59448
2.24706 3.35389 -1.59448
2.24805 3.36589 -1.59848
2.23505 3.36989 -1.59748
2.22706 3.37989 -1.59848
2.20706 3.37389 -1.59148
2.20406 3.39089 -1.59748
2.19106 3.39489 -1.59548
2.17806 3.39889 -1.59448
2.17506 3.40489 -1.59548
2.16306 3.41089 -1.59448
2.15706 3.42489 -1.59848
2.14406 3.42689 -1.59648
2.13305 3.43389 -1.59648
2.11606 3.44189 -1.59548
2.09606 3.45889 -1.59748
2.03405 3.49089 -1.59548
1.95906 3.52589 -1.59248
1.94806 3.53289 -1.59348
1.92406 3.54189 -1.59148
1.90506 3.55889 -1.59448
1.76706 3.62389 -1.59148
1.75206 3.62289 -1.58848
1.73706 3.63389 -1.59048
1.72706 3.64289 -1.59148
1.70206 3.64989 -1.59048
1.68506 3.64389 -1.58448
1.68006 3.66289 -1.59048
1.67106 3.65689 -1.58748
1.66406 3.67189 -1.59148
1.63806 3.67589 -1.58848
1.62706 3.68389 -1.59048
1.61206 3.68089 -1.58648
1.60006 3.68389 -1.58548
1.59806 3.69489 -1.58948
1.58506 3.69889 -1.58848
1.57106 3.69689 -1.58548
1.53206 3.70289 -1.58148
1.53206 3.71889 -1.58748
1.51006 3.72989 -1.58848
1.49706 3.73289 -1.58748
1.48306 3.73289 -1.58548
1.46706 3.72689 -1.58048
1.45806 3.73889 -1.58348
1.45406 3.74389 -1.58548
1.43706 3.73689 -1.58048
1.42706 3.74489 -1.58148
1.41906 3.75789 -1.58548
1.40406 3.75389 -1.58148
1.39106 3.75589 -1.58048
1.38206 3.76889 -1.58448
1.36906 3.75089 -1.57548
1.36006 3.76389 -1.57948
1.35106 3.77489 -1.58248
1.33506 3.76689 -1.57648
1.32506 3.77589 -1.57948
1.31306 3.78189 -1.58048
1.30306 3.79189 -1.58248
1.30006 3.80089 -1.58548
1.28406 3.79189 -1.58048
1.27206 3.79789 -1.58048
1.25806 3.79489 -1.57748
1.25106 3.81289 -1.58348
1.23806 3.81289 -1.58248
1.22806 3.82389 -1.58548
1.22006 3.81889 -1.58248
1.20906 3.82789 -1.58448
1.19506 3.82489 -1.58148
1.18306 3.82689 -1.58048
1.17306 3.83789 -1.58348
1.16106 3.84289 -1.58448
1.14506 3.83289 -1.57848
1.14206 3.84489 -1.58348
1.12906 3.84489 -1.58148
1.11606 3.84689 -1.58048
0.893055 3.91189 -1.58348
0.880055 3.91489 -1.58348
0.855055 3.91689 -1.58248
0.843055 3.92189 -1.58348
0.837055 3.92489 -1.58348
0.788055 3.93489 -1.58348
0.763055 3.93989 -1.58348
0.744055 3.94089 -1.58348
3.94205 -1.95511 -1.74748
3.95406 -1.94611 -1.75048
3.95205 -1.93011 -1.74648
3.96505 -1.92111 -1.74948
3.96505 -1.91311 -1.74748
3.97606 -1.90311 -1.75048
3.97306 -1.88611 -1.74648
3.98906 -1.87811 -1.75048
3.99505 -1.86611 -1.75048
3.99906 -1.85311 -1.75048
3.99805 -1.83711 -1.74748
3.99306 -1.82711 -1.74348
4.00205 -1.81611 -1.74448
4.00805 -1.80311 -1.74448
4.02406 -1.78011 -1.74748
4.01605 -1.76111 -1.74048
4.03205 -1.76111 -1.74748
4.03405 -1.74711 -1.74548
4.04005 -1.71911 -1.74348
4.05405 -1.69511 -1.74448
4.05105 -1.67911 -1.74048
4.05705 -1.67411 -1.74248
4.05205 -1.65711 -1.73748
4.07305 -1.65111 -1.74448
4.07305 -1.63611 -1.74248
4.07305 -1.62111 -1.74048
4.06905 -1.60511 -1.73648
4.08405 -1.59611 -1.74048
4.09005 -1.59111 -1.74248
4.08906 -1.57511 -1.73948
4.09805 -1.53511 -1.73648
4.10705 -1.51611 -1.73748
4.11105 -1.48811 -1.73548
4.11405 -1.47511 -1.73448
4.11505 -1.46111 -1.73348
4.12906 -1.45111 -1.73648
4.12405 -1.43511 -1.73348
4.13405 -1.43111 -1.73648
4.13605 -1.41711 -1.73548
4.14206 -1.40511 -1.73648
4.13105 -1.38611 -1.72948
4.14405 -1.37611 -1.73348
4.15205 -1.36411 -1.73448
4.15305 -1.35011 -1.73348
4.15105 -1.34311 -1.73148
4.16505 -1.31811 -1.73348
4.17105 -1.29111 -1.73348
4.17205 -1.27711 -1.73148
4.17905 -1.27211 -1.73348
4.15905 -1.25211 -1.72248
4.17105 -1.24111 -1.72648
4.18605 -1.23111 -1.73148
4.17705 -1.21411 -1.72648
4.18806 -1.20311 -1.72948
3.50106 2.00589 -1.63248
3.38605 2.17389 -1.62748
3.36305 2.17289 -1.61848
3.13506 2.44889 -1.60748
3.14806 2.47589 -1.61948
3.10906 2.51689 -1.61748
3.10906 2.53389 -1.62148
3.10106 2.54289 -1.62148
3.06405 2.56889 -1.61648
3.04006 2.56589 -1.60748
2.86706 2.73689 -1.60148
2.85005 2.75489 -1.60148
2.83306 2.76389 -1.59848
2.79806 2.79889 -1.59848
2.78806 2.80689 -1.59848
2.78506 2.83089 -1.60448
2.76906 2.83289 -1.60048
2.75406 2.83489 -1.59648
2.71806 2.86889 -1.59648
2.71205 2.87189 -1.59548
2.71205 2.88989 -1.60148
2.69205 2.88589 -1.59448
2.69306 2.90589 -1.60048
2.68106 2.91089 -1.59848
2.67806 2.92689 -1.60248
2.65506 2.91989 -1.59448
2.65406 2.92789 -1.59648
2.65905 2.95189 -1.60548
2.63206 2.94089 -1.59448
2.62406 2.94989 -1.59448
2.62106 2.96489 -1.59848
2.60706 2.96789 -1.59548
2.59306 2.97089 -1.59248
2.59606 2.98489 -1.59848
2.58705 2.99289 -1.59848
2.57206 2.99389 -1.59448
2.58206 3.02589 -1.60748
2.54906 3.00589 -1.59148
2.54606 3.02089 -1.59548
2.54706 3.03189 -1.59948
2.52406 3.02389 -1.59048
2.51606 3.03389 -1.59148
2.51506 3.05089 -1.59748
2.49505 3.04589 -1.59048
2.49006 3.05989 -1.59348
2.48805 3.07789 -1.59848
2.48306 3.08189 -1.59848
2.46106 3.07389 -1.59048
2.45806 3.08989 -1.59448
2.45006 3.09889 -1.59548
2.43106 3.09489 -1.58948
2.43806 3.12489 -1.60148
2.43006 3.12389 -1.59848
2.40806 3.11589 -1.59048
2.40406 3.13189 -1.59448
2.39106 3.13489 -1.59248
2.37806 3.13789 -1.59048
2.37606 3.15589 -1.59548
2.35806 3.15289 -1.59048
2.35906 3.16389 -1.59448
2.35306 3.17789 -1.59748
2.33206 3.16989 -1.58948
2.32806 3.18489 -1.59348
2.31906 3.19389 -1.59448
2.30106 3.18989 -1.58848
2.29006 3.19589 -1.58748
2.30506 3.22789 -1.60248
2.27506 3.20689 -1.58748
2.27206 3.22489 -1.59348
2.26006 3.22889 -1.59148
2.25106 3.23689 -1.59248
2.24406 3.24889 -1.59448
2.23505 3.25689 -1.59548
2.22106 3.24889 -1.58948
2.21406 3.25989 -1.59148
2.21006 3.27589 -1.59648
2.19306 3.27289 -1.59048
2.18406 3.28289 -1.59248
2.17606 3.29289 -1.59448
2.16406 3.29589 -1.59248
2.15306 3.28989 -1.58748
2.14305 3.29889 -1.58848
2.13806 3.31289 -1.59248
2.12906 3.32289 -1.59448
2.12206 3.33389 -1.59648
2.10706 3.33289 -1.59248
2.09705 3.34089 -1.59348
2.07705 3.34489 -1.59048
2.07306 3.36089 -1.59448
2.06106 3.36589 -1.59448
2.05506 3.37989 -1.59848
2.04006 3.37889 -1.59448
2.02606 3.39089 -1.59548
2.01306 3.39489 -1.59448
1.99106 3.40589 -1.59348
1.97606 3.40389 -1.58948
1.97406 3.42589 -1.59748
1.96506 3.42289 -1.59448
1.95406 3.42889 -1.59448
1.94306 3.43289 -1.59348
1.93106 3.43789 -1.59248
1.92106 3.44589 -1.59348
1.91506 3.45989 -1.59748
1.90006 3.45889 -1.59448
1.88906 3.45089 -1.58848
1.86906 3.46589 -1.59048
1.85606 3.46789 -1.58848
1.84606 3.47589 -1.58948
1.83306 3.47789 -1.58748
1.83106 3.49989 -1.59548
1.82006 3.49189 -1.59048
1.80906 3.49889 -1.59048
1.79806 3.50489 -1.59048
1.79006 3.51489 -1.59348
1.77406 3.51089 -1.58848
1.75806 3.52089 -1.58948
1.74906 3.52989 -1.59048
1.74106 3.54189 -1.59448
1.72606 3.54089 -1.59048
1.71506 3.54489 -1.59048
1.70406 3.55189 -1.59048
1.69606 3.56389 -1.59448
1.68206 3.54789 -1.58548
1.67806 3.56789 -1.59248
1.66306 3.56489 -1.58848
1.65606 3.57989 -1.59348
1.64406 3.58389 -1.59248
1.61606 3.58189 -1.58748
1.60806 3.57789 -1.58348
1.60406 3.59989 -1.59148
1.58806 3.59489 -1.58748
1.57406 3.59289 -1.58348
1.56906 3.61289 -1.59048
1.55406 3.60989 -1.58748
1.54106 3.60989 -1.58448
1.53906 3.62089 -1.58848
1.52306 3.61489 -1.58348
1.50906 3.61289 -1.58048
1.50006 3.62289 -1.58348
1.48506 3.61889 -1.57948
1.47906 3.63889 -1.58648
1.46306 3.62989 -1.57948
1.46006 3.63889 -1.58348
1.45206 3.65189 -1.58748
1.43606 3.64689 -1.58248
1.42606 3.65489 -1.58348
1.41506 3.66089 -1.58448
1.39806 3.65089 -1.57848
1.39506 3.67589 -1.58748
1.38606 3.67189 -1.58448
1.37506 3.67789 -1.58548
1.36406 3.68389 -1.58648
1.35006 3.67889 -1.58248
1.33706 3.67989 -1.58048
1.32606 3.68589 -1.58148
1.31406 3.68889 -1.58048
1.30906 3.69389 -1.58248
1.29606 3.69289 -1.57948
1.28506 3.69889 -1.58048
1.27606 3.70989 -1.58348
1.26606 3.71889 -1.58648
1.25106 3.71389 -1.58248
1.24006 3.71989 -1.58348
1.23506 3.72489 -1.58448
1.22506 3.73289 -1.58648
1.21306 3.73589 -1.58648
1.17806 3.74789 -1.58648
1.16306 3.74289 -1.58248
1.15706 3.74289 -1.58148
1.14306 3.74089 -1.57948
1.13606 3.75989 -1.58648
1.12206 3.75489 -1.58248
1.11306 3.76889 -1.58748
1.09906 3.76389 -1.58348
1.09406 3.76889 -1.58448
1.08406 3.77789 -1.58748
1.06706 3.76489 -1.57948
1.05806 3.77789 -1.58348
1.04506 3.77589 -1.58148
1.03306 3.77889 -1.58148
1.02206 3.78689 -1.58348
1.00506 3.79589 -1.58548
0.981055 3.79989 -1.58448
0.968055 3.79989 -1.58348
0.958055 3.80989 -1.58648
0.946055 3.81089 -1.58548
0.927055 3.81389 -1.58448
0.902055 3.81589 -1.58348
0.859055 3.81989 -1.58048
0.837055 3.83389 -1.58448
0.802055 3.84589 -1.58648
0.656055 3.87089 -1.58548
0.485055 3.89289 -1.58348
3.37506 1.93789 -1.62348
3.37005 1.94989 -1.62448
3.36606 1.96089 -1.62448
3.35306 1.96789 -1.62148
3.35206 1.97389 -1.62248
3.33606 1.99289 -1.62048
3.32506 2.01489 -1.62148
3.30405 2.03889 -1.61948
3.27706 2.07889 -1.61848
3.27006 2.08889 -1.61848
3.25206 2.12789 -1.62048
3.05705 2.36289 -1.61148
3.05106 2.37389 -1.61148
3.04506 2.38489 -1.61248
3.02806 2.39489 -1.60948
2.99006 2.44189 -1.60948
2.98206 2.44289 -1.60748
2.98006 2.45689 -1.61048
2.97406 2.46789 -1.61148
2.96505 2.47589 -1.61048
2.95706 2.48489 -1.61048
2.95205 2.49689 -1.61148
2.94006 2.50189 -1.60948
2.92306 2.51089 -1.60648
2.91706 2.52289 -1.60748
2.90905 2.53189 -1.60748
2.90806 2.54689 -1.61148
2.89605 2.55289 -1.60948
2.89406 2.55889 -1.61048
2.88006 2.56289 -1.60748
2.87106 2.57089 -1.60648
2.86406 2.58089 -1.60748
2.85906 2.59189 -1.60848
2.85005 2.60089 -1.60848
2.84206 2.60989 -1.60848
2.83005 2.60689 -1.60348
2.83306 2.62589 -1.61048
2.82606 2.63589 -1.61148
2.81206 2.63989 -1.60748
2.80506 2.64989 -1.60848
2.79906 2.66089 -1.61048
2.78606 2.66489 -1.60748
2.78306 2.67089 -1.60748
2.77706 2.68189 -1.60948
2.76506 2.68689 -1.60748
2.75906 2.69789 -1.60848
2.75406 2.71089 -1.61148
2.75406 2.72689 -1.61548
2.73306 2.72389 -1.60848
2.72106 2.72089 -1.60348
2.72806 2.74489 -1.61348
2.71006 2.74389 -1.60748
2.70706 2.75789 -1.61148
2.70106 2.76889 -1.61248
2.69205 2.77689 -1.61248
2.68205 2.78389 -1.61148
2.68205 2.79289 -1.61448
2.66806 2.79589 -1.61148
2.65905 2.80389 -1.61148
2.65406 2.81589 -1.61348
2.64006 2.81889 -1.61048
2.63106 2.82789 -1.61048
2.62906 2.83489 -1.61148
2.61406 2.83589 -1.60748
2.61005 2.84989 -1.61148
2.58606 2.85889 -1.60748
2.58705 2.87789 -1.61348
2.57806 2.88589 -1.61348
2.55906 2.87389 -1.60348
2.55606 2.88889 -1.60748
2.55405 2.90489 -1.61248
2.53506 2.90189 -1.60648
2.53206 2.91689 -1.61048
2.52606 2.92889 -1.61248
2.51506 2.92489 -1.60748
2.50406 2.93089 -1.60748
2.48006 2.93989 -1.60248
2.47606 2.95489 -1.60748
2.47306 2.96889 -1.61148
2.46406 2.97689 -1.61148
2.45706 2.97789 -1.60948
2.43205 2.98689 -1.60548
2.42306 2.99389 -1.60548
2.41806 3.00689 -1.60848
2.40706 3.01389 -1.60748
2.39806 3.02089 -1.60748
2.39406 3.02589 -1.60848
2.38006 3.02789 -1.60548
2.36906 3.03389 -1.60448
2.36606 3.04889 -1.60848
2.35406 3.05289 -1.60748
2.33806 3.05389 -1.60248
2.33206 3.06489 -1.60548
2.31705 3.05589 -1.59848
2.31306 3.06989 -1.60248
2.30906 3.08489 -1.60648
2.29606 3.08789 -1.60348
2.28405 3.09189 -1.60248
2.27906 3.10489 -1.60548
2.26805 3.11089 -1.60448
2.25906 3.10789 -1.60148
2.25606 3.12389 -1.60648
2.24206 3.12689 -1.60348
2.22906 3.12989 -1.60148
2.22505 3.14389 -1.60548
2.21505 3.15089 -1.60548
2.19806 3.15789 -1.60348
2.19006 3.16789 -1.60548
2.17206 3.16289 -1.59848
2.15706 3.18389 -1.60248
2.14906 3.19389 -1.60448
2.13406 3.20389 -1.60448
2.10106 3.21889 -1.60248
2.09106 3.22589 -1.60248
1.55506 3.50189 -1.59648
1.30706 3.59389 -1.59348
3.20806 2.08189 -1.63648
3.18506 2.08089 -1.62748
3.17706 2.08989 -1.62648
3.16905 2.09889 -1.62548
3.16206 2.10889 -1.62548
3.15905 2.12089 -1.62748
3.14906 2.12189 -1.62448
3.14906 2.13589 -1.62748
3.13406 2.13989 -1.62348
3.12606 2.14889 -1.62248
3.12106 2.15989 -1.62348
3.11606 2.17089 -1.62448
3.12106 2.18889 -1.63048
2.87406 2.47289 -1.62148
2.87005 2.47789 -1.62148
2.85406 2.49589 -1.62148
2.85106 2.50889 -1.62448
2.82506 2.51789 -1.61848
2.81806 2.52689 -1.61848
2.80405 2.53889 -1.61748
2.79506 2.54589 -1.61648
2.78506 2.56989 -1.62048
2.77706 2.57889 -1.62048
2.76105 2.58789 -1.61848
2.75306 2.59689 -1.61848
2.73706 2.61389 -1.61848
2.73206 2.62589 -1.62048
2.71205 2.63189 -1.61548
2.70706 2.64289 -1.61748
2.68706 2.65689 -1.61548
2.68406 2.67089 -1.61948
2.67006 2.68189 -1.61848
2.64206 2.70389 -1.61648
2.63406 2.71289 -1.61648
2.61506 2.72789 -1.61548
2.61005 2.73089 -1.61548
2.58705 2.75789 -1.61648
2.54706 2.79389 -1.61648
2.51805 2.81489 -1.61548
2.51105 2.82389 -1.61548
2.49406 2.83189 -1.61348
2.48706 2.84289 -1.61548
2.44106 2.87989 -1.61448
2.30405 2.98389 -1.61148
2.28405 2.99689 -1.61048
2.26105 3.01489 -1.61048
3.50406 -5.03411 -1.66748
3.51006 -5.02611 -1.66648
3.56106 -4.99911 -1.66948
3.58806 -4.97011 -1.66648
3.62005 -4.96411 -1.67048
3.63206 -4.94811 -1.66948
3.65206 -4.94311 -1.67148
3.68506 -4.92311 -1.67248
3.69606 -4.90511 -1.67048
3.70505 -4.90111 -1.67048
3.71706 -4.88411 -1.66948
3.73406 -4.87611 -1.67048
3.75206 -4.86711 -1.67148
3.76306 -4.84911 -1.66948
3.78105 -4.84211 -1.67048
3.79306 -4.82511 -1.66948
3.80306 -4.82211 -1.67048
3.81705 -4.80911 -1.66948
3.83906 -4.80611 -1.67248
3.50706 -4.88511 -1.67648
3.52105 -4.87211 -1.67548
3.53606 -4.86011 -1.67548
3.55506 -4.85511 -1.67748
3.56206 -4.84811 -1.67648
3.58206 -4.84311 -1.67948
3.61005 -4.81711 -1.67748
3.62506 -4.80511 -1.67748
3.64206 -4.79711 -1.67948
3.65006 -4.77711 -1.67548
3.66006 -4.77411 -1.67648
3.67905 -4.76711 -1.67848
3.68106 -4.73911 -1.67248
3.70505 -4.73911 -1.67648
3.72205 -4.69911 -1.67048
3.32106 -4.76611 -1.68548
3.45106 -4.68011 -1.68748
3.47006 -4.67611 -1.69048
3.50306 -4.65811 -1.69148
3.53906 -4.63111 -1.69148
3.55405 -4.61911 -1.69148
3.58906 -4.60511 -1.69448
3.61706 -4.56611 -1.69048
3.01805 -4.74811 -1.68848
3.02906 -4.73211 -1.68548
3.04806 -4.72911 -1.68848
3.06106 -4.71811 -1.68748
3.07206 -4.71811 -1.68948
3.08606 -4.70711 -1.68848
3.09106 -4.68211 -1.68348
3.11106 -4.68111 -1.68648
3.13406 -4.68411 -1.69148
3.14706 -4.67111 -1.69048
3.15905 -4.65811 -1.68848
3.17306 -4.66211 -1.69248
3.18406 -4.64711 -1.69048
3.20006 -4.63911 -1.69148
3.21606 -4.63011 -1.69148
3.22706 -4.61611 -1.69048
3.24006 -4.60411 -1.68948
3.25906 -4.61411 -1.69548
3.26606 -4.59511 -1.69148
3.28506 -4.59111 -1.69448
3.30806 -4.56211 -1.69148
3.33106 -4.56311 -1.69548
3.34506 -4.55211 -1.69548
3.34906 -4.54211 -1.69348
3.35706 -4.52411 -1.69048
3.38305 -4.52911 -1.69648
3.39706 -4.51811 -1.69648
3.41206 -4.50911 -1.69748
3.42806 -4.50011 -1.69848
3.42706 -4.48411 -1.69348
3.44905 -4.48311 -1.69848
3.46205 -4.47111 -1.69748
3.48006 -4.46611 -1.69948
3.49206 -4.42311 -1.69148
3.06806 -4.52611 -1.70048
3.08406 -4.51911 -1.70148
3.08806 -4.49611 -1.69648
3.09906 -4.48111 -1.69448
3.10506 -4.47511 -1.69348
3.12706 -4.47611 -1.69848
3.13806 -4.46211 -1.69648
3.14506 -4.44211 -1.69248
3.16306 -4.43911 -1.69448
3.17306 -4.42311 -1.69248
3.19106 -4.41911 -1.69448
3.20505 -4.42311 -1.69848
3.21006 -4.40111 -1.69348
3.22706 -4.39511 -1.69548
3.24505 -4.39111 -1.69848
3.25606 -4.37611 -1.69648
3.27606 -4.37511 -1.69948
3.29105 -4.36611 -1.70048
3.29606 -4.35811 -1.69948
3.30606 -4.34311 -1.69748
3.32806 -4.34311 -1.70148
3.33506 -4.32511 -1.69848
3.35106 -4.31811 -1.69948
3.37106 -4.31511 -1.70348
3.37506 -4.30611 -1.70148
3.40206 -4.31211 -1.70848
2.51805 -4.65511 -1.69148
2.52206 -4.64511 -1.68948
2.52906 -4.62211 -1.68348
2.55806 -4.64011 -1.69348
2.57006 -4.62911 -1.69248
2.60005 -4.58011 -1.68248
2.62106 -4.56811 -1.68248
2.63806 -4.56311 -1.68348
2.66605 -4.54611 -1.68348
2.68406 -4.54411 -1.68648
2.72306 -4.52811 -1.68848
2.76306 -4.49911 -1.68748
2.80206 -4.48211 -1.68948
2.83506 -4.47211 -1.69248
2.85906 -4.44811 -1.68948
2.88406 -4.44111 -1.69248
2.91006 -4.41911 -1.69148
2.92706 -4.41511 -1.69248
2.95306 -4.39511 -1.69248
3.01006 -4.37411 -1.69748
3.05206 -4.33311 -1.69448
3.06806 -4.32711 -1.69548
3.10506 -4.32111 -1.70148
3.13906 -4.28311 -1.69748
3.14906 -4.28211 -1.69948
3.16905 -4.28211 -1.70348
3.17806 -4.26611 -1.70048
3.21205 -4.25511 -1.70448
3.21906 -4.23711 -1.70148
3.23006 -4.22411 -1.70048
3.24106 -4.22311 -1.70148
3.25306 -4.21111 -1.70148
3.26906 -4.20611 -1.70348
3.29706 -4.18711 -1.70348
3.31306 -4.18111 -1.70548
2.83606 -4.30911 -1.69848
2.86406 -4.30611 -1.70348
2.87906 -4.30011 -1.70448
2.89206 -4.29011 -1.70448
2.90206 -4.27611 -1.70248
2.92006 -4.27311 -1.70448
2.93606 -4.26911 -1.70648
2.94905 -4.25811 -1.70648
2.95106 -4.24711 -1.70348
2.96406 -4.23811 -1.70348
2.98306 -4.23611 -1.70648
3.00006 -4.23111 -1.70848
3.01406 -4.22311 -1.70948
3.02506 -4.21111 -1.70848
3.03606 -4.21211 -1.71048
3.05705 -4.21311 -1.71548
3.07206 -4.20511 -1.71648
3.07806 -4.18611 -1.71248
3.09005 -4.17511 -1.71148
3.10906 -4.17311 -1.71448
3.11606 -4.15611 -1.71148
3.13206 -4.16311 -1.71648
3.14506 -4.15311 -1.71648
3.15206 -4.13611 -1.71348
3.18506 -4.15111 -1.72448
3.19306 -4.13511 -1.72248
3.21006 -4.12911 -1.72448
3.21406 -4.12111 -1.72248
3.22006 -4.10211 -1.71848
3.23106 -4.09111 -1.71848
3.25306 -4.09111 -1.72248
3.26306 -4.07811 -1.72148
3.25906 -4.04711 -1.71248
2.41006 -4.46011 -1.70948
2.40506 -4.41611 -1.69448
2.42306 -4.41711 -1.69748
2.44106 -4.41611 -1.70048
2.46406 -4.42411 -1.70748
2.46706 -4.39811 -1.70048
2.49106 -4.39211 -1.70248
2.50606 -4.38611 -1.70248
2.52706 -4.39111 -1.70848
2.53405 -4.37111 -1.70348
2.55606 -4.37811 -1.70948
2.56606 -4.36311 -1.70648
2.58406 -4.36211 -1.70948
2.58606 -4.35011 -1.70648
2.59906 -4.34211 -1.70648
2.61706 -4.34011 -1.70848
2.62406 -4.32011 -1.70448
2.64806 -4.33011 -1.71148
2.65605 -4.31211 -1.70748
2.66806 -4.30211 -1.70648
2.68205 -4.30911 -1.71148
2.69006 -4.29211 -1.70848
2.71106 -4.29511 -1.71248
2.72906 -4.29411 -1.71648
2.73406 -4.27211 -1.71048
2.75406 -4.27411 -1.71448
2.76406 -4.27511 -1.71648
2.77706 -4.26611 -1.71648
2.79405 -4.26211 -1.71848
2.80606 -4.25111 -1.71848
2.82106 -4.24411 -1.71848
2.83705 -4.24011 -1.72048
2.84806 -4.22811 -1.71948
2.85106 -4.21711 -1.71648
2.91206 -4.19311 -1.72248
2.94306 -4.16711 -1.72048
2.97606 -4.16011 -1.72548
2.98805 -4.14911 -1.72548
3.00406 -4.14211 -1.72648
3.09306 -4.08811 -1.72948
3.10506 -4.07611 -1.72948
3.18506 -4.02211 -1.73148
3.19706 -3.98511 -1.72348
2.90106 -4.03511 -1.72148
2.90506 -4.01411 -1.71648
2.92606 -4.00311 -1.71748
3.01506 -3.96711 -1.72648
3.01606 -3.95511 -1.72348
3.03706 -3.93111 -1.72048
3.06405 -3.91511 -1.72248
3.08906 -3.92111 -1.72948
3.10606 -3.91811 -1.73248
2.61106 -4.03511 -1.71548
2.69106 -4.00511 -1.72248
2.69706 -3.98711 -1.71848
2.71106 -3.98011 -1.71948
2.72706 -3.97811 -1.72248
2.73206 -3.97111 -1.72048
2.74706 -3.96711 -1.72248
2.76406 -3.96411 -1.72548
2.77406 -3.95211 -1.72448
2.79806 -3.93311 -1.72348
2.81006 -3.92411 -1.72348
2.81705 -3.92211 -1.72448
2.84005 -3.92611 -1.73048
2.84306 -3.90511 -1.72548
2.86005 -3.90211 -1.72748
2.88006 -3.90411 -1.73248
2.88206 -3.88111 -1.72648
2.88806 -3.87711 -1.72648
2.90506 -3.87411 -1.72948
2.91406 -3.86011 -1.72748
2.92606 -3.85111 -1.72748
2.94806 -3.85511 -1.73348
2.95806 -3.84311 -1.73248
2.97205 -3.83711 -1.73348
2.98606 -3.84211 -1.73848
2.99406 -3.82711 -1.73548
3.00805 -3.82011 -1.73748
3.02406 -3.81711 -1.73948
3.02906 -3.79911 -1.73548
3.04405 -3.79211 -1.73748
2.69006 -3.90111 -1.74048
2.70606 -3.88611 -1.73948
2.71205 -3.86811 -1.73548
2.71406 -3.84611 -1.72848
2.73706 -3.85211 -1.73548
2.74406 -3.83611 -1.73248
2.75906 -3.83211 -1.73448
2.77506 -3.83011 -1.73748
2.77906 -3.82211 -1.73548
2.78806 -3.80911 -1.73348
2.80906 -3.81211 -1.73948
2.81405 -3.79411 -1.73548
2.83806 -3.80211 -1.74348
2.85106 -3.79411 -1.74348
2.86005 -3.78111 -1.74148
2.86806 -3.77911 -1.74348
2.88006 -3.77011 -1.74348
2.89506 -3.76611 -1.74548
2.89806 -3.74511 -1.73948
2.92206 -3.75211 -1.74748
2.92206 -3.72811 -1.74048
2.94205 -3.72911 -1.74548
2.95006 -3.72711 -1.74648
2.96606 -3.72211 -1.74848
0.262055 -4.50011 -1.70748
0.275055 -4.48811 -1.70248
0.290055 -4.50011 -1.70748
0.318055 -4.49111 -1.70448
0.325055 -4.49411 -1.70648
0.340055 -4.49511 -1.70748
0.369055 -4.50711 -1.71348
0.383055 -4.50411 -1.71248
0.397055 -4.50111 -1.71148
0.411055 -4.50411 -1.71348
0.432055 -4.49811 -1.71148
0.447055 -4.50611 -1.71548
0.460055 -4.48811 -1.70848
0.473055 -4.47311 -1.70348
0.486055 -4.46411 -1.70048
0.509055 -4.48111 -1.70748
0.524055 -4.49211 -1.71348
0.538055 -4.48811 -1.71248
0.589055 -4.49311 -1.71648
2.12005 -4.02011 -1.72248
2.13406 -4.01611 -1.72348
2.16806 -4.01911 -1.73148
2.17006 -3.99311 -1.72248
2.18406 -3.98811 -1.72248
2.18905 -3.98311 -1.72248
2.20406 -3.98111 -1.72448
2.24006 -3.95611 -1.72248
2.27806 -3.95211 -1.72848
2.28405 -3.93311 -1.72348
2.31306 -3.92511 -1.72648
2.33506 -3.90711 -1.72548
2.34406 -3.90811 -1.72748
2.37106 -3.89711 -1.72848
2.38605 -3.89411 -1.73148
2.39206 -3.87711 -1.72648
2.40605 -3.87111 -1.72748
2.41406 -3.87011 -1.72848
2.45306 -3.85211 -1.73148
2.47706 -3.83711 -1.73148
2.48906 -3.82911 -1.73148
2.50805 -3.81911 -1.73148
2.52506 -3.81911 -1.73548
2.53506 -3.80811 -1.73448
2.54706 -3.80011 -1.73448
2.56306 -3.79811 -1.73748
2.56906 -3.78011 -1.73248
2.58106 -3.78611 -1.73748
2.59906 -3.78711 -1.74148
2.60806 -3.77411 -1.73948
2.62406 -3.77211 -1.74248
2.64006 -3.77011 -1.74548
2.64806 -3.75511 -1.74248
2.65905 -3.74711 -1.74248
2.66605 -3.74411 -1.74248
2.68106 -3.74011 -1.74548
2.69006 -3.72711 -1.74248
2.70706 -3.72711 -1.74648
2.71106 -3.70711 -1.74148
2.72706 -3.70511 -1.74448
2.74106 -3.71311 -1.75048
2.74505 -3.69411 -1.74548
2.76706 -3.69811 -1.75148
0.0460551 -4.43211 -1.72248
0.0600551 -4.41911 -1.71648
0.0740551 -4.41811 -1.71648
0.0880551 -4.41111 -1.71348
0.0940551 -4.40911 -1.71348
0.109055 -4.41611 -1.71648
0.123055 -4.42311 -1.71948
0.136055 -4.41011 -1.71348
0.150055 -4.40911 -1.71348
0.164055 -4.41811 -1.71748
0.171055 -4.42111 -1.71948
0.185055 -4.41511 -1.71648
0.199055 -4.41311 -1.71648
0.212055 -4.40611 -1.71348
0.227055 -4.41511 -1.71748
0.241055 -4.41611 -1.71848
0.254055 -4.41211 -1.71648
0.261055 -4.40811 -1.71548
0.275055 -4.41611 -1.71948
0.288055 -4.40011 -1.71348
0.302055 -4.40311 -1.71448
0.317055 -4.41311 -1.71948
0.331055 -4.41011 -1.71848
0.344055 -4.40611 -1.71648
0.365055 -4.40211 -1.71648
0.380055 -4.41611 -1.72248
0.392055 -4.39811 -1.71548
0.405055 -4.38611 -1.71048
0.420055 -4.39711 -1.71648
0.435055 -4.40311 -1.71948
0.442055 -4.40611 -1.72048
0.455055 -4.39711 -1.71748
0.482055 -4.39111 -1.71648
0.497055 -4.39711 -1.71948
0.510055 -4.38611 -1.71548
0.516055 -4.38111 -1.71348
0.532055 -4.40011 -1.72248
0.546055 -4.39411 -1.72048
0.677055 -4.38211 -1.72348
0.842055 -4.35111 -1.72248
0.852055 -4.33411 -1.71648
0.859055 -4.33111 -1.71548
0.873055 -4.32811 -1.71548
0.888055 -4.33611 -1.71948
0.899055 -4.31911 -1.71348
0.916055 -4.33111 -1.71948
2.50006 -3.74511 -1.75148
2.51306 -3.74011 -1.75248
2.51506 -3.71711 -1.74548
2.53006 -3.71311 -1.74748
2.53506 -3.69611 -1.74248
2.55006 -3.69311 -1.74548
2.55306 -3.68611 -1.74348
2.56705 -3.68111 -1.74548
2.58806 -3.68611 -1.75248
2.59506 -3.67211 -1.74848
2.60706 -3.66411 -1.74848
2.61606 -3.65311 -1.74748
2.63305 -3.65211 -1.75148
2.63906 -3.64811 -1.75148
2.64706 -3.63511 -1.74848
2.66605 -3.63711 -1.75448
0.0130551 -4.32111 -1.71348
0.0270551 -4.31711 -1.71248
0.0400551 -4.32411 -1.71548
0.0470551 -4.32011 -1.71348
0.0610551 -4.32411 -1.71548
0.0740551 -4.32411 -1.71548
0.177055 -4.34111 -1.72348
0.190055 -4.34211 -1.72448
0.204055 -4.34411 -1.72548
0.217055 -4.33211 -1.72048
0.224055 -4.32211 -1.71648
0.252055 -4.34711 -1.72748
0.313055 -4.32811 -1.72148
0.326055 -4.32711 -1.72148
0.354055 -4.33911 -1.72748
0.367055 -4.32911 -1.72348
0.387055 -4.31311 -1.71748
0.399055 -4.30411 -1.71448
0.414055 -4.31411 -1.71948
0.426055 -4.30011 -1.71348
0.441055 -4.31511 -1.72048
0.453055 -4.29911 -1.71448
0.467055 -4.29411 -1.71248
0.474055 -4.30011 -1.71548
0.487055 -4.29111 -1.71248
0.501055 -4.29211 -1.71348
0.528055 -4.29611 -1.71648
0.543055 -4.30311 -1.72048
1.87006 -3.92811 -1.72648
1.90906 -3.91511 -1.72848
1.92706 -3.90411 -1.72748
2.19406 -3.78011 -1.73448
2.23206 -3.76211 -1.73648
2.26006 -3.74311 -1.73548
2.34406 -3.70811 -1.74148
2.35606 -3.70111 -1.74148
2.36706 -3.69411 -1.74148
2.38305 -3.69211 -1.74448
2.39806 -3.69111 -1.74748
2.39806 -3.67811 -1.74348
2.41406 -3.67711 -1.74648
2.42006 -3.66111 -1.74248
2.43506 -3.65811 -1.74448
2.44905 -3.65511 -1.74748
2.46106 -3.64811 -1.74748
2.46906 -3.64711 -1.74848
2.48306 -3.64411 -1.75048
2.49406 -3.63411 -1.75048
2.50805 -3.63111 -1.75248
2.52506 -3.63111 -1.75648
0.0100551 -4.23511 -1.71848
0.0430551 -4.22911 -1.71648
0.116055 -4.23211 -1.71748
0.688055 -4.19411 -1.72448
2.22606 -3.66511 -1.74148
2.37206 -3.59211 -1.74848
2.39806 -3.60611 -1.75948
2.40106 -3.58611 -1.75348
2.41406 -3.59311 -1.75848
2.44205 -3.58611 -1.76248
0.0170551 -4.12211 -1.72548
0.0560551 -4.12311 -1.72648
0.0690551 -4.12011 -1.72448
0.0880551 -4.12811 -1.72848
0.101055 -4.11911 -1.72448
0.114055 -4.12211 -1.72648
0.127055 -4.12411 -1.72748
0.258055 -4.14111 -1.73748
0.270055 -4.12411 -1.73048
0.284055 -4.13111 -1.73348
0.296055 -4.12111 -1.72948
0.309055 -4.11611 -1.72848
0.353055 -4.10511 -1.72448
0.366055 -4.10611 -1.72548
0.380055 -4.11511 -1.73048
0.388055 -4.13311 -1.73848
0.414055 -4.13111 -1.73848
0.427055 -4.12611 -1.73748
0.438055 -4.10811 -1.72948
0.463055 -4.09211 -1.72448
0.546055 -4.08011 -1.72348
0.565055 -4.08111 -1.72448
0.605055 -4.08711 -1.72948
0.623055 -4.07311 -1.72448
0.639055 -4.09311 -1.73448
1.67006 -3.79911 -1.73748
1.69206 -3.78511 -1.73648
1.73506 -3.76911 -1.73748
1.80106 -3.74011 -1.73848
1.84006 -3.73211 -1.74248
1.84806 -3.71911 -1.73948
1.85506 -3.71811 -1.74048
1.86806 -3.71511 -1.74148
1.89006 -3.70011 -1.74048
1.90206 -3.69611 -1.74148
1.91406 -3.69011 -1.74148
1.93406 -3.68611 -1.74348
1.96806 -3.66711 -1.74348
1.97906 -3.66011 -1.74248
2.00406 -3.65011 -1.74448
2.01006 -3.64911 -1.74548
2.02606 -3.65011 -1.74948
2.04306 -3.65411 -1.75448
2.05705 -3.65211 -1.75648
2.06606 -3.64111 -1.75448
2.07705 -3.63411 -1.75448
2.08206 -3.61711 -1.74848
2.09406 -3.62411 -1.75448
2.10906 -3.62411 -1.75748
2.12005 -3.61611 -1.75648
2.12806 -3.60311 -1.75348
2.14406 -3.60411 -1.75748
2.14305 -3.57711 -1.74648
2.15306 -3.58111 -1.75048
2.16506 -3.57611 -1.75148
2.17506 -3.56811 -1.75048
2.19506 -3.57511 -1.75848
2.21106 -3.57611 -1.76248
2.22406 -3.57211 -1.76348
0.0110551 -4.04711 -1.73748
0.0170551 -4.04711 -1.73748
0.0300551 -4.03911 -1.73448
0.0420551 -4.03511 -1.73248
0.0550551 -4.05011 -1.73948
0.0680551 -4.04111 -1.73548
0.0800551 -4.03511 -1.73248
0.0870551 -4.03111 -1.73148
0.0990551 -4.03311 -1.73248
0.112055 -4.04011 -1.73548
0.125055 -4.04611 -1.73848
0.137055 -4.03711 -1.73448
0.150055 -4.04011 -1.73648
0.163055 -4.03211 -1.73248
0.169055 -4.03211 -1.73248
0.182055 -4.03211 -1.73248
0.194055 -4.02411 -1.72948
0.207055 -4.02911 -1.73248
0.220055 -4.03011 -1.73248
0.232055 -4.02511 -1.73148
0.245055 -4.03211 -1.73448
0.253055 -4.04611 -1.74148
0.264055 -4.02711 -1.73248
0.276055 -4.02411 -1.73248
0.289055 -4.02011 -1.73048
0.301055 -4.01911 -1.73048
0.315055 -4.02311 -1.73248
0.321055 -4.02111 -1.73248
0.334055 -4.02911 -1.73648
0.346055 -4.02111 -1.73248
0.359055 -4.02311 -1.73448
0.372055 -4.02611 -1.73648
0.385055 -4.02311 -1.73548
0.396055 -4.01111 -1.73048
0.416055 -4.01811 -1.73448
0.428055 -4.01111 -1.73248
0.443055 -4.03111 -1.74248
0.593055 -3.99911 -1.73648
0.621055 -4.01711 -1.74648
0.650055 -3.99411 -1.73748
0.664055 -3.99911 -1.74148
0.675055 -3.98811 -1.73748
0.684055 -3.97011 -1.72948
0.699055 -3.98011 -1.73548
0.711055 -3.97611 -1.73448
0.718055 -3.97911 -1.73648
0.731055 -3.97811 -1.73748
0.747055 -3.99211 -1.74448
0.755055 -3.96811 -1.73448
0.769055 -3.97511 -1.73848
0.815055 -3.97511 -1.74248
0.839055 -3.96811 -1.74248
0.867055 -3.97311 -1.74748
0.868055 -3.94911 -1.73648
0.884055 -3.96611 -1.74548
0.893055 -3.94511 -1.73748
0.906055 -3.94811 -1.73948
0.921055 -3.95511 -1.74448
0.933055 -3.95111 -1.74348
0.941055 -3.92611 -1.73348
0.950055 -3.93711 -1.73948
0.958055 -3.91811 -1.73248
0.976055 -3.93811 -1.74248
1.56606 -3.76911 -1.75348
1.57706 -3.76211 -1.75248
1.58706 -3.75211 -1.75048
1.60306 -3.75711 -1.75548
1.60206 -3.72211 -1.74048
1.62106 -3.73411 -1.74848
1.62006 -3.71611 -1.74148
1.63306 -3.71411 -1.74248
1.65606 -3.70211 -1.74248
1.67706 -3.71911 -1.75248
1.68506 -3.70511 -1.74848
1.70006 -3.70611 -1.75248
1.70506 -3.70211 -1.75148
1.71206 -3.68711 -1.74648
1.73106 -3.69811 -1.75448
1.73506 -3.67611 -1.74648
1.74806 -3.67411 -1.74748
1.76406 -3.67811 -1.75248
1.77306 -3.66811 -1.75048
1.78006 -3.66711 -1.75148
1.78906 -3.65611 -1.74848
1.80006 -3.64911 -1.74748
1.81106 -3.64311 -1.74748
1.82706 -3.64511 -1.75248
1.84106 -3.64611 -1.75548
1.84506 -3.64011 -1.75348
1.86406 -3.64711 -1.76048
1.87006 -3.63211 -1.75548
1.88606 -3.63411 -1.75948
1.90906 -3.62311 -1.76048
1.91806 -3.61311 -1.75748
1.94006 -3.61311 -1.76248
2.00706 -3.58711 -1.76648
2.01805 -3.58111 -1.76648
0.173055 -3.96011 -1.74148
0.186055 -3.95811 -1.74048
0.198055 -3.95011 -1.73748
0.204055 -3.96011 -1.74248
0.217055 -3.96211 -1.74348
0.229055 -3.95211 -1.73948
0.242055 -3.96711 -1.74648
0.254055 -3.95411 -1.74048
0.267055 -3.96811 -1.74748
0.280055 -3.96911 -1.74848
0.323055 -3.95611 -1.74448
0.336055 -3.96611 -1.74948
0.348055 -3.96011 -1.74648
0.354055 -3.95711 -1.74648
0.367055 -3.95811 -1.74648
0.379055 -3.95111 -1.74448
0.392055 -3.96111 -1.74948
0.416055 -3.95311 -1.74648
0.429055 -3.95211 -1.74648
0.435055 -3.94711 -1.74548
0.459055 -3.94311 -1.74448
0.498055 -3.94911 -1.74948
0.510055 -3.94711 -1.74948
0.516055 -3.94711 -1.74948
0.552055 -3.93311 -1.74548
0.565055 -3.93111 -1.74548
0.929055 -3.87611 -1.75148
0.941055 -3.87111 -1.75148
0.948055 -3.84511 -1.74048
0.961055 -3.84811 -1.74248
0.967055 -3.84411 -1.74148
0.993055 -3.84711 -1.74648
1.00606 -3.84711 -1.74748
1.01606 -3.83511 -1.74348
1.02706 -3.82911 -1.74148
1.04506 -3.85011 -1.75348
1.04406 -3.82211 -1.74048
1.05606 -3.81911 -1.74048
1.07006 -3.82111 -1.74348
1.08706 -3.83511 -1.75148
1.09606 -3.82111 -1.74648
1.10706 -3.81411 -1.74548
1.12306 -3.82411 -1.75148
1.12606 -3.81411 -1.74748
1.13906 -3.81211 -1.74848
1.15406 -3.81911 -1.75348
1.16406 -3.80811 -1.75048
1.17806 -3.81311 -1.75448
1.19106 -3.81111 -1.75548
1.19206 -3.79411 -1.74748
1.20306 -3.78711 -1.74648
1.22006 -3.79811 -1.75348
1.23306 -3.79811 -1.75548
1.24306 -3.79111 -1.75348
1.25406 -3.78311 -1.75148
1.26606 -3.77911 -1.75148
1.27306 -3.77911 -1.75248
1.28606 -3.77811 -1.75448
1.29806 -3.77411 -1.75448
1.30806 -3.76711 -1.75248
1.32106 -3.76611 -1.75448
1.32806 -3.74811 -1.74748
1.33906 -3.76011 -1.75448
1.35006 -3.75411 -1.75348
1.36106 -3.74811 -1.75248
1.37306 -3.74411 -1.75248
1.38506 -3.74111 -1.75348
1.40006 -3.74311 -1.75748
1.41106 -3.73711 -1.75648
1.41606 -3.73311 -1.75548
1.42606 -3.72411 -1.75248
1.43806 -3.72111 -1.75348
1.45406 -3.72711 -1.75848
1.46406 -3.71711 -1.75648
1.47506 -3.71111 -1.75548
1.48906 -3.71311 -1.75848
1.49506 -3.71011 -1.75848
1.50306 -3.69711 -1.75448
1.51706 -3.69811 -1.75748
1.52806 -3.69311 -1.75748
1.54306 -3.69511 -1.76048
1.56706 -3.68811 -1.76248
1.58206 -3.67411 -1.75848
1.59506 -3.67411 -1.76148
1.60306 -3.65911 -1.75648
1.61806 -3.66411 -1.76148
1.62806 -3.65611 -1.75948
1.63606 -3.65611 -1.76148
1.64806 -3.65311 -1.76248
1.65906 -3.64611 -1.76148
1.69306 -3.63011 -1.76148
1.70506 -3.62711 -1.76248
1.71306 -3.62911 -1.76448
1.72406 -3.62311 -1.76448
1.73706 -3.62011 -1.76548
2.89006 -5.18411 0.400525
2.90806 -5.17811 0.400525
2.95006 -5.19411 0.401525
2.96806 -5.18811 0.401525
2.99805 -5.20311 0.402525
3.02206 -5.20511 0.403525
3.04606 -5.21011 0.403525
3.10106 -5.22611 0.405525
3.11305 -5.22811 0.405525
3.13305 -5.22511 0.405525
3.16006 -5.23311 0.406525
3.19406 -5.25211 0.407525
3.21106 -5.24211 0.407525
3.24306 -5.25711 0.408525
3.25306 -5.25311 0.408525
3.28006 -5.26011 0.409525
3.30705 -5.26711 0.409525
3.35906 -5.27611 0.411525
3.42806 -5.29111 0.412525
3.48805 -5.31011 0.414525
3.51105 -5.30911 0.414525
3.56906 -5.32311 0.416525
3.58906 -5.33411 0.417525
3.64506 -5.34411 0.418525
3.80705 -5.38011 0.422525
3.83906 -5.38911 0.423525
3.86606 -5.39011 0.423525
3.90206 -5.40511 0.425525
3.97306 -5.41311 0.426525
4.18305 -5.46011 0.432525
2.92506 -5.19411 0.334525
2.95106 -5.20211 0.334525
2.98805 -5.21011 0.335525
3.11406 -5.23611 0.337525
3.12906 -5.24211 0.337525
3.18006 -5.25311 0.338525
3.25706 -5.26711 0.339525
3.28306 -5.27211 0.340525
3.32405 -5.28111 0.340525
3.35005 -5.28611 0.341525
3.40506 -5.29811 0.342525
3.43406 -5.30611 0.342525
3.46205 -5.31211 0.343525
3.47406 -5.31311 0.343525
3.50406 -5.32211 0.343525
3.53206 -5.32811 0.344525
3.56006 -5.33311 0.344525
3.58705 -5.33711 0.345525
3.61706 -5.34511 0.345525
3.69306 -5.36611 0.347525
3.71906 -5.36811 0.347525
3.74406 -5.36711 0.347525
3.77706 -5.37811 0.348525
3.80806 -5.38611 0.349525
3.82606 -5.39311 0.349525
3.85806 -5.40211 0.349525
3.88305 -5.40111 0.350525
3.91206 -5.40511 0.350525
3.94806 -5.41911 0.351525
3.97205 -5.41611 0.351525
4.02305 -5.43211 0.352525
4.05405 -5.43711 0.353525
4.08205 -5.43911 0.353525
4.11705 -5.45011 0.354525
4.14705 -5.45411 0.354525
4.22706 -5.46911 0.356525
4.26505 -5.48311 0.356525
4.29705 -5.48811 0.357525
4.36105 -5.49811 0.358525
4.41505 -5.51211 0.359525
4.45106 -5.52111 0.360525
4.48605 -5.52911 0.360525
4.52005 -5.53511 0.361525
4.55405 -5.54111 0.362525
4.64605 -5.56311 0.363525
4.68405 -5.57311 0.364525
4.79405 -5.59511 0.366525
4.85705 -5.61411 0.367525
4.89605 -5.62311 0.368525
4.92705 -5.62311 0.369525
5.10906 -5.66711 0.372525
5.92705 -5.84711 0.388525
5.97706 -5.85911 0.389525
2.93506 -5.19811 0.288525
2.95606 -5.19711 0.289525
2.98106 -5.20311 0.289525
3.00006 -5.19811 0.289525
3.03105 -5.21411 0.289525
3.04506 -5.22011 0.290525
3.06906 -5.22211 0.290525
3.09206 -5.22511 0.290525
3.12206 -5.23711 0.290525
3.14206 -5.23411 0.291525
3.16706 -5.23811 0.291525
3.19306 -5.24411 0.291525
3.20906 -5.25211 0.291525
3.23306 -5.25411 0.292525
3.26206 -5.26411 0.292525
3.28405 -5.26311 0.292525
3.31106 -5.26911 0.292525
3.33806 -5.27611 0.293525
3.35406 -5.28211 0.293525
3.38305 -5.29211 0.293525
3.41006 -5.29811 0.294525
3.43106 -5.29411 0.294525
3.45706 -5.29711 0.294525
3.48805 -5.30811 0.294525
3.53105 -5.32011 0.295525
3.55806 -5.32411 0.295525
3.58506 -5.32711 0.295525
3.64106 -5.33911 0.296525
3.66806 -5.34311 0.296525
3.71505 -5.35711 0.297525
3.74306 -5.36211 0.297525
3.80206 -5.37411 0.298525
3.83206 -5.38011 0.298525
3.90806 -5.39711 0.299525
2.94506 -5.19511 0.258525
2.96706 -5.19411 0.258525
2.98306 -5.20311 0.258525
3.03105 -5.21011 0.258525
3.08606 -5.22911 0.259525
3.11005 -5.23311 0.259525
3.15306 -5.24711 0.259525
3.17806 -5.25111 0.259525
3.20106 -5.25311 0.259525
3.22205 -5.25011 0.260525
3.25206 -5.26211 0.260525
3.27406 -5.26011 0.260525
3.31306 -5.26611 0.260525
3.35206 -5.29111 0.261525
3.37305 -5.28711 0.261525
3.42406 -5.29311 0.261525
3.47306 -5.31411 0.261525
3.53206 -5.33011 0.262525
3.58306 -5.33411 0.262525
3.61706 -5.34811 0.263525
3.64006 -5.34611 0.263525
3.69006 -5.36511 0.263525
3.74805 -5.37611 0.264525
3.80006 -5.37811 0.264525
3.82306 -5.39211 0.264525
3.88206 -5.40311 0.265525
3.91206 -5.40911 0.265525
3.94506 -5.41811 0.265525
3.97106 -5.41811 0.265525
3.99906 -5.42011 0.265525
4.02805 -5.44111 0.266525
4.05505 -5.44111 0.266525
