6.16807 2.13004 -1.51905
6.17207 2.14204 -1.52105
6.15407 2.15804 -1.51905
6.14707 2.17704 -1.51905
6.12007 2.18904 -1.51305
6.12807 2.21404 -1.51705
6.11707 2.23204 -1.51605
6.11907 2.25404 -1.51905
6.08707 2.25304 -1.51105
6.09007 2.27604 -1.51405
6.08107 2.29504 -1.51305
6.08007 2.31604 -1.51505
6.06107 2.33104 -1.51205
6.06107 2.35304 -1.51405
6.03907 2.36604 -1.51005
6.04307 2.37804 -1.51205
6.01607 2.38904 -1.50605
6.01907 2.41304 -1.50905
5.99507 2.42504 -1.50505
6.00907 2.45304 -1.51105
5.98007 2.46204 -1.50505
5.98107 2.48504 -1.50705
5.98207 2.49704 -1.50905
5.97507 2.51504 -1.50905
5.95107 2.52704 -1.50405
5.95507 2.55104 -1.50805
5.94907 2.57104 -1.50805
5.95007 2.59304 -1.51105
5.93707 2.59904 -1.50805
5.92007 2.61404 -1.50605
5.91507 2.63404 -1.50705
5.91207 2.65504 -1.50805
5.89307 2.66804 -1.50505
5.88607 2.68804 -1.50605
5.87607 2.70504 -1.50505
6.72707 -2.79896 -1.71005
6.75507 -2.78596 -1.71505
6.76707 -2.76596 -1.71605
6.77007 -2.75496 -1.71605
6.76107 -2.72596 -1.71105
6.78207 -2.70996 -1.71405
6.78707 -2.68696 -1.71305
6.78607 -2.66196 -1.71105
6.81107 -2.64696 -1.71505
6.78807 -2.62596 -1.70805
6.80307 -2.60796 -1.71005
6.80907 -2.58596 -1.70905
6.82507 -2.56696 -1.71105
6.82707 -2.54296 -1.71005
6.83907 -2.52296 -1.71105
6.83607 -2.49796 -1.70805
6.84807 -2.46596 -1.70805
6.32507 1.14604 -1.56105
6.24707 1.41904 -1.55605
6.24107 1.42804 -1.55505
6.23707 1.44704 -1.55505
6.22307 1.46504 -1.55205
6.21207 1.48304 -1.55105
6.19307 1.49904 -1.54705
6.18207 1.51704 -1.54505
6.17607 1.53604 -1.54405
6.17507 1.54604 -1.54505
6.16607 1.56404 -1.54405
6.15807 1.58304 -1.54305
6.15307 1.60204 -1.54305
6.15107 1.62204 -1.54405
6.13507 1.63904 -1.54105
6.13107 1.64804 -1.54005
6.12407 1.66704 -1.54005
6.10907 1.68304 -1.53705
6.10707 1.70404 -1.53805
6.09407 1.72104 -1.53605
6.09307 1.74104 -1.53705
6.08707 1.76004 -1.53705
6.08307 1.76904 -1.53705
6.06007 1.78304 -1.53205
6.05707 1.80304 -1.53305
6.04907 1.82104 -1.53205
6.04107 1.84004 -1.53205
6.02807 1.85604 -1.53005
6.03007 1.87804 -1.53205
6.02107 1.88504 -1.53005
6.01907 1.90504 -1.53105
6.01307 1.92404 -1.53105
6.00507 1.94304 -1.53105
5.99507 1.96004 -1.53005
5.99307 1.98004 -1.53105
5.97407 1.99504 -1.52705
5.97007 2.00404 -1.52705
5.96607 2.02404 -1.52805
5.94907 2.03904 -1.52505
5.94207 2.05704 -1.52505
5.91907 2.07004 -1.52005
5.92207 2.09204 -1.52305
5.90807 2.10804 -1.52105
5.91207 2.12004 -1.52305
5.89807 2.13604 -1.52105
5.88607 2.15304 -1.51905
5.88307 2.17204 -1.52005
5.86307 2.18604 -1.51705
5.85807 2.20504 -1.51705
5.86007 2.21604 -1.51905
5.84207 2.23104 -1.51605
5.83907 2.25004 -1.51705
5.83107 2.26904 -1.51705
5.82107 2.28604 -1.51605
5.80407 2.30004 -1.51305
5.79907 2.31904 -1.51405
5.78507 2.32404 -1.51105
5.77907 2.34304 -1.51105
5.77507 2.36304 -1.51205
5.76407 2.37904 -1.51105
5.75007 2.39404 -1.50905
5.75107 2.41604 -1.51205
5.74207 2.42304 -1.51005
5.73807 2.44304 -1.51105
5.74207 2.46604 -1.51505
5.72007 2.47804 -1.51105
5.71107 2.49504 -1.51005
5.70307 2.51304 -1.51005
5.69307 2.53004 -1.51005
5.68007 2.53504 -1.50705
5.67207 2.55304 -1.50705
5.67007 2.57304 -1.50905
5.66207 2.59104 -1.50905
5.64107 2.60304 -1.50505
5.65007 2.62904 -1.51005
5.65807 2.65404 -1.51505
5.63807 2.67704 -1.51305
5.63007 2.69504 -1.51305
5.62707 2.71504 -1.51405
5.60607 2.72704 -1.51105
5.59607 2.74404 -1.51005
5.59007 2.76304 -1.51105
5.56907 2.76304 -1.50605
5.55807 2.78004 -1.50605
5.55507 2.80004 -1.50705
5.53407 2.81104 -1.50405
5.53007 2.83104 -1.50505
5.52307 2.84904 -1.50605
5.50807 2.85304 -1.50305
5.49907 2.87004 -1.50305
6.46107 -2.68896 -1.71005
6.47507 -2.67096 -1.71105
6.48007 -2.64896 -1.71005
6.48107 -2.62596 -1.70805
6.48407 -2.60296 -1.70705
6.48807 -2.59296 -1.70705
6.50007 -2.57396 -1.70805
6.51307 -2.55596 -1.70905
6.49607 -2.52496 -1.70205
6.51807 -2.51096 -1.70605
6.52407 -2.48896 -1.70605
6.53607 -2.46996 -1.70705
6.53407 -2.45796 -1.70505
6.54007 -2.43696 -1.70505
6.54207 -2.41396 -1.70305
6.54607 -2.39196 -1.70205
6.56807 -2.37696 -1.70605
6.55907 -2.34996 -1.70205
6.57607 -2.34496 -1.70505
6.57007 -2.31996 -1.70205
6.58607 -2.30196 -1.70405
6.59707 -2.28296 -1.70505
6.60307 -2.26096 -1.70505
6.60207 -2.23796 -1.70305
6.60607 -2.20396 -1.70105
6.61107 -2.18296 -1.70005
6.62107 -2.13996 -1.69905
6.10107 1.11004 -1.57105
6.06607 1.14304 -1.56305
6.04507 1.20804 -1.56105
5.97507 1.42004 -1.55505
5.98507 1.45204 -1.56005
5.97507 1.46904 -1.55805
5.96907 1.48804 -1.55705
5.96607 1.50704 -1.55805
5.94607 1.52204 -1.55405
5.94907 1.54204 -1.55605
5.92107 1.62504 -1.55405
5.90607 1.64104 -1.55205
5.90507 1.66004 -1.55305
5.87407 1.67104 -1.54505
5.88407 1.68404 -1.54905
5.86207 1.69804 -1.54405
5.85507 1.71604 -1.54405
5.85107 1.73504 -1.54405
5.83807 1.75104 -1.54205
5.84607 1.77304 -1.54605
5.84907 1.78404 -1.54705
5.84307 1.80204 -1.54705
5.81707 1.81404 -1.54205
5.83107 1.83904 -1.54705
5.81507 1.85404 -1.54405
5.81607 1.87504 -1.54605
5.80107 1.89004 -1.54405
5.80207 1.90004 -1.54505
5.79007 1.91604 -1.54305
5.78107 1.93304 -1.54205
5.77407 1.95204 -1.54205
5.77007 1.97004 -1.54305
5.75807 1.98704 -1.54105
5.73507 1.98904 -1.53505
5.73607 2.00904 -1.53805
5.73207 2.02804 -1.53805
5.72007 2.04404 -1.53605
5.71307 2.06204 -1.53605
5.70507 2.07904 -1.53605
5.69307 2.09504 -1.53405
5.68807 2.10304 -1.53405
5.68907 2.12404 -1.53605
5.66807 2.13604 -1.53205
5.66807 2.15704 -1.53405
5.65407 2.17204 -1.53205
5.65107 2.19104 -1.53305
5.62907 2.20304 -1.52905
5.64207 2.21804 -1.53305
5.60107 2.22204 -1.52305
5.60707 2.24504 -1.52705
5.60507 2.26504 -1.52905
5.59607 2.28204 -1.52805
5.58307 2.29704 -1.52705
5.58307 2.31704 -1.52905
5.57407 2.32404 -1.52705
5.56207 2.33904 -1.52505
5.56707 2.36204 -1.52905
5.54707 2.37404 -1.52505
5.53407 2.38904 -1.52405
5.53407 2.41004 -1.52605
5.52607 2.41704 -1.52505
5.52207 2.43604 -1.52605
5.50207 2.44704 -1.52205
5.50507 2.47004 -1.52505
5.48707 2.48204 -1.52205
5.48207 2.50104 -1.52305
5.46907 2.51604 -1.52205
5.47407 2.52804 -1.52405
5.46407 2.54504 -1.52405
5.44007 2.57504 -1.52105
5.43007 2.59104 -1.52105
5.41607 2.60604 -1.51905
5.42107 2.61804 -1.52205
5.33507 2.75504 -1.51805
6.26507 -2.56296 -1.72505
6.27007 -2.53096 -1.72305
6.29107 -2.41396 -1.71705
5.88207 1.13204 -1.56605
5.86507 1.14804 -1.56305
5.87407 1.16904 -1.56605
5.85407 1.18404 -1.56205
5.84607 1.20104 -1.56105
5.84407 1.22004 -1.56105
5.83507 1.22804 -1.55905
5.83507 1.24704 -1.56005
5.82507 1.28304 -1.55905
5.81907 1.30104 -1.55905
5.80007 1.31604 -1.55505
5.79207 1.33304 -1.55305
5.79007 1.34204 -1.55305
5.78007 1.35904 -1.55205
5.77007 1.37604 -1.55005
5.76207 1.39304 -1.54905
5.75507 1.41104 -1.54905
5.72807 1.49004 -1.54605
5.71607 1.52604 -1.54605
5.70207 1.54104 -1.54305
5.68807 1.58504 -1.54305
5.67407 1.62004 -1.54205
5.66107 1.64504 -1.54005
5.65607 1.66304 -1.54005
5.63807 1.69604 -1.53805
5.61607 1.74804 -1.53605
5.60807 1.77404 -1.53605
5.59807 1.79104 -1.53505
5.59307 1.80804 -1.53505
5.57607 1.84204 -1.53405
5.57007 1.85904 -1.53405
5.54407 1.91804 -1.53205
5.06207 2.77404 -1.50505
5.03907 2.82304 -1.50705
5.02007 2.83304 -1.50305
5.00107 2.87504 -1.50405
4.98307 2.88504 -1.50205
4.97907 2.90404 -1.50305
4.96207 2.91504 -1.50105
4.95307 2.94104 -1.50205
4.94007 2.95504 -1.50105
4.85807 3.06304 -1.49705
4.84707 3.07704 -1.49705
6.02307 -2.46396 -1.71205
6.02507 -2.44296 -1.71005
6.03307 -2.42396 -1.71005
6.03307 -2.41296 -1.70905
6.04107 -2.39396 -1.70905
6.04707 -2.37396 -1.70805
6.05807 -2.35696 -1.70905
6.05807 -2.33496 -1.70705
6.07007 -2.31796 -1.70905
6.07907 -2.29896 -1.70905
6.08107 -2.28896 -1.70905
6.08807 -2.26996 -1.70905
6.08807 -2.24796 -1.70705
6.08807 -2.22596 -1.70505
6.10807 -2.21196 -1.70805
6.10907 -2.19096 -1.70705
6.10907 -2.17996 -1.70605
6.10507 -2.15696 -1.70205
6.11907 -2.13996 -1.70505
6.11507 -2.11696 -1.70105
6.13107 -2.10096 -1.70405
6.13307 -2.07996 -1.70305
6.14507 -2.06296 -1.70505
6.14307 -2.05196 -1.70305
6.14807 -2.03196 -1.70205
6.14307 -2.00896 -1.69905
6.15507 -1.99096 -1.70105
6.15907 -1.97096 -1.70005
6.15807 -1.94896 -1.69805
6.17207 -1.93196 -1.70005
6.17307 -1.92196 -1.70005
6.17307 -1.90096 -1.69805
5.68107 1.22304 -1.57405
5.63407 1.23104 -1.56105
5.61507 1.34704 -1.56305
5.58107 1.34804 -1.55405
5.57707 1.36604 -1.55405
5.55807 1.41704 -1.55205
5.57607 1.44004 -1.55905
5.56207 1.45504 -1.55605
5.56407 1.46504 -1.55705
5.56707 1.48504 -1.55905
5.54307 1.49704 -1.55405
5.53707 1.51404 -1.55305
5.54507 1.53504 -1.55705
5.52507 1.54804 -1.55305
5.52207 1.56604 -1.55305
5.51607 1.57404 -1.55205
5.50207 1.58804 -1.54905
5.50207 1.60704 -1.55105
5.50707 1.62704 -1.55405
5.48307 1.63904 -1.54805
5.47807 1.65604 -1.54805
5.48407 1.66704 -1.55105
5.45907 1.67804 -1.54505
5.46307 1.69804 -1.54805
5.47407 1.72104 -1.55305
5.44307 1.73004 -1.54505
5.43007 1.74404 -1.54305
5.43207 1.76404 -1.54505
5.40707 1.78404 -1.54005
5.41207 1.80504 -1.54305
5.40007 1.81904 -1.54105
5.38307 1.83204 -1.53805
5.39507 1.85604 -1.54305
5.37607 1.85804 -1.53805
5.37907 1.87804 -1.54105
5.37707 1.89704 -1.54205
5.36007 1.91004 -1.53905
5.32707 1.95504 -1.53405
5.32407 1.96304 -1.53405
5.31607 1.97904 -1.53405
5.06007 2.44804 -1.51905
5.03907 2.48704 -1.51805
5.02907 2.50204 -1.51805
5.02307 2.51804 -1.51805
4.98707 2.58904 -1.51805
4.97007 2.60004 -1.51505
4.96007 2.61504 -1.51505
4.95607 2.63204 -1.51605
4.94607 2.63704 -1.51405
4.94007 2.65404 -1.51505
4.94007 2.67404 -1.51805
4.92007 2.68304 -1.51405
4.91007 2.69704 -1.51305
4.90807 2.71704 -1.51505
4.89707 2.73104 -1.51505
4.90007 2.74204 -1.51705
4.89507 2.76004 -1.51805
4.86907 2.76604 -1.51305
4.87007 2.78704 -1.51605
4.85707 2.79904 -1.51405
4.85507 2.81804 -1.51605
4.85207 2.83704 -1.51905
4.85807 2.85104 -1.52205
4.84207 2.86204 -1.52005
4.83007 2.87504 -1.51905
4.80907 2.88304 -1.51505
4.80007 2.89904 -1.51505
4.79807 2.91804 -1.51705
4.78607 2.92104 -1.51505
4.77907 2.93704 -1.51505
4.77007 2.95204 -1.51505
4.74407 2.95704 -1.51005
4.74307 2.97704 -1.51305
4.73507 2.99304 -1.51305
4.73907 3.00604 -1.51605
4.71307 3.01004 -1.51005
4.70507 3.02604 -1.51105
4.68707 3.03504 -1.50805
4.68107 3.05204 -1.50905
4.66407 3.06204 -1.50605
4.65107 3.07404 -1.50505
4.64307 3.07904 -1.50405
4.63607 3.09604 -1.50505
5.83407 -2.41496 -1.72005
5.83307 -2.39296 -1.71705
5.83307 -2.38196 -1.71605
5.85007 -2.36796 -1.71905
5.84107 -2.34296 -1.71405
5.84807 -2.32396 -1.71405
5.86807 -2.31096 -1.71805
5.85607 -2.28496 -1.71105
5.87007 -2.26896 -1.71405
5.86607 -2.25696 -1.71105
5.87907 -2.24096 -1.71305
5.87907 -2.21996 -1.71105
5.89407 -2.20396 -1.71405
5.88307 -2.17896 -1.70805
5.89007 -2.16096 -1.70805
5.90107 -2.14396 -1.70905
5.90007 -2.13296 -1.70805
5.91107 -2.11596 -1.70905
5.90607 -2.07196 -1.70405
5.92107 -2.05696 -1.70605
5.92907 -2.03896 -1.70705
5.92007 -2.02496 -1.70305
5.93307 -2.00896 -1.70505
5.93607 -1.98896 -1.70405
5.94207 -1.97096 -1.70405
5.94307 -1.94996 -1.70305
5.95107 -1.93196 -1.70305
5.95907 -1.91396 -1.70405
5.95607 -1.90296 -1.70205
5.96107 -1.86296 -1.70005
5.96707 -1.84396 -1.70005
5.97207 -1.82596 -1.70005
5.97407 -1.80596 -1.69905
5.55007 1.23704 -1.57805
5.51907 1.24804 -1.57005
5.49307 1.26004 -1.56405
5.49307 1.27004 -1.56405
5.47207 1.28304 -1.55905
5.47707 1.30204 -1.56205
5.46807 1.31804 -1.56005
5.45807 1.33404 -1.55805
5.44807 1.35004 -1.55705
5.44607 1.35804 -1.55705
5.43907 1.41104 -1.55805
5.42507 1.42604 -1.55605
5.41507 1.44104 -1.55405
5.42707 1.46304 -1.55905
5.40107 1.48304 -1.55305
5.40007 1.50104 -1.55405
5.39407 1.51804 -1.55405
5.38207 1.53304 -1.55205
5.37907 1.55004 -1.55205
5.38707 1.56204 -1.55605
5.36407 1.57304 -1.55005
5.36807 1.59304 -1.55305
5.35007 1.60604 -1.54905
5.35107 1.62404 -1.55005
5.35307 1.64304 -1.55305
5.33707 1.65704 -1.54905
5.34007 1.66704 -1.55105
5.33407 1.68304 -1.55105
5.32507 1.69904 -1.55005
5.30507 1.73004 -1.54705
5.28507 1.76004 -1.54405
5.28107 1.76804 -1.54405
5.28807 1.78804 -1.54805
5.26407 1.81704 -1.54405
5.24907 1.83104 -1.54105
5.24707 1.84804 -1.54205
4.84507 2.58204 -1.52005
4.82407 2.60904 -1.51805
4.81507 2.61404 -1.51705
4.80607 2.62904 -1.51705
4.80207 2.64604 -1.51805
4.78007 2.67404 -1.51605
4.77307 2.69004 -1.51705
4.77407 2.70004 -1.51805
4.75907 2.71104 -1.51605
4.74507 2.72304 -1.51505
4.74507 2.74304 -1.51705
4.72607 2.75204 -1.51405
4.72907 2.77404 -1.51805
4.71007 2.78304 -1.51505
4.71607 2.79604 -1.51805
4.70207 2.80804 -1.51605
4.69207 2.82104 -1.51605
4.67607 2.83204 -1.51305
4.68507 2.85804 -1.52005
4.67607 2.87304 -1.52005
4.66707 2.88704 -1.52005
4.65807 2.89204 -1.51805
4.65707 2.91104 -1.52105
4.64007 2.92104 -1.51805
4.62907 2.93404 -1.51705
4.62407 2.95204 -1.51905
4.59907 2.95604 -1.51305
4.59107 2.97204 -1.51405
4.59507 2.98404 -1.51705
4.58407 2.99704 -1.51605
4.57707 3.01404 -1.51705
4.57607 3.03304 -1.52005
4.54907 3.03604 -1.51405
4.53807 3.04904 -1.51305
4.53907 3.07104 -1.51705
4.51707 3.06604 -1.51105
4.51707 3.08704 -1.51505
5.68107 -2.34896 -1.71605
5.68307 -2.32896 -1.71405
5.69007 -2.31196 -1.71405
5.70607 -2.29696 -1.71705
5.70307 -2.28496 -1.71505
5.71707 -2.26996 -1.71705
5.73107 -2.25496 -1.71905
5.73007 -2.23396 -1.71605
5.73107 -2.21396 -1.71505
5.73507 -2.19396 -1.71305
5.72407 -2.16896 -1.70805
5.73607 -2.16396 -1.71105
5.74807 -2.14796 -1.71205
5.74007 -2.12396 -1.70805
5.73807 -2.10296 -1.70505
5.75707 -2.08896 -1.70905
5.76407 -2.07096 -1.70905
5.76107 -2.04996 -1.70605
5.76807 -2.04196 -1.70705
5.76507 -2.02096 -1.70405
5.75507 -1.99696 -1.69905
5.77307 -1.98296 -1.70305
5.77207 -1.96196 -1.70005
5.78307 -1.94596 -1.70205
5.78407 -1.92596 -1.70005
5.79207 -1.91896 -1.70205
5.78407 -1.89596 -1.69705
5.79107 -1.87796 -1.69805
5.79007 -1.85696 -1.69605
5.80307 -1.84196 -1.69805
5.78907 -1.81696 -1.69205
5.81007 -1.81396 -1.69705
5.80507 -1.79196 -1.69405
5.81207 -1.77396 -1.69505
5.81607 -1.75496 -1.69405
5.83207 -1.73996 -1.69705
5.83407 -1.72096 -1.69605
5.83807 -1.70196 -1.69605
5.84007 -1.69296 -1.69605
5.83407 -1.65096 -1.69105
5.85007 -1.63596 -1.69405
5.85007 -1.61596 -1.69205
5.84607 -1.59496 -1.68905
5.84307 -1.58496 -1.68805
5.86207 -1.54996 -1.69105
5.85507 -1.52896 -1.68705
5.29407 1.30904 -1.57605
5.26107 1.31804 -1.56605
5.24107 1.34804 -1.56305
5.25007 1.37704 -1.56705
5.26607 1.39904 -1.57405
5.27007 1.41804 -1.57705
5.24607 1.42904 -1.57005
5.25207 1.44804 -1.57405
5.24807 1.46504 -1.57405
5.24407 1.49004 -1.57505
5.23407 1.50504 -1.57305
5.22407 1.52004 -1.57105
5.22507 1.53804 -1.57305
5.20907 1.55104 -1.57005
5.20107 1.57604 -1.57005
5.19707 1.61004 -1.57105
5.18807 1.62504 -1.57005
5.17607 1.63904 -1.56805
5.16307 1.65304 -1.56605
5.15107 1.66704 -1.56305
5.14607 1.69204 -1.56405
5.13907 1.72604 -1.56605
5.13407 1.74204 -1.56605
5.10707 1.75104 -1.55805
5.11007 1.77004 -1.56105
5.10007 1.77504 -1.55905
5.08607 1.78804 -1.55605
5.08907 1.80704 -1.55905
5.08107 1.82304 -1.55805
5.07607 1.83904 -1.55805
5.06507 1.85304 -1.55705
5.05507 1.86704 -1.55505
5.04307 1.87204 -1.55305
5.03607 1.88704 -1.55205
5.04607 1.90904 -1.55705
5.01507 1.91504 -1.54905
5.00707 1.93004 -1.54805
5.00607 1.94804 -1.55005
4.99307 1.96104 -1.54805
4.99507 1.97104 -1.55005
4.98007 1.98304 -1.54705
4.98407 2.00304 -1.55005
4.96907 2.01504 -1.54705
4.96507 2.03104 -1.54805
4.94807 2.04204 -1.54405
4.96007 2.05704 -1.55005
4.93607 2.06504 -1.54405
4.92807 2.08004 -1.54305
4.92007 2.09404 -1.54205
4.90307 2.10504 -1.53905
4.89607 2.12104 -1.53905
4.89107 2.13704 -1.54005
4.89507 2.14804 -1.54205
4.87407 2.15704 -1.53705
4.88807 2.18104 -1.54405
4.85707 2.18604 -1.53605
4.85907 2.20504 -1.53905
4.85007 2.21904 -1.53805
4.85307 2.23004 -1.54105
4.83807 2.24104 -1.53805
4.82707 2.25504 -1.53705
4.81007 2.26504 -1.53305
4.81507 2.28604 -1.53705
4.79907 2.29704 -1.53405
4.79107 2.31204 -1.53405
4.79007 2.32004 -1.53505
4.79607 2.34204 -1.54005
4.77307 2.35004 -1.53405
4.76407 2.36404 -1.53405
4.76007 2.38004 -1.53505
4.76307 2.40104 -1.53805
4.73507 2.40504 -1.53105
4.73407 2.41404 -1.53205
4.72307 2.42704 -1.53105
4.71207 2.44004 -1.53005
4.72807 2.46804 -1.53805
4.70007 2.47204 -1.53105
4.70807 2.49504 -1.53705
4.69107 2.50504 -1.53405
4.68907 2.51304 -1.53405
4.67807 2.52604 -1.53305
4.68007 2.54604 -1.53705
4.65707 2.55304 -1.53105
4.65607 2.57104 -1.53405
4.64607 2.58504 -1.53305
4.64807 2.59604 -1.53505
4.62207 2.60004 -1.52905
4.63007 2.62404 -1.53505
4.60507 2.62904 -1.52905
4.59607 2.64204 -1.52805
4.61407 2.67204 -1.53805
4.58507 2.67504 -1.53105
4.58907 2.68704 -1.53405
4.58307 2.70204 -1.53405
4.55907 2.70804 -1.52905
4.55107 2.72204 -1.52905
4.54407 2.73804 -1.52905
4.53207 2.75004 -1.52805
4.51807 2.75104 -1.52505
4.52907 2.77704 -1.53205
4.50707 2.78304 -1.52705
4.50307 2.80004 -1.52905
4.49607 2.81604 -1.52905
4.47107 2.81904 -1.52405
4.46507 2.83604 -1.52505
4.46907 2.84804 -1.52805
4.45207 2.85704 -1.52505
4.44307 2.87104 -1.52505
4.42907 2.88104 -1.52305
4.43407 2.90504 -1.52805
4.41007 2.92804 -1.52605
4.40707 2.93604 -1.52705
4.39607 2.94904 -1.52605
4.38507 2.98204 -1.52905
4.37307 2.99404 -1.52805
4.36507 3.00804 -1.52805
4.35007 3.01904 -1.52705
4.34107 3.02204 -1.52505
4.33207 3.03604 -1.52505
4.31407 3.04404 -1.52205
4.30807 3.06004 -1.52305
4.30107 3.07604 -1.52405
4.29107 3.08904 -1.52405
4.27907 3.09004 -1.52105
4.27507 3.10804 -1.52405
4.26607 3.12204 -1.52405
4.25407 3.13404 -1.52305
4.24307 3.14604 -1.52205
4.23307 3.15904 -1.52205
4.22107 3.17104 -1.52205
4.21907 3.18004 -1.52305
4.21107 3.19504 -1.52405
4.18207 3.21404 -1.52005
4.18107 3.23404 -1.52405
4.16907 3.24604 -1.52305
4.13607 3.27304 -1.52005
4.11107 3.27404 -1.51405
4.09607 3.28304 -1.51205
4.07407 3.28604 -1.50805
5.47307 -2.31196 -1.72605
5.49107 -2.27896 -1.72705
5.49407 -2.25996 -1.72605
5.49407 -2.24996 -1.72505
5.49607 -2.23096 -1.72305
5.50507 -2.21396 -1.72405
5.51207 -2.19696 -1.72405
5.51707 -2.17896 -1.72305
5.53307 -2.11596 -1.72105
5.53807 -2.09696 -1.72005
5.54807 -2.06096 -1.71905
5.55307 -2.01396 -1.71605
5.13107 1.30604 -1.58205
5.12107 1.33704 -1.58105
4.89207 1.87204 -1.56405
4.88307 1.90404 -1.56505
4.86607 1.94104 -1.56405
4.84807 1.95204 -1.56005
4.84907 1.97004 -1.56205
4.82807 1.97904 -1.55705
4.83307 1.99904 -1.56105
4.82307 2.01304 -1.56005
4.80107 2.03004 -1.55605
4.79507 2.04504 -1.55605
4.79307 2.06204 -1.55705
4.77807 2.07404 -1.55405
4.77507 2.09004 -1.55605
4.75607 2.10004 -1.55105
4.76007 2.11904 -1.55505
4.76607 2.13104 -1.55805
4.74707 2.14004 -1.55405
4.74007 2.15504 -1.55405
4.70507 2.17504 -1.54605
4.71807 2.19904 -1.55305
4.71207 2.21504 -1.55405
4.70207 2.21904 -1.55105
4.69307 2.23304 -1.55105
4.66907 2.25704 -1.54705
4.67407 2.27804 -1.55105
4.67007 2.29404 -1.55305
4.64907 2.29304 -1.54605
4.63707 2.30504 -1.54505
4.63807 2.32404 -1.54805
4.62407 2.33504 -1.54505
4.61507 2.34904 -1.54505
4.61807 2.36804 -1.54805
4.60007 2.37804 -1.54505
4.59807 2.38604 -1.54505
4.59207 2.40104 -1.54605
4.58507 2.41504 -1.54605
4.57207 2.42704 -1.54405
4.55807 2.45704 -1.54505
4.55607 2.46504 -1.54505
4.54807 2.47904 -1.54505
4.53407 2.49004 -1.54305
4.53107 2.50704 -1.54505
4.52507 2.52204 -1.54505
4.50707 2.53104 -1.54205
4.49907 2.54504 -1.54205
4.50507 2.55704 -1.54505
4.48007 2.56204 -1.53905
4.48107 2.58104 -1.54205
4.45407 2.60304 -1.53905
4.44407 2.64404 -1.54205
4.42907 2.65404 -1.54005
4.42507 2.67104 -1.54205
4.41007 2.68104 -1.53905
4.40507 2.69704 -1.54005
4.38007 2.71904 -1.53705
4.37707 2.72704 -1.53805
4.37207 2.74304 -1.53905
4.36507 2.75804 -1.54005
4.35307 2.76904 -1.53905
4.33407 2.79604 -1.53805
4.31707 2.79404 -1.53305
4.31607 2.81304 -1.53605
4.29107 2.85504 -1.53705
3.89607 3.32404 -1.52605
5.19007 -2.63096 -1.74905
5.19807 -2.61396 -1.74905
5.20607 -2.59796 -1.74905
5.20807 -2.57796 -1.74705
5.21007 -2.56896 -1.74605
5.24607 -2.45496 -1.74105
4.82707 1.53504 -1.56705
4.82807 1.55204 -1.56905
4.82307 1.55904 -1.56805
4.82607 1.57604 -1.57105
4.81007 1.58804 -1.56705
4.79207 1.59804 -1.56205
4.79807 1.61704 -1.56605
4.78407 1.62904 -1.56305
4.77507 1.64304 -1.56205
4.77107 1.65004 -1.56105
4.74807 1.69204 -1.55905
4.73407 1.72104 -1.55705
4.73607 1.74704 -1.56105
4.71807 1.75704 -1.55705
4.71307 1.77204 -1.55705
4.71107 1.78804 -1.55805
4.69007 1.83104 -1.55705
4.67107 1.84904 -1.55305
4.65607 1.87704 -1.55205
4.64407 1.90604 -1.55205
4.63007 1.94304 -1.55205
4.10207 2.75904 -1.52705
4.09507 2.77304 -1.52705
4.07507 2.79604 -1.52605
4.06607 2.80904 -1.52605
4.04207 2.84004 -1.52505
4.01407 2.87704 -1.52505
4.00007 2.89504 -1.52505
3.98907 2.90704 -1.52405
3.97907 2.91804 -1.52305
3.97707 2.93604 -1.52705
3.96307 2.94504 -1.52505
3.95707 2.96004 -1.52605
3.95207 2.96604 -1.52605
3.94307 2.97904 -1.52605
3.92907 2.98804 -1.52405
3.92407 3.00304 -1.52605
3.91807 3.01804 -1.52705
3.90407 3.02704 -1.52505
3.89207 3.02704 -1.52205
3.88807 3.04404 -1.52505
3.87207 3.05204 -1.52205
3.86407 3.06504 -1.52305
3.85907 3.08104 -1.52505
3.85207 3.09504 -1.52605
3.83407 3.10004 -1.52205
3.82907 3.10604 -1.52205
3.82407 3.12204 -1.52405
3.80207 3.12404 -1.51905
3.80107 3.14304 -1.52305
3.79807 3.16104 -1.52605
3.78707 3.17204 -1.52505
3.77107 3.17904 -1.52305
3.77207 3.19004 -1.52505
3.75807 3.19804 -1.52305
3.74007 3.20304 -1.52005
3.74007 3.22404 -1.52505
3.72307 3.22904 -1.52205
3.71007 3.23904 -1.52005
3.70407 3.25404 -1.52205
3.69607 3.25704 -1.52105
3.68307 3.28704 -1.52405
4.97307 -2.55096 -1.74005
4.97307 -2.53096 -1.73705
4.97707 -2.51396 -1.73605
4.98207 -2.48696 -1.73305
4.99007 -2.47096 -1.73305
4.98907 -2.45096 -1.73005
4.99707 -2.43596 -1.73005
5.01607 -2.42596 -1.73505
5.01007 -2.40296 -1.73005
5.02107 -2.39896 -1.73205
5.03407 -2.38496 -1.73405
5.02207 -2.36096 -1.72705
5.03307 -2.34696 -1.72805
5.03707 -2.32896 -1.72705
5.05407 -2.31796 -1.73105
5.04607 -2.30496 -1.72705
5.05507 -2.28996 -1.72705
5.05907 -2.27196 -1.72605
5.06207 -2.25496 -1.72505
5.06207 -2.23596 -1.72205
5.07607 -2.22296 -1.72505
5.08207 -2.20596 -1.72405
5.08707 -2.19896 -1.72505
5.08307 -2.17896 -1.72105
5.09907 -2.16596 -1.72405
5.10007 -2.14796 -1.72205
5.11907 -2.13696 -1.72705
5.11907 -2.11796 -1.72405
5.12607 -2.10196 -1.72405
5.12907 -2.09396 -1.72405
5.12507 -2.07396 -1.72005
5.14507 -2.06296 -1.72505
5.14807 -2.04496 -1.72405
5.14807 -2.02696 -1.72105
5.16107 -2.01296 -1.72405
5.16607 -2.00596 -1.72505
5.16707 -1.98696 -1.72305
5.17007 -1.96996 -1.72105
5.17407 -1.95296 -1.72105
5.16907 -1.93296 -1.71705
5.18107 -1.91796 -1.71905
5.17807 -1.89896 -1.71605
5.18107 -1.89096 -1.71605
5.19407 -1.87696 -1.71805
5.19407 -1.85896 -1.71605
5.21207 -1.80996 -1.71605
5.21507 -1.76496 -1.71305
5.21107 -1.74596 -1.71005
5.23007 -1.69696 -1.71005
5.23907 -1.65496 -1.70905
5.25207 -1.55996 -1.70405
4.73207 1.47904 -1.57705
4.72807 1.51104 -1.57905
4.72007 1.52404 -1.57805
4.70407 1.53604 -1.57405
4.68807 1.54704 -1.57005
4.70007 1.56704 -1.57605
4.68307 1.57004 -1.57105
4.69007 1.58904 -1.57505
4.67507 1.60004 -1.57105
4.67107 1.61504 -1.57205
4.65207 1.62504 -1.56705
4.67007 1.64704 -1.57505
4.64807 1.64804 -1.56805
4.63207 1.65904 -1.56405
4.64407 1.68004 -1.57105
4.62307 1.68804 -1.56505
4.62307 1.70504 -1.56705
4.62007 1.72004 -1.56705
4.60307 1.73104 -1.56405
4.59007 1.73404 -1.56005
4.59907 1.75404 -1.56505
4.57907 1.76304 -1.56005
4.58407 1.78104 -1.56405
4.57007 1.79204 -1.56005
4.55207 1.82704 -1.55905
4.55107 1.84304 -1.56105
4.53907 1.85404 -1.55805
4.53307 1.86904 -1.55805
4.52207 1.88104 -1.55605
4.51207 1.89304 -1.55505
4.51807 1.90404 -1.55805
4.50407 1.93204 -1.55805
4.48507 1.95704 -1.55505
4.47207 1.96804 -1.55305
4.47107 1.98404 -1.55505
4.46307 1.98904 -1.55305
4.46107 2.00504 -1.55505
4.45007 2.01704 -1.55305
4.44507 2.03204 -1.55305
4.42907 2.05804 -1.55205
4.41607 2.06904 -1.54905
4.41407 2.07704 -1.55005
4.40607 2.09004 -1.54905
4.40507 2.12304 -1.55405
4.38307 2.14704 -1.55105
4.36607 2.16404 -1.54805
4.35207 2.17404 -1.54605
4.34507 2.18804 -1.54605
4.28707 2.28704 -1.54405
4.27507 2.29804 -1.54205
4.27307 2.31404 -1.54405
4.24307 2.37604 -1.54505
4.22407 2.38304 -1.54005
4.22907 2.39404 -1.54405
4.22307 2.40804 -1.54405
4.20507 2.41604 -1.54005
4.21107 2.43704 -1.54605
4.18807 2.44104 -1.54005
4.17007 2.46604 -1.53805
4.17107 2.47504 -1.54005
4.16007 2.48604 -1.53905
4.15007 2.49804 -1.53805
4.15407 2.51804 -1.54305
4.14107 2.52804 -1.54105
4.13607 2.54304 -1.54205
4.12207 2.55204 -1.54005
4.11907 2.56004 -1.54005
4.11407 2.57504 -1.54205
4.11107 2.59104 -1.54405
4.08407 2.59104 -1.53605
4.09207 2.61404 -1.54205
4.07707 2.62304 -1.54005
4.06207 2.63204 -1.53705
4.06607 2.64304 -1.54005
4.04807 2.65004 -1.53705
4.03007 2.65604 -1.53305
4.02507 2.67104 -1.53405
4.01407 2.68204 -1.53305
4.01007 2.69704 -1.53505
4.00907 2.70604 -1.53605
4.00807 2.72404 -1.53905
3.99207 2.73104 -1.53605
3.99307 2.75004 -1.54005
3.97807 2.75804 -1.53705
3.97107 2.77204 -1.53805
3.95807 2.77304 -1.53505
3.95707 2.79004 -1.53805
3.93907 2.79604 -1.53405
3.94407 2.81804 -1.54005
3.92507 2.82304 -1.53505
3.92707 2.84304 -1.54005
3.90907 2.84904 -1.53605
3.90907 2.85804 -1.53805
3.91207 2.88004 -1.54305
3.89107 2.88304 -1.53805
3.87407 2.88904 -1.53505
3.87707 2.91104 -1.54005
3.86507 2.92104 -1.53805
3.85907 2.93504 -1.54005
3.85107 2.93904 -1.53805
3.84007 2.95004 -1.53805
3.83807 2.96704 -1.54105
3.82607 2.97704 -1.54005
3.81807 2.99004 -1.54005
3.80107 2.99604 -1.53705
3.79207 3.01804 -1.53905
3.77407 3.04304 -1.54005
3.75307 3.04504 -1.53505
3.74307 3.05704 -1.53505
3.74507 3.07804 -1.54005
3.71807 3.10504 -1.53805
3.70207 3.11204 -1.53605
3.67407 3.14804 -1.53705
3.65807 3.16404 -1.53605
3.64407 3.17204 -1.53405
3.64107 3.18904 -1.53705
3.60707 3.22004 -1.53505
3.60007 3.22404 -1.53505
3.57307 3.24004 -1.53105
3.57107 3.25904 -1.53505
3.56107 3.27004 -1.53505
3.54607 3.27804 -1.53305
3.54407 3.28604 -1.53505
3.53107 3.29504 -1.53305
3.52207 3.30704 -1.53405
3.49507 3.32404 -1.53105
3.48807 3.33704 -1.53305
4.81807 -2.53596 -1.74305
4.81007 -2.50196 -1.73505
4.81607 -2.48596 -1.73405
4.83207 -2.43696 -1.73205
4.86707 -2.43596 -1.74205
4.86607 -2.38696 -1.73405
4.86507 -2.34896 -1.72905
4.90007 -2.34696 -1.73905
4.90207 -2.32896 -1.73705
4.88407 -2.30196 -1.72705
4.90607 -2.30296 -1.73405
4.91307 -2.28796 -1.73405
4.91707 -2.26996 -1.73305
4.91207 -2.24896 -1.72905
4.90907 -2.22896 -1.72505
4.92307 -2.21696 -1.72705
4.94507 -2.21796 -1.73405
4.92807 -2.19096 -1.72505
4.92807 -2.17296 -1.72305
4.93307 -2.15696 -1.72205
4.96907 -2.15396 -1.73305
4.94307 -2.12396 -1.72105
4.97907 -2.12096 -1.73205
4.96207 -2.10396 -1.72405
4.95607 -2.08396 -1.72005
4.97007 -2.07096 -1.72205
4.99307 -2.06296 -1.72905
4.98207 -2.03996 -1.72205
5.00607 -2.03096 -1.72905
4.98307 -2.00296 -1.71805
4.98807 -1.99596 -1.71805
5.03207 -1.94096 -1.72505
5.03307 -1.92296 -1.72305
5.04407 -1.88196 -1.72205
5.04307 -1.86396 -1.72005
5.04107 -1.80896 -1.71205
5.06207 -1.77196 -1.71505
5.05507 -1.73396 -1.70905
5.06407 -1.70096 -1.70805
5.10507 -1.55596 -1.70605
5.10807 -1.53896 -1.70505
5.11207 -1.52296 -1.70505
5.10507 -1.50296 -1.70105
5.11207 -1.49696 -1.70305
5.11607 -1.46296 -1.70105
5.11907 -1.44696 -1.70005
5.12507 -1.43096 -1.70105
5.13207 -1.41496 -1.70105
5.13507 -1.37296 -1.69905
5.14107 -1.32296 -1.69605
4.60907 1.46904 -1.58605
4.60507 1.47504 -1.58505
4.59707 1.48904 -1.58405
4.59107 1.51904 -1.58505
4.58407 1.53204 -1.58505
4.56907 1.54304 -1.58105
4.55707 1.55504 -1.57805
4.55107 1.56104 -1.57705
4.55707 1.57904 -1.58105
4.53407 1.58704 -1.57405
4.53107 1.60204 -1.57505
4.53107 1.61804 -1.57705
4.52007 1.63004 -1.57505
4.51407 1.64404 -1.57405
4.50707 1.65004 -1.57305
4.50207 1.66404 -1.57305
4.49007 1.67504 -1.57005
4.49007 1.69104 -1.57205
4.48507 1.70504 -1.57205
4.46307 1.71304 -1.56605
4.47007 1.73204 -1.57105
4.46807 1.73904 -1.57105
4.45207 1.74904 -1.56705
4.44307 1.76204 -1.56505
4.43707 1.77604 -1.56505
4.43307 1.80604 -1.56805
4.42507 1.81104 -1.56605
4.41907 1.82504 -1.56605
4.41507 1.84004 -1.56705
4.40407 1.85104 -1.56505
4.40207 1.86704 -1.56605
4.38707 1.87704 -1.56305
4.37607 1.88804 -1.56105
4.36607 1.89204 -1.55805
4.36907 1.90904 -1.56105
4.37007 1.92604 -1.56405
4.35207 1.95104 -1.56205
4.33407 1.95904 -1.55705
4.33007 1.97404 -1.55805
4.32507 1.98004 -1.55705
4.31707 1.99304 -1.55705
4.31207 2.00704 -1.55705
4.30107 2.01804 -1.55505
4.30007 2.03404 -1.55705
4.28807 2.04504 -1.55505
4.28807 2.05304 -1.55705
4.27307 2.06304 -1.55405
4.25707 2.08804 -1.55205
4.26207 2.10704 -1.55705
4.24907 2.11704 -1.55405
4.24407 2.13104 -1.55505
4.22707 2.14804 -1.55205
4.22307 2.16304 -1.55405
4.21007 2.17304 -1.55105
4.20107 2.18504 -1.55005
4.19107 2.19604 -1.54905
4.19107 2.21304 -1.55205
4.18607 2.21904 -1.55105
4.17207 2.22804 -1.54805
4.17007 2.24404 -1.55005
4.16007 2.25504 -1.54905
4.14907 2.26704 -1.54805
4.13707 2.27704 -1.54605
4.13707 2.29404 -1.54805
4.14107 2.30504 -1.55205
4.13207 2.31704 -1.55105
4.13007 2.33304 -1.55305
4.11307 2.34004 -1.54905
4.11207 2.35704 -1.55205
4.09307 2.36304 -1.54705
4.09607 2.37304 -1.55005
4.09007 2.38704 -1.55005
4.07607 2.39604 -1.54805
4.07307 2.41204 -1.55005
4.06407 2.42304 -1.54905
4.05807 2.43704 -1.55005
4.05107 2.44204 -1.54805
4.04207 2.45304 -1.54805
4.02407 2.46004 -1.54405
4.02307 2.47704 -1.54605
4.01107 2.48604 -1.54405
4.00407 2.50004 -1.54505
4.00107 2.51504 -1.54705
3.98507 2.51404 -1.54205
3.98807 2.53304 -1.54605
3.97807 2.54504 -1.54605
3.96907 2.55604 -1.54505
3.95707 2.56704 -1.54405
3.95907 2.58504 -1.54805
3.94707 2.59604 -1.54605
3.93707 2.59804 -1.54405
3.94007 2.61704 -1.54805
3.92107 2.62204 -1.54405
3.91907 2.63904 -1.54605
3.91707 2.65504 -1.54905
3.90007 2.66204 -1.54605
3.89207 2.67504 -1.54605
3.89407 2.68504 -1.54805
3.87907 2.69304 -1.54605
3.86907 2.70404 -1.54505
3.86707 2.72004 -1.54805
3.84607 2.72404 -1.54205
3.83607 2.73504 -1.54205
3.83407 2.75104 -1.54405
3.82207 2.75204 -1.54105
3.81307 2.76404 -1.54105
3.81207 2.78104 -1.54405
3.79907 2.79004 -1.54205
3.79407 2.80504 -1.54405
3.78707 2.81804 -1.54505
3.77507 2.81804 -1.54205
3.76807 2.83104 -1.54205
3.76907 2.85104 -1.54705
3.74807 2.85404 -1.54205
3.74107 2.86704 -1.54205
3.73607 2.88204 -1.54405
3.71407 2.88304 -1.53805
3.71207 2.89104 -1.54005
3.71307 2.91104 -1.54405
3.70107 2.92104 -1.54305
3.69507 2.93504 -1.54405
3.66507 2.94804 -1.53905
3.65907 2.95304 -1.53805
3.66407 2.97604 -1.54505
3.64007 2.97604 -1.53805
3.63707 2.99204 -1.54105
3.63207 3.00704 -1.54305
3.61307 3.01104 -1.53905
3.60007 3.01904 -1.53705
3.59107 3.04104 -1.54005
3.57307 3.04404 -1.53605
3.58207 3.07204 -1.54405
3.55807 3.07104 -1.53805
3.55107 3.08404 -1.53905
3.53707 3.10104 -1.53905
3.52407 3.11004 -1.53805
3.52407 3.12904 -1.54205
3.50907 3.13504 -1.54005
3.49207 3.14004 -1.53605
3.48007 3.15004 -1.53605
3.47807 3.16704 -1.53905
3.47307 3.17304 -1.53905
3.46707 3.18704 -1.54105
3.45307 3.19404 -1.53905
3.43807 3.20104 -1.53705
3.42707 3.21104 -1.53605
3.42107 3.22504 -1.53805
3.40807 3.23304 -1.53705
3.40407 3.24004 -1.53805
3.38707 3.24404 -1.53405
3.37707 3.25504 -1.53405
3.37507 3.27304 -1.53805
3.36607 3.28504 -1.53905
4.68307 -2.50196 -1.75105
4.67507 -2.48796 -1.74705
4.69207 -2.47796 -1.75005
4.70107 -2.46396 -1.75105
4.69907 -2.44396 -1.74705
4.70807 -2.42996 -1.74705
4.72107 -2.41796 -1.74905
4.72707 -2.40196 -1.74905
4.72707 -2.39296 -1.74705
4.73407 -2.37796 -1.74705
4.73707 -2.36096 -1.74505
4.74207 -2.34496 -1.74505
4.75507 -2.33196 -1.74705
4.74707 -2.30996 -1.74105
4.76407 -2.29996 -1.74505
4.76107 -2.28896 -1.74205
4.76507 -2.27296 -1.74105
4.77907 -2.26096 -1.74305
4.77607 -2.24096 -1.73905
4.78107 -2.22496 -1.73905
4.79507 -2.21396 -1.74105
4.79007 -2.20196 -1.73805
4.78507 -2.18196 -1.73305
4.80707 -2.17396 -1.73905
4.79807 -2.15196 -1.73305
4.80307 -2.13596 -1.73305
4.82207 -2.10796 -1.73505
4.81607 -2.09596 -1.73205
4.83307 -2.06796 -1.73305
4.83607 -2.05096 -1.73205
4.84007 -2.01696 -1.72805
4.85707 -2.00596 -1.73205
4.85607 -1.99696 -1.73105
4.86307 -1.92896 -1.72405
4.90307 -1.80296 -1.72205
4.90007 -1.78496 -1.71805
4.50007 1.49104 -1.59105
4.44707 1.61404 -1.58705
4.42807 1.63904 -1.58405
4.42107 1.65204 -1.58305
4.41707 1.67404 -1.58505
4.40407 1.70104 -1.58405
4.39207 1.71204 -1.58105
4.36507 1.77404 -1.58105
4.34907 1.79904 -1.57905
4.33907 1.81904 -1.57805
4.32407 1.82904 -1.57505
4.32407 1.84404 -1.57705
4.31507 1.87304 -1.57805
4.30407 1.88404 -1.57605
4.30007 1.89904 -1.57705
4.29107 1.91904 -1.57705
4.28707 1.93304 -1.57705
4.26407 1.93904 -1.57105
4.26607 1.95604 -1.57405
4.25307 1.96604 -1.57105
4.24507 1.98704 -1.57205
4.22807 2.01104 -1.57005
4.21807 2.02304 -1.56905
4.22007 2.04004 -1.57205
4.20407 2.06504 -1.57105
4.20207 2.07304 -1.57105
4.19207 2.08404 -1.57005
4.18407 2.09604 -1.56905
4.18107 2.11104 -1.57105
4.17307 2.12404 -1.57005
4.15607 2.14004 -1.56705
4.14207 2.16604 -1.56705
4.11407 2.18404 -1.56105
4.11707 2.20204 -1.56505
4.08707 2.26104 -1.56605
4.07307 2.27004 -1.56305
4.06607 2.28304 -1.56305
4.07007 2.29404 -1.56605
4.00007 2.36304 -1.55705
3.99807 2.39604 -1.56205
3.98907 2.40804 -1.56205
3.97407 2.43304 -1.56205
3.96007 2.44104 -1.55905
3.89907 2.52404 -1.55605
3.86507 2.57104 -1.55605
3.85007 2.58804 -1.55405
3.81107 2.63104 -1.55205
3.79407 2.65504 -1.55205
3.76507 2.69704 -1.55205
3.73807 2.71404 -1.54805
3.73507 2.73804 -1.55205
3.72907 2.75204 -1.55305
3.72407 2.76604 -1.55405
3.64707 2.84504 -1.55005
3.61807 2.88704 -1.55105
3.56407 2.94604 -1.54905
4.55107 -2.50796 -1.75405
4.57007 -2.47196 -1.75405
4.59107 -2.44596 -1.75605
4.60207 -2.41496 -1.75505
4.63907 -2.31496 -1.75005
4.62807 -2.29996 -1.74405
4.66007 -2.20696 -1.74005
4.68607 -2.17496 -1.74305
4.69407 -2.12496 -1.73905
4.20107 1.75904 -1.56805
4.15107 1.84704 -1.56405
4.07007 1.99804 -1.56105
4.03007 2.06504 -1.55905
4.01407 2.08904 -1.55705
3.97107 2.15404 -1.55505
3.86707 2.32404 -1.55205
3.84407 2.35904 -1.55205
3.82707 2.39004 -1.55205
3.77207 2.44804 -1.54705
3.45307 2.84204 -1.53805
3.37507 2.93204 -1.53705
3.36507 2.94304 -1.53705
3.32707 2.97504 -1.53405
3.31807 3.00404 -1.53905
3.25807 3.05304 -1.53505
3.23207 3.06704 -1.53205
3.21407 3.09904 -1.53505
3.20607 3.11104 -1.53605
3.18107 3.12504 -1.53305
3.16807 3.15204 -1.53705
3.17207 3.16604 -1.54105
3.16207 3.17604 -1.54105
3.14507 3.17904 -1.53805
3.14107 3.19504 -1.54105
3.12407 3.19804 -1.53705
3.11307 3.20604 -1.53705
3.11007 3.21404 -1.53805
3.10407 3.22804 -1.54005
3.08607 3.22904 -1.53605
3.07207 3.23504 -1.53405
3.07207 3.25504 -1.53905
3.06407 3.26804 -1.54105
3.04507 3.26804 -1.53605
3.04907 3.28204 -1.54105
3.03107 3.28304 -1.53705
3.02307 3.29604 -1.53805
3.00307 3.31504 -1.53805
2.99207 3.32404 -1.53805
2.99207 3.34504 -1.54305
2.97607 3.33804 -1.53805
2.97107 3.35304 -1.54105
2.95307 3.35404 -1.53705
2.95507 3.37704 -1.54305
4.40007 -2.42896 -1.74205
4.40607 -2.40596 -1.74005
4.42407 -2.39696 -1.74405
4.43507 -2.38496 -1.74505
4.42407 -2.36196 -1.73805
4.44407 -2.35496 -1.74305
4.44207 -2.33596 -1.73905
4.44007 -2.32596 -1.73705
4.46807 -2.32196 -1.74505
4.44707 -2.29396 -1.73405
4.45607 -2.28096 -1.73405
4.47307 -2.27196 -1.73805
4.49707 -2.24896 -1.74305
4.47707 -2.22996 -1.73305
4.49107 -2.21896 -1.73605
4.48607 -2.19896 -1.73105
4.51607 -2.19696 -1.74005
4.50107 -2.17196 -1.73105
4.51307 -2.15996 -1.73405
4.51507 -2.14396 -1.73105
4.52207 -2.13796 -1.73305
4.52107 -2.12096 -1.73005
4.53107 -2.10796 -1.73105
4.55107 -2.08296 -1.73405
4.53107 -2.05596 -1.72305
4.53707 -2.04996 -1.72505
4.54407 -2.03596 -1.72505
4.55907 -2.02596 -1.72805
4.56007 -2.00896 -1.72605
4.57307 -1.99796 -1.72905
4.55907 -1.97396 -1.72005
4.57907 -1.96596 -1.72605
4.57007 -1.95396 -1.72105
4.60307 -1.95096 -1.73205
4.57607 -1.92296 -1.71905
4.59807 -1.91496 -1.72505
4.59507 -1.89696 -1.72205
4.59407 -1.87996 -1.71905
4.62307 -1.87396 -1.72805
4.59307 -1.85396 -1.71505
4.60707 -1.84296 -1.71805
4.61807 -1.82996 -1.72005
4.61407 -1.81196 -1.71605
4.62807 -1.80096 -1.72005
4.64607 -1.79096 -1.72505
4.62607 -1.77496 -1.71605
4.64407 -1.76496 -1.72005
4.63707 -1.74596 -1.71605
4.64907 -1.73396 -1.71805
4.65507 -1.71896 -1.71805
4.64307 -1.69796 -1.71105
4.66607 -1.68996 -1.71805
4.64707 -1.67496 -1.71005
4.65207 -1.65996 -1.71005
4.65207 -1.64396 -1.70805
4.66407 -1.63196 -1.71105
4.66907 -1.61696 -1.71105
4.66707 -1.59996 -1.70805
4.66707 -1.58296 -1.70605
4.67107 -1.57696 -1.70705
4.68907 -1.56596 -1.71105
4.69507 -1.55196 -1.71205
4.69307 -1.53496 -1.70905
4.70107 -1.52096 -1.71105
4.68807 -1.50096 -1.70405
4.70607 -1.48996 -1.70905
4.71007 -1.48296 -1.70905
4.71707 -1.45296 -1.70905
4.70407 -1.43296 -1.70205
4.72307 -1.42196 -1.70705
4.71607 -1.40396 -1.70305
4.72607 -1.39896 -1.70605
4.71607 -1.36396 -1.69905
4.73707 -1.35396 -1.70505
4.74107 -1.33896 -1.70505
4.73507 -1.30496 -1.70005
4.09107 1.71604 -1.57505
4.07507 1.72504 -1.57105
4.08007 1.74204 -1.57505
4.07907 1.74904 -1.57505
4.06507 1.75804 -1.57205
4.05707 1.77004 -1.57105
4.06207 1.78804 -1.57505
4.04307 1.79404 -1.57005
4.04207 1.80904 -1.57205
4.03307 1.82004 -1.57105
4.02507 1.82404 -1.56805
4.02807 1.84104 -1.57205
4.02507 1.85504 -1.57305
4.01107 1.86404 -1.57005
3.99107 1.88504 -1.56605
3.98307 1.89704 -1.56605
3.98007 1.90304 -1.56605
3.98907 1.92304 -1.57205
3.97207 1.93004 -1.56705
3.96007 1.94004 -1.56505
3.96607 1.95804 -1.57005
3.94607 1.96404 -1.56405
3.94407 1.97804 -1.56605
3.94607 1.98604 -1.56805
3.92907 1.99404 -1.56305
3.92307 2.02204 -1.56605
3.91007 2.03104 -1.56305
3.90907 2.05304 -1.56705
3.87607 2.08304 -1.56105
3.87007 2.09504 -1.56105
3.86107 2.12204 -1.56305
3.84107 2.13504 -1.55905
3.84007 2.15004 -1.56105
3.81807 2.16904 -1.55805
3.81407 2.18304 -1.55905
3.81407 2.19104 -1.56105
3.80107 2.19904 -1.55805
3.80407 2.21704 -1.56205
3.78507 2.22204 -1.55705
3.78507 2.23804 -1.56005
3.77407 2.24804 -1.55805
3.76407 2.25804 -1.55705
3.75607 2.26104 -1.55505
3.76507 2.28204 -1.56205
3.74107 2.28404 -1.55505
3.73507 2.31304 -1.55805
3.72007 2.32004 -1.55505
3.71707 2.33404 -1.55705
3.72007 2.34404 -1.56005
3.69807 2.34704 -1.55305
3.69007 2.37404 -1.55605
3.58507 2.50304 -1.55105
3.55707 2.53304 -1.54905
3.47807 2.62804 -1.54605
3.47007 2.63904 -1.54605
3.46907 2.65604 -1.54905
3.45507 2.66204 -1.54605
3.45507 2.67104 -1.54905
3.43507 2.69004 -1.54705
3.42207 2.69804 -1.54505
3.41407 2.70804 -1.54505
3.40507 2.71904 -1.54505
3.39907 2.73204 -1.54605
3.39207 2.73504 -1.54505
3.38507 2.74704 -1.54605
3.38107 2.76104 -1.54805
3.36907 2.76904 -1.54605
3.35807 2.77804 -1.54505
3.34907 2.78804 -1.54505
3.34007 2.79904 -1.54505
3.33607 2.80404 -1.54505
3.32307 2.81104 -1.54305
3.31407 2.82104 -1.54305
3.30307 2.83004 -1.54205
3.29507 2.84104 -1.54205
3.28307 2.84904 -1.54105
3.25907 2.87304 -1.54005
3.24607 2.89804 -1.54305
3.24307 2.91404 -1.54605
3.24207 2.93104 -1.55005
3.23307 2.93304 -1.54805
3.22807 2.94604 -1.55005
3.21107 2.94904 -1.54605
3.20507 2.96304 -1.54805
3.18807 2.96504 -1.54405
3.18007 2.97704 -1.54405
3.17807 2.98404 -1.54605
3.17507 3.00104 -1.54905
3.16207 3.00704 -1.54705
3.15807 3.02204 -1.55005
3.14307 3.02604 -1.54705
3.13207 3.03504 -1.54605
3.12007 3.04204 -1.54505
3.11807 3.05004 -1.54605
3.10807 3.06004 -1.54605
3.08907 3.06004 -1.54105
3.09307 3.08304 -1.54905
3.07907 3.10804 -1.55105
3.06407 3.11204 -1.54905
3.06007 3.11804 -1.54905
3.03807 3.13504 -1.54805
3.03307 3.14904 -1.55105
3.01107 3.16604 -1.54905
3.00107 3.17504 -1.54905
2.98307 3.18704 -1.54805
2.97207 3.19504 -1.54705
2.95607 3.21704 -1.54905
2.94507 3.22704 -1.54905
2.72407 3.41104 -1.54805
2.65307 3.46404 -1.54705
2.63107 3.48104 -1.54705
2.62007 3.48904 -1.54705
4.24507 -2.42496 -1.74705
4.25407 -2.41296 -1.74705
4.26007 -2.39796 -1.74705
4.26407 -2.39196 -1.74705
4.26307 -2.37396 -1.74305
4.27407 -2.36196 -1.74405
4.28307 -2.34896 -1.74505
4.28707 -2.33396 -1.74405
4.28907 -2.31796 -1.74205
4.29507 -2.30396 -1.74105
4.29807 -2.29696 -1.74105
4.30907 -2.28496 -1.74205
4.31307 -2.26996 -1.74105
4.32207 -2.25696 -1.74205
4.32507 -2.24196 -1.74005
4.34207 -2.23296 -1.74405
4.33107 -2.21896 -1.73805
4.33907 -2.20596 -1.73905
4.35607 -2.19796 -1.74305
4.34207 -2.17296 -1.73405
4.35507 -2.16296 -1.73705
4.37207 -2.15396 -1.74105
4.36207 -2.13196 -1.73405
4.36707 -2.12596 -1.73405
4.39207 -2.12096 -1.74205
4.38007 -2.09796 -1.73405
4.39907 -2.08996 -1.73905
4.39507 -2.07196 -1.73505
4.39107 -2.05296 -1.73105
4.40407 -2.04196 -1.73405
4.41407 -2.03896 -1.73705
4.40407 -2.01696 -1.73005
4.41507 -2.00496 -1.73205
4.43207 -1.99596 -1.73605
4.43007 -1.97796 -1.73205
4.43707 -1.96496 -1.73305
4.45107 -1.96296 -1.73705
4.43507 -1.93896 -1.72805
4.43407 -1.92196 -1.72505
4.44707 -1.91096 -1.72805
4.46307 -1.90096 -1.73205
4.45707 -1.88196 -1.72705
4.47007 -1.87096 -1.73005
4.46607 -1.86096 -1.72705
4.47507 -1.84896 -1.72905
4.46507 -1.82796 -1.72205
4.48107 -1.81796 -1.72705
4.48007 -1.80096 -1.72405
4.49107 -1.78896 -1.72605
4.49007 -1.77296 -1.72305
4.48007 -1.76096 -1.71805
4.50007 -1.75196 -1.72405
4.49807 -1.73496 -1.72105
4.49507 -1.71796 -1.71705
4.51907 -1.71096 -1.72505
4.50607 -1.68896 -1.71705
4.51607 -1.67696 -1.72005
4.52407 -1.67196 -1.72205
4.53507 -1.65996 -1.72405
4.52607 -1.63996 -1.71805
4.54307 -1.63096 -1.72305
4.53207 -1.61096 -1.71705
4.54307 -1.59796 -1.71905
4.54707 -1.59196 -1.72005
4.54107 -1.57396 -1.71505
4.55207 -1.56096 -1.71705
4.55307 -1.54596 -1.71605
4.55407 -1.51396 -1.71205
4.56607 -1.50196 -1.71505
4.56607 -1.49396 -1.71505
4.57307 -1.48096 -1.71505
4.57607 -1.44996 -1.71305
4.57507 -1.41796 -1.70905
4.58507 -1.39796 -1.71005
4.59107 -1.38396 -1.71105
4.59807 -1.35396 -1.71005
4.01207 1.62504 -1.58005
3.99207 1.64504 -1.57605
4.01607 1.67004 -1.58805
4.00507 1.67304 -1.58505
3.99107 1.68204 -1.58105
3.99607 1.69904 -1.58505
3.99207 1.71204 -1.58605
3.96507 1.71504 -1.57705
3.96407 1.73004 -1.57905
3.98207 1.74504 -1.58805
3.96607 1.75304 -1.58305
3.96207 1.76604 -1.58405
3.96707 1.78304 -1.58805
3.93607 1.78404 -1.57705
3.94407 1.80304 -1.58305
3.93707 1.81404 -1.58305
3.92007 1.81404 -1.57705
3.91307 1.82604 -1.57605
3.90907 1.83904 -1.57705
3.91307 1.85604 -1.58105
3.90207 1.86604 -1.57905
3.88807 1.87404 -1.57505
3.89707 1.88604 -1.58005
3.88107 1.89304 -1.57605
3.87607 1.90604 -1.57705
3.87707 1.92104 -1.58005
3.86407 1.93004 -1.57705
3.85307 1.94004 -1.57505
3.83707 1.94704 -1.57005
3.84607 1.95904 -1.57505
3.84107 1.97204 -1.57605
3.82807 1.98004 -1.57305
3.82007 1.99104 -1.57205
3.81807 2.00504 -1.57405
3.80107 2.01204 -1.56905
3.80007 2.02704 -1.57205
3.78407 2.02504 -1.56605
3.78907 2.04404 -1.57105
3.77707 2.05304 -1.56905
3.78407 2.07204 -1.57505
3.76107 2.07504 -1.56705
3.75107 2.08504 -1.56605
3.74307 2.09504 -1.56505
3.75107 2.10804 -1.57005
3.73507 2.11404 -1.56605
3.73007 2.12704 -1.56705
3.71707 2.13504 -1.56405
3.72007 2.15204 -1.56805
3.70607 2.16004 -1.56505
3.69807 2.16304 -1.56305
3.69607 2.17704 -1.56505
3.69407 2.19204 -1.56705
3.68107 2.19904 -1.56405
3.67407 2.21104 -1.56405
3.66207 2.22004 -1.56205
3.65507 2.23104 -1.56205
3.65507 2.23904 -1.56405
3.64907 2.25104 -1.56405
3.63807 2.26004 -1.56205
3.63507 2.27404 -1.56405
3.62507 2.28404 -1.56305
3.61907 2.29604 -1.56405
3.60407 2.30204 -1.56005
3.60707 2.31204 -1.56305
3.59207 2.31804 -1.55905
3.59107 2.33404 -1.56205
3.58207 2.34404 -1.56105
3.58107 2.35904 -1.56405
3.56707 2.36604 -1.56105
3.56207 2.37104 -1.56105
3.56307 2.38804 -1.56505
3.55307 2.39704 -1.56405
3.54107 2.40504 -1.56105
3.54107 2.42204 -1.56505
3.52707 2.42904 -1.56205
3.51607 2.43704 -1.56105
3.50607 2.43904 -1.55805
3.50307 2.45304 -1.56005
3.50207 2.46804 -1.56305
3.48607 2.47404 -1.55905
3.47107 2.47904 -1.55605
3.47407 2.49804 -1.56105
3.46007 2.50404 -1.55805
3.44807 2.50404 -1.55405
3.41707 2.53104 -1.55105
3.41407 2.54504 -1.55305
3.41607 2.56404 -1.55805
3.40107 2.56904 -1.55405
3.40007 2.59404 -1.56005
3.39707 2.60804 -1.56205
3.37807 2.61104 -1.55705
3.37607 2.62604 -1.56005
3.37207 2.64004 -1.56205
3.35707 2.63704 -1.55705
3.36207 2.65804 -1.56405
3.34707 2.66304 -1.56005
3.33107 2.66704 -1.55605
3.32507 2.68004 -1.55805
3.31807 2.69204 -1.55905
3.31707 2.69904 -1.56005
3.29707 2.70004 -1.55405
3.28907 2.71104 -1.55405
3.28907 2.72804 -1.55905
3.28407 2.74204 -1.56105
3.26707 2.74504 -1.55605
3.25407 2.75204 -1.55405
3.24707 2.75404 -1.55305
3.24807 2.77304 -1.55805
3.22607 2.77104 -1.55105
3.22407 2.78704 -1.55405
3.22107 2.80204 -1.55705
3.20607 2.80804 -1.55405
3.20607 2.82504 -1.55905
3.20107 2.83004 -1.55905
3.18807 2.83604 -1.55605
3.17907 2.84604 -1.55605
3.17307 2.85904 -1.55805
3.16107 2.86604 -1.55605
3.15507 2.87904 -1.55805
3.13907 2.89104 -1.55605
3.13007 2.90104 -1.55605
3.12107 2.91104 -1.55605
3.11007 2.91904 -1.55605
3.08507 2.91404 -1.54705
3.09807 2.94504 -1.55905
3.07107 2.94704 -1.55205
3.06307 2.95804 -1.55305
3.06007 2.97404 -1.55605
3.04707 2.98004 -1.55405
3.04607 2.99704 -1.55905
3.02407 3.00304 -1.55405
3.00607 3.00504 -1.55005
3.01107 3.02904 -1.55805
2.98107 3.05604 -1.55705
2.96407 3.05704 -1.55305
2.96707 3.07004 -1.55705
2.91607 3.11304 -1.55605
2.83207 3.18004 -1.55305
2.41907 3.49804 -1.55105
2.38607 3.52004 -1.55105
2.37307 3.52604 -1.55005
2.36707 3.52804 -1.54905
2.35507 3.53404 -1.54805
2.34507 3.54304 -1.54905
2.32107 3.55604 -1.54805
4.11407 -2.37896 -1.74505
4.11607 -2.37096 -1.74505
4.14007 -2.35096 -1.74905
4.14107 -2.33396 -1.74605
4.15207 -2.32296 -1.74805
4.16207 -2.31196 -1.74905
4.15807 -2.29196 -1.74405
4.16707 -2.28796 -1.74605
4.18007 -2.27896 -1.74905
4.17607 -2.25996 -1.74405
4.18307 -2.24596 -1.74405
4.17707 -2.22596 -1.73805
4.18707 -2.21496 -1.74005
4.19407 -2.20996 -1.74105
4.19807 -2.19496 -1.74005
4.20607 -2.18296 -1.74005
4.21807 -2.17196 -1.74305
4.21507 -2.15396 -1.73805
4.22707 -2.14296 -1.74005
4.22807 -2.12696 -1.73805
4.23307 -2.12096 -1.73905
4.23307 -2.10496 -1.73605
4.24107 -2.09196 -1.73705
4.25807 -2.08396 -1.74105
4.26807 -2.07196 -1.74305
4.25907 -2.05096 -1.73605
4.27207 -2.04096 -1.73905
4.26907 -2.03096 -1.73605
4.26307 -2.01196 -1.73105
4.26507 -1.99696 -1.72905
4.29007 -1.99196 -1.73705
4.28907 -1.97496 -1.73405
4.27507 -1.95296 -1.72505
4.29307 -1.94496 -1.73005
4.29907 -1.93896 -1.73205
4.31207 -1.92896 -1.73505
4.31307 -1.91296 -1.73205
4.31107 -1.89596 -1.72905
4.31507 -1.88096 -1.72805
4.32207 -1.86896 -1.72905
4.31807 -1.85896 -1.72605
4.34007 -1.85196 -1.73205
4.33507 -1.83396 -1.72805
4.34407 -1.82196 -1.72905
4.36207 -1.81296 -1.73505
4.36807 -1.78296 -1.73205
4.37107 -1.77696 -1.73205
4.36407 -1.75796 -1.72705
4.36507 -1.74196 -1.72505
4.37607 -1.71496 -1.72505
4.38607 -1.70296 -1.72705
4.39307 -1.68996 -1.72805
4.38007 -1.67696 -1.72105
4.38907 -1.66496 -1.72305
4.39907 -1.65296 -1.72505
4.40607 -1.63996 -1.72605
4.41007 -1.62496 -1.72505
4.41507 -1.61096 -1.72505
4.40207 -1.59896 -1.71905
4.41407 -1.58696 -1.72105
4.42007 -1.57396 -1.72205
4.42107 -1.52796 -1.71605
4.43707 -1.50996 -1.72005
4.45307 -1.43696 -1.71705
4.44807 -1.39796 -1.71105
4.46407 -1.37196 -1.71305
3.89807 1.64504 -1.59505
3.88407 1.64604 -1.59005
3.87707 1.67204 -1.59205
3.87007 1.68404 -1.59105
3.84907 1.70304 -1.58605
3.83807 1.71304 -1.58405
3.83707 1.72004 -1.58505
3.84007 1.73604 -1.58905
3.83007 1.74604 -1.58605
3.81107 1.75204 -1.58005
3.81407 1.76704 -1.58405
3.80307 1.77704 -1.58205
3.80107 1.79104 -1.58305
3.80107 1.79804 -1.58505
3.79407 1.80904 -1.58405
3.78807 1.82104 -1.58405
3.77807 1.83104 -1.58205
3.76207 1.83804 -1.57705
3.75607 1.84904 -1.57705
3.76007 1.86604 -1.58205
3.74707 1.86704 -1.57705
3.75107 1.88404 -1.58205
3.74207 1.89404 -1.58005
3.73607 1.90604 -1.58005
3.73207 1.91804 -1.58105
3.71907 1.92704 -1.57805
3.71107 1.93004 -1.57605
3.70307 1.94104 -1.57505
3.69107 1.94904 -1.57205
3.69607 1.96704 -1.57705
3.69307 1.98004 -1.57905
3.67207 1.98404 -1.57205
3.67107 1.99804 -1.57405
3.66607 2.00304 -1.57405
3.65207 2.01004 -1.57005
3.64507 2.02104 -1.57005
3.64207 2.03404 -1.57105
3.62907 2.04204 -1.56805
3.62907 2.05704 -1.57105
3.62107 2.06804 -1.57105
3.61007 2.06904 -1.56705
3.60307 2.08004 -1.56705
3.60607 2.09704 -1.57105
3.58907 2.10204 -1.56605
3.58307 2.11404 -1.56705
3.58207 2.12804 -1.56905
3.57307 2.13104 -1.56705
3.56407 2.14004 -1.56505
3.56007 2.15304 -1.56705
3.55107 2.17904 -1.56905
3.54407 2.19004 -1.56905
3.52507 2.19304 -1.56305
3.52407 2.20104 -1.56505
3.51907 2.21304 -1.56505
3.50007 2.23204 -1.56305
3.50307 2.24904 -1.56805
