1.84282 3.49812 -1.55913
1.83082 3.50212 -1.55813
1.82982 3.51312 -1.56213
1.81882 3.51912 -1.56213
1.80582 3.52112 -1.56013
1.79482 3.52712 -1.56013
1.78282 3.53112 -1.55913
1.76982 3.53212 -1.55713
1.75882 3.53712 -1.55713
1.75582 3.54512 -1.55913
1.74282 3.54712 -1.55813
1.73582 3.56112 -1.56213
1.72082 3.56012 -1.55913
1.71082 3.56712 -1.55913
1.70382 3.58212 -1.56413
1.68782 3.57612 -1.55913
1.68182 3.57812 -1.55913
1.67482 3.59212 -1.56213
1.65882 3.58712 -1.55813
1.65082 3.60112 -1.56213
1.63782 3.60112 -1.55913
1.62782 3.60912 -1.56113
1.61382 3.60912 -1.55913
1.59982 3.62412 -1.56213
1.58982 3.63212 -1.56313
1.58082 3.64212 -1.56613
1.55982 3.62512 -1.55513
1.55182 3.63812 -1.55913
1.54282 3.64812 -1.56213
1.53382 3.64212 -1.55813
1.52382 3.65112 -1.55913
1.51182 3.65512 -1.55913
1.49982 3.65812 -1.55913
1.49282 3.67312 -1.56313
1.47882 3.67312 -1.56113
1.46182 3.68012 -1.56113
1.44982 3.68312 -1.56013
1.43982 3.69212 -1.56213
1.42382 3.68712 -1.55813
1.41782 3.70312 -1.56313
1.40382 3.70212 -1.56113
1.39282 3.70812 -1.56213
1.38582 3.70912 -1.56113
1.37282 3.70812 -1.55913
1.36282 3.71712 -1.56113
1.34882 3.71712 -1.55913
1.33982 3.72612 -1.56113
3.75182 -2.37488 -1.76413
3.77382 -2.37188 -1.77113
3.77382 -2.36388 -1.76913
3.77482 -2.34788 -1.76613
3.78782 -2.33888 -1.76813
3.82282 -2.22188 -1.75613
3.80982 -2.19788 -1.74613
3.81082 -2.19088 -1.74513
3.81682 -2.17788 -1.74413
3.84782 -2.16388 -1.75313
3.83382 -2.13988 -1.74313
3.84682 -2.13188 -1.74613
3.84582 -2.11488 -1.74213
3.85182 -2.11088 -1.74313
3.85482 -2.09688 -1.74213
3.86482 -2.08688 -1.74313
3.86982 -2.07388 -1.74313
3.87282 -2.05988 -1.74113
3.88582 -2.05088 -1.74413
3.89082 -2.03788 -1.74313
3.90082 -2.03488 -1.74713
3.88782 -2.01288 -1.73713
3.90882 -2.00788 -1.74413
3.90182 -1.98888 -1.73813
3.91082 -1.97888 -1.74013
3.91382 -1.96488 -1.73813
3.92482 -1.95488 -1.74013
3.92482 -1.94688 -1.73913
3.93282 -1.93588 -1.74013
3.93582 -1.92188 -1.73813
3.93782 -1.90688 -1.73613
3.95382 -1.89988 -1.74113
3.96682 -1.89088 -1.74413
3.94482 -1.87288 -1.73313
3.96082 -1.86488 -1.73713
3.96782 -1.85288 -1.73813
3.96182 -1.83488 -1.73313
3.97782 -1.82688 -1.73713
3.98382 -1.81488 -1.73713
3.98082 -1.79888 -1.73313
3.99082 -1.79488 -1.73613
3.99482 -1.78188 -1.73613
3.99882 -1.76888 -1.73513
3.99682 -1.75288 -1.73213
3.99982 -1.73888 -1.73013
4.00782 -1.72788 -1.73213
4.00382 -1.71088 -1.72713
4.01482 -1.70788 -1.73113
4.01482 -1.69388 -1.72913
4.02182 -1.68188 -1.72913
4.02382 -1.66788 -1.72813
4.02382 -1.65288 -1.72613
4.04582 -1.64688 -1.73313
4.03282 -1.62688 -1.72513
4.04682 -1.62488 -1.73013
4.04382 -1.60888 -1.72613
4.04382 -1.59388 -1.72413
4.04982 -1.58188 -1.72513
4.05682 -1.56988 -1.72613
4.05982 -1.55688 -1.72513
4.06282 -1.55088 -1.72513
4.07082 -1.53888 -1.72613
4.07582 -1.52588 -1.72613
4.06682 -1.50788 -1.72013
4.07682 -1.49688 -1.72213
4.07782 -1.48288 -1.72113
4.08582 -1.47188 -1.72213
4.08582 -1.46488 -1.72213
4.08982 -1.43688 -1.71913
4.10182 -1.42688 -1.72213
4.10282 -1.41288 -1.72113
4.10482 -1.39888 -1.72013
4.10982 -1.38588 -1.72013
4.10682 -1.37788 -1.71813
4.10882 -1.36488 -1.71713
4.10982 -1.34988 -1.71513
4.11082 -1.33588 -1.71413
4.12682 -1.29888 -1.71513
3.47082 1.82512 -1.58313
3.43782 1.88412 -1.58313
3.39382 1.93712 -1.57713
3.41682 1.96412 -1.59113
3.29182 2.11212 -1.57913
2.99682 2.48812 -1.57113
2.99482 2.50212 -1.57513
2.60982 2.85212 -1.55913
2.52782 2.93212 -1.56113
2.31382 3.09312 -1.55713
2.20782 3.17512 -1.56013
2.10382 3.24812 -1.56013
2.07682 3.26312 -1.56013
2.06382 3.26512 -1.55713
2.05682 3.27712 -1.56013
2.01982 3.29812 -1.56013
2.00082 3.31412 -1.56113
1.98382 3.33312 -1.56413
1.95582 3.33212 -1.55813
1.94982 3.33412 -1.55713
1.93882 3.34012 -1.55713
1.92282 3.36012 -1.56113
1.89982 3.36912 -1.56013
1.88482 3.37912 -1.56013
1.86482 3.39512 -1.56213
1.84182 3.40312 -1.56013
1.82782 3.40212 -1.55713
1.81182 3.41112 -1.55713
1.77982 3.42812 -1.55713
1.67282 3.48512 -1.55913
1.63982 3.50112 -1.55913
1.52982 3.55212 -1.56013
1.51182 3.57412 -1.56513
1.49782 3.57212 -1.56213
1.48882 3.58012 -1.56413
1.47482 3.57812 -1.56013
1.46982 3.58312 -1.56213
1.45682 3.58312 -1.56013
1.44582 3.58912 -1.56013
1.42282 3.59612 -1.56013
1.39882 3.61812 -1.56413
1.38482 3.61512 -1.56113
1.28982 3.65612 -1.56413
1.27882 3.66212 -1.56413
1.26482 3.66112 -1.56213
1.24982 3.67212 -1.56413
1.22682 3.68112 -1.56513
1.21682 3.68912 -1.56713
1.20282 3.68612 -1.56413
1.19382 3.69612 -1.56713
1.19182 3.71012 -1.57213
1.18082 3.71612 -1.57313
1.16382 3.70412 -1.56613
1.15482 3.71412 -1.56913
1.14582 3.72712 -1.57313
1.13082 3.72012 -1.56813
1.12282 3.73612 -1.57413
1.11182 3.72212 -1.56713
1.10182 3.72912 -1.56813
1.08882 3.72912 -1.56713
1.07882 3.73912 -1.57013
1.06982 3.75112 -1.57413
1.05182 3.73312 -1.56413
1.02782 3.76112 -1.57313
1.01582 3.76412 -1.57313
1.00182 3.76012 -1.57013
0.989821 3.76012 -1.56813
0.977821 3.76512 -1.56913
0.966821 3.77012 -1.57013
0.962821 3.77812 -1.57313
0.950821 3.77912 -1.57213
0.935821 3.77012 -1.56713
0.924821 3.78012 -1.57013
0.911821 3.77612 -1.56713
0.901821 3.78812 -1.57113
0.890821 3.79212 -1.57113
0.881821 3.78312 -1.56713
0.871821 3.79112 -1.56913
0.846821 3.79412 -1.56813
0.836821 3.80412 -1.57113
0.818821 3.80612 -1.57113
0.806821 3.80912 -1.57113
0.745821 3.81812 -1.56913
0.739821 3.81912 -1.56913
0.668821 3.83712 -1.57113
0.614821 3.84812 -1.57213
0.590821 3.85812 -1.57513
0.523821 3.86512 -1.57413
3.66782 -2.32288 -1.76413
3.67882 -2.32188 -1.76813
3.67182 -2.30188 -1.76113
3.67782 -2.28888 -1.76013
3.69282 -2.28288 -1.76413
3.67982 -2.25888 -1.75413
3.68882 -2.24788 -1.75413
3.69382 -2.23488 -1.75413
3.71582 -2.24088 -1.76313
3.70382 -2.20188 -1.75013
3.72082 -2.16488 -1.74813
3.74382 -2.13888 -1.75113
3.89882 -1.74188 -1.73313
3.91282 -1.71888 -1.73513
3.90482 -1.68588 -1.72613
3.90882 -1.66588 -1.72413
3.90782 -1.63688 -1.71913
3.92282 -1.61388 -1.72113
3.91482 -1.59688 -1.71513
3.93082 -1.59588 -1.72113
3.92582 -1.57888 -1.71613
3.93382 -1.56788 -1.71813
3.93182 -1.55288 -1.71513
3.93682 -1.54088 -1.71513
3.94282 -1.52888 -1.71613
3.94382 -1.52188 -1.71513
3.95582 -1.51288 -1.71813
3.95682 -1.49888 -1.71613
3.95982 -1.48588 -1.71613
3.96582 -1.47388 -1.71613
3.96882 -1.46088 -1.71613
3.97182 -1.44788 -1.71513
3.97382 -1.44188 -1.71513
3.97882 -1.42888 -1.71513
3.98182 -1.41588 -1.71413
3.98582 -1.40288 -1.71413
3.98482 -1.38888 -1.71213
3.99282 -1.37788 -1.71313
3.99682 -1.36488 -1.71313
3.99882 -1.35888 -1.71313
4.01782 -1.35088 -1.72013
4.00382 -1.33288 -1.71213
4.01182 -1.32088 -1.71313
4.01082 -1.30688 -1.71113
4.01682 -1.29488 -1.71213
4.01382 -1.27988 -1.70813
4.01782 -1.27388 -1.70913
4.02682 -1.26288 -1.71213
4.03382 -1.25188 -1.71313
4.03482 -1.23788 -1.71213
4.03682 -1.22488 -1.71113
4.03682 -1.21088 -1.70913
4.04582 -1.20688 -1.71213
3.31382 1.89712 -1.59013
3.30182 1.89712 -1.58513
3.29682 1.90812 -1.58613
3.30182 1.92512 -1.59213
3.29882 1.93712 -1.59413
3.27382 1.93612 -1.58413
3.26782 1.94712 -1.58413
3.26782 1.95412 -1.58513
3.25582 1.97412 -1.58513
3.24482 1.98112 -1.58313
3.23282 1.98812 -1.58013
3.22882 2.00012 -1.58113
3.22482 2.01112 -1.58213
3.21782 2.01412 -1.58113
3.20882 2.02212 -1.57913
3.20882 2.03612 -1.58213
3.15682 2.10912 -1.58113
2.98782 2.32512 -1.57613
2.94182 2.36512 -1.57113
2.77582 2.55012 -1.56813
2.75982 2.56712 -1.56813
2.74982 2.57512 -1.56813
2.74582 2.57912 -1.56813
2.73982 2.58912 -1.56813
2.73082 2.59812 -1.56813
2.72182 2.62112 -1.57213
2.70482 2.62212 -1.56813
2.69782 2.64012 -1.57113
2.68282 2.64212 -1.56713
2.67482 2.65012 -1.56713
2.67082 2.66312 -1.56913
2.65382 2.67912 -1.56913
2.65082 2.69312 -1.57213
2.63882 2.68912 -1.56813
2.62882 2.69612 -1.56713
2.62582 2.71012 -1.57013
2.59982 2.73412 -1.57013
2.58482 2.73612 -1.56613
2.57882 2.73812 -1.56513
2.57982 2.75612 -1.57113
2.55482 2.78112 -1.57213
2.53482 2.77712 -1.56413
2.52882 2.78812 -1.56613
2.53382 2.80312 -1.57213
2.49982 2.81812 -1.56813
2.47782 2.83812 -1.56813
2.45782 2.85112 -1.56613
2.45482 2.86512 -1.57013
2.43882 2.86512 -1.56513
2.42082 2.88012 -1.56513
2.41182 2.88012 -1.56313
2.40482 2.88812 -1.56313
2.40582 2.90912 -1.57113
2.38482 2.90212 -1.56313
2.37782 2.91212 -1.56413
2.37682 2.93012 -1.57013
2.35782 2.92412 -1.56313
2.35382 2.93012 -1.56313
2.34982 2.94312 -1.56713
2.33582 2.94412 -1.56313
2.32682 2.95212 -1.56313
2.32282 2.96612 -1.56813
2.30682 2.96512 -1.56313
2.30082 2.98612 -1.56813
2.28482 2.98412 -1.56313
2.26882 3.00312 -1.56613
2.25582 3.00612 -1.56313
2.24882 3.01612 -1.56513
2.24882 3.02512 -1.56813
2.23482 3.02612 -1.56513
2.22182 3.02912 -1.56313
2.21182 3.03412 -1.56213
2.19782 3.05612 -1.56613
2.19082 3.06712 -1.56813
2.17882 3.06012 -1.56313
2.17182 3.07012 -1.56413
2.16282 3.07812 -1.56513
2.15382 3.08612 -1.56613
2.13882 3.08612 -1.56213
2.13682 3.10312 -1.56813
2.12182 3.10212 -1.56313
2.11682 3.10512 -1.56313
2.11082 3.11612 -1.56613
2.09982 3.12212 -1.56513
2.09282 3.13312 -1.56813
2.07982 3.13512 -1.56513
2.05682 3.14312 -1.56313
2.05382 3.14912 -1.56413
2.04682 3.16012 -1.56713
2.03882 3.16812 -1.56813
2.02982 3.17612 -1.56813
2.01882 3.18112 -1.56813
2.00782 3.18612 -1.56713
1.99782 3.19212 -1.56713
1.99482 3.19812 -1.56813
1.98782 3.21112 -1.57213
1.97582 3.21412 -1.57013
1.96082 3.21212 -1.56613
1.95382 3.22312 -1.56813
1.94482 3.23112 -1.56913
1.93882 3.23212 -1.56813
1.92982 3.24012 -1.56913
1.91882 3.24412 -1.56813
1.90782 3.25112 -1.56813
1.89682 3.25512 -1.56813
1.88982 3.26612 -1.57013
1.87682 3.26712 -1.56813
1.87482 3.27612 -1.57113
1.86582 3.28312 -1.57213
1.85082 3.28112 -1.56813
1.84282 3.29212 -1.57013
1.82982 3.29312 -1.56813
1.81882 3.29712 -1.56713
1.81182 3.30912 -1.57013
1.80782 3.31412 -1.57113
1.79682 3.31812 -1.57013
1.78482 3.32012 -1.56813
1.77782 3.33212 -1.57213
1.76782 3.33912 -1.57213
1.75882 3.34812 -1.57413
1.74882 3.35412 -1.57413
1.73982 3.35012 -1.57113
1.73082 3.35912 -1.57213
1.72082 3.36412 -1.57213
1.71282 3.37412 -1.57513
1.69882 3.37512 -1.57213
1.68982 3.38212 -1.57313
1.67582 3.38012 -1.57013
1.66982 3.38112 -1.56913
1.66082 3.39012 -1.57113
1.64982 3.39512 -1.57113
1.64082 3.40412 -1.57213
1.62982 3.40912 -1.57213
1.62082 3.41712 -1.57413
1.61082 3.42412 -1.57513
1.59982 3.41512 -1.56913
1.59282 3.42612 -1.57213
1.57982 3.42812 -1.57113
1.56982 3.43512 -1.57213
1.55982 3.44112 -1.57213
1.54682 3.44112 -1.57013
1.53782 3.44912 -1.57213
1.53482 3.45812 -1.57513
1.51982 3.45312 -1.57013
1.50982 3.46012 -1.57113
1.49982 3.46612 -1.57213
1.48982 3.47412 -1.57313
1.47782 3.47512 -1.57213
1.46882 3.48512 -1.57413
1.46682 3.49612 -1.57813
1.45382 3.49512 -1.57613
1.44082 3.49512 -1.57313
1.43382 3.50912 -1.57813
1.42182 3.51112 -1.57613
1.41182 3.51812 -1.57813
1.39882 3.51812 -1.57613
1.39482 3.52312 -1.57713
1.38382 3.52812 -1.57713
1.37082 3.52912 -1.57613
1.36082 3.53512 -1.57613
1.35082 3.54112 -1.57713
1.33982 3.54712 -1.57813
1.33482 3.55012 -1.57913
1.32482 3.55612 -1.58013
1.31382 3.56012 -1.58013
1.30382 3.57012 -1.58213
1.29082 3.56912 -1.58013
1.28182 3.57812 -1.58213
1.26882 3.57712 -1.58013
1.26382 3.58212 -1.58113
1.25382 3.58812 -1.58213
1.24182 3.59212 -1.58213
1.21982 3.60112 -1.58313
1.20882 3.60512 -1.58313
1.19882 3.61212 -1.58513
1.19382 3.61612 -1.58513
1.18082 3.61612 -1.58413
1.17082 3.62312 -1.58513
1.15882 3.62512 -1.58513
1.13682 3.63412 -1.58513
1.12482 3.63812 -1.58513
1.10682 3.63812 -1.58313
1.09682 3.64612 -1.58513
1.08482 3.65012 -1.58513
1.07382 3.65312 -1.58513
1.06182 3.65512 -1.58513
1.05082 3.66012 -1.58513
1.04182 3.65112 -1.58113
1.03282 3.66112 -1.58413
1.01082 3.67112 -1.58513
0.999821 3.67612 -1.58613
0.980821 3.67712 -1.58513
0.968821 3.67712 -1.58313
0.946821 3.68612 -1.58513
0.935821 3.69312 -1.58613
0.924821 3.69912 -1.58813
0.909821 3.69012 -1.58213
0.905821 3.69512 -1.58413
0.883821 3.70912 -1.58813
0.868821 3.69812 -1.58113
0.860821 3.71512 -1.58813
0.846821 3.70712 -1.58313
0.835821 3.71312 -1.58513
0.831821 3.72112 -1.58813
0.817821 3.71512 -1.58413
0.806821 3.72112 -1.58513
0.796821 3.73112 -1.58913
0.783821 3.72612 -1.58513
0.772821 3.73012 -1.58613
0.762821 3.74212 -1.59013
0.747821 3.73012 -1.58413
0.741821 3.72912 -1.58313
0.732821 3.74812 -1.59013
0.718821 3.73612 -1.58413
0.706821 3.73812 -1.58413
0.697821 3.75612 -1.59113
0.682821 3.73712 -1.58113
0.677821 3.74712 -1.58513
0.667821 3.75812 -1.58913
0.653821 3.74612 -1.58313
0.641821 3.74812 -1.58313
0.632821 3.76412 -1.58913
0.618821 3.75312 -1.58413
0.605821 3.75212 -1.58213
0.601821 3.76012 -1.58513
0.587821 3.75112 -1.58113
0.576821 3.75812 -1.58313
0.565821 3.76512 -1.58513
0.552821 3.75812 -1.58113
0.540821 3.75812 -1.58113
0.530821 3.77412 -1.58713
0.522821 3.76212 -1.58113
0.511821 3.76412 -1.58113
0.500821 3.77612 -1.58613
0.487821 3.76512 -1.58113
0.476821 3.77412 -1.58413
0.464821 3.77212 -1.58213
0.451821 3.77212 -1.58113
0.445821 3.77012 -1.58113
0.434821 3.77912 -1.58413
0.422821 3.77912 -1.58313
0.410821 3.77812 -1.58213
0.399821 3.78812 -1.58613
0.387821 3.78812 -1.58513
0.369821 3.78612 -1.58413
0.345821 3.78612 -1.58313
0.333821 3.78812 -1.58313
3.54782 -2.30988 -1.77513
3.55582 -2.27588 -1.77013
3.70382 -1.94988 -1.75413
3.70982 -1.92288 -1.75013
3.72082 -1.92088 -1.75413
3.74682 -1.84588 -1.75013
3.33782 1.73012 -1.60613
3.33082 1.73912 -1.60613
3.29382 1.75312 -1.59413
3.11682 2.04312 -1.59113
3.10682 2.05012 -1.59013
3.10082 2.05312 -1.58813
3.10682 2.07112 -1.59513
3.09682 2.07912 -1.59313
3.08582 2.08512 -1.59113
3.07782 2.09412 -1.59013
3.07282 2.10512 -1.59113
3.06282 2.11212 -1.58913
3.05382 2.11312 -1.58613
3.04582 2.12112 -1.58513
3.04882 2.13812 -1.59113
2.82682 2.41712 -1.58813
2.81782 2.42412 -1.58713
2.80282 2.42712 -1.58313
2.78682 2.42912 -1.57813
2.79182 2.44812 -1.58613
2.77482 2.44112 -1.57713
2.77082 2.45312 -1.58013
2.77082 2.46912 -1.58513
2.75182 2.46712 -1.57713
2.74582 2.47812 -1.57913
2.74782 2.49512 -1.58513
2.72782 2.49312 -1.57713
2.73182 2.50412 -1.58213
2.73082 2.51912 -1.58613
2.71182 2.51812 -1.58013
2.71082 2.53212 -1.58413
2.70482 2.54212 -1.58513
2.68582 2.54112 -1.57813
2.68082 2.55212 -1.58013
2.67782 2.55712 -1.58113
2.65782 2.55412 -1.57313
2.65382 2.56612 -1.57613
2.65482 2.58312 -1.58113
2.63882 2.58412 -1.57613
2.62782 2.59012 -1.57513
2.63182 2.60212 -1.58013
2.61082 2.59712 -1.57113
2.61082 2.61312 -1.57613
2.60682 2.62612 -1.58013
2.58782 2.62312 -1.57213
2.58482 2.63612 -1.57613
2.58082 2.64912 -1.57913
2.57482 2.65112 -1.57713
2.56082 2.65412 -1.57413
2.56182 2.67112 -1.58013
2.54182 2.66712 -1.57213
2.53082 2.67212 -1.57113
2.53582 2.69512 -1.58013
2.51682 2.69112 -1.57213
2.51682 2.70012 -1.57613
2.51582 2.71612 -1.58113
2.49682 2.71212 -1.57313
2.49282 2.72512 -1.57613
2.49182 2.74112 -1.58113
2.47382 2.73812 -1.57513
2.47682 2.75912 -1.58313
2.46382 2.75412 -1.57713
2.46282 2.77012 -1.58213
2.44382 2.76612 -1.57613
2.43782 2.77712 -1.57713
2.42882 2.78512 -1.57713
2.42082 2.79212 -1.57713
2.41982 2.80012 -1.58013
2.40282 2.79812 -1.57413
2.39282 2.80412 -1.57313
2.38882 2.81712 -1.57613
2.37682 2.82212 -1.57513
2.37182 2.83412 -1.57713
2.36282 2.84112 -1.57713
2.36282 2.85012 -1.58113
2.34682 2.84912 -1.57613
2.33782 2.85712 -1.57613
2.32782 2.86312 -1.57513
2.31982 2.87112 -1.57613
2.31082 2.87912 -1.57613
2.30182 2.88612 -1.57613
2.29782 2.88912 -1.57613
2.28982 2.89812 -1.57613
2.27682 2.90112 -1.57413
2.26182 2.89912 -1.56913
2.25782 2.91412 -1.57313
2.24582 2.91612 -1.57113
2.23882 2.92612 -1.57213
2.23582 2.93312 -1.57413
2.22982 2.94412 -1.57613
2.21582 2.94412 -1.57213
2.20682 2.95212 -1.57313
2.19482 2.95512 -1.57113
2.18682 2.96312 -1.57113
2.18082 2.97412 -1.57413
2.17482 2.97612 -1.57313
2.16882 2.98812 -1.57613
2.15982 2.99612 -1.57613
2.14982 3.00112 -1.57613
2.14182 3.01112 -1.57713
2.13482 3.02112 -1.57913
2.12582 3.01812 -1.57613
2.11482 3.02212 -1.57413
2.10782 3.03312 -1.57613
2.09582 3.03512 -1.57413
2.08982 3.04812 -1.57713
2.07882 3.05312 -1.57613
2.06682 3.05512 -1.57413
2.06082 3.05612 -1.57313
2.05382 3.06712 -1.57613
2.04482 3.07412 -1.57613
2.03182 3.07612 -1.57313
2.02982 3.09412 -1.58013
2.01782 3.09612 -1.57713
2.00482 3.09812 -1.57513
2.00082 3.10212 -1.57613
1.98782 3.10412 -1.57313
1.98082 3.11312 -1.57513
1.97082 3.11912 -1.57513
1.96082 3.12612 -1.57513
1.94982 3.13012 -1.57413
1.94382 3.14312 -1.57713
1.93982 3.14712 -1.57813
1.92782 3.15012 -1.57613
1.91882 3.15612 -1.57613
1.90582 3.15812 -1.57413
1.89882 3.16812 -1.57613
1.89182 3.18012 -1.58013
1.87682 3.17712 -1.57513
1.87782 3.19112 -1.58113
1.86282 3.18712 -1.57613
1.85182 3.19212 -1.57513
1.84482 3.20212 -1.57713
1.82982 3.20012 -1.57313
1.82182 3.20912 -1.57513
1.81282 3.21612 -1.57613
1.80782 3.22112 -1.57613
1.79982 3.22912 -1.57813
1.79282 3.24112 -1.58113
1.78082 3.24412 -1.58013
1.76882 3.24612 -1.57813
1.76082 3.25512 -1.58013
1.74882 3.25712 -1.57813
1.74082 3.25412 -1.57513
1.73282 3.26412 -1.57713
1.72382 3.27312 -1.57913
1.71582 3.28312 -1.58113
1.70282 3.28212 -1.57813
1.69782 3.29812 -1.58413
1.68582 3.30012 -1.58213
1.68082 3.30312 -1.58213
1.66882 3.30512 -1.58113
1.65582 3.30512 -1.57813
1.64682 3.31412 -1.58013
1.63782 3.32112 -1.58113
1.62682 3.32612 -1.58113
1.61782 3.33412 -1.58213
1.60882 3.32912 -1.57813
1.59882 3.33412 -1.57813
1.58582 3.33412 -1.57613
1.58182 3.35312 -1.58313
1.57082 3.35712 -1.58213
1.56182 3.36512 -1.58413
1.55482 3.36212 -1.58113
1.54582 3.37112 -1.58313
1.53582 3.37912 -1.58513
1.52082 3.37412 -1.58013
1.51082 3.38012 -1.58113
1.50382 3.39212 -1.58413
1.49182 3.39512 -1.58313
1.47782 3.40512 -1.58513
1.46782 3.41112 -1.58613
1.44482 3.41712 -1.58413
1.42382 3.42812 -1.58513
1.40882 3.43612 -1.58613
1.39682 3.43912 -1.58513
1.38682 3.44512 -1.58613
0.861821 3.62512 -1.59113
0.845821 3.63512 -1.59413
0.810821 3.63712 -1.59113
0.783821 3.65012 -1.59513
0.771821 3.64912 -1.59313
0.747821 3.64912 -1.59113
0.713821 3.65712 -1.59113
0.708821 3.66612 -1.59513
0.697821 3.67112 -1.59613
0.684821 3.66112 -1.59113
0.672821 3.66512 -1.59113
0.650821 3.67512 -1.59413
0.639821 3.68012 -1.59613
0.622821 3.68712 -1.59713
0.610821 3.68112 -1.59413
0.587821 3.68512 -1.59413
0.576821 3.69612 -1.59813
0.558821 3.69512 -1.59613
0.547821 3.69712 -1.59613
0.523821 3.69812 -1.59613
0.513821 3.70712 -1.59913
0.495821 3.70812 -1.59813
0.483821 3.70612 -1.59613
0.460821 3.71412 -1.59913
0.449821 3.71612 -1.59913
0.437821 3.72112 -1.60113
0.425821 3.71812 -1.59913
0.419821 3.71912 -1.59913
0.408821 3.72012 -1.59913
0.395821 3.71112 -1.59413
0.383821 3.70812 -1.59213
0.372821 3.71912 -1.59613
0.359821 3.70212 -1.58813
0.348821 3.71212 -1.59213
0.343821 3.72112 -1.59613
0.331821 3.71712 -1.59413
0.318821 3.70912 -1.59013
0.307821 3.71412 -1.59113
0.295821 3.71612 -1.59213
0.284821 3.72512 -1.59613
0.273821 3.73112 -1.59813
0.266821 3.72212 -1.59413
0.254821 3.71212 -1.58913
0.243821 3.72412 -1.59413
0.232821 3.73012 -1.59613
0.219821 3.72212 -1.59213
0.208821 3.73012 -1.59613
0.196821 3.73212 -1.59613
0.191821 3.73812 -1.59913
0.179821 3.73812 -1.59913
0.167821 3.73212 -1.59613
0.156821 3.73812 -1.59813
0.144821 3.73312 -1.59613
0.132821 3.72812 -1.59313
0.120821 3.73712 -1.59713
0.114821 3.73912 -1.59813
0.103821 3.73412 -1.59613
0.0918211 3.74312 -1.60013
0.0798211 3.73512 -1.59613
0.0688211 3.74612 -1.60113
0.0568211 3.73512 -1.59613
0.0448211 3.73912 -1.59713
0.0388211 3.73212 -1.59413
0.0268211 3.73712 -1.59613
0.0158211 3.73712 -1.59613
0.0038211 3.73712 -1.59613
2.70382 2.44712 -1.59313
2.56582 2.58412 -1.59113
2.55782 2.59212 -1.59113
2.53682 2.61212 -1.59113
2.49082 2.65412 -1.59013
2.46382 2.67612 -1.58913
2.45282 2.68912 -1.59013
2.44282 2.69512 -1.58913
2.40882 2.72612 -1.58913
2.39582 2.73712 -1.58913
2.35282 2.77412 -1.58913
2.27182 2.83812 -1.58813
2.25082 2.84812 -1.58613
2.24382 2.85812 -1.58713
2.19482 2.89612 -1.58713
2.17282 2.91512 -1.58813
2.15082 2.92412 -1.58613
1.91582 3.08612 -1.58713
1.89782 3.09912 -1.58713
0.464821 3.64112 -1.60413
0.441821 3.64412 -1.60413
0.434821 3.63512 -1.60013
0.423821 3.64212 -1.60313
0.412821 3.64312 -1.60313
0.400821 3.64112 -1.60113
0.389821 3.64212 -1.60113
0.377821 3.64312 -1.60113
0.366821 3.65212 -1.60413
0.360821 3.64912 -1.60313
0.349821 3.65512 -1.60513
0.337821 3.64612 -1.60013
0.326821 3.65212 -1.60313
0.314821 3.65112 -1.60213
0.303821 3.65212 -1.60213
0.291821 3.65012 -1.60013
0.286821 3.66112 -1.60513
0.274821 3.65112 -1.60013
0.262821 3.65412 -1.60113
0.251821 3.65412 -1.60113
0.240821 3.66112 -1.60413
0.228821 3.66112 -1.60413
0.217821 3.66412 -1.60413
0.212821 3.66812 -1.60613
0.200821 3.67012 -1.60713
0.188821 3.65812 -1.60113
0.177821 3.66412 -1.60413
0.165821 3.66312 -1.60313
0.154821 3.66312 -1.60313
0.142821 3.66612 -1.60413
0.136821 3.66612 -1.60413
0.125821 3.66812 -1.60413
0.114821 3.67612 -1.60813
0.102821 3.66912 -1.60413
0.0908211 3.67312 -1.60613
0.0798211 3.67712 -1.60813
0.0678211 3.66812 -1.60413
0.0618211 3.67012 -1.60413
0.0508211 3.67212 -1.60513
0.0398211 3.67912 -1.60913
0.0278211 3.67412 -1.60613
0.0158211 3.67212 -1.60513
0.0048211 3.68712 -1.61213
19.3098 0.538119 0.85287
19.0658 0.591119 0.84487
18.8148 0.642119 0.83687
17.6878 0.853119 0.79887
17.4628 0.896119 0.79087
17.2688 0.941119 0.78487
17.0498 0.982119 0.77787
16.2888 1.11712 0.75187
16.1178 1.15612 0.74687
15.9188 1.19112 0.73987
15.7498 1.22812 0.73387
14.9778 1.38012 0.70887
14.2478 1.51512 0.68487
13.5298 1.65312 0.66087
13.4438 1.66412 0.65787
13.3098 1.68912 0.65387
13.1958 1.71712 0.64987
13.0788 1.74312 0.64587
12.6338 1.82412 0.63187
12.5208 1.84812 0.62787
11.8818 1.96312 0.60687
11.7818 1.98412 0.60387
11.6808 2.00512 0.60087
11.5818 2.02512 0.59787
11.4928 2.04612 0.59487
11.3878 2.06412 0.59087
11.2128 2.08712 0.58587
11.1238 2.10612 0.58287
11.0388 2.12612 0.57987
10.7328 2.18912 0.57087
19.3998 0.523119 0.73287
18.1758 0.749119 0.69887
17.9478 0.796119 0.69287
17.7258 0.843119 0.68687
16.3018 1.11112 0.64887
14.5108 1.45112 0.59987
14.3628 1.48212 0.59587
14.2068 1.51112 0.59187
13.4068 1.66212 0.57087
13.2878 1.69012 0.56787
12.8288 1.77612 0.55587
12.6948 1.79912 0.55187
12.5898 1.82412 0.54887
12.4808 1.84912 0.54587
12.0628 1.92412 0.53487
11.9608 1.94612 0.53287
11.8458 1.96612 0.52987
11.1718 2.09112 0.51187
10.9338 2.13512 0.50587
10.7528 2.17112 0.50087
10.5888 2.20712 0.49687
19.6848 0.478119 0.64787
19.4158 0.532119 0.64187
18.9288 0.607119 0.63087
18.6798 0.657119 0.62487
18.4378 0.707119 0.61987
18.2158 0.755119 0.61487
17.9888 0.802119 0.60887
17.7648 0.848119 0.60387
17.1308 0.951119 0.58987
16.9638 0.995119 0.58587
16.3538 1.11312 0.57287
15.0408 1.35512 0.54287
14.9008 1.38912 0.53987
14.7218 1.41912 0.53587
14.5918 1.45212 0.53287
14.4238 1.48112 0.52987
14.2898 1.51212 0.52687
13.4858 1.66212 0.50887
13.3478 1.68712 0.50587
13.2458 1.69512 0.50287
13.1218 1.72112 0.50087
13.0098 1.74812 0.49787
12.8948 1.77312 0.49587
12.7828 1.79912 0.49287
12.4558 1.85212 0.48587
12.3488 1.87612 0.48387
12.2478 1.89912 0.48187
12.1378 1.92112 0.47887
11.7278 1.98812 0.46987
11.6288 2.00812 0.46787
11.5258 2.02812 0.46587
11.4348 2.04912 0.46387
11.3598 2.07212 0.46187
11.2588 2.09012 0.45987
11.0138 2.13312 0.45487
10.9268 2.15212 0.45287
10.8418 2.17012 0.45087
10.7568 2.18812 0.44887
10.6028 2.20912 0.44587
10.5258 2.22712 0.44387
10.4408 2.24312 0.44187
10.3728 2.26312 0.44087
10.2818 2.27612 0.43887
19.5208 0.501119 0.49587
19.2578 0.555119 0.49187
19.0078 0.608119 0.48787
18.0448 0.777119 0.47287
17.8228 0.824119 0.46987
17.5958 0.869119 0.46687
17.3858 0.914119 0.46387
16.3868 1.09512 0.44887
16.2018 1.13412 0.44587
16.0168 1.17212 0.44287
15.7498 1.22812 0.43887
15.0078 1.36112 0.42787
14.4348 1.47012 0.41887
13.4668 1.65212 0.40487
13.3468 1.68012 0.40287
13.2228 1.70712 0.40187
13.0998 1.73312 0.39987
12.7488 1.78912 0.39487
12.6408 1.81512 0.39287
12.5338 1.84012 0.39087
12.4248 1.86412 0.38987
12.3088 1.88612 0.38787
12.2148 1.89212 0.38687
12.1058 1.91412 0.38487
12.0028 1.93712 0.38387
11.8208 1.98412 0.38087
11.7058 2.00312 0.37887
11.6158 2.00612 0.37787
11.5228 2.02812 0.37687
11.4338 2.04912 0.37487
11.3408 2.07012 0.37387
11.2418 2.08812 0.37287
11.1448 2.10712 0.37087
11.0378 2.12312 0.36987
10.8928 2.14812 0.36787
10.8128 2.16812 0.36587
10.7258 2.18612 0.36487
10.6488 2.20512 0.36387
10.5628 2.22212 0.36287
10.4758 2.23912 0.36187
10.3958 2.23912 0.35987
10.3228 2.25712 0.35887
10.2448 2.27412 0.35787
19.6728 0.473119 0.39687
19.4058 0.527119 0.39387
18.4378 0.702119 0.38487
18.2078 0.750119 0.38187
17.9808 0.797119 0.37987
17.7528 0.843119 0.37787
16.3398 1.10812 0.36387
14.8808 1.38412 0.34887
14.7108 1.41412 0.34787
14.5778 1.44712 0.34587
14.4038 1.47512 0.34487
14.2778 1.50812 0.34287
13.4758 1.65712 0.33487
13.3688 1.68712 0.33387
13.1248 1.71812 0.33187
12.9988 1.74312 0.33087
12.9018 1.77112 0.32987
12.7698 1.79412 0.32887
12.6608 1.81912 0.32787
12.4568 1.84912 0.32587
12.3618 1.87512 0.32487
12.2418 1.89512 0.32287
12.1428 1.91912 0.32287
12.0278 1.93912 0.32087
11.8088 1.98012 0.31887
11.4418 2.04712 0.31587
11.3508 2.06712 0.31487
11.2618 2.08812 0.31387
11.0248 2.13312 0.31187
10.9478 2.15312 0.31087
10.8468 2.16912 0.30987
10.7688 2.18812 0.30887
10.6158 2.20912 0.30787
10.5208 2.22312 0.30687
10.4498 2.24312 0.30587
10.3658 2.25912 0.30487
10.2948 2.27712 0.30487
10.1978 2.28912 0.30387
14.1928 1.52812 0.24287
18.7968 0.650119 0.16787
17.4388 0.903119 0.16987
17.2548 0.947119 0.17087
17.0258 0.988119 0.17087
16.4148 1.10712 0.17187
16.0708 1.15912 0.17287
15.9208 1.19912 0.17287
14.4728 1.47712 0.17487
13.1968 1.72312 0.17687
11.5878 2.03112 0.17887
20.1858 0.371119 0.0378701
19.6258 0.484119 0.0418701
19.3398 0.539119 0.0438701
19.0998 0.592119 0.0458701
18.8428 0.644119 0.0478701
18.1498 0.764119 0.0538701
17.9128 0.811119 0.0558701
17.6828 0.856119 0.0568701
17.4638 0.901119 0.0588701
17.2678 0.946119 0.0608701
16.2568 1.12212 0.0688701
16.0878 1.16212 0.0698701
14.9408 1.38812 0.0788701
14.3338 1.49212 0.0828701
14.2118 1.52412 0.0838701
13.3878 1.67212 0.0908701
13.2748 1.70012 0.0908701
13.1448 1.72612 0.0918701
13.0268 1.75212 0.0928701
12.6678 1.80612 0.0958701
12.5648 1.83212 0.0968701
12.4498 1.85512 0.0978701
12.3398 1.87912 0.0988701
12.0298 1.92912 0.10087
11.9348 1.95312 0.10187
11.6128 2.01312 0.10387
11.3448 2.05912 0.10587
11.2458 2.07812 0.10687
11.1718 2.10112 0.10687
10.9818 2.13712 0.10887
10.7388 2.17812 0.11087
10.6578 2.19612 0.11087
10.5668 2.21312 0.11187
10.4848 2.23012 0.11187
10.4058 2.24812 0.11287
19.8258 0.439119 -0.0811299
19.5478 0.494119 -0.0781299
19.3128 0.548119 -0.0741299
19.0488 0.600119 -0.0711299
17.8778 0.815119 -0.0541299
17.6458 0.860119 -0.0511299
17.4408 0.904119 -0.0481299
17.2208 0.947119 -0.0451299
16.0668 1.16012 -0.0291299
15.8718 1.19612 -0.0271299
14.9248 1.38312 -0.0141299
14.7748 1.41612 -0.0111299
13.2798 1.69212 0.00887008
13.1608 1.71912 0.0108701
13.0488 1.74612 0.0118701
12.4688 1.84712 0.0198701
12.3698 1.87212 0.0208701
12.2578 1.89412 0.0228701
11.5488 2.02512 0.0318701
10.6918 2.18612 0.0438701
10.6068 2.20312 0.0448701
10.5308 2.22212 0.0458701
10.4498 2.23912 0.0468701
19.1908 0.565119 -0.20613
18.9578 0.618119 -0.20213
18.7118 0.669119 -0.19713
17.7838 0.833119 -0.17713
17.5498 0.877119 -0.17213
17.3498 0.922119 -0.16813
17.1188 0.964119 -0.16313
16.1618 1.14112 -0.14413
15.9848 1.18012 -0.14013
15.7358 1.23612 -0.13513
14.9858 1.36812 -0.11913
14.8368 1.40212 -0.11613
14.6868 1.43412 -0.11313
14.4048 1.47612 -0.10813
14.2628 1.50712 -0.10513
13.4568 1.65912 -0.0881299
13.3288 1.68612 -0.0861299
13.2118 1.71312 -0.0831299
13.0958 1.74012 -0.0811299
12.9708 1.76612 -0.0781299
12.8508 1.79112 -0.0761299
12.7388 1.79612 -0.0741299
12.6228 1.82012 -0.0711299
12.5158 1.84512 -0.0691299
12.4108 1.87012 -0.0671299
12.2908 1.89112 -0.0651299
12.1978 1.91612 -0.0631299
12.0978 1.92012 -0.0611299
11.9848 1.94112 -0.0581299
11.7768 1.98412 -0.0541299
11.6818 2.00612 -0.0521299
11.5848 2.02712 -0.0511299
11.4998 2.05012 -0.0491299
11.4058 2.05212 -0.0471299
11.3108 2.07112 -0.0451299
11.2358 2.09412 -0.0441299
11.1228 2.11012 -0.0411299
11.0098 2.12412 -0.0391299
10.9678 2.15212 -0.0381299
10.8668 2.16812 -0.0361299
10.7888 2.17012 -0.0351299
10.7138 2.19012 -0.0331299
10.6328 2.20912 -0.0321299
10.5508 2.22712 -0.0301299
10.3878 2.26112 -0.0271299
10.3068 2.26012 -0.0251299
10.2598 2.28412 -0.0241299
19.7418 0.467119 -0.31913
19.4708 0.521119 -0.31213
18.2768 0.746119 -0.28113
18.0468 0.793119 -0.27513
17.8028 0.838119 -0.26913
17.3778 0.927119 -0.25813
16.7908 1.02712 -0.24313
16.3738 1.10412 -0.23213
16.2288 1.14612 -0.22913
15.0108 1.36612 -0.19713
14.2908 1.50312 -0.17913
13.5128 1.65712 -0.15913
13.3998 1.68612 -0.15613
12.8188 1.79612 -0.14213
12.6948 1.81912 -0.13913
12.0548 1.93912 -0.12313
11.8238 1.97812 -0.11713
11.7268 1.99912 -0.11413
11.6378 2.02112 -0.11213
11.5428 2.04212 -0.11013
11.3618 2.06512 -0.10513
11.2808 2.08712 -0.10313
11.1798 2.10412 -0.10113
10.8718 2.17012 -0.0931299
10.6978 2.20412 -0.0891299
10.2198 2.28912 -0.0771299
20.1178 0.403119 -0.44913
19.8268 0.459119 -0.43913
19.3108 0.539119 -0.42313
19.0438 0.592119 -0.41413
18.8058 0.644119 -0.40713
18.5578 0.694119 -0.39913
18.3278 0.744119 -0.39213
17.6568 0.856119 -0.37013
17.4238 0.900119 -0.36313
17.2198 0.944119 -0.35713
17.0168 0.987119 -0.35013
16.8108 1.02812 -0.34413
15.8668 1.19712 -0.31413
15.7038 1.23512 -0.30913
15.5208 1.27012 -0.30313
15.3748 1.30712 -0.29913
14.8868 1.38412 -0.28313
14.7388 1.41712 -0.27913
14.5848 1.44912 -0.27413
14.4448 1.48112 -0.26913
14.0278 1.55112 -0.25613
13.8898 1.58012 -0.25213
13.7558 1.60912 -0.24813
13.6178 1.63612 -0.24413
13.5028 1.66612 -0.24013
13.3838 1.67212 -0.23613
13.2648 1.70012 -0.23313
13.1388 1.72612 -0.22913
13.0238 1.75312 -0.22513
12.9098 1.77912 -0.22213
12.7778 1.80212 -0.21813
12.6648 1.82712 -0.21413
12.5488 1.83112 -0.21113
12.4468 1.85612 -0.20713
12.3398 1.88012 -0.20413
12.2328 1.90312 -0.20113
12.1258 1.92612 -0.19813
12.0238 1.94812 -0.19413
10.9848 2.13812 -0.16313
10.8968 2.15712 -0.16013
10.8218 2.17812 -0.15813
10.7268 2.19412 -0.15513
10.6548 2.19712 -0.15313
10.5778 2.21612 -0.15113
10.5038 2.23512 -0.14813
10.4228 2.25212 -0.14613
10.3428 2.26912 -0.14413
10.2418 2.28112 -0.14013
10.1728 2.29912 -0.13813
19.2848 0.553119 -0.54913
19.0538 0.606119 -0.54013
18.7978 0.657119 -0.53013
17.6708 0.866119 -0.48713
17.4508 0.910119 -0.47913
17.2458 0.954119 -0.47113
17.0218 0.994119 -0.46213
16.2678 1.12912 -0.43413
16.1008 1.16812 -0.42713
15.9198 1.20512 -0.42113
15.7348 1.24012 -0.41313
15.2408 1.32112 -0.39513
15.0718 1.35412 -0.38813
14.9358 1.38912 -0.38313
14.7748 1.42012 -0.37713
14.2238 1.52412 -0.35613
14.0698 1.55212 -0.35113
13.9398 1.58212 -0.34613
13.4338 1.67312 -0.32713
13.3098 1.70012 -0.32213
13.1868 1.72712 -0.31813
12.6118 1.83212 -0.29613
12.4968 1.85512 -0.29213
12.3948 1.87912 -0.28813
11.8838 1.97312 -0.26913
11.2308 2.10012 -0.24513
11.1298 2.11712 -0.24213
11.0448 2.13712 -0.23913
10.7188 2.19512 -0.22713
10.6358 2.21312 -0.22413
19.9838 0.420119 -0.69413
19.7008 0.476119 -0.68213
19.4278 0.531119 -0.67013
18.7038 0.659119 -0.63813
18.4618 0.709119 -0.62713
18.2318 0.758119 -0.61713
18.0018 0.805119 -0.60713
17.7758 0.852119 -0.59713
16.9838 1.00212 -0.56213
16.3498 1.12012 -0.53413
15.8118 1.20912 -0.51113
15.6348 1.24512 -0.50313
15.4658 1.28112 -0.49613
15.2878 1.31512 -0.48813
14.6838 1.42712 -0.46213
14.5348 1.45912 -0.45513
14.3908 1.49012 -0.44913
14.2468 1.52112 -0.44313
13.9788 1.55912 -0.43113
13.8528 1.59012 -0.42613
13.7228 1.61912 -0.42013
13.5928 1.64712 -0.41413
13.2208 1.70812 -0.39813
13.1008 1.73412 -0.39313
12.9778 1.76012 -0.38813
12.8638 1.78612 -0.38313
12.7468 1.81112 -0.37813
12.6268 1.83412 -0.37313
12.4128 1.86312 -0.36413
12.3078 1.88712 -0.35913
12.2008 1.91112 -0.35513
12.0958 1.93312 -0.35013
11.9898 1.95512 -0.34613
11.7948 1.98112 -0.33713
11.6998 2.00312 -0.33313
11.6048 2.02512 -0.32913
11.4978 2.04312 -0.32513
11.4048 2.06412 -0.32113
11.3058 2.08312 -0.31713
11.1408 2.10712 -0.31013
11.0498 2.12612 -0.30613
10.9648 2.14612 -0.30213
10.8818 2.16512 -0.29913
10.7988 2.18412 -0.29513
10.5578 2.22212 -0.28513
10.4808 2.24112 -0.28213
10.3948 2.25712 -0.27913
10.3198 2.27512 -0.27513
10.2438 2.29212 -0.27213
20.2178 0.368119 -0.82113
19.9428 0.425119 -0.80713
19.6618 0.481119 -0.79313
19.3888 0.534119 -0.77913
19.1338 0.587119 -0.76713
18.4338 0.710119 -0.73213
18.1858 0.757119 -0.72013
17.9778 0.805119 -0.70913
17.7418 0.850119 -0.69713
16.3278 1.11412 -0.62713
14.1108 1.54112 -0.51813
13.5858 1.63412 -0.49313
13.4658 1.66212 -0.48713
13.3318 1.68812 -0.48013
12.6398 1.82112 -0.44713
12.5058 1.84212 -0.44013
12.0058 1.94112 -0.41613
11.8848 1.96012 -0.41013
11.7888 1.98112 -0.40613
11.3188 2.06712 -0.38313
11.1338 2.10512 -0.37513
10.6298 2.19912 -0.35113
19.5318 0.502119 -0.91113
19.2688 0.556119 -0.89613
19.0208 0.609119 -0.88213
18.0698 0.779119 -0.82913
17.8418 0.825119 -0.81613
17.6258 0.871119 -0.80413
17.4098 0.916119 -0.79213
16.2298 1.13712 -0.72613
16.0428 1.17512 -0.71613
15.2048 1.33112 -0.66913
15.0218 1.36312 -0.65913
14.3098 1.50412 -0.62013
14.1598 1.53312 -0.61113
14.0478 1.56612 -0.60513
13.7708 1.60112 -0.59013
13.6348 1.62912 -0.58313
13.5068 1.65712 -0.57613
13.3838 1.68512 -0.56913
13.2678 1.71312 -0.56313
13.1238 1.73712 -0.55513
13.0298 1.74512 -0.54913
12.8978 1.76912 -0.54213
12.7988 1.79712 -0.53713
12.6548 1.81712 -0.52913
12.5608 1.84412 -0.52413
12.4358 1.86612 -0.51713
12.2378 1.89612 -0.50613
12.1308 1.91812 -0.50113
12.0378 1.94312 -0.49613
11.9238 1.96312 -0.48913
11.8248 1.98512 -0.48413
11.5448 2.03212 -0.46913
11.4308 2.04912 -0.46313
11.3588 2.07312 -0.45913
11.2468 2.09012 -0.45313
11.1768 2.11312 -0.44913
11.0608 2.12712 -0.44313
10.9968 2.13312 -0.43913
10.8998 2.15012 -0.43413
10.8398 2.17412 -0.43113
10.7368 2.18912 -0.42613
10.6718 2.21012 -0.42213
10.5748 2.22512 -0.41713
10.4248 2.24512 -0.40913
10.3678 2.26712 -0.40613
10.2548 2.27712 -0.40013
19.4158 0.535119 -1.00813
19.1588 0.588119 -0.99213
17.7598 0.851119 -0.90613
17.5578 0.896119 -0.89413
16.3868 1.11912 -0.82213
16.1758 1.15512 -0.81013
15.1698 1.34512 -0.74813
15.0048 1.37812 -0.73813
14.8388 1.40912 -0.72813
12.5348 1.84612 -0.59013
11.8238 1.98712 -0.54813
11.6238 2.02912 -0.53613
11.2718 2.09412 -0.51613
11.0838 2.13112 -0.50513
18.4828 0.709119 -1.08013
18.2438 0.757119 -1.06313
18.0258 0.805119 -1.04813
17.3698 0.914119 -1.00413
17.1648 0.957119 -0.99013
16.9388 0.998119 -0.97413
16.7648 1.04112 -0.96313
16.3438 1.11912 -0.93413
16.0178 1.17312 -0.91213
15.8428 1.21112 -0.90013
15.6578 1.24612 -0.88813
15.4948 1.28212 -0.87713
15.3218 1.31712 -0.86513
15.1688 1.35212 -0.85513
14.8478 1.39512 -0.83313
14.6928 1.42712 -0.82313
14.5528 1.46012 -0.81313
14.4038 1.49112 -0.80313
14.2678 1.52212 -0.79413
14.1238 1.55212 -0.78513
13.9968 1.56012 -0.77613
13.8548 1.58912 -0.76613
13.7268 1.61812 -0.75813
13.6028 1.64712 -0.75013
13.1008 1.73412 -0.71613
12.9828 1.76012 -0.70813
12.8608 1.78512 -0.70013
12.7498 1.81012 -0.69313
12.6338 1.83512 -0.68513
12.4158 1.86312 -0.67113
12.3168 1.88812 -0.66413
12.2148 1.91212 -0.65813
12.0978 1.93312 -0.65013
11.9998 1.95612 -0.64313
11.7068 2.00312 -0.62413
11.6118 2.02512 -0.61813
11.5128 2.04512 -0.61113
11.4198 2.06612 -0.60513
11.3168 2.08412 -0.59913
11.1268 2.12212 -0.58613
11.0568 2.12712 -0.58213
10.9718 2.14612 -0.57613
10.8768 2.16412 -0.57013
10.8038 2.18412 -0.56513
10.5408 2.23512 -0.54813
10.4868 2.24112 -0.54513
10.3838 2.25412 -0.53813
10.3258 2.27512 -0.53413
10.2288 2.28812 -0.52813
17.2018 0.957119 -1.07713
16.9838 0.998119 -1.06113
16.3778 1.11612 -1.01713
16.0788 1.17212 -0.99513
15.9038 1.20912 -0.98313
15.7248 1.24512 -0.97013
15.5558 1.28012 -0.95813
14.9158 1.39212 -0.91113
14.7698 1.42512 -0.90113
14.6228 1.45712 -0.89013
14.0648 1.55612 -0.85013
13.9288 1.58512 -0.84013
13.7988 1.61412 -0.83113
13.1758 1.72912 -0.78713
13.0518 1.75512 -0.77813
11.1358 2.12212 -0.64313
15.5718 1.25812 -1.06113
15.4238 1.29612 -1.05013
15.2518 1.33012 -1.03613
15.0918 1.36412 -1.02413
14.9348 1.39712 -1.01113
14.7958 1.40812 -1.00013
14.6328 1.43912 -0.98713
14.4968 1.47212 -0.97713
14.3438 1.50212 -0.96513
14.2138 1.53412 -0.95513
14.0718 1.56412 -0.94413
13.8108 1.60112 -0.92313
13.6968 1.63212 -0.91513
13.5438 1.65712 -0.90313
13.4298 1.68612 -0.89413
13.2898 1.71112 -0.88313
12.9438 1.77112 -0.85613
12.8178 1.79512 -0.84613
12.7078 1.82012 -0.83813
12.5948 1.84512 -0.82913
12.2868 1.89912 -0.80513
12.1758 1.92112 -0.79713
12.0678 1.94312 -0.78813
11.5758 2.03312 -0.75113
11.4728 2.05312 -0.74313
11.2908 2.09412 -0.72913
10.9388 2.15412 -0.70213
10.8478 2.17212 -0.69513
10.7688 2.19112 -0.68913
10.3678 2.26412 -0.65913
10.2888 2.28012 -0.65313
10.1898 2.29212 -0.64613
14.1998 1.52012 -1.03613
14.0878 1.55212 -1.02613
13.9468 1.58112 -1.01513
13.5658 1.64512 -0.98313
13.4338 1.67112 -0.97213
13.3178 1.69912 -0.96213
13.1898 1.72512 -0.95213
13.0718 1.75112 -0.94213
12.8408 1.78112 -0.92213
12.7148 1.80412 -0.91213
12.6048 1.82912 -0.90313
12.5098 1.85512 -0.89513
12.3958 1.87812 -0.88613
12.2978 1.90212 -0.87813
12.1938 1.90612 -0.86913
12.0918 1.92812 -0.86113
11.9968 1.95212 -0.85313
11.8968 1.97412 -0.84513
11.7898 1.99412 -0.83613
11.6998 2.01612 -0.82913
11.5968 2.03612 -0.82013
11.5078 2.03812 -0.81313
11.4028 2.05712 -0.80413
11.3278 2.08012 -0.79813
11.2288 2.09812 -0.79013
11.1538 2.12012 -0.78413
11.0498 2.13612 -0.77513
10.9718 2.13912 -0.76913
10.8848 2.15712 -0.76213
10.7978 2.17512 -0.75513
10.7078 2.19112 -0.74813
10.6498 2.21412 -0.74313
10.5548 2.22912 -0.73513
10.4838 2.24812 -0.73013
10.3948 2.24612 -0.72213
10.3348 2.26712 -0.71813
13.0738 1.74012 -1.02013
12.9578 1.76612 -1.01013
12.8338 1.79112 -0.99913
12.3978 1.87012 -0.96013
12.2988 1.89512 -0.95213
12.1948 1.91812 -0.94313
12.0968 1.92212 -0.93413
11.9868 1.94412 -0.92413
11.8828 1.96512 -0.91513
11.7878 1.98812 -0.90713
11.7008 2.01112 -0.89913
11.5988 2.03112 -0.89013
11.5078 2.05312 -0.88213
11.4198 2.05612 -0.87513
11.3308 2.07712 -0.86713
11.2348 2.09612 -0.85813
11.1438 2.11612 -0.85113
11.0588 2.13612 -0.84313
10.9698 2.15412 -0.83613
10.8088 2.17612 -0.82213
10.7298 2.19512 -0.81513
10.6408 2.21212 -0.80713
10.5598 2.23012 -0.80013
10.4828 2.24912 -0.79413
10.3278 2.26712 -0.78013
10.2378 2.28112 -0.77213
12.0718 1.93212 -1.01013
11.6948 2.00312 -0.97413
11.5828 2.02112 -0.96413
11.5118 2.04612 -0.95713
11.4118 2.06512 -0.94813
11.2398 2.08812 -0.93213
11.1408 2.10612 -0.92213
11.0638 2.12712 -0.91513
10.9748 2.14612 -0.90713
10.9038 2.16712 -0.90113
10.7318 2.18512 -0.88413
10.6468 2.20312 -0.87713
10.5758 2.22212 -0.87013
10.4888 2.23812 -0.86213
10.4258 2.25912 -0.85613
10.3188 2.27012 -0.84713
10.2788 2.27812 -0.84313
10.9608 2.14412 -0.97513
10.8758 2.16312 -0.96613
10.7928 2.18212 -0.95813
10.7118 2.20112 -0.95013
10.5478 2.21912 -0.93413
10.4758 2.23912 -0.92713
10.3898 2.25512 -0.91813
10.3098 2.27212 -0.91113
10.2158 2.28512 -0.90113
10.3018 2.27912 -0.97913
10.2168 2.29312 -0.97113
6.48582 2.77412 0.43887
6.43482 2.77612 0.43687
6.37182 2.79612 0.43487
6.35282 2.79912 0.43487
6.30982 2.80412 0.43387
6.26382 2.80712 0.43187
6.23882 2.81912 0.43187
6.19882 2.82512 0.42987
6.15782 2.82912 0.42887
6.13282 2.84112 0.42887
6.10482 2.83912 0.42787
6.05982 2.84112 0.42587
6.03982 2.85512 0.42587
6.00182 2.86012 0.42487
5.96582 2.86612 0.42387
5.93482 2.87412 0.42287
5.90082 2.88012 0.42187
5.87182 2.87712 0.42087
5.83382 2.88112 0.41987
5.80682 2.89112 0.41887
5.77982 2.90012 0.41887
5.74382 2.90412 0.41787
5.70982 2.91012 0.41687
5.68782 2.90912 0.41587
5.65382 2.91412 0.41487
5.62882 2.92412 0.41487
5.59982 2.93112 0.41387
5.56082 2.93312 0.41287
5.53682 2.94312 0.41187
5.50382 2.94712 0.41087
5.48982 2.95112 0.41087
5.44882 2.95112 0.40987
5.42382 2.95912 0.40887
5.39582 2.96512 0.40787
5.37082 2.97312 0.40787
5.34182 2.98012 0.40687
5.32382 2.99112 0.40687
5.26082 2.98912 0.40487
5.23282 2.99412 0.40387
5.20382 2.99912 0.40287
5.18982 3.01312 0.40287
5.14882 3.01112 0.40187
5.13082 3.01112 0.40087
5.10382 3.01712 0.40087
5.05382 3.03012 0.39887
5.02782 3.03512 0.39887
4.99782 3.03912 0.39787
4.97582 3.04712 0.39687
4.95782 3.04612 0.39687
4.87782 3.06112 0.39487
4.86482 3.07412 0.39487
4.83182 3.07412 0.39387
4.80382 3.07712 0.39287
4.78582 3.07612 0.39187
4.76382 3.08412 0.39187
4.71682 3.09512 0.39087
4.66682 3.10412 0.38987
4.63782 3.10512 0.38887
4.62782 3.10912 0.38887
4.57682 3.11712 0.38687
4.55382 3.12212 0.38687
6.56882 2.74112 0.39487
6.03982 2.84012 0.38287
5.81882 2.88312 0.37787
5.77082 2.89412 0.37687
5.70082 2.90412 0.37487
5.66882 2.91012 0.37487
5.63682 2.91612 0.37387
5.43482 2.95412 0.36987
5.33182 2.97512 0.36687
5.31082 2.98512 0.36687
5.27682 2.98812 0.36587
5.25282 2.99712 0.36587
5.20982 3.00512 0.36487
5.17082 3.00412 0.36387
5.14682 3.01212 0.36387
5.12082 3.01912 0.36287
5.09882 3.02812 0.36287
5.07782 3.03612 0.36187
5.04482 3.02812 0.36087
5.03082 3.04112 0.36087
5.00382 3.04612 0.36087
4.96682 3.04512 0.35987
4.94482 3.05412 0.35887
4.92682 3.06412 0.35887
4.89882 3.06812 0.35787
4.88582 3.07012 0.35787
4.85682 3.07412 0.35787
4.84082 3.08512 0.35687
4.81282 3.08812 0.35687
4.75782 3.09612 0.35587
4.73582 3.10312 0.35487
4.71582 3.10112 0.35487
4.69482 3.10812 0.35387
4.66682 3.11012 0.35387
4.58782 3.13112 0.35187
6.55382 2.76212 0.36087
6.30282 2.80912 0.35587
6.22882 2.82212 0.35487
6.06882 2.85412 0.35187
5.43482 2.97212 0.33987
5.27482 3.00412 0.33787
6.54682 2.74612 0.30687
6.50582 2.75312 0.30587
6.47182 2.76312 0.30587
6.43582 2.77112 0.30487
6.22082 2.80812 0.30287
6.02082 2.84412 0.29987
5.98482 2.85012 0.29987
5.86482 2.87312 0.29787
5.79782 2.88612 0.29687
5.44682 2.95212 0.29287
5.09982 3.01912 0.28887
5.07882 3.02812 0.28887
5.04982 3.03312 0.28787
4.94782 3.04712 0.28687
4.92482 3.05412 0.28687
4.89482 3.05712 0.28587
4.87482 3.06612 0.28587
4.85682 3.06512 0.28587
4.83882 3.07512 0.28587
4.81082 3.07812 0.28587
4.77882 3.07912 0.28487
4.75182 3.08312 0.28487
4.73082 3.09112 0.28487
4.71082 3.09912 0.28387
4.69582 3.10012 0.28387
4.67582 3.10812 0.28387
4.64682 3.10912 0.28387
4.62682 3.11712 0.28387
4.60682 3.12512 0.28287
4.58682 3.13312 0.28287
6.55382 2.76112 0.26987
6.51782 2.76912 0.26987
6.42682 2.77812 0.26887
6.32582 2.80512 0.26787
6.30282 2.80712 0.26787
6.26982 2.81612 0.26787
6.19382 2.82912 0.26687
6.11682 2.83912 0.26587
6.08382 2.84712 0.26587
6.06182 2.84812 0.26587
6.02382 2.85412 0.26587
5.98982 2.86012 0.26487
5.96782 2.87312 0.26487
5.89582 2.88412 0.26487
5.83782 2.88912 0.26387
5.80382 2.89512 0.26387
5.77082 2.90212 0.26387
5.73682 2.90712 0.26287
5.70982 2.91612 0.26287
5.68682 2.92612 0.26287
5.64882 2.91812 0.26287
5.61982 2.92512 0.26187
5.59482 2.93412 0.26187
5.56082 2.93912 0.26187
5.52682 2.94312 0.26187
5.50382 2.95312 0.26087
5.46982 2.95712 0.26087
5.45282 2.95812 0.26087
5.42282 2.96412 0.26087
5.38982 2.96812 0.25987
5.36182 2.97412 0.25987
5.33482 2.98112 0.25987
5.29582 2.98112 0.25987
5.27282 2.99012 0.25987
5.25582 2.99112 0.25887
5.19882 3.00212 0.25887
5.18282 3.01412 0.25887
5.15282 3.01812 0.25887
5.11682 3.01912 0.25787
5.10382 3.02212 0.25787
5.07382 3.02612 0.25787
5.02382 3.03912 0.25787
4.98882 3.03912 0.25687
4.97082 3.04912 0.25687
4.94882 3.05812 0.25687
4.90482 3.06212 0.25687
4.86982 3.06112 0.25587
4.84482 3.06712 0.25587
4.82282 3.07412 0.25587
4.79382 3.07612 0.25587
4.76882 3.08112 0.25587
4.75582 3.08312 0.25587
4.57282 3.12012 0.25387
6.62682 2.74712 0.13987
6.56982 2.74812 0.14087
6.53182 2.75612 0.14087
6.49582 2.76512 0.14087
6.45782 2.77312 0.14187
6.43282 2.78612 0.14187
6.40182 2.78512 0.14187
6.34982 2.78612 0.14187
6.32382 2.79912 0.14187
6.29682 2.81112 0.14287
6.24282 2.81012 0.14287
6.20582 2.81812 0.14287
6.00482 2.85312 0.14487
5.97582 2.86212 0.14487
5.79082 2.89912 0.14587
5.66782 2.91612 0.14687
5.56882 2.93212 0.14687
4.69882 3.10512 0.15287
4.67382 3.10012 0.15287
4.57482 3.11812 0.15287
4.53782 3.13512 0.15387
2.22582 3.56912 0.13787
2.16082 3.57612 0.13787
2.08682 3.59212 0.13787
2.01182 3.60412 0.13887
1.97082 3.61112 0.13887
1.93882 3.61912 0.13887
1.92582 3.62212 0.13887
1.91282 3.62412 0.13887
1.83982 3.63712 0.13887
6.60482 2.75012 0.0458701
6.56982 2.76012 0.0468701
6.51882 2.76312 0.0478701
6.48482 2.77212 0.0478701
6.44782 2.78112 0.0488701
6.40982 2.78912 0.0498701
6.36882 2.78312 0.0498701
6.33582 2.79212 0.0508701
6.29982 2.80012 0.0518701
6.26882 2.81012 0.0518701
6.22882 2.81612 0.0528701
6.18782 2.82112 0.0538701
6.13982 2.83412 0.0538701
6.08682 2.83312 0.0548701
6.07482 2.85112 0.0548701
6.02082 2.84912 0.0558701
6.00282 2.86312 0.0568701
5.95582 2.86412 0.0578701
5.92282 2.87112 0.0578701
5.90582 2.87512 0.0578701
5.86082 2.87612 0.0588701
5.83182 2.88512 0.0598701
5.81382 2.89812 0.0598701
5.76182 2.89512 0.0608701
5.72782 2.90112 0.0608701
5.70582 2.91212 0.0618701
5.67982 2.91112 0.0618701
5.58682 2.93012 0.0638701
5.52082 2.94012 0.0648701
5.38482 2.96712 0.0668701
5.35482 2.97212 0.0678701
5.34682 2.99012 0.0678701
5.29782 2.99612 0.0678701
5.24082 3.00712 0.0688701
5.20182 3.00712 0.0698701
5.14882 3.01912 0.0708701
5.13682 3.02312 0.0708701
5.09582 3.02112 0.0718701
5.08982 3.03912 0.0718701
5.04282 3.03312 0.0728701
4.98782 3.04312 0.0738701
4.92482 3.05812 0.0748701
4.89782 3.06212 0.0748701
4.87282 3.06812 0.0748701
4.84682 3.07312 0.0758701
4.82282 3.08012 0.0758701
4.80482 3.07912 0.0758701
4.78182 3.08512 0.0768701
4.76382 3.09512 0.0768701
4.73682 3.09912 0.0768701
4.71082 3.10312 0.0778701
4.68382 3.10712 0.0778701
4.66282 3.11412 0.0788701
4.64582 3.11312 0.0788701
4.62282 3.11912 0.0788701
4.60182 3.12612 0.0788701
2.51782 3.50912 0.10587
2.51682 3.51912 0.10487
2.50082 3.51912 0.10587
2.48382 3.51912 0.10587
2.47682 3.53312 0.10587
2.44782 3.53912 0.10587
2.42682 3.53212 0.10587
2.42582 3.54212 0.10587
2.39082 3.53912 0.10687
2.37182 3.53512 0.10687
2.36482 3.54912 0.10687
2.32882 3.54212 0.10687
2.32482 3.54912 0.10687
2.31382 3.55612 0.10687
2.29482 3.55212 0.10687
2.28482 3.56112 0.10687
2.26682 3.55812 0.10787
2.25882 3.57012 0.10787
2.24282 3.56912 0.10787
2.23482 3.56912 0.10787
2.22182 3.57212 0.10787
2.20882 3.57812 0.10787
2.17982 3.58012 0.10787
2.16682 3.58512 0.10787
2.16282 3.59012 0.10787
2.14782 3.59112 0.10787
2.13582 3.59712 0.10787
2.12182 3.59812 0.10887
2.10782 3.60112 0.10887
2.09182 3.59912 0.10887
2.08082 3.60612 0.10887
2.07282 3.60612 0.10887
2.05282 3.59812 0.10887
2.04482 3.61012 0.10887
2.03082 3.61112 0.10887
2.00582 3.62012 0.10887
1.98282 3.61912 0.10987
1.96882 3.62012 0.10987
1.95882 3.63012 0.10987
1.94582 3.63212 0.10987
1.87182 3.64412 0.10987
1.84482 3.64712 0.10987
1.83282 3.65312 0.10987
1.81682 3.65012 0.11087
6.38982 2.78312 0.0138701
6.37082 2.79912 0.0138701
6.32682 2.80312 0.0148701
6.29282 2.81112 0.0158701
6.20582 2.81912 0.0178701
6.11282 2.83512 0.0198701
6.08982 2.84712 0.0198701
6.00282 2.85212 0.0218701
5.95782 2.87712 0.0228701
5.89182 2.87912 0.0248701
5.81682 2.88812 0.0258701
5.76982 2.91012 0.0268701
5.71382 2.91512 0.0278701
5.64382 2.92412 0.0298701
5.58782 2.93912 0.0308701
5.54682 2.94012 0.0318701
5.49682 2.94612 0.0328701
5.47882 2.95912 0.0328701
5.44582 2.96312 0.0338701
5.41082 2.96612 0.0348701
5.34482 2.97312 0.0358701
5.35082 2.98812 0.0358701
5.28682 2.99512 0.0368701
5.25982 3.00212 0.0378701
5.22282 3.00212 0.0388701
5.19782 3.01012 0.0388701
5.17082 3.01612 0.0398701
5.14582 3.01212 0.0398701
5.09782 3.02712 0.0408701
5.07582 3.03512 0.0418701
5.03382 3.03212 0.0428701
5.02782 3.04912 0.0418701
4.97782 3.05112 0.0438701
4.94482 3.05212 0.0438701
4.92282 3.06012 0.0448701
4.88982 3.06012 0.0448701
4.87182 3.07012 0.0458701
4.84682 3.07612 0.0458701
4.83882 3.08112 0.0458701
4.80182 3.07912 0.0468701
4.78882 3.09212 0.0468701
4.74882 3.08712 0.0478701
4.72782 3.09512 0.0478701
4.67782 3.10412 0.0488701
4.66182 3.10412 0.0498701
4.63582 3.10712 0.0498701
4.61382 3.11412 0.0508701
2.48182 3.52012 0.0828701
2.47582 3.52412 0.0828701
2.44682 3.53012 0.0838701
2.43282 3.53212 0.0838701
2.40582 3.54112 0.0838701
2.39382 3.54712 0.0838701
2.38782 3.55012 0.0838701
2.36482 3.54012 0.0848701
2.34382 3.55612 0.0848701
