3.07888 3.32889 -1.5169
2.88488 3.36589 -1.4809
1.87588 3.51489 -1.3579
1.76088 3.53689 -1.3459
1.47988 3.58589 -1.3189
1.31888 3.60589 -1.3049
1.26588 3.61889 -1.3029
1.25288 3.61789 -1.3009
1.22688 3.63689 -1.3039
1.16288 3.63389 -1.2959
1.13388 3.64089 -1.2949
0.954881 3.66689 -1.2859
0.931881 3.67089 -1.2859
0.891881 3.68489 -1.2869
0.772881 3.69789 -1.2819
0.726881 3.70489 -1.2809
0.662881 3.72089 -1.2829
0.831881 3.68489 -1.3249
1.98588 3.50289 -1.4629
1.96188 3.51189 -1.4609
1.94788 3.51189 -1.4579
1.94188 3.51489 -1.4579
1.92688 3.51289 -1.4549
1.90188 3.51989 -1.4519
1.88888 3.52289 -1.4509
1.83888 3.52189 -1.4409
1.83188 3.53589 -1.4449
1.81688 3.53289 -1.4409
1.79388 3.54289 -1.4409
1.78488 3.53889 -1.4379
1.76888 3.53389 -1.4329
1.75788 3.53989 -1.4329
1.74288 3.53689 -1.4299
1.73288 3.54589 -1.4309
1.71788 3.54289 -1.4279
1.70988 3.55489 -1.4309
1.70088 3.54889 -1.4269
1.65388 3.56689 -1.4249
1.63788 3.55989 -1.4199
1.62888 3.57089 -1.4229
1.61888 3.56289 -1.4179
1.59488 3.56989 -1.4169
1.57888 3.56389 -1.4119
1.55988 3.58289 -1.4159
1.54388 3.57589 -1.4109
1.54188 3.58689 -1.4149
1.52888 3.58589 -1.4119
1.51588 3.58789 -1.4109
1.49088 3.59189 -1.4089
1.47588 3.58589 -1.4039
1.46688 3.59589 -1.4069
1.44888 3.60089 -1.4059
1.42488 3.60689 -1.4039
1.39988 3.60889 -1.4019
1.30688 3.61989 -1.3929
1.29888 3.61589 -1.3909
1.26688 3.63389 -1.3929
1.23488 3.63489 -1.3889
1.19588 3.63189 -1.3829
1.18288 3.62989 -1.3809
1.14288 3.64089 -1.3799
1.11988 3.64889 -1.3799
1.09488 3.64989 -1.3779
1.08388 3.65389 -1.3779
1.06488 3.65289 -1.3759
1.03288 3.67189 -1.3799
1.01788 3.66289 -1.3749
0.999881 3.66389 -1.3729
0.989881 3.67389 -1.3759
0.976881 3.66989 -1.3729
0.963881 3.66589 -1.3699
0.952881 3.67289 -1.3719
0.941881 3.67889 -1.3729
0.927881 3.67289 -1.3699
0.910881 3.67589 -1.3689
0.898881 3.67689 -1.3679
0.887881 3.68289 -1.3699
0.875881 3.68189 -1.3679
0.866881 3.69889 -1.3739
0.850881 3.68189 -1.3659
0.847881 3.69389 -1.3699
0.810881 3.69289 -1.3669
0.799881 3.69889 -1.3679
0.776881 3.70189 -1.3669
0.769881 3.69789 -1.3649
0.758881 3.70589 -1.3669
0.747881 3.70789 -1.3669
0.735881 3.71289 -1.3679
0.721881 3.70389 -1.3639
0.699881 3.71189 -1.3649
0.694881 3.71689 -1.3669
1.83588 3.52789 -1.4929
1.82288 3.52989 -1.4909
1.81488 3.52789 -1.4889
1.73888 3.54289 -1.4809
1.72988 3.53989 -1.4779
1.71888 3.54489 -1.4779
1.65788 3.55989 -1.4729
1.63588 3.55689 -1.4679
1.62488 3.56289 -1.4679
1.60988 3.55889 -1.4649
1.59688 3.56089 -1.4629
1.58488 3.56389 -1.4619
1.57388 3.56889 -1.4619
1.56888 3.57289 -1.4629
1.55488 3.57089 -1.4599
1.54188 3.57289 -1.4589
1.53188 3.58089 -1.4599
1.51888 3.58089 -1.4579
1.50588 3.58089 -1.4559
1.49388 3.58489 -1.4559
1.48488 3.57889 -1.4519
1.47388 3.58389 -1.4519
1.46488 3.59289 -1.4539
1.45188 3.59489 -1.4529
1.43888 3.59389 -1.4499
1.40588 3.59489 -1.4459
1.39588 3.60289 -1.4469
1.38088 3.59689 -1.4429
1.37088 3.60389 -1.4439
1.36288 3.61689 -1.4479
1.34588 3.60589 -1.4409
1.33888 3.60589 -1.4409
1.32888 3.61389 -1.4419
1.31488 3.60989 -1.4379
1.30288 3.61189 -1.4379
1.26588 3.61689 -1.4349
1.26488 3.63089 -1.4399
1.24788 3.62089 -1.4339
1.23788 3.62889 -1.4349
1.22588 3.63089 -1.4349
1.19888 3.62589 -1.4289
1.19188 3.64189 -1.4349
1.18488 3.64089 -1.4329
1.17088 3.63489 -1.4289
1.16088 3.64389 -1.4319
1.12388 3.64589 -1.4279
1.10988 3.64089 -1.4239
1.10488 3.64789 -1.4259
1.09488 3.65489 -1.4279
1.06888 3.65089 -1.4229
1.05788 3.65589 -1.4239
1.03288 3.65589 -1.4209
1.02788 3.66089 -1.4229
1.00288 3.65989 -1.4199
0.991881 3.66489 -1.4199
0.966881 3.66389 -1.4169
0.956881 3.67089 -1.4189
0.936881 3.66789 -1.4159
0.928881 3.68189 -1.4199
0.913881 3.67389 -1.4159
0.892881 3.68489 -1.4179
0.861881 3.68489 -1.4149
0.827881 3.69389 -1.4159
0.795881 3.69189 -1.4119
0.661881 3.71289 -1.4099
0.609881 3.72889 -1.4129
1.86988 3.52189 -1.5389
1.84888 3.52089 -1.5339
1.80988 3.52889 -1.5289
1.79688 3.52889 -1.5269
1.57588 3.56689 -1.5019
1.55188 3.57289 -1.4999
1.50688 3.57689 -1.4939
1.49688 3.58489 -1.4959
1.48588 3.58889 -1.4959
1.47088 3.58489 -1.4919
1.46788 3.59489 -1.4949
1.43888 3.58689 -1.4869
1.42988 3.59589 -1.4899
1.37288 3.60189 -1.4839
1.32488 3.60989 -1.4799
1.15588 3.63489 -1.4669
1.12488 3.63889 -1.4639
0.994881 3.65989 -1.4579
0.566881 3.72889 -1.4489
0.555881 3.73589 -1.4519
1.68388 3.55289 -1.5489
1.28188 3.61589 -1.5459
1.26988 3.61589 -1.5449
1.25988 3.62589 -1.5469
1.24688 3.62389 -1.5449
1.15288 3.64789 -1.5409
1.07388 3.65389 -1.5339
0.935881 3.66889 -1.5249
0.859881 3.68189 -1.5219
0.830881 3.69089 -1.5229
0.796881 3.69989 -1.5239
0.766881 3.70289 -1.5219
0.731881 3.70989 -1.5219
0.701881 3.71189 -1.5209
0.667881 3.72589 -1.5239
0.632881 3.72989 -1.5229
0.624881 3.72189 -1.5189
0.613881 3.72389 -1.5189
0.602881 3.73289 -1.5219
0.590881 3.73289 -1.5219
0.578881 3.72889 -1.5189
0.567881 3.73889 -1.5219
0.554881 3.73289 -1.5189
0.549881 3.73589 -1.5199
0.538881 3.74489 -1.5229
0.503881 3.74989 -1.5229
0.490881 3.74389 -1.5199
0.474881 3.75889 -1.5259
0.449881 3.75289 -1.5219
0.439881 3.76689 -1.5269
0.402881 3.76389 -1.5239
0.373881 3.76989 -1.5259
0.338881 3.77889 -1.5279
0.308881 3.77089 -1.5229
0.208881 3.79589 -1.5309
0.118881 3.80489 -1.5329
0.966881 3.67089 -1.5809
0.959881 3.66789 -1.5779
0.950881 3.68089 -1.5829
0.924881 3.67289 -1.5759
0.915881 3.68789 -1.5819
0.902881 3.68389 -1.5789
0.889881 3.68289 -1.5769
0.883881 3.68089 -1.5759
0.849881 3.69489 -1.5779
0.835881 3.68689 -1.5729
0.824881 3.69089 -1.5739
0.816881 3.70789 -1.5809
0.808881 3.70189 -1.5769
0.796881 3.70089 -1.5759
0.784881 3.70289 -1.5759
1.01388 -5.04211 0.374097
1.02988 -5.03911 0.374097
1.08088 -5.04711 0.375097
1.10788 -5.05311 0.375097
1.12488 -5.05611 0.375097
1.14288 -5.06011 0.376097
1.20388 -5.06811 0.376097
1.25688 -5.08011 0.377097
1.27388 -5.08011 0.377097
1.31988 -5.09111 0.378097
1.35388 -5.09211 0.378097
1.37088 -5.09211 0.378097
1.57188 -5.12411 0.381097
2.68988 -5.30411 0.401097
3.09888 -5.37611 0.410097
3.18188 -5.38211 0.412097
3.23688 -5.39611 0.413097
3.32588 -5.40811 0.415097
3.46588 -5.42411 0.418097
3.61688 -5.44911 0.421097
3.82988 -5.48411 0.426097
3.88588 -5.49011 0.428097
4.34688 -5.56311 0.439097
5.11388 -5.68411 0.459097
6.02788 -5.83011 0.484097
6.60688 -5.92311 0.500097
6.65388 -5.92711 0.501097
1.01588 -5.04511 0.341097
1.05788 -5.05111 0.341097
1.07688 -5.05911 0.342097
1.09188 -5.05211 0.342097
1.12688 -5.05911 0.342097
1.14388 -5.06111 0.342097
1.15288 -5.06311 0.342097
1.18588 -5.06311 0.343097
1.20388 -5.06711 0.343097
1.26588 -5.07911 0.343097
1.29988 -5.08111 0.344097
1.31888 -5.09011 0.344097
1.45288 -5.10811 0.346097
1.49788 -5.11411 0.346097
1.53488 -5.11911 0.346097
1.43588 -5.11911 0.320097
1.48288 -5.12811 0.321097
1.53688 -5.13311 0.321097
1.55588 -5.13811 0.322097
1.67688 -5.15711 0.323097
1.72588 -5.16611 0.323097
1.76388 -5.17211 0.324097
1.78388 -5.17611 0.324097
1.84888 -5.18011 0.325097
1.86788 -5.18211 0.325097
1.88788 -5.18611 0.325097
1.90888 -5.19311 0.325097
1.95588 -5.19411 0.326097
1.97788 -5.20111 0.326097
1.99788 -5.20411 0.326097
2.03888 -5.21411 0.327097
2.04788 -5.21311 0.327097
2.08788 -5.21811 0.327097
2.11088 -5.22611 0.328097
2.12888 -5.22511 0.328097
2.14788 -5.22411 0.328097
2.16788 -5.22711 0.328097
2.18088 -5.23411 0.328097
2.22288 -5.24111 0.329097
2.24188 -5.23911 0.329097
2.26488 -5.24811 0.329097
2.28488 -5.24911 0.330097
2.29688 -5.25411 0.330097
2.31888 -5.25811 0.330097
2.33788 -5.25611 0.330097
2.35788 -5.25811 0.331097
2.38088 -5.26511 0.331097
2.39988 -5.26311 0.331097
2.42088 -5.26411 0.331097
2.43388 -5.27111 0.332097
2.45588 -5.27511 0.332097
2.47788 -5.27811 0.332097
2.50288 -5.28811 0.333097
2.52388 -5.28911 0.333097
2.54088 -5.28311 0.333097
2.56688 -5.29311 0.333097
2.57888 -5.29611 0.333097
2.59888 -5.29511 0.334097
2.62088 -5.29811 0.334097
2.64488 -5.30411 0.334097
2.66688 -5.30611 0.335097
2.69088 -5.31211 0.335097
2.70988 -5.30911 0.335097
2.72488 -5.31711 0.335097
2.74788 -5.32111 0.336097
2.76988 -5.32311 0.336097
2.79188 -5.32311 0.336097
2.82088 -5.33711 0.337097
2.83688 -5.32811 0.337097
2.85188 -5.33411 0.337097
2.87988 -5.34611 0.338097
2.90088 -5.34611 0.338097
2.92488 -5.34911 0.338097
2.94988 -5.35511 0.339097
2.96788 -5.34811 0.339097
2.99288 -5.35211 0.339097
3.01188 -5.36711 0.339097
3.03288 -5.36411 0.340097
3.05888 -5.37011 0.340097
3.08188 -5.37111 0.340097
3.10588 -5.37311 0.341097
3.12888 -5.37611 0.341097
3.15488 -5.38011 0.341097
3.16988 -5.38711 0.342097
3.19688 -5.39411 0.342097
3.21788 -5.39111 0.342097
3.24288 -5.39311 0.343097
3.26688 -5.39411 0.343097
3.29788 -5.40811 0.344097
3.31788 -5.40211 0.344097
3.33388 -5.40911 0.344097
3.36088 -5.41411 0.344097
3.38388 -5.41311 0.345097
3.40788 -5.41311 0.345097
3.43888 -5.42411 0.346097
3.47688 -5.42811 0.346097
3.50788 -5.43911 0.347097
3.53188 -5.43811 0.347097
3.55888 -5.44211 0.347097
3.58488 -5.44411 0.348097
3.61088 -5.44611 0.348097
3.64088 -5.45411 0.349097
3.66188 -5.46711 0.349097
3.68188 -5.45911 0.349097
3.71088 -5.46511 0.350097
3.74288 -5.47511 0.350097
3.76988 -5.47611 0.351097
3.79388 -5.47411 0.351097
3.83988 -5.48611 0.352097
3.87388 -5.49611 0.352097
3.89888 -5.49611 0.353097
3.92388 -5.49511 0.353097
4.00488 -5.51511 0.355097
4.02788 -5.51111 0.355097
4.05888 -5.51611 0.355097
4.08988 -5.52211 0.356097
4.12188 -5.52811 0.356097
4.15288 -5.53311 0.357097
4.20088 -5.54211 0.358097
4.23388 -5.54911 0.358097
4.26388 -5.55211 0.359097
4.35488 -5.56211 0.360097
4.40788 -5.57411 0.361097
4.44488 -5.58511 0.362097
4.50388 -5.58611 0.363097
4.59488 -5.60811 0.364097
4.62788 -5.61211 0.365097
4.65988 -5.61411 0.365097
4.69288 -5.61811 0.366097
4.81488 -5.63711 0.368097
4.84988 -5.64211 0.369097
4.88488 -5.64611 0.369097
4.99388 -5.66311 0.371097
5.04988 -5.67211 0.372097
5.08888 -5.68011 0.373097
5.29788 -5.71111 0.377097
5.34188 -5.72211 0.378097
5.37888 -5.72511 0.378097
5.52088 -5.74811 0.381097
5.56388 -5.75611 0.382097
5.60688 -5.76411 0.382097
5.65188 -5.77411 0.383097
5.68888 -5.77411 0.384097
5.73088 -5.78111 0.385097
5.77288 -5.78711 0.385097
5.79888 -5.79411 0.386097
5.84288 -5.80111 0.387097
5.88488 -5.80711 0.388097
5.97188 -5.81811 0.389097
6.09588 -5.84611 0.392097
6.14388 -5.85511 0.393097
6.18288 -5.85511 0.393097
6.22788 -5.86011 0.394097
6.27388 -5.86711 0.395097
6.35588 -5.88711 0.397097
6.41088 -5.90111 0.398097
6.44788 -5.89711 0.398097
6.49288 -5.90111 0.399097
6.54688 -5.91211 0.400097
6.68188 -5.93911 0.403097
6.72688 -5.94211 0.404097
6.78088 -5.95111 0.405097
6.82988 -5.95611 0.406097
7.01988 -5.98611 0.409097
0.992881 -5.04411 0.277097
1.00888 -5.04511 0.277097
1.02688 -5.05011 0.277097
1.04488 -5.05811 0.277097
1.05988 -5.04911 0.277097
1.06988 -5.05711 0.277097
1.12088 -5.06511 0.278097
1.15388 -5.06311 0.278097
1.18188 -5.07511 0.278097
1.21488 -5.07211 0.278097
1.25088 -5.08311 0.278097
1.28388 -5.07911 0.278097
1.31088 -5.08711 0.279097
1.40288 -5.11011 0.279097
1.42988 -5.11511 0.279097
1.46388 -5.11211 0.280097
1.49888 -5.11211 0.280097
1.54888 -5.13311 0.280097
1.58288 -5.13011 0.280097
1.63188 -5.14611 0.281097
1.74088 -5.14911 0.281097
1.93688 -5.18711 0.283097
1.97988 -5.20511 0.283097
2.09088 -5.22211 0.284097
2.16188 -5.23411 0.285097
2.20188 -5.23711 0.285097
2.22288 -5.24111 0.285097
2.29588 -5.25111 0.286097
2.31688 -5.25511 0.286097
2.33788 -5.25911 0.286097
2.35988 -5.26211 0.286097
2.36988 -5.26411 0.287097
2.38988 -5.26411 0.287097
2.41288 -5.27111 0.287097
2.43188 -5.26911 0.287097
2.45588 -5.27711 0.287097
2.47888 -5.28211 0.287097
2.49788 -5.28011 0.288097
2.51088 -5.28711 0.288097
2.53388 -5.29211 0.288097
2.54788 -5.27811 0.288097
2.57388 -5.29011 0.288097
2.59788 -5.29811 0.288097
2.61688 -5.29411 0.289097
2.63188 -5.30411 0.289097
2.65188 -5.30111 0.289097
2.67788 -5.31211 0.289097
2.69488 -5.30411 0.289097
2.72188 -5.31711 0.290097
2.73988 -5.31011 0.290097
2.76188 -5.31211 0.290097
2.77988 -5.32711 0.290097
2.79888 -5.32211 0.290097
2.82388 -5.32911 0.290097
2.85088 -5.34011 0.291097
2.86988 -5.33411 0.291097
2.89088 -5.33411 0.291097
2.91388 -5.33511 0.291097
2.92488 -5.33611 0.291097
2.94888 -5.34111 0.292097
2.97688 -5.35111 0.292097
2.99888 -5.35211 0.292097
3.02288 -5.35511 0.292097
3.04688 -5.35911 0.292097
3.06888 -5.35811 0.293097
3.08888 -5.37311 0.293097
3.10688 -5.36611 0.293097
3.13088 -5.36911 0.293097
3.18088 -5.37611 0.294097
3.31988 -5.39811 0.295097
6.46488 -5.89411 0.332097
0.941881 -5.02611 0.250097
1.00988 -5.04011 0.250097
1.01788 -5.04011 0.250097
1.03488 -5.04111 0.250097
1.05188 -5.04311 0.250097
1.06788 -5.04211 0.250097
1.12088 -5.05311 0.251097
1.12888 -5.05511 0.251097
1.14888 -5.06711 0.251097
1.16488 -5.06311 0.251097
1.18288 -5.07111 0.251097
1.19988 -5.07011 0.251097
1.21688 -5.07211 0.251097
1.22488 -5.06811 0.251097
1.24388 -5.07611 0.251097
1.26288 -5.08711 0.251097
1.28088 -5.08911 0.251097
1.29688 -5.08711 0.251097
1.34488 -5.10411 0.252097
1.36188 -5.10511 0.252097
1.37688 -5.09511 0.252097
1.43088 -5.10311 0.252097
1.45888 -5.11211 0.252097
1.47588 -5.10911 0.252097
1.49688 -5.12311 0.252097
1.51388 -5.11911 0.252097
1.53088 -5.12011 0.252097
1.55188 -5.12811 0.252097
1.56288 -5.13511 0.253097
1.57688 -5.12511 0.252097
1.61688 -5.13911 0.253097
1.63588 -5.14411 0.253097
1.65488 -5.14611 0.253097
1.66988 -5.13911 0.253097
1.67888 -5.13811 0.253097
1.70488 -5.16111 0.253097
1.71788 -5.14911 0.253097
1.73788 -5.15311 0.253097
1.75988 -5.16411 0.253097
1.77488 -5.15711 0.253097
1.80688 -5.16911 0.254097
1.82588 -5.17111 0.254097
1.84588 -5.17411 0.254097
1.86488 -5.17811 0.254097
1.88488 -5.18111 0.254097
1.90088 -5.17411 0.254097
1.92288 -5.18511 0.254097
1.93388 -5.18911 0.254097
1.97088 -5.18811 0.254097
1.99288 -5.19711 0.255097
2.00988 -5.19211 0.255097
2.03188 -5.19911 0.255097
2.04388 -5.20711 0.255097
2.08388 -5.21111 0.255097
2.10588 -5.21911 0.255097
2.21588 -5.22811 0.256097
2.25688 -5.23411 0.256097
2.27688 -5.23411 0.256097
2.31188 -5.24711 0.256097
2.37488 -5.25411 0.257097
2.44888 -5.26211 0.257097
2.49488 -5.27311 0.257097
2.51388 -5.27111 0.257097
2.54088 -5.28511 0.258097
2.55788 -5.27811 0.258097
2.57288 -5.28711 0.258097
2.59188 -5.28411 0.258097
2.61588 -5.29011 0.258097
2.66088 -5.29711 0.258097
2.74388 -5.31511 0.259097
2.80888 -5.31711 0.259097
2.83288 -5.32311 0.259097
2.86988 -5.33011 0.259097
2.89588 -5.33911 0.260097
2.91888 -5.34211 0.260097
2.96288 -5.34111 0.260097
2.98788 -5.34711 0.260097
3.02288 -5.35111 0.260097
3.07688 -5.36611 0.261097
3.10788 -5.38111 0.261097
3.12588 -5.37311 0.261097
3.15588 -5.38511 0.261097
3.16088 -5.37511 0.261097
3.19188 -5.38711 0.262097
3.24188 -5.39411 0.262097
3.30088 -5.39611 0.262097
3.35988 -5.41611 0.263097
3.38488 -5.41711 0.263097
3.40488 -5.41211 0.263097
3.43888 -5.42811 0.263097
3.45988 -5.42211 0.263097
3.47788 -5.43211 0.263097
3.50088 -5.43111 0.264097
3.52588 -5.43111 0.264097
3.56488 -5.45411 0.264097
3.58288 -5.44411 0.264097
3.61888 -5.46111 0.264097
3.63988 -5.45511 0.265097
3.66188 -5.46911 0.265097
3.67988 -5.45911 0.265097
3.74188 -5.47511 0.265097
3.76988 -5.48011 0.266097
3.79088 -5.47311 0.266097
3.83188 -5.49511 0.266097
3.83688 -5.48511 0.266097
3.87088 -5.49511 0.266097
3.89488 -5.49311 0.266097
3.92388 -5.49711 0.267097
3.95188 -5.49911 0.267097
3.99288 -5.51911 0.267097
3.99888 -5.50911 0.267097
4.03688 -5.52611 0.267097
4.06288 -5.52411 0.268097
4.09188 -5.52811 0.268097
4.11688 -5.52411 0.268097
4.15988 -5.54511 0.268097
4.20988 -5.55711 0.269097
4.23488 -5.55311 0.269097
4.26888 -5.56211 0.269097
4.29288 -5.55611 0.269097
4.35888 -5.56911 0.270097
4.41388 -5.58411 0.270097
4.45088 -5.59511 0.271097
4.47688 -5.59211 0.271097
4.50588 -5.59211 0.271097
4.53888 -5.59611 0.271097
4.57788 -5.60811 0.271097
4.60988 -5.61111 0.272097
4.63088 -5.61911 0.272097
4.65888 -5.61711 0.272097
4.70288 -5.63311 0.272097
4.72188 -5.61911 0.272097
4.76388 -5.63311 0.273097
4.80188 -5.64311 0.273097
4.82188 -5.64711 0.273097
4.85988 -5.65611 0.274097
4.89588 -5.66211 0.274097
4.92088 -5.65411 0.274097
4.96588 -5.67011 0.274097
4.99888 -5.67111 0.275097
5.03388 -5.67511 0.275097
5.09488 -5.69011 0.275097
5.13688 -5.70011 0.276097
5.17388 -5.70511 0.276097
5.21488 -5.71311 0.276097
5.24088 -5.70611 0.277097
5.27788 -5.71011 0.277097
5.31188 -5.72811 0.277097
5.34688 -5.73011 0.277097
5.38488 -5.73411 0.278097
5.42688 -5.74311 0.278097
5.45888 -5.74011 0.278097
5.50388 -5.75011 0.279097
5.53588 -5.76611 0.279097
5.56788 -5.76311 0.279097
5.61288 -5.77311 0.280097
5.65088 -5.77511 0.280097
5.69288 -5.78111 0.280097
5.73488 -5.78711 0.281097
5.77688 -5.79311 0.281097
5.80488 -5.80311 0.281097
5.85088 -5.81211 0.282097
5.89088 -5.81511 0.282097
5.93388 -5.82011 0.282097
5.98088 -5.82911 0.283097
6.02888 -5.84011 0.283097
6.07188 -5.84411 0.283097
6.09988 -5.85311 0.284097
6.14588 -5.86011 0.284097
6.18788 -5.86211 0.284097
6.23388 -5.86911 0.285097
6.27788 -5.87411 0.285097
6.31888 -5.87411 0.285097
6.36188 -5.89511 0.286097
6.40988 -5.90211 0.286097
6.45188 -5.90411 0.287097
6.50488 -5.91411 0.287097
6.54688 -5.91511 0.287097
6.60588 -5.93111 0.288097
6.64688 -5.93011 0.288097
6.68488 -5.94411 0.289097
6.73188 -5.94811 0.289097
6.78488 -5.95811 0.290097
6.82988 -5.95811 0.290097
6.87688 -5.96211 0.290097
6.93388 -5.97311 0.291097
6.98288 -5.97711 0.291097
7.01988 -5.98911 0.292097
7.07688 -5.99911 0.292097
2.10388 -5.22011 0.189097
2.28188 -5.25011 0.189097
2.30288 -5.25411 0.189097
2.37688 -5.26511 0.189097
2.58588 -5.29711 0.188097
2.71088 -5.31911 0.188097
3.31988 -5.41311 0.188097
3.92688 -5.50611 0.187097
4.01988 -5.52511 0.187097
4.09088 -5.53011 0.187097
4.21788 -5.55411 0.187097
4.26788 -5.56411 0.187097
4.32988 -5.57211 0.187097
4.57388 -5.60811 0.186097
4.76588 -5.64011 0.186097
4.83388 -5.64811 0.186097
5.03588 -5.68211 0.186097
5.46288 -5.74911 0.185097
5.54888 -5.76611 0.185097
6.70488 -5.94811 0.184097
6.94288 -5.98511 0.183097
6.99388 -5.99111 0.183097
7.04388 -5.99611 0.183097
3.09688 -5.36011 0.148097
4.27688 -5.54611 0.142097
0.986881 -5.03911 0.0880967
0.992881 -5.03211 0.0890967
1.02788 -5.03911 0.0880967
1.04388 -5.04011 0.0880967
1.06388 -5.05611 0.0880967
1.07788 -5.04311 0.0880967
1.10388 -5.04911 0.0880967
1.12188 -5.05611 0.0880967
1.13888 -5.05411 0.0870967
1.15788 -5.06611 0.0870967
1.17188 -5.05711 0.0870967
1.19088 -5.06711 0.0870967
1.20788 -5.06511 0.0870967
1.21688 -5.06711 0.0870967
1.23388 -5.06911 0.0870967
1.24988 -5.06711 0.0870967
1.26888 -5.07211 0.0860967
1.28588 -5.07411 0.0860967
1.30388 -5.08011 0.0860967
1.32388 -5.09111 0.0860967
1.33188 -5.08911 0.0860967
1.35088 -5.09511 0.0860967
1.36688 -5.09211 0.0860967
1.38388 -5.09211 0.0850967
1.40488 -5.10311 0.0850967
1.42088 -5.09911 0.0850967
1.43088 -5.10411 0.0850967
1.44988 -5.11311 0.0850967
1.46788 -5.11211 0.0850967
1.48288 -5.10611 0.0850967
1.50188 -5.11311 0.0840967
1.52188 -5.12111 0.0840967
1.53888 -5.11811 0.0840967
1.54988 -5.12511 0.0840967
1.56588 -5.11911 0.0840967
1.60288 -5.12611 0.0830967
1.62088 -5.12711 0.0830967
1.64088 -5.13511 0.0830967
1.65788 -5.13311 0.0830967
1.67088 -5.14411 0.0830967
1.68988 -5.14811 0.0820967
1.70888 -5.15311 0.0820967
1.74488 -5.15111 0.0820967
1.76288 -5.15111 0.0820967
1.77288 -5.15411 0.0820967
1.79188 -5.15611 0.0820967
1.80988 -5.15811 0.0810967
1.83288 -5.16911 0.0810967
1.85088 -5.17111 0.0810967
1.86788 -5.16511 0.0810967
1.88788 -5.17111 0.0810967
1.89888 -5.17511 0.0810967
1.91588 -5.17311 0.0800967
1.93788 -5.18211 0.0800967
1.97788 -5.19011 0.0800967
1.99488 -5.18611 0.0800967
2.00488 -5.18711 0.0800967
2.02588 -5.19111 0.0790967
2.04988 -5.20611 0.0790967
2.06788 -5.20311 0.0790967
2.13788 -5.21111 0.0780967
2.15888 -5.21811 0.0780967
2.17688 -5.21411 0.0780967
2.19988 -5.22411 0.0770967
2.21788 -5.21911 0.0770967
2.23888 -5.22511 0.0770967
2.26088 -5.23111 0.0770967
2.26988 -5.22911 0.0770967
2.29388 -5.23811 0.0760967
2.31288 -5.23711 0.0760967
2.33188 -5.23711 0.0760967
2.35388 -5.24211 0.0760967
2.37788 -5.25111 0.0750967
2.40688 -5.24911 0.0750967
2.54888 -5.27311 0.0730967
2.59688 -5.28711 0.0730967
2.64288 -5.29611 0.0720967
2.67088 -5.29111 0.0720967
2.69988 -5.30711 0.0710967
2.74488 -5.31311 0.0710967
2.78988 -5.31711 0.0700967
2.82288 -5.32011 0.0700967
2.86888 -5.32511 0.0690967
2.91688 -5.33511 0.0690967
2.97588 -5.34211 0.0680967
3.02488 -5.35111 0.0670967
3.04788 -5.35311 0.0670967
3.09488 -5.35711 0.0660967
3.10888 -5.36211 0.0660967
3.16188 -5.37511 0.0650967
3.18388 -5.37411 0.0650967
3.23488 -5.38311 0.0640967
3.28288 -5.40611 0.0630967
3.32388 -5.39711 0.0630967
3.35188 -5.40311 0.0630967
3.37388 -5.40111 0.0630967
3.42688 -5.41011 0.0620967
3.47188 -5.42511 0.0610967
3.67388 -5.45411 0.0580967
3.73488 -5.47111 0.0570967
3.77788 -5.47811 0.0570967
3.83488 -5.48711 0.0560967
3.99288 -5.50911 0.0530967
4.05888 -5.52611 0.0520967
4.10588 -5.51811 0.0520967
4.12888 -5.53111 0.0510967
4.16188 -5.53911 0.0510967
4.36188 -5.56511 0.0480967
4.39688 -5.57511 0.0470967
4.46788 -5.59211 0.0460967
4.48788 -5.58111 0.0460967
4.52888 -5.59511 0.0450967
4.54188 -5.59411 0.0450967
4.58288 -5.60811 0.0440967
4.60588 -5.60111 0.0440967
4.65188 -5.62111 0.0430967
4.67488 -5.61211 0.0430967
4.71688 -5.62711 0.0420967
4.79688 -5.63211 0.0410967
4.83788 -5.64511 0.0400967
4.86888 -5.64511 0.0400967
4.96288 -5.66411 0.0380967
4.99088 -5.66011 0.0380967
5.04288 -5.68311 0.0370967
5.06488 -5.67211 0.0370967
5.09888 -5.67411 0.0360967
5.14688 -5.69211 0.0350967
5.17688 -5.68911 0.0350967
5.23488 -5.69911 0.0340967
5.30988 -5.70811 0.0330967
5.34488 -5.71111 0.0320967
5.39488 -5.72711 0.0310967
5.46388 -5.74711 0.0300967
5.52888 -5.74311 0.0290967
5.57088 -5.75011 0.0280967
5.61788 -5.76311 0.0270967
5.67988 -5.77211 0.0260967
5.76388 -5.78411 0.0250967
5.81188 -5.79611 0.0240967
5.85988 -5.80711 0.0230967
5.90388 -5.81411 0.0220967
5.94188 -5.81511 0.0220967
6.01888 -5.83611 0.0200967
6.06088 -5.83911 0.0200967
6.14488 -5.84711 0.0180967
6.19088 -5.85411 0.0170967
6.24088 -5.86411 0.0170967
6.40488 -5.88811 0.0140967
6.45588 -5.89711 0.0130967
6.50988 -5.90911 0.0120967
6.54288 -5.90211 0.0110967
6.58288 -5.92011 0.0100967
6.63588 -5.93011 0.00909674
6.67688 -5.92911 0.00909674
6.72388 -5.93411 0.00809674
6.77888 -5.94411 0.00709674
6.81988 -5.94311 0.00609674
6.85888 -5.95811 0.00609674
6.90788 -5.96311 0.00509674
6.96188 -5.97111 0.00409674
7.06288 -5.98211 0.00209674
0.990881 -5.03811 0.0620967
1.05688 -5.03711 0.0620967
1.11788 -5.05111 0.0610967
1.15188 -5.05511 0.0610967
1.21388 -5.06511 0.0600967
1.24988 -5.07711 0.0590967
1.28288 -5.07311 0.0590967
1.29188 -5.07311 0.0590967
1.31088 -5.08011 0.0590967
1.34588 -5.08411 0.0590967
1.38088 -5.08911 0.0580967
1.39888 -5.09011 0.0580967
1.42888 -5.10411 0.0580967
1.44488 -5.10211 0.0570967
1.50088 -5.11311 0.0570967
1.51788 -5.11211 0.0570967
1.52788 -5.11511 0.0570967
1.54888 -5.12811 0.0560967
1.56388 -5.11711 0.0560967
1.60388 -5.13211 0.0560967
1.62988 -5.13211 0.0550967
1.64788 -5.13111 0.0550967
1.66688 -5.13511 0.0550967
1.68688 -5.14311 0.0550967
1.70388 -5.14011 0.0550967
1.75588 -5.15811 0.0540967
1.79088 -5.15611 0.0530967
1.81088 -5.16211 0.0530967
1.84688 -5.16011 0.0530967
1.86788 -5.16711 0.0520967
1.87788 -5.16811 0.0520967
1.89688 -5.17011 0.0520967
1.97988 -5.19211 0.0510967
2.06788 -5.20111 0.0500967
2.10688 -5.20411 0.0490967
2.14088 -5.21611 0.0490967
2.18088 -5.21911 0.0480967
2.21988 -5.22011 0.0480967
2.25788 -5.24111 0.0470967
2.35888 -5.24711 0.0460967
2.38988 -5.24811 0.0450967
2.46188 -5.27411 0.0440967
2.49788 -5.26411 0.0440967
2.53888 -5.28611 0.0430967
2.57488 -5.27611 0.0430967
2.59888 -5.28411 0.0420967
2.62988 -5.30211 0.0410967
2.65888 -5.29911 0.0410967
2.69888 -5.29411 0.0410967
2.74788 -5.30711 0.0400967
2.80288 -5.31211 0.0390967
2.82688 -5.31611 0.0390967
2.88388 -5.34211 0.0370967
2.92188 -5.33211 0.0370967
2.96188 -5.34511 0.0360967
3.01688 -5.36411 0.0350967
3.05888 -5.35911 0.0350967
3.11588 -5.36111 0.0340967
3.19388 -5.37711 0.0330967
3.26288 -5.39611 0.0310967
3.33788 -5.40411 0.0300967
3.40188 -5.41211 0.0290967
3.43588 -5.42811 0.0280967
3.48488 -5.42811 0.0280967
3.55888 -5.43011 0.0260967
3.58188 -5.44611 0.0260967
3.60188 -5.44011 0.0260967
3.63288 -5.44811 0.0250967
3.66188 -5.45511 0.0240967
3.69588 -5.46811 0.0240967
3.71988 -5.46711 0.0230967
3.74288 -5.46311 0.0230967
3.81988 -5.48311 0.0220967
3.84988 -5.48911 0.0210967
3.87988 -5.49411 0.0200967
3.90888 -5.49811 0.0200967
3.93288 -5.49611 0.0200967
3.95188 -5.50411 0.0190967
3.98588 -5.51411 0.0180967
4.01288 -5.51511 0.0180967
4.04188 -5.51811 0.0170967
4.07588 -5.52811 0.0170967
4.09788 -5.52211 0.0160967
4.11888 -5.53111 0.0160967
4.18188 -5.54311 0.0150967
4.20588 -5.53811 0.0140967
4.24788 -5.55711 0.0130967
4.26888 -5.54811 0.0130967
4.30288 -5.55711 0.0120967
4.35088 -5.56311 0.0120967
4.42288 -5.58211 0.0100967
4.44688 -5.57611 0.0100967
4.47788 -5.57911 0.00909674
4.52088 -5.59611 0.00809674
4.53088 -5.59111 0.00809674
4.57388 -5.60711 0.00709674
4.60388 -5.60811 0.00709674
4.63388 -5.60911 0.00609674
4.66888 -5.61411 0.00509674
4.70388 -5.62111 0.00509674
4.73188 -5.61911 0.00409674
4.76088 -5.63411 0.00309674
4.79288 -5.63611 0.00309674
4.82688 -5.64011 0.00209674
4.86288 -5.64611 0.00109674
4.90088 -5.65411 0.00109674
4.93288 -5.65511 9.6741e-05
4.95988 -5.66811 -0.000903258
5.03188 -5.67711 -0.00190326
5.06588 -5.67911 -0.00290326
5.13988 -5.69011 -0.00390326
5.17788 -5.69611 -0.00490326
5.24488 -5.71411 -0.00590326
5.28288 -5.71911 -0.00690326
5.32088 -5.72511 -0.00790326
5.35388 -5.72411 -0.00890326
5.39588 -5.73211 -0.00990326
5.43388 -5.73611 -0.00990326
5.45688 -5.74211 -0.0109033
5.49888 -5.75011 -0.0119033
5.57488 -5.75711 -0.0129033
5.62588 -5.77211 -0.0139033
5.66288 -5.77411 -0.0149033
5.73088 -5.78811 -0.0169033
5.81288 -5.79711 -0.0179033
5.85488 -5.80311 -0.0189033
5.90688 -5.81711 -0.0199033
5.94588 -5.81911 -0.0209033
6.15588 -5.85511 -0.0259033
6.19688 -5.85811 -0.0269033
6.24788 -5.86811 -0.0279033
6.46488 -5.90211 -0.0329033
6.64488 -5.93211 -0.0369033
6.73688 -5.93911 -0.0379033
6.79388 -5.95111 -0.0399033
6.84688 -5.95911 -0.0409033
6.88088 -5.97011 -0.0419033
6.98088 -5.97911 -0.0439033
7.08088 -5.98811 -0.0459033
0.976881 -5.03011 0.0310967
0.994881 -5.03911 0.0310967
1.00988 -5.03011 0.0310967
1.02888 -5.04211 0.0310967
1.03888 -5.05011 0.0300967
1.05388 -5.04711 0.0300967
1.07088 -5.04811 0.0300967
1.10688 -5.05811 0.0300967
1.12188 -5.05111 0.0300967
1.13188 -5.06111 0.0290967
1.14988 -5.06511 0.0290967
1.16588 -5.06311 0.0290967
1.18388 -5.06711 0.0290967
1.19988 -5.06611 0.0290967
1.21888 -5.07611 0.0280967
1.23688 -5.07911 0.0280967
1.24688 -5.08511 0.0280967
1.26188 -5.07711 0.0280967
1.28088 -5.08511 0.0280967
1.29688 -5.08111 0.0280967
1.31488 -5.08511 0.0270967
1.33388 -5.09411 0.0270967
1.34888 -5.08611 0.0270967
1.35988 -5.09611 0.0270967
1.37888 -5.10311 0.0260967
1.39588 -5.10211 0.0260967
1.41388 -5.10611 0.0260967
1.43188 -5.10911 0.0260967
1.45788 -5.10811 0.0250967
1.47588 -5.11111 0.0250967
1.49488 -5.11411 0.0250967
1.51288 -5.11711 0.0250967
1.52988 -5.11411 0.0250967
1.54888 -5.12111 0.0240967
1.56688 -5.12211 0.0240967
1.57888 -5.13211 0.0240967
1.59688 -5.13311 0.0230967
1.61188 -5.12611 0.0230967
1.63288 -5.13511 0.0230967
1.69088 -5.14911 0.0220967
1.69588 -5.13711 0.0220967
1.71388 -5.13911 0.0220967
1.73388 -5.14511 0.0220967
1.79188 -5.15711 0.0210967
1.82088 -5.16011 0.0200967
1.83988 -5.16411 0.0200967
1.87688 -5.16511 0.0190967
1.89788 -5.17111 0.0190967
1.92588 -5.17311 0.0190967
1.94888 -5.18611 0.0180967
1.98788 -5.19011 0.0170967
2.00488 -5.18611 0.0170967
2.05988 -5.20511 0.0160967
2.23488 -5.23711 0.0130967
2.27188 -5.23211 0.0130967
2.29088 -5.23011 0.0130967
2.58188 -5.27611 0.00709674
3.30788 -5.38911 -0.00690326
3.46588 -5.41511 -0.00990326
4.80888 -5.62811 -0.0419033
6.01888 -5.81711 -0.0729033
6.29488 -5.85911 -0.0799033
6.32188 -5.86611 -0.0809033
6.36788 -5.87211 -0.0819033
6.42188 -5.88411 -0.0829033
6.51188 -5.89211 -0.0859033
6.69488 -5.92511 -0.0909033
6.79288 -5.93711 -0.0929033
6.98488 -5.97111 -0.0989033
7.08788 -5.98311 -0.101903
3.00288 -5.35411 -0.0419033
3.10188 -5.37011 -0.0439033
3.19188 -5.38811 -0.0459033
3.23788 -5.38911 -0.0469033
3.29088 -5.39911 -0.0489033
3.35888 -5.41411 -0.0509033
3.38488 -5.41811 -0.0509033
3.50488 -5.43711 -0.0539033
3.52288 -5.42711 -0.0539033
3.58388 -5.44511 -0.0559033
3.61288 -5.45211 -0.0569033
3.68288 -5.46311 -0.0589033
3.74088 -5.47511 -0.0609033
3.76288 -5.46911 -0.0609033
3.79888 -5.48511 -0.0619033
3.89288 -5.49011 -0.0649033
3.92588 -5.49911 -0.0659033
3.95888 -5.51011 -0.0669033
3.98088 -5.50411 -0.0669033
4.00188 -5.51311 -0.0679033
4.05988 -5.52011 -0.0689033
4.12188 -5.53111 -0.0709033
4.14788 -5.53011 -0.0719033
4.17088 -5.54211 -0.0719033
4.23188 -5.54911 -0.0739033
4.35688 -5.56611 -0.0779033
4.40588 -5.57511 -0.0789033
4.53588 -5.59211 -0.0829033
4.57688 -5.60711 -0.0839033
4.59188 -5.60811 -0.0839033
4.69688 -5.62511 -0.0879033
4.72788 -5.62711 -0.0879033
4.89088 -5.65611 -0.0929033
4.92488 -5.65911 -0.0939033
4.99488 -5.66711 -0.0959033
5.20588 -5.70311 -0.102903
5.65088 -5.77511 -0.116903
5.73088 -5.78311 -0.118903
6.32288 -5.87811 -0.137903
6.54788 -5.91611 -0.144903
6.59788 -5.92411 -0.146903
6.83188 -5.96111 -0.154903
6.88288 -5.96711 -0.155903
6.93788 -5.97611 -0.157903
1.22388 -5.07111 -0.0369033
1.28588 -5.08711 -0.0389033
1.32088 -5.09011 -0.0389033
1.35788 -5.09911 -0.0399033
1.38288 -5.09811 -0.0399033
1.48388 -5.12011 -0.0429033
1.55488 -5.12211 -0.0429033
1.59488 -5.13711 -0.0449033
1.64088 -5.14311 -0.0459033
1.67888 -5.15011 -0.0459033
1.71388 -5.14911 -0.0469033
1.74188 -5.15011 -0.0469033
1.77988 -5.15811 -0.0479033
1.80188 -5.16911 -0.0489033
1.84088 -5.17511 -0.0499033
1.86488 -5.16611 -0.0499033
1.88688 -5.17511 -0.0499033
1.90888 -5.18611 -0.0509033
1.94188 -5.17411 -0.0509033
1.95288 -5.17911 -0.0519033
1.97688 -5.19311 -0.0529033
2.01288 -5.19211 -0.0529033
2.03288 -5.19511 -0.0539033
2.08688 -5.21011 -0.0549033
2.14888 -5.22411 -0.0569033
2.20488 -5.22011 -0.0569033
2.21888 -5.22911 -0.0579033
2.23888 -5.23111 -0.0589033
2.28288 -5.24311 -0.0599033
2.30188 -5.24111 -0.0599033
2.32088 -5.23911 -0.0599033
2.33088 -5.24111 -0.0609033
2.35788 -5.25811 -0.0619033
2.37788 -5.25811 -0.0619033
2.39488 -5.25211 -0.0619033
2.44188 -5.26811 -0.0639033
2.46388 -5.27111 -0.0639033
2.47188 -5.26711 -0.0639033
2.51388 -5.26911 -0.0649033
2.54088 -5.28311 -0.0659033
2.58788 -5.27611 -0.0669033
2.61488 -5.28911 -0.0679033
2.68488 -5.30311 -0.0699033
2.72288 -5.29711 -0.0699033
2.74388 -5.31811 -0.0719033
2.76688 -5.32011 -0.0719033
2.85888 -5.33411 -0.0749033
2.89488 -5.34011 -0.0759033
2.98988 -5.35411 -0.0779033
3.03388 -5.35411 -0.0789033
3.07588 -5.36911 -0.0809033
3.11488 -5.35811 -0.0809033
3.14088 -5.36411 -0.0819033
3.23888 -5.39611 -0.0849033
3.28688 -5.39811 -0.0869033
3.30888 -5.39611 -0.0869033
3.33488 -5.40111 -0.0879033
3.35188 -5.41011 -0.0879033
3.40688 -5.42211 -0.0899033
3.45288 -5.41911 -0.0909033
3.52088 -5.43211 -0.0929033
3.54088 -5.42611 -0.0939033
3.59788 -5.43911 -0.0949033
3.63388 -5.45611 -0.0969033
3.69688 -5.45711 -0.0989033
3.75288 -5.46511 -0.0999033
3.77988 -5.46811 -0.100903
3.81688 -5.48611 -0.102903
3.83188 -5.47111 -0.102903
3.85388 -5.48311 -0.102903
3.87888 -5.48211 -0.103903
3.91588 -5.49811 -0.105903
3.93888 -5.49311 -0.105903
3.96588 -5.49611 -0.106903
3.99588 -5.50111 -0.107903
4.02288 -5.50111 -0.108903
4.23888 -5.53711 -0.115903
4.30188 -5.54811 -0.117903
4.36488 -5.55811 -0.119903
4.51588 -5.58611 -0.124903
4.63088 -5.60111 -0.128903
4.66788 -5.61111 -0.129903
4.69888 -5.61111 -0.130903
4.93888 -5.66111 -0.139903
5.00988 -5.67011 -0.141903
5.04888 -5.67811 -0.142903
5.25188 -5.70511 -0.149903
5.29288 -5.71411 -0.151903
5.31288 -5.71711 -0.152903
5.35588 -5.72811 -0.153903
5.39488 -5.73311 -0.155903
5.46488 -5.73511 -0.157903
5.50388 -5.74011 -0.158903
5.54188 -5.74411 -0.159903
5.57488 -5.76011 -0.161903
5.61488 -5.76511 -0.162903
5.65588 -5.77111 -0.164903
5.69488 -5.77411 -0.165903
5.73488 -5.77911 -0.167903
5.78388 -5.79211 -0.169903
5.81388 -5.78511 -0.169903
5.88888 -5.80611 -0.172903
5.93488 -5.81411 -0.174903
5.97788 -5.82011 -0.176903
6.01988 -5.82411 -0.177903
6.06388 -5.83011 -0.179903
6.13988 -5.84811 -0.182903
6.18788 -5.85711 -0.183903
6.27088 -5.86111 -0.186903
6.31488 -5.86611 -0.188903
6.36988 -5.88011 -0.190903
6.40188 -5.89111 -0.191903
6.45188 -5.90011 -0.193903
6.49588 -5.90311 -0.195903
6.54388 -5.90911 -0.197903
6.59788 -5.92111 -0.199903
6.64488 -5.92511 -0.200903
6.69288 -5.93111 -0.202903
6.72488 -5.94111 -0.204903
6.77488 -5.94711 -0.205903
6.82388 -5.95211 -0.207903
6.86988 -5.95411 -0.209903
6.92288 -5.96311 -0.211903
6.97488 -5.97011 -0.213903
7.01288 -5.98311 -0.214903
7.05888 -5.98511 -0.216903
7.12088 -5.99911 -0.219903
0.974881 -5.02111 -0.0629033
0.993881 -5.03311 -0.0629033
1.01788 -5.02911 -0.0629033
1.03588 -5.03511 -0.0639033
1.05388 -5.04411 -0.0639033
1.12488 -5.06311 -0.0659033
1.22688 -5.06611 -0.0669033
1.31488 -5.07911 -0.0689033
1.35788 -5.08211 -0.0699033
1.42988 -5.09311 -0.0709033
1.61488 -5.12611 -0.0759033
1.65188 -5.12911 -0.0759033
1.82888 -5.17211 -0.0809033
1.94888 -5.17311 -0.0829033
2.01488 -5.19711 -0.0859033
2.06088 -5.19611 -0.0859033
2.14088 -5.20511 -0.0879033
2.17288 -5.21111 -0.0889033
2.19388 -5.21511 -0.0899033
2.23388 -5.22011 -0.0909033
2.27888 -5.23311 -0.0919033
2.28688 -5.22811 -0.0919033
2.30988 -5.23511 -0.0929033
2.32888 -5.23511 -0.0929033
2.55788 -5.27211 -0.0999033
2.57088 -5.27711 -0.0999033
2.63688 -5.28611 -0.101903
2.66288 -5.29611 -0.102903
2.74088 -5.30511 -0.105903
2.82988 -5.31311 -0.107903
2.84388 -5.31711 -0.107903
2.87388 -5.33211 -0.109903
2.88988 -5.32311 -0.109903
2.93988 -5.33511 -0.111903
2.99888 -5.34111 -0.112903
3.02688 -5.35211 -0.113903
3.05388 -5.36011 -0.114903
3.07088 -5.35111 -0.114903
3.09588 -5.35511 -0.115903
3.14688 -5.36411 -0.117903
3.16688 -5.38011 -0.118903
3.18288 -5.36811 -0.118903
3.20888 -5.37411 -0.119903
3.30988 -5.38711 -0.122903
3.35588 -5.40411 -0.124903
3.38088 -5.40711 -0.125903
3.40488 -5.40611 -0.126903
3.46188 -5.42211 -0.128903
3.50188 -5.42711 -0.129903
3.52588 -5.42611 -0.130903
3.64788 -5.44311 -0.134903
3.67588 -5.44911 -0.135903
3.70488 -5.45311 -0.136903
3.76188 -5.46311 -0.138903
3.92088 -5.48811 -0.143903
3.99188 -5.49611 -0.146903
4.14788 -5.52511 -0.152903
4.19088 -5.52711 -0.153903
4.28888 -5.54711 -0.157903
4.39688 -5.55911 -0.161903
4.46988 -5.57811 -0.164903
4.52988 -5.58111 -0.166903
4.81188 -5.63211 -0.177903
4.87788 -5.63611 -0.179903
4.91288 -5.64011 -0.180903
4.94888 -5.64611 -0.182903
4.98488 -5.65111 -0.183903
5.04788 -5.66811 -0.186903
5.07888 -5.66611 -0.187903
5.12588 -5.68311 -0.189903
5.15788 -5.68211 -0.190903
5.19588 -5.68711 -0.191903
5.23788 -5.69811 -0.193903
5.30288 -5.71411 -0.196903
5.32888 -5.70611 -0.197903
5.36988 -5.71411 -0.198903
5.41188 -5.72111 -0.200903
5.45988 -5.73611 -0.202903
5.48988 -5.73211 -0.203903
5.51988 -5.74511 -0.205903
5.55588 -5.74611 -0.206903
5.59288 -5.74711 -0.207903
5.68088 -5.76411 -0.211903
5.76088 -5.77211 -0.214903
5.78788 -5.78111 -0.215903
5.83188 -5.78811 -0.217903
5.87788 -5.79811 -0.219903
5.92688 -5.80911 -0.221903
5.95788 -5.80311 -0.222903
6.00488 -5.81211 -0.224903
6.08388 -5.83311 -0.228903
6.12588 -5.83611 -0.229903
6.17288 -5.84411 -0.231903
6.22388 -5.85411 -0.234903
6.33688 -5.86711 -0.238903
6.38288 -5.87311 -0.240903
6.43588 -5.88411 -0.243903
6.66188 -5.91911 -0.252903
6.71388 -5.92711 -0.254903
7.00188 -5.96911 -0.267903
1.00688 -5.03211 -0.0959033
1.05688 -5.03611 -0.0969033
1.09988 -5.04311 -0.0979033
2.54288 -5.26811 -0.136903
2.61988 -5.27811 -0.138903
5.35288 -5.70711 -0.248903
5.70388 -5.76611 -0.264903
5.93788 -5.80011 -0.274903
6.07388 -5.82211 -0.281903
6.14088 -5.83111 -0.284903
6.19088 -5.84211 -0.286903
6.23188 -5.84411 -0.288903
6.27788 -5.85111 -0.290903
6.45388 -5.88411 -0.299903
6.50588 -5.89511 -0.302903
6.54888 -5.89611 -0.303903
6.60588 -5.91011 -0.306903
6.64488 -5.90811 -0.308903
6.77988 -5.93311 -0.315903
6.88488 -5.94911 -0.320903
7.07388 -5.97911 -0.329903
7.13288 -5.99011 -0.332903
7.18488 -5.99611 -0.334903
0.986881 -5.03911 -0.123903
1.08088 -5.05211 -0.125903
1.11588 -5.06111 -0.126903
1.32688 -5.09411 -0.131903
1.40788 -5.10611 -0.133903
1.65988 -5.12811 -0.139903
2.27188 -5.23811 -0.159903
2.29488 -5.24611 -0.160903
2.42388 -5.24711 -0.163903
2.45988 -5.25911 -0.165903
2.50788 -5.27411 -0.167903
2.55388 -5.28511 -0.169903
2.58488 -5.28511 -0.169903
2.94788 -5.33011 -0.182903
3.17388 -5.37111 -0.191903
3.22188 -5.37511 -0.193903
3.27388 -5.38511 -0.195903
3.31188 -5.39011 -0.197903
3.36188 -5.39511 -0.199903
3.41488 -5.40411 -0.201903
3.45788 -5.41411 -0.203903
3.47988 -5.41211 -0.203903
3.50988 -5.42111 -0.205903
3.53988 -5.43011 -0.206903
3.56588 -5.43211 -0.207903
3.67188 -5.46011 -0.212903
3.72888 -5.47011 -0.215903
3.78188 -5.47411 -0.217903
3.81388 -5.46511 -0.218903
3.98288 -5.50111 -0.226903
4.10288 -5.51911 -0.231903
4.20488 -5.52811 -0.235903
4.26988 -5.54011 -0.238903
4.30188 -5.54611 -0.240903
4.33788 -5.55611 -0.241903
4.38388 -5.56011 -0.243903
4.42788 -5.57911 -0.246903
4.44788 -5.56911 -0.246903
4.48288 -5.57611 -0.248903
4.51788 -5.58411 -0.250903
4.60488 -5.60011 -0.254903
4.77588 -5.62411 -0.262903
4.90888 -5.65411 -0.269903
4.98188 -5.66511 -0.272903
5.01388 -5.66611 -0.273903
5.07288 -5.67811 -0.276903
5.11388 -5.68711 -0.279903
5.22788 -5.70511 -0.284903
5.40288 -5.73011 -0.293903
5.43888 -5.73211 -0.294903
5.47588 -5.73511 -0.296903
5.58488 -5.75711 -0.302903
5.62388 -5.76111 -0.303903
5.66688 -5.76911 -0.306903
5.75688 -5.78711 -0.310903
5.95388 -5.81811 -0.320903
5.99588 -5.82111 -0.322903
6.03588 -5.82311 -0.324903
6.11488 -5.84411 -0.329903
6.24888 -5.85911 -0.335903
6.29788 -5.86811 -0.338903
6.52388 -5.90811 -0.350903
6.61788 -5.91711 -0.355903
6.80388 -5.95011 -0.365903
6.91288 -5.96911 -0.370903
6.95588 -5.96811 -0.372903
6.99288 -5.98011 -0.375903
7.10188 -5.99611 -0.380903
7.15088 -5.99911 -0.383903
0.954881 -5.01711 -0.157903
0.963881 -5.01911 -0.158903
0.999881 -5.03811 -0.159903
1.03288 -5.03811 -0.160903
1.04888 -5.03511 -0.160903
1.05788 -5.04111 -0.160903
1.07688 -5.05111 -0.161903
1.09088 -5.03811 -0.161903
1.11088 -5.05611 -0.162903
1.16188 -5.06111 -0.163903
1.16788 -5.04911 -0.162903
1.18888 -5.06911 -0.164903
1.20488 -5.06311 -0.164903
1.23888 -5.06711 -0.165903
1.25688 -5.07111 -0.165903
1.30288 -5.08811 -0.167903
1.31588 -5.07211 -0.166903
1.33688 -5.08611 -0.168903
1.35388 -5.08711 -0.168903
1.36988 -5.08111 -0.168903
1.38088 -5.09011 -0.169903
1.39788 -5.09211 -0.169903
1.43388 -5.09611 -0.170903
1.45188 -5.09911 -0.171903
1.46888 -5.09711 -0.171903
1.50088 -5.11711 -0.173903
1.55188 -5.11211 -0.173903
1.58788 -5.11511 -0.174903
1.60888 -5.12811 -0.176903
1.63888 -5.13911 -0.177903
1.65388 -5.12811 -0.177903
1.67288 -5.13411 -0.177903
1.68988 -5.13111 -0.178903
1.70988 -5.13711 -0.178903
1.75688 -5.14411 -0.180903
1.86288 -5.16211 -0.183903
1.90388 -5.17311 -0.185903
1.92088 -5.16811 -0.185903
1.95988 -5.17511 -0.187903
1.97088 -5.17911 -0.187903
2.02988 -5.18711 -0.189903
2.13888 -5.20111 -0.193903
2.16288 -5.21211 -0.194903
2.22388 -5.21911 -0.196903
2.27688 -5.22911 -0.198903
2.33888 -5.23711 -0.200903
2.45488 -5.25211 -0.205903
2.48588 -5.25511 -0.206903
2.50988 -5.26111 -0.207903
2.55488 -5.27011 -0.209903
2.65288 -5.28211 -0.213903
2.69888 -5.29211 -0.215903
2.74488 -5.30011 -0.217903
2.75588 -5.29911 -0.217903
2.80388 -5.31211 -0.219903
2.84988 -5.31711 -0.221903
2.90888 -5.32611 -0.223903
2.93488 -5.33411 -0.225903
2.97788 -5.33311 -0.226903
3.00288 -5.33811 -0.227903
3.06588 -5.35211 -0.230903
3.13788 -5.36111 -0.233903
3.20288 -5.37411 -0.236903
3.22588 -5.37411 -0.237903
3.25188 -5.37911 -0.238903
3.27588 -5.38111 -0.239903
3.29988 -5.38311 -0.240903
3.35488 -5.39611 -0.243903
3.37488 -5.40911 -0.245903
3.39988 -5.41211 -0.246903
3.41788 -5.40311 -0.246903
3.44488 -5.40811 -0.247903
3.47488 -5.41711 -0.249903
3.49888 -5.41811 -0.250903
3.53688 -5.42011 -0.251903
3.56688 -5.42911 -0.253903
3.59688 -5.43711 -0.254903
3.63288 -5.45411 -0.257903
3.65488 -5.45111 -0.257903
3.67788 -5.44811 -0.258903
3.70188 -5.46511 -0.260903
3.72888 -5.46911 -0.261903
3.74688 -5.45911 -0.261903
3.77188 -5.45811 -0.262903
3.80788 -5.47311 -0.265903
3.88388 -5.49011 -0.269903
3.90788 -5.48811 -0.269903
3.94388 -5.50111 -0.272903
3.97088 -5.50311 -0.273903
3.99388 -5.49911 -0.274903
4.02988 -5.51211 -0.276903
4.05988 -5.51611 -0.277903
4.07388 -5.51711 -0.278903
4.10588 -5.52411 -0.279903
4.13988 -5.53311 -0.281903
4.16288 -5.52811 -0.282903
4.19188 -5.53111 -0.283903
4.22788 -5.54211 -0.285903
4.24988 -5.53511 -0.286903
4.26788 -5.54111 -0.287903
4.30288 -5.55011 -0.289903
4.32888 -5.54711 -0.290903
4.36588 -5.55911 -0.292903
4.39788 -5.56411 -0.294903
4.42688 -5.56411 -0.295903
4.45288 -5.57911 -0.297903
4.51388 -5.58311 -0.300903
4.54088 -5.58211 -0.301903
4.58388 -5.59811 -0.304903
4.60788 -5.59211 -0.304903
4.63788 -5.59311 -0.306903
4.66888 -5.61111 -0.308903
4.69288 -5.60411 -0.309903
4.73588 -5.62011 -0.312903
4.77088 -5.62711 -0.313903
4.79788 -5.62211 -0.314903
4.86588 -5.63011 -0.318903
4.89288 -5.64311 -0.320903
4.92488 -5.64511 -0.321903
4.96388 -5.65311 -0.323903
4.99788 -5.65711 -0.325903
5.03288 -5.66111 -0.327903
5.07088 -5.66711 -0.329903
5.09188 -5.67311 -0.330903
5.13088 -5.68011 -0.333903
5.16288 -5.68111 -0.334903
5.19888 -5.68411 -0.336903
5.23488 -5.68811 -0.338903
5.27188 -5.69211 -0.340903
5.33988 -5.71111 -0.344903
5.37688 -5.71411 -0.346903
5.41488 -5.71911 -0.348903
5.59388 -5.74411 -0.358903
6.17188 -5.84211 -0.391903
6.21788 -5.84911 -0.393903
6.26088 -5.85311 -0.396903
6.31288 -5.86411 -0.399903
6.35688 -5.86911 -0.401903
6.40688 -5.87711 -0.404903
6.43888 -5.88911 -0.406903
6.54388 -5.91011 -0.413903
6.58888 -5.91411 -0.415903
6.62988 -5.91311 -0.417903
6.72088 -5.91911 -0.422903
6.76188 -5.93611 -0.425903
7.04488 -5.97411 -0.441903
7.09488 -5.97711 -0.444903
7.20388 -5.99311 -0.451903
6.49488 -5.90111 -0.453903
6.53988 -5.90511 -0.456903
6.59088 -5.91311 -0.459903
6.63188 -5.91311 -0.461903
6.68788 -5.92511 -0.465903
6.72088 -5.93511 -0.467903
6.76488 -5.93611 -0.470903
6.82188 -5.94811 -0.473903
6.86388 -5.94711 -0.476903
6.91288 -5.95111 -0.479903
6.97788 -5.96811 -0.483903
7.02188 -5.96811 -0.485903
7.16988 -5.99711 -0.495903
1.19488 -5.06711 -0.224903
1.51688 -5.12111 -0.235903
1.61688 -5.13111 -0.238903
1.64488 -5.13611 -0.239903
1.68388 -5.14511 -0.241903
1.72188 -5.15311 -0.243903
1.75788 -5.15311 -0.244903
1.82588 -5.16611 -0.246903
1.86388 -5.17111 -0.248903
1.89488 -5.17911 -0.249903
1.93188 -5.18011 -0.250903
2.08088 -5.20211 -0.256903
2.10388 -5.21211 -0.258903
2.12288 -5.21311 -0.258903
2.13288 -5.21311 -0.259903
2.15488 -5.22111 -0.260903
2.17488 -5.22411 -0.261903
2.19188 -5.21911 -0.261903
2.21288 -5.22111 -0.262903
2.23388 -5.22511 -0.263903
2.28688 -5.23511 -0.265903
2.30888 -5.24011 -0.266903
2.33088 -5.24611 -0.267903
2.35288 -5.25111 -0.268903
2.37188 -5.25111 -0.269903
2.38388 -5.25511 -0.270903
2.42488 -5.25811 -0.271903
2.44588 -5.25911 -0.272903
2.46988 -5.26811 -0.273903
2.48688 -5.26211 -0.274903
2.52688 -5.28011 -0.276903
2.54688 -5.28011 -0.277903
2.56588 -5.27711 -0.277903
2.59088 -5.28711 -0.279903
2.61388 -5.29111 -0.280903
2.63188 -5.28711 -0.280903
2.64688 -5.29511 -0.282903
2.66988 -5.30111 -0.283903
2.68988 -5.30011 -0.284903
2.75888 -5.30911 -0.287903
2.78188 -5.31311 -0.288903
2.79288 -5.31411 -0.288903
2.81888 -5.32311 -0.290903
2.84288 -5.32811 -0.291903
2.86188 -5.32511 -0.292903
2.88788 -5.33111 -0.293903
2.93088 -5.33111 -0.295903
2.97188 -5.34611 -0.297903
3.01588 -5.34711 -0.299903
3.04388 -5.35611 -0.301903
3.07788 -5.35811 -0.302903
3.12688 -5.36611 -0.305903
3.17788 -5.37511 -0.308903
3.22188 -5.37211 -0.309903
3.23988 -5.38311 -0.311903
3.28888 -5.38811 -0.313903
3.33988 -5.39611 -0.316903
3.38788 -5.39711 -0.318903
3.43088 -5.40911 -0.321903
3.47988 -5.41111 -0.323903
3.53388 -5.42011 -0.326903
3.56588 -5.43211 -0.328903
3.57888 -5.43311 -0.329903
3.63188 -5.43911 -0.331903
3.66888 -5.45711 -0.334903
3.72388 -5.46511 -0.337903
3.72888 -5.45411 -0.337903
3.75588 -5.45711 -0.338903
3.78288 -5.45911 -0.340903
3.83788 -5.46611 -0.343903
3.91088 -5.49511 -0.348903
3.91588 -5.48411 -0.347903
3.94188 -5.48511 -0.349903
3.99988 -5.49311 -0.352903
4.03588 -5.50611 -0.354903
4.09088 -5.50811 -0.357903
4.10788 -5.51211 -0.358903
4.14288 -5.52311 -0.361903
4.17288 -5.52811 -0.362903
4.23088 -5.53211 -0.365903
4.26288 -5.53711 -0.367903
4.27688 -5.53911 -0.368903
4.30688 -5.54111 -0.370903
4.34288 -5.55111 -0.372903
4.37088 -5.55211 -0.374903
4.40088 -5.55311 -0.375903
4.43688 -5.56311 -0.378903
4.46688 -5.56511 -0.379903
4.51488 -5.57211 -0.382903
4.85688 -5.64211 -0.404903
4.88988 -5.64511 -0.406903
4.90788 -5.64811 -0.407903
4.94288 -5.65211 -0.409903
4.98388 -5.66311 -0.412903
5.01088 -5.65811 -0.413903
5.05688 -5.67411 -0.416903
5.08888 -5.67411 -0.418903
5.12188 -5.67411 -0.420903
5.13988 -5.67711 -0.421903
5.17488 -5.68011 -0.423903
0.946881 -5.01811 -0.246903
0.964881 -5.02511 -0.247903
0.998881 -5.03111 -0.248903
1.01588 -5.03311 -0.248903
1.03288 -5.03411 -0.249903
1.04988 -5.03911 -0.249903
1.05788 -5.03911 -0.250903
1.09388 -5.05011 -0.251903
1.12688 -5.05011 -0.252903
1.14688 -5.06211 -0.253903
1.15588 -5.06411 -0.253903
1.18988 -5.06911 -0.254903
1.24088 -5.06911 -0.256903
1.25888 -5.07311 -0.256903
1.26588 -5.06911 -0.256903
1.28688 -5.08211 -0.258903
1.30088 -5.07211 -0.257903
1.31888 -5.07611 -0.258903
1.33788 -5.08311 -0.259903
1.37988 -5.08011 -0.259903
1.39988 -5.09111 -0.261903
1.41888 -5.09511 -0.262903
1.43588 -5.09411 -0.262903
1.45288 -5.09311 -0.262903
1.47188 -5.09811 -0.263903
1.53488 -5.10611 -0.265903
1.55488 -5.11511 -0.266903
1.59088 -5.11611 -0.268903
1.59988 -5.11611 -0.268903
1.62088 -5.12611 -0.269903
1.65588 -5.12511 -0.270903
1.67588 -5.13111 -0.271903
1.69388 -5.13211 -0.271903
1.72388 -5.14111 -0.273903
1.74388 -5.14811 -0.274903
1.78088 -5.15011 -0.275903
1.87088 -5.17111 -0.280903
1.90488 -5.16311 -0.280903
1.92888 -5.17811 -0.282903
1.95588 -5.17411 -0.282903
1.97388 -5.17411 -0.283903
1.99688 -5.18411 -0.284903
2.01388 -5.18211 -0.285903
2.05488 -5.18911 -0.287903
2.08588 -5.19611 -0.288903
2.10588 -5.19711 -0.289903
2.12988 -5.21011 -0.291903
2.16788 -5.20811 -0.292903
2.19988 -5.21611 -0.294903
2.24088 -5.22011 -0.295903
2.28088 -5.22311 -0.297903
2.32288 -5.23011 -0.299903
2.33588 -5.23711 -0.300903
2.37788 -5.24111 -0.302903
2.39788 -5.24211 -0.302903
2.42188 -5.25111 -0.304903
2.46388 -5.25311 -0.306903
2.47788 -5.26211 -0.307903
2.50088 -5.26711 -0.308903
2.52088 -5.26811 -0.309903
2.54488 -5.27411 -0.310903
2.56688 -5.27711 -0.311903
2.58988 -5.28111 -0.313903
2.61188 -5.28611 -0.314903
2.62088 -5.28211 -0.314903
2.64188 -5.28211 -0.315903
2.66788 -5.29411 -0.317903
2.68988 -5.29611 -0.318903
2.70888 -5.29111 -0.318903
2.74688 -5.30311 -0.320903
2.77088 -5.30811 -0.322903
2.79088 -5.30611 -0.322903
2.81888 -5.31911 -0.324903
2.83888 -5.31511 -0.325903
2.85888 -5.31311 -0.326903
2.88688 -5.32511 -0.328903
2.89988 -5.32911 -0.329903
2.94888 -5.33911 -0.331903
2.96888 -5.33511 -0.332903
2.99888 -5.34811 -0.334903
3.01688 -5.34211 -0.334903
3.03988 -5.34311 -0.335903
3.06188 -5.36211 -0.338903
3.07588 -5.34711 -0.337903
3.11188 -5.37011 -0.340903
3.13388 -5.36911 -0.341903
3.15988 -5.37511 -0.343903
3.20988 -5.38211 -0.346903
3.22388 -5.38611 -0.346903
3.24588 -5.38411 -0.347903
3.27088 -5.38711 -0.349903
3.29288 -5.38511 -0.350903
3.34888 -5.40011 -0.353903
3.38988 -5.40811 -0.356903
3.41188 -5.40611 -0.356903
3.44188 -5.41511 -0.358903
3.46488 -5.41411 -0.360903
3.53788 -5.43311 -0.364903
3.61588 -5.44011 -0.368903
3.65088 -5.45511 -0.371903
3.67788 -5.45811 -0.373903
3.70388 -5.45911 -0.374903
3.74588 -5.46511 -0.376903
3.77088 -5.46511 -0.378903
3.80188 -5.47211 -0.380903
3.82788 -5.47311 -0.381903
3.85188 -5.47111 -0.382903
3.87588 -5.48611 -0.384903
3.89488 -5.47711 -0.385903
3.93088 -5.49111 -0.387903
