0.541984 3.6269 -0.144714
0.523984 3.6239 -0.144714
0.512984 3.6249 -0.144714
0.501984 3.6309 -0.144714
0.490984 3.6319 -0.144714
0.478984 3.6279 -0.143714
0.451984 3.6429 -0.145714
0.439984 3.6429 -0.144714
0.428984 3.6439 -0.144714
0.416984 3.6449 -0.144714
0.404984 3.6449 -0.144714
0.393984 3.6479 -0.144714
0.387984 3.6469 -0.144714
0.330984 3.6539 -0.144714
0.319984 3.6569 -0.145714
0.302984 3.6589 -0.145714
0.244984 3.6649 -0.145714
0.227984 3.6699 -0.145714
0.095984 3.6899 -0.146714
3.88498 3.1739 -0.300714
3.67898 3.2019 -0.287714
3.64698 3.2149 -0.285714
3.60098 3.2149 -0.282714
3.44598 3.2349 -0.272714
2.99798 3.2909 -0.245714
2.89998 3.3059 -0.240714
0.972984 3.5559 -0.170714
0.949984 3.5579 -0.169714
0.910984 3.5709 -0.170714
0.880984 3.5699 -0.169714
0.868984 3.5689 -0.168714
0.846984 3.5739 -0.168714
0.811984 3.5759 -0.168714
0.783984 3.5839 -0.168714
0.749984 3.5879 -0.168714
0.737984 3.5899 -0.168714
0.709984 3.5959 -0.168714
0.657984 3.5979 -0.167714
0.623984 3.6059 -0.167714
0.589984 3.6069 -0.167714
0.583984 3.6079 -0.167714
0.560984 3.6099 -0.166714
0.452984 3.6269 -0.167714
0.338984 3.6419 -0.167714
0.167984 3.6609 -0.168714
0.104984 3.6719 -0.168714
3.68498 3.1969 -0.317714
3.43398 3.2349 -0.300714
3.40298 3.2469 -0.299714
3.34898 3.2459 -0.295714
3.29098 3.2509 -0.291714
3.24598 3.2569 -0.288714
3.20998 3.2619 -0.285714
3.19498 3.2679 -0.285714
3.17798 3.2699 -0.284714
3.15298 3.2749 -0.282714
3.10398 3.2859 -0.280714
3.04398 3.2849 -0.275714
3.00398 3.2929 -0.273714
2.98798 3.2959 -0.272714
2.95698 3.3029 -0.271714
2.92998 3.3049 -0.269714
2.89398 3.3059 -0.266714
2.87798 3.3089 -0.266714
2.85998 3.3089 -0.264714
2.84298 3.3099 -0.263714
2.81898 3.3149 -0.262714
2.76898 3.3179 -0.259714
2.75398 3.3219 -0.258714
2.73798 3.3229 -0.257714
2.73198 3.3279 -0.257714
2.66798 3.3339 -0.254714
2.62898 3.3389 -0.251714
2.59698 3.3419 -0.250714
2.56698 3.3469 -0.248714
2.55198 3.3489 -0.247714
2.54198 3.3569 -0.247714
2.51998 3.3609 -0.246714
2.50398 3.3619 -0.245714
2.48798 3.3619 -0.244714
2.45798 3.3659 -0.243714
2.44398 3.3689 -0.242714
2.43398 3.3669 -0.241714
2.40498 3.3709 -0.240714
2.39298 3.3769 -0.240714
2.37398 3.3729 -0.238714
2.35998 3.3749 -0.238714
2.34398 3.3749 -0.237714
2.32898 3.3869 -0.237714
2.31298 3.3859 -0.236714
2.29398 3.3819 -0.234714
2.27298 3.3959 -0.234714
2.24498 3.3889 -0.232714
2.23098 3.3909 -0.231714
2.20398 3.3969 -0.230714
2.18998 3.3989 -0.230714
2.17498 3.3989 -0.229714
2.16998 3.4019 -0.229714
2.15398 3.4009 -0.228714
2.14198 3.4059 -0.228714
2.12798 3.4069 -0.227714
2.11798 3.4159 -0.227714
2.09898 3.4089 -0.226714
2.08198 3.4169 -0.225714
2.06498 3.4129 -0.224714
2.05298 3.4179 -0.224714
2.03898 3.4189 -0.223714
2.02598 3.4209 -0.223714
2.00198 3.4299 -0.222714
1.99098 3.4229 -0.221714
1.96698 3.4319 -0.221714
1.94898 3.4259 -0.219714
1.93798 3.4299 -0.219714
1.92398 3.4309 -0.218714
1.91098 3.4339 -0.218714
1.90498 3.4349 -0.218714
1.89598 3.4439 -0.218714
1.88498 3.4499 -0.218714
1.86698 3.4439 -0.217714
1.85698 3.4499 -0.217714
1.83998 3.4449 -0.216714
1.82998 3.4529 -0.216714
1.82298 3.4519 -0.215714
1.81298 3.4599 -0.216714
1.79598 3.4549 -0.214714
1.76598 3.4499 -0.212714
1.74498 3.4609 -0.212714
1.73798 3.4599 -0.212714
1.72298 3.4589 -0.211714
1.71098 3.4619 -0.211714
1.69898 3.4639 -0.211714
1.68898 3.4709 -0.211714
1.67498 3.4709 -0.210714
1.66698 3.4679 -0.209714
1.65398 3.4699 -0.209714
1.64398 3.4769 -0.209714
1.61498 3.4709 -0.207714
1.60198 3.4729 -0.207714
1.59398 3.4829 -0.208714
1.58598 3.4799 -0.207714
1.57598 3.4869 -0.207714
1.55098 3.4909 -0.207714
1.52898 3.5009 -0.207714
1.51198 3.4909 -0.205714
1.50298 3.5009 -0.206714
1.48098 3.4959 -0.204714
1.47198 3.5039 -0.205714
1.44598 3.5039 -0.203714
1.43598 3.5119 -0.204714
1.42898 3.5089 -0.203714
1.41798 3.5129 -0.203714
1.40398 3.5119 -0.203714
1.38098 3.5189 -0.202714
1.35698 3.5219 -0.202714
1.34898 3.5169 -0.201714
1.33598 3.5169 -0.201714
1.32298 3.5159 -0.200714
1.25998 3.5329 -0.199714
1.24798 3.5349 -0.199714
1.23598 3.5369 -0.199714
1.22098 3.5289 -0.198714
1.19398 3.5409 -0.198714
1.01898 3.5679 -0.195714
0.949984 3.5599 -0.192714
0.855984 3.5899 -0.193714
0.826984 3.5929 -0.193714
0.716984 3.6029 -0.191714
0.705984 3.6089 -0.192714
0.694984 3.6109 -0.192714
0.642984 3.6179 -0.191714
0.619984 3.6179 -0.191714
0.600984 3.6129 -0.190714
0.579984 3.6249 -0.191714
0.531984 3.6179 -0.190714
0.516984 3.6329 -0.191714
0.503984 3.6239 -0.190714
0.442984 3.6419 -0.191714
0.431984 3.6459 -0.191714
0.419984 3.6449 -0.191714
0.406984 3.6359 -0.190714
0.384984 3.6449 -0.190714
0.344984 3.6529 -0.191714
0.322984 3.6569 -0.191714
0.310984 3.6519 -0.190714
0.247984 3.6689 -0.192714
0.218984 3.6689 -0.191714
0.184984 3.6669 -0.191714
0.034984 3.6909 -0.193714
0.022984 3.6949 -0.194714
4.84698 3.0469 -0.443714
4.82898 3.0559 -0.442714
4.80198 3.0609 -0.440714
4.78398 3.0699 -0.439714
4.75298 3.0709 -0.436714
4.72298 3.0729 -0.433714
4.70198 3.0799 -0.432714
4.68598 3.0799 -0.430714
4.66098 3.0849 -0.428714
4.62798 3.0839 -0.425714
4.60998 3.0929 -0.424714
4.55998 3.0999 -0.420714
4.52998 3.1009 -0.417714
4.51098 3.0979 -0.415714
4.49398 3.1079 -0.414714
4.44698 3.1159 -0.410714
4.41798 3.1159 -0.408714
4.39698 3.1219 -0.406714
4.36098 3.1169 -0.403714
4.35598 3.1239 -0.403714
4.32398 3.1209 -0.400714
4.26298 3.1379 -0.395714
4.23198 3.1359 -0.392714
4.22898 3.1439 -0.393714
4.19598 3.1399 -0.390714
4.17698 3.1459 -0.388714
4.14798 3.1449 -0.386714
4.13398 3.1539 -0.385714
4.10298 3.1519 -0.382714
4.08698 3.1589 -0.381714
4.06798 3.1549 -0.379714
4.05498 3.1649 -0.379714
4.00698 3.1679 -0.375714
3.95598 3.1679 -0.370714
3.92398 3.1729 -0.368714
3.46198 3.2269 -0.333714
3.36098 3.2429 -0.326714
3.27998 3.2549 -0.321714
3.25998 3.2559 -0.319714
3.23998 3.2559 -0.318714
3.21398 3.2709 -0.317714
3.18198 3.2679 -0.314714
3.16498 3.2709 -0.313714
3.14398 3.2699 -0.311714
3.11998 3.2859 -0.311714
3.08498 3.2789 -0.308714
3.06598 3.2799 -0.306714
3.01798 3.2899 -0.303714
2.98198 3.2919 -0.301714
2.97898 3.2989 -0.301714
2.95898 3.2969 -0.300714
2.94098 3.2979 -0.298714
2.92598 3.3029 -0.298714
2.91098 3.3059 -0.297714
2.89298 3.3059 -0.295714
2.87398 3.3159 -0.295714
2.83798 3.3159 -0.292714
2.80598 3.3199 -0.290714
2.78798 3.3199 -0.289714
2.77498 3.3259 -0.289714
2.76298 3.3219 -0.287714
2.74898 3.3259 -0.287714
2.70098 3.3319 -0.284714
2.68998 3.3389 -0.284714
2.67198 3.3379 -0.282714
2.66398 3.3389 -0.282714
2.64998 3.3429 -0.281714
2.63398 3.3449 -0.280714
2.61998 3.3479 -0.280714
2.59998 3.3439 -0.278714
2.58698 3.3489 -0.278714
2.57698 3.3569 -0.278714
2.54798 3.3509 -0.275714
2.48898 3.3609 -0.272714
2.46798 3.3659 -0.271714
2.44998 3.3619 -0.270714
2.43998 3.3719 -0.270714
2.41898 3.3649 -0.268714
2.40998 3.3739 -0.268714
2.38698 3.3759 -0.267714
2.35598 3.3759 -0.265714
2.34098 3.3769 -0.264714
2.31598 3.3859 -0.263714
2.29998 3.3849 -0.262714
2.27498 3.3829 -0.260714
2.26298 3.3879 -0.260714
2.25198 3.3939 -0.260714
2.21898 3.3909 -0.258714
2.20698 3.3949 -0.257714
2.18398 3.3949 -0.256714
2.17298 3.4019 -0.256714
2.15798 3.3999 -0.255714
2.14498 3.4039 -0.254714
2.13098 3.4049 -0.254714
2.09598 3.4079 -0.252714
2.06898 3.4129 -0.251714
2.01098 3.4249 -0.249714
1.93798 3.4339 -0.246714
1.67098 3.4639 -0.235714
1.64798 3.4709 -0.234714
1.54098 3.4829 -0.231714
1.49698 3.4859 -0.229714
1.48498 3.4889 -0.229714
1.44298 3.4959 -0.228714
1.43098 3.4969 -0.227714
1.41998 3.5019 -0.227714
1.39798 3.5119 -0.227714
1.37498 3.5019 -0.225714
1.34098 3.5109 -0.225714
1.30498 3.5159 -0.224714
1.29798 3.5129 -0.224714
1.28898 3.5239 -0.224714
1.27498 3.5189 -0.223714
1.26198 3.5189 -0.223714
1.25098 3.5209 -0.223714
1.23998 3.5269 -0.223714
1.22098 3.5249 -0.222714
1.17398 3.5329 -0.221714
1.15498 3.5309 -0.220714
1.11998 3.5359 -0.220714
1.10898 3.5389 -0.220714
1.09698 3.5389 -0.219714
1.08898 3.5539 -0.220714
1.02398 3.5609 -0.219714
1.00498 3.5579 -0.218714
0.935984 3.5679 -0.217714
0.929984 3.5679 -0.217714
0.871984 3.5719 -0.216714
0.830984 3.5759 -0.215714
0.768984 3.5879 -0.215714
0.408984 3.6339 -0.214714
0.396984 3.6319 -0.213714
0.339984 3.6389 -0.214714
4.81198 3.0639 -0.476714
4.77398 3.0609 -0.472714
4.69798 3.0649 -0.465714
4.65398 3.0779 -0.462714
4.62398 3.0799 -0.459714
4.60798 3.0899 -0.458714
4.55398 3.0849 -0.452714
4.52898 3.0889 -0.450714
4.51598 3.1009 -0.450714
4.47698 3.0949 -0.446714
4.44898 3.0969 -0.443714
4.43998 3.0999 -0.442714
4.41398 3.1029 -0.440714
4.37298 3.1159 -0.437714
4.34398 3.1159 -0.434714
4.23298 3.1289 -0.425714
4.20898 3.1309 -0.423714
4.18598 3.1349 -0.421714
4.16698 3.1409 -0.419714
4.14598 3.1459 -0.418714
4.12498 3.1399 -0.415714
4.07998 3.1469 -0.412714
4.06198 3.1539 -0.410714
4.03798 3.1559 -0.408714
4.01598 3.1589 -0.406714
4.00098 3.1569 -0.405714
3.98498 3.1649 -0.404714
3.96098 3.1669 -0.402714
3.91198 3.1679 -0.398714
3.87798 3.1809 -0.396714
3.86398 3.1799 -0.394714
3.82098 3.1849 -0.391714
3.77898 3.1909 -0.387714
3.75698 3.1929 -0.386714
3.70498 3.1989 -0.381714
3.64398 3.2069 -0.377714
3.60298 3.2119 -0.373714
3.59198 3.2119 -0.373714
3.53698 3.2229 -0.369714
3.51298 3.2219 -0.366714
3.49698 3.2279 -0.366714
3.48298 3.2349 -0.365714
3.42998 3.2369 -0.360714
3.38898 3.2389 -0.357714
3.37498 3.2449 -0.356714
3.32498 3.2479 -0.353714
3.26698 3.2529 -0.348714
3.24998 3.2559 -0.347714
3.22598 3.2629 -0.346714
3.20598 3.2629 -0.344714
3.17098 3.2689 -0.342714
3.07198 3.2789 -0.334714
2.96298 3.2959 -0.327714
2.83898 3.3119 -0.319714
2.80898 3.3189 -0.317714
2.74998 3.3219 -0.313714
2.44998 3.3609 -0.295714
2.32498 3.3769 -0.288714
2.29098 3.3829 -0.287714
2.24698 3.3869 -0.284714
2.23298 3.3889 -0.283714
2.13598 3.4039 -0.279714
2.12098 3.4039 -0.278714
2.01898 3.4169 -0.273714
1.89398 3.4359 -0.268714
1.83498 3.4429 -0.265714
1.79798 3.4509 -0.264714
1.77598 3.4489 -0.263714
1.76498 3.4549 -0.263714
1.73898 3.4569 -0.261714
1.73098 3.4689 -0.262714
1.71898 3.4579 -0.260714
1.69498 3.4649 -0.260714
1.68198 3.4649 -0.259714
1.65698 3.4699 -0.259714
1.64298 3.4679 -0.258714
1.62698 3.4759 -0.258714
1.61398 3.4779 -0.257714
1.59898 3.4739 -0.256714
1.59198 3.4879 -0.257714
1.57498 3.4779 -0.255714
1.56198 3.4789 -0.255714
1.56098 3.4909 -0.256714
1.53098 3.4839 -0.254714
1.52398 3.4959 -0.255714
1.51198 3.4989 -0.255714
1.49398 3.4879 -0.253714
1.48698 3.5019 -0.254714
1.46898 3.5049 -0.253714
1.45798 3.5089 -0.253714
1.44198 3.5029 -0.252714
1.41998 3.5119 -0.252714
1.40698 3.5109 -0.251714
1.38898 3.5139 -0.251714
1.36598 3.5209 -0.250714
1.32798 3.5219 -0.249714
1.28698 3.5309 -0.248714
1.24498 3.5359 -0.247714
1.23298 3.5379 -0.247714
1.20998 3.5419 -0.247714
1.19698 3.5419 -0.246714
1.18498 3.5429 -0.246714
1.10798 3.5519 -0.244714
1.02698 3.5659 -0.243714
0.979984 3.5729 -0.242714
0.950984 3.5759 -0.242714
0.938984 3.5769 -0.241714
0.926984 3.5749 -0.241714
0.913984 3.5739 -0.240714
0.892984 3.5829 -0.241714
0.863984 3.5879 -0.240714
0.826984 3.5829 -0.239714
0.815984 3.5869 -0.239714
0.806984 3.5969 -0.240714
0.787984 3.5919 -0.239714
0.776984 3.5959 -0.239714
0.742984 3.6029 -0.239714
0.723984 3.5969 -0.238714
0.712984 3.6029 -0.238714
0.678984 3.6099 -0.238714
0.650984 3.6149 -0.238714
0.627984 3.6169 -0.238714
0.616984 3.6189 -0.238714
0.575984 3.6229 -0.238714
0.563984 3.6189 -0.237714
0.553984 3.6269 -0.238714
0.528984 3.6209 -0.237714
0.502984 3.6359 -0.238714
0.433984 3.6409 -0.238714
0.404984 3.6479 -0.238714
0.279984 3.6659 -0.239714
4.81398 3.0569 -0.509714
4.78898 3.0619 -0.507714
4.76998 3.0709 -0.505714
4.74498 3.0759 -0.503714
4.71198 3.0749 -0.500714
4.68398 3.0779 -0.497714
4.67098 3.0799 -0.496714
4.63798 3.0789 -0.492714
4.62598 3.0919 -0.492714
4.59798 3.0939 -0.489714
4.57198 3.0969 -0.487714
4.52398 3.1059 -0.483714
4.51098 3.1079 -0.481714
4.48698 3.1119 -0.479714
4.45598 3.1109 -0.476714
4.43498 3.1169 -0.474714
4.38798 3.1249 -0.470714
4.37498 3.1259 -0.469714
4.35098 3.1289 -0.467714
4.28798 3.1249 -0.460714
4.25498 3.1419 -0.458714
4.21198 3.1409 -0.454714
4.17298 3.1529 -0.451714
4.14298 3.1499 -0.448714
4.12798 3.1589 -0.447714
4.04198 3.1639 -0.439714
4.01898 3.1669 -0.437714
3.99398 3.1669 -0.435714
3.91598 3.1749 -0.428714
3.87898 3.1859 -0.425714
3.81398 3.1929 -0.419714
3.78998 3.2029 -0.418714
3.74798 3.2089 -0.415714
3.68398 3.2139 -0.409714
3.67598 3.2169 -0.408714
3.59098 3.2229 -0.401714
3.43198 3.2489 -0.389714
3.38598 3.2559 -0.386714
3.30598 3.2589 -0.379714
3.26298 3.2679 -0.376714
3.24898 3.2739 -0.375714
3.22998 3.2759 -0.374714
3.19598 3.2819 -0.371714
3.16698 3.2829 -0.369714
3.15198 3.2879 -0.368714
3.09998 3.2939 -0.364714
3.06698 3.2899 -0.361714
3.05598 3.2999 -0.361714
3.03898 3.3019 -0.360714
3.02198 3.3039 -0.358714
3.00098 3.3019 -0.357714
2.96398 3.3029 -0.354714
2.88098 3.3229 -0.349714
2.86198 3.3109 -0.346714
2.83798 3.3259 -0.346714
2.76798 3.3379 -0.341714
2.71798 3.3409 -0.338714
2.70398 3.3449 -0.337714
2.64698 3.3489 -0.333714
2.61798 3.3549 -0.331714
2.60398 3.3579 -0.330714
2.56398 3.3609 -0.328714
2.51998 3.3689 -0.325714
2.48598 3.3669 -0.323714
2.43198 3.3699 -0.319714
2.37198 3.3859 -0.316714
2.19798 3.4029 -0.306714
2.13298 3.4199 -0.304714
3.44798 3.2389 -0.414714
3.22598 3.2589 -0.395714
3.14798 3.2719 -0.390714
3.06998 3.2829 -0.384714
2.80498 3.3199 -0.365714
1.61398 3.4719 -0.299714
1.16598 3.5319 -0.285714
0.314984 3.6499 -0.278714
0.268984 3.6519 -0.277714
0.217984 3.6589 -0.278714
0.188984 3.6589 -0.278714
0.165984 3.6659 -0.278714
0.142984 3.6669 -0.278714
0.131984 3.6709 -0.279714
0.119984 3.6719 -0.279714
4.83498 3.0589 -0.581714
4.79098 3.0729 -0.577714
4.74298 3.0629 -0.571714
4.71798 3.0679 -0.568714
4.66098 3.0729 -0.562714
4.64898 3.0749 -0.561714
4.61498 3.0949 -0.559714
4.55598 3.0969 -0.552714
4.51098 3.0969 -0.547714
4.42298 3.1179 -0.539714
4.38398 3.1119 -0.534714
4.36698 3.1199 -0.533714
4.31798 3.1159 -0.527714
4.29998 3.1229 -0.526714
4.27298 3.1239 -0.523714
4.22898 3.1329 -0.519714
4.20198 3.1329 -0.516714
4.16698 3.1369 -0.513714
4.13098 3.1509 -0.510714
4.07998 3.1529 -0.505714
3.99598 3.1579 -0.496714
3.95698 3.1679 -0.493714
3.92098 3.1789 -0.490714
3.88098 3.1769 -0.486714
3.83498 3.1799 -0.481714
3.79898 3.1899 -0.478714
3.77598 3.2009 -0.477714
3.74198 3.1919 -0.472714
3.72998 3.2029 -0.472714
3.68898 3.2079 -0.468714
3.66598 3.2069 -0.466714
3.63398 3.2099 -0.463714
3.59798 3.2179 -0.460714
3.57798 3.2199 -0.458714
3.55698 3.2219 -0.456714
3.53998 3.2269 -0.455714
3.52298 3.2209 -0.453714
3.50598 3.2259 -0.452714
3.47098 3.2339 -0.449714
3.44898 3.2339 -0.447714
3.43598 3.2419 -0.446714
3.42198 3.2389 -0.445714
3.40498 3.2429 -0.443714
3.39498 3.2539 -0.443714
3.37198 3.2519 -0.441714
3.34898 3.2499 -0.439714
3.33298 3.2549 -0.437714
3.30398 3.2569 -0.435714
3.28598 3.2599 -0.433714
3.26898 3.2629 -0.432714
3.23598 3.2709 -0.430714
3.20298 3.2779 -0.427714
3.18398 3.2689 -0.425714
3.17298 3.2779 -0.424714
3.15098 3.2759 -0.422714
3.12898 3.2729 -0.420714
3.11698 3.2809 -0.420714
3.09498 3.2779 -0.417714
3.08198 3.2959 -0.418714
3.05398 3.2859 -0.414714
3.03698 3.2889 -0.413714
3.02798 3.2999 -0.413714
3.00598 3.2959 -0.411714
2.96498 3.3029 -0.408714
2.95198 3.3089 -0.407714
2.92098 3.3159 -0.405714
2.90298 3.3159 -0.404714
2.86398 3.3239 -0.401714
2.84598 3.3239 -0.399714
2.82598 3.3219 -0.397714
2.80898 3.3229 -0.396714
2.78098 3.3319 -0.394714
2.77098 3.3299 -0.393714
2.73498 3.3289 -0.390714
2.72298 3.3359 -0.390714
2.70898 3.3399 -0.389714
2.68998 3.3369 -0.387714
2.67398 3.3389 -0.386714
2.67098 3.3469 -0.387714
2.64898 3.3399 -0.384714
2.63898 3.3489 -0.384714
2.62798 3.3559 -0.384714
2.60098 3.3439 -0.381714
2.59298 3.3549 -0.381714
2.57698 3.3549 -0.380714
2.56198 3.3469 -0.378714
2.54798 3.3499 -0.377714
2.53698 3.3579 -0.377714
2.52298 3.3609 -0.376714
2.50698 3.3609 -0.375714
2.49498 3.3669 -0.374714
2.47698 3.3659 -0.373714
2.46998 3.3659 -0.372714
2.45298 3.3659 -0.371714
2.43598 3.3639 -0.369714
2.42298 3.3679 -0.369714
2.41098 3.3739 -0.369714
2.39598 3.3749 -0.367714
2.38198 3.3779 -0.367714
2.37798 3.3829 -0.367714
2.35698 3.3759 -0.365714
2.34498 3.3819 -0.364714
2.32898 3.3809 -0.363714
2.31398 3.3819 -0.362714
2.30498 3.3909 -0.362714
2.29298 3.3959 -0.362714
2.27898 3.3869 -0.360714
2.26798 3.3939 -0.360714
2.25298 3.3939 -0.359714
2.23798 3.3949 -0.358714
2.22098 3.3919 -0.356714
2.20898 3.3969 -0.356714
2.20398 3.4009 -0.356714
2.15998 3.4029 -0.353714
2.15098 3.4109 -0.353714
2.13698 3.4129 -0.352714
2.12398 3.4159 -0.352714
2.11198 3.4089 -0.350714
2.09798 3.4109 -0.349714
2.08498 3.4119 -0.348714
2.07498 3.4209 -0.349714
2.06098 3.4219 -0.348714
2.04698 3.4229 -0.347714
2.03498 3.4259 -0.347714
2.01198 3.4239 -0.345714
2.00398 3.4349 -0.346714
1.98798 3.4329 -0.344714
1.97598 3.4369 -0.344714
1.96198 3.4369 -0.343714
1.94998 3.4409 -0.343714
1.94098 3.4369 -0.342714
1.92898 3.4419 -0.341714
1.91198 3.4369 -0.340714
1.88998 3.4469 -0.339714
1.86098 3.4449 -0.337714
1.85698 3.4519 -0.338714
1.83898 3.4429 -0.336714
1.81498 3.4509 -0.335714
1.80298 3.4549 -0.335714
1.79398 3.4629 -0.335714
1.77398 3.4509 -0.332714
1.77298 3.4619 -0.334714
1.75698 3.4569 -0.332714
1.74498 3.4609 -0.332714
1.73198 3.4629 -0.331714
1.72298 3.4719 -0.332714
1.70798 3.4679 -0.331714
1.69898 3.4769 -0.331714
1.68798 3.4689 -0.330714
1.67998 3.4799 -0.330714
1.66398 3.4739 -0.329714
1.65098 3.4759 -0.328714
1.63798 3.4779 -0.328714
1.61098 3.4899 -0.328714
1.59798 3.4899 -0.327714
1.55898 3.4919 -0.325714
1.54298 3.4859 -0.323714
1.53698 3.4869 -0.323714
1.52298 3.4839 -0.322714
1.51698 3.4999 -0.324714
1.50198 3.4959 -0.322714
1.49198 3.5019 -0.323714
1.47698 3.4979 -0.321714
1.45298 3.5009 -0.320714
1.44898 3.5089 -0.321714
1.43398 3.5029 -0.320714
1.42498 3.5129 -0.320714
1.41198 3.5109 -0.320714
1.38798 3.5169 -0.319714
1.38098 3.5149 -0.319714
1.36898 3.5159 -0.318714
1.35698 3.5179 -0.318714
1.34698 3.5259 -0.318714
1.33398 3.5229 -0.317714
1.32298 3.5269 -0.317714
1.31098 3.5309 -0.317714
1.30398 3.5279 -0.316714
1.27998 3.5299 -0.316714
1.25398 3.5289 -0.314714
1.24498 3.5379 -0.315714
1.23298 3.5379 -0.315714
1.21398 3.5389 -0.314714
1.19098 3.5419 -0.313714
1.16798 3.5479 -0.313714
1.14998 3.5499 -0.312714
1.12598 3.5529 -0.312714
0.502984 3.6369 -0.304714
0.376984 3.6519 -0.304714
0.250984 3.6709 -0.305714
0.238984 3.6659 -0.305714
0.204984 3.6759 -0.306714
0.152984 3.6819 -0.306714
4.83598 3.0579 -0.620714
4.80298 3.0589 -0.616714
4.77198 3.0709 -0.613714
4.73398 3.0669 -0.608714
4.71098 3.0739 -0.606714
4.69298 3.0829 -0.605714
4.63998 3.0909 -0.599714
4.60798 3.0899 -0.595714
4.58798 3.0869 -0.593714
4.56998 3.0959 -0.591714
4.53898 3.0959 -0.587714
4.52298 3.1059 -0.586714
4.47398 3.1139 -0.581714
4.42498 3.1109 -0.575714
4.40898 3.1209 -0.574714
4.37798 3.1199 -0.571714
4.36098 3.1289 -0.570714
4.33698 3.1319 -0.567714
4.28498 3.1359 -0.561714
4.24798 3.1399 -0.557714
4.21298 3.1339 -0.553714
4.12098 3.1579 -0.545714
4.09998 3.1619 -0.543714
4.07198 3.1619 -0.540714
4.03198 3.1709 -0.536714
4.00798 3.1729 -0.533714
3.99798 3.1759 -0.533714
3.88298 3.1859 -0.521714
3.76698 3.2009 -0.510714
3.61898 3.2259 -0.496714
3.45998 3.2449 -0.481714
3.20298 3.2809 -0.459714
3.02798 3.3049 -0.444714
3.01098 3.3069 -0.443714
2.88398 3.3219 -0.432714
2.81998 3.3319 -0.428714
2.74098 3.3339 -0.421714
2.70398 3.3409 -0.418714
2.59098 3.3619 -0.411714
2.52998 3.3689 -0.406714
2.36598 3.3899 -0.395714
2.31398 3.3939 -0.391714
2.23498 3.4039 -0.386714
2.15298 3.4189 -0.382714
1.94198 3.4459 -0.370714
1.73298 3.4719 -0.359714
3.79798 3.1939 -0.535714
3.11498 3.2849 -0.471714
3.06798 3.2969 -0.468714
3.02998 3.2859 -0.463714
2.94798 3.3099 -0.457714
2.87898 3.3149 -0.451714
2.83898 3.3209 -0.448714
2.76098 3.3349 -0.442714
2.72898 3.3279 -0.439714
2.69198 3.3449 -0.437714
2.65698 3.3449 -0.434714
2.63798 3.3529 -0.433714
2.58998 3.3569 -0.429714
2.53098 3.3549 -0.424714
2.47798 3.3719 -0.421714
2.39098 3.3739 -0.414714
2.35998 3.3859 -0.413714
2.26298 3.3929 -0.406714
2.18298 3.4089 -0.401714
2.10098 3.4089 -0.395714
1.99798 3.4319 -0.390714
1.95998 3.4399 -0.388714
1.93598 3.4489 -0.388714
1.92698 3.4449 -0.386714
1.84298 3.4579 -0.382714
1.80198 3.4589 -0.380714
1.77798 3.4669 -0.379714
1.76498 3.4669 -0.378714
1.67198 3.4709 -0.373714
1.63898 3.4859 -0.373714
1.56398 3.4819 -0.367714
1.52998 3.4929 -0.367714
1.49798 3.4939 -0.365714
1.46198 3.4999 -0.364714
1.41598 3.4979 -0.361714
1.15098 3.5459 -0.354714
1.12198 3.5509 -0.354714
1.08698 3.5549 -0.353714
0.948984 3.5789 -0.351714
0.773984 3.5979 -0.347714
0.697984 3.5989 -0.345714
0.595984 3.6159 -0.345714
0.560984 3.6129 -0.344714
0.520984 3.6209 -0.344714
0.475984 3.6309 -0.345714
0.412984 3.6389 -0.345714
0.298984 3.6559 -0.346714
0.287984 3.6589 -0.346714
0.264984 3.6689 -0.347714
0.241984 3.6589 -0.345714
0.160984 3.6729 -0.347714
0.138984 3.6859 -0.349714
0.115984 3.6829 -0.348714
4.79398 3.0559 -0.681714
4.76398 3.0579 -0.678714
4.73898 3.0639 -0.675714
4.71098 3.0669 -0.672714
4.67498 3.0749 -0.668714
4.64398 3.0759 -0.664714
4.61998 3.0799 -0.661714
4.59798 3.0869 -0.659714
4.57598 3.0929 -0.656714
4.52698 3.0909 -0.650714
4.47898 3.0999 -0.645714
4.45798 3.1069 -0.643714
4.43498 3.1119 -0.640714
4.40898 3.1139 -0.637714
4.39598 3.1149 -0.636714
4.36198 3.1119 -0.631714
4.34298 3.1189 -0.629714
4.31198 3.1179 -0.626714
4.28998 3.1219 -0.623714
4.26898 3.1269 -0.621714
4.25198 3.1359 -0.620714
4.20698 3.1339 -0.614714
4.19298 3.1429 -0.613714
4.16798 3.1459 -0.610714
4.13998 3.1449 -0.607714
4.11998 3.1509 -0.605714
4.10698 3.1509 -0.603714
4.08498 3.1539 -0.601714
4.06198 3.1579 -0.599714
4.04598 3.1649 -0.597714
4.01898 3.1649 -0.594714
3.99398 3.1649 -0.591714
3.96298 3.1719 -0.588714
3.94098 3.1739 -0.586714
3.92598 3.1829 -0.585714
3.89498 3.1779 -0.580714
3.87698 3.1839 -0.579714
3.86198 3.1919 -0.578714
3.82598 3.1829 -0.573714
3.81398 3.1829 -0.571714
3.79798 3.1899 -0.570714
3.77098 3.1879 -0.567714
3.76498 3.2029 -0.568714
3.74198 3.2039 -0.565714
3.72098 3.2059 -0.563714
3.70498 3.2129 -0.562714
3.69498 3.2149 -0.561714
3.66598 3.2099 -0.557714
3.64398 3.2109 -0.554714
3.60098 3.2139 -0.550714
3.58998 3.2239 -0.549714
3.57698 3.2319 -0.549714
3.56098 3.2289 -0.547714
3.54498 3.2349 -0.546714
3.52798 3.2389 -0.544714
3.49598 3.2299 -0.539714
3.48598 3.2409 -0.539714
3.44398 3.2329 -0.534714
3.43398 3.2439 -0.534714
3.42098 3.2519 -0.533714
3.39298 3.2469 -0.530714
3.37998 3.2549 -0.529714
3.33898 3.2549 -0.525714
3.28998 3.2589 -0.520714
3.28098 3.2709 -0.520714
3.23698 3.2679 -0.515714
3.21598 3.2769 -0.514714
3.19198 3.2729 -0.511714
3.17898 3.2809 -0.510714
3.13898 3.2809 -0.506714
3.12398 3.2859 -0.505714
3.09098 3.2819 -0.501714
3.08198 3.2929 -0.501714
3.04798 3.2979 -0.498714
3.01398 3.3029 -0.495714
2.99398 3.3019 -0.493714
2.99098 3.3099 -0.494714
2.96598 3.3029 -0.490714
2.90398 3.3159 -0.486714
2.85898 3.3179 -0.481714
2.82898 3.3249 -0.479714
2.81298 3.3269 -0.478714
2.77498 3.3349 -0.475714
2.69698 3.3479 -0.469714
2.58798 3.3609 -0.460714
2.55598 3.3629 -0.457714
2.31998 3.3959 -0.440714
2.28598 3.4029 -0.438714
2.25698 3.4059 -0.436714
2.22798 3.4079 -0.434714
2.17898 3.4159 -0.431714
2.13498 3.4179 -0.428714
2.11998 3.4179 -0.426714
2.11598 3.4229 -0.427714
2.10098 3.4229 -0.426714
1.98698 3.4399 -0.419714
1.94098 3.4479 -0.416714
4.71298 3.0839 -0.777714
2.58298 3.3619 -0.556714
2.55398 3.3669 -0.553714
2.44298 3.3829 -0.545714
2.43098 3.3769 -0.543714
2.41998 3.3849 -0.543714
2.40598 3.3869 -0.542714
2.34698 3.3929 -0.537714
2.33798 3.3919 -0.537714
2.30898 3.3949 -0.534714
2.28398 3.4039 -0.533714
2.08898 3.4289 -0.520714
2.04198 3.4359 -0.517714
4.82098 3.0569 -0.845714
4.80798 3.0589 -0.844714
4.77198 3.0579 -0.838714
4.75198 3.0659 -0.836714
4.71798 3.0649 -0.831714
4.70098 3.0759 -0.830714
4.66498 3.0729 -0.825714
4.64698 3.0819 -0.823714
4.60598 3.0869 -0.818714
4.57398 3.0859 -0.813714
4.55798 3.0959 -0.812714
4.52798 3.0969 -0.808714
4.50198 3.0999 -0.805714
4.46798 3.1079 -0.801714
4.41898 3.1149 -0.795714
4.38698 3.1129 -0.790714
4.36898 3.1219 -0.788714
4.33998 3.1209 -0.784714
4.32398 3.1199 -0.782714
4.27498 3.1269 -0.776714
4.25098 3.1299 -0.773714
4.23298 3.1369 -0.771714
4.20398 3.1359 -0.767714
4.19098 3.1469 -0.767714
4.16598 3.1379 -0.762714
4.15298 3.1489 -0.762714
4.12598 3.1489 -0.758714
4.10498 3.1539 -0.756714
4.07898 3.1549 -0.752714
4.06798 3.1659 -0.752714
4.04098 3.1559 -0.747714
4.02798 3.1659 -0.747714
4.00698 3.1699 -0.744714
3.98898 3.1759 -0.743714
3.96098 3.1739 -0.739714
3.91798 3.1809 -0.734714
3.90298 3.1789 -0.732714
3.88998 3.1889 -0.731714
3.86798 3.1909 -0.728714
3.83498 3.1849 -0.723714
3.79198 3.1899 -0.718714
3.78398 3.2029 -0.719714
3.76998 3.2009 -0.717714
3.74798 3.2029 -0.714714
3.72398 3.2029 -0.711714
3.68598 3.2109 -0.707714
3.66798 3.2159 -0.705714
3.64498 3.2159 -0.702714
3.63098 3.2139 -0.700714
3.60698 3.2139 -0.697714
3.60198 3.2289 -0.698714
3.56898 3.2199 -0.693714
3.56198 3.2339 -0.694714
3.54198 3.2359 -0.692714
3.51898 3.2349 -0.689714
3.49898 3.2279 -0.685714
3.49498 3.2439 -0.687714
3.46298 3.2349 -0.682714
3.44798 3.2419 -0.681714
3.43098 3.2459 -0.679714
3.40898 3.2459 -0.676714
3.39198 3.2399 -0.674714
3.35598 3.2459 -0.670714
3.34298 3.2539 -0.669714
3.32698 3.2589 -0.668714
3.30398 3.2569 -0.665714
3.28298 3.2569 -0.662714
3.28798 3.2709 -0.665714
3.24198 3.2669 -0.659714
3.22698 3.2729 -0.658714
3.20498 3.2699 -0.655714
3.17998 3.2859 -0.654714
3.14098 3.2769 -0.648714
3.12798 3.2839 -0.648714
3.11198 3.2879 -0.646714
3.08998 3.2849 -0.643714
3.07598 3.2919 -0.643714
3.04998 3.2839 -0.639714
3.04498 3.2889 -0.639714
3.03298 3.2969 -0.638714
3.01298 3.2969 -0.636714
2.99798 3.2999 -0.635714
2.98598 3.3079 -0.634714
2.95998 3.2999 -0.630714
2.94698 3.3059 -0.630714
2.93698 3.3069 -0.629714
2.91798 3.3059 -0.626714
2.89798 3.3039 -0.624714
2.89298 3.3189 -0.625714
2.86598 3.3089 -0.621714
2.85498 3.3179 -0.621714
2.83798 3.3199 -0.619714
2.83498 3.3259 -0.620714
2.80898 3.3169 -0.616714
2.79698 3.3239 -0.615714
2.76698 3.3309 -0.613714
2.74798 3.3289 -0.611714
2.73498 3.3339 -0.610714
2.72798 3.3369 -0.610714
2.71398 3.3409 -0.609714
2.68998 3.3329 -0.605714
2.67398 3.3349 -0.604714
2.66098 3.3409 -0.603714
2.61898 3.3409 -0.599714
2.60898 3.3489 -0.599714
2.57798 3.3529 -0.596714
2.55998 3.3519 -0.594714
2.51998 3.3549 -0.590714
2.50598 3.3579 -0.589714
2.48998 3.3579 -0.588714
2.47898 3.3659 -0.588714
2.46198 3.3639 -0.586714
2.44898 3.3689 -0.585714
2.39398 3.3709 -0.580714
2.36598 3.3769 -0.578714
2.33098 3.3819 -0.575714
2.29998 3.3839 -0.573714
2.27198 3.3879 -0.571714
2.25698 3.3889 -0.569714
2.25298 3.3939 -0.570714
2.23598 3.3909 -0.568714
2.21098 3.3999 -0.567714
2.18198 3.4029 -0.564714
2.16498 3.3999 -0.562714
2.16198 3.4059 -0.563714
2.15398 3.4179 -0.564714
2.13598 3.4129 -0.562714
2.12198 3.4149 -0.561714
2.10398 3.4099 -0.558714
2.09298 3.4149 -0.558714
2.08098 3.4199 -0.558714
2.05798 3.4189 -0.556714
2.04798 3.4259 -0.556714
2.03398 3.4269 -0.555714
2.00598 3.4299 -0.553714
1.98598 3.4319 -0.551714
1.96898 3.4279 -0.549714
1.95698 3.4309 -0.549714
1.93398 3.4409 -0.548714
1.92098 3.4439 -0.548714
1.91598 3.4469 -0.548714
1.89598 3.4379 -0.545714
1.88698 3.4469 -0.545714
1.87198 3.4439 -0.544714
1.86098 3.4499 -0.544714
1.84798 3.4519 -0.543714
1.83498 3.4529 -0.542714
1.82398 3.4589 -0.542714
1.81598 3.4579 -0.541714
1.80398 3.4599 -0.541714
1.79098 3.4629 -0.540714
1.77498 3.4579 -0.538714
1.76598 3.4669 -0.539714
1.75098 3.4649 -0.537714
1.74298 3.4629 -0.536714
1.69298 3.4719 -0.534714
1.68198 3.4769 -0.534714
1.66498 3.4699 -0.532714
1.66198 3.4779 -0.533714
1.64698 3.4739 -0.531714
1.63898 3.4849 -0.532714
1.62498 3.4849 -0.531714
1.61398 3.4899 -0.531714
1.60098 3.4889 -0.530714
1.58998 3.4939 -0.530714
1.57798 3.4829 -0.527714
1.56998 3.4949 -0.529714
1.55498 3.4909 -0.527714
1.54598 3.4989 -0.528714
1.53198 3.4989 -0.527714
1.52098 3.5019 -0.526714
1.50898 3.5049 -0.526714
1.50198 3.5049 -0.526714
1.48798 3.5009 -0.524714
1.46498 3.5079 -0.524714
1.43998 3.5099 -0.522714
1.42298 3.5169 -0.522714
1.39698 3.5169 -0.521714
1.38498 3.5189 -0.520714
1.37198 3.5179 -0.519714
1.30698 3.5299 -0.517714
1.26398 3.5329 -0.515714
1.19798 3.5409 -0.513714
1.17498 3.5449 -0.512714
1.09698 3.5529 -0.510714
1.06398 3.5629 -0.510714
1.04498 3.5629 -0.509714
0.945984 3.5759 -0.506714
0.933984 3.5749 -0.506714
0.909984 3.5749 -0.505714
0.900984 3.5859 -0.506714
0.880984 3.5799 -0.504714
0.870984 3.5869 -0.505714
0.858984 3.5879 -0.505714
0.847984 3.5919 -0.505714
0.834984 3.5849 -0.503714
0.815984 3.5819 -0.502714
0.806984 3.5919 -0.503714
0.783984 3.5949 -0.503714
0.772984 3.6009 -0.504714
0.746984 3.5909 -0.501714
0.744984 3.6049 -0.503714
0.731984 3.6039 -0.503714
0.720984 3.6059 -0.503714
0.707984 3.5989 -0.501714
0.684984 3.6009 -0.501714
0.673984 3.6049 -0.501714
0.668984 3.6119 -0.502714
0.657984 3.6139 -0.502714
0.645984 3.6139 -0.502714
0.634984 3.6179 -0.502714
0.622984 3.6179 -0.502714
0.611984 3.6199 -0.502714
0.594984 3.6229 -0.502714
0.583984 3.6249 -0.502714
0.572984 3.6289 -0.502714
0.559984 3.6249 -0.501714
0.549984 3.6319 -0.502714
0.526984 3.6339 -0.502714
0.496984 3.6279 -0.500714
0.485984 3.6349 -0.501714
0.462984 3.6339 -0.500714
0.451984 3.6439 -0.502714
0.445984 3.6399 -0.501714
0.434984 3.6439 -0.501714
0.423984 3.6489 -0.502714
0.411984 3.6439 -0.501714
0.399984 3.6459 -0.501714
0.389984 3.6529 -0.502714
0.381984 3.6399 -0.500714
0.371984 3.6549 -0.502714
0.360984 3.6559 -0.502714
0.348984 3.6549 -0.502714
0.326984 3.6609 -0.502714
0.314984 3.6599 -0.502714
0.302984 3.6509 -0.500714
0.296984 3.6569 -0.501714
0.285984 3.6659 -0.503714
0.273984 3.6569 -0.501714
0.262984 3.6679 -0.503714
0.239984 3.6619 -0.501714
0.222984 3.6669 -0.502714
0.176984 3.6689 -0.502714
0.147984 3.6739 -0.503714
0.136984 3.6829 -0.504714
0.113984 3.6859 -0.504714
0.084984 3.6879 -0.505714
0.049984 3.6809 -0.503714
0.038984 3.6949 -0.506714
0.026984 3.6909 -0.505714
0.014984 3.6849 -0.504714
4.71598 3.0839 -0.883714
4.66198 3.0909 -0.875714
4.51698 3.1079 -0.856714
4.22698 3.1479 -0.818714
4.13598 3.1609 -0.807714
4.09898 3.1639 -0.802714
3.79698 3.2049 -0.765714
0.258984 3.6539 -0.560714
0.235984 3.6559 -0.560714
0.207984 3.6619 -0.561714
0.172984 3.6639 -0.561714
0.161984 3.6699 -0.562714
0.138984 3.6709 -0.562714
0.133984 3.6789 -0.564714
0.121984 3.6709 -0.562714
0.098984 3.6779 -0.563714
0.0869839 3.6759 -0.563714
0.0759839 3.6829 -0.564714
0.0649839 3.6889 -0.565714
0.058984 3.6889 -0.565714
0.0469839 3.6809 -0.564714
0.0359839 3.6989 -0.567714
4.81798 3.0529 -0.988714
4.76798 3.0629 -0.981714
4.11298 3.1519 -0.887714
4.04298 3.1589 -0.877714
3.74098 3.1959 -0.836714
3.63098 3.2119 -0.822714
3.52098 3.2229 -0.808714
3.26098 3.2589 -0.776714
3.19998 3.2689 -0.769714
3.18298 3.2719 -0.767714
3.17298 3.2819 -0.767714
3.16398 3.2829 -0.766714
3.14598 3.2859 -0.764714
3.12398 3.2829 -0.761714
3.10298 3.2809 -0.758714
3.08498 3.2819 -0.756714
3.07198 3.2889 -0.755714
3.06098 3.2989 -0.755714
3.02998 3.2959 -0.750714
3.01298 3.2979 -0.748714
2.99298 3.2969 -0.746714
2.97498 3.2979 -0.743714
2.94798 3.3089 -0.742714
2.93498 3.3049 -0.739714
2.92498 3.3139 -0.739714
2.90798 3.3159 -0.737714
2.88598 3.3109 -0.734714
2.87498 3.3199 -0.734714
2.85998 3.3229 -0.732714
2.83998 3.3219 -0.730714
2.83398 3.3249 -0.729714
2.81698 3.3259 -0.727714
2.79698 3.3229 -0.724714
2.75398 3.3349 -0.721714
2.73098 3.3389 -0.719714
2.71598 3.3419 -0.717714
2.70098 3.3459 -0.716714
2.67898 3.3389 -0.712714
2.66198 3.3389 -0.710714
2.62598 3.3479 -0.707714
2.61398 3.3539 -0.707714
2.59998 3.3579 -0.706714
2.57498 3.3469 -0.701714
2.56598 3.3569 -0.702714
2.54198 3.3579 -0.699714
2.52898 3.3629 -0.698714
2.51998 3.3719 -0.699714
2.49398 3.3599 -0.694714
2.48998 3.3769 -0.696714
2.47298 3.3749 -0.694714
2.45298 3.3699 -0.691714
2.44798 3.3739 -0.691714
2.43598 3.3799 -0.690714
2.41698 3.3769 -0.688714
2.40198 3.3779 -0.686714
2.39098 3.3839 -0.686714
2.35498 3.3779 -0.681714
2.35298 3.3859 -0.682714
2.33198 3.3789 -0.678714
2.32398 3.3889 -0.679714
2.30698 3.3869 -0.677714
2.28098 3.3949 -0.675714
2.26298 3.3899 -0.673714
2.24298 3.3959 -0.672714
2.22998 3.3979 -0.670714
2.19998 3.3989 -0.667714
2.18698 3.4029 -0.667714
2.17298 3.4039 -0.666714
2.16398 3.4009 -0.664714
2.15098 3.4049 -0.663714
2.14098 3.4129 -0.664714
2.10298 3.4229 -0.661714
2.08498 3.4179 -0.659714
2.00798 3.4229 -0.652714
1.96198 3.4309 -0.649714
1.94898 3.4319 -0.648714
1.90098 3.4359 -0.644714
1.79298 3.4539 -0.637714
1.76598 3.4549 -0.635714
1.72198 3.4609 -0.632714
1.69798 3.4669 -0.631714
1.67098 3.4689 -0.629714
1.53398 3.4849 -0.621714
1.52198 3.4879 -0.620714
1.44198 3.4979 -0.616714
1.23198 3.5249 -0.607714
1.22098 3.5309 -0.607714
1.17798 3.5309 -0.604714
1.15498 3.5349 -0.604714
1.13398 3.5479 -0.605714
1.12698 3.5419 -0.603714
1.10498 3.5529 -0.604714
1.06698 3.5459 -0.601714
1.05498 3.5479 -0.600714
1.04998 3.5489 -0.600714
1.03098 3.5689 -0.603714
1.01798 3.5659 -0.602714
1.00398 3.5579 -0.599714
0.992984 3.5629 -0.600714
0.979984 3.5609 -0.599714
0.974984 3.5639 -0.599714
0.962984 3.5629 -0.598714
0.952984 3.5719 -0.599714
0.938984 3.5639 -0.597714
0.927984 3.5669 -0.597714
0.919984 3.5809 -0.599714
0.898984 3.5699 -0.596714
0.876984 3.5769 -0.597714
0.864984 3.5739 -0.596714
0.855984 3.5889 -0.598714
0.843984 3.5879 -0.597714
0.831984 3.5859 -0.596714
0.813984 3.5879 -0.596714
0.801984 3.5869 -0.595714
0.792984 3.5969 -0.597714
0.779984 3.5939 -0.596714
0.767984 3.5909 -0.594714
0.751984 3.5999 -0.596714
0.740984 3.6059 -0.596714
0.705984 3.6069 -0.595714
0.695984 3.6129 -0.596714
0.675984 3.6049 -0.594714
0.642984 3.6129 -0.594714
0.618984 3.6109 -0.593714
0.614984 3.6199 -0.594714
0.589984 3.6139 -0.593714
0.579984 3.6239 -0.594714
0.568984 3.6289 -0.595714
0.556984 3.6229 -0.593714
0.544984 3.6229 -0.593714
0.516984 3.6269 -0.593714
0.505984 3.6329 -0.594714
0.483984 3.6399 -0.594714
0.471984 3.6409 -0.594714
0.453984 3.6319 -0.592714
0.443984 3.6469 -0.595714
0.419984 3.6379 -0.593714
0.390984 3.6409 -0.593714
0.380984 3.6539 -0.595714
0.368984 3.6529 -0.594714
0.356984 3.6439 -0.593714
0.345984 3.6549 -0.594714
0.322984 3.6549 -0.594714
0.316984 3.6579 -0.594714
0.305984 3.6629 -0.595714
0.293984 3.6619 -0.595714
0.282984 3.6569 -0.594714
0.270984 3.6639 -0.595714
0.259984 3.6659 -0.595714
0.247984 3.6649 -0.595714
0.242984 3.6709 -0.596714
0.230984 3.6679 -0.595714
0.219984 3.6709 -0.596714
0.207984 3.6739 -0.596714
0.196984 3.6759 -0.596714
0.184984 3.6669 -0.594714
0.172984 3.6679 -0.594714
0.167984 3.6699 -0.595714
0.156984 3.6779 -0.596714
0.144984 3.6809 -0.597714
0.133984 3.6869 -0.598714
0.121984 3.6849 -0.597714
0.110984 3.6899 -0.598714
0.098984 3.6799 -0.596714
0.092984 3.6859 -0.597714
0.081984 3.6899 -0.598714
0.069984 3.6909 -0.598714
3.66098 3.2049 -0.883714
3.66198 3.2159 -0.884714
3.60798 3.2289 -0.878714
3.53798 3.2369 -0.868714
3.49398 3.2379 -0.862714
3.44198 3.2509 -0.856714
3.40898 3.2509 -0.851714
3.37798 3.2609 -0.848714
3.33998 3.2659 -0.843714
3.25498 3.2739 -0.832714
3.23898 3.2789 -0.830714
3.07898 3.2999 -0.810714
2.95098 3.3159 -0.795714
2.85598 3.3229 -0.783714
2.76998 3.3389 -0.775714
2.67498 3.3509 -0.764714
2.58698 3.3599 -0.754714
2.53698 3.3709 -0.750714
2.47398 3.3739 -0.743714
2.45298 3.3799 -0.741714
2.42398 3.3839 -0.738714
2.37898 3.3889 -0.734714
2.37298 3.3909 -0.734714
2.35998 3.3949 -0.733714
2.34498 3.3959 -0.731714
2.31498 3.3999 -0.728714
2.29998 3.4009 -0.727714
2.27998 3.4049 -0.725714
2.26098 3.4009 -0.722714
2.09798 3.4289 -0.709714
2.06998 3.4319 -0.707714
2.02698 3.4339 -0.703714
2.00798 3.4389 -0.701714
1.96598 3.4399 -0.697714
1.95598 3.4479 -0.698714
4.78698 3.0769 -1.15371
4.69298 3.0899 -1.13771
4.62898 3.0899 -1.12571
4.51998 3.1119 -1.10871
4.46698 3.1169 -1.09871
4.22598 3.1509 -1.05971
4.83298 3.0589 -1.21071
4.80398 3.0619 -1.20471
4.77898 3.0669 -1.20071
4.75798 3.0749 -1.19771
4.73398 3.0699 -1.19271
4.70898 3.0749 -1.18871
4.68498 3.0799 -1.18471
4.62898 3.0839 -1.17371
4.61198 3.0939 -1.17271
4.55798 3.0889 -1.16071
4.54598 3.1019 -1.16071
4.46698 3.1099 -1.14671
4.41098 3.1119 -1.13571
4.40498 3.1179 -1.13571
4.34598 3.1169 -1.12471
4.33298 3.1279 -1.12371
4.29798 3.1229 -1.11671
4.26498 3.1409 -1.11271
4.20498 3.1469 -1.10271
4.16998 3.1409 -1.09471
4.14598 3.1439 -1.09071
4.10498 3.1529 -1.08471
4.08798 3.1499 -1.08071
4.07898 3.1639 -1.08171
4.01098 3.1719 -1.07071
3.98298 3.1699 -1.06471
3.95598 3.1789 -1.06171
3.90098 3.1749 -1.05071
3.89298 3.1889 -1.05171
3.85898 3.1809 -1.04371
3.83698 3.1829 -1.04071
3.82698 3.1849 -1.03871
3.70698 3.2039 -1.02071
3.65798 3.2119 -1.01371
3.59298 3.2149 -1.00271
3.48798 3.2319 -0.987714
3.44198 3.2389 -0.980714
3.22998 3.2659 -0.949714
3.20498 3.2719 -0.946714
3.14998 3.2759 -0.938714
3.13298 3.2789 -0.936714
3.09498 3.2909 -0.931714
3.05198 3.2859 -0.924714
3.04398 3.2979 -0.925714
3.02198 3.2949 -0.921714
3.00598 3.2989 -0.919714
2.96098 3.2999 -0.912714
2.95198 3.3109 -0.913714
2.92698 3.3039 -0.908714
2.89498 3.3089 -0.903714
2.88498 3.3079 -0.902714
2.87098 3.3119 -0.900714
2.85498 3.3149 -0.899714
2.83698 3.3149 -0.896714
2.82698 3.3239 -0.896714
2.80998 3.3259 -0.894714
2.76398 3.3239 -0.886714
2.71798 3.3309 -0.881714
2.70398 3.3349 -0.880714
2.68098 3.3389 -0.877714
2.66198 3.3369 -0.874714
2.60098 3.3449 -0.866714
2.58898 3.3519 -0.866714
2.57998 3.3509 -0.865714
2.56398 3.3509 -0.862714
2.56198 3.3699 -0.866714
2.53598 3.3579 -0.860714
2.50398 3.3599 -0.856714
2.48298 3.3639 -0.853714
2.47498 3.3759 -0.855714
2.44298 3.3759 -0.850714
2.39298 3.3849 -0.845714
2.36898 3.3949 -0.844714
2.34298 3.3799 -0.838714
2.33898 3.3969 -0.840714
2.31398 3.3829 -0.834714
2.31198 3.3919 -0.836714
2.28598 3.3999 -0.834714
2.25998 3.4069 -0.832714
2.23198 3.4099 -0.829714
2.20798 3.3969 -0.824714
2.20498 3.4039 -0.825714
2.17398 3.4029 -0.820714
2.16298 3.4099 -0.820714
2.13298 3.4089 -0.816714
2.13598 3.4249 -0.820714
2.10598 3.4249 -0.816714
2.08098 3.4329 -0.815714
2.05798 3.4179 -0.809714
2.05198 3.4329 -0.811714
2.04198 3.4279 -0.809714
2.03198 3.4359 -0.810714
2.01398 3.4299 -0.806714
1.99898 3.4299 -0.805714
1.98298 3.4259 -0.802714
1.97498 3.4369 -0.803714
1.95698 3.4319 -0.800714
1.95498 3.4399 -0.801714
1.93898 3.4369 -0.799714
1.91698 3.4479 -0.799714
1.90498 3.4519 -0.798714
1.88898 3.4479 -0.796714
1.87998 3.4569 -0.797714
1.86898 3.4499 -0.794714
1.83998 3.4479 -0.790714
1.83398 3.4639 -0.793714
1.81698 3.4569 -0.790714
1.79498 3.4669 -0.789714
1.77398 3.4669 -0.787714
1.74998 3.4739 -0.786714
1.72298 3.4749 -0.783714
1.70298 3.4739 -0.781714
1.69298 3.4829 -0.782714
1.66798 3.4859 -0.780714
1.65498 3.4859 -0.779714
1.63598 3.4889 -0.778714
1.55598 3.4889 -0.770714
1.55498 3.4999 -0.772714
1.51698 3.5039 -0.769714
1.49098 3.5039 -0.767714
1.44898 3.5109 -0.765714
1.42598 3.5169 -0.764714
1.39598 3.5219 -0.763714
1.29298 3.5349 -0.757714
1.11498 3.5599 -0.749714
1.02598 3.5679 -0.745714
0.898984 3.5859 -0.741714
4.77798 3.0669 -1.30671
4.73198 3.0689 -1.29771
4.68898 3.0829 -1.29071
4.63698 3.0909 -1.28071
4.54798 3.1039 -1.26471
4.48398 3.1009 -1.25071
4.43498 3.1079 -1.24171
4.35898 3.1269 -1.22871
4.30698 3.1299 -1.21871
4.21798 3.1369 -1.20171
4.12298 3.1469 -1.18471
4.08898 3.1519 -1.17871
4.03698 3.1719 -1.17071
3.94598 3.1709 -1.15271
3.91098 3.1839 -1.14871
3.87598 3.1959 -1.14371
3.75298 3.2039 -1.12071
3.72298 3.1989 -1.11471
3.69398 3.2039 -1.10971
3.59398 3.2169 -1.09371
3.58298 3.2179 -1.09171
3.54398 3.2229 -1.08471
3.50998 3.2319 -1.08071
3.47698 3.2419 -1.07571
3.46198 3.2379 -1.07271
3.40498 3.2449 -1.06371
3.38898 3.2499 -1.06171
3.36598 3.2489 -1.05671
3.33698 3.2509 -1.05171
3.28598 3.2619 -1.04471
3.24898 3.2659 -1.03871
3.18998 3.2769 -1.03071
3.16898 3.2759 -1.02671
3.12298 3.2799 -1.01971
3.10598 3.2819 -1.01771
3.08798 3.2839 -1.01471
3.07198 3.2879 -1.01271
3.05898 3.2939 -1.01171
3.04198 3.2969 -1.00871
3.00098 3.3029 -1.00271
2.98298 3.3039 -1.00071
2.95498 3.3149 -0.997714
2.93598 3.3139 -0.994714
2.92298 3.3099 -0.991714
2.91298 3.3189 -0.991714
2.88598 3.3099 -0.984714
2.87398 3.3169 -0.984714
2.84298 3.3229 -0.980714
2.82098 3.3289 -0.978714
2.77898 3.3419 -0.973714
2.76098 3.3419 -0.970714
2.74098 3.3379 -0.967714
2.72598 3.3419 -0.965714
2.70998 3.3329 -0.961714
2.69598 3.3369 -0.959714
2.68998 3.3519 -0.961714
2.64998 3.3439 -0.953714
2.64398 3.3579 -0.955714
2.61598 3.3439 -0.948714
2.61298 3.3509 -0.949714
2.58298 3.3549 -0.945714
2.53998 3.3649 -0.941714
2.51998 3.3709 -0.939714
2.48198 3.3629 -0.932714
2.43898 3.3699 -0.927714
2.42998 3.3699 -0.925714
2.39498 3.3869 -0.924714
2.36098 3.3849 -0.918714
2.34898 3.3909 -0.918714
2.31598 3.3989 -0.915714
2.27798 3.3879 -0.907714
2.25098 3.3939 -0.905714
2.22898 3.3949 -0.902714
2.19598 3.4139 -0.901714
2.16198 3.4079 -0.896714
2.10098 3.4179 -0.890714
2.07598 3.4249 -0.888714
2.05198 3.4209 -0.884714
2.03998 3.4259 -0.883714
2.00498 3.4399 -0.882714
1.97698 3.4289 -0.876714
1.92698 3.4419 -0.873714
1.89498 3.4479 -0.870714
1.86498 3.4429 -0.866714
1.85698 3.4539 -0.867714
1.80698 3.4519 -0.861714
1.79498 3.4559 -0.860714
1.78598 3.4649 -0.861714
1.77298 3.4649 -0.860714
1.73798 3.4649 -0.856714
1.72298 3.4619 -0.853714
1.71698 3.4779 -0.856714
1.67598 3.4759 -0.851714
1.64698 3.4859 -0.850714
1.61698 3.4769 -0.845714
1.60998 3.4919 -0.848714
1.58398 3.4919 -0.845714
1.57698 3.4919 -0.845714
1.55998 3.4829 -0.841714
1.55098 3.4919 -0.842714
1.53598 3.4879 -0.839714
1.51198 3.4919 -0.838714
1.50098 3.4969 -0.838714
1.49298 3.4939 -0.836714
1.48498 3.5049 -0.838714
1.45698 3.4999 -0.834714
1.44498 3.5029 -0.834714
1.41898 3.5159 -0.834714
1.40098 3.5039 -0.830714
1.36698 3.5159 -0.830714
1.35298 3.5109 -0.827714
1.34898 3.5179 -0.829714
1.32498 3.5209 -0.827714
1.31098 3.5179 -0.825714
1.29998 3.5199 -0.825714
1.28898 3.5239 -0.825714
1.27898 3.5319 -0.826714
1.24598 3.5269 -0.822714
1.23498 3.5309 -0.822714
1.22298 3.5329 -0.821714
1.21498 3.5459 -0.824714
1.20198 3.5429 -0.822714
1.18798 3.5389 -0.820714
1.18098 3.5369 -0.819714
1.17098 3.5449 -0.820714
1.15698 3.5389 -0.817714
1.13598 3.5479 -0.818714
1.12298 3.5459 -0.816714
1.11798 3.5499 -0.817714
1.10698 3.5549 -0.817714
1.09198 3.5439 -0.814714
1.08298 3.5559 -0.816714
1.07098 3.5559 -0.815714
1.06098 3.5629 -0.816714
1.04998 3.5659 -0.816714
1.04198 3.5609 -0.814714
1.02898 3.5559 -0.812714
1.01898 3.5669 -0.814714
1.00698 3.5669 -0.813714
0.994984 3.5679 -0.813714
0.984984 3.5729 -0.813714
0.964984 3.5679 -0.811714
0.930984 3.5729 -0.810714
0.917984 3.5699 -0.808714
0.909984 3.5869 -0.812714
0.895984 3.5779 -0.809714
0.880984 3.5899 -0.811714
0.856984 3.5899 -0.809714
0.834984 3.5949 -0.809714
0.816984 3.5969 -0.809714
0.805984 3.5989 -0.809714
0.792984 3.5959 -0.807714
0.771984 3.6049 -0.808714
0.758984 3.5999 -0.806714
0.741984 3.6029 -0.806714
0.730984 3.6089 -0.807714
0.677984 3.6079 -0.804714
0.666984 3.6099 -0.804714
0.644984 3.6219 -0.806714
0.581984 3.6309 -0.806714
0.535984 3.6359 -0.805714
0.516984 3.6229 -0.801714
0.506984 3.6339 -0.804714
0.484984 3.6409 -0.805714
0.472984 3.6419 -0.805714
0.454984 3.6309 -0.801714
0.421984 3.6469 -0.804714
0.409984 3.6459 -0.804714
0.357984 3.6539 -0.804714
0.346984 3.6569 -0.805714
0.312984 3.6579 -0.804714
0.295984 3.6629 -0.805714
0.260984 3.6699 -0.806714
0.231984 3.6719 -0.806714
0.220984 3.6659 -0.805714
0.197984 3.6809 -0.808714
0.163984 3.6849 -0.809714
0.157984 3.6869 -0.809714
0.122984 3.6849 -0.808714
0.070984 3.6979 -0.811714
0.058984 3.6899 -0.809714
0.0359839 3.6999 -0.812714
0.00698395 3.7059 -0.813714
4.67398 3.0759 -1.34371
3.66298 3.2089 -1.15471
3.53298 3.2259 -1.13271
3.48398 3.2309 -1.12471
3.40798 3.2409 -1.11171
3.34298 3.2509 -1.10071
3.29598 3.2559 -1.09371
3.27798 3.2589 -1.09071
3.26198 3.2629 -1.08871
3.24198 3.2639 -1.08471
3.20798 3.2709 -1.07971
3.16698 3.2809 -1.07471
3.14198 3.2749 -1.06871
3.12498 3.2779 -1.06671
3.11498 3.2879 -1.06671
3.09098 3.2839 -1.06171
3.07298 3.2849 -1.05871
3.06598 3.2879 -1.05771
3.03198 3.2929 -1.05271
3.01498 3.2959 -1.04971
2.97898 3.2969 -1.04371
2.96998 3.3079 -1.04471
2.93698 3.3029 -1.03771
2.92398 3.3099 -1.03671
2.88698 3.3089 -1.03071
2.87098 3.3129 -1.02871
2.82898 3.3159 -1.02171
2.78098 3.3229 -1.01571
2.74298 3.3299 -1.01071
2.69598 3.3379 -1.00471
2.66598 3.3429 -1.00071
2.60798 3.3459 -0.991714
2.52398 3.3569 -0.980714
2.44198 3.3669 -0.969714
2.19798 3.3999 -0.941714
1.78998 3.4559 -0.900714
1.59898 3.4809 -0.884714
1.59198 3.4809 -0.883714
1.57898 3.4809 -0.882714
1.43098 3.5009 -0.871714
1.40698 3.5039 -0.870714
1.39498 3.5069 -0.869714
1.35198 3.5109 -0.866714
1.32798 3.5139 -0.864714
1.27398 3.5219 -0.861714
1.26398 3.5289 -0.862714
1.23998 3.5299 -0.860714
1.21598 3.5339 -0.859714
1.18498 3.5319 -0.856714
1.17398 3.5379 -0.857714
1.16298 3.5419 -0.857714
1.14898 3.5379 -0.855714
1.14098 3.5489 -0.857714
1.13498 3.5489 -0.856714
1.12298 3.5499 -0.856714
1.10898 3.5469 -0.854714
1.09798 3.5479 -0.853714
1.08598 3.5519 -0.853714
1.07698 3.5609 -0.855714
1.05698 3.5559 -0.852714
1.04798 3.5649 -0.854714
1.03398 3.5589 -0.851714
1.02298 3.5619 -0.851714
0.998984 3.5629 -0.850714
0.987984 3.5679 -0.850714
0.983984 3.5769 -0.852714
0.971984 3.5769 -0.851714
0.956984 3.5649 -0.847714
0.947984 3.5769 -0.850714
0.923984 3.5749 -0.848714
0.913984 3.5859 -0.850714
0.905984 3.5779 -0.847714
0.896984 3.5859 -0.849714
0.885984 3.5909 -0.849714
0.871984 3.5819 -0.846714
0.860984 3.5869 -0.847714
0.841984 3.5839 -0.845714
0.831984 3.5899 -0.846714
0.821984 3.5999 -0.848714
0.808984 3.5949 -0.846714
0.796984 3.5939 -0.845714
0.773984 3.5969 -0.844714
0.767984 3.5979 -0.844714
0.757984 3.6039 -0.845714
0.744984 3.5989 -0.843714
0.733984 3.6009 -0.843714
0.711984 3.6099 -0.844714
0.699984 3.6099 -0.844714
0.681984 3.6099 -0.843714
0.669984 3.6059 -0.841714
0.660984 3.6189 -0.844714
0.645984 3.6059 -0.840714
0.635984 3.6159 -0.842714
0.624984 3.6199 -0.843714
0.617984 3.6109 -0.840714
0.607984 3.6189 -0.842714
0.583984 3.6189 -0.841714
0.572984 3.6209 -0.841714
0.562984 3.6319 -0.843714
0.548984 3.6179 -0.839714
0.543984 3.6229 -0.840714
0.520984 3.6209 -0.839714
0.509984 3.6259 -0.840714
0.498984 3.6329 -0.841714
0.487984 3.6329 -0.841714
0.474984 3.6269 -0.839714
0.471984 3.6449 -0.843714
0.458984 3.6349 -0.840714
0.446984 3.6339 -0.840714
0.436984 3.6439 -0.842714
0.401984 3.6439 -0.841714
0.384984 3.6449 -0.841714
0.372984 3.6429 -0.840714
0.361984 3.6479 -0.841714
0.338984 3.6499 -0.841714
0.309984 3.6529 -0.841714
0.297984 3.6499 -0.840714
0.286984 3.6539 -0.841714
0.275984 3.6549 -0.841714
0.263984 3.6559 -0.841714
0.252984 3.6569 -0.841714
0.246984 3.6629 -0.842714
0.235984 3.6619 -0.842714
0.223984 3.6609 -0.841714
0.212984 3.6649 -0.842714
0.200984 3.6679 -0.843714
0.189984 3.6649 -0.842714
0.178984 3.6769 -0.845714
0.172984 3.6729 -0.844714
0.160984 3.6739 -0.844714
0.149984 3.6719 -0.843714
0.126984 3.6729 -0.843714
0.114984 3.6759 -0.844714
0.103984 3.6859 -0.846714
0.0979839 3.6859 -0.846714
0.085984 3.6819 -0.845714
0.074984 3.6819 -0.845714
0.062984 3.6859 -0.846714
0.039984 3.6889 -0.847714
0.028984 3.6869 -0.846714
0.022984 3.6969 -0.849714
0.010984 3.6969 -0.849714
4.82098 3.0729 -1.43971
4.79198 3.0759 -1.43271
4.75098 3.0809 -1.42471
4.72198 3.0839 -1.41871
4.66898 3.0909 -1.40771
4.57298 3.0989 -1.38671
4.55298 3.1069 -1.38371
4.52798 3.1099 -1.37871
4.50098 3.1119 -1.37271
4.41598 3.1149 -1.35471
4.41298 3.1229 -1.35471
4.38098 3.1219 -1.34771
4.35898 3.1259 -1.34371
4.33298 3.1289 -1.33771
4.31198 3.1339 -1.33471
4.28498 3.1349 -1.32871
4.25398 3.1419 -1.32271
4.20498 3.1469 -1.31271
4.18498 3.1529 -1.30971
4.15298 3.1489 -1.30171
4.14598 3.1639 -1.30271
4.12798 3.1609 -1.29871
4.08098 3.1659 -1.28971
4.05798 3.1679 -1.28471
4.03898 3.1729 -1.28171
4.00298 3.1649 -1.27271
3.98998 3.1759 -1.27171
3.97998 3.1779 -1.26971
3.96098 3.1829 -1.26671
3.91498 3.1859 -1.25771
3.89598 3.1909 -1.25471
3.87998 3.1979 -1.25171
3.84398 3.1989 -1.24471
3.73098 3.2159 -1.22471
3.11998 3.2969 -1.11971
2.94198 3.3209 -1.09171
2.89998 3.3249 -1.08471
2.84798 3.3289 -1.07671
2.80698 3.3339 -1.07071
