6.71387 -1.00103 -1.72787
6.70587 -0.978026 -1.72487
6.70887 -0.957026 -1.72487
6.69287 -0.944026 -1.72087
6.71087 -0.926026 -1.72487
6.70787 -0.904026 -1.72287
6.70687 -0.882026 -1.72187
6.71387 -0.862026 -1.72287
6.70687 -0.839026 -1.72087
6.70487 -0.807026 -1.71887
6.70987 -0.786026 -1.71887
6.70587 -0.764026 -1.71787
6.72387 -0.745026 -1.72187
6.72387 -0.670026 -1.71987
6.72587 -0.649026 -1.71987
6.73587 -0.607026 -1.72187
6.73887 -0.544026 -1.72087
6.74387 -0.512026 -1.72187
6.74887 -0.491026 -1.72287
6.75187 -0.449026 -1.72287
6.75287 -0.406026 -1.72187
6.75487 -0.396026 -1.72287
6.76687 -0.332026 -1.72487
6.75987 -0.311026 -1.72287
6.76887 -0.269026 -1.72487
6.76687 -0.215026 -1.72387
6.77287 -0.173026 -1.72487
6.78687 -0.130026 -1.72787
6.78187 -0.0770264 -1.72687
6.78387 -0.0130264 -1.72687
6.49087 1.28797 -1.73987
6.48087 1.30797 -1.73887
6.48787 1.32997 -1.74187
6.47987 1.34997 -1.74087
6.48087 1.37197 -1.74287
6.47487 1.39097 -1.74187
6.47087 1.41197 -1.74187
6.45687 1.44097 -1.73987
6.45587 1.46197 -1.74087
6.46787 1.48597 -1.74587
6.45187 1.50397 -1.74287
6.46587 1.52797 -1.74787
6.44987 1.54597 -1.74487
6.46587 1.55997 -1.74987
6.45587 1.57897 -1.74887
6.46587 1.60297 -1.75287
6.45687 1.62297 -1.75187
6.45387 1.64297 -1.75187
6.45187 1.66497 -1.75287
6.43887 1.68297 -1.75087
6.43087 1.69197 -1.74987
6.43087 1.71297 -1.75087
6.42587 1.73397 -1.75087
6.42087 1.75397 -1.75087
6.41287 1.77297 -1.75087
6.41287 1.79497 -1.75187
6.42487 -1.30103 -1.72287
6.45187 -1.21203 -1.72587
6.45387 -1.19203 -1.72487
6.45587 -1.17103 -1.72487
6.44587 -1.14803 -1.72087
6.43687 -1.12603 -1.71687
6.44587 -1.11703 -1.71887
6.44787 -1.09603 -1.71887
6.45887 -1.07703 -1.72087
6.45387 -1.05603 -1.71887
6.44987 -1.03403 -1.71687
6.45687 -1.01503 -1.71787
6.44487 -0.992026 -1.71287
6.17287 1.63897 -1.73887
6.16987 1.67997 -1.74087
6.15487 -1.29303 -1.71087
6.19487 -1.28103 -1.72087
6.21187 -1.26403 -1.72487
6.20787 -1.24303 -1.72287
6.21387 -1.23403 -1.72387
6.20787 -1.21303 -1.72087
6.21987 -1.19503 -1.72287
6.20287 -1.17103 -1.71687
6.20787 -1.15203 -1.71787
6.18687 -1.12803 -1.71087
6.19087 -1.10903 -1.71087
6.19087 -1.09903 -1.70987
6.01987 1.63997 -1.74087
6.00287 1.67597 -1.73887
6.00987 1.69797 -1.74287
6.00687 1.71797 -1.74287
6.00087 1.73597 -1.74287
6.01287 1.74997 -1.74787
5.97987 1.76097 -1.73887
5.97787 1.80097 -1.74187
5.96087 1.81697 -1.73887
5.96687 1.83897 -1.74187
5.96487 1.85897 -1.74287
5.95787 1.86697 -1.74187
5.95387 1.88597 -1.74287
5.95687 1.90797 -1.74587
5.94387 1.92397 -1.74287
5.94287 1.94497 -1.74487
5.94787 1.96697 -1.74787
5.93787 1.98397 -1.74687
5.93487 1.99397 -1.74687
5.92487 2.01097 -1.74587
5.93087 2.03397 -1.74987
5.91987 2.05097 -1.74787
5.92887 2.07497 -1.75387
5.91687 2.09197 -1.75187
5.91587 2.11197 -1.75387
5.89487 2.11497 -1.74787
6.02587 -1.29403 -1.71787
6.06587 -1.19303 -1.72387
6.05987 -1.17203 -1.72087
6.05787 -1.15203 -1.71887
6.04687 -1.14003 -1.71487
6.05587 -1.12203 -1.71687
6.04287 -1.10003 -1.71187
6.04387 -1.08103 -1.71087
6.03787 -1.06003 -1.70887
6.04087 -1.04103 -1.70887
5.94687 0.0239736 -1.72587
5.92687 0.0609736 -1.71987
5.92487 0.0789736 -1.71987
5.92287 0.0979735 -1.71887
5.94887 0.144974 -1.72687
5.92887 0.218974 -1.72187
5.93987 0.247974 -1.72487
5.94087 0.303974 -1.72687
5.94187 0.350974 -1.72787
5.92687 0.386974 -1.72387
5.92687 0.405974 -1.72387
5.91987 0.423974 -1.72287
5.93387 0.443974 -1.72687
5.91987 0.470974 -1.72387
5.91887 0.488974 -1.72387
5.93287 0.546974 -1.72987
5.92087 0.592974 -1.72687
5.93187 0.631974 -1.73187
5.91987 0.686974 -1.72987
5.91087 0.732974 -1.72887
5.90387 0.788974 -1.72887
5.89587 0.805974 -1.72687
5.89187 0.833974 -1.72687
5.89487 0.852974 -1.72887
5.88987 0.871974 -1.72787
5.89987 0.948974 -1.73487
5.87587 0.973974 -1.72887
5.88987 0.994974 -1.73387
5.87787 1.01197 -1.73087
5.86687 1.02897 -1.72887
5.88187 1.05097 -1.73487
5.86987 1.06797 -1.73187
5.88087 1.07897 -1.73587
5.86987 1.09597 -1.73387
5.86487 1.11397 -1.73287
5.89687 1.13997 -1.74387
5.85787 1.15097 -1.73287
5.88387 1.17597 -1.74287
5.86487 1.19097 -1.73787
5.88187 1.20397 -1.74387
5.85187 1.21697 -1.73587
5.86887 1.23997 -1.74187
5.83887 1.25297 -1.73387
5.85187 1.27497 -1.73887
5.85887 1.29597 -1.74287
5.82487 1.30697 -1.73287
5.83587 1.31897 -1.73687
5.82787 1.33697 -1.73587
5.81387 1.35297 -1.73287
5.80987 1.37097 -1.73287
5.81887 1.39297 -1.73687
5.80887 1.40997 -1.73587
5.80587 1.42797 -1.73587
5.80987 1.43897 -1.73787
5.78787 1.45297 -1.73287
5.79487 1.47397 -1.73587
5.79187 1.49197 -1.73687
5.78387 1.50997 -1.73587
5.78387 1.52897 -1.73687
5.78687 1.54897 -1.73987
5.77687 1.55697 -1.73687
5.77387 1.57497 -1.73787
5.77087 1.59397 -1.73787
5.79187 1.61897 -1.74687
5.77487 1.63397 -1.74287
5.76287 1.64997 -1.74087
5.77787 1.67397 -1.74687
5.76187 1.67997 -1.74287
5.75287 1.69697 -1.74187
5.76587 1.71997 -1.74787
5.74787 1.73397 -1.74387
5.74487 1.75297 -1.74387
5.73687 1.76997 -1.74387
5.74087 1.79097 -1.74687
5.75387 1.80597 -1.75187
5.72687 1.81697 -1.74487
5.74287 1.84197 -1.75187
5.72787 1.85697 -1.74887
5.72387 1.87497 -1.74987
5.70687 1.90897 -1.74787
5.72187 1.92497 -1.75387
5.70087 1.93797 -1.74887
5.71487 1.96197 -1.75587
5.71187 1.98197 -1.75687
5.70187 1.99797 -1.75587
5.68987 2.03397 -1.75587
5.64187 2.14797 -1.75387
5.70587 -1.36503 -1.70087
5.72087 -1.35003 -1.70487
5.71987 -1.33103 -1.70287
5.72887 -1.32303 -1.70487
5.76487 -1.31203 -1.71487
5.82687 -1.02203 -1.71687
5.85287 -1.00703 -1.72387
5.84687 -0.987026 -1.72087
5.83887 -0.976026 -1.71787
5.84787 -0.959026 -1.71987
5.84887 -0.940026 -1.71887
5.85187 -0.922026 -1.71887
5.85087 -0.903026 -1.71787
5.84787 -0.884026 -1.71587
5.87287 -0.869026 -1.72287
5.86887 -0.859026 -1.72087
5.86587 -0.839026 -1.71987
5.85187 -0.819026 -1.71387
5.86887 -0.802026 -1.71887
5.87387 -0.784026 -1.71987
5.85487 -0.763026 -1.71287
5.89587 -0.749026 -1.72487
5.86587 -0.736026 -1.71487
5.86487 -0.717026 -1.71387
5.87087 -0.699026 -1.71487
5.87487 -0.681026 -1.71587
5.87287 -0.662026 -1.71487
5.88487 -0.645026 -1.71787
5.87687 -0.625026 -1.71487
5.88587 -0.617026 -1.71687
5.89487 -0.599026 -1.71987
5.90687 -0.582026 -1.72287
5.87987 -0.560026 -1.71387
5.89687 -0.543026 -1.71787
5.90087 -0.525026 -1.71887
5.89687 -0.506026 -1.71687
5.91387 -0.498026 -1.72287
5.90287 -0.478026 -1.71787
5.90387 -0.460026 -1.71787
5.91887 -0.442026 -1.72287
5.90687 -0.423026 -1.71787
5.91987 -0.405026 -1.72187
5.92087 -0.386026 -1.72187
5.91787 -0.377026 -1.72087
5.90887 -0.358026 -1.71787
5.90487 -0.339026 -1.71587
5.90887 -0.320026 -1.71687
5.90987 -0.302026 -1.71687
5.92687 -0.284026 -1.72187
5.91987 -0.265026 -1.71987
5.93687 -0.256026 -1.72487
5.92087 -0.237026 -1.71987
5.92387 -0.219026 -1.71987
5.91487 -0.200026 -1.71687
5.93387 -0.182026 -1.72287
5.91787 -0.163026 -1.71787
5.94487 -0.144026 -1.72587
5.92387 -0.135026 -1.71987
5.92987 -0.116026 -1.72087
5.93487 -0.0980264 -1.72287
5.92487 -0.0790265 -1.71987
5.93087 -0.0600264 -1.72087
5.91987 -0.0420264 -1.71787
5.92587 -0.0230264 -1.71987
5.92387 -0.0140264 -1.71887
5.73287 0.0129736 -1.71987
5.74387 0.0309736 -1.72387
5.73387 0.0399736 -1.72087
5.73787 0.0579736 -1.72187
5.73987 0.0759735 -1.72187
5.72787 0.0939735 -1.71887
5.74287 0.111974 -1.72387
5.73687 0.129974 -1.72187
5.72487 0.146974 -1.71787
5.73587 0.156974 -1.72187
5.73787 0.174974 -1.72187
5.73487 0.192974 -1.72187
5.73587 0.210974 -1.72187
5.74087 0.228974 -1.72387
5.72687 0.246974 -1.71987
5.73587 0.264974 -1.72287
5.73187 0.273974 -1.72187
5.72287 0.290974 -1.71887
5.72587 0.309974 -1.72087
5.73687 0.327974 -1.72387
5.72687 0.363974 -1.72187
5.72787 0.381974 -1.72187
5.72687 0.390974 -1.72187
5.73487 0.409974 -1.72487
5.73387 0.427974 -1.72487
5.72887 0.444974 -1.72387
5.72887 0.462974 -1.72487
5.71787 0.480974 -1.72187
5.71687 0.498974 -1.72187
5.72387 0.507974 -1.72387
5.72387 0.525974 -1.72487
5.72187 0.543974 -1.72487
5.71687 0.561974 -1.72387
5.72187 0.580974 -1.72587
5.71887 0.597974 -1.72487
5.72187 0.616974 -1.72687
5.72887 0.626974 -1.72987
5.71387 0.642974 -1.72487
5.71187 0.660974 -1.72487
5.71687 0.679974 -1.72787
5.70687 0.696974 -1.72487
5.71287 0.715974 -1.72787
5.71187 0.733974 -1.72787
5.70587 0.741974 -1.72687
5.70087 0.759974 -1.72587
5.70287 0.778974 -1.72687
5.69587 0.795974 -1.72587
5.68987 0.812974 -1.72487
5.69487 0.831974 -1.72687
5.69387 0.849974 -1.72787
5.69487 0.859974 -1.72787
5.68487 0.875974 -1.72587
5.68587 0.894974 -1.72687
5.68287 0.912974 -1.72687
5.69887 0.933974 -1.73287
5.68087 0.948974 -1.72787
5.67987 0.966974 -1.72887
5.67587 0.975974 -1.72787
5.66887 0.992974 -1.72687
5.67587 1.01197 -1.72987
5.66487 1.02897 -1.72787
5.66687 1.04797 -1.72987
5.66787 1.06597 -1.73087
5.66787 1.08497 -1.73187
5.66587 1.09397 -1.73187
5.66487 1.11197 -1.73287
5.66987 1.13097 -1.73587
5.67287 1.14997 -1.73787
5.65187 1.16497 -1.73187
5.66287 1.18497 -1.73687
5.65187 1.20197 -1.73487
5.65587 1.21197 -1.73587
5.65187 1.22997 -1.73587
5.64787 1.24697 -1.73587
5.64387 1.26497 -1.73587
5.63487 1.28097 -1.73487
5.62287 1.29697 -1.73187
5.63187 1.32697 -1.73687
5.61487 1.34197 -1.73287
5.60987 1.35997 -1.73287
5.61487 1.37997 -1.73587
5.61787 1.39897 -1.73787
5.59887 1.41297 -1.73287
5.60387 1.43297 -1.73587
5.60187 1.44197 -1.73587
5.58787 1.45697 -1.73287
5.58287 1.47397 -1.73287
5.58987 1.49497 -1.73687
5.57387 1.50897 -1.73287
5.59287 1.53297 -1.74087
5.58587 1.54997 -1.74087
5.58787 1.55997 -1.74187
5.58587 1.57897 -1.74287
5.57187 1.59397 -1.73987
5.58687 1.61697 -1.74687
5.57987 1.63397 -1.74587
5.57087 1.65097 -1.74487
5.55887 1.66597 -1.74187
5.55987 1.67597 -1.74387
5.55987 1.69497 -1.74487
5.55787 1.71297 -1.74687
5.55687 1.73197 -1.74787
5.55287 1.74997 -1.74887
5.54887 1.76797 -1.74887
5.55087 1.78797 -1.75187
5.52387 1.82697 -1.74687
5.53587 1.84997 -1.75287
5.52887 1.86697 -1.75287
5.50187 1.94497 -1.75287
5.48887 1.99897 -1.75487
5.45687 2.09497 -1.75587
5.42587 2.12197 -1.74987
5.38287 -1.72603 -1.69387
5.40687 -1.66903 -1.69587
5.40787 -1.65103 -1.69487
5.42387 -1.63703 -1.69887
5.42387 -1.61803 -1.69687
5.43287 -1.60203 -1.69787
5.44087 -1.58603 -1.69887
5.43687 -1.56603 -1.69587
5.45087 -1.56103 -1.69987
5.46987 -1.54803 -1.70487
5.46787 -1.52903 -1.70187
5.47987 -1.51403 -1.70487
5.49887 -1.50103 -1.70987
5.49787 -1.48203 -1.70787
5.51987 -1.46903 -1.71287
5.51787 -1.45903 -1.71187
5.51487 -1.44003 -1.70987
5.52487 -1.42403 -1.71087
5.53687 -1.40903 -1.71387
5.54287 -1.39203 -1.71387
5.54587 -1.37403 -1.71387
5.55587 -1.34903 -1.71487
5.57287 -1.33403 -1.71887
5.67387 -0.904026 -1.72387
5.68487 -0.860026 -1.72487
5.68687 -0.806026 -1.72387
5.68587 -0.788026 -1.72187
5.69287 -0.761026 -1.72387
5.70087 -0.744026 -1.72487
5.70387 -0.726026 -1.72487
5.71187 -0.709026 -1.72687
5.71387 -0.691026 -1.72687
5.69787 -0.662026 -1.72087
5.69987 -0.644026 -1.72087
5.71887 -0.628026 -1.72687
5.69687 -0.607026 -1.71887
5.72087 -0.592026 -1.72587
5.73087 -0.575026 -1.72787
5.71887 -0.555026 -1.72387
5.72587 -0.547026 -1.72587
5.72887 -0.529026 -1.72687
5.72087 -0.510026 -1.72387
5.73187 -0.493026 -1.72687
5.73987 -0.476026 -1.72787
5.72187 -0.456026 -1.72187
5.73487 -0.439026 -1.72587
5.74487 -0.431026 -1.72887
5.73087 -0.411026 -1.72387
5.73087 -0.393026 -1.72387
5.74487 -0.376026 -1.72787
5.72887 -0.357026 -1.72187
5.72487 -0.339026 -1.72087
5.73687 -0.321026 -1.72387
5.73187 -0.312026 -1.72187
5.73087 -0.294026 -1.72187
5.74487 -0.277026 -1.72587
5.73987 -0.258026 -1.72387
5.73687 -0.240026 -1.72287
5.73787 -0.222026 -1.72287
5.74587 -0.204026 -1.72487
5.73687 -0.195026 -1.72187
5.74087 -0.177026 -1.72387
5.73187 -0.159026 -1.72087
5.74787 -0.141026 -1.72487
5.74987 -0.123026 -1.72587
5.73687 -0.105026 -1.72187
5.73587 -0.0870264 -1.72087
5.73587 -0.0780265 -1.72087
5.74787 -0.0600264 -1.72487
5.74587 -0.0420264 -1.72387
5.73987 -0.0240264 -1.72187
5.73487 -0.00602645 -1.72087
5.52787 0.00197355 -1.71787
5.52087 0.0109736 -1.71587
5.53387 0.0279736 -1.71987
5.53587 0.0459736 -1.72087
5.52387 0.0629736 -1.71687
5.51987 0.0799735 -1.71587
5.54287 0.0979735 -1.72287
5.51987 0.114974 -1.71587
5.52987 0.140974 -1.71887
5.52987 0.157974 -1.71887
5.51987 0.174974 -1.71587
5.52087 0.192974 -1.71687
5.52987 0.210974 -1.71987
5.52687 0.227974 -1.71887
5.52887 0.236974 -1.71987
5.52087 0.253974 -1.71787
5.52587 0.270974 -1.71887
5.52287 0.288974 -1.71887
5.52487 0.323974 -1.71987
5.52887 0.340974 -1.72187
5.51687 0.348974 -1.71787
5.52887 0.366974 -1.72287
5.52087 0.383974 -1.71987
5.52287 0.401974 -1.72087
5.52187 0.418974 -1.72087
5.52387 0.436974 -1.72287
5.51487 0.453974 -1.71987
5.51687 0.461974 -1.72087
5.52087 0.479974 -1.72287
5.51187 0.496974 -1.71987
5.52287 0.515974 -1.72487
5.51387 0.531974 -1.72187
5.51987 0.549974 -1.72487
5.51387 0.566974 -1.72287
5.51387 0.575974 -1.72287
5.50987 0.592974 -1.72287
5.50587 0.609974 -1.72187
5.51687 0.628974 -1.72587
5.50387 0.644974 -1.72287
5.50187 0.661974 -1.72287
5.50687 0.679974 -1.72487
5.49287 0.686974 -1.72087
5.49987 0.705974 -1.72387
5.51687 0.725974 -1.72987
5.50487 0.741974 -1.72687
5.50987 0.759974 -1.72987
5.49987 0.775974 -1.72687
5.49387 0.792974 -1.72587
5.50087 0.802974 -1.72787
5.48487 0.817974 -1.72387
5.49287 0.836974 -1.72787
5.47787 0.851974 -1.72287
5.49387 0.871974 -1.72987
5.48487 0.888974 -1.72787
5.47287 0.903974 -1.72487
5.48687 0.914974 -1.72987
5.47987 0.931974 -1.72787
5.48087 0.949974 -1.72987
5.48487 0.968974 -1.73187
5.47887 0.984974 -1.73087
5.47187 1.00197 -1.72987
5.47987 1.02097 -1.73287
5.47987 1.02997 -1.73387
5.47487 1.04697 -1.73287
5.47687 1.06497 -1.73487
5.46787 1.08097 -1.73287
5.46987 1.09897 -1.73487
5.47387 1.11797 -1.73787
5.45787 1.13297 -1.73287
5.46687 1.14397 -1.73687
5.45187 1.15797 -1.73287
5.45187 1.17597 -1.73487
5.44487 1.19197 -1.73287
5.43887 1.20897 -1.73287
5.42987 1.22497 -1.73087
5.41987 1.24097 -1.72887
5.43287 1.25297 -1.73387
5.42187 1.26797 -1.73087
5.40487 1.28197 -1.72687
5.41787 1.30297 -1.73287
5.40087 1.31697 -1.72787
5.40187 1.33497 -1.72987
5.39987 1.35297 -1.73087
5.39887 1.36197 -1.73087
5.39987 1.37997 -1.73287
5.40187 1.39797 -1.73487
5.38987 1.41297 -1.73287
5.39487 1.43297 -1.73587
5.38487 1.44797 -1.73387
5.38187 1.46597 -1.73487
5.38087 1.47497 -1.73487
5.37487 1.49097 -1.73487
5.36987 1.50797 -1.73487
5.36487 1.52497 -1.73487
5.35887 1.54097 -1.73387
5.36987 1.56297 -1.73987
5.36687 1.57997 -1.73987
5.37687 1.59197 -1.74487
5.36987 1.60897 -1.74387
5.36187 1.62397 -1.74287
5.37087 1.64597 -1.74787
5.35887 1.65997 -1.74487
5.35887 1.67897 -1.74687
5.36287 1.69897 -1.74987
5.35987 1.70697 -1.74987
5.35087 1.72297 -1.74887
5.19687 2.12697 -1.74687
5.17587 -1.68903 -1.69087
5.19887 -1.64303 -1.69287
5.19987 -1.63403 -1.69187
5.22087 -1.60403 -1.69587
5.21887 -1.58603 -1.69387
5.22687 -1.57003 -1.69487
5.24087 -1.55703 -1.69787
5.23487 -1.53703 -1.69387
5.25187 -1.53303 -1.69887
5.25887 -1.51703 -1.69987
5.25987 -1.50003 -1.69887
5.27687 -1.48703 -1.70287
5.27287 -1.46703 -1.69987
5.28087 -1.45203 -1.70087
5.28587 -1.43503 -1.70087
5.29687 -1.42903 -1.70387
5.29987 -1.41203 -1.70387
5.30787 -1.39703 -1.70487
5.31987 -1.38203 -1.70787
5.31287 -1.36203 -1.70387
5.32587 -1.34803 -1.70687
5.34687 -1.33503 -1.71287
5.34687 -1.32603 -1.71187
5.43987 -0.983026 -1.71787
5.44887 -0.931026 -1.71787
5.45287 -0.897026 -1.71787
5.46387 -0.890026 -1.72087
5.46487 -0.872026 -1.71987
5.45287 -0.853026 -1.71487
5.47387 -0.838026 -1.72087
5.47887 -0.822026 -1.72187
5.46187 -0.802026 -1.71587
5.47787 -0.786026 -1.71987
5.47387 -0.777026 -1.71787
5.47587 -0.760026 -1.71787
5.47787 -0.743026 -1.71787
5.48087 -0.725026 -1.71787
5.47487 -0.707026 -1.71587
5.47587 -0.690026 -1.71487
5.48887 -0.674026 -1.71887
5.47887 -0.664026 -1.71487
5.49387 -0.648026 -1.71887
5.48887 -0.630026 -1.71687
5.49087 -0.613026 -1.71687
5.49587 -0.596026 -1.71787
5.50587 -0.579026 -1.72087
5.50487 -0.562026 -1.71987
5.51387 -0.554026 -1.72287
5.50987 -0.536026 -1.72087
5.51387 -0.519026 -1.72087
5.51287 -0.502026 -1.72087
5.52187 -0.485026 -1.72287
5.51987 -0.467026 -1.72187
5.52087 -0.450026 -1.72187
5.53687 -0.442026 -1.72687
5.52887 -0.424026 -1.72387
5.53987 -0.408026 -1.72687
5.53587 -0.390026 -1.72487
5.52687 -0.372026 -1.72187
5.53187 -0.355026 -1.72287
5.54687 -0.338026 -1.72787
5.52987 -0.328026 -1.72187
5.53287 -0.311026 -1.72287
5.53787 -0.294026 -1.72387
5.51587 -0.275026 -1.71587
5.53587 -0.259026 -1.72287
5.53287 -0.241026 -1.72087
5.53487 -0.224026 -1.72187
5.53887 -0.216026 -1.72287
5.52687 -0.198026 -1.71887
5.52887 -0.180026 -1.71887
5.53687 -0.163026 -1.72187
5.53587 -0.146026 -1.72087
5.53787 -0.128026 -1.72187
5.52487 -0.111026 -1.71787
5.53487 -0.102026 -1.72087
5.52387 -0.0850265 -1.71687
5.52387 -0.0670265 -1.71687
5.52787 -0.0500264 -1.71787
5.53587 -0.0330264 -1.72087
5.52587 -0.0150264 -1.71787
5.36387 0.0979735 -1.71387
5.38087 0.114974 -1.71887
5.36187 0.257974 -1.71487
5.36487 0.274974 -1.71587
5.36687 0.283974 -1.71687
5.36787 0.300974 -1.71787
5.36787 0.334974 -1.71787
5.37187 0.351974 -1.71987
5.35587 0.443974 -1.71687
5.37187 0.461974 -1.72287
5.36487 0.494974 -1.72087
5.37087 0.504974 -1.72387
5.35487 0.519974 -1.71887
5.36087 0.537974 -1.72087
5.35687 0.553974 -1.72087
5.35287 0.587974 -1.72087
5.34787 0.603974 -1.71887
5.35587 0.630974 -1.72287
5.34987 0.723974 -1.72487
5.34587 0.739974 -1.72487
5.35087 0.757974 -1.72687
5.34087 0.773974 -1.72487
5.33687 0.790974 -1.72387
5.34387 0.808974 -1.72687
5.33387 0.823974 -1.72487
5.33087 0.831974 -1.72387
5.32187 0.847974 -1.72187
5.32687 0.865974 -1.72487
5.32987 0.883974 -1.72687
5.32687 0.934974 -1.72787
5.32687 0.943974 -1.72887
5.33187 0.961974 -1.73187
5.32487 0.977974 -1.72987
5.32187 0.994974 -1.72987
5.28987 1.03997 -1.72287
5.20587 1.53497 -1.73487
5.18987 1.54897 -1.73087
5.20087 1.56997 -1.73687
5.18187 1.58197 -1.73187
5.17787 1.58897 -1.73087
5.17187 1.60597 -1.73087
5.17087 1.62297 -1.73187
5.20587 1.65197 -1.74687
5.16087 1.65497 -1.73187
5.15687 1.67197 -1.73287
5.19287 1.70197 -1.74787
5.15987 1.69997 -1.73687
5.17787 1.72397 -1.74487
5.17487 1.74097 -1.74587
5.16487 1.75597 -1.74487
5.13987 1.76497 -1.73787
5.15587 1.78897 -1.74487
5.14687 1.80397 -1.74387
5.12987 1.80697 -1.73887
5.13787 1.84597 -1.74587
5.09587 1.94897 -1.74487
5.08887 1.96497 -1.74487
5.08887 1.98297 -1.74687
5.07287 2.01397 -1.74487
5.07787 2.02497 -1.74787
5.06987 2.03997 -1.74787
5.06487 2.05697 -1.74787
5.05687 2.07197 -1.74787
5.04887 2.08697 -1.74687
5.02787 2.09697 -1.74187
5.05987 -1.57703 -1.69187
5.07587 -1.53803 -1.69287
5.09087 -1.50803 -1.69487
5.10087 -1.47603 -1.69487
5.11287 -1.46203 -1.69787
5.10987 -1.44403 -1.69487
5.11587 -1.43703 -1.69587
5.11787 -1.42003 -1.69587
5.13687 -1.40803 -1.70087
5.14887 -1.39403 -1.70287
5.15187 -1.37803 -1.70287
5.15187 -1.36003 -1.70087
5.15987 -1.34503 -1.70287
5.17887 -1.34103 -1.70887
5.18787 -1.32703 -1.70987
5.26187 -1.10203 -1.71787
5.26787 -1.02503 -1.71387
5.26887 -1.00803 -1.71387
5.26887 -0.991026 -1.71187
5.27887 -0.976026 -1.71487
5.27987 -0.959026 -1.71387
5.27987 -0.942026 -1.71287
5.28787 -0.926026 -1.71487
5.27487 -0.915026 -1.70987
5.28687 -0.900026 -1.71287
5.29487 -0.884026 -1.71487
5.29187 -0.867026 -1.71287
5.28587 -0.849026 -1.70987
5.31987 -0.837026 -1.72087
5.29287 -0.816026 -1.70987
5.30187 -0.809026 -1.71287
5.29887 -0.791026 -1.71087
5.28787 -0.773026 -1.70687
5.30187 -0.758026 -1.70987
5.33187 -0.745026 -1.71987
5.30087 -0.723026 -1.70887
5.33687 -0.711026 -1.71987
5.30587 -0.699026 -1.70887
5.30987 -0.682026 -1.70987
5.30987 -0.665026 -1.70887
5.34387 -0.653026 -1.71987
5.31187 -0.632026 -1.70887
5.34587 -0.619026 -1.71887
5.32887 -0.600026 -1.71287
5.32587 -0.591026 -1.71187
5.33187 -0.575026 -1.71287
5.32387 -0.557026 -1.70987
5.35287 -0.543026 -1.71887
5.33187 -0.524026 -1.71087
5.32787 -0.507026 -1.70887
5.33887 -0.491026 -1.71187
5.36887 -0.485026 -1.72287
5.37087 -0.468026 -1.72287
5.35687 -0.450026 -1.71787
5.34387 -0.432026 -1.71187
5.36387 -0.417026 -1.71887
5.37287 -0.401026 -1.72087
5.37587 -0.384026 -1.72187
5.34787 -0.373026 -1.71187
5.35087 -0.357026 -1.71287
5.37487 -0.341026 -1.72087
5.38187 -0.325026 -1.72287
5.36887 -0.307026 -1.71787
5.37987 -0.291026 -1.72087
5.34687 -0.272026 -1.70987
5.37687 -0.265026 -1.71987
5.38187 -0.249026 -1.72087
5.34887 -0.230026 -1.70987
5.38287 -0.215026 -1.72087
5.38587 -0.198026 -1.72187
5.38287 -0.181026 -1.72087
5.35987 -0.163026 -1.71287
5.37587 -0.155026 -1.71787
5.37687 -0.0880264 -1.71787
5.23987 0.00497355 -1.72487
5.24087 0.0219736 -1.72587
5.25287 0.0299736 -1.72987
5.23387 0.0459736 -1.72287
5.24487 0.0629736 -1.72687
5.23887 0.0789736 -1.72487
5.23087 0.0959736 -1.72187
5.23487 0.111974 -1.72387
5.23387 0.128974 -1.72387
5.22987 0.136974 -1.72187
5.22787 0.152974 -1.72187
5.22687 0.168974 -1.72187
5.23187 0.185974 -1.72387
5.23887 0.202974 -1.72587
5.23287 0.218974 -1.72387
5.22687 0.234974 -1.72187
5.22387 0.242974 -1.72187
5.22187 0.259974 -1.72087
5.22287 0.275974 -1.72187
5.21787 0.291974 -1.71987
5.21187 0.307974 -1.71787
5.23287 0.325974 -1.72587
5.21887 0.341974 -1.72187
5.22987 0.350974 -1.72587
5.23587 0.367974 -1.72787
5.21787 0.382974 -1.72187
5.23187 0.399974 -1.72787
5.22687 0.416974 -1.72587
5.22187 0.432974 -1.72487
5.21787 0.448974 -1.72387
5.22287 0.457974 -1.72587
5.22787 0.474974 -1.72787
5.21987 0.489974 -1.72587
5.21487 0.505974 -1.72487
5.20587 0.521974 -1.72187
5.22287 0.539974 -1.72887
5.21187 0.555974 -1.72587
5.21987 0.564974 -1.72887
5.20487 0.579974 -1.72387
5.21687 0.597974 -1.72887
5.21887 0.614974 -1.72987
5.21287 0.630974 -1.72887
5.20887 0.646974 -1.72787
5.19587 0.661974 -1.72387
5.21487 0.672974 -1.73087
5.20787 0.687974 -1.72987
5.21087 0.704974 -1.73087
5.20087 0.720974 -1.72887
5.18987 0.735974 -1.72587
5.19487 0.752974 -1.72787
5.20887 0.771974 -1.73387
5.19887 0.778974 -1.73087
5.19787 0.794974 -1.73087
5.20087 0.811974 -1.73287
5.19787 0.828974 -1.73287
5.18987 0.843974 -1.73087
5.17787 0.858974 -1.72787
5.18087 0.875974 -1.72987
5.17187 0.882974 -1.72787
5.18187 0.901974 -1.73187
5.18087 0.917974 -1.73287
5.18787 0.935974 -1.73587
5.18687 0.952974 -1.73687
5.19087 0.969974 -1.73887
5.19187 0.987974 -1.74087
5.18087 0.993974 -1.73687
5.18487 1.01197 -1.73987
5.18187 1.02797 -1.73987
5.16687 1.07597 -1.73787
5.16087 1.09097 -1.73687
5.16687 1.10097 -1.73987
5.16187 1.11697 -1.73887
5.15387 1.13197 -1.73787
5.15087 1.14797 -1.73787
5.15487 1.16597 -1.74087
5.14887 1.18197 -1.73987
5.12487 1.19297 -1.73287
5.13187 1.20397 -1.73587
5.14087 1.22297 -1.74087
5.12087 1.23497 -1.73487
5.12387 1.25297 -1.73687
5.13487 1.27297 -1.74287
5.11087 1.28397 -1.73487
5.10687 1.29997 -1.73487
5.10587 1.32497 -1.73687
5.09687 1.33997 -1.73487
5.10687 1.35997 -1.74087
5.10387 1.37597 -1.74087
5.09987 1.39197 -1.74087
5.10687 1.41097 -1.74487
5.08587 1.41397 -1.73887
5.08887 1.43197 -1.74087
5.08587 1.44897 -1.74187
5.07987 1.46397 -1.74087
5.07187 1.47897 -1.73987
5.07487 1.51497 -1.74487
5.06787 1.53897 -1.74487
5.06287 1.55497 -1.74487
5.05987 1.57097 -1.74487
4.82887 -1.74203 -1.68787
4.85087 -1.73303 -1.69387
4.84087 -1.72103 -1.68887
4.85687 -1.70903 -1.69287
4.86887 -1.69603 -1.69587
4.86387 -1.67703 -1.69187
4.86787 -1.66203 -1.69087
4.88887 -1.65203 -1.69687
4.88687 -1.63403 -1.69387
4.89787 -1.62903 -1.69787
4.91587 -1.61803 -1.70187
4.91887 -1.60203 -1.70187
4.92587 -1.58703 -1.70187
4.93287 -1.57203 -1.70287
4.94487 -1.55903 -1.70587
4.94087 -1.54003 -1.70187
4.95587 -1.53703 -1.70687
4.94787 -1.51703 -1.70187
4.95787 -1.50303 -1.70387
4.97187 -1.49003 -1.70787
4.97787 -1.47503 -1.70787
4.98487 -1.46003 -1.70887
4.99087 -1.44503 -1.70987
4.99787 -1.42103 -1.70987
5.21787 -0.455026 -1.72387
5.21887 -0.422026 -1.72387
5.22087 -0.397026 -1.72387
5.22587 -0.381026 -1.72487
5.23687 -0.291026 -1.72687
5.23787 -0.275026 -1.72687
5.23787 -0.242026 -1.72587
5.23987 -0.225026 -1.72687
5.23487 -0.209026 -1.72487
5.24387 -0.193026 -1.72787
5.24087 -0.168026 -1.72587
5.23687 -0.151026 -1.72487
5.24187 -0.135026 -1.72587
5.23087 -0.118026 -1.72187
5.23887 -0.102026 -1.72487
5.24487 -0.0850265 -1.72687
5.23687 -0.0770264 -1.72387
5.24887 -0.0610264 -1.72787
5.25087 -0.0440264 -1.72887
5.23787 -0.0280264 -1.72387
5.25087 -0.0110264 -1.72887
5.12787 0.0109736 -1.72787
5.10887 0.0429736 -1.72087
5.10087 0.0749736 -1.71787
5.12387 0.0839735 -1.72687
5.11887 0.0999736 -1.72487
5.09187 0.130974 -1.71587
5.12787 0.147974 -1.72887
5.11587 0.163974 -1.72487
5.13387 0.180974 -1.73087
5.10787 0.187974 -1.72187
5.12287 0.220974 -1.72787
5.10587 0.235974 -1.72187
5.11787 0.252974 -1.72687
5.11287 0.268974 -1.72487
5.09687 0.291974 -1.71987
5.11887 0.308974 -1.72787
5.10487 0.323974 -1.72287
5.08887 0.355974 -1.71787
5.11087 0.388974 -1.72687
5.12587 0.397974 -1.73287
5.10787 0.412974 -1.72687
5.08987 0.443974 -1.72087
5.11687 0.462974 -1.73087
5.09587 0.476974 -1.72487
5.09287 0.492974 -1.72387
5.09987 0.500974 -1.72687
5.09987 0.517974 -1.72687
5.08687 0.532974 -1.72287
5.10787 0.550974 -1.73087
5.09887 0.565974 -1.72887
5.09887 0.581974 -1.72887
5.11387 0.599974 -1.73487
5.07087 0.603974 -1.71987
5.08987 0.621974 -1.72787
5.09587 0.638974 -1.73087
5.09187 0.654974 -1.72987
5.07687 0.668974 -1.72487
5.08587 0.685974 -1.72887
5.10387 0.704974 -1.73687
5.07087 0.708974 -1.72487
5.09087 0.727974 -1.73287
5.06987 0.740974 -1.72687
5.07387 0.757974 -1.72887
5.09387 0.776974 -1.73687
5.05787 0.787974 -1.72487
5.08987 0.808974 -1.73687
5.06287 0.812974 -1.72787
5.06587 0.829974 -1.72987
5.07487 0.847974 -1.73387
5.06287 0.861974 -1.73087
5.04387 0.891974 -1.72587
5.06687 0.911974 -1.73487
5.06387 0.919974 -1.73487
5.06687 0.936974 -1.73687
5.06687 0.952974 -1.73787
5.04887 0.965974 -1.73287
5.05887 1.02597 -1.73987
5.04287 1.05597 -1.73687
5.03587 1.08697 -1.73687
5.03687 1.12097 -1.73887
5.04087 1.12997 -1.74087
5.01987 1.14197 -1.73487
5.00587 1.17197 -1.73287
5.02187 1.19197 -1.73987
5.00787 1.20497 -1.73587
4.99587 1.22797 -1.73387
4.98987 1.25897 -1.73487
4.97987 1.28997 -1.73387
4.99787 1.31197 -1.74187
4.96887 1.32097 -1.73287
4.97087 1.34597 -1.73587
4.98387 1.36597 -1.74187
4.97587 1.38097 -1.74087
4.95987 1.39397 -1.73687
4.96387 1.42797 -1.74087
4.95987 1.43597 -1.74087
4.94687 1.44897 -1.73687
4.94887 1.46597 -1.73987
4.95387 1.48497 -1.74287
4.93487 1.51297 -1.73987
4.92287 1.52597 -1.73687
4.91487 1.53197 -1.73487
4.91087 1.56497 -1.73687
4.90987 1.59897 -1.74087
4.90087 1.65497 -1.74387
4.89087 1.70297 -1.74587
4.65687 -1.84003 -1.68487
4.68587 -1.80903 -1.68987
4.68087 -1.79003 -1.68587
4.68587 -1.77503 -1.68587
4.71087 -1.76803 -1.69287
4.71487 -1.75203 -1.69287
4.72187 -1.73803 -1.69287
4.72487 -1.73103 -1.69287
4.72187 -1.71303 -1.68987
4.73887 -1.70203 -1.69487
4.75287 -1.69103 -1.69787
4.75687 -1.67503 -1.69787
4.76187 -1.66003 -1.69787
4.78187 -1.65003 -1.70287
4.78587 -1.64303 -1.70387
4.78587 -1.62603 -1.70187
4.80287 -1.61603 -1.70587
4.81387 -1.60203 -1.70787
4.80387 -1.58203 -1.70287
5.12087 -0.134026 -1.72587
5.10887 -0.0290264 -1.72087
5.13187 -0.00502645 -1.72887
4.94487 0.0139736 -1.70987
4.94887 0.0289736 -1.71187
4.94887 0.0449736 -1.71187
4.95387 0.0609736 -1.71387
4.94687 0.0759735 -1.71087
4.96287 0.0919736 -1.71687
4.95787 0.145974 -1.71587
4.95187 0.161974 -1.71387
4.94887 0.192974 -1.71287
4.95987 0.231974 -1.71787
4.94187 0.293974 -1.71187
4.94187 0.332974 -1.71287
4.93787 0.362974 -1.71187
4.94487 0.433974 -1.71687
4.93187 0.565974 -1.71687
4.93387 0.621974 -1.72087
4.91487 0.720974 -1.71787
4.90087 0.766974 -1.71587
4.89887 0.836974 -1.71887
4.89587 0.852974 -1.71887
4.89087 0.899974 -1.72087
4.88187 0.921974 -1.71787
4.87687 0.936974 -1.71787
4.89787 0.956974 -1.72687
4.87487 0.983974 -1.72087
4.87387 0.999974 -1.72087
4.87587 1.00797 -1.72287
4.87087 1.02297 -1.72187
4.87087 1.03897 -1.72287
4.86787 1.07097 -1.72487
4.86487 1.08597 -1.72487
4.84687 1.09797 -1.71887
4.86687 1.10997 -1.72687
4.84287 1.12097 -1.71987
4.84687 1.15397 -1.72387
4.83587 1.16697 -1.72087
4.83787 1.18397 -1.72287
4.82887 1.19797 -1.72087
4.81887 1.23597 -1.72087
4.80987 1.26497 -1.72087
4.80687 1.30497 -1.72287
4.79287 1.33397 -1.72087
4.78287 1.39597 -1.72387
4.78087 1.40397 -1.72387
4.76187 1.44697 -1.72187
4.75487 1.49397 -1.72487
4.75687 1.51897 -1.72787
4.74687 1.53297 -1.72587
4.74087 1.56397 -1.72687
4.73987 1.57997 -1.72887
4.72587 1.59097 -1.72487
4.73687 1.60397 -1.73087
4.72487 1.61597 -1.72787
4.72187 1.63197 -1.72887
4.72387 1.64897 -1.73187
4.72387 1.66597 -1.73387
4.72187 1.68197 -1.73487
4.70587 1.69297 -1.73087
4.70687 1.70097 -1.73187
4.70687 1.71797 -1.73387
4.70487 1.73397 -1.73587
4.71187 1.75397 -1.74087
4.69987 1.76597 -1.73787
4.70287 1.78397 -1.74087
4.70587 1.80197 -1.74487
4.69387 1.80597 -1.74087
4.69287 1.83997 -1.74487
4.68387 1.85297 -1.74387
4.66887 1.88097 -1.74287
4.66687 1.90597 -1.74487
4.62987 1.95897 -1.74087
4.61787 1.99697 -1.74187
4.60687 2.02697 -1.74287
4.59887 2.03997 -1.74187
4.59087 2.05397 -1.74087
4.59487 2.07297 -1.74487
4.57787 2.08297 -1.74087
4.55387 2.08097 -1.73287
4.61887 -1.60803 -1.68987
4.62687 -1.57803 -1.68887
4.63287 -1.57203 -1.69087
4.63087 -1.55503 -1.68787
4.65487 -1.54703 -1.69587
4.66187 -1.53303 -1.69587
4.65787 -1.51603 -1.69287
4.67187 -1.50403 -1.69587
4.67787 -1.49003 -1.69687
4.67487 -1.48103 -1.69487
4.68987 -1.46903 -1.69887
4.70387 -1.45703 -1.70287
4.69087 -1.43703 -1.69587
4.70387 -1.42503 -1.69887
4.72287 -1.41403 -1.70487
4.70187 -1.39203 -1.69487
4.71887 -1.38903 -1.69987
4.73387 -1.37703 -1.70487
4.72187 -1.35803 -1.69787
4.73287 -1.34503 -1.70087
4.74987 -1.33403 -1.70587
4.75287 -1.31803 -1.70487
4.86187 -0.961026 -1.71387
4.88187 -0.878026 -1.71587
4.88387 -0.846026 -1.71387
4.89087 -0.816026 -1.71487
4.90187 -0.794026 -1.71787
4.89287 -0.777026 -1.71387
4.89787 -0.746026 -1.71387
4.89887 -0.730026 -1.71287
4.89287 -0.690026 -1.70887
4.91587 -0.646026 -1.71487
4.91987 -0.631026 -1.71587
4.92987 -0.609026 -1.71787
4.93187 -0.562026 -1.71687
4.94487 -0.548026 -1.72087
4.91887 -0.506026 -1.70987
4.93987 -0.492026 -1.71687
4.94287 -0.477026 -1.71787
4.94587 -0.461026 -1.71787
4.93387 -0.429026 -1.71287
4.95987 -0.415026 -1.72187
4.94187 -0.406026 -1.71487
4.94987 -0.391026 -1.71787
4.95387 -0.376026 -1.71787
4.95787 -0.361026 -1.71987
4.96687 -0.345026 -1.72287
4.94187 -0.328026 -1.71287
4.95587 -0.313026 -1.71787
4.94687 -0.305026 -1.71387
4.95387 -0.290026 -1.71587
4.94887 -0.274026 -1.71387
4.97387 -0.260026 -1.72287
4.95587 -0.243026 -1.71587
4.95887 -0.228026 -1.71687
4.95187 -0.204026 -1.71387
4.93787 -0.188026 -1.70887
4.94787 -0.173026 -1.71187
4.95587 -0.157026 -1.71487
4.94287 -0.142026 -1.70987
4.95287 -0.126026 -1.71387
4.94787 -0.111026 -1.71187
4.95387 -0.103026 -1.71387
4.94987 -0.0870264 -1.71187
4.96287 -0.0720264 -1.71687
4.95987 -0.0560264 -1.71587
4.96587 -0.0410264 -1.71787
4.93987 -0.0250264 -1.70787
4.95087 -0.0100264 -1.71187
4.83787 0.00497355 -1.72487
4.83787 0.0199736 -1.72487
4.83387 0.0349736 -1.72387
4.82987 0.0499736 -1.72287
4.83187 0.0729735 -1.72287
4.83687 0.0879735 -1.72487
4.84087 0.102974 -1.72687
4.82487 0.117974 -1.72087
4.82887 0.133974 -1.72287
4.82787 0.148974 -1.72287
4.82187 0.155974 -1.71987
4.82387 0.170974 -1.72087
4.81987 0.185974 -1.71987
4.81887 0.201974 -1.71987
4.81487 0.216974 -1.71787
4.82087 0.231974 -1.72087
4.82787 0.247974 -1.72387
4.80687 0.253974 -1.71587
4.81587 0.269974 -1.71987
4.82187 0.284974 -1.72287
4.80587 0.299974 -1.71687
4.81087 0.314974 -1.71887
4.82287 0.330974 -1.72387
4.81087 0.344974 -1.71987
4.80287 0.351974 -1.71687
4.80887 0.367974 -1.71987
4.79487 0.381974 -1.71487
4.81187 0.398974 -1.72187
4.81087 0.413974 -1.72187
4.79687 0.427974 -1.71687
4.80287 0.442974 -1.71987
4.79787 0.450974 -1.71787
4.79887 0.465974 -1.71887
4.80787 0.481974 -1.72287
4.80887 0.496974 -1.72387
4.79587 0.510974 -1.71987
4.79587 0.526974 -1.71987
4.78887 0.540974 -1.71787
4.79187 0.548974 -1.71987
4.79387 0.563974 -1.72087
4.78587 0.578974 -1.71887
4.78287 0.593974 -1.71787
4.78987 0.609974 -1.72187
4.80287 0.626974 -1.72787
4.77687 0.638974 -1.71787
4.78887 0.647974 -1.72287
4.77387 0.660974 -1.71787
4.79187 0.678974 -1.72587
4.77687 0.691974 -1.72087
4.78987 0.708974 -1.72687
4.77287 0.721974 -1.72087
4.78487 0.738974 -1.72687
4.77087 0.744974 -1.72187
4.76987 0.759974 -1.72287
4.76987 0.775974 -1.72287
4.77287 0.790974 -1.72487
4.76887 0.805974 -1.72487
4.76787 0.820974 -1.72487
4.77287 0.837974 -1.72787
4.76787 0.843974 -1.72687
4.75787 0.857974 -1.72387
4.78087 0.877974 -1.73387
4.75887 0.888974 -1.72687
4.76587 0.905974 -1.72987
4.75387 0.918974 -1.72687
4.75487 0.934974 -1.72787
4.75887 0.942974 -1.72987
4.76287 0.959974 -1.73287
4.75087 0.972974 -1.72987
4.75287 0.988974 -1.73187
4.73887 1.00197 -1.72787
4.74287 1.01797 -1.72987
4.74487 1.03397 -1.73187
4.74187 1.04097 -1.73187
4.74587 1.05797 -1.73487
4.73187 1.06997 -1.72987
4.74087 1.08797 -1.73487
4.72687 1.09997 -1.73087
4.73187 1.11697 -1.73487
4.71987 1.12997 -1.73087
4.73387 1.14097 -1.73687
4.71587 1.15297 -1.73187
4.72487 1.16997 -1.73687
4.70687 1.18197 -1.73087
4.70487 1.19697 -1.73187
4.70687 1.21297 -1.73387
4.70487 1.22797 -1.73487
4.68987 1.23297 -1.72987
4.69287 1.24897 -1.73187
4.68187 1.26197 -1.72987
4.69287 1.28097 -1.73487
4.67587 1.29197 -1.72987
4.66987 1.30597 -1.72987
4.67887 1.32397 -1.73487
4.67787 1.33197 -1.73487
4.67787 1.34797 -1.73687
4.65887 1.35797 -1.73087
4.65787 1.38997 -1.73387
4.64987 1.40297 -1.73187
4.66287 1.42297 -1.73987
4.65187 1.42797 -1.73587
4.65487 1.44497 -1.73887
4.64987 1.45897 -1.73887
4.63687 1.48697 -1.73687
4.63787 1.50397 -1.73987
4.62687 1.52397 -1.73787
4.61587 1.55297 -1.73687
4.61387 1.56797 -1.73887
4.60887 1.58297 -1.73887
4.61287 1.59997 -1.74187
4.59387 1.63397 -1.73987
4.44287 -1.64903 -1.68787
4.45087 -1.62103 -1.68687
4.46487 -1.61003 -1.69087
4.46687 -1.59503 -1.68887
4.47487 -1.58203 -1.69087
4.47987 -1.56803 -1.69087
4.48787 -1.56303 -1.69287
4.49087 -1.54803 -1.69187
4.50087 -1.53603 -1.69387
4.51287 -1.52403 -1.69687
4.51887 -1.51003 -1.69787
4.52587 -1.49703 -1.69787
4.54087 -1.48603 -1.70287
4.54387 -1.47903 -1.70287
4.54587 -1.46403 -1.70187
4.56287 -1.45403 -1.70687
4.55887 -1.43703 -1.70287
4.57087 -1.42503 -1.70587
4.58487 -1.39803 -1.70787
4.57787 -1.38803 -1.70487
4.82487 -0.223026 -1.72287
4.83187 -0.0940264 -1.72287
4.83187 -0.0790265 -1.72287
4.82987 -0.0480264 -1.72287
4.83387 -0.0410264 -1.72387
4.83787 -0.0260264 -1.72487
4.83387 -0.0110264 -1.72387
4.69587 0.111974 -1.72187
4.70387 0.126974 -1.72487
4.70087 0.141974 -1.72487
4.69987 0.185974 -1.72487
4.70287 0.200974 -1.72587
4.70587 0.208974 -1.72687
4.70387 0.223974 -1.72687
4.69687 0.252974 -1.72487
4.70087 0.267974 -1.72687
4.70187 0.282974 -1.72687
4.68687 0.295974 -1.72187
4.68387 0.303974 -1.72087
4.69187 0.333974 -1.72487
4.69787 0.348974 -1.72687
4.68587 0.362974 -1.72287
4.67887 0.376974 -1.72087
4.68487 0.392974 -1.72387
4.68287 0.399974 -1.72287
4.69087 0.414974 -1.72687
4.68587 0.429974 -1.72487
4.68987 0.444974 -1.72687
4.68287 0.458974 -1.72487
4.67187 0.472974 -1.72187
4.68487 0.488974 -1.72687
4.68587 0.496974 -1.72787
4.67587 0.524974 -1.72487
4.67587 0.539974 -1.72587
4.66887 0.553974 -1.72387
4.68487 0.570974 -1.73087
4.67787 0.584974 -1.72887
4.66587 0.590974 -1.72487
4.66987 0.606974 -1.72687
4.66187 0.619974 -1.72487
4.67287 0.636974 -1.72987
4.65787 0.649974 -1.72487
4.66887 0.665974 -1.72987
4.67087 0.681974 -1.73087
4.65087 0.700974 -1.72487
4.64687 0.714974 -1.72387
4.66287 0.732974 -1.73087
4.64987 0.745974 -1.72687
4.64887 0.760974 -1.72687
4.64687 0.774974 -1.72687
4.63587 0.780974 -1.72387
4.64987 0.797974 -1.72987
4.63687 0.810974 -1.72587
4.63787 0.825974 -1.72687
4.64087 0.841974 -1.72987
4.62887 0.854974 -1.72587
4.63187 0.869974 -1.72787
4.62287 0.875974 -1.72487
4.63087 0.892974 -1.72987
4.63387 0.907974 -1.73187
4.62387 0.920974 -1.72887
4.62587 0.936974 -1.73087
4.61987 0.950974 -1.72987
4.61687 0.964974 -1.72987
4.61087 0.971974 -1.72787
4.62487 0.989974 -1.73487
4.60487 1.00097 -1.72787
4.61687 1.01897 -1.73387
4.60087 1.02997 -1.72887
4.61187 1.04797 -1.73487
4.60887 1.06997 -1.73487
4.59487 1.11297 -1.73387
4.58387 1.15597 -1.73387
4.57887 1.17697 -1.73387
4.57787 1.19297 -1.73487
4.57087 1.23697 -1.73687
4.56087 1.27297 -1.73687
4.55687 1.28697 -1.73687
4.55187 1.31697 -1.73787
4.51687 1.43797 -1.73887
4.49087 1.49997 -1.73687
4.27187 -1.69803 -1.68287
4.28387 -1.67203 -1.68387
4.29087 -1.65903 -1.68487
4.29487 -1.64503 -1.68387
4.30387 -1.64103 -1.68687
4.30287 -1.62503 -1.68387
4.31987 -1.61603 -1.68887
4.32687 -1.60303 -1.68987
4.32287 -1.58603 -1.68587
4.36087 -1.58403 -1.69987
4.34287 -1.56203 -1.68987
4.35287 -1.55803 -1.69287
4.36087 -1.54603 -1.69487
4.37087 -1.53403 -1.69687
4.38287 -1.52203 -1.69987
4.38787 -1.50903 -1.69987
4.39087 -1.49403 -1.69887
4.40987 -1.48503 -1.70487
4.40287 -1.47503 -1.70087
4.49987 0.820974 -1.73187
4.48787 0.862974 -1.72987
4.47787 0.941974 -1.73187
4.46587 1.00497 -1.73287
4.46287 1.01897 -1.73287
4.08587 -1.75303 -1.67987
4.09687 -1.74203 -1.68187
4.10387 -1.73003 -1.68287
4.11287 -1.71803 -1.68387
4.12187 -1.71503 -1.68687
4.12287 -1.70003 -1.68487
4.13087 -1.68803 -1.68687
4.13687 -1.67503 -1.68687
4.14187 -1.66203 -1.68687
4.15187 -1.65103 -1.68887
4.16587 -1.64203 -1.69287
4.17887 -1.63903 -1.69687
4.17687 -1.62303 -1.69387
4.19387 -1.60003 -1.69687
4.20087 -1.58703 -1.69787
4.21287 -1.56103 -1.69887
4.21487 -1.55503 -1.69887
4.22587 -1.52903 -1.69887
4.23587 -1.51803 -1.70187
3.96687 -1.75003 -1.67987
3.97587 -1.73903 -1.68187
3.97787 -1.72503 -1.67987
3.99487 -1.71703 -1.68487
3.99487 -1.70903 -1.68387
4.02187 -1.70603 -1.69387
4.02387 -1.69203 -1.69187
4.03087 -1.68003 -1.69287
4.03287 -1.66603 -1.69087
4.02387 -1.64803 -1.68487
4.04987 -1.64303 -1.69487
4.04787 -1.63503 -1.69187
4.06487 -1.62703 -1.69787
4.07287 -1.60103 -1.69687
4.08287 -1.59003 -1.69887
4.19587 1.21097 -1.73087
4.17887 1.28497 -1.73287
4.17087 1.30397 -1.73187
4.11987 1.47497 -1.73387
3.99787 1.78897 -1.73587
3.86487 -1.75203 -1.67887
3.86687 -1.73903 -1.67687
3.89087 -1.72003 -1.68287
3.89487 -1.70703 -1.68187
3.89887 -1.70203 -1.68287
3.90787 -1.69103 -1.68487
3.91287 -1.67903 -1.68487
3.92287 -1.66903 -1.68687
3.92687 -1.65603 -1.68587
3.93887 -1.64603 -1.68887
3.95587 -1.63903 -1.69487
3.95887 -1.63303 -1.69487
3.96187 -1.62003 -1.69387
3.96487 -1.60603 -1.69287
3.97687 -1.59703 -1.69587
3.97987 -1.58403 -1.69587
3.98887 -1.57203 -1.69687
4.00087 -1.55603 -1.69887
3.31987 -2.43303 -1.66387
3.80087 -1.73503 -1.69087
3.79987 -1.70603 -1.68587
3.81387 -1.63303 -1.67887
3.82887 -1.61103 -1.68087
3.83587 -1.60003 -1.68187
3.84887 -1.59103 -1.68587
3.84887 -1.57703 -1.68287
3.85987 -1.57503 -1.68687
3.86687 -1.56303 -1.68787
3.87687 -1.55303 -1.69087
3.87287 -1.53803 -1.68687
3.88587 -1.52903 -1.69087
3.89487 -1.51803 -1.69187
3.90087 -1.50603 -1.69287
3.91587 -1.50503 -1.69887
3.91987 -1.49203 -1.69887
3.95087 -1.42603 -1.70087
3.96787 -1.37603 -1.70087
3.57787 -1.81103 -1.67387
3.59087 -1.78903 -1.67387
3.59887 -1.77903 -1.67487
3.60287 -1.77403 -1.67587
3.60987 -1.76303 -1.67687
3.61887 -1.75403 -1.67787
3.62287 -1.74103 -1.67787
3.63287 -1.73203 -1.67987
3.63187 -1.71803 -1.67687
3.64387 -1.71003 -1.67987
3.65287 -1.70703 -1.68287
3.66487 -1.69903 -1.68687
3.66887 -1.68603 -1.68587
3.67287 -1.67403 -1.68487
3.68287 -1.66503 -1.68687
3.69787 -1.65803 -1.69187
3.69787 -1.64403 -1.68987
3.70587 -1.64003 -1.69187
3.71287 -1.62903 -1.69287
3.73487 -1.59703 -1.69587
3.34487 -2.03903 -1.67687
3.35787 -2.01803 -1.67687
3.36987 -1.99703 -1.67687
3.36587 -1.98003 -1.67087
3.39387 -1.82503 -1.68787
3.39987 -1.81403 -1.68787
3.40487 -1.80303 -1.68787
3.39987 -1.78703 -1.68187
3.40987 -1.77903 -1.68387
3.41887 -1.77003 -1.68587
3.42287 -1.76503 -1.68687
3.43387 -1.75703 -1.68887
3.43587 -1.74403 -1.68787
3.44787 -1.73703 -1.69087
3.45287 -1.72603 -1.69087
5.07387 5.40297 -1.73887
5.03787 5.43297 -1.73887
5.02387 5.45197 -1.73987
5.00487 5.46597 -1.73887
4.99587 5.49097 -1.74187
4.97687 5.48697 -1.73787
4.96487 5.50797 -1.73987
4.95087 5.52797 -1.74187
4.92487 5.53397 -1.73787
4.69187 5.30397 -1.72887
4.56387 5.40997 -1.72787
4.55487 5.43497 -1.73187
4.52787 5.43697 -1.72787
4.51587 5.45697 -1.72987
4.49887 5.47197 -1.72987
4.48187 5.46797 -1.72587
4.46487 5.48197 -1.72587
4.45487 5.50497 -1.72887
4.41287 5.52397 -1.72587
4.40387 5.54797 -1.72987
4.37487 5.54897 -1.72487
4.36887 5.55897 -1.72587
4.35787 5.57997 -1.72887
4.31987 5.60397 -1.72787
4.29987 5.61497 -1.72687
4.28187 5.62797 -1.72687
4.26087 5.63697 -1.72487
4.25587 5.64797 -1.72687
4.23487 5.65697 -1.72487
4.20187 5.68797 -1.72687
4.15787 5.70197 -1.72287
4.14487 5.72297 -1.72487
4.65787 4.94097 -1.72887
4.63687 4.94997 -1.72687
4.63687 4.96597 -1.72987
4.61387 4.97197 -1.72687
4.59887 4.98697 -1.72687
4.58387 5.00197 -1.72687
4.56887 5.01797 -1.72787
4.56387 5.04297 -1.73187
4.54987 5.06097 -1.73287
4.53087 5.05497 -1.72787
4.52387 5.07897 -1.73187
4.50487 5.08997 -1.73087
4.48387 5.09897 -1.72887
4.48087 5.12697 -1.73387
4.46187 5.13897 -1.73287
4.44087 5.14697 -1.73087
4.43687 5.15797 -1.73287
4.42387 5.17597 -1.73387
4.40187 5.18297 -1.73187
4.39187 5.20397 -1.73387
4.37287 5.21497 -1.73287
4.35187 5.22297 -1.73087
4.33887 5.24097 -1.73287
4.32287 5.23897 -1.72887
4.30987 5.25697 -1.73087
4.30087 5.27897 -1.73387
4.28187 5.28997 -1.73287
4.25487 5.28897 -1.72787
4.24287 5.30897 -1.72987
4.22387 5.31897 -1.72887
4.20887 5.31797 -1.72687
4.18787 5.32497 -1.72487
4.18287 5.35397 -1.72987
4.15387 5.35197 -1.72487
4.14487 5.37397 -1.72787
4.11087 5.36497 -1.72087
4.11687 5.40697 -1.72987
4.09687 5.41697 -1.72887
4.08287 5.41597 -1.72687
4.06587 5.42897 -1.72687
4.04387 5.43497 -1.72487
4.03287 5.45597 -1.72687
4.01287 5.46497 -1.72587
3.99587 5.47797 -1.72587
3.97787 5.48897 -1.72587
3.96187 5.48597 -1.72287
3.95387 5.51097 -1.72687
3.93587 5.52097 -1.72587
3.91187 5.52397 -1.72287
3.89887 5.54297 -1.72487
3.87987 5.55297 -1.72487
3.85687 5.55797 -1.72187
3.85387 5.57197 -1.72487
3.83587 5.58397 -1.72487
3.81987 5.59697 -1.72487
3.79887 5.60497 -1.72387
3.78287 5.61797 -1.72387
3.76287 5.62697 -1.72287
3.75687 5.63697 -1.72487
3.72987 5.63497 -1.71987
3.71687 5.65397 -1.72287
3.69887 5.66497 -1.72187
2.52987 5.54197 -1.69687
4.04187 4.33897 -1.72087
4.01287 4.33397 -1.71387
4.00787 4.35697 -1.71787
3.97887 4.35197 -1.71087
3.96887 4.36897 -1.71187
3.97287 4.38697 -1.71687
3.94687 4.38597 -1.71187
3.94087 4.40697 -1.71487
3.92587 4.41797 -1.71487
3.90487 4.42197 -1.71087
3.87287 4.44197 -1.70987
3.84987 4.48697 -1.71487
3.81687 4.50497 -1.71287
3.75887 4.53597 -1.70887
3.72187 4.57897 -1.71187
3.70287 4.58497 -1.70987
3.68487 4.59197 -1.70787
3.68287 4.60497 -1.71087
3.64787 4.64997 -1.71487
3.60287 4.65197 -1.70687
3.60087 4.67997 -1.71287
3.58087 4.66897 -1.70687
3.56687 4.68197 -1.70687
3.55287 4.69397 -1.70787
3.52387 4.71697 -1.70787
3.51487 4.73497 -1.71087
3.49187 4.73597 -1.70687
3.49187 4.75197 -1.71087
3.47487 4.75997 -1.70987
3.45487 4.76297 -1.70687
3.43187 4.79497 -1.71087
3.38787 4.81297 -1.70687
3.36287 4.84197 -1.70987
3.29187 4.86897 -1.70487
3.28587 4.87597 -1.70487
3.25387 4.89497 -1.70487
3.22187 4.91397 -1.70387
3.20587 4.92197 -1.70387
2.94287 5.07497 -1.70087
2.92787 5.08597 -1.70187
2.91087 5.09397 -1.70087
2.89687 5.10597 -1.70187
2.87987 5.11497 -1.70187
2.86087 5.11697 -1.69987
2.85487 5.12497 -1.70087
2.83587 5.12897 -1.69887
2.82487 5.14797 -1.70287
2.78387 5.15097 -1.69787
2.74787 5.18097 -1.70087
2.71387 5.19497 -1.69887
2.69587 5.19997 -1.69787
2.67787 5.20497 -1.69687
2.66387 5.21797 -1.69887
2.65787 5.24697 -1.70587
2.61987 5.23397 -1.69687
2.58987 5.25497 -1.69887
2.57387 5.26297 -1.69887
2.56287 5.28397 -1.70287
2.53787 5.27397 -1.69687
2.52987 5.27997 -1.69787
2.51487 5.28997 -1.69787
2.49387 5.28897 -1.69487
2.45887 5.30097 -1.69387
2.44287 5.30997 -1.69487
2.41887 5.32397 -1.69487
2.40487 5.33797 -1.69787
2.38587 5.33897 -1.69487
2.37087 5.35097 -1.69687
2.35287 5.35697 -1.69587
2.31987 5.37197 -1.69587
2.30687 5.36497 -1.69287
2.29087 5.37397 -1.69387
2.27687 5.38997 -1.69587
2.26387 5.40597 -1.69887
2.23787 5.39197 -1.69187
2.22187 5.39897 -1.69187
2.20787 5.41497 -1.69487
2.19687 5.41097 -1.69287
2.18687 5.43597 -1.69887
2.16387 5.42797 -1.69387
2.14787 5.43797 -1.69487
2.12987 5.44197 -1.69387
2.11187 5.44697 -1.69387
2.09687 5.45797 -1.69487
2.07687 5.45597 -1.69187
2.06887 5.46297 -1.69387
2.05087 5.46597 -1.69187
2.03787 5.48497 -1.69587
2.01487 5.47497 -1.69087
1.99887 5.48297 -1.69187
1.98287 5.49297 -1.69287
1.96787 5.50597 -1.69487
1.95887 5.50897 -1.69487
1.94387 5.52097 -1.69687
1.92487 5.52197 -1.69487
1.74087 5.57997 -1.69487
1.73387 5.58897 -1.69587
1.71687 5.59797 -1.69787
1.69887 5.59897 -1.69587
1.64687 5.61897 -1.69787
1.62787 5.61997 -1.69587
1.61987 5.62597 -1.69787
1.60187 5.62797 -1.69587
1.58287 5.62897 -1.69487
1.56887 5.64897 -1.69987
1.55187 5.65397 -1.69987
1.53087 5.64697 -1.69587
1.51487 5.66197 -1.69887
1.49387 5.65097 -1.69487
1.48387 5.64797 -1.69287
1.46787 5.65997 -1.69487
1.44687 5.65197 -1.69087
1.42987 5.66197 -1.69287
1.41487 5.67797 -1.69587
1.39487 5.67297 -1.69387
1.37587 5.67097 -1.69187
1.37287 5.69797 -1.69887
1.35387 5.69697 -1.69787
1.33287 5.68797 -1.69387
1.31587 5.69597 -1.69487
1.29587 5.69197 -1.69187
1.27987 5.70397 -1.69487
1.26387 5.71897 -1.69787
1.25187 5.70397 -1.69287
1.23687 5.72097 -1.69687
1.19987 5.72497 -1.69587
1.18087 5.72697 -1.69487
1.14587 5.73597 -1.69587
1.13587 5.73197 -1.69387
1.11787 5.73797 -1.69487
1.06387 5.74797 -1.69487
0.94487 5.76297 -1.69287
0.92487 5.75297 -1.68887
0.89787 5.75697 -1.68887
0.88087 5.76497 -1.69087
0.86287 5.77197 -1.69187
0.84387 5.76697 -1.68887
0.78987 5.77797 -1.69087
0.78087 5.78197 -1.69087
0.74487 5.78297 -1.68987
0.72487 5.77497 -1.68687
0.70787 5.78497 -1.68887
0.68887 5.78397 -1.68787
0.64287 5.78297 -1.68587
0.62487 5.77897 -1.68487
0.60687 5.78697 -1.68587
0.58787 5.78497 -1.68487
0.56887 5.77597 -1.68187
0.55187 5.78697 -1.68487
0.53187 5.77097 -1.67887
0.52387 5.78397 -1.68287
0.50687 5.79297 -1.68487
0.48587 5.76797 -1.67687
0.46887 5.78097 -1.68087
0.44987 5.77597 -1.67887
0.43187 5.77197 -1.67687
0.41387 5.77297 -1.67687
0.40487 5.77597 -1.67787
3.84287 4.28197 -1.72687
3.82787 4.29297 -1.72587
3.82087 4.29897 -1.72587
3.80287 4.30497 -1.72387
3.78287 4.30997 -1.72087
3.78087 4.33497 -1.72587
3.75787 4.33597 -1.72187
3.74987 4.35397 -1.72387
3.73987 4.36997 -1.72587
3.72487 4.36697 -1.72187
3.70987 4.37697 -1.72187
3.68387 4.40197 -1.72187
3.66887 4.41197 -1.72187
3.65787 4.42697 -1.72287
3.63887 4.43197 -1.72087
3.62887 4.43497 -1.71887
3.62287 4.45497 -1.72287
3.60387 4.46097 -1.72087
3.58887 4.47097 -1.71987
3.57787 4.48597 -1.72187
3.55087 4.48097 -1.71487
3.54487 4.50297 -1.71887
3.53687 4.50697 -1.71887
3.51987 4.51497 -1.71687
3.50787 4.52897 -1.71887
3.50087 4.54897 -1.72187
3.48587 4.55797 -1.72187
3.46587 4.56197 -1.71887
3.45387 4.57597 -1.71987
3.44887 4.58397 -1.72087
3.42187 4.57797 -1.71387
3.42087 4.60697 -1.72187
3.40487 4.61597 -1.72087
3.38987 4.62597 -1.72087
3.37687 4.63897 -1.72187
3.35787 4.64397 -1.71887
3.34987 4.64697 -1.71887
3.33587 4.65897 -1.71887
3.31187 4.65597 -1.71387
3.29787 4.66797 -1.71387
3.28587 4.68097 -1.71587
3.27287 4.69497 -1.71687
3.25487 4.69997 -1.71487
3.24087 4.71197 -1.71587
3.23387 4.71697 -1.71587
3.21787 4.72597 -1.71487
3.19987 4.73097 -1.71287
3.18787 4.74597 -1.71487
3.16687 4.74597 -1.71087
3.15987 4.76697 -1.71587
3.14087 4.77297 -1.71387
3.13387 4.77697 -1.71387
3.11587 4.78297 -1.71187
3.09587 4.78397 -1.70887
3.08587 4.80197 -1.71187
3.06587 4.80497 -1.70987
3.05687 4.82497 -1.71287
3.03487 4.82297 -1.70887
3.03187 4.83397 -1.71087
3.01387 4.83997 -1.70987
2.99787 4.84797 -1.70987
2.98787 4.86597 -1.71287
2.96787 4.86697 -1.70987
2.94987 4.87297 -1.70787
2.95087 4.89097 -1.71287
2.92987 4.89197 -1.70987
2.91587 4.90197 -1.71087
2.90587 4.92097 -1.71387
2.87787 4.90897 -1.70687
2.86887 4.92797 -1.70987
2.84987 4.93197 -1.70787
2.83287 4.93797 -1.70687
2.81787 4.93097 -1.70287
2.80987 4.95097 -1.70687
2.79687 4.96497 -1.70887
2.77687 4.96497 -1.70587
2.75887 4.97097 -1.70487
2.74687 4.98597 -1.70687
