10.1067 2.70593 -0.770958
10.0247 2.71793 -0.763958
9.86166 2.72393 -0.748958
9.78266 2.73593 -0.742958
9.70866 2.74793 -0.735958
9.62666 2.75793 -0.729958
9.46366 2.77593 -0.715958
9.40466 2.77493 -0.709958
9.34366 2.78893 -0.704958
9.26066 2.79593 -0.697958
9.18866 2.80593 -0.691958
9.12266 2.81793 -0.686958
9.04166 2.82393 -0.679958
8.85966 2.84393 -0.663958
8.76766 2.84493 -0.655958
8.72466 2.86193 -0.652958
8.64766 2.86693 -0.645958
8.58566 2.87593 -0.640958
8.51566 2.88293 -0.634958
8.47166 2.88293 -0.631958
8.35866 2.90393 -0.621958
8.23966 2.92093 -0.612958
8.15466 2.91993 -0.604958
7.99866 2.93593 -0.591958
7.94266 2.94393 -0.587958
7.88166 2.94893 -0.582958
7.83066 2.95793 -0.578958
13.0227 2.35993 -1.10996
12.8647 2.37293 -1.09496
12.7617 2.39493 -1.08496
12.6227 2.40993 -1.07196
12.5197 2.41093 -1.06196
12.3887 2.42493 -1.04996
12.2857 2.44493 -1.03996
12.1527 2.45793 -1.02796
11.9387 2.49293 -1.00796
11.7227 2.50493 -0.986958
11.6387 2.52493 -0.978958
11.5157 2.53593 -0.967958
11.3177 2.56593 -0.949958
11.0137 2.58793 -0.920958
10.9267 2.60393 -0.912958
10.8237 2.61493 -0.902958
10.6337 2.63893 -0.885958
10.5617 2.65593 -0.878958
10.4707 2.65093 -0.870958
10.4057 2.66893 -0.864958
10.2997 2.67593 -0.854958
10.2347 2.69393 -0.848958
10.1287 2.69893 -0.838958
9.91166 2.72493 -0.818958
9.83366 2.73593 -0.811958
9.66366 2.75393 -0.796958
9.51766 2.77693 -0.783958
9.38666 2.78593 -0.770958
9.23366 2.80393 -0.757958
9.16766 2.81493 -0.751958
8.95566 2.84193 -0.732958
8.81666 2.84293 -0.719958
8.78166 2.86193 -0.716958
8.69266 2.86393 -0.708958
8.56766 2.88193 -0.697958
8.45366 2.88793 -0.686958
8.33266 2.90393 -0.675958
8.11466 2.92793 -0.656958
8.06066 2.93693 -0.651958
7.99766 2.94293 -0.646958
7.89166 2.95993 -0.637958
7.76866 2.96893 -0.626958
12.0357 2.46893 -1.09196
11.9267 2.48593 -1.08096
11.8117 2.50093 -1.06996
11.7117 2.51893 -1.05996
11.6147 2.51693 -1.04996
11.5097 2.53293 -1.03996
11.4117 2.54893 -1.02996
11.3027 2.56193 -1.01996
11.1977 2.57593 -1.00896
11.1007 2.58993 -0.999958
10.9997 2.60293 -0.989958
10.9047 2.59893 -0.979958
10.8167 2.61393 -0.970958
10.7177 2.62593 -0.961958
10.6207 2.63793 -0.951958
10.5327 2.65193 -0.943958
10.4417 2.66393 -0.934958
10.3527 2.67593 -0.925958
10.2787 2.67393 -0.917958
10.2007 2.68893 -0.910958
10.1097 2.69893 -0.901958
10.0417 2.71493 -0.895958
9.95866 2.72593 -0.886958
9.72166 2.74393 -0.863958
9.63866 2.75293 -0.855958
9.57066 2.76693 -0.849958
9.49666 2.77793 -0.842958
9.41566 2.78593 -0.834958
9.20466 2.80293 -0.813958
9.14066 2.81593 -0.807958
9.06566 2.82393 -0.800958
8.99966 2.83393 -0.794958
8.85466 2.84993 -0.780958
8.80066 2.84893 -0.774958
8.73166 2.85693 -0.768958
8.67166 2.86693 -0.762958
8.59766 2.87293 -0.755958
8.53966 2.88393 -0.750958
8.47066 2.88993 -0.743958
8.42166 2.90293 -0.739958
8.36266 2.89793 -0.733958
8.31266 2.90993 -0.728958
8.23766 2.91293 -0.721958
8.19966 2.92893 -0.718958
8.11966 2.92893 -0.710958
8.07466 2.94193 -0.706958
8.00166 2.94393 -0.699958
7.96766 2.94593 -0.695958
7.89666 2.94793 -0.689958
7.86166 2.96293 -0.686958
7.80366 2.96893 -0.680958
11.2457 2.56393 -1.08996
11.1567 2.58093 -1.07996
11.0557 2.59393 -1.06996
10.9647 2.60793 -1.05996
10.8657 2.60293 -1.04896
10.7857 2.61893 -1.04096
10.6947 2.63293 -1.03196
10.5917 2.64193 -1.02096
10.5067 2.65593 -1.01196
10.4057 2.66493 -1.00196
10.3317 2.68093 -0.993958
10.2487 2.67593 -0.984958
10.1747 2.69093 -0.977958
10.0877 2.70093 -0.967958
10.0157 2.71593 -0.960958
9.93666 2.72793 -0.952958
9.85566 2.73793 -0.944958
9.77466 2.73193 -0.935958
9.69466 2.74293 -0.927958
9.62866 2.75693 -0.920958
9.55566 2.76793 -0.913958
9.47266 2.77593 -0.904958
9.40866 2.78893 -0.898958
9.27366 2.79593 -0.883958
9.19466 2.80393 -0.875958
9.12666 2.81393 -0.869958
9.05866 2.82493 -0.862958
8.98366 2.83193 -0.854958
8.80266 2.84993 -0.835958
8.74666 2.86293 -0.830958
8.67166 2.86793 -0.822958
8.60566 2.87593 -0.816958
8.54966 2.88693 -0.810958
8.48966 2.89593 -0.804958
8.42866 2.88993 -0.798958
8.20666 2.92893 -0.776958
7.81666 2.96993 -0.737958
10.3857 2.65893 -1.06496
10.2967 2.67093 -1.05596
10.2147 2.68493 -1.04696
9.90466 2.72093 -1.01296
9.82666 2.73293 -1.00396
9.74566 2.74293 -0.995958
9.67566 2.75693 -0.987958
9.59566 2.74993 -0.978958
9.52366 2.76193 -0.970958
9.45366 2.77393 -0.963958
9.37466 2.78293 -0.954958
9.29866 2.79293 -0.946958
9.23866 2.80693 -0.940958
9.17366 2.80293 -0.932958
9.10166 2.81193 -0.925958
9.03266 2.82193 -0.917958
8.96466 2.83193 -0.910958
8.89666 2.84193 -0.903958
8.83866 2.85393 -0.897958
8.75966 2.85893 -0.888958
8.70266 2.85593 -0.882958
8.64066 2.86593 -0.875958
8.58066 2.87593 -0.869958
8.52266 2.88593 -0.863958
8.46466 2.89693 -0.857958
8.39166 2.90093 -0.849958
8.33166 2.90993 -0.842958
8.28366 2.90793 -0.837958
8.21466 2.91293 -0.830958
8.16066 2.92293 -0.824958
8.11066 2.93393 -0.819958
8.04666 2.93993 -0.812958
7.99666 2.94993 -0.807958
7.93866 2.95693 -0.801958
7.88366 2.95093 -0.795958
7.82466 2.95693 -0.789958
7.78366 2.96993 -0.785958
9.79966 2.73793 -1.05996
9.65066 2.74493 -1.04296
9.58866 2.75993 -1.03596
9.49966 2.76593 -1.02596
9.43766 2.77993 -1.01896
9.34766 2.78493 -1.00796
9.29466 2.80193 -1.00296
9.21866 2.79393 -0.992958
9.15666 2.80693 -0.986958
9.08866 2.81693 -0.978958
9.03066 2.82993 -0.972958
8.96166 2.83893 -0.964958
8.89166 2.84793 -0.956958
8.82266 2.85593 -0.948958
8.75266 2.84793 -0.940958
8.69966 2.86093 -0.934958
8.64166 2.87193 -0.928958
8.57666 2.87993 -0.920958
8.51066 2.88793 -0.913958
8.45666 2.89893 -0.907958
8.40166 2.89393 -0.901958
8.34166 2.90293 -0.894958
8.28466 2.91193 -0.888958
8.22666 2.92093 -0.882958
8.16166 2.92593 -0.874958
8.11266 2.93693 -0.869958
8.05166 2.94393 -0.862958
7.99466 2.93693 -0.855958
7.94666 2.94693 -0.850958
7.88166 2.95093 -0.843958
7.83866 2.96293 -0.839958
7.78866 2.97193 -0.833958
9.18366 2.79893 -1.03896
9.10866 2.80793 -1.02996
8.92966 2.82993 -1.00896
8.79766 2.84993 -0.993958
8.72266 2.85593 -0.984958
8.67066 2.86893 -0.978958
8.54566 2.87293 -0.963958
8.47466 2.87893 -0.955958
8.41866 2.88993 -0.948958
8.35666 2.89793 -0.941958
8.30866 2.91093 -0.936958
8.24266 2.91693 -0.928958
8.19766 2.91593 -0.923958
8.08366 2.93293 -0.910958
8.00566 2.93293 -0.900958
7.96666 2.94693 -0.896958
7.89966 2.95093 -0.888958
8.75166 2.84693 -1.05196
8.66166 2.86193 -1.04096
8.21066 2.91193 -1.04496
8.17366 2.92793 -1.04096
7.79866 2.97593 -0.992958
0.0726605 -4.97907 0.368042
0.0876605 -4.98707 0.368042
0.12666 -4.98407 0.368042
0.14266 -4.98507 0.368042
0.15866 -4.99907 0.368042
0.17466 -4.98607 0.368042
0.19066 -5.00007 0.368042
0.21366 -5.00107 0.368042
0.22966 -5.00407 0.369042
0.24566 -4.99907 0.368042
0.27666 -5.00007 0.368042
0.29366 -5.00507 0.369042
0.30066 -5.00207 0.369042
0.31766 -5.01707 0.369042
0.33366 -5.01207 0.369042
0.34966 -5.01507 0.369042
0.36466 -5.01407 0.369042
0.38066 -5.01107 0.369042
0.39666 -5.01007 0.369042
0.40566 -5.02307 0.370042
0.42066 -5.01807 0.369042
0.43666 -5.02007 0.370042
0.45366 -5.02707 0.370042
0.48466 -5.02407 0.370042
0.50066 -5.02507 0.370042
0.51066 -5.03807 0.370042
0.52666 -5.03807 0.370042
0.54166 -5.03207 0.370042
0.59066 -5.03907 0.371042
0.60066 -5.05407 0.371042
0.61666 -5.05007 0.371042
0.63166 -5.04607 0.371042
0.64866 -5.05207 0.371042
0.66366 -5.04607 0.371042
0.68066 -5.05007 0.371042
0.69766 -5.05707 0.372042
0.70666 -5.06407 0.372042
0.72266 -5.06207 0.372042
0.73966 -5.06607 0.372042
0.75566 -5.06107 0.372042
0.77366 -5.07307 0.373042
0.78866 -5.06807 0.373042
0.80466 -5.06607 0.373042
0.81366 -5.07007 0.373042
0.84666 -5.07307 0.373042
0.86366 -5.07607 0.373042
0.87966 -5.07407 0.373042
0.89766 -5.08107 0.374042
0.91366 -5.08007 0.374042
0.92466 -5.09207 0.374042
0.94066 -5.08907 0.374042
0.95766 -5.09207 0.374042
0.97366 -5.08907 0.374042
1.00766 -5.09307 0.375042
1.01666 -5.09707 0.375042
1.03466 -5.10307 0.375042
1.04966 -5.09607 0.375042
1.06866 -5.10307 0.375042
1.08466 -5.10307 0.376042
1.10066 -5.09607 0.375042
1.12866 -5.11007 0.376042
1.16166 -5.10507 0.376042
1.18066 -5.11507 0.377042
1.19766 -5.11507 0.377042
1.21566 -5.11907 0.377042
1.22366 -5.11707 0.377042
1.23966 -5.11507 0.377042
1.27866 -5.13207 0.378042
1.31266 -5.13207 0.378042
1.32966 -5.13207 0.378042
1.34666 -5.12907 0.378042
1.35366 -5.12507 0.378042
1.37366 -5.13307 0.379042
1.44366 -5.13607 0.380042
1.45266 -5.13807 0.380042
1.47366 -5.14807 0.380042
1.54366 -5.14907 0.381042
1.57366 -5.15907 0.381042
1.60966 -5.16007 0.382042
1.71166 -5.16907 0.383042
2.03966 -5.20807 0.388042
2.12966 -5.21907 0.390042
2.22066 -5.22907 0.391042
2.26366 -5.23907 0.392042
2.33466 -5.24507 0.393042
2.37666 -5.24807 0.394042
2.42066 -5.25807 0.395042
2.43066 -5.25607 0.395042
2.49666 -5.26907 0.396042
2.61466 -5.27907 0.398042
2.71266 -5.28807 0.400042
2.73566 -5.29107 0.401042
2.82666 -5.30207 0.402042
2.99866 -5.33807 0.406042
3.06166 -5.33207 0.407042
3.08466 -5.33307 0.407042
3.13566 -5.34207 0.409042
3.14766 -5.34407 0.409042
3.17266 -5.34807 0.409042
3.19566 -5.34807 0.410042
3.22966 -5.36607 0.411042
3.28466 -5.36107 0.412042
3.30766 -5.36007 0.412042
3.36666 -5.38007 0.414042
3.43666 -5.37807 0.415042
3.45466 -5.38807 0.416042
3.47766 -5.38607 0.416042
3.50666 -5.39307 0.417042
3.52766 -5.38907 0.417042
3.56066 -5.40207 0.418042
3.58366 -5.40007 0.418042
3.61066 -5.40307 0.419042
3.62166 -5.40107 0.419042
3.65166 -5.40907 0.420042
3.67166 -5.40307 0.420042
3.71066 -5.42207 0.421042
3.72966 -5.41407 0.421042
3.76666 -5.43007 0.423042
3.80766 -5.43507 0.424042
3.82466 -5.42307 0.424042
3.85566 -5.43107 0.424042
3.88566 -5.43607 0.425042
3.90966 -5.43407 0.425042
3.96366 -5.45407 0.427042
4.01566 -5.45307 0.428042
4.04066 -5.45007 0.429042
4.07566 -5.46107 0.430042
4.12866 -5.46107 0.431042
4.14266 -5.46107 0.431042
4.18366 -5.47907 0.432042
4.20366 -5.46907 0.432042
4.23266 -5.47207 0.433042
4.30066 -5.48807 0.435042
4.31166 -5.48407 0.435042
4.35366 -5.50207 0.436042
4.40266 -5.49107 0.437042
4.46766 -5.50107 0.439042
4.49866 -5.50407 0.439042
4.54966 -5.51307 0.441042
4.57966 -5.51407 0.442042
4.61666 -5.52307 0.443042
4.73466 -5.53807 0.446042
4.76066 -5.53407 0.446042
4.79966 -5.54307 0.447042
4.83166 -5.54407 0.448042
4.86566 -5.54907 0.449042
4.90366 -5.55607 0.450042
4.99266 -5.56707 0.452042
5.02366 -5.56607 0.453042
5.05966 -5.57107 0.454042
5.10366 -5.58507 0.455042
5.13366 -5.58207 0.456042
5.17066 -5.58607 0.457042
5.19566 -5.59607 0.457042
5.22866 -5.59507 0.458042
5.26466 -5.59907 0.459042
5.30166 -5.60307 0.460042
5.33766 -5.60507 0.461042
5.38166 -5.61507 0.462042
5.40866 -5.62607 0.463042
5.44966 -5.63307 0.464042
5.47966 -5.62907 0.465042
5.51466 -5.62907 0.466042
5.55266 -5.63207 0.467042
5.59366 -5.63807 0.468042
5.66266 -5.65307 0.470042
5.70266 -5.65807 0.471042
5.74066 -5.66007 0.472042
5.77666 -5.66007 0.473042
5.85966 -5.66907 0.475042
5.89966 -5.67107 0.476042
5.92866 -5.68107 0.477042
5.97866 -5.69307 0.478042
6.00966 -5.68607 0.479042
6.05366 -5.69207 0.480042
6.09466 -5.69507 0.481042
6.14066 -5.70107 0.482042
6.17466 -5.71507 0.484042
6.20866 -5.71007 0.484042
6.25366 -5.71507 0.486042
6.29966 -5.72107 0.487042
6.46666 -5.74407 0.492042
6.51066 -5.74607 0.493042
6.56866 -5.76107 0.495042
6.61466 -5.76307 0.496042
6.65866 -5.76507 0.497042
6.74266 -5.78307 0.500042
6.78566 -5.78207 0.501042
6.83266 -5.78507 0.502042
6.93166 -5.79507 0.505042
7.03966 -5.80907 0.508042
7.06866 -5.81507 0.509042
7.12866 -5.82607 0.510042
7.17466 -5.82707 0.512042
7.23266 -5.83507 0.513042
7.39566 -5.85207 0.518042
7.44066 -5.86907 0.520042
7.55766 -5.88407 0.523042
7.60466 -5.88307 0.524042
7.65666 -5.88407 0.526042
7.72266 -5.89607 0.528042
7.77666 -5.89907 0.529042
8.00466 -5.93407 0.536042
8.06566 -5.93907 0.538042
8.11866 -5.93807 0.539042
8.18166 -5.94607 0.541042
8.23566 -5.96407 0.543042
8.29266 -5.96607 0.545042
8.35766 -5.97307 0.546042
8.41666 -5.97507 0.548042
0.0676605 -4.98407 0.336042
0.0826605 -4.98207 0.336042
0.0986605 -4.98807 0.336042
0.11466 -4.99507 0.336042
0.12966 -4.98307 0.336042
0.14566 -4.99807 0.336042
0.15366 -5.00007 0.336042
0.18466 -4.99707 0.336042
0.21666 -5.00607 0.336042
0.24866 -5.00607 0.336042
0.25666 -5.01207 0.337042
0.27266 -5.01307 0.337042
0.28866 -5.01607 0.337042
0.30366 -5.01107 0.337042
0.35966 -5.02007 0.337042
0.37566 -5.02007 0.337042
0.39166 -5.02107 0.337042
0.40766 -5.02407 0.337042
0.42366 -5.02307 0.337042
0.46466 -5.03507 0.338042
0.49566 -5.03407 0.338042
0.51166 -5.03507 0.338042
0.52866 -5.04307 0.338042
0.54466 -5.03907 0.338042
0.55266 -5.04407 0.338042
0.60166 -5.04907 0.338042
0.61866 -5.05307 0.339042
0.63266 -5.04107 0.338042
0.65066 -5.05507 0.339042
0.67566 -5.05807 0.339042
0.69266 -5.06307 0.339042
0.70866 -5.06507 0.339042
0.72466 -5.06307 0.339042
0.78266 -5.06807 0.340042
0.81466 -5.06907 0.340042
0.84966 -5.08407 0.340042
0.89166 -5.08507 0.340042
0.90766 -5.08607 0.341042
0.94066 -5.08207 0.341042
0.95866 -5.09307 0.341042
0.98466 -5.09807 0.341042
0.99966 -5.09107 0.341042
1.03466 -5.10007 0.342042
1.05066 -5.09707 0.342042
1.06166 -5.10907 0.342042
1.07566 -5.09607 0.342042
1.09266 -5.09907 0.342042
1.12966 -5.11507 0.343042
1.14666 -5.11507 0.343042
1.16266 -5.10807 0.343042
1.18066 -5.11407 0.343042
1.18866 -5.11407 0.343042
1.20866 -5.12607 0.343042
1.22366 -5.11807 0.343042
1.25866 -5.12407 0.344042
1.27666 -5.12407 0.344042
1.28666 -5.13207 0.344042
1.30266 -5.12607 0.344042
1.31966 -5.12707 0.344042
1.35366 -5.12507 0.344042
1.37166 -5.12807 0.344042
1.39066 -5.13507 0.345042
1.39966 -5.13507 0.345042
1.41766 -5.14007 0.345042
1.43666 -5.14407 0.345042
1.45366 -5.14307 0.345042
1.49766 -5.14507 0.346042
1.55266 -5.15107 0.346042
1.70966 -5.16907 0.348042
1.93766 -5.19707 0.351042
2.00666 -5.20707 0.352042
2.13566 -5.22007 0.354042
2.17566 -5.22507 0.354042
7.23666 -5.83307 0.454042
7.54966 -5.87507 0.462042
7.66166 -5.88507 0.464042
7.92866 -5.91507 0.470042
7.99266 -5.92407 0.472042
8.28166 -5.95907 0.479042
8.34666 -5.96707 0.481042
2.41366 -5.27007 0.330042
2.43466 -5.27307 0.331042
2.45566 -5.27507 0.331042
2.53166 -5.28507 0.332042
2.65266 -5.29907 0.333042
2.77266 -5.30807 0.335042
2.84566 -5.32307 0.336042
2.87866 -5.32407 0.336042
2.94766 -5.33207 0.337042
2.97266 -5.33607 0.337042
3.01666 -5.33707 0.338042
3.08166 -5.35207 0.339042
3.14766 -5.34907 0.340042
3.17766 -5.36107 0.340042
3.21466 -5.36707 0.341042
3.23666 -5.36507 0.341042
3.28766 -5.37207 0.342042
3.35366 -5.38507 0.343042
3.37466 -5.37907 0.343042
3.42866 -5.39007 0.344042
3.45366 -5.39307 0.344042
3.57466 -5.41007 0.346042
3.60166 -5.41407 0.346042
3.62766 -5.41507 0.347042
3.64066 -5.41607 0.347042
3.69566 -5.42507 0.348042
3.75066 -5.43107 0.349042
3.80266 -5.43307 0.349042
3.82066 -5.44007 0.350042
3.90566 -5.45107 0.351042
3.93366 -5.45307 0.351042
3.96066 -5.45607 0.352042
3.98966 -5.45907 0.352042
4.00466 -5.46107 0.353042
4.03366 -5.46407 0.353042
4.06166 -5.46607 0.353042
4.09466 -5.47407 0.354042
4.11966 -5.47207 0.354042
4.14466 -5.46907 0.355042
4.17466 -5.47307 0.355042
4.22266 -5.48207 0.356042
4.25566 -5.48907 0.356042
4.28466 -5.49007 0.357042
4.31166 -5.48907 0.357042
4.34766 -5.49907 0.358042
4.37466 -5.49807 0.358042
4.39566 -5.50607 0.359042
4.42866 -5.51107 0.359042
4.45666 -5.51107 0.360042
4.49366 -5.52007 0.360042
4.51966 -5.51707 0.361042
4.54966 -5.51807 0.361042
4.57066 -5.52607 0.362042
4.60766 -5.53507 0.362042
4.63566 -5.53307 0.363042
4.66666 -5.53507 0.363042
4.70166 -5.54007 0.364042
4.73466 -5.54307 0.364042
4.77166 -5.55107 0.365042
4.79066 -5.55607 0.365042
4.81966 -5.55407 0.366042
4.85266 -5.55707 0.366042
4.88766 -5.56107 0.367042
4.91866 -5.56107 0.367042
4.94766 -5.55907 0.368042
4.98766 -5.56807 0.369042
5.00766 -5.57207 0.369042
5.04666 -5.58007 0.370042
5.08566 -5.58807 0.370042
5.11666 -5.58707 0.371042
5.15366 -5.59107 0.371042
5.18466 -5.58907 0.372042
5.21066 -5.60007 0.373042
5.25066 -5.60707 0.373042
5.28866 -5.61207 0.374042
5.32766 -5.61707 0.375042
5.36266 -5.61907 0.375042
5.39566 -5.61807 0.376042
5.43966 -5.62907 0.377042
5.50566 -5.64307 0.378042
5.53866 -5.64107 0.378042
5.57766 -5.64507 0.379042
5.62066 -5.65307 0.380042
5.65566 -5.65207 0.380042
5.80166 -5.67207 0.383042
5.85166 -5.68407 0.384042
5.88066 -5.67707 0.384042
5.92766 -5.68607 0.385042
5.95566 -5.69407 0.386042
5.99766 -5.69907 0.387042
6.03466 -5.69807 0.387042
6.08366 -5.70807 0.388042
6.12766 -5.71307 0.389042
6.16866 -5.71507 0.390042
6.20766 -5.71507 0.390042
6.22966 -5.71707 0.391042
6.28366 -5.73007 0.392042
6.32766 -5.73407 0.393042
6.36666 -5.73307 0.393042
6.41366 -5.73807 0.394042
6.46466 -5.74707 0.395042
6.50466 -5.74607 0.396042
6.53766 -5.75707 0.397042
6.58466 -5.76207 0.398042
6.63166 -5.76607 0.398042
6.67966 -5.77107 0.399042
6.72366 -5.77207 0.400042
6.77866 -5.78207 0.401042
6.82266 -5.78207 0.402042
6.86666 -5.80107 0.403042
6.91066 -5.80107 0.404042
6.96166 -5.80607 0.405042
7.01566 -5.81407 0.406042
7.05666 -5.81107 0.406042
7.11266 -5.81907 0.408042
7.15566 -5.83507 0.409042
7.20666 -5.83907 0.410042
7.25766 -5.84307 0.410042
7.31466 -5.85107 0.412042
7.37266 -5.85907 0.413042
7.42066 -5.85907 0.414042
7.48466 -5.87207 0.415042
7.58366 -5.89107 0.417042
7.64166 -5.89807 0.418042
7.69666 -5.90207 0.419042
7.75366 -5.90607 0.420042
7.80566 -5.90707 0.421042
8.03766 -5.94407 0.426042
8.09866 -5.95007 0.427042
8.16366 -5.95807 0.428042
8.21966 -5.96007 0.430042
8.33066 -5.98007 0.432042
8.39366 -5.98507 0.433042
8.45866 -5.99107 0.434042
8.51666 -5.99207 0.435042
0.29766 -5.01807 0.274042
1.01166 -5.10207 0.277042
1.02766 -5.10107 0.277042
1.06166 -5.10407 0.277042
1.07966 -5.10607 0.277042
1.12266 -5.11507 0.277042
1.17366 -5.11407 0.278042
1.20066 -5.12207 0.278042
1.23466 -5.12207 0.278042
1.26866 -5.12207 0.278042
1.28766 -5.13007 0.278042
1.30566 -5.13407 0.278042
1.31566 -5.13707 0.278042
1.34966 -5.13907 0.279042
1.38666 -5.14707 0.279042
1.42066 -5.14307 0.279042
1.44966 -5.15507 0.279042
1.48566 -5.15707 0.279042
1.52066 -5.15807 0.279042
1.54866 -5.16407 0.280042
1.58466 -5.16507 0.280042
1.62166 -5.17107 0.280042
1.64966 -5.17407 0.280042
1.75866 -5.17807 0.281042
1.80866 -5.19107 0.281042
1.84866 -5.20007 0.282042
1.88366 -5.19607 0.282042
1.93366 -5.20507 0.282042
1.98966 -5.20607 0.282042
2.01866 -5.20707 0.283042
2.20966 -5.23407 0.284042
2.25166 -5.24207 0.284042
2.53266 -5.26807 0.287042
2.62866 -5.29707 0.288042
2.68266 -5.30107 0.288042
2.72666 -5.30507 0.288042
2.74566 -5.30207 0.289042
2.76766 -5.30407 0.289042
2.79266 -5.31107 0.289042
2.80766 -5.31907 0.289042
2.85066 -5.31907 0.290042
2.87466 -5.32407 0.290042
2.89566 -5.32207 0.290042
2.91566 -5.32007 0.290042
2.93966 -5.32307 0.290042
2.98066 -5.33907 0.291042
2.99766 -5.33007 0.291042
3.02266 -5.33607 0.291042
3.04766 -5.34007 0.291042
3.06966 -5.34007 0.291042
3.08366 -5.34507 0.292042
3.10866 -5.34907 0.292042
3.12766 -5.34307 0.292042
3.15866 -5.35707 0.292042
3.17666 -5.35107 0.292042
3.20066 -5.35307 0.293042
3.22666 -5.35807 0.293042
3.24466 -5.36907 0.293042
3.26066 -5.35707 0.293042
3.29166 -5.37007 0.294042
3.31266 -5.36707 0.294042
3.33566 -5.36607 0.294042
3.36366 -5.37307 0.294042
3.37766 -5.37807 0.294042
3.40066 -5.37607 0.294042
3.42966 -5.38507 0.295042
3.47866 -5.38707 0.295042
3.50366 -5.38807 0.295042
3.54266 -5.39307 0.296042
3.56966 -5.39707 0.296042
3.62166 -5.40107 0.297042
3.65066 -5.40807 0.297042
3.67566 -5.40807 0.297042
3.71666 -5.41407 0.298042
3.77266 -5.42307 0.298042
3.82466 -5.42407 0.299042
3.85166 -5.42707 0.299042
3.89466 -5.43307 0.299042
3.94966 -5.43807 0.300042
4.11466 -5.46507 0.302042
4.16766 -5.46307 0.302042
6.92266 -5.79507 0.335042
6.97366 -5.80007 0.336042
7.18966 -5.83007 0.339042
7.26866 -5.83707 0.340042
7.32466 -5.84507 0.340042
7.37666 -5.84907 0.341042
7.49166 -5.86407 0.342042
7.58166 -5.87707 0.344042
7.64266 -5.88607 0.344042
7.70066 -5.89307 0.345042
7.75666 -5.89807 0.346042
7.97166 -5.92407 0.349042
8.03066 -5.92907 0.350042
8.09966 -5.94107 0.350042
8.22066 -5.95107 0.352042
8.38866 -5.97307 0.354042
0.0916605 -4.98507 0.248042
0.11566 -4.99407 0.248042
0.13166 -4.98407 0.248042
0.14766 -4.99207 0.248042
0.16266 -4.99707 0.248042
0.17866 -5.00107 0.248042
0.19466 -4.99007 0.248042
0.20966 -4.99107 0.248042
0.21766 -4.99307 0.248042
0.23366 -5.00007 0.248042
0.24966 -4.99607 0.248042
0.26566 -5.00507 0.248042
0.28166 -5.00007 0.248042
0.29766 -5.00307 0.248042
0.32066 -5.00307 0.248042
0.33766 -5.01207 0.248042
0.35366 -5.01707 0.248042
0.36866 -5.01007 0.248042
0.40066 -5.01607 0.248042
0.42466 -5.01807 0.248042
0.44166 -5.02607 0.248042
0.45666 -5.02107 0.248042
0.47366 -5.03107 0.248042
0.48966 -5.03007 0.248042
0.50566 -5.02607 0.248042
0.51466 -5.03407 0.248042
0.53166 -5.04207 0.249042
0.54566 -5.03007 0.248042
0.57866 -5.03307 0.248042
0.59566 -5.04507 0.249042
0.61066 -5.03707 0.249042
0.61966 -5.04207 0.249042
0.63566 -5.04007 0.249042
0.65166 -5.04207 0.249042
0.66866 -5.04807 0.249042
0.68466 -5.04707 0.249042
0.70166 -5.05507 0.249042
0.71866 -5.05507 0.249042
0.72566 -5.05407 0.249042
0.74366 -5.06307 0.249042
0.76066 -5.06507 0.249042
0.77666 -5.06307 0.249042
0.79366 -5.07207 0.249042
0.80966 -5.06907 0.249042
0.82566 -5.06507 0.249042
0.83466 -5.07107 0.249042
0.85166 -5.07707 0.249042
0.86866 -5.07607 0.249042
0.88466 -5.07707 0.249042
0.90266 -5.08207 0.249042
0.91766 -5.07307 0.249042
0.92666 -5.08007 0.249042
0.94266 -5.07707 0.249042
0.96266 -5.09407 0.250042
0.97666 -5.08307 0.250042
0.99566 -5.09507 0.250042
1.01266 -5.09407 0.250042
1.03066 -5.10307 0.250042
1.03766 -5.09507 0.250042
1.05666 -5.10407 0.250042
1.07366 -5.10607 0.250042
1.08966 -5.10507 0.250042
1.10866 -5.11307 0.250042
1.12566 -5.11307 0.250042
1.14366 -5.11907 0.250042
1.15266 -5.12007 0.250042
1.16966 -5.12007 0.250042
1.18766 -5.12407 0.250042
1.20466 -5.12607 0.251042
1.21966 -5.11607 0.250042
1.23866 -5.12607 0.251042
1.25766 -5.13207 0.251042
1.26666 -5.13407 0.251042
1.28166 -5.12807 0.251042
1.31866 -5.13707 0.251042
1.33766 -5.14307 0.251042
1.36166 -5.13807 0.251042
1.38066 -5.14207 0.251042
1.39966 -5.14707 0.251042
1.43366 -5.14607 0.251042
1.47066 -5.15207 0.251042
1.47866 -5.15107 0.251042
1.49966 -5.16007 0.252042
1.53366 -5.15607 0.252042
1.56866 -5.15607 0.252042
1.58166 -5.16907 0.252042
1.63766 -5.17707 0.252042
1.65666 -5.18107 0.252042
1.67566 -5.18307 0.252042
1.69066 -5.17407 0.252042
1.70966 -5.17707 0.252042
1.72066 -5.18307 0.252042
1.73566 -5.17407 0.252042
1.75966 -5.19107 0.253042
1.77766 -5.19007 0.253042
1.79466 -5.18807 0.253042
1.81566 -5.19307 0.253042
1.82666 -5.20007 0.253042
1.84266 -5.19207 0.253042
1.86466 -5.20307 0.253042
1.92066 -5.20407 0.253042
1.94266 -5.21307 0.254042
1.94866 -5.20507 0.253042
1.97366 -5.21907 0.254042
1.98766 -5.20707 0.254042
2.00866 -5.21407 0.254042
2.02966 -5.21907 0.254042
2.06066 -5.22407 0.254042
2.08166 -5.23107 0.254042
2.10066 -5.22907 0.254042
2.11966 -5.22807 0.254042
2.13866 -5.22907 0.254042
2.15866 -5.23007 0.254042
2.17966 -5.23407 0.255042
2.21066 -5.24007 0.255042
2.23266 -5.24407 0.255042
2.27266 -5.24707 0.255042
2.29366 -5.25007 0.255042
2.30966 -5.24107 0.255042
2.32466 -5.25407 0.255042
2.34366 -5.25207 0.255042
2.36666 -5.25907 0.256042
2.40966 -5.26607 0.256042
2.43266 -5.27107 0.256042
2.45066 -5.26707 0.256042
2.46466 -5.27407 0.256042
2.48666 -5.27907 0.256042
2.50466 -5.27307 0.256042
2.53066 -5.28507 0.257042
2.54766 -5.27907 0.257042
2.56866 -5.28007 0.257042
2.58366 -5.28807 0.257042
2.60566 -5.29107 0.257042
2.62266 -5.28407 0.257042
2.64366 -5.28507 0.257042
2.66966 -5.29507 0.257042
2.68866 -5.29207 0.257042
2.71466 -5.30107 0.257042
2.72466 -5.30007 0.258042
2.74666 -5.30007 0.258042
2.77066 -5.30607 0.258042
2.79366 -5.30907 0.258042
2.81566 -5.31107 0.258042
2.83466 -5.30607 0.258042
2.86166 -5.31607 0.258042
2.86666 -5.30707 0.258042
2.91866 -5.32207 0.259042
2.96566 -5.32807 0.259042
3.00866 -5.32507 0.259042
3.05266 -5.34307 0.259042
3.09166 -5.33407 0.260042
3.14166 -5.34207 0.260042
3.16366 -5.36007 0.260042
3.18266 -5.35307 0.260042
3.23166 -5.35907 0.261042
3.28166 -5.36507 0.261042
3.31266 -5.37707 0.261042
3.32066 -5.37207 0.261042
3.37066 -5.37607 0.261042
3.42466 -5.38707 0.262042
3.47966 -5.39707 0.262042
3.48966 -5.39507 0.262042
3.51866 -5.40307 0.262042
3.56966 -5.40507 0.263042
3.66566 -5.42007 0.263042
3.71466 -5.41807 0.264042
3.77566 -5.43407 0.264042
3.80466 -5.43907 0.264042
3.81866 -5.44107 0.264042
3.87366 -5.44607 0.265042
3.92966 -5.45107 0.265042
3.95966 -5.45607 0.265042
3.97866 -5.44707 0.265042
4.02866 -5.46007 0.266042
4.09166 -5.47307 0.266042
4.12066 -5.47607 0.267042
4.14366 -5.47107 0.267042
4.19466 -5.48307 0.267042
4.31266 -5.49307 0.268042
4.34866 -5.50307 0.268042
4.37466 -5.50007 0.268042
4.38766 -5.49907 0.268042
4.45266 -5.50907 0.269042
4.51766 -5.51807 0.269042
4.55266 -5.52507 0.270042
4.63766 -5.53807 0.270042
4.67166 -5.54307 0.271042
4.70466 -5.54707 0.271042
4.73366 -5.54607 0.271042
4.76866 -5.55007 0.271042
4.92766 -5.57407 0.272042
5.08666 -5.59207 0.274042
5.11766 -5.59107 0.274042
5.15766 -5.59807 0.274042
5.36566 -5.62507 0.276042
5.44066 -5.63307 0.276042
5.53866 -5.64407 0.277042
5.65866 -5.65707 0.278042
5.70166 -5.66507 0.279042
5.84266 -5.67807 0.280042
5.88366 -5.68207 0.280042
5.92466 -5.68607 0.280042
5.96566 -5.68907 0.281042
5.99666 -5.70007 0.281042
6.03766 -5.70307 0.281042
6.08166 -5.70907 0.282042
6.12166 -5.71007 0.282042
6.16166 -5.71107 0.282042
6.20566 -5.71607 0.283042
6.23466 -5.72407 0.283042
6.27766 -5.72707 0.283042
6.32066 -5.73007 0.284042
6.36966 -5.73807 0.284042
6.41666 -5.74307 0.284042
6.45966 -5.74607 0.285042
6.50466 -5.74907 0.285042
6.54566 -5.76707 0.285042
6.59166 -5.77107 0.286042
6.63166 -5.76907 0.286042
6.68466 -5.77807 0.287042
6.73766 -5.78607 0.287042
6.78266 -5.78907 0.287042
6.83766 -5.79807 0.288042
6.91466 -5.80707 0.289042
6.96966 -5.81607 0.289042
7.01566 -5.81707 0.289042
7.06266 -5.81907 0.290042
7.10966 -5.81907 0.290042
7.16066 -5.84207 0.291042
7.20666 -5.84207 0.291042
7.26266 -5.85007 0.292042
7.32266 -5.86007 0.292042
7.36966 -5.86007 0.292042
7.43166 -5.87107 0.293042
7.49166 -5.88007 0.294042
7.69866 -5.90607 0.295042
7.75066 -5.90707 0.296042
8.16566 -5.96307 0.299042
8.22566 -5.96607 0.300042
8.39366 -5.98807 0.301042
8.45566 -5.99207 0.302042
0.0886605 -4.97907 0.212042
0.10466 -4.97807 0.212042
0.54966 -5.02907 0.213042
0.76266 -5.05807 0.213042
0.91366 -5.08207 0.213042
0.94566 -5.07807 0.213042
0.96266 -5.07907 0.213042
0.98166 -5.09007 0.213042
1.00666 -5.09107 0.213042
1.02166 -5.08607 0.213042
1.03966 -5.09007 0.213042
1.13766 -5.11807 0.213042
1.18666 -5.11107 0.213042
1.23066 -5.11707 0.213042
1.57766 -5.15307 0.214042
5.23066 -5.61007 0.185042
6.25666 -5.73107 0.183042
6.37466 -5.74707 0.183042
6.51666 -5.76407 0.183042
6.73566 -5.79007 0.183042
7.12366 -5.83507 0.182042
0.29166 -5.00007 0.157042
0.42766 -5.02007 0.156042
0.56566 -5.04207 0.156042
0.65466 -5.04807 0.156042
0.74466 -5.05807 0.156042
0.76066 -5.05707 0.156042
0.78566 -5.06307 0.156042
0.80166 -5.05907 0.156042
0.83566 -5.06807 0.156042
0.92866 -5.08607 0.155042
0.97866 -5.08507 0.155042
0.98666 -5.08307 0.155042
1.11566 -5.10407 0.155042
1.20966 -5.10907 0.155042
1.22766 -5.11307 0.155042
2.14166 -5.22207 0.152042
2.49366 -5.26307 0.150042
2.52766 -5.27107 0.150042
3.21866 -5.35507 0.147042
3.28266 -5.36707 0.146042
3.56066 -5.39507 0.145042
3.61066 -5.39707 0.145042
3.87466 -5.43407 0.143042
3.94166 -5.43807 0.143042
4.08366 -5.47007 0.142042
4.29566 -5.48107 0.141042
4.38766 -5.49007 0.141042
4.62766 -5.52107 0.139042
4.67566 -5.52507 0.139042
4.81266 -5.54407 0.138042
4.89866 -5.55507 0.138042
4.93966 -5.56607 0.137042
5.16866 -5.59107 0.136042
5.54166 -5.63007 0.134042
5.58166 -5.63607 0.133042
0.25566 -4.99507 0.125042
0.46366 -5.02207 0.125042
0.51166 -5.02607 0.125042
0.56966 -5.04607 0.124042
0.65866 -5.04507 0.124042
0.57466 -5.05207 0.0880423
0.67966 -5.05507 0.0880423
0.80366 -5.07307 0.0870423
0.84566 -5.08107 0.0870423
0.91366 -5.08907 0.0870423
0.93866 -5.09107 0.0870423
0.95566 -5.09607 0.0860423
1.00566 -5.09607 0.0860423
1.03166 -5.10107 0.0860423
1.04866 -5.10207 0.0860423
1.08266 -5.10507 0.0860423
1.09866 -5.10407 0.0860423
1.12566 -5.11207 0.0850423
1.14266 -5.11107 0.0850423
1.17566 -5.11107 0.0850423
1.19466 -5.11907 0.0850423
1.20966 -5.11107 0.0850423
1.22766 -5.11307 0.0850423
1.23766 -5.11907 0.0850423
1.25566 -5.12707 0.0840423
1.27366 -5.13107 0.0840423
1.29166 -5.13307 0.0840423
1.30866 -5.13207 0.0840423
1.32766 -5.14007 0.0840423
1.34166 -5.12807 0.0840423
1.35266 -5.13607 0.0840423
1.36866 -5.13307 0.0840423
1.38666 -5.13307 0.0840423
1.40766 -5.15007 0.0830423
1.42466 -5.14507 0.0830423
1.43966 -5.13907 0.0830423
1.45166 -5.15007 0.0830423
1.46866 -5.14707 0.0830423
1.48566 -5.14607 0.0830423
1.50666 -5.15707 0.0820423
1.52066 -5.14707 0.0830423
1.56266 -5.16807 0.0820423
1.56666 -5.15407 0.0820423
1.59066 -5.17407 0.0820423
1.60566 -5.16507 0.0820423
1.62566 -5.17307 0.0810423
1.64366 -5.17207 0.0810423
1.66466 -5.18207 0.0810423
1.67966 -5.17307 0.0810423
1.68866 -5.17407 0.0810423
1.70966 -5.18207 0.0810423
1.72666 -5.18007 0.0810423
1.74566 -5.18207 0.0800423
1.76466 -5.18507 0.0800423
1.78466 -5.19007 0.0800423
1.80166 -5.18707 0.0800423
1.81266 -5.19107 0.0800423
1.83066 -5.19107 0.0800423
1.84766 -5.18707 0.0800423
1.86966 -5.19807 0.0790423
1.88866 -5.19807 0.0790423
1.90766 -5.20207 0.0790423
1.91866 -5.20407 0.0790423
1.93566 -5.20207 0.0790423
1.95566 -5.20507 0.0790423
1.97466 -5.20707 0.0780423
1.99366 -5.20607 0.0780423
2.01866 -5.22407 0.0780423
2.03366 -5.21407 0.0780423
2.04466 -5.21607 0.0780423
2.06666 -5.22507 0.0770423
2.08566 -5.22607 0.0770423
2.10866 -5.23607 0.0770423
2.12266 -5.22207 0.0770423
2.14866 -5.23907 0.0760423
2.16466 -5.23207 0.0760423
2.17866 -5.24207 0.0760423
2.19566 -5.23707 0.0760423
2.21466 -5.23507 0.0760423
2.25866 -5.24707 0.0750423
2.27866 -5.24907 0.0750423
2.29966 -5.25307 0.0750423
2.31066 -5.25507 0.0750423
2.32766 -5.25007 0.0750423
2.35166 -5.25907 0.0740423
2.36966 -5.25507 0.0740423
2.38966 -5.25507 0.0740423
2.41466 -5.26507 0.0740423
2.42366 -5.26307 0.0740423
2.44866 -5.27607 0.0730423
2.46366 -5.26407 0.0730423
2.48666 -5.26907 0.0730423
2.50666 -5.26907 0.0730423
2.52866 -5.27307 0.0720423
2.56166 -5.27807 0.0720423
2.58366 -5.28007 0.0720423
2.61166 -5.29607 0.0710423
2.62766 -5.28707 0.0710423
2.65566 -5.30207 0.0710423
2.67166 -5.29207 0.0710423
2.69566 -5.29807 0.0700423
2.70266 -5.29207 0.0710423
2.73266 -5.30907 0.0700423
2.77566 -5.31107 0.0690423
2.79166 -5.30007 0.0690423
2.81866 -5.31107 0.0690423
2.84066 -5.31307 0.0690423
2.84866 -5.30807 0.0690423
2.87366 -5.31507 0.0680423
2.89866 -5.32007 0.0680423
2.96766 -5.32807 0.0670423
2.97466 -5.32107 0.0670423
3.00266 -5.33107 0.0670423
3.02766 -5.33707 0.0660423
3.07466 -5.34107 0.0660423
3.09566 -5.34007 0.0660423
3.13366 -5.34607 0.0650423
3.15866 -5.35107 0.0650423
3.17866 -5.34707 0.0650423
3.21266 -5.36607 0.0640423
3.25266 -5.35607 0.0640423
3.29466 -5.36807 0.0630423
3.31766 -5.36807 0.0630423
3.34566 -5.37407 0.0620423
3.40166 -5.38907 0.0610423
3.43266 -5.38307 0.0610423
3.45966 -5.38707 0.0610423
3.51366 -5.39707 0.0600423
3.56766 -5.40507 0.0590423
3.71266 -5.42007 0.0570423
3.77066 -5.43207 0.0560423
3.82966 -5.42507 0.0560423
3.86466 -5.43907 0.0550423
3.88766 -5.43507 0.0550423
3.91966 -5.44407 0.0540423
3.94666 -5.44407 0.0540423
4.07766 -5.46207 0.0520423
4.10366 -5.46007 0.0520423
4.18066 -5.47407 0.0510423
4.21266 -5.48007 0.0500423
4.30066 -5.48707 0.0490423
4.44666 -5.51207 0.0470423
4.47666 -5.51407 0.0460423
4.55566 -5.52107 0.0450423
4.59466 -5.53307 0.0440423
4.61766 -5.52707 0.0440423
4.64966 -5.52907 0.0440423
4.67566 -5.52507 0.0430423
4.70866 -5.54707 0.0430423
4.73266 -5.54007 0.0420423
4.77766 -5.55707 0.0410423
4.79866 -5.54607 0.0410423
4.86266 -5.54907 0.0400423
4.90666 -5.56407 0.0400423
4.92066 -5.56207 0.0390423
4.98966 -5.57007 0.0380423
5.02566 -5.57507 0.0380423
5.06166 -5.58007 0.0370423
5.09966 -5.58607 0.0360423
5.11566 -5.58607 0.0360423
5.18266 -5.58907 0.0350423
5.26166 -5.60307 0.0340423
5.39466 -5.62007 0.0320423
5.44066 -5.63307 0.0310423
5.50466 -5.62807 0.0300423
5.54866 -5.63707 0.0290423
5.59466 -5.64907 0.0280423
5.60866 -5.64507 0.0280423
5.65166 -5.65307 0.0270423
5.69166 -5.65807 0.0270423
5.72866 -5.65907 0.0260423
5.77466 -5.66907 0.0250423
5.81066 -5.66907 0.0250423
5.85466 -5.67607 0.0240423
5.88666 -5.68907 0.0230423
5.92266 -5.68807 0.0230423
5.96266 -5.69007 0.0220423
5.99766 -5.68807 0.0220423
6.04866 -5.70107 0.0210423
6.08566 -5.70007 0.0200423
6.16066 -5.71607 0.0190423
6.20066 -5.71707 0.0180423
6.23866 -5.71607 0.0180423
6.28466 -5.72307 0.0170423
6.39666 -5.73307 0.0150423
6.48866 -5.74307 0.0130423
6.70866 -5.77207 0.0100423
7.20066 -5.83107 0.00104228
7.25466 -5.83807 4.22799e-05
7.30666 -5.84207 -0.00095772
7.34766 -5.85607 -0.00195772
7.40066 -5.86007 -0.00295772
7.45966 -5.86907 -0.00395772
7.51366 -5.87407 -0.00495772
7.58066 -5.88907 -0.00595772
7.62466 -5.88407 -0.00695772
7.68266 -5.89107 -0.00795772
7.72666 -5.90607 -0.00895772
7.77266 -5.90207 -0.00995772
7.96066 -5.92807 -0.0129577
8.02066 -5.93407 -0.0139577
8.07866 -5.93707 -0.0149577
8.13566 -5.96007 -0.0159577
8.25566 -5.96907 -0.0189577
8.31666 -5.97307 -0.0199577
8.37066 -5.97307 -0.0209577
8.48866 -5.99707 -0.0229577
8.54866 -5.99907 -0.0239577
0.0506605 -4.97907 0.0650423
0.0666605 -4.98207 0.0650423
0.0826605 -4.98607 0.0650423
0.0906605 -4.99007 0.0650423
0.10566 -4.97807 0.0650423
0.12166 -4.98307 0.0650423
0.13766 -4.99307 0.0650423
0.15366 -4.99607 0.0640423
0.17666 -4.99407 0.0640423
0.19266 -4.99107 0.0650423
0.20866 -4.99807 0.0640423
0.22366 -4.99407 0.0640423
0.24066 -5.00707 0.0640423
0.27166 -5.00307 0.0640423
0.29566 -5.00807 0.0640423
0.32766 -5.01407 0.0640423
0.34266 -5.00707 0.0640423
0.35866 -5.01007 0.0640423
0.37466 -5.01107 0.0640423
0.41466 -5.01607 0.0640423
0.43166 -5.02207 0.0630423
0.46366 -5.02107 0.0630423
0.48766 -5.02907 0.0630423
0.55266 -5.04107 0.0630423
0.57666 -5.04007 0.0620423
0.59266 -5.03807 0.0620423
0.62566 -5.04007 0.0620423
0.67466 -5.04607 0.0620423
0.68266 -5.04507 0.0620423
0.70066 -5.05607 0.0620423
0.71666 -5.06007 0.0610423
0.73266 -5.05407 0.0620423
0.74966 -5.06007 0.0610423
0.76466 -5.05507 0.0610423
0.78266 -5.06507 0.0610423
0.79066 -5.06307 0.0610423
0.82366 -5.06607 0.0610423
0.83966 -5.06607 0.0610423
0.85866 -5.07707 0.0600423
0.87366 -5.06807 0.0610423
0.89166 -5.07707 0.0600423
0.93366 -5.08207 0.0600423
0.94966 -5.08107 0.0600423
0.98366 -5.08607 0.0600423
0.99366 -5.09307 0.0590423
1.01066 -5.09507 0.0590423
1.02866 -5.10007 0.0590423
1.04266 -5.08907 0.0590423
1.07766 -5.09407 0.0590423
1.10566 -5.10807 0.0580423
1.12166 -5.10707 0.0580423
1.13766 -5.10307 0.0580423
1.15566 -5.10607 0.0580423
1.17366 -5.11007 0.0580423
1.19066 -5.11407 0.0580423
1.20866 -5.11607 0.0580423
1.21666 -5.11607 0.0580423
1.23666 -5.12807 0.0570423
1.25466 -5.12907 0.0570423
1.26966 -5.12207 0.0570423
1.28766 -5.12507 0.0570423
1.30466 -5.12507 0.0570423
1.32166 -5.12507 0.0570423
1.33166 -5.12907 0.0570423
1.35166 -5.14007 0.0560423
1.36766 -5.13407 0.0560423
1.38466 -5.13507 0.0560423
1.40566 -5.14807 0.0560423
1.42066 -5.13807 0.0560423
1.42866 -5.13607 0.0560423
1.46566 -5.14207 0.0550423
1.48466 -5.14707 0.0550423
1.50366 -5.15407 0.0550423
1.55266 -5.16807 0.0540423
1.58366 -5.15507 0.0540423
1.60666 -5.17107 0.0540423
1.62266 -5.16407 0.0540423
1.64066 -5.16407 0.0530423
1.65166 -5.17107 0.0530423
1.68566 -5.16607 0.0530423
1.70666 -5.17407 0.0530423
1.74466 -5.17907 0.0520423
1.76366 -5.18307 0.0520423
1.77966 -5.17707 0.0520423
1.84866 -5.18907 0.0510423
1.88766 -5.19607 0.0510423
1.92166 -5.21307 0.0500423
1.95366 -5.19907 0.0500423
1.99366 -5.20407 0.0490423
2.10266 -5.21707 0.0480423
2.13666 -5.22907 0.0470423
2.17966 -5.23907 0.0470423
2.21466 -5.23107 0.0470423
2.26266 -5.25207 0.0460423
2.34966 -5.24807 0.0450423
2.37066 -5.25007 0.0450423
2.40466 -5.25907 0.0440423
2.51566 -5.28007 0.0420423
2.54766 -5.28407 0.0420423
2.58666 -5.27907 0.0410423
2.63166 -5.28607 0.0410423
2.66766 -5.29607 0.0400423
2.71466 -5.30607 0.0390423
2.75666 -5.30507 0.0390423
2.83866 -5.31807 0.0380423
2.88366 -5.32107 0.0370423
2.93166 -5.32907 0.0360423
2.96666 -5.33507 0.0360423
3.01366 -5.33807 0.0350423
3.05666 -5.33707 0.0340423
3.11266 -5.35507 0.0330423
3.11366 -5.33807 0.0340423
3.14966 -5.36107 0.0330423
3.16166 -5.34307 0.0330423
3.24266 -5.36207 0.0310423
3.24966 -5.35507 0.0310423
3.28466 -5.37407 0.0310423
3.30966 -5.37707 0.0300423
3.32566 -5.36507 0.0300423
3.34966 -5.36707 0.0300423
3.42366 -5.39107 0.0280423
3.46666 -5.38207 0.0280423
3.50066 -5.39807 0.0270423
3.52466 -5.39707 0.0270423
3.57066 -5.39307 0.0260423
3.64566 -5.41307 0.0250423
3.67166 -5.41507 0.0240423
3.70066 -5.42107 0.0240423
3.72166 -5.41507 0.0230423
3.75966 -5.43407 0.0220423
3.91066 -5.44807 0.0200423
3.95766 -5.45807 0.0190423
4.04366 -5.46707 0.0170423
4.06666 -5.46207 0.0170423
4.10066 -5.47207 0.0160423
4.11566 -5.47307 0.0160423
4.14366 -5.47507 0.0160423
4.19966 -5.47707 0.0150423
4.29366 -5.49107 0.0130423
4.37466 -5.50507 0.0110423
4.40966 -5.51307 0.0110423
4.43566 -5.51007 0.0100423
4.46066 -5.50507 0.0100423
4.49866 -5.51607 0.00904228
4.54666 -5.52107 0.00804228
4.57666 -5.52207 0.00804228
4.61466 -5.53207 0.00704228
4.64166 -5.53007 0.00604228
4.67066 -5.52907 0.00604228
4.69666 -5.54107 0.00504228
4.73066 -5.54607 0.00504228
4.76266 -5.54807 0.00404228
4.79866 -5.55407 0.00304228
4.82766 -5.55307 0.00304228
4.86066 -5.55507 0.00204228
4.89566 -5.56007 0.00204228
4.91366 -5.56207 0.00104228
4.95266 -5.57107 4.22799e-05
4.99266 -5.58007 -0.00095772
5.02066 -5.57607 -0.00095772
5.06166 -5.58607 -0.00195772
5.09766 -5.59007 -0.00295772
5.11766 -5.59407 -0.00295772
5.15666 -5.60207 -0.00395772
5.22566 -5.60507 -0.00495772
5.26366 -5.61107 -0.00595772
5.30266 -5.61607 -0.00695772
5.33966 -5.62007 -0.00695772
5.43366 -5.62907 -0.00895772
5.47066 -5.63207 -0.00995772
5.51466 -5.64207 -0.0109577
5.54666 -5.63907 -0.0119577
5.58666 -5.64407 -0.0119577
5.65366 -5.65707 -0.0139577
5.69566 -5.66307 -0.0149577
5.73766 -5.66907 -0.0159577
5.77666 -5.67207 -0.0159577
5.81466 -5.67307 -0.0169577
5.85366 -5.67607 -0.0179577
5.92066 -5.68707 -0.0189577
5.96666 -5.69407 -0.0199577
6.00766 -5.69707 -0.0209577
6.05266 -5.70407 -0.0219577
6.09166 -5.70407 -0.0229577
6.12666 -5.70207 -0.0239577
6.15666 -5.71107 -0.0239577
6.20066 -5.71607 -0.0249577
6.24066 -5.71607 -0.0259577
6.28466 -5.72007 -0.0269577
6.33066 -5.72507 -0.0279577
6.40666 -5.73907 -0.0299577
6.45866 -5.75007 -0.0309577
6.49666 -5.74607 -0.0309577
6.54366 -5.75107 -0.0319577
7.33166 -5.85307 -0.0499577
7.42466 -5.87007 -0.0519577
7.53766 -5.88207 -0.0549577
7.60666 -5.89707 -0.0559577
7.65566 -5.89707 -0.0569577
7.71866 -5.90607 -0.0589577
7.75466 -5.91507 -0.0599577
7.91266 -5.91807 -0.0629577
8.05466 -5.94507 -0.0659577
8.41666 -5.99007 -0.0749577
0.0636605 -4.98407 0.0350423
0.11066 -4.98107 0.0350423
0.12666 -4.98607 0.0350423
0.13466 -4.99007 0.0350423
0.15066 -4.99607 0.0340423
0.16566 -4.98707 0.0350423
0.18166 -5.00107 0.0340423
0.19766 -4.98807 0.0350423
0.21366 -5.00307 0.0340423
0.22966 -4.99707 0.0340423
0.23666 -4.99607 0.0340423
0.25366 -5.00807 0.0340423
0.26866 -4.99707 0.0340423
0.28466 -5.00807 0.0340423
0.30066 -5.00907 0.0340423
0.31566 -5.00207 0.0340423
0.33266 -5.01107 0.0340423
0.33966 -5.00407 0.0340423
0.35666 -5.02107 0.0330423
0.37166 -5.01407 0.0330423
0.38866 -5.02507 0.0330423
0.40466 -5.02207 0.0330423
0.42066 -5.02407 0.0330423
0.42866 -5.02407 0.0330423
0.44466 -5.02407 0.0330423
0.46066 -5.02707 0.0330423
0.47766 -5.03707 0.0320423
0.49266 -5.02807 0.0330423
0.50866 -5.02607 0.0330423
0.52466 -5.03507 0.0320423
0.53366 -5.03807 0.0320423
0.56566 -5.04007 0.0320423
0.58266 -5.04807 0.0320423
0.59766 -5.04307 0.0320423
0.61466 -5.04507 0.0320423
0.63066 -5.05107 0.0310423
0.63866 -5.04607 0.0320423
0.65566 -5.05807 0.0310423
0.67166 -5.05507 0.0310423
0.70466 -5.05507 0.0310423
0.72266 -5.06907 0.0310423
0.73766 -5.06007 0.0310423
0.74566 -5.06507 0.0310423
0.76266 -5.06907 0.0300423
0.77966 -5.07407 0.0300423
0.79566 -5.07207 0.0300423
0.81266 -5.07707 0.0300423
0.83866 -5.08107 0.0300423
0.85466 -5.08107 0.0290423
0.87066 -5.08007 0.0290423
0.88666 -5.07507 0.0290423
0.90566 -5.09007 0.0290423
0.92066 -5.08307 0.0290423
0.93966 -5.09607 0.0290423
0.94766 -5.09507 0.0290423
0.96466 -5.09507 0.0280423
0.98166 -5.09807 0.0280423
0.99666 -5.09307 0.0280423
1.01366 -5.09407 0.0280423
1.03166 -5.09907 0.0280423
1.04866 -5.10307 0.0280423
1.05766 -5.10507 0.0270423
1.07366 -5.10407 0.0270423
1.09266 -5.11207 0.0270423
1.10666 -5.10107 0.0270423
1.12666 -5.11307 0.0270423
1.14366 -5.11607 0.0270423
1.15966 -5.11007 0.0270423
1.16966 -5.12007 0.0260423
1.18766 -5.12407 0.0260423
1.20166 -5.10807 0.0260423
1.22166 -5.12407 0.0260423
1.23966 -5.12807 0.0260423
1.25466 -5.12007 0.0260423
1.26566 -5.13007 0.0250423
1.30066 -5.13207 0.0250423
1.31966 -5.13907 0.0250423
1.35066 -5.12707 0.0250423
1.36866 -5.12807 0.0240423
1.38066 -5.14407 0.0240423
1.39766 -5.14307 0.0240423
1.41666 -5.14807 0.0230423
1.43666 -5.15507 0.0230423
1.44966 -5.13907 0.0230423
1.46966 -5.15007 0.0230423
1.48066 -5.15907 0.0230423
1.51366 -5.15007 0.0230423
1.53266 -5.15707 0.0220423
1.57066 -5.16407 0.0220423
1.58766 -5.16307 0.0210423
1.61466 -5.16507 0.0210423
1.63566 -5.17507 0.0210423
1.66866 -5.16507 0.0210423
1.68966 -5.17507 0.0200423
1.71666 -5.17407 0.0200423
1.73666 -5.18007 0.0190423
1.75266 -5.17507 0.0190423
1.79066 -5.17907 0.0190423
1.84466 -5.20407 0.0180423
1.87666 -5.18907 0.0180423
1.89966 -5.20207 0.0170423
1.96366 -5.20107 0.0160423
1.98266 -5.20207 0.0160423
2.02266 -5.20707 0.0160423
2.04266 -5.21007 0.0150423
2.07366 -5.21707 0.0150423
2.11366 -5.22207 0.0140423
2.20366 -5.23207 0.0130423
2.26366 -5.23707 0.0120423
2.32866 -5.25007 0.0110423
2.33766 -5.24807 0.0100423
2.37966 -5.25407 0.0100423
2.49566 -5.26607 0.00804228
3.08266 -5.33507 -0.00295772
3.35266 -5.36607 -0.00795772
3.49866 -5.39107 -0.0109577
3.51966 -5.38707 -0.0119577
3.72066 -5.41207 -0.0159577
4.45166 -5.49907 -0.0319577
7.42066 -5.85707 -0.107958
7.48166 -5.86707 -0.109958
7.53966 -5.87407 -0.111958
7.59066 -5.87607 -0.112958
7.65666 -5.88907 -0.114958
7.92266 -5.91807 -0.121958
7.99566 -5.93407 -0.123958
8.05266 -5.93707 -0.125958
8.11666 -5.94507 -0.127958
8.17766 -5.95007 -0.128958
8.22266 -5.96307 -0.130958
8.27866 -5.96407 -0.131958
8.34366 -5.97207 -0.133958
2.20866 -5.23407 -0.0249577
2.65066 -5.29907 -0.0339577
2.75366 -5.31407 -0.0369577
3.15366 -5.36207 -0.0459577
3.39966 -5.38507 -0.0519577
3.42366 -5.38507 -0.0519577
3.57366 -5.41107 -0.0559577
3.62766 -5.41907 -0.0569577
3.77166 -5.42907 -0.0609577
3.84266 -5.43807 -0.0629577
3.93266 -5.45507 -0.0649577
3.99966 -5.45807 -0.0669577
4.02766 -5.45907 -0.0679577
4.08566 -5.46607 -0.0689577
4.25666 -5.49207 -0.0739577
4.28666 -5.49607 -0.0749577
4.31866 -5.50107 -0.0759577
4.36666 -5.50707 -0.0769577
4.42666 -5.51307 -0.0789577
4.45866 -5.51607 -0.0789577
4.49166 -5.52207 -0.0799577
4.51866 -5.51807 -0.0809577
4.53766 -5.52407 -0.0819577
4.63966 -5.54007 -0.0849577
4.66566 -5.53607 -0.0849577
4.69566 -5.53707 -0.0859577
4.73566 -5.54807 -0.0869577
4.75366 -5.55107 -0.0879577
4.78666 -5.55407 -0.0889577
4.82066 -5.55807 -0.0899577
4.85866 -5.56607 -0.0909577
4.92266 -5.56807 -0.0929577
4.95966 -5.57507 -0.0939577
4.97966 -5.57907 -0.0939577
5.04966 -5.58607 -0.0959577
5.08966 -5.59507 -0.0979577
5.12266 -5.59507 -0.0979577
5.19366 -5.60207 -0.100958
5.25466 -5.61407 -0.101958
5.32666 -5.62007 -0.104958
5.36666 -5.62607 -0.105958
5.39866 -5.62407 -0.106958
5.53766 -5.64207 -0.110958
5.62366 -5.65807 -0.113958
5.76366 -5.67307 -0.117958
5.84366 -5.68007 -0.119958
5.89166 -5.69007 -0.121958
5.92266 -5.68407 -0.122958
5.99366 -5.69807 -0.124958
6.07566 -5.70307 -0.126958
6.12566 -5.71407 -0.128958
6.16266 -5.71207 -0.129958
6.19666 -5.72607 -0.130958
6.23666 -5.72607 -0.131958
6.28566 -5.73507 -0.133958
6.32666 -5.73507 -0.134958
6.37666 -5.74507 -0.136958
6.41466 -5.74207 -0.137958
6.45666 -5.74307 -0.138958
6.48766 -5.75307 -0.139958
6.54366 -5.76507 -0.141958
7.31966 -5.85707 -0.166958
7.38166 -5.86907 -0.169958
7.43466 -5.87307 -0.170958
7.70066 -5.90807 -0.179958
7.79266 -5.90007 -0.182958
8.16466 -5.96207 -0.195958
8.22866 -5.96907 -0.197958
8.40066 -5.99307 -0.203958
8.46366 -5.99807 -0.205958
8.51666 -5.99507 -0.207958
0.25066 -5.01107 -0.0299577
0.33766 -5.02207 -0.0299577
1.54066 -5.16407 -0.0459577
1.67866 -5.17907 -0.0489577
1.69766 -5.18407 -0.0489577
1.78166 -5.18907 -0.0499577
1.80166 -5.19507 -0.0509577
2.03366 -5.22007 -0.0559577
2.16566 -5.24107 -0.0589577
2.20666 -5.24707 -0.0599577
2.22766 -5.25107 -0.0599577
2.25466 -5.24607 -0.0599577
2.37066 -5.26307 -0.0629577
2.39366 -5.27007 -0.0639577
2.42766 -5.25907 -0.0639577
2.45166 -5.26607 -0.0649577
2.47166 -5.26707 -0.0649577
2.48866 -5.28107 -0.0659577
2.50666 -5.27707 -0.0659577
2.52866 -5.28007 -0.0669577
2.55366 -5.29007 -0.0679577
2.65166 -5.30007 -0.0699577
2.66566 -5.28607 -0.0699577
2.71466 -5.30107 -0.0709577
2.74166 -5.31207 -0.0719577
2.77466 -5.31507 -0.0729577
2.79166 -5.30707 -0.0729577
2.83666 -5.31207 -0.0739577
2.86566 -5.32607 -0.0749577
2.88766 -5.32707 -0.0759577
2.90766 -5.32407 -0.0759577
2.94366 -5.33107 -0.0769577
2.96366 -5.32707 -0.0779577
3.04266 -5.34907 -0.0799577
3.07766 -5.35207 -0.0809577
3.14566 -5.35407 -0.0829577
3.20866 -5.36507 -0.0839577
3.22966 -5.36207 -0.0849577
3.27766 -5.36607 -0.0859577
3.33566 -5.38407 -0.0879577
3.35066 -5.37007 -0.0879577
3.39966 -5.39107 -0.0899577
3.41466 -5.37907 -0.0899577
3.47166 -5.39307 -0.0919577
3.52166 -5.39607 -0.0929577
3.59266 -5.41207 -0.0949577
3.66966 -5.41707 -0.0969577
3.79266 -5.43207 -0.100958
3.81566 -5.42907 -0.101958
3.83966 -5.42607 -0.101958
3.86166 -5.44007 -0.102958
3.88766 -5.44107 -0.103958
3.94566 -5.44907 -0.105958
3.97066 -5.44807 -0.105958
4.00066 -5.45307 -0.106958
4.06966 -5.45707 -0.108958
4.10866 -5.47307 -0.110958
4.13366 -5.47107 -0.110958
4.15566 -5.46407 -0.111958
4.18466 -5.46707 -0.112958
4.20766 -5.48007 -0.113958
4.23166 -5.47407 -0.113958
4.29366 -5.48407 -0.115958
4.50566 -5.51907 -0.122958
4.64966 -5.53507 -0.127958
4.67366 -5.52807 -0.127958
4.71266 -5.53907 -0.129958
4.75166 -5.55007 -0.130958
4.78866 -5.55807 -0.132958
4.81666 -5.55507 -0.132958
4.90666 -5.57007 -0.136958
4.96566 -5.56607 -0.137958
5.01366 -5.58407 -0.139958
5.01266 -5.56607 -0.139958
5.12966 -5.58907 -0.143958
5.17366 -5.60307 -0.145958
5.20366 -5.60007 -0.145958
5.24266 -5.60707 -0.147958
5.26666 -5.61407 -0.148958
5.29966 -5.61407 -0.149958
5.33666 -5.61807 -0.150958
5.37766 -5.62507 -0.152958
5.41066 -5.62407 -0.153958
5.44866 -5.62907 -0.154958
5.48466 -5.63007 -0.155958
5.49866 -5.62807 -0.155958
5.54866 -5.64307 -0.157958
5.59266 -5.65307 -0.159958
5.62466 -5.64907 -0.160958
5.65466 -5.64407 -0.161958
5.69666 -5.65107 -0.162958
5.73066 -5.66707 -0.164958
5.76766 -5.66707 -0.165958
5.80666 -5.67007 -0.166958
5.84166 -5.66907 -0.167958
5.88466 -5.67507 -0.169958
5.96666 -5.68207 -0.172958
5.99266 -5.69007 -0.173958
6.03966 -5.69807 -0.175958
6.07566 -5.69607 -0.176958
6.16366 -5.70607 -0.179958
6.28066 -5.72407 -0.183958
6.31866 -5.72307 -0.185958
6.53066 -5.75007 -0.192958
6.58166 -5.75807 -0.194958
7.25866 -5.84707 -0.220958
7.36866 -5.86007 -0.224958
7.41166 -5.85707 -0.226958
7.47366 -5.86807 -0.228958
7.53066 -5.87407 -0.230958
7.63166 -5.89607 -0.234958
7.69466 -5.90607 -0.237958
7.74366 -5.90507 -0.239958
7.89166 -5.92107 -0.244958
7.96966 -5.94107 -0.248958
8.02966 -5.94707 -0.250958
8.09366 -5.95507 -0.252958
8.15066 -5.95807 -0.254958
8.21266 -5.96407 -0.257958
8.27666 -5.97107 -0.259958
8.38166 -5.98607 -0.264958
8.44666 -5.99407 -0.266958
0.0786605 -4.98807 -0.0569577
0.0936605 -4.97607 -0.0569577
0.13366 -4.98507 -0.0569577
0.16466 -4.99407 -0.0579577
0.18066 -4.98907 -0.0569577
0.22066 -4.99607 -0.0579577
