3.69071 3.24204 0.272806
3.66271 3.23804 0.272806
3.64471 3.24304 0.272806
3.62571 3.25604 0.272806
3.59971 3.25404 0.272806
3.58371 3.26004 0.271806
3.56771 3.26604 0.271806
3.49171 3.26904 0.270806
3.44971 3.27004 0.270806
3.42871 3.27104 0.270806
3.37471 3.28104 0.269806
3.36871 3.28504 0.269806
3.34071 3.27904 0.269806
3.32171 3.28104 0.269806
3.30771 3.28704 0.269806
3.28671 3.28804 0.268806
3.26571 3.28704 0.268806
3.23871 3.29104 0.268806
3.21671 3.29004 0.268806
3.20371 3.29704 0.268806
3.18471 3.29804 0.267806
3.16071 3.29404 0.267806
3.14371 3.29704 0.267806
3.13171 3.30504 0.267806
3.11971 3.30304 0.267806
3.10371 3.30704 0.267806
3.06371 3.30604 0.266806
3.04771 3.30904 0.266806
3.02671 3.30704 0.266806
3.01171 3.31204 0.266806
2.98271 3.31204 0.265806
2.94971 3.31704 0.265806
2.91971 3.32504 0.265806
2.89071 3.32404 0.265806
2.85671 3.32704 0.264806
2.12471 3.39104 0.259806
2.10271 3.39204 0.258806
2.07271 3.39004 0.258806
2.04771 3.39804 0.258806
2.03371 3.39904 0.258806
2.02571 3.39704 0.258806
2.01071 3.39704 0.258806
1.99871 3.40104 0.258806
1.98371 3.39904 0.258806
1.97071 3.40204 0.257806
1.94771 3.41204 0.257806
1.92271 3.40604 0.257806
1.91371 3.41304 0.257806
1.89671 3.40904 0.257806
1.88471 3.41304 0.257806
1.85871 3.41604 0.257806
1.85071 3.41404 0.257806
1.82671 3.42204 0.257806
1.81271 3.42104 0.257806
1.78771 3.42504 0.256806
1.78371 3.43104 0.257806
1.77071 3.43304 0.256806
1.75771 3.43304 0.256806
1.74171 3.43004 0.256806
1.73171 3.43604 0.256806
1.70771 3.44304 0.256806
1.69771 3.43704 0.256806
1.68771 3.44204 0.256806
1.67371 3.44204 0.256806
1.66071 3.44204 0.256806
1.64771 3.44304 0.256806
1.60371 3.44904 0.256806
1.59071 3.44804 0.255806
3.69971 3.24304 0.157806
3.67571 3.23604 0.127806
3.58071 3.24304 0.128806
3.53171 3.25904 0.128806
3.26371 3.27804 0.131806
2.11871 3.38304 0.140806
1.70071 3.42504 0.142806
1.60571 3.43504 0.142806
3.70671 3.23904 0.0928057
3.69371 3.24804 0.0928057
3.64571 3.24804 0.0938057
3.62971 3.25404 0.0938057
3.61171 3.25904 0.0938057
3.58871 3.25804 0.0938057
3.57271 3.25404 0.0948057
3.55971 3.26304 0.0948057
3.53271 3.25904 0.0948057
3.51071 3.25904 0.0958057
3.49771 3.26804 0.0958057
3.47271 3.26504 0.0958057
3.44471 3.26904 0.0968057
3.38171 3.27104 0.0968057
3.34471 3.27704 0.0978057
3.31371 3.27704 0.0978057
2.87071 3.31504 0.103806
2.60071 3.34004 0.106806
2.45171 3.35204 0.108806
2.25171 3.37004 0.110806
2.18071 3.37804 0.111806
2.14671 3.38304 0.111806
2.08971 3.38604 0.112806
1.99871 3.39404 0.113806
1.98071 3.40004 0.113806
1.95471 3.40404 0.113806
1.94171 3.40604 0.113806
1.92771 3.40504 0.113806
1.91471 3.40804 0.113806
1.90771 3.40704 0.113806
1.89471 3.41004 0.113806
1.88171 3.41204 0.113806
1.86771 3.41104 0.114806
1.83671 3.41904 0.114806
1.82171 3.41804 0.114806
1.80771 3.41604 0.114806
1.79371 3.41704 0.114806
1.78171 3.41904 0.114806
1.76771 3.41904 0.114806
1.75471 3.42104 0.114806
1.75171 3.42704 0.114806
1.73671 3.42404 0.115806
1.72671 3.43104 0.115806
1.71571 3.43604 0.115806
1.70171 3.43504 0.115806
1.68471 3.42904 0.115806
1.66971 3.43904 0.115806
1.65471 3.43504 0.115806
1.64571 3.44404 0.115806
1.61871 3.44304 0.115806
1.60371 3.43904 0.116806
1.59371 3.44604 0.115806
3.61371 3.24204 0.0688057
3.53871 3.25604 0.0698057
3.50071 3.26104 0.0708057
3.48671 3.25904 0.0708057
3.44971 3.26404 0.0718057
3.42571 3.26204 0.0718057
3.40971 3.26704 0.0728057
3.39671 3.27504 0.0728057
3.37371 3.27304 0.0728057
3.36471 3.27404 0.0728057
3.34071 3.27204 0.0738057
3.32271 3.27404 0.0738057
3.30371 3.27604 0.0738057
3.29071 3.28404 0.0748057
3.27271 3.28704 0.0748057
3.25171 3.28604 0.0748057
3.24771 3.29204 0.0748057
3.22171 3.28704 0.0758057
3.19771 3.28204 0.0758057
3.18671 3.29104 0.0758057
3.14071 3.28504 0.0768057
3.14071 3.29604 0.0768057
3.11671 3.29104 0.0778057
3.09871 3.29204 0.0778057
3.06571 3.29804 0.0778057
3.03771 3.31004 0.0788057
3.01771 3.29804 0.0788057
3.00471 3.30504 0.0788057
2.98371 3.30204 0.0798057
2.96571 3.30304 0.0798057
2.95571 3.31204 0.0798057
2.94271 3.31804 0.0798057
2.91471 3.30804 0.0808057
2.90871 3.31104 0.0808057
2.89671 3.31904 0.0808057
2.86371 3.32304 0.0808057
2.84571 3.32304 0.0818057
2.83171 3.32704 0.0818057
2.80571 3.32804 0.0818057
2.76471 3.32104 0.0828057
2.75171 3.32704 0.0828057
2.73571 3.32904 0.0828057
2.71771 3.32804 0.0838057
2.71771 3.33904 0.0828057
2.68571 3.34204 0.0838057
2.66571 3.33904 0.0838057
2.64671 3.33604 0.0848057
2.62771 3.33404 0.0848057
2.61971 3.34504 0.0848057
2.59671 3.34804 0.0848057
2.57671 3.34304 0.0858057
2.55771 3.34004 0.0858057
2.54671 3.34804 0.0858057
2.53071 3.34804 0.0858057
2.51171 3.34504 0.0868057
2.49471 3.35504 0.0868057
2.46171 3.35404 0.0868057
2.44871 3.35904 0.0868057
2.41371 3.35504 0.0878057
2.40971 3.36004 0.0878057
2.39371 3.36004 0.0878057
2.37971 3.36204 0.0878057
2.36871 3.37004 0.0878057
2.34971 3.36404 0.0888057
2.33771 3.37004 0.0888057
2.32171 3.36904 0.0888057
2.29771 3.36804 0.0888057
2.28271 3.36804 0.0898057
2.26271 3.38404 0.0898057
2.24371 3.38004 0.0898057
2.21971 3.37704 0.0898057
2.20571 3.37904 0.0908057
2.18871 3.37604 0.0908057
2.16871 3.39104 0.0908057
2.14771 3.38304 0.0908057
2.13571 3.38604 0.0908057
2.13271 3.39304 0.0908057
2.08571 3.38904 0.0918057
2.06971 3.38704 0.0918057
2.05971 3.39504 0.0918057
2.05471 3.39804 0.0918057
2.02871 3.40204 0.0918057
2.01471 3.40304 0.0928057
1.99771 3.39904 0.0928057
1.97171 3.40304 0.0928057
1.95571 3.41204 0.0928057
1.93771 3.40604 0.0938057
1.92271 3.40404 0.0938057
1.91171 3.41004 0.0938057
1.89871 3.41204 0.0938057
1.86371 3.41104 0.0938057
1.85071 3.41304 0.0938057
1.82671 3.42004 0.0948057
1.80971 3.41304 0.0948057
1.78971 3.41404 0.0948057
1.73771 3.41904 0.0958057
1.72571 3.42204 0.0958057
1.71671 3.43004 0.0958057
1.70871 3.42704 0.0958057
1.69571 3.42904 0.0958057
1.68171 3.42704 0.0958057
1.66971 3.43004 0.0958057
1.65871 3.43504 0.0958057
1.64771 3.43904 0.0958057
1.63671 3.44404 0.0958057
1.63071 3.44504 0.0958057
1.61371 3.43704 0.0968057
1.60071 3.43904 0.0968057
1.58671 3.43404 0.0968057
1.57471 3.43804 0.0968057
3.66471 3.23404 0.0388057
3.62771 3.24304 0.0398057
3.61171 3.24904 0.0398057
3.58671 3.24704 0.0408057
3.57671 3.25804 0.0408057
3.55271 3.25704 0.0408057
3.53171 3.24804 0.0418057
3.51571 3.25404 0.0418057
3.49771 3.25804 0.0418057
3.47571 3.25804 0.0428057
3.46571 3.26904 0.0428057
3.43771 3.26304 0.0438057
3.42271 3.27004 0.0438057
3.41371 3.27104 0.0438057
3.38471 3.26404 0.0448057
3.36571 3.26604 0.0448057
3.35371 3.27504 0.0448057
3.32371 3.26604 0.0458057
3.31771 3.28104 0.0458057
3.30271 3.27704 0.0458057
3.27671 3.27104 0.0468057
3.26171 3.27704 0.0468057
3.25171 3.28804 0.0468057
3.22171 3.27804 0.0478057
3.20871 3.28504 0.0478057
3.19071 3.28804 0.0488057
3.15771 3.28504 0.0498057
3.14871 3.29604 0.0488057
3.12171 3.28904 0.0498057
3.10271 3.29004 0.0508057
3.08971 3.29604 0.0508057
3.06971 3.29604 0.0508057
3.04071 3.29604 0.0518057
3.02171 3.29704 0.0518057
3.00471 3.29904 0.0528057
2.99871 3.31304 0.0518057
2.96971 3.30104 0.0528057
2.94271 3.30304 0.0538057
2.89471 3.31104 0.0548057
2.85171 3.31404 0.0548057
2.80071 3.31804 0.0558057
2.75071 3.32304 0.0568057
2.71071 3.32804 0.0578057
2.20171 3.37604 0.0658057
1.87071 3.40604 0.0708057
1.78671 3.41704 0.0718057
1.75071 3.42504 0.0718057
1.65771 3.42904 0.0728057
3.44371 3.27104 0.0118057
3.36671 3.27904 0.0138057
3.28971 3.27504 0.0158057
3.27971 3.28504 0.0158057
3.19571 3.29304 0.0178057
3.16171 3.29904 0.0188057
3.02871 3.31204 0.0218057
2.97571 3.30604 0.0228057
2.95071 3.32004 0.0238057
2.88071 3.31304 0.0258057
2.77371 3.32504 0.0278057
2.75771 3.32604 0.0278057
2.69771 3.33804 0.0288057
2.65971 3.34404 0.0298057
2.64271 3.34404 0.0308057
2.60971 3.34504 0.0308057
2.57871 3.34904 0.0318057
2.57071 3.34904 0.0318057
2.55571 3.35104 0.0318057
2.54071 3.35304 0.0328057
2.52371 3.35304 0.0328057
2.49471 3.35704 0.0338057
2.48171 3.36204 0.0338057
2.46671 3.35304 0.0338057
2.45371 3.35704 0.0348057
2.44171 3.36304 0.0348057
2.42571 3.36304 0.0348057
2.41471 3.37004 0.0348057
2.39871 3.37004 0.0348057
2.38771 3.36504 0.0358057
2.37771 3.37304 0.0358057
2.36071 3.37204 0.0358057
2.34371 3.37004 0.0368057
2.33271 3.37704 0.0368057
2.29971 3.37304 0.0378057
2.29571 3.37904 0.0368057
2.27771 3.37604 0.0378057
2.26471 3.38004 0.0378057
2.24971 3.38004 0.0378057
2.23771 3.38404 0.0388057
2.22171 3.38204 0.0388057
2.20271 3.37804 0.0388057
2.20071 3.38604 0.0388057
2.18171 3.37904 0.0398057
2.17671 3.39504 0.0388057
2.15571 3.38604 0.0398057
2.13771 3.38104 0.0408057
2.12771 3.38804 0.0408057
2.11971 3.38804 0.0408057
2.11071 3.39604 0.0408057
2.08071 3.39604 0.0408057
2.06371 3.39204 0.0418057
2.05571 3.40204 0.0418057
2.03771 3.39604 0.0418057
2.01971 3.39104 0.0428057
2.01771 3.39904 0.0428057
1.99971 3.39304 0.0428057
1.98671 3.39604 0.0428057
1.98071 3.40904 0.0428057
1.96171 3.40104 0.0438057
1.95071 3.40804 0.0438057
1.93371 3.40104 0.0438057
1.93071 3.41004 0.0438057
1.90171 3.40804 0.0448057
1.89171 3.41404 0.0448057
1.87471 3.40904 0.0448057
1.85871 3.41804 0.0448057
1.82971 3.41504 0.0458057
1.80071 3.41304 0.0458057
1.78871 3.41504 0.0458057
1.77971 3.42404 0.0458057
1.77271 3.42304 0.0458057
1.76171 3.42904 0.0458057
1.73071 3.42204 0.0468057
1.71971 3.42504 0.0468057
1.70771 3.42904 0.0468057
1.69371 3.42704 0.0478057
1.69171 3.43704 0.0468057
1.66371 3.43504 0.0478057
3.03971 3.30104 -0.00519432
3.02471 3.30604 -0.00519432
3.01171 3.31304 -0.00519432
2.97671 3.31604 -0.00419432
2.95671 3.31404 -0.00319432
2.94171 3.31904 -0.00319432
2.92771 3.31304 -0.00219432
2.90871 3.31404 -0.00219432
2.89871 3.32304 -0.00219432
2.88271 3.32604 -0.00119432
2.86171 3.32304 -0.00019432
2.84271 3.32104 -0.00019432
2.83171 3.33004 -0.00019432
2.78771 3.33104 0.000805681
2.75171 3.33004 0.00180568
2.71971 3.33504 0.00280568
2.69571 3.33704 0.00380568
2.66071 3.33704 0.00480568
2.62071 3.35104 0.00480568
2.59271 3.34704 0.00580568
2.58171 3.35504 0.00580568
2.56671 3.35704 0.00680568
2.51671 3.34704 0.00780568
2.49471 3.36104 0.00780568
2.46071 3.35904 0.00880568
2.43571 3.37004 0.00980568
2.42571 3.36704 0.00980568
2.39371 3.36804 0.0108057
2.37871 3.36904 0.0108057
2.29871 3.37804 0.0128057
2.26871 3.37904 0.0138057
3.66571 3.23204 -0.0511943
3.65971 3.24704 -0.0511943
3.62771 3.23904 -0.0501943
3.61571 3.24904 -0.0501943
3.59071 3.24704 -0.0491943
3.56571 3.24404 -0.0481943
3.55471 3.24504 -0.0471943
3.54571 3.25704 -0.0471943
3.51771 3.25204 -0.0461943
3.50071 3.25604 -0.0461943
3.48771 3.26404 -0.0461943
3.45671 3.25604 -0.0441943
3.44671 3.26704 -0.0441943
3.43471 3.26504 -0.0441943
3.40871 3.26104 -0.0431943
3.34871 3.26504 -0.0411943
3.31171 3.26904 -0.0391943
3.08971 3.28704 -0.0321943
2.99571 3.30004 -0.0301943
2.86571 3.30904 -0.0261943
2.79171 3.31704 -0.0231943
2.76171 3.32404 -0.0231943
2.73771 3.32604 -0.0221943
2.72071 3.32704 -0.0221943
2.68871 3.33004 -0.0211943
2.64871 3.33304 -0.0201943
2.63571 3.33804 -0.0191943
2.62071 3.34004 -0.0191943
2.55771 3.34604 -0.0171943
2.47171 3.35104 -0.0151943
2.41771 3.35504 -0.0131943
2.38771 3.35704 -0.0131943
2.37871 3.36604 -0.0131943
2.36071 3.36404 -0.0121943
2.35071 3.36104 -0.0121943
2.30571 3.36304 -0.0101943
2.29671 3.37204 -0.0111943
2.22771 3.37204 -0.00919432
2.18371 3.37504 -0.00819432
2.17671 3.37504 -0.00719432
2.12571 3.38804 -0.00719432
2.07971 3.39804 -0.00619432
2.01771 3.39104 -0.00419432
1.98871 3.40104 -0.00419432
1.97271 3.39904 -0.00319432
1.93371 3.40504 -0.00219432
1.92471 3.41504 -0.00319432
1.88671 3.40904 -0.00119432
1.81771 3.42104 -0.00019432
1.77671 3.42204 0.000805681
1.76471 3.42604 0.000805681
1.74071 3.41804 0.00180568
1.71771 3.42604 0.00180568
1.69471 3.43504 0.00180568
1.67871 3.42704 0.00280568
1.67071 3.42604 0.00280568
3.68671 3.23904 -0.0841943
3.66871 3.24404 -0.0831943
3.63471 3.23404 -0.0811943
3.61671 3.23904 -0.0811943
3.58571 3.24204 -0.0791943
3.56471 3.24304 -0.0791943
3.54771 3.24804 -0.0781943
3.52671 3.25004 -0.0771943
3.50371 3.24904 -0.0761943
3.48571 3.25304 -0.0761943
3.47671 3.25404 -0.0751943
3.45771 3.25704 -0.0751943
3.43871 3.26004 -0.0741943
3.39271 3.25804 -0.0721943
3.37671 3.26304 -0.0721943
3.35771 3.26504 -0.0711943
3.34871 3.26604 -0.0711943
3.31271 3.27204 -0.0691943
3.29671 3.27704 -0.0691943
3.27071 3.27204 -0.0681943
3.25271 3.27504 -0.0671943
3.23471 3.27704 -0.0661943
3.16771 3.28004 -0.0641943
3.15171 3.28504 -0.0641943
3.03571 3.29704 -0.0601943
3.01471 3.29504 -0.0591943
2.95271 3.30004 -0.0571943
2.90371 3.30704 -0.0551943
2.87971 3.31104 -0.0541943
2.84071 3.32904 -0.0541943
2.82371 3.33104 -0.0531943
2.75071 3.33904 -0.0511943
2.71671 3.34104 -0.0501943
2.67671 3.34504 -0.0481943
2.65671 3.34104 -0.0481943
2.64371 3.34704 -0.0471943
2.62771 3.34904 -0.0471943
2.61371 3.35204 -0.0461943
2.60071 3.34704 -0.0461943
2.58571 3.34904 -0.0451943
2.57071 3.35204 -0.0451943
2.49371 3.36004 -0.0431943
2.48171 3.35404 -0.0421943
2.46871 3.35904 -0.0421943
2.43671 3.36004 -0.0411943
2.38871 3.37004 -0.0401943
2.37071 3.36804 -0.0391943
2.34371 3.37504 -0.0381943
2.32071 3.36404 -0.0371943
2.29871 3.36704 -0.0371943
2.24971 3.38604 -0.0361943
2.11871 3.38204 -0.0321943
2.11371 3.38504 -0.0321943
2.06071 3.39504 -0.0311943
2.04471 3.39304 -0.0301943
2.00971 3.39504 -0.0291943
1.99771 3.39904 -0.0291943
1.98471 3.40204 -0.0291943
1.97371 3.40704 -0.0291943
1.95671 3.40304 -0.0281943
1.94471 3.40704 -0.0281943
1.93971 3.41004 -0.0281943
1.92471 3.40904 -0.0281943
1.90971 3.40704 -0.0271943
1.89771 3.41104 -0.0271943
1.88771 3.41804 -0.0271943
1.87371 3.41904 -0.0271943
1.85971 3.41804 -0.0261943
1.85471 3.42104 -0.0261943
1.83771 3.41604 -0.0251943
1.82271 3.41504 -0.0251943
1.81371 3.42204 -0.0251943
1.78771 3.42704 -0.0251943
1.78071 3.42604 -0.0241943
1.74171 3.43004 -0.0241943
1.70271 3.43204 -0.0231943
1.69671 3.43504 -0.0231943
1.68371 3.43504 -0.0221943
3.08571 3.30504 -0.0861943
2.72071 3.33804 -0.0731943
2.70671 3.34104 -0.0721943
2.68871 3.34104 -0.0721943
2.66471 3.34204 -0.0711943
2.63071 3.34304 -0.0701943
2.57871 3.35104 -0.0681943
2.51771 3.35904 -0.0661943
2.50371 3.36204 -0.0661943
2.46371 3.36204 -0.0641943
2.45071 3.36704 -0.0641943
2.40371 3.36904 -0.0621943
2.37771 3.36504 -0.0611943
2.36671 3.37304 -0.0611943
2.34971 3.37004 -0.0611943
2.33271 3.36804 -0.0601943
2.28771 3.38204 -0.0591943
2.23971 3.38004 -0.0571943
2.23071 3.38804 -0.0571943
2.21571 3.38904 -0.0571943
2.20171 3.39004 -0.0571943
2.19471 3.39104 -0.0561943
2.17871 3.38904 -0.0561943
2.10371 3.40104 -0.0541943
2.07271 3.39804 -0.0531943
2.03471 3.40704 -0.0521943
2.02471 3.40204 -0.0511943
1.98771 3.41204 -0.0511943
1.95971 3.41404 -0.0501943
1.93871 3.41504 -0.0491943
1.92671 3.41704 -0.0491943
1.86471 3.42004 -0.0471943
1.78571 3.42604 -0.0451943
1.76871 3.43204 -0.0451943
1.75171 3.42704 -0.0451943
1.74171 3.43404 -0.0451943
1.71371 3.43104 -0.0441943
1.68471 3.44104 -0.0431943
0.766705 3.52904 -0.0301943
0.701705 3.52404 -0.0291943
0.461705 3.55804 -0.0281943
0.349705 3.56704 -0.0281943
0.265705 3.57404 -0.0281943
0.192705 3.57804 -0.0281943
0.0857052 3.59304 -0.0291943
0.0577052 3.59704 -0.0291943
0.0457052 3.59504 -0.0291943
3.66171 3.24804 -0.144194
3.62771 3.23804 -0.141194
3.61371 3.23604 -0.141194
3.57871 3.24604 -0.139194
3.56671 3.25504 -0.139194
3.54371 3.25504 -0.138194
3.51671 3.25104 -0.136194
3.49371 3.25004 -0.135194
3.48871 3.25504 -0.135194
3.45071 3.26104 -0.134194
3.43271 3.26504 -0.133194
3.40971 3.26304 -0.132194
3.38771 3.26304 -0.131194
3.37771 3.26404 -0.130194
3.34071 3.26904 -0.128194
3.32471 3.27304 -0.128194
3.29871 3.26904 -0.126194
3.27471 3.28604 -0.126194
3.24871 3.27004 -0.124194
3.23371 3.27604 -0.124194
3.21671 3.27904 -0.123194
3.17671 3.28004 -0.121194
3.16771 3.29104 -0.121194
3.14171 3.28504 -0.120194
3.13171 3.28404 -0.119194
3.11271 3.28604 -0.118194
3.06671 3.29904 -0.117194
3.01371 3.29304 -0.114194
3.00171 3.30104 -0.114194
2.96071 3.29804 -0.112194
2.92671 3.30204 -0.110194
2.91771 3.30204 -0.110194
2.87471 3.31604 -0.109194
2.77571 3.31604 -0.104194
2.72771 3.32204 -0.103194
0.788705 3.50904 -0.0541943
0.765705 3.51004 -0.0541943
0.732705 3.51504 -0.0541943
0.721705 3.51704 -0.0541943
0.705705 3.52204 -0.0541943
0.670705 3.52304 -0.0541943
0.642705 3.52204 -0.0531943
0.223705 3.56504 -0.0531943
2.96471 3.31704 -0.135194
2.83871 3.32904 -0.130194
2.80471 3.33204 -0.128194
2.60971 3.34804 -0.120194
2.47471 3.35504 -0.115194
2.44271 3.36704 -0.114194
2.42571 3.36504 -0.113194
2.34571 3.37504 -0.110194
2.31571 3.37604 -0.109194
2.19571 3.39104 -0.105194
2.18771 3.39104 -0.105194
2.15571 3.38804 -0.103194
2.05471 3.40404 -0.100194
2.04071 3.40304 -0.100194
2.00871 3.39904 -0.0981943
1.99571 3.40204 -0.0981943
1.97971 3.41104 -0.0981943
1.93671 3.41004 -0.0961943
1.89271 3.41904 -0.0951943
1.87971 3.42004 -0.0951943
1.86571 3.42104 -0.0941943
1.85271 3.42304 -0.0941943
1.80671 3.42704 -0.0931943
1.79071 3.42204 -0.0921943
1.72071 3.43104 -0.0901943
1.68471 3.44004 -0.0901943
1.61471 3.44704 -0.0881943
0.886705 3.51704 -0.0751943
0.863705 3.51904 -0.0741943
0.799705 3.51904 -0.0731943
0.755705 3.52904 -0.0731943
0.691705 3.52804 -0.0721943
0.675705 3.53304 -0.0721943
0.661705 3.52404 -0.0711943
0.653705 3.53904 -0.0721943
0.640705 3.53404 -0.0721943
0.601705 3.53604 -0.0721943
0.579705 3.54204 -0.0721943
0.568705 3.54404 -0.0721943
0.556705 3.54604 -0.0721943
0.545705 3.54704 -0.0721943
0.538705 3.53604 -0.0711943
0.517705 3.55004 -0.0721943
0.506705 3.54704 -0.0711943
0.483705 3.54804 -0.0711943
0.472705 3.55004 -0.0711943
0.456705 3.55804 -0.0721943
0.444705 3.55804 -0.0711943
0.422705 3.55604 -0.0711943
0.410705 3.55804 -0.0711943
0.399705 3.55704 -0.0711943
0.394705 3.55904 -0.0711943
0.382705 3.55304 -0.0711943
0.371705 3.56404 -0.0711943
0.360705 3.55904 -0.0711943
0.348705 3.55804 -0.0711943
0.327705 3.56804 -0.0711943
0.321705 3.56704 -0.0711943
0.298705 3.56504 -0.0711943
0.287705 3.57004 -0.0711943
0.276705 3.56704 -0.0711943
0.265705 3.57104 -0.0711943
0.254705 3.57204 -0.0711943
0.237705 3.56904 -0.0711943
0.203705 3.57704 -0.0711943
0.192705 3.57804 -0.0711943
0.175705 3.57704 -0.0711943
0.164705 3.58504 -0.0721943
0.153705 3.58204 -0.0711943
0.142705 3.58804 -0.0721943
0.130705 3.58304 -0.0711943
0.102705 3.57804 -0.0711943
0.0807052 3.59404 -0.0721943
0.0687052 3.57904 -0.0711943
0.0577052 3.59504 -0.0721943
0.0467052 3.58504 -0.0711943
0.0347052 3.58504 -0.0711943
0.0297052 3.59504 -0.0721943
0.00670524 3.59504 -0.0721943
3.63671 3.23404 -0.198194
3.62971 3.24804 -0.198194
3.59871 3.24104 -0.196194
3.58771 3.24104 -0.196194
3.56971 3.24604 -0.195194
3.55871 3.25604 -0.195194
3.52171 3.24304 -0.192194
3.51571 3.25804 -0.192194
3.48171 3.24704 -0.190194
3.48171 3.25704 -0.190194
3.45671 3.25404 -0.189194
3.44071 3.25904 -0.188194
3.41871 3.25904 -0.187194
3.39771 3.26004 -0.185194
3.37771 3.26104 -0.184194
3.36171 3.26604 -0.184194
3.33071 3.26704 -0.182194
3.28871 3.26704 -0.180194
3.23471 3.27504 -0.177194
3.14971 3.28004 -0.173194
3.13071 3.28204 -0.172194
3.11971 3.29004 -0.171194
2.99771 3.29404 -0.165194
2.92271 3.30504 -0.162194
2.90171 3.30304 -0.160194
2.25871 3.37304 -0.133194
1.94271 3.40004 -0.122194
1.90871 3.40304 -0.121194
1.82171 3.41004 -0.118194
1.79671 3.41404 -0.117194
1.76971 3.41504 -0.116194
1.74871 3.41404 -0.115194
1.72671 3.42304 -0.115194
1.70171 3.42704 -0.115194
1.68471 3.42204 -0.114194
1.67971 3.42404 -0.114194
1.65271 3.42404 -0.113194
1.63071 3.43304 -0.113194
1.61871 3.43604 -0.112194
1.60371 3.43204 -0.112194
1.60071 3.44004 -0.112194
1.55071 3.44504 -0.111194
1.52971 3.44204 -0.110194
1.52171 3.45204 -0.110194
1.50771 3.44904 -0.110194
1.49271 3.44504 -0.109194
1.48071 3.44804 -0.109194
1.46971 3.45104 -0.109194
1.45671 3.45204 -0.108194
1.44671 3.44304 -0.107194
1.43971 3.45704 -0.108194
1.41071 3.44904 -0.107194
1.39171 3.46304 -0.107194
1.37971 3.46404 -0.107194
1.37271 3.46404 -0.107194
1.36171 3.46704 -0.106194
1.34971 3.46904 -0.106194
1.32171 3.46104 -0.105194
1.31271 3.47104 -0.105194
1.30071 3.47104 -0.105194
1.29671 3.47704 -0.105194
1.27071 3.47504 -0.105194
1.24771 3.48004 -0.104194
1.23571 3.48004 -0.104194
1.22271 3.48004 -0.104194
1.21271 3.46904 -0.102194
1.20271 3.47404 -0.103194
1.19171 3.47804 -0.103194
1.18071 3.48204 -0.103194
1.16871 3.48204 -0.102194
1.15671 3.48404 -0.102194
1.12571 3.48104 -0.101194
1.11371 3.48104 -0.101194
1.07971 3.48704 -0.101194
1.06771 3.48704 -0.100194
1.06171 3.48904 -0.100194
1.04971 3.48804 -0.100194
1.04171 3.49904 -0.101194
1.02971 3.50004 -0.100194
1.01371 3.48604 -0.0991943
1.00571 3.50104 -0.100194
0.986705 3.49604 -0.0991943
0.976705 3.50104 -0.0991943
0.964705 3.50204 -0.0991943
0.950705 3.49604 -0.0981943
0.941705 3.50504 -0.0991943
0.930705 3.50904 -0.0991943
0.917705 3.50304 -0.0981943
0.911705 3.50404 -0.0981943
0.901705 3.50904 -0.0981943
0.889705 3.51004 -0.0981943
0.878705 3.51104 -0.0981943
0.866705 3.50904 -0.0981943
0.854705 3.50804 -0.0971943
0.843705 3.51104 -0.0971943
0.836705 3.50704 -0.0971943
0.828705 3.52104 -0.0981943
0.813705 3.50804 -0.0971943
0.803705 3.51604 -0.0971943
0.791705 3.51304 -0.0971943
0.767705 3.51004 -0.0961943
0.761705 3.50904 -0.0961943
0.752705 3.52104 -0.0971943
0.728705 3.51804 -0.0961943
0.716705 3.51704 -0.0961943
0.706705 3.52104 -0.0961943
0.700705 3.52004 -0.0961943
0.690705 3.52804 -0.0961943
0.667705 3.52604 -0.0961943
0.654705 3.52304 -0.0951943
0.644705 3.52904 -0.0951943
0.632705 3.52504 -0.0951943
0.627705 3.53204 -0.0951943
0.615705 3.52804 -0.0951943
0.604705 3.53004 -0.0951943
0.582705 3.53104 -0.0951943
0.570705 3.53104 -0.0951943
0.559705 3.53104 -0.0941943
0.553705 3.53004 -0.0941943
0.542705 3.53404 -0.0941943
0.532705 3.54104 -0.0951943
0.520705 3.53904 -0.0951943
0.510705 3.54404 -0.0951943
0.498705 3.54404 -0.0951943
0.481705 3.54204 -0.0941943
0.470705 3.54204 -0.0941943
0.458705 3.54104 -0.0941943
0.447705 3.53904 -0.0941943
0.437705 3.55404 -0.0951943
0.424705 3.54204 -0.0941943
0.415705 3.55504 -0.0951943
0.409705 3.55204 -0.0941943
0.397705 3.55304 -0.0941943
0.386705 3.55204 -0.0941943
0.376705 3.56104 -0.0951943
0.364705 3.55404 -0.0941943
0.353705 3.55804 -0.0941943
0.341705 3.55704 -0.0941943
0.336705 3.55704 -0.0941943
0.325705 3.56404 -0.0951943
0.314705 3.56504 -0.0951943
0.303705 3.56404 -0.0951943
0.291705 3.56504 -0.0951943
0.279705 3.55804 -0.0941943
0.269705 3.56704 -0.0951943
0.263705 3.56704 -0.0951943
0.252705 3.57204 -0.0951943
0.241705 3.56304 -0.0941943
0.230705 3.57404 -0.0951943
0.218705 3.56404 -0.0941943
0.207705 3.57304 -0.0951943
0.196705 3.57804 -0.0951943
0.191705 3.57804 -0.0951943
0.180705 3.58004 -0.0951943
0.168705 3.57704 -0.0951943
0.157705 3.57604 -0.0951943
0.146705 3.58404 -0.0951943
0.135705 3.58804 -0.0961943
0.123705 3.58304 -0.0951943
0.118705 3.57904 -0.0951943
0.107705 3.59104 -0.0961943
0.0957052 3.58004 -0.0951943
0.0847052 3.58804 -0.0961943
0.0737052 3.59004 -0.0961943
0.0627052 3.59004 -0.0961943
0.0507052 3.58504 -0.0951943
0.0337052 3.59104 -0.0961943
0.0227052 3.59904 -0.0961943
0.0117052 3.59304 -0.0961943
3.64871 3.23404 -0.227194
3.64671 3.24204 -0.227194
3.63171 3.25004 -0.227194
3.60871 3.24904 -0.225194
3.58471 3.24804 -0.224194
3.54571 3.25304 -0.222194
3.52371 3.25304 -0.220194
3.51171 3.25204 -0.219194
3.48571 3.24804 -0.217194
3.47371 3.25804 -0.217194
3.46171 3.26704 -0.217194
3.43771 3.26404 -0.215194
3.41371 3.26204 -0.214194
3.39771 3.26804 -0.213194
3.37771 3.25804 -0.211194
3.34671 3.26904 -0.210194
3.32071 3.26404 -0.208194
3.30071 3.26504 -0.207194
3.28871 3.27404 -0.207194
3.26871 3.27404 -0.206194
3.25571 3.27104 -0.205194
3.23571 3.27104 -0.203194
3.21971 3.27504 -0.203194
3.19071 3.28704 -0.202194
3.16771 3.28404 -0.200194
3.14571 3.28104 -0.199194
3.06571 3.29004 -0.195194
3.04771 3.29004 -0.193194
3.03771 3.30004 -0.193194
3.02171 3.29304 -0.192194
2.96871 3.29804 -0.189194
2.91671 3.30104 -0.187194
2.88271 3.31504 -0.186194
2.86071 3.31004 -0.184194
2.82471 3.31004 -0.182194
2.75371 3.32004 -0.179194
2.71871 3.32104 -0.177194
2.68171 3.32804 -0.175194
2.61571 3.33004 -0.172194
2.32271 3.36004 -0.159194
1.95371 3.39804 -0.145194
1.91271 3.40004 -0.143194
1.88771 3.40504 -0.143194
1.85271 3.40604 -0.141194
1.82671 3.40904 -0.140194
1.76771 3.41304 -0.138194
1.74271 3.41704 -0.138194
1.64671 3.42604 -0.135194
1.60171 3.42804 -0.133194
1.57971 3.43604 -0.133194
1.55871 3.43304 -0.132194
1.54971 3.44304 -0.132194
1.51271 3.44604 -0.131194
1.46671 3.44304 -0.130194
1.42971 3.44504 -0.129194
1.36271 3.45104 -0.127194
1.32771 3.45804 -0.126194
1.26271 3.46704 -0.125194
1.18671 3.47704 -0.124194
0.0147052 3.58304 -0.116194
3.50871 3.25804 -0.248194
3.48871 3.26004 -0.247194
3.46371 3.25704 -0.245194
3.44571 3.26104 -0.244194
3.43171 3.25904 -0.243194
3.41571 3.26404 -0.242194
3.38871 3.25804 -0.240194
3.37671 3.26704 -0.240194
3.35471 3.26704 -0.239194
3.34071 3.27304 -0.238194
3.31171 3.26604 -0.236194
3.30071 3.26504 -0.235194
3.28371 3.26904 -0.234194
3.27071 3.27604 -0.234194
3.24271 3.27004 -0.231194
3.22971 3.27704 -0.231194
3.21271 3.28004 -0.230194
3.19571 3.28304 -0.229194
3.18171 3.27904 -0.228194
3.16171 3.27904 -0.227194
3.14171 3.27904 -0.226194
3.12471 3.28204 -0.225194
3.10771 3.28504 -0.224194
3.09371 3.29104 -0.223194
3.07171 3.28804 -0.222194
3.06371 3.29004 -0.221194
3.04671 3.29204 -0.220194
3.00971 3.29404 -0.218194
2.99271 3.29604 -0.217194
2.97571 3.29804 -0.216194
2.97171 3.30404 -0.217194
2.93171 3.30204 -0.214194
2.90171 3.31004 -0.213194
2.86271 3.30704 -0.210194
2.84071 3.31304 -0.209194
2.80771 3.31704 -0.208194
2.77571 3.32104 -0.206194
1.87471 3.40204 -0.165194
1.77771 3.41304 -0.162194
1.76371 3.41204 -0.161194
1.70671 3.42004 -0.159194
1.69371 3.42004 -0.159194
1.68271 3.42604 -0.159194
1.61671 3.44204 -0.158194
1.58571 3.43204 -0.156194
1.57871 3.43104 -0.155194
1.54371 3.43804 -0.155194
1.47671 3.44804 -0.153194
1.40671 3.44904 -0.151194
0.286705 3.55404 -0.136194
0.236705 3.56004 -0.136194
0.225705 3.56204 -0.136194
0.214705 3.56504 -0.136194
0.153705 3.56804 -0.136194
0.141705 3.56904 -0.136194
0.131705 3.58304 -0.138194
0.102705 3.57404 -0.137194
0.0917052 3.58404 -0.138194
0.0697052 3.57904 -0.137194
0.0577052 3.57904 -0.137194
0.0467052 3.58104 -0.137194
0.0357052 3.58104 -0.137194
0.0307052 3.58904 -0.138194
0.0187052 3.59004 -0.138194
0.00770524 3.58204 -0.137194
3.61171 3.24504 -0.286194
3.57071 3.24904 -0.283194
3.51371 3.25804 -0.279194
3.44771 3.26704 -0.275194
3.40871 3.27104 -0.273194
3.35371 3.25904 -0.268194
3.05071 3.28704 -0.249194
3.65171 3.22904 -0.318194
3.61171 3.23404 -0.315194
3.58971 3.23504 -0.313194
3.56971 3.23704 -0.312194
3.55071 3.24004 -0.311194
3.53471 3.24604 -0.310194
3.52071 3.24404 -0.308194
3.49871 3.24404 -0.307194
3.48571 3.25204 -0.306194
3.45771 3.24704 -0.304194
3.43871 3.25004 -0.303194
3.42871 3.26004 -0.303194
3.40471 3.25904 -0.301194
3.38971 3.25504 -0.299194
3.38071 3.26704 -0.300194
3.35071 3.25804 -0.297194
3.33671 3.26404 -0.296194
3.31871 3.26804 -0.295194
3.29871 3.26804 -0.294194
3.28771 3.26804 -0.293194
3.27071 3.27104 -0.292194
3.22971 3.27204 -0.289194
3.21471 3.27704 -0.288194
3.19371 3.27704 -0.286194
3.17971 3.28304 -0.286194
3.16871 3.28204 -0.285194
3.14771 3.28004 -0.283194
3.09071 3.28304 -0.279194
3.07371 3.28504 -0.278194
3.05871 3.29004 -0.278194
3.01671 3.29704 -0.275194
2.99671 3.29604 -0.274194
2.97571 3.29404 -0.272194
2.95971 3.29704 -0.271194
2.92071 3.30504 -0.269194
2.85071 3.30904 -0.265194
2.82471 3.31004 -0.263194
2.76571 3.32604 -0.260194
2.73371 3.31904 -0.258194
2.65271 3.32604 -0.253194
2.63771 3.32904 -0.252194
2.52671 3.33804 -0.246194
2.46671 3.34504 -0.243194
2.45471 3.35104 -0.242194
2.43671 3.34804 -0.241194
2.42871 3.34804 -0.241194
2.35371 3.35504 -0.237194
2.27771 3.36904 -0.233194
2.25971 3.36704 -0.232194
2.24371 3.36504 -0.231194
2.23671 3.36604 -0.231194
2.20871 3.37004 -0.229194
2.19771 3.37704 -0.229194
2.18471 3.37904 -0.229194
2.14671 3.37904 -0.227194
2.10571 3.38404 -0.225194
2.07671 3.38504 -0.223194
2.01471 3.39004 -0.220194
2.00271 3.39504 -0.220194
1.98771 3.39404 -0.219194
1.96471 3.39204 -0.218194
1.92771 3.40104 -0.217194
1.91171 3.39904 -0.216194
1.89271 3.40304 -0.215194
1.82571 3.40704 -0.212194
1.80671 3.40904 -0.212194
1.79371 3.41104 -0.211194
1.78071 3.41304 -0.211194
1.76671 3.41204 -0.210194
1.75671 3.41904 -0.210194
1.73071 3.42104 -0.209194
1.67271 3.42604 -0.207194
1.65071 3.42304 -0.206194
1.62871 3.43104 -0.205194
1.61571 3.43304 -0.205194
1.60171 3.43104 -0.204194
1.57971 3.43904 -0.204194
1.57071 3.43404 -0.203194
1.54371 3.43304 -0.202194
1.50771 3.43904 -0.201194
1.49871 3.44704 -0.201194
1.48871 3.44004 -0.200194
1.47671 3.44104 -0.200194
1.46571 3.44604 -0.200194
1.45171 3.44304 -0.199194
1.42771 3.44704 -0.198194
1.41471 3.44604 -0.198194
1.40971 3.44804 -0.198194
1.36171 3.45604 -0.197194
1.34871 3.45504 -0.196194
1.33671 3.45504 -0.196194
1.33171 3.45704 -0.196194
1.31971 3.46004 -0.195194
1.30971 3.46604 -0.196194
1.29571 3.46204 -0.195194
1.28671 3.47004 -0.195194
1.27171 3.46304 -0.194194
1.25871 3.46104 -0.193194
1.24171 3.46704 -0.193194
1.23171 3.47304 -0.193194
1.20671 3.47104 -0.192194
1.17471 3.46804 -0.191194
1.16471 3.47504 -0.191194
1.14171 3.47804 -0.191194
1.12871 3.47404 -0.190194
1.12171 3.49104 -0.192194
1.11071 3.47404 -0.190194
1.09971 3.47804 -0.190194
1.08971 3.48504 -0.190194
1.07971 3.49004 -0.190194
1.06671 3.49004 -0.190194
1.05371 3.48304 -0.189194
1.04371 3.49104 -0.189194
1.03771 3.49004 -0.189194
1.02871 3.50104 -0.190194
1.01671 3.50104 -0.189194
1.00471 3.50204 -0.189194
0.993705 3.50504 -0.189194
0.976705 3.48704 -0.187194
0.965705 3.49004 -0.187194
0.937705 3.49604 -0.187194
0.902705 3.49504 -0.186194
0.891705 3.50004 -0.186194
0.876705 3.50904 -0.186194
0.866705 3.51404 -0.187194
0.854705 3.51504 -0.186194
0.839705 3.50204 -0.185194
0.831705 3.51604 -0.186194
0.818705 3.51104 -0.185194
0.810705 3.50304 -0.184194
0.801705 3.51304 -0.185194
0.778705 3.51404 -0.185194
0.769705 3.52204 -0.185194
0.754705 3.51104 -0.184194
0.739705 3.52104 -0.184194
0.715705 3.51504 -0.183194
0.706705 3.52704 -0.184194
0.683705 3.53004 -0.184194
0.671705 3.52604 -0.183194
0.654705 3.52504 -0.183194
0.619705 3.52504 -0.182194
0.610705 3.53504 -0.183194
0.599705 3.53704 -0.183194
0.591705 3.52804 -0.182194
0.583705 3.54404 -0.184194
0.548705 3.54104 -0.183194
0.519705 3.54004 -0.182194
0.508705 3.53904 -0.182194
0.451705 3.53904 -0.181194
0.434705 3.54104 -0.181194
0.424705 3.54804 -0.182194
0.412705 3.54604 -0.181194
0.392705 3.56204 -0.183194
0.362705 3.55304 -0.182194
0.340705 3.55304 -0.181194
0.329705 3.55404 -0.181194
0.317705 3.55004 -0.181194
0.312705 3.55404 -0.181194
0.301705 3.55704 -0.181194
0.289705 3.55604 -0.181194
0.267705 3.56204 -0.182194
0.256705 3.56204 -0.182194
0.245705 3.56504 -0.182194
0.239705 3.56404 -0.182194
0.229705 3.57004 -0.182194
0.183705 3.56304 -0.181194
0.173705 3.57504 -0.182194
0.156705 3.57204 -0.182194
0.145705 3.58104 -0.183194
0.133705 3.56904 -0.182194
0.122705 3.58004 -0.183194
0.111705 3.57204 -0.182194
0.0997052 3.57204 -0.182194
0.0947052 3.58404 -0.183194
0.0837052 3.57904 -0.182194
0.0727052 3.58704 -0.183194
0.0497052 3.58704 -0.183194
0.0387052 3.58304 -0.183194
0.0217052 3.58804 -0.183194
3.64771 3.23404 -0.350194
3.62271 3.23304 -0.348194
3.60571 3.23704 -0.347194
3.58271 3.23704 -0.345194
3.57271 3.23804 -0.344194
3.55671 3.24404 -0.343194
3.51771 3.24904 -0.340194
3.50171 3.25404 -0.339194
3.47971 3.25404 -0.338194
3.45371 3.25004 -0.335194
3.44971 3.25704 -0.335194
3.42271 3.25104 -0.333194
3.40671 3.25604 -0.332194
3.40071 3.27104 -0.333194
3.37571 3.26804 -0.330194
3.35171 3.26504 -0.328194
3.33371 3.26804 -0.327194
3.31671 3.26104 -0.325194
3.28171 3.26704 -0.323194
3.26271 3.26904 -0.322194
3.24571 3.27204 -0.320194
3.19571 3.27204 -0.316194
3.18071 3.27804 -0.316194
3.15371 3.29004 -0.315194
3.12971 3.28604 -0.312194
3.12171 3.29904 -0.313194
3.10071 3.28604 -0.310194
3.08671 3.29304 -0.310194
3.06971 3.29504 -0.309194
3.05271 3.29804 -0.308194
3.03771 3.30104 -0.307194
3.01771 3.30004 -0.305194
3.00071 3.30304 -0.304194
2.99571 3.30704 -0.304194
2.97971 3.31104 -0.303194
2.95971 3.31004 -0.302194
2.93771 3.30504 -0.300194
2.92071 3.30704 -0.299194
2.90271 3.30704 -0.297194
2.88671 3.31004 -0.296194
2.87271 3.30404 -0.295194
2.86671 3.31804 -0.296194
2.84771 3.31804 -0.294194
2.82571 3.31304 -0.292194
2.81071 3.31604 -0.291194
2.79471 3.31904 -0.290194
2.77871 3.32004 -0.289194
2.77271 3.32404 -0.289194
2.75371 3.32204 -0.288194
2.74071 3.32704 -0.287194
2.72271 3.32704 -0.286194
2.71271 3.33504 -0.286194
2.69071 3.33004 -0.284194
2.67771 3.33504 -0.284194
2.66271 3.32704 -0.282194
2.64771 3.32904 -0.281194
2.63371 3.33304 -0.280194
2.61771 3.33504 -0.279194
2.61071 3.34804 -0.280194
2.59071 3.34304 -0.278194
2.57271 3.34204 -0.277194
2.54671 3.33904 -0.275194
2.53271 3.34304 -0.274194
2.50071 3.34404 -0.272194
2.49471 3.35804 -0.273194
2.47271 3.35004 -0.271194
2.42971 3.34704 -0.268194
2.41771 3.35104 -0.268194
2.40571 3.35704 -0.267194
2.38971 3.35704 -0.266194
2.37971 3.35404 -0.265194
2.36671 3.35804 -0.265194
2.35371 3.36204 -0.264194
2.33871 3.36304 -0.264194
2.32271 3.36204 -0.262194
2.30871 3.36404 -0.262194
2.29371 3.36504 -0.261194
2.27571 3.37304 -0.260194
2.25671 3.36604 -0.259194
2.24371 3.37004 -0.258194
2.22771 3.36904 -0.257194
2.21371 3.37104 -0.256194
2.19771 3.36904 -0.255194
2.13971 3.38304 -0.253194
2.11371 3.37804 -0.251194
2.08671 3.38104 -0.250194
2.07171 3.38104 -0.249194
2.03271 3.38804 -0.247194
2.01871 3.39004 -0.247194
1.98371 3.39004 -0.245194
1.97071 3.39304 -0.244194
1.95871 3.39704 -0.244194
1.61971 3.42504 -0.229194
1.52671 3.43604 -0.226194
1.43971 3.44204 -0.223194
1.37371 3.44904 -0.221194
1.31271 3.45404 -0.219194
1.30171 3.45604 -0.219194
1.25971 3.46104 -0.218194
1.04471 3.48604 -0.213194
0.945705 3.49204 -0.210194
0.883705 3.50004 -0.210194
3.66171 3.23304 -0.381194
3.63671 3.23104 -0.379194
3.63771 3.24204 -0.380194
3.60671 3.23504 -0.377194
3.58571 3.23704 -0.375194
3.57871 3.25104 -0.375194
3.54871 3.24504 -0.372194
3.53171 3.24904 -0.371194
3.51571 3.25504 -0.370194
3.49471 3.24604 -0.368194
3.47871 3.25104 -0.367194
3.46471 3.26004 -0.366194
3.43871 3.25604 -0.364194
3.42271 3.26104 -0.363194
3.40571 3.26504 -0.362194
3.38271 3.25404 -0.359194
3.36571 3.25704 -0.358194
3.35071 3.26404 -0.357194
3.32471 3.25904 -0.354194
3.31171 3.26704 -0.354194
3.29571 3.27204 -0.353194
3.26971 3.26704 -0.351194
3.25071 3.27804 -0.350194
3.22471 3.27304 -0.347194
3.20771 3.27604 -0.346194
3.19071 3.27904 -0.345194
3.17171 3.28004 -0.344194
3.14371 3.28204 -0.341194
3.08971 3.28704 -0.337194
3.03371 3.29004 -0.333194
2.99171 3.29604 -0.331194
2.89371 3.30104 -0.323194
2.84671 3.31004 -0.321194
2.75171 3.31504 -0.314194
2.73771 3.31904 -0.313194
2.70371 3.32104 -0.311194
2.40771 3.34804 -0.292194
2.04371 3.38604 -0.272194
1.90771 3.39804 -0.266194
1.75071 3.41504 -0.259194
1.73671 3.41304 -0.258194
1.65571 3.42704 -0.255194
1.62871 3.42604 -0.254194
1.62071 3.42404 -0.253194
1.59771 3.43004 -0.252194
1.57171 3.43104 -0.251194
1.54971 3.43904 -0.251194
1.54071 3.43404 -0.250194
1.52971 3.43704 -0.250194
1.49171 3.43904 -0.248194
1.48171 3.44704 -0.249194
1.47471 3.44404 -0.248194
1.46271 3.44704 -0.248194
1.45071 3.44804 -0.247194
1.44071 3.45604 -0.248194
1.42371 3.44604 -0.246194
1.41271 3.45004 -0.246194
1.40371 3.45804 -0.246194
1.39471 3.45104 -0.245194
1.38471 3.45804 -0.245194
1.37171 3.45604 -0.245194
1.35871 3.45704 -0.244194
1.34571 3.45604 -0.244194
1.32271 3.46004 -0.243194
1.32071 3.47004 -0.244194
1.27071 3.46904 -0.242194
1.24771 3.47604 -0.242194
1.24171 3.47604 -0.241194
1.22571 3.46504 -0.240194
1.21471 3.46804 -0.240194
1.20271 3.47004 -0.239194
1.17971 3.47404 -0.239194
1.13971 3.48304 -0.238194
1.08671 3.48604 -0.237194
1.07671 3.49304 -0.237194
1.06371 3.49004 -0.237194
1.05071 3.48604 -0.236194
1.04171 3.49504 -0.236194
1.00971 3.49004 -0.235194
0.999705 3.49704 -0.235194
0.976705 3.49704 -0.235194
0.962705 3.49104 -0.233194
0.942705 3.50304 -0.234194
0.933705 3.49104 -0.232194
0.911705 3.49804 -0.233194
0.877705 3.50304 -0.232194
0.849705 3.50604 -0.232194
0.814705 3.50804 -0.231194
0.802705 3.50704 -0.231194
0.750705 3.50804 -0.229194
0.742705 3.52004 -0.231194
0.689705 3.51804 -0.229194
0.656705 3.52304 -0.229194
0.628705 3.52804 -0.229194
0.604705 3.52404 -0.228194
0.594705 3.52804 -0.228194
0.582705 3.52604 -0.228194
0.565705 3.52804 -0.228194
0.543705 3.53204 -0.228194
0.531705 3.53004 -0.227194
0.481705 3.53504 -0.227194
0.448705 3.53904 -0.227194
0.420705 3.54504 -0.227194
0.398705 3.54304 -0.227194
0.387705 3.54704 -0.227194
0.376705 3.55004 -0.227194
0.364705 3.54504 -0.227194
0.347705 3.54904 -0.227194
0.314705 3.55204 -0.227194
0.292705 3.55404 -0.227194
0.287705 3.56004 -0.228194
0.276705 3.56304 -0.228194
0.264705 3.56004 -0.227194
0.241705 3.55704 -0.227194
0.219705 3.56504 -0.228194
0.214705 3.56504 -0.228194
0.203705 3.56604 -0.228194
0.180705 3.56704 -0.228194
0.158705 3.56804 -0.228194
0.147705 3.56904 -0.228194
0.130705 3.57704 -0.228194
0.119705 3.57804 -0.228194
0.107705 3.57004 -0.228194
0.0967052 3.57204 -0.228194
0.0857052 3.57904 -0.228194
0.0747052 3.57304 -0.228194
0.0687052 3.57504 -0.228194
0.0577052 3.57904 -0.228194
0.0357052 3.59104 -0.230194
0.0247052 3.59104 -0.230194
0.0127052 3.58704 -0.229194
3.20271 3.28904 -0.373194
3.09271 3.29804 -0.365194
2.97171 3.31204 -0.356194
2.73571 3.33104 -0.339194
2.66571 3.34004 -0.334194
2.47971 3.34804 -0.321194
2.46371 3.35904 -0.321194
2.41971 3.36404 -0.319194
2.36771 3.35804 -0.314194
2.30871 3.37404 -0.312194
2.14571 3.38204 -0.301194
1.17071 3.48404 -0.261194
3.70071 3.23204 -0.438194
3.59671 3.23304 -0.428194
3.53871 3.24104 -0.424194
3.49871 3.24604 -0.420194
3.47371 3.25304 -0.419194
3.43571 3.25804 -0.416194
3.38571 3.25204 -0.410194
3.36771 3.25504 -0.409194
3.34971 3.25904 -0.408194
3.22271 3.27704 -0.398194
3.19671 3.27104 -0.395194
3.14371 3.27804 -0.391194
3.11571 3.28904 -0.389194
3.06571 3.28904 -0.385194
2.99071 3.29104 -0.379194
2.93771 3.30504 -0.375194
3.63471 3.24204 -0.467194
3.61471 3.24404 -0.465194
3.57671 3.25004 -0.462194
3.56571 3.25104 -0.461194
3.54571 3.25204 -0.459194
3.43671 3.26404 -0.449194
3.38071 3.27104 -0.445194
3.11971 3.29504 -0.422194
3.07671 3.30104 -0.419194
3.02271 3.30404 -0.414194
3.00671 3.30804 -0.413194
2.98071 3.31004 -0.411194
2.96371 3.31204 -0.410194
2.92871 3.31404 -0.407194
2.91271 3.31704 -0.406194
2.88271 3.31504 -0.403194
2.86871 3.31904 -0.402194
2.83271 3.31904 -0.399194
2.81671 3.32204 -0.398194
2.80171 3.32404 -0.397194
2.78471 3.32604 -0.395194
2.76771 3.31604 -0.393194
2.76271 3.33104 -0.394194
2.73971 3.32404 -0.391194
2.72871 3.33304 -0.391194
2.71371 3.33504 -0.390194
2.69371 3.33104 -0.388194
2.67871 3.33504 -0.387194
2.65471 3.33704 -0.385194
2.63571 3.33404 -0.383194
2.62571 3.34304 -0.383194
2.60671 3.34004 -0.382194
2.57771 3.34704 -0.380194
2.56771 3.34404 -0.379194
2.54571 3.33704 -0.376194
2.53771 3.34804 -0.377194
2.51971 3.34604 -0.375194
2.50671 3.35104 -0.375194
2.48671 3.34604 -0.372194
2.47371 3.35104 -0.372194
2.46771 3.35304 -0.372194
2.45171 3.35304 -0.370194
2.43671 3.35404 -0.369194
2.42471 3.36004 -0.369194
2.41071 3.36304 -0.368194
2.39271 3.36004 -0.367194
2.37471 3.35604 -0.365194
2.37171 3.36304 -0.365194
2.35071 3.35604 -0.363194
2.34471 3.37004 -0.364194
2.32771 3.36804 -0.362194
2.28171 3.36804 -0.359194
2.27071 3.36304 -0.358194
2.25871 3.36904 -0.357194
2.24571 3.37304 -0.357194
2.21371 3.37004 -0.354194
2.20471 3.37904 -0.354194
2.18871 3.37704 -0.353194
2.18271 3.37904 -0.353194
2.16771 3.37904 -0.352194
2.14971 3.37404 -0.350194
2.13871 3.38104 -0.350194
2.13171 3.39304 -0.351194
2.10571 3.37604 -0.347194
2.10771 3.39104 -0.349194
2.09071 3.38704 -0.347194
2.08271 3.39704 -0.348194
2.06071 3.38504 -0.345194
2.03571 3.39104 -0.344194
2.02571 3.39904 -0.344194
2.01571 3.39404 -0.343194
1.98971 3.40004 -0.341194
1.97571 3.39904 -0.340194
1.95871 3.39504 -0.339194
1.95271 3.40904 -0.340194
1.93271 3.39804 -0.337194
1.92971 3.40704 -0.338194
1.91771 3.40904 -0.338194
1.88871 3.40704 -0.336194
1.87771 3.41304 -0.336194
1.86371 3.41204 -0.335194
1.83771 3.40304 -0.332194
1.82871 3.41304 -0.332194
1.80571 3.42004 -0.332194
1.77671 3.41804 -0.330194
1.75971 3.41104 -0.328194
1.75671 3.41704 -0.328194
1.74171 3.41504 -0.327194
1.73271 3.42404 -0.328194
1.71671 3.41904 -0.326194
1.69171 3.42304 -0.325194
1.68171 3.43004 -0.325194
1.66971 3.41804 -0.323194
1.66471 3.43604 -0.325194
1.64571 3.42304 -0.322194
1.62471 3.43404 -0.322194
1.61271 3.43704 -0.322194
1.60471 3.43404 -0.321194
1.59571 3.44304 -0.322194
1.56771 3.43804 -0.320194
1.54471 3.44604 -0.320194
1.52571 3.44604 -0.318194
1.51171 3.44404 -0.317194
1.48371 3.43804 -0.315194
1.47471 3.44704 -0.316194
1.46071 3.44404 -0.315194
1.44471 3.45104 -0.315194
1.42171 3.45804 -0.314194
1.40871 3.45704 -0.314194
1.39471 3.45204 -0.312194
1.37271 3.46104 -0.312194
1.36771 3.46504 -0.313194
1.35171 3.45604 -0.311194
1.30471 3.46204 -0.309194
1.29671 3.47304 -0.310194
1.28571 3.46004 -0.308194
1.26071 3.45904 -0.307194
1.25071 3.46704 -0.307194
1.23971 3.46904 -0.307194
1.23071 3.48004 -0.308194
1.21371 3.46504 -0.305194
1.19571 3.46704 -0.305194
1.18771 3.48004 -0.306194
1.16471 3.48404 -0.306194
1.15171 3.48004 -0.305194
1.13571 3.48504 -0.305194
1.11071 3.48304 -0.303194
0.973705 3.50504 -0.301194
0.938705 3.50704 -0.300194
0.874705 3.51104 -0.298194
0.835705 3.51604 -0.298194
0.772705 3.52204 -0.297194
0.749705 3.52104 -0.296194
0.738705 3.52404 -0.296194
0.687705 3.52804 -0.295194
0.675705 3.52404 -0.294194
0.626705 3.53704 -0.295194
0.592705 3.53904 -0.294194
0.580705 3.53904 -0.294194
0.558705 3.54304 -0.294194
0.552705 3.54004 -0.293194
0.541705 3.54304 -0.294194
0.518705 3.54304 -0.293194
0.484705 3.54504 -0.293194
0.456705 3.54704 -0.293194
0.373705 3.55904 -0.293194
0.361705 3.55604 -0.292194
0.350705 3.55904 -0.293194
0.334705 3.56504 -0.293194
0.311705 3.56504 -0.293194
0.277705 3.55604 -0.291194
0.272705 3.56604 -0.293194
0.261705 3.57104 -0.293194
0.250705 3.57404 -0.293194
0.239705 3.57304 -0.293194
0.227705 3.56504 -0.292194
0.205705 3.56904 -0.292194
0.199705 3.57304 -0.293194
0.188705 3.57404 -0.293194
0.154705 3.58104 -0.294194
0.143705 3.58004 -0.293194
0.132705 3.58404 -0.294194
0.126705 3.58004 -0.293194
0.115705 3.58704 -0.294194
0.0817052 3.57804 -0.293194
0.0597052 3.58204 -0.293194
0.0537052 3.58604 -0.294194
0.0197052 3.59204 -0.295194
2.86771 3.31404 -0.431194
2.83771 3.32204 -0.429194
2.65571 3.33604 -0.414194
2.62771 3.34404 -0.413194
2.60171 3.34404 -0.410194
2.56871 3.34404 -0.408194
2.51071 3.35604 -0.404194
2.45571 3.35904 -0.400194
2.19871 3.38504 -0.382194
1.94371 3.41104 -0.366194
1.88571 3.40904 -0.362194
1.86971 3.41804 -0.362194
1.82971 3.42204 -0.360194
3.24871 3.27904 -0.485194
3.19771 3.28804 -0.481194
3.13271 3.29304 -0.475194
2.93471 3.30604 -0.457194
2.84671 3.32004 -0.450194
2.72771 3.31604 -0.438194
2.68571 3.32704 -0.435194
2.58571 3.34104 -0.428194
2.53371 3.34804 -0.424194
2.48571 3.35004 -0.420194
2.44671 3.35104 -0.417194
2.40471 3.36004 -0.414194
2.36071 3.36404 -0.411194
2.32271 3.36604 -0.408194
2.26771 3.37704 -0.405194
2.21171 3.37204 -0.400194
2.17871 3.37904 -0.398194
2.13971 3.38804 -0.396194
2.09071 3.38104 -0.392194
2.05971 3.39004 -0.390194
2.02171 3.39904 -0.389194
1.97971 3.38804 -0.384194
1.94971 3.41004 -0.385194
1.90771 3.39704 -0.380194
1.87471 3.41304 -0.380194
1.83571 3.41904 -0.378194
1.80371 3.42404 -0.376194
1.75871 3.41604 -0.372194
1.73071 3.42604 -0.372194
1.70571 3.43004 -0.370194
1.68771 3.42104 -0.368194
1.65571 3.42404 -0.366194
1.62471 3.44104 -0.367194
1.55371 3.44304 -0.363194
1.52971 3.44704 -0.362194
1.51371 3.44104 -0.360194
1.48471 3.44804 -0.359194
1.44471 3.44504 -0.357194
1.41471 3.44704 -0.355194
1.35271 3.46704 -0.355194
1.31371 3.46304 -0.352194
1.24671 3.46504 -0.349194
1.21071 3.46704 -0.347194
1.18171 3.46904 -0.346194
1.08671 3.49304 -0.345194
0.971705 3.48604 -0.339194
0.942705 3.48804 -0.339194
0.910705 3.50104 -0.339194
0.879705 3.49604 -0.337194
0.845705 3.49804 -0.337194
0.735705 3.52504 -0.337194
0.722705 3.51604 -0.335194
0.700705 3.52404 -0.336194
0.625705 3.52004 -0.333194
0.610705 3.53104 -0.334194
0.564705 3.52704 -0.333194
0.536705 3.53304 -0.333194
0.516705 3.54604 -0.334194
0.454705 3.55004 -0.334194
0.442705 3.54404 -0.333194
0.380705 3.54504 -0.332194
0.285705 3.56004 -0.333194
0.251705 3.55504 -0.331194
0.202705 3.56804 -0.333194
0.0897052 3.57204 -0.333194
0.0567052 3.59104 -0.335194
0.00570524 3.59704 -0.336194
3.48271 3.25904 -0.542194
3.25571 3.27704 -0.519194
3.15771 3.29004 -0.510194
3.10871 3.29004 -0.505194
3.09371 3.29604 -0.504194
2.86771 3.31804 -0.483194
2.36971 3.36604 -0.442194
2.32271 3.36604 -0.438194
2.28971 3.37404 -0.436194
2.27171 3.37204 -0.434194
2.21871 3.38304 -0.431194
2.18071 3.38404 -0.428194
2.16771 3.38804 -0.427194
2.14871 3.38104 -0.425194
2.04871 3.39904 -0.419194
2.00171 3.40404 -0.416194
1.98571 3.40204 -0.415194
1.94071 3.41004 -0.412194
1.92171 3.40204 -0.410194
1.84571 3.40404 -0.404194
1.84071 3.42004 -0.406194
1.70271 3.43104 -0.398194
1.63271 3.43904 -0.394194
0.987705 3.50204 -0.369194
0.911705 3.50404 -0.366194
0.878705 3.51304 -0.366194
0.826705 3.51504 -0.364194
0.791705 3.51504 -0.363194
0.779705 3.51804 -0.363194
0.615705 3.53004 -0.360194
0.543705 3.54404 -0.361194
0.532705 3.54604 -0.361194
0.481705 3.54904 -0.360194
0.470705 3.55204 -0.360194
0.447705 3.55104 -0.360194
0.364705 3.56104 -0.360194
0.335705 3.56204 -0.359194
0.269705 3.57104 -0.360194
0.117705 3.58004 -0.360194
0.766705 3.51704 -0.455194
0.716705 3.52204 -0.454194
0.704705 3.52404 -0.454194
0.619705 3.52804 -0.452194
0.609705 3.53404 -0.453194
0.547705 3.54004 -0.452194
0.536705 3.54004 -0.452194
0.525705 3.54304 -0.452194
0.519705 3.54004 -0.452194
0.508705 3.54404 -0.452194
0.497705 3.54504 -0.452194
0.475705 3.55004 -0.452194
0.463705 3.54804 -0.452194
0.446705 3.55004 -0.452194
0.435705 3.55104 -0.452194
0.424705 3.55104 -0.451194
0.412705 3.54804 -0.451194
0.401705 3.55104 -0.451194
0.379705 3.55804 -0.452194
0.374705 3.55704 -0.451194
0.363705 3.56004 -0.452194
0.351705 3.55904 -0.451194
0.340705 3.55804 -0.451194
0.318705 3.56204 -0.451194
0.306705 3.56304 -0.451194
0.290705 3.56604 -0.452194
0.278705 3.56104 -0.451194
0.267705 3.56804 -0.452194
0.256705 3.55904 -0.450194
0.245705 3.56804 -0.451194
0.228705 3.57104 -0.452194
0.206705 3.56804 -0.451194
0.194705 3.57104 -0.451194
0.183705 3.57704 -0.452194
0.172705 3.57604 -0.452194
0.161705 3.57304 -0.451194
0.155705 3.57504 -0.452194
0.133705 3.58204 -0.452194
0.121705 3.57404 -0.451194
0.0997052 3.58104 -0.452194
0.0887052 3.58104 -0.452194
0.0607052 3.58904 -0.453194
0.0497052 3.59004 -0.453194
0.0377052 3.58604 -0.453194
0.0267052 3.58804 -0.453194
0.0157052 3.59404 -0.454194
0.00970524 3.59204 -0.454194
3.54571 3.25004 -0.695194
3.36371 3.26404 -0.674194
3.32471 3.26704 -0.670194
3.26171 3.27704 -0.663194
3.22071 3.27704 -0.658194
3.15971 3.28604 -0.653194
3.11871 3.28504 -0.648194
3.10371 3.29004 -0.647194
3.08771 3.29404 -0.645194
3.06971 3.29504 -0.643194
3.05671 3.29204 -0.641194
3.01971 3.29304 -0.637194
3.00471 3.29804 -0.636194
2.98971 3.30204 -0.635194
2.97071 3.30304 -0.633194
2.94971 3.30004 -0.630194
2.94371 3.30304 -0.630194
2.92571 3.30404 -0.628194
2.91071 3.30904 -0.627194
2.89271 3.30904 -0.625194
2.87971 3.31504 -0.624194
2.85871 3.31204 -0.622194
2.84371 3.31504 -0.620194
2.83171 3.31204 -0.619194
2.81571 3.31504 -0.617194
2.80271 3.32104 -0.617194
2.78271 3.31804 -0.614194
2.74971 3.32104 -0.611194
2.73871 3.32904 -0.611194
2.71971 3.31604 -0.607194
2.70871 3.32504 -0.607194
2.68971 3.32304 -0.605194
2.67771 3.32904 -0.604194
2.65871 3.32704 -0.602194
2.64471 3.33104 -0.601194
2.62571 3.32804 -0.599194
2.61871 3.33104 -0.598194
2.59971 3.32804 -0.596194
2.58971 3.33604 -0.596194
2.56871 3.33104 -0.593194
2.55671 3.33704 -0.593194
2.53771 3.33404 -0.590194
