0.582539 -5.03788 0.371845
0.590539 -5.04088 0.371845
0.606539 -5.04088 0.371845
0.623539 -5.04288 0.371845
0.640539 -5.04888 0.371845
0.656539 -5.05088 0.371845
0.672539 -5.04688 0.371845
0.696539 -5.05188 0.372845
0.714539 -5.05688 0.372845
0.730539 -5.05888 0.372845
0.747539 -5.06288 0.372845
0.778539 -5.05388 0.372845
0.797539 -5.06888 0.373845
0.803539 -5.05988 0.372845
0.820539 -5.05888 0.372845
0.837539 -5.06688 0.373845
0.869539 -5.06288 0.373845
0.888539 -5.07788 0.373845
0.912539 -5.06988 0.373845
0.928539 -5.06888 0.373845
0.997539 -5.08188 0.374845
1.00654 -5.08688 0.374845
1.02254 -5.08488 0.375845
1.03954 -5.08588 0.375845
1.05454 -5.07688 0.374845
1.08754 -5.07788 0.375845
1.10654 -5.08588 0.375845
1.11454 -5.08688 0.375845
1.13354 -5.09688 0.376845
1.14954 -5.08888 0.376845
1.16654 -5.09088 0.376845
1.18254 -5.08988 0.376845
1.21054 -5.09988 0.376845
1.22654 -5.09588 0.376845
1.24354 -5.09388 0.376845
1.26254 -5.10288 0.377845
1.27954 -5.10088 0.377845
1.29454 -5.09488 0.377845
1.31454 -5.10488 0.377845
1.33954 -5.10388 0.378845
1.37354 -5.10388 0.378845
1.39054 -5.10088 0.378845
1.42554 -5.10388 0.378845
1.47154 -5.11188 0.379845
1.50654 -5.11188 0.379845
1.52554 -5.11688 0.380845
1.55154 -5.11488 0.380845
1.62554 -5.12588 0.381845
2.27154 -5.16788 0.390845
2.40554 -5.18188 0.392845
2.52154 -5.19488 0.394845
2.60554 -5.20088 0.396845
2.77454 -5.20588 0.399845
2.80054 -5.21388 0.399845
2.88954 -5.22088 0.401845
2.89754 -5.21588 0.401845
2.91954 -5.21688 0.401845
2.98854 -5.22388 0.403845
3.01654 -5.23388 0.403845
3.04654 -5.22988 0.404845
3.06854 -5.22888 0.404845
3.09054 -5.22988 0.405845
3.11554 -5.23388 0.405845
3.22454 -5.24688 0.407845
3.24454 -5.24188 0.408845
3.33054 -5.24888 0.409845
3.35754 -5.25588 0.410845
3.40854 -5.26288 0.411845
3.49154 -5.26188 0.413845
3.51854 -5.26688 0.413845
3.54554 -5.27088 0.414845
3.65754 -5.27388 0.416845
3.76654 -5.28788 0.419845
3.79054 -5.28588 0.419845
3.86154 -5.29588 0.421845
3.91454 -5.29888 0.422845
3.96554 -5.29788 0.423845
3.98354 -5.30488 0.423845
4.01554 -5.31088 0.424845
4.06754 -5.31088 0.425845
4.11954 -5.30888 0.426845
4.16954 -5.32088 0.428845
4.32954 -5.33188 0.431845
4.38254 -5.32888 0.432845
4.44454 -5.33488 0.434845
4.50554 -5.33888 0.435845
4.52154 -5.34088 0.436845
4.56054 -5.35288 0.437845
4.61454 -5.34788 0.438845
4.65354 -5.35888 0.439845
4.79254 -5.36288 0.442845
4.83354 -5.37388 0.444845
4.89154 -5.36988 0.445845
4.94054 -5.37388 0.446845
5.12954 -5.38888 0.451845
5.16354 -5.38988 0.452845
5.36154 -5.40588 0.457845
5.40154 -5.41088 0.458845
5.60754 -5.42688 0.463845
5.68554 -5.43288 0.465845
6.08754 -5.45988 0.476845
6.13154 -5.46488 0.477845
6.41554 -5.48588 0.485845
6.55254 -5.49688 0.488845
6.62754 -5.50688 0.491845
6.67254 -5.50888 0.492845
6.76654 -5.51488 0.494845
6.86854 -5.52588 0.497845
6.94154 -5.52988 0.499845
7.13854 -5.54188 0.505845
7.27554 -5.55688 0.509845
7.32154 -5.55488 0.510845
7.38354 -5.56588 0.512845
7.42854 -5.56288 0.513845
8.94654 -5.69688 0.558845
9.01154 -5.69788 0.560845
9.08054 -5.70188 0.562845
9.15554 -5.70888 0.564845
9.20254 -5.71788 0.565845
9.49454 -5.73388 0.574845
9.56854 -5.73788 0.576845
9.64354 -5.74188 0.579845
9.69554 -5.75188 0.580845
10.8015 -5.82288 0.614845
11.3465 -5.86488 0.631845
12.0495 -5.91788 0.653845
12.8455 -5.98488 0.678845
0.00453886 -4.99688 0.336845
0.0205389 -5.00288 0.336845
0.0355389 -5.01388 0.336845
0.0435389 -5.00588 0.336845
0.0595389 -5.00388 0.336845
0.122539 -5.02088 0.337845
0.138539 -5.00688 0.336845
0.146539 -5.01788 0.337845
0.161539 -5.01788 0.337845
0.177539 -5.02088 0.337845
0.193539 -5.01888 0.337845
0.209539 -5.02788 0.337845
0.225539 -5.02488 0.337845
0.241539 -5.02288 0.337845
0.248539 -5.01388 0.337845
0.265539 -5.02788 0.337845
0.280539 -5.02688 0.337845
0.296539 -5.02188 0.337845
0.312539 -5.02088 0.337845
0.328539 -5.03188 0.337845
0.344539 -5.02488 0.337845
0.352539 -5.03188 0.337845
0.368539 -5.02888 0.337845
0.383539 -5.02788 0.337845
0.399539 -5.02488 0.337845
0.415539 -5.02688 0.337845
0.432539 -5.03188 0.337845
0.440539 -5.04288 0.338845
0.456539 -5.04188 0.338845
0.472539 -5.04388 0.338845
0.488539 -5.03488 0.338845
0.504539 -5.03488 0.338845
0.520539 -5.04388 0.338845
0.537539 -5.04788 0.338845
0.544539 -5.03688 0.338845
0.577539 -5.04588 0.338845
0.592539 -5.03988 0.338845
0.609539 -5.04588 0.338845
0.626539 -5.05388 0.339845
0.642539 -5.05788 0.339845
0.649539 -5.04488 0.338845
0.665539 -5.04888 0.339845
0.683539 -5.05788 0.339845
0.699539 -5.05788 0.339845
0.714539 -5.04788 0.339845
0.732539 -5.06188 0.339845
0.740539 -5.05888 0.339845
0.755539 -5.05588 0.339845
0.773539 -5.06388 0.339845
0.790539 -5.07088 0.340845
0.806539 -5.07088 0.340845
0.822539 -5.06788 0.340845
0.840539 -5.07488 0.340845
0.846539 -5.06188 0.340845
0.864539 -5.07288 0.340845
0.880539 -5.06888 0.340845
0.897539 -5.07188 0.340845
0.912539 -5.06488 0.340845
0.929539 -5.06788 0.340845
0.946539 -5.07088 0.340845
0.956539 -5.07888 0.341845
0.973539 -5.08588 0.341845
0.989539 -5.07888 0.341845
1.00554 -5.07788 0.341845
1.02454 -5.08788 0.341845
1.03854 -5.07888 0.341845
1.04654 -5.07588 0.341845
1.06654 -5.08988 0.342845
1.09754 -5.08088 0.341845
1.11654 -5.09088 0.342845
1.13254 -5.08788 0.342845
1.14954 -5.08988 0.342845
1.15754 -5.08788 0.342845
1.17554 -5.09188 0.342845
1.19154 -5.09088 0.342845
1.21054 -5.09888 0.343845
1.22554 -5.09088 0.343845
1.26154 -5.09888 0.343845
1.28654 -5.09688 0.343845
1.30654 -5.10788 0.344845
1.35654 -5.10488 0.344845
1.37254 -5.10088 0.344845
1.38254 -5.10388 0.344845
1.45354 -5.11188 0.345845
1.73254 -5.12988 0.347845
2.18854 -5.16388 0.353845
8.86154 -5.68488 0.488845
8.92454 -5.68588 0.489845
9.00354 -5.69688 0.491845
9.06654 -5.69688 0.493845
9.13854 -5.70288 0.495845
9.21754 -5.71188 0.497845
9.28354 -5.71288 0.498845
9.48854 -5.73688 0.503845
9.55954 -5.73888 0.505845
9.63754 -5.74488 0.507845
10.8675 -5.82788 0.537845
11.5145 -5.87588 0.554845
11.6195 -5.88488 0.557845
12.1165 -5.92288 0.569845
12.2425 -5.93788 0.573845
12.9085 -5.98888 0.590845
2.00054 -5.16388 0.324845
2.19554 -5.17788 0.326845
2.23654 -5.18388 0.327845
2.25454 -5.18088 0.327845
2.36654 -5.18988 0.328845
2.38654 -5.18988 0.328845
2.49954 -5.19788 0.330845
2.59754 -5.21088 0.331845
2.71354 -5.21488 0.332845
2.83654 -5.22788 0.334845
2.85654 -5.22588 0.334845
2.90354 -5.23288 0.335845
2.92454 -5.23188 0.335845
2.96154 -5.23888 0.335845
2.98254 -5.23888 0.336845
3.00654 -5.24288 0.336845
3.02654 -5.23888 0.336845
3.07454 -5.24488 0.337845
3.08554 -5.24588 0.337845
3.10954 -5.24788 0.337845
3.15254 -5.24588 0.338845
3.17654 -5.24788 0.338845
3.20554 -5.25788 0.339845
3.22354 -5.24988 0.339845
3.24054 -5.25988 0.339845
3.28654 -5.25988 0.340845
3.30954 -5.25888 0.340845
3.33554 -5.26388 0.340845
3.35354 -5.25488 0.340845
3.37454 -5.26988 0.341845
3.39654 -5.26788 0.341845
3.42054 -5.26888 0.341845
3.44254 -5.26588 0.342845
3.47154 -5.27388 0.342845
3.49954 -5.27988 0.343845
3.51754 -5.26988 0.343845
3.53754 -5.28288 0.343845
3.55854 -5.27788 0.343845
3.58354 -5.27888 0.344845
3.61154 -5.28388 0.344845
3.63354 -5.28088 0.344845
3.66054 -5.28388 0.345845
3.72554 -5.28888 0.346845
3.75754 -5.29888 0.346845
3.77654 -5.28988 0.346845
3.80454 -5.29488 0.347845
3.83254 -5.29688 0.347845
3.84754 -5.30088 0.347845
3.87454 -5.30288 0.348845
3.90254 -5.30488 0.348845
3.93354 -5.31188 0.349845
3.95554 -5.30788 0.349845
3.98854 -5.31588 0.350845
4.01254 -5.31288 0.350845
4.02754 -5.31588 0.350845
4.05954 -5.32288 0.351845
4.08554 -5.32288 0.351845
4.11254 -5.32188 0.351845
4.13854 -5.32188 0.352845
4.16954 -5.32588 0.352845
4.19154 -5.32088 0.353845
4.21054 -5.32688 0.353845
4.24354 -5.33388 0.354845
4.27254 -5.33588 0.354845
4.29554 -5.32988 0.354845
4.32554 -5.33188 0.355845
4.35354 -5.33288 0.355845
4.37954 -5.34688 0.356845
4.40354 -5.34288 0.356845
4.43454 -5.34588 0.356845
4.46354 -5.34588 0.357845
4.49454 -5.34788 0.357845
4.51754 -5.34188 0.358845
4.56054 -5.35788 0.359845
4.57354 -5.35688 0.359845
4.59954 -5.35288 0.359845
4.63454 -5.35988 0.360845
4.66754 -5.36288 0.360845
4.69754 -5.36288 0.361845
4.73254 -5.36988 0.361845
4.76154 -5.36788 0.362845
4.77954 -5.37088 0.362845
4.81554 -5.37688 0.363845
4.84554 -5.37588 0.363845
4.87354 -5.37288 0.363845
4.90654 -5.37488 0.364845
4.93654 -5.37488 0.364845
4.96254 -5.38588 0.365845
4.99454 -5.38588 0.366845
5.02554 -5.38488 0.366845
5.06154 -5.38988 0.367845
5.09054 -5.38688 0.367845
5.12254 -5.38688 0.368845
5.15754 -5.38888 0.368845
5.18154 -5.39688 0.369845
5.21354 -5.39588 0.369845
5.24754 -5.39688 0.370845
5.28254 -5.39888 0.370845
5.41154 -5.40988 0.373845
5.44554 -5.40988 0.373845
5.62054 -5.42788 0.376845
5.69954 -5.43488 0.378845
5.73754 -5.43588 0.378845
5.87654 -5.44588 0.381845
5.92454 -5.45588 0.382845
5.95754 -5.45188 0.382845
5.99654 -5.45288 0.383845
6.04354 -5.46088 0.384845
6.15054 -5.46988 0.386845
6.19054 -5.47088 0.386845
6.23754 -5.47688 0.387845
6.27954 -5.47888 0.388845
6.31754 -5.47688 0.389845
6.43354 -5.48988 0.391845
6.48454 -5.49788 0.392845
6.53054 -5.50188 0.393845
6.56854 -5.49788 0.393845
6.61754 -5.50388 0.394845
6.66154 -5.50488 0.395845
6.69654 -5.51588 0.396845
6.74454 -5.51988 0.397845
6.79454 -5.52488 0.398845
6.83554 -5.52188 0.398845
6.88554 -5.52688 0.399845
6.93854 -5.53388 0.400845
7.10154 -5.53688 0.403845
7.16354 -5.54888 0.405845
7.21454 -5.55188 0.406845
7.26154 -5.55188 0.406845
7.34854 -5.56288 0.408845
7.40154 -5.56688 0.409845
7.44954 -5.56588 0.410845
7.50554 -5.57088 0.411845
7.65754 -5.59088 0.414845
7.70554 -5.58888 0.415845
7.75554 -5.58788 0.416845
7.81554 -5.59388 0.417845
8.02254 -5.60888 0.421845
9.80054 -5.75788 0.457845
9.86854 -5.75588 0.458845
9.95554 -5.76488 0.460845
10.0305 -5.76688 0.462845
10.1155 -5.77288 0.464845
10.1925 -5.77388 0.465845
10.2825 -5.78188 0.467845
10.3465 -5.79688 0.468845
10.4365 -5.80388 0.470845
10.5125 -5.80288 0.472845
10.6115 -5.81388 0.474845
10.6965 -5.81688 0.476845
10.7905 -5.82388 0.478845
10.8725 -5.84588 0.479845
10.9615 -5.84888 0.481845
11.0435 -5.84788 0.483845
11.1505 -5.85988 0.485845
11.2275 -5.85488 0.487845
11.3375 -5.86788 0.489845
11.6195 -5.89688 0.495845
11.7305 -5.90688 0.497845
11.8275 -5.90988 0.499845
11.9285 -5.91288 0.502845
12.0335 -5.91788 0.504845
12.1425 -5.92388 0.506845
12.2465 -5.95088 0.508845
12.3535 -5.95488 0.511845
12.4575 -5.95588 0.513845
0.514539 -5.05088 0.275845
0.636539 -5.06088 0.275845
0.758539 -5.06288 0.276845
0.799539 -5.06788 0.276845
0.833539 -5.07488 0.276845
0.849539 -5.07188 0.276845
0.874539 -5.07588 0.276845
0.890539 -5.07488 0.276845
0.908539 -5.08088 0.276845
0.941539 -5.08288 0.276845
0.957539 -5.08188 0.276845
0.983539 -5.08688 0.277845
0.999539 -5.08188 0.276845
1.01554 -5.08088 0.277845
1.03154 -5.07488 0.276845
1.05054 -5.08988 0.277845
1.06554 -5.08188 0.277845
1.07554 -5.09088 0.277845
1.11054 -5.09688 0.277845
1.12554 -5.08588 0.277845
1.14154 -5.08388 0.277845
1.17654 -5.08888 0.277845
1.18754 -5.10088 0.277845
1.20354 -5.09688 0.277845
1.22054 -5.09688 0.277845
1.25454 -5.09888 0.278845
1.27354 -5.10688 0.278845
1.28854 -5.09888 0.278845
1.29854 -5.10388 0.278845
1.31454 -5.10188 0.278845
1.33354 -5.10788 0.278845
1.36854 -5.11288 0.278845
1.40254 -5.10988 0.278845
1.41154 -5.10988 0.278845
1.42854 -5.11088 0.278845
1.46454 -5.11488 0.279845
1.48354 -5.11988 0.279845
1.49954 -5.11588 0.279845
1.50954 -5.12088 0.279845
1.54554 -5.12288 0.279845
1.58154 -5.12488 0.279845
1.61554 -5.12188 0.279845
1.64354 -5.12788 0.280845
1.68054 -5.13288 0.280845
1.71654 -5.13288 0.280845
1.74654 -5.13988 0.280845
1.78354 -5.14488 0.281845
1.81854 -5.14088 0.281845
1.84754 -5.14488 0.281845
1.88354 -5.14288 0.281845
1.93754 -5.14188 0.281845
1.96754 -5.14788 0.282845
2.00554 -5.14988 0.282845
2.04654 -5.15988 0.282845
2.11354 -5.16088 0.283845
2.15554 -5.17188 0.283845
2.19054 -5.16488 0.283845
2.33054 -5.17588 0.284845
2.57354 -5.20588 0.286845
2.67054 -5.21488 0.287845
2.68654 -5.20688 0.287845
2.71354 -5.21888 0.287845
2.74454 -5.21888 0.287845
2.80954 -5.22288 0.288845
2.83354 -5.22788 0.288845
2.85554 -5.22988 0.288845
2.86754 -5.23088 0.288845
2.88954 -5.23188 0.289845
2.91254 -5.23488 0.289845
2.93354 -5.23488 0.289845
2.95454 -5.23288 0.289845
2.97854 -5.23688 0.289845
2.99954 -5.23588 0.290845
3.01254 -5.23988 0.290845
3.03754 -5.24488 0.290845
3.05654 -5.23988 0.290845
3.07554 -5.23388 0.290845
3.10254 -5.24388 0.290845
3.12054 -5.23588 0.290845
3.13554 -5.24288 0.291845
3.16254 -5.24988 0.291845
3.18354 -5.24888 0.291845
3.20654 -5.24888 0.291845
3.22854 -5.24688 0.291845
3.25354 -5.25088 0.292845
3.29054 -5.25588 0.292845
3.31054 -5.24988 0.292845
3.36154 -5.25788 0.293845
3.42554 -5.26688 0.293845
3.44354 -5.25988 0.293845
3.46954 -5.26188 0.294845
3.51654 -5.26188 0.294845
3.56754 -5.26588 0.294845
3.70954 -5.27788 0.296845
3.74754 -5.27988 0.296845
4.31954 -5.32488 0.302845
6.54354 -5.49388 0.328845
7.13054 -5.54388 0.335845
7.23154 -5.54988 0.336845
7.41354 -5.56188 0.339845
8.86254 -5.68288 0.358845
9.67054 -5.74088 0.369845
9.85654 -5.74788 0.371845
10.4135 -5.79188 0.379845
11.0165 -5.83788 0.387845
11.1185 -5.84688 0.389845
11.5865 -5.88588 0.395845
11.6885 -5.89288 0.397845
11.7875 -5.89588 0.398845
12.3225 -5.94888 0.406845
12.4225 -5.94888 0.407845
12.7765 -5.97188 0.412845
13.0395 -5.99588 0.416845
0.100539 -5.01488 0.248845
0.116539 -5.01588 0.248845
0.124539 -5.01788 0.248845
0.140539 -5.01588 0.248845
0.155539 -5.00888 0.248845
0.171539 -5.01688 0.248845
0.187539 -5.00988 0.248845
0.203539 -5.01788 0.248845
0.211539 -5.02488 0.248845
0.226539 -5.01688 0.248845
0.243539 -5.02388 0.248845
0.258539 -5.01288 0.248845
0.274539 -5.01588 0.248845
0.290539 -5.01688 0.248845
0.306539 -5.01788 0.248845
0.314539 -5.01988 0.248845
0.330539 -5.03288 0.248845
0.345539 -5.02188 0.248845
0.362539 -5.02688 0.248845
0.394539 -5.02988 0.248845
0.409539 -5.02688 0.248845
0.417539 -5.02788 0.248845
0.435539 -5.04288 0.248845
0.450539 -5.03188 0.248845
0.465539 -5.02988 0.248845
0.482539 -5.03288 0.248845
0.498539 -5.03888 0.248845
0.522539 -5.03888 0.248845
0.538539 -5.03688 0.248845
0.554539 -5.03688 0.249845
0.587539 -5.04188 0.249845
0.603539 -5.04388 0.249845
0.611539 -5.04688 0.249845
0.627539 -5.04488 0.249845
0.661539 -5.05488 0.249845
0.678539 -5.05988 0.249845
0.693539 -5.04988 0.249845
0.708539 -5.04788 0.249845
0.718539 -5.05488 0.249845
0.733539 -5.04888 0.249845
0.751539 -5.05988 0.249845
0.767539 -5.06188 0.249845
0.783539 -5.05488 0.249845
0.800539 -5.06488 0.249845
0.817539 -5.06388 0.249845
0.825539 -5.06488 0.249845
0.842539 -5.06788 0.249845
0.890539 -5.06388 0.249845
0.908539 -5.06888 0.249845
0.918539 -5.07888 0.249845
0.933539 -5.07088 0.249845
0.949539 -5.07088 0.249845
0.966539 -5.07388 0.249845
0.983539 -5.07288 0.250845
1.00154 -5.07988 0.250845
1.01954 -5.08888 0.250845
1.02454 -5.07088 0.250845
1.04354 -5.08588 0.250845
1.05854 -5.07788 0.250845
1.07654 -5.08288 0.250845
1.09354 -5.08088 0.250845
1.11054 -5.08388 0.250845
1.12954 -5.09588 0.250845
1.17354 -5.10188 0.250845
1.18954 -5.10088 0.250845
1.22354 -5.09888 0.250845
1.23254 -5.10088 0.250845
1.24954 -5.10288 0.250845
1.26554 -5.09888 0.250845
1.28454 -5.10488 0.250845
1.30354 -5.11188 0.251845
1.31654 -5.09588 0.250845
1.38054 -5.11188 0.251845
1.39954 -5.11588 0.251845
1.41554 -5.11288 0.251845
1.43054 -5.10488 0.251845
1.46054 -5.11688 0.251845
1.47954 -5.12188 0.251845
1.56054 -5.13088 0.251845
1.61254 -5.12788 0.252845
1.63254 -5.13188 0.252845
1.66954 -5.13888 0.252845
1.67654 -5.13288 0.252845
1.69754 -5.14088 0.252845
1.73354 -5.14088 0.252845
1.74954 -5.13588 0.252845
1.78854 -5.14388 0.252845
1.83154 -5.13688 0.252845
1.85354 -5.14788 0.253845
1.87154 -5.14588 0.253845
1.89154 -5.14888 0.253845
1.90954 -5.14888 0.253845
1.92054 -5.15488 0.253845
1.95954 -5.15988 0.253845
1.99254 -5.14888 0.253845
2.01454 -5.15788 0.253845
2.04054 -5.15188 0.253845
2.06254 -5.15988 0.253845
2.08254 -5.16088 0.254845
2.12154 -5.16488 0.254845
2.14054 -5.16588 0.254845
2.14854 -5.16188 0.254845
2.16854 -5.16488 0.254845
2.18954 -5.16688 0.254845
2.20754 -5.16588 0.254845
2.23054 -5.17288 0.254845
2.25154 -5.17688 0.254845
2.26654 -5.16588 0.254845
2.28054 -5.17688 0.254845
2.31854 -5.17588 0.255845
2.34154 -5.18288 0.255845
2.36254 -5.18488 0.255845
2.38054 -5.18088 0.255845
2.40554 -5.19088 0.255845
2.43654 -5.19488 0.255845
2.45554 -5.19188 0.255845
2.47754 -5.19688 0.255845
2.49254 -5.18588 0.255845
2.52054 -5.20288 0.256845
2.52454 -5.18988 0.256845
2.55254 -5.20488 0.256845
2.56854 -5.19688 0.256845
2.59054 -5.19988 0.256845
2.61254 -5.20288 0.256845
2.65454 -5.20388 0.256845
2.66654 -5.20788 0.256845
2.69054 -5.21388 0.257845
2.72954 -5.20988 0.257845
2.75654 -5.21988 0.257845
2.77254 -5.21188 0.257845
2.80154 -5.22588 0.257845
2.85554 -5.22588 0.257845
2.88054 -5.23288 0.258845
2.92354 -5.23388 0.258845
2.93354 -5.23088 0.258845
2.95854 -5.23788 0.258845
2.98154 -5.23988 0.258845
3.02154 -5.23388 0.258845
3.06754 -5.23688 0.259845
3.10354 -5.24088 0.259845
3.14854 -5.24088 0.259845
3.19654 -5.24588 0.259845
3.23754 -5.25688 0.260845
3.27954 -5.25088 0.260845
3.33254 -5.26088 0.260845
3.36054 -5.26888 0.260845
3.42054 -5.27088 0.261845
3.49154 -5.26988 0.261845
3.51454 -5.26888 0.261845
3.53454 -5.28188 0.262845
3.56054 -5.28388 0.262845
3.58054 -5.27688 0.262845
3.62354 -5.26988 0.262845
3.72754 -5.29488 0.263845
3.77954 -5.29688 0.263845
3.83454 -5.30188 0.263845
3.87454 -5.30488 0.264845
4.07954 -5.31688 0.265845
4.14054 -5.32688 0.265845
4.16954 -5.32988 0.266845
4.18954 -5.31988 0.266845
4.23654 -5.32788 0.266845
4.29754 -5.33588 0.267845
4.35154 -5.33288 0.267845
4.40654 -5.34788 0.267845
4.46654 -5.35188 0.268845
4.49654 -5.35388 0.268845
4.52054 -5.34888 0.268845
4.57054 -5.35588 0.268845
4.67154 -5.36988 0.269845
4.69954 -5.36888 0.269845
4.75854 -5.36688 0.270845
4.81354 -5.37788 0.270845
4.84654 -5.37988 0.270845
4.87454 -5.37688 0.271845
4.94454 -5.38588 0.271845
5.06254 -5.39388 0.272845
5.10054 -5.39888 0.272845
5.12654 -5.39288 0.272845
5.16854 -5.40288 0.273845
5.18654 -5.40488 0.273845
5.21654 -5.40188 0.273845
5.25554 -5.40788 0.273845
5.29254 -5.41188 0.274845
5.31454 -5.40088 0.274845
5.36054 -5.41188 0.274845
5.39654 -5.41488 0.275845
5.42254 -5.42288 0.275845
5.45654 -5.42288 0.275845
5.49554 -5.42688 0.275845
5.52454 -5.42188 0.276845
5.56354 -5.42588 0.276845
5.59654 -5.42388 0.276845
5.66254 -5.43588 0.277845
5.69554 -5.43288 0.277845
5.73554 -5.43688 0.277845
5.78054 -5.44488 0.278845
5.81054 -5.43888 0.278845
5.85254 -5.44388 0.278845
5.88054 -5.45188 0.278845
5.92154 -5.45488 0.279845
5.95854 -5.45588 0.279845
6.00154 -5.45988 0.279845
6.04054 -5.46088 0.280845
6.07854 -5.46088 0.280845
6.13054 -5.47188 0.280845
6.15854 -5.47888 0.281845
6.19954 -5.48088 0.281845
6.24354 -5.48488 0.281845
6.28354 -5.48488 0.282845
6.32654 -5.48788 0.282845
6.36654 -5.48688 0.282845
6.41454 -5.49288 0.283845
6.44554 -5.50288 0.283845
6.49054 -5.50588 0.283845
6.52954 -5.50288 0.284845
6.57454 -5.50588 0.284845
6.62554 -5.51288 0.284845
6.67354 -5.51788 0.285845
6.69654 -5.51788 0.285845
6.89654 -5.53888 0.287845
6.94354 -5.54088 0.287845
6.98754 -5.53988 0.287845
7.12554 -5.55788 0.289845
7.17354 -5.55888 0.289845
7.27354 -5.56288 0.290845
7.33054 -5.57088 0.290845
7.41654 -5.57988 0.291845
7.52354 -5.58688 0.292845
7.56554 -5.58088 0.292845
7.61854 -5.58288 0.293845
7.66254 -5.59688 0.293845
7.71254 -5.59688 0.294845
7.76454 -5.59688 0.294845
7.83254 -5.60788 0.295845
7.87254 -5.59988 0.295845
7.93154 -5.60388 0.295845
7.99154 -5.60888 0.296845
8.03154 -5.61788 0.296845
8.08654 -5.61888 0.297845
8.15054 -5.62488 0.297845
8.20154 -5.62188 0.298845
8.26654 -5.62888 0.298845
8.32954 -5.63288 0.299845
8.42954 -5.64188 0.300845
8.49654 -5.64888 0.300845
9.25754 -5.72088 0.307845
9.77354 -5.74588 0.312845
9.86754 -5.75888 0.313845
9.94254 -5.76088 0.313845
10.0145 -5.76088 0.314845
10.1105 -5.77288 0.315845
10.1895 -5.77588 0.316845
10.3495 -5.80188 0.317845
10.4325 -5.80488 0.318845
10.5105 -5.80488 0.319845
10.6005 -5.81088 0.319845
10.6835 -5.81288 0.320845
10.8525 -5.83788 0.322845
10.9485 -5.84588 0.323845
11.0355 -5.84788 0.323845
11.1175 -5.84588 0.324845
11.5035 -5.88788 0.328845
11.5915 -5.88688 0.329845
11.7065 -5.89888 0.330845
11.8005 -5.89888 0.331845
11.9125 -5.90788 0.332845
12.2045 -5.93388 0.334845
12.3225 -5.94288 0.336845
0.0105389 -4.99688 0.213845
0.0575389 -5.00488 0.213845
0.0815389 -5.00288 0.213845
0.112539 -5.00388 0.213845
0.374539 -5.02288 0.213845
0.437539 -5.02588 0.213845
0.558539 -5.03988 0.213845
0.672539 -5.04888 0.213845
0.762539 -5.05788 0.213845
1.10454 -5.08488 0.213845
1.12154 -5.08488 0.213845
1.28354 -5.09188 0.213845
1.29254 -5.09588 0.213845
1.42354 -5.10188 0.213845
1.49354 -5.10688 0.214845
1.52154 -5.11188 0.214845
1.59354 -5.11888 0.214845
1.79454 -5.13388 0.214845
8.94754 -5.68488 0.230845
9.01554 -5.68888 0.230845
9.09354 -5.69788 0.231845
9.15454 -5.69688 0.231845
9.22754 -5.70188 0.231845
9.30154 -5.70788 0.231845
9.42754 -5.72388 0.232845
9.50854 -5.73288 0.232845
9.58154 -5.73588 0.232845
12.2885 -5.94088 0.240845
5.16754 -5.40588 0.185845
5.43354 -5.42188 0.185845
5.64254 -5.43788 0.184845
5.74454 -5.44988 0.184845
5.78454 -5.45288 0.184845
5.81854 -5.44988 0.184845
5.86154 -5.45588 0.184845
5.90354 -5.46088 0.184845
7.88554 -5.61388 0.181845
7.93754 -5.61288 0.181845
8.00154 -5.61988 0.181845
8.04854 -5.61588 0.181845
8.21654 -5.63688 0.181845
8.27854 -5.64088 0.181845
8.33954 -5.64388 0.181845
8.39354 -5.64288 0.181845
8.45854 -5.64688 0.181845
8.51054 -5.66288 0.181845
8.55954 -5.65688 0.181845
8.62154 -5.65788 0.180845
8.68254 -5.65888 0.180845
9.73354 -5.74788 0.179845
9.80154 -5.74688 0.179845
9.95554 -5.77288 0.179845
10.0305 -5.77488 0.179845
10.1215 -5.78488 0.178845
10.1935 -5.78388 0.178845
10.2765 -5.78788 0.178845
10.3625 -5.79288 0.178845
10.5195 -5.81588 0.178845
10.6025 -5.81788 0.178845
10.6915 -5.82288 0.178845
10.7945 -5.83488 0.177845
10.8815 -5.83788 0.177845
11.1375 -5.86188 0.177845
11.2235 -5.86188 0.177845
11.3165 -5.86588 0.177845
11.4165 -5.87188 0.177845
11.5165 -5.87788 0.176845
11.6065 -5.89988 0.176845
11.7125 -5.90788 0.176845
11.8135 -5.91188 0.176845
11.9105 -5.91388 0.176845
12.0195 -5.91988 0.176845
12.1255 -5.92488 0.176845
12.2385 -5.93188 0.175845
12.4395 -5.95688 0.175845
12.7995 -5.98088 0.175845
12.9125 -5.98488 0.174845
0.596539 -5.03888 0.156845
0.686539 -5.04988 0.156845
0.735539 -5.05088 0.156845
0.776539 -5.05688 0.156845
0.826539 -5.06088 0.156845
1.40354 -5.09988 0.154845
1.55354 -5.11088 0.154845
2.01754 -5.14888 0.152845
2.34354 -5.17388 0.151845
2.51754 -5.18688 0.151845
3.02054 -5.22788 0.148845
3.13454 -5.23288 0.148845
3.17054 -5.23688 0.148845
3.35554 -5.26088 0.147845
3.42154 -5.25388 0.147845
3.48354 -5.25888 0.146845
3.58454 -5.26788 0.146845
3.62554 -5.27388 0.146845
3.76654 -5.28188 0.145845
3.84554 -5.28688 0.144845
3.91354 -5.29188 0.144845
4.07854 -5.30488 0.143845
4.17754 -5.31188 0.143845
4.42854 -5.33288 0.141845
4.47954 -5.34188 0.141845
4.56854 -5.34588 0.141845
4.64654 -5.35188 0.140845
4.67554 -5.35088 0.140845
4.70754 -5.35388 0.140845
4.74154 -5.35888 0.140845
4.85554 -5.36788 0.139845
4.91954 -5.37088 0.139845
5.06954 -5.37988 0.138845
9.01254 -5.69188 0.112845
9.08154 -5.69488 0.111845
9.14954 -5.69888 0.111845
9.21754 -5.70088 0.111845
9.29254 -5.70688 0.110845
9.49654 -5.73088 0.109845
9.57054 -5.73488 0.108845
9.64554 -5.73888 0.107845
0.0595389 -5.00288 0.125845
0.0905389 -5.00688 0.125845
0.146539 -5.01188 0.125845
0.177539 -5.01088 0.125845
0.225539 -5.02488 0.125845
0.240539 -5.01588 0.125845
0.352539 -5.02288 0.125845
0.439539 -5.02688 0.125845
0.472539 -5.03788 0.125845
0.505539 -5.04088 0.125845
0.536539 -5.03688 0.125845
0.715539 -5.04688 0.124845
0.838539 -5.05688 0.124845
0.897539 -5.06288 0.124845
8.92754 -5.67888 0.0478448
8.97754 -5.68988 0.0478448
9.05254 -5.69788 0.0468448
9.12554 -5.70288 0.0458448
9.19354 -5.70588 0.0448448
9.26254 -5.70888 0.0438448
9.33254 -5.71088 0.0428448
9.40654 -5.71588 0.0418448
9.47154 -5.73488 0.0408448
9.54354 -5.73688 0.0398448
9.60454 -5.73188 0.0398448
0.0955389 -5.01188 0.0908448
0.413539 -5.04188 0.0898448
0.688539 -5.06188 0.0888448
0.712539 -5.05888 0.0888448
0.727539 -5.05488 0.0888448
0.853539 -5.07488 0.0878448
0.902539 -5.07488 0.0878448
0.909539 -5.07188 0.0878448
0.944539 -5.08188 0.0878448
0.960539 -5.07888 0.0878448
0.993539 -5.07788 0.0878448
1.00354 -5.08688 0.0868448
1.02054 -5.08688 0.0868448
1.03654 -5.08388 0.0868448
1.05254 -5.08488 0.0868448
1.07054 -5.09088 0.0868448
1.08454 -5.07788 0.0868448
1.10354 -5.08788 0.0868448
1.11354 -5.09388 0.0868448
1.12954 -5.09288 0.0868448
1.14554 -5.08888 0.0868448
1.16454 -5.09888 0.0858448
1.18054 -5.09588 0.0858448
1.19654 -5.09188 0.0858448
1.21454 -5.09588 0.0858448
1.22454 -5.10188 0.0858448
1.24054 -5.09988 0.0858448
1.27654 -5.10688 0.0858448
1.31054 -5.10688 0.0858448
1.32754 -5.10688 0.0848448
1.33754 -5.11188 0.0848448
1.35354 -5.10588 0.0848448
1.38654 -5.10188 0.0848448
1.40754 -5.11588 0.0848448
1.42554 -5.11788 0.0848448
1.43254 -5.11388 0.0848448
1.45154 -5.11888 0.0848448
1.46754 -5.11188 0.0848448
1.50454 -5.12188 0.0838448
1.52154 -5.11888 0.0838448
1.53954 -5.11988 0.0838448
1.54854 -5.12388 0.0838448
1.56554 -5.12088 0.0838448
1.58554 -5.12888 0.0838448
1.60154 -5.12388 0.0838448
1.62054 -5.12888 0.0828448
1.64154 -5.13688 0.0828448
1.65654 -5.12988 0.0828448
1.66754 -5.13488 0.0828448
1.70254 -5.13388 0.0828448
1.72054 -5.13388 0.0828448
1.73754 -5.12988 0.0828448
1.76754 -5.13888 0.0818448
1.78554 -5.14088 0.0818448
1.80654 -5.14888 0.0818448
1.84054 -5.14288 0.0818448
1.86154 -5.14988 0.0808448
1.88154 -5.15388 0.0808448
1.88954 -5.15088 0.0808448
1.90754 -5.15088 0.0808448
1.92554 -5.14788 0.0808448
1.94254 -5.14388 0.0808448
1.97954 -5.14488 0.0808448
1.99454 -5.15988 0.0798448
2.01554 -5.16488 0.0798448
2.03354 -5.16488 0.0798448
2.05154 -5.16188 0.0798448
2.06954 -5.16088 0.0798448
2.09054 -5.16688 0.0788448
2.10654 -5.15888 0.0788448
2.13754 -5.16588 0.0788448
2.15754 -5.16788 0.0788448
2.21354 -5.16388 0.0778448
2.23854 -5.17688 0.0778448
2.26654 -5.17588 0.0778448
2.30654 -5.17988 0.0768448
2.32854 -5.18388 0.0768448
2.36754 -5.18388 0.0768448
2.38154 -5.19288 0.0758448
2.39754 -5.18488 0.0758448
2.41654 -5.18488 0.0758448
2.46054 -5.19288 0.0758448
2.48954 -5.18988 0.0748448
2.51554 -5.20188 0.0748448
2.53654 -5.20488 0.0748448
2.55254 -5.19488 0.0748448
2.57554 -5.20188 0.0738448
2.59754 -5.20588 0.0738448
2.61354 -5.19588 0.0738448
2.62854 -5.20588 0.0738448
2.66454 -5.19688 0.0738448
2.69154 -5.20788 0.0728448
2.71754 -5.21888 0.0728448
2.73054 -5.20388 0.0728448
2.76054 -5.22188 0.0718448
2.79154 -5.22088 0.0718448
2.80954 -5.21388 0.0718448
2.83554 -5.22388 0.0708448
2.88054 -5.22688 0.0708448
2.91154 -5.22588 0.0708448
2.93354 -5.22688 0.0698448
2.98054 -5.23288 0.0698448
3.00054 -5.23088 0.0698448
3.02554 -5.23688 0.0688448
3.03254 -5.22888 0.0688448
3.08254 -5.23888 0.0688448
3.10054 -5.23288 0.0688448
3.15354 -5.24688 0.0678448
3.19154 -5.25488 0.0668448
3.21054 -5.24788 0.0668448
3.28054 -5.25188 0.0658448
3.31754 -5.25488 0.0658448
3.34554 -5.26288 0.0648448
3.41754 -5.26688 0.0638448
3.47354 -5.26088 0.0638448
3.50354 -5.27188 0.0628448
3.52954 -5.27388 0.0628448
3.55554 -5.27788 0.0628448
3.57854 -5.27488 0.0618448
3.60254 -5.27588 0.0618448
3.64454 -5.28288 0.0618448
3.66054 -5.27188 0.0618448
3.70054 -5.29288 0.0608448
3.80554 -5.30188 0.0588448
3.80754 -5.28588 0.0598448
3.93954 -5.29288 0.0578448
4.10554 -5.32288 0.0548448
4.15054 -5.32788 0.0538448
4.17054 -5.31988 0.0538448
4.20554 -5.33088 0.0538448
4.23654 -5.33488 0.0528448
4.36554 -5.34088 0.0508448
4.39754 -5.34588 0.0508448
4.57954 -5.34188 0.0488448
4.64954 -5.35488 0.0468448
4.68954 -5.36788 0.0468448
4.70454 -5.36788 0.0458448
4.74054 -5.37388 0.0458448
4.77054 -5.37388 0.0448448
4.80054 -5.37388 0.0448448
4.83054 -5.37388 0.0448448
4.86054 -5.37388 0.0438448
4.89554 -5.37788 0.0438448
4.93954 -5.37488 0.0428448
4.98454 -5.39088 0.0418448
5.00554 -5.37888 0.0418448
5.06954 -5.37988 0.0408448
5.10454 -5.40088 0.0398448
5.12054 -5.38388 0.0398448
5.30454 -5.40588 0.0368448
5.36854 -5.41888 0.0358448
5.68354 -5.43988 0.0308448
5.79454 -5.44288 0.0288448
6.45354 -5.49788 0.0178448
6.50054 -5.50288 0.0168448
6.53654 -5.49788 0.0168448
6.57654 -5.49688 0.0158448
6.61954 -5.51488 0.0148448
6.65354 -5.50788 0.0148448
6.70254 -5.51388 0.0138448
6.75454 -5.52088 0.0128448
6.79654 -5.51988 0.0128448
6.83554 -5.51588 0.0118448
6.87654 -5.53188 0.0108448
6.95954 -5.52688 0.00984476
7.11554 -5.54288 0.00684476
7.17054 -5.54988 0.00584476
7.20954 -5.56188 0.00484476
7.26354 -5.56688 0.00384476
7.30754 -5.56488 0.00284476
7.34854 -5.55988 0.00284476
7.40754 -5.56888 0.00184476
7.45054 -5.56488 0.000844757
7.50854 -5.57088 -0.000155243
7.54954 -5.58288 -0.00115524
7.59754 -5.58188 -0.00215524
7.65054 -5.58388 -0.00315524
7.69954 -5.58388 -0.00315524
7.75754 -5.58888 -0.00415524
7.80954 -5.58888 -0.00515524
7.90954 -5.60388 -0.00715524
7.96454 -5.60588 -0.00815524
8.01754 -5.60588 -0.00915524
8.23754 -5.62588 -0.0131552
9.51154 -5.71988 -0.0371552
10.0565 -5.77188 -0.0471552
10.1265 -5.76988 -0.0481552
10.2155 -5.77888 -0.0501552
10.2925 -5.77988 -0.0511552
10.3845 -5.78888 -0.0531552
10.6305 -5.81788 -0.0581552
10.7105 -5.81788 -0.0591552
10.8005 -5.82288 -0.0611552
10.8945 -5.82988 -0.0631552
10.9835 -5.83388 -0.0651552
11.0845 -5.84288 -0.0671552
11.1575 -5.85888 -0.0681552
11.2615 -5.86888 -0.0701552
11.3505 -5.86988 -0.0721552
11.4385 -5.86988 -0.0731552
11.5365 -5.87488 -0.0751552
11.8305 -5.90888 -0.0811552
11.9315 -5.91288 -0.0831552
12.0365 -5.91788 -0.0851552
12.1485 -5.92588 -0.0871552
12.2675 -5.93688 -0.0901552
12.3705 -5.93888 -0.0921552
12.8195 -5.98288 -0.101155
12.9395 -5.98888 -0.103155
13.0505 -5.99088 -0.105155
0.0115389 -5.00288 0.0648448
0.0435389 -4.99888 0.0648448
0.0595389 -5.01188 0.0648448
0.0745389 -5.00188 0.0648448
0.0825389 -5.00388 0.0648448
0.129539 -5.00288 0.0648448
0.145539 -5.01288 0.0648448
0.161539 -5.01988 0.0648448
0.177539 -5.00588 0.0648448
0.185539 -5.01888 0.0648448
0.216539 -5.01388 0.0648448
0.248539 -5.02088 0.0648448
0.264539 -5.01788 0.0648448
0.272539 -5.01688 0.0648448
0.288539 -5.01488 0.0648448
0.320539 -5.02488 0.0638448
0.336539 -5.03588 0.0638448
0.368539 -5.02688 0.0638448
0.376539 -5.03088 0.0638448
0.391539 -5.02788 0.0638448
0.407539 -5.02388 0.0638448
0.423539 -5.02488 0.0638448
0.439539 -5.02988 0.0638448
0.472539 -5.03488 0.0638448
0.479539 -5.03188 0.0638448
0.512539 -5.03288 0.0638448
0.544539 -5.03688 0.0638448
0.560539 -5.03788 0.0638448
0.568539 -5.03488 0.0638448
0.584539 -5.03688 0.0638448
0.601539 -5.04288 0.0628448
0.690539 -5.04788 0.0628448
0.707539 -5.05288 0.0628448
0.781539 -5.05888 0.0618448
0.797539 -5.05388 0.0618448
0.830539 -5.05688 0.0618448
0.879539 -5.06088 0.0618448
0.890539 -5.07288 0.0608448
0.906539 -5.07188 0.0608448
0.955539 -5.07088 0.0608448
0.980539 -5.07088 0.0608448
0.996539 -5.06788 0.0608448
1.01554 -5.07788 0.0608448
1.06554 -5.07788 0.0598448
1.08154 -5.07688 0.0598448
1.09254 -5.08888 0.0598448
1.10754 -5.07888 0.0598448
1.12854 -5.09688 0.0598448
1.14254 -5.08588 0.0598448
1.16054 -5.08988 0.0598448
1.19654 -5.09988 0.0588448
1.20254 -5.09088 0.0588448
1.22054 -5.09588 0.0588448
1.23654 -5.09088 0.0588448
1.25654 -5.10188 0.0588448
1.27154 -5.09588 0.0588448
1.29254 -5.10988 0.0578448
1.31654 -5.10388 0.0578448
1.33354 -5.10488 0.0578448
1.35154 -5.10688 0.0578448
1.36854 -5.10588 0.0578448
1.38554 -5.10588 0.0578448
1.40454 -5.11288 0.0568448
1.41354 -5.11488 0.0568448
1.43054 -5.10988 0.0568448
1.45054 -5.12088 0.0568448
1.46454 -5.11088 0.0568448
1.48254 -5.11188 0.0568448
1.50254 -5.11888 0.0568448
1.52854 -5.11888 0.0558448
1.54654 -5.11988 0.0558448
1.56154 -5.11088 0.0558448
1.58154 -5.11988 0.0558448
1.59954 -5.12088 0.0558448
1.61554 -5.11588 0.0558448
1.62754 -5.12388 0.0558448
1.64754 -5.13088 0.0548448
1.68454 -5.13488 0.0548448
1.70154 -5.13188 0.0548448
1.73454 -5.12488 0.0548448
1.74854 -5.13888 0.0538448
1.76354 -5.12988 0.0538448
1.78054 -5.12788 0.0538448
1.80254 -5.13888 0.0538448
1.83754 -5.13588 0.0538448
1.85954 -5.14488 0.0528448
1.86554 -5.13588 0.0528448
1.90654 -5.14688 0.0528448
1.96554 -5.15688 0.0518448
1.99154 -5.15088 0.0518448
2.00754 -5.14488 0.0518448
2.02754 -5.14788 0.0508448
2.07054 -5.16088 0.0508448
2.09654 -5.15588 0.0508448
2.13554 -5.15988 0.0498448
2.17854 -5.16988 0.0488448
2.21854 -5.17488 0.0488448
2.22754 -5.17288 0.0488448
2.32654 -5.17588 0.0478448
2.43654 -5.17988 0.0458448
2.48454 -5.19488 0.0458448
2.55554 -5.19588 0.0448448
2.61154 -5.20588 0.0438448
2.62654 -5.19588 0.0438448
2.65654 -5.21388 0.0428448
2.69954 -5.21688 0.0428448
2.73954 -5.21188 0.0418448
2.74654 -5.20588 0.0418448
2.81654 -5.21888 0.0408448
2.85954 -5.21988 0.0408448
2.89854 -5.23288 0.0398448
2.91354 -5.21988 0.0398448
2.98754 -5.23588 0.0388448
3.03754 -5.22788 0.0378448
3.06954 -5.24388 0.0368448
3.13054 -5.23488 0.0368448
3.16454 -5.23588 0.0358448
3.21254 -5.23988 0.0348448
3.26154 -5.24488 0.0348448
3.35654 -5.26788 0.0328448
3.37254 -5.25488 0.0328448
3.44754 -5.26288 0.0318448
3.50854 -5.26388 0.0308448
3.58354 -5.26888 0.0298448
3.65054 -5.27688 0.0278448
3.70554 -5.28488 0.0268448
3.73354 -5.28888 0.0268448
3.79254 -5.30088 0.0258448
3.88254 -5.30288 0.0238448
3.91054 -5.30688 0.0238448
3.94054 -5.31188 0.0228448
4.12354 -5.32588 0.0198448
4.24854 -5.32988 0.0178448
4.28154 -5.33688 0.0168448
4.35454 -5.34188 0.0158448
4.41654 -5.34788 0.0148448
4.50454 -5.34988 0.0128448
4.52454 -5.35688 0.0128448
4.58554 -5.35988 0.0118448
4.61154 -5.35588 0.0108448
4.67554 -5.36188 0.00984476
4.79254 -5.37488 0.00784476
4.82554 -5.37788 0.00684476
4.85154 -5.37288 0.00684476
4.88854 -5.37988 0.00584476
4.93754 -5.38188 0.00484476
4.97054 -5.38388 0.00484476
5.00654 -5.38888 0.00384476
5.03354 -5.38288 0.00384476
5.06554 -5.38288 0.00284476
5.11954 -5.38988 0.00184476
5.15854 -5.39688 0.000844757
5.19654 -5.40188 -0.000155243
5.22554 -5.39888 -0.000155243
5.25954 -5.39888 -0.00115524
5.29854 -5.40588 -0.00215524
5.31754 -5.40688 -0.00215524
5.35854 -5.41388 -0.00315524
5.39354 -5.41588 -0.00415524
5.42654 -5.41388 -0.00415524
5.46454 -5.41788 -0.00515524
5.49454 -5.41388 -0.00515524
5.53254 -5.41688 -0.00615524
5.55454 -5.42088 -0.00715524
5.59854 -5.42988 -0.00815524
5.63054 -5.42588 -0.00815524
5.67654 -5.43588 -0.00915524
5.70754 -5.43188 -0.0101552
6.54854 -5.50588 -0.0271552
6.59054 -5.50588 -0.0281552
6.71554 -5.52088 -0.0311552
6.76654 -5.52688 -0.0321552
6.86254 -5.53288 -0.0341552
7.14154 -5.55688 -0.0401552
7.42854 -5.57588 -0.0461552
7.53654 -5.58288 -0.0491552
7.72854 -5.59388 -0.0531552
7.84154 -5.60088 -0.0561552
7.94554 -5.61788 -0.0581552
8.04754 -5.61488 -0.0601552
8.12154 -5.62788 -0.0621552
8.17054 -5.62388 -0.0631552
8.23054 -5.62788 -0.0641552
8.28054 -5.64288 -0.0661552
8.39454 -5.64288 -0.0681552
8.46054 -5.64788 -0.0701552
8.51454 -5.64588 -0.0711552
8.57754 -5.64888 -0.0721552
8.70654 -5.67488 -0.0751552
8.74654 -5.66088 -0.0761552
8.83454 -5.67888 -0.0781552
8.89154 -5.67588 -0.0791552
8.95354 -5.67588 -0.0811552
9.10354 -5.69088 -0.0841552
9.14554 -5.69688 -0.0851552
9.24154 -5.71588 -0.0881552
9.29554 -5.70888 -0.0891552
9.37454 -5.71688 -0.0911552
9.43854 -5.71588 -0.0921552
9.52554 -5.72688 -0.0941552
9.57054 -5.73288 -0.0951552
9.65354 -5.74188 -0.0971552
9.73354 -5.74788 -0.0991552
9.80654 -5.74988 -0.101155
9.87654 -5.74888 -0.102155
9.97154 -5.76188 -0.105155
10.0445 -5.76188 -0.106155
10.1165 -5.78188 -0.108155
10.2025 -5.78788 -0.110155
10.2795 -5.78988 -0.112155
10.3595 -5.79088 -0.114155
10.4615 -5.80488 -0.116155
10.6255 -5.80888 -0.120155
10.6965 -5.82588 -0.122155
10.7835 -5.82888 -0.124155
10.8885 -5.84088 -0.126155
10.9715 -5.84188 -0.128155
11.0625 -5.84488 -0.131155
11.1625 -5.85288 -0.133155
11.3305 -5.87288 -0.137155
11.4325 -5.87988 -0.140155
11.5435 -5.89088 -0.142155
11.6275 -5.88788 -0.144155
11.7265 -5.89188 -0.146155
11.9215 -5.91888 -0.151155
12.0165 -5.91888 -0.154155
12.1365 -5.92988 -0.157155
12.2335 -5.92988 -0.159155
12.3605 -5.94388 -0.162155
12.7985 -5.98088 -0.173155
12.9205 -5.98788 -0.176155
13.0345 -5.99088 -0.178155
13.1605 -5.99888 -0.181155
0.00153886 -5.00388 0.0348448
0.0325389 -4.99788 0.0348448
0.0725389 -5.00888 0.0348448
0.0875389 -5.00888 0.0348448
0.103539 -5.01288 0.0348448
0.119539 -5.01288 0.0348448
0.142539 -5.01188 0.0348448
0.158539 -5.01688 0.0348448
0.174539 -5.00888 0.0348448
0.221539 -5.01488 0.0348448
0.229539 -5.01488 0.0348448
0.245539 -5.01388 0.0348448
0.261539 -5.01688 0.0348448
0.277539 -5.01988 0.0338448
0.293539 -5.01688 0.0348448
0.309539 -5.02388 0.0338448
0.325539 -5.02688 0.0338448
0.333539 -5.02488 0.0338448
0.348539 -5.01788 0.0338448
0.364539 -5.02688 0.0338448
0.380539 -5.02788 0.0338448
0.396539 -5.02388 0.0338448
0.413539 -5.03288 0.0338448
0.421539 -5.03388 0.0338448
0.437539 -5.03488 0.0338448
0.453539 -5.04188 0.0328448
0.469539 -5.04588 0.0328448
0.485539 -5.03688 0.0328448
0.517539 -5.03688 0.0328448
0.541539 -5.04488 0.0328448
0.558539 -5.04888 0.0328448
0.572539 -5.03488 0.0328448
0.590539 -5.04588 0.0328448
0.606539 -5.04788 0.0328448
0.622539 -5.04588 0.0328448
0.646539 -5.04688 0.0328448
0.663539 -5.05288 0.0318448
0.695539 -5.05388 0.0318448
0.711539 -5.05388 0.0318448
0.736539 -5.05488 0.0318448
0.752539 -5.05588 0.0318448
0.769539 -5.06188 0.0318448
0.786539 -5.06088 0.0308448
0.801539 -5.05888 0.0308448
0.817539 -5.05588 0.0308448
0.828539 -5.07088 0.0308448
0.843539 -5.06188 0.0308448
0.860539 -5.06488 0.0308448
0.876539 -5.06488 0.0308448
0.893539 -5.07188 0.0308448
0.908539 -5.06088 0.0308448
0.927539 -5.07788 0.0298448
0.935539 -5.07588 0.0298448
0.951539 -5.07088 0.0298448
0.967539 -5.06788 0.0298448
0.986539 -5.08288 0.0298448
1.00254 -5.07988 0.0298448
1.01854 -5.07688 0.0298448
1.03454 -5.07488 0.0298448
1.04454 -5.08388 0.0288448
1.06154 -5.08588 0.0288448
1.07854 -5.08488 0.0288448
1.11354 -5.09188 0.0288448
1.12754 -5.07788 0.0288448
1.13854 -5.08988 0.0278448
1.15654 -5.09788 0.0278448
1.16954 -5.08088 0.0278448
1.18954 -5.09488 0.0278448
1.20554 -5.09288 0.0278448
1.22454 -5.10088 0.0268448
1.24954 -5.09688 0.0268448
1.26754 -5.10088 0.0268448
1.30054 -5.09888 0.0268448
1.32054 -5.10988 0.0258448
1.33654 -5.10588 0.0258448
1.35154 -5.09588 0.0268448
1.38254 -5.11588 0.0258448
1.39954 -5.11588 0.0258448
1.41554 -5.11288 0.0258448
1.43254 -5.11088 0.0248448
1.45054 -5.11188 0.0248448
1.45754 -5.10788 0.0248448
1.47854 -5.11888 0.0248448
1.51154 -5.11488 0.0248448
1.53154 -5.12388 0.0238448
1.56454 -5.11388 0.0238448
1.57654 -5.12488 0.0238448
1.59054 -5.11388 0.0238448
1.61054 -5.12088 0.0238448
1.62754 -5.12088 0.0228448
1.66654 -5.12988 0.0228448
1.68254 -5.12488 0.0228448
1.71154 -5.13188 0.0218448
1.72854 -5.12788 0.0218448
1.81054 -5.13188 0.0208448
1.82954 -5.13388 0.0208448
1.85154 -5.14488 0.0198448
1.86554 -5.13488 0.0198448
1.88654 -5.13988 0.0198448
1.93554 -5.14988 0.0188448
2.09454 -5.15188 0.0168448
2.31154 -5.16788 0.0138448
2.35254 -5.17188 0.0138448
2.42454 -5.17788 0.0118448
2.53954 -5.18888 0.00984476
2.55854 -5.18688 0.00984476
2.67554 -5.19688 0.00784476
2.71954 -5.20088 0.00784476
2.78454 -5.20588 0.00584476
2.90754 -5.21788 0.00384476
2.96254 -5.21888 0.00284476
3.15854 -5.23588 -0.000155243
3.26454 -5.24188 -0.00215524
3.28754 -5.24388 -0.00315524
3.39754 -5.25188 -0.00515524
3.42454 -5.25788 -0.00515524
3.56154 -5.26788 -0.00815524
3.70054 -5.27488 -0.0111552
3.84554 -5.28588 -0.0141552
4.39754 -5.32788 -0.0261552
7.14154 -5.54488 -0.0941552
7.23554 -5.54488 -0.0961552
7.31954 -5.55588 -0.0991552
7.42354 -5.56088 -0.102155
7.53654 -5.57288 -0.105155
7.61754 -5.57788 -0.107155
7.98854 -5.60288 -0.117155
9.70754 -5.73388 -0.165155
10.1615 -5.76788 -0.179155
12.4565 -5.95488 -0.247155
12.7415 -5.96988 -0.255155
3.25754 -5.25288 -0.0431552
4.05354 -5.31788 -0.0631552
4.13854 -5.32488 -0.0651552
4.29854 -5.33588 -0.0691552
4.52654 -5.35488 -0.0751552
4.84654 -5.38088 -0.0841552
4.90654 -5.37788 -0.0861552
5.03054 -5.39388 -0.0891552
5.09054 -5.38988 -0.0911552
5.14554 -5.39588 -0.0921552
5.22254 -5.40788 -0.0951552
5.28454 -5.40288 -0.0961552
5.33254 -5.41788 -0.0981552
5.36354 -5.41488 -0.0991552
5.41754 -5.41788 -0.100155
5.49254 -5.42488 -0.103155
5.53654 -5.43388 -0.104155
5.56654 -5.42888 -0.105155
5.62354 -5.43288 -0.106155
5.66954 -5.44288 -0.108155
5.69254 -5.43088 -0.108155
5.74454 -5.44588 -0.110155
5.77154 -5.43688 -0.111155
6.58154 -5.51188 -0.136155
7.57254 -5.58688 -0.168155
7.82654 -5.60388 -0.176155
7.88654 -5.60988 -0.178155
7.94654 -5.61488 -0.180155
8.03654 -5.62188 -0.183155
8.10254 -5.62888 -0.185155
8.15154 -5.62488 -0.187155
8.21154 -5.62888 -0.189155
8.27554 -5.63488 -0.191155
8.32154 -5.62788 -0.192155
8.37554 -5.64488 -0.194155
8.44454 -5.65188 -0.197155
8.50054 -5.65088 -0.199155
8.56154 -5.65288 -0.201155
8.62654 -5.65688 -0.203155
8.68554 -5.65688 -0.205155
8.80554 -5.67488 -0.209155
8.86654 -5.67488 -0.211155
8.93554 -5.67888 -0.213155
9.01054 -5.68688 -0.216155
9.08254 -5.69288 -0.218155
9.14254 -5.69088 -0.220155
9.21354 -5.71388 -0.223155
9.28254 -5.71588 -0.225155
9.34954 -5.71688 -0.228155
9.42754 -5.72388 -0.230155
9.49154 -5.72188 -0.232155
9.55954 -5.72188 -0.235155
9.63754 -5.72788 -0.237155
9.70154 -5.74488 -0.240155
9.78554 -5.75288 -0.243155
9.85854 -5.75388 -0.245155
9.93054 -5.75388 -0.247155
10.0175 -5.76188 -0.251155
10.0985 -5.76588 -0.253155
10.2545 -5.79088 -0.259155
10.3335 -5.79288 -0.262155
10.4175 -5.79688 -0.265155
10.4925 -5.79488 -0.267155
10.5875 -5.80488 -0.271155
10.6685 -5.80588 -0.273155
10.8375 -5.83088 -0.279155
10.9315 -5.83688 -0.283155
12.9935 -5.99088 -0.357155
0.211539 -5.02488 -0.0291552
0.227539 -5.02588 -0.0291552
1.00954 -5.08788 -0.0361552
1.59154 -5.12688 -0.0441552
1.71754 -5.13288 -0.0461552
1.79354 -5.14488 -0.0481552
1.82854 -5.14088 -0.0481552
1.89254 -5.14288 -0.0491552
1.91354 -5.14988 -0.0501552
1.98154 -5.15888 -0.0511552
2.00054 -5.15788 -0.0511552
2.03854 -5.16188 -0.0521552
2.05954 -5.16688 -0.0531552
2.06654 -5.16188 -0.0531552
2.18654 -5.17588 -0.0551552
2.21254 -5.16888 -0.0551552
2.23154 -5.16888 -0.0561552
2.25354 -5.17488 -0.0561552
2.29654 -5.18588 -0.0581552
2.32454 -5.18288 -0.0581552
2.40854 -5.19488 -0.0601552
2.43854 -5.19588 -0.0611552
2.48054 -5.19888 -0.0621552
2.55154 -5.20188 -0.0631552
2.57154 -5.20088 -0.0631552
2.59654 -5.20888 -0.0641552
2.85254 -5.22188 -0.0701552
2.87854 -5.22988 -0.0711552
2.94354 -5.23288 -0.0721552
2.96554 -5.23188 -0.0731552
3.02154 -5.23488 -0.0741552
3.09454 -5.24688 -0.0761552
3.14854 -5.24488 -0.0781552
3.22154 -5.25288 -0.0791552
3.23954 -5.24588 -0.0801552
3.34654 -5.25188 -0.0821552
3.54054 -5.27788 -0.0881552
3.56454 -5.27888 -0.0891552
3.57654 -5.27788 -0.0891552
3.62954 -5.28488 -0.0911552
3.64354 -5.27088 -0.0901552
3.70054 -5.28188 -0.0921552
3.72154 -5.29388 -0.0931552
3.74754 -5.29588 -0.0941552
3.76054 -5.27888 -0.0941552
3.82554 -5.29888 -0.0961552
3.87854 -5.30188 -0.0981552
3.96854 -5.30288 -0.100155
3.99254 -5.29988 -0.101155
4.03054 -5.31588 -0.102155
4.04354 -5.31588 -0.103155
4.06254 -5.30588 -0.103155
4.09754 -5.31688 -0.104155
4.12454 -5.31688 -0.105155
4.14554 -5.31088 -0.105155
4.22554 -5.32688 -0.108155
4.25454 -5.32888 -0.109155
4.28054 -5.32588 -0.109155
4.30654 -5.32488 -0.110155
4.33854 -5.33088 -0.111155
4.39754 -5.33388 -0.113155
4.44954 -5.34588 -0.115155
4.47754 -5.34488 -0.116155
4.50154 -5.34088 -0.116155
4.55954 -5.34088 -0.118155
4.59354 -5.34688 -0.119155
4.61254 -5.35088 -0.120155
4.64754 -5.35788 -0.121155
4.67454 -5.35588 -0.122155
4.74554 -5.36788 -0.124155
4.76954 -5.36188 -0.125155
4.79454 -5.37288 -0.126155
4.81754 -5.36488 -0.126155
4.92854 -5.38588 -0.130155
5.00054 -5.37888 -0.132155
5.03954 -5.38688 -0.134155
5.07754 -5.39488 -0.135155
5.10154 -5.38588 -0.135155
5.14354 -5.39588 -0.137155
5.17754 -5.39888 -0.138155
5.20454 -5.39188 -0.139155
5.23154 -5.40288 -0.140155
5.26354 -5.40188 -0.141155
5.32654 -5.39888 -0.143155
5.36354 -5.40188 -0.144155
5.39854 -5.40388 -0.145155
5.45954 -5.41288 -0.147155
5.49854 -5.41888 -0.149155
5.52954 -5.41588 -0.150155
5.56954 -5.42088 -0.151155
5.64254 -5.42288 -0.154155
5.67154 -5.43288 -0.155155
5.69954 -5.42688 -0.155155
5.74454 -5.43488 -0.157155
6.52254 -5.49188 -0.185155
6.56754 -5.49488 -0.186155
6.61554 -5.49988 -0.188155
6.66154 -5.50288 -0.190155
6.74054 -5.51488 -0.193155
6.78854 -5.51888 -0.195155
6.84154 -5.52688 -0.197155
6.88954 -5.53088 -0.198155
6.92854 -5.52588 -0.200155
7.11054 -5.54488 -0.206155
7.16554 -5.55188 -0.209155
7.21354 -5.55288 -0.210155
7.26254 -5.55388 -0.212155
7.32254 -5.56388 -0.214155
7.35354 -5.56988 -0.216155
7.40754 -5.57388 -0.218155
7.46154 -5.57888 -0.220155
7.50754 -5.57688 -0.221155
7.55454 -5.57388 -0.223155
7.61854 -5.58488 -0.226155
7.66354 -5.58088 -0.227155
7.71054 -5.59688 -0.229155
7.76554 -5.59988 -0.231155
7.82354 -5.60488 -0.233155
7.86554 -5.59788 -0.235155
7.92854 -5.60488 -0.237155
7.97554 -5.60088 -0.239155
8.03954 -5.60788 -0.241155
8.08754 -5.62288 -0.244155
8.13454 -5.61788 -0.245155
8.19954 -5.62488 -0.248155
8.25654 -5.62688 -0.250155
8.31454 -5.62788 -0.252155
8.43354 -5.65088 -0.257155
8.48454 -5.64688 -0.259155
8.54354 -5.64788 -0.261155
8.60754 -5.65188 -0.263155
8.67254 -5.65488 -0.266155
8.85454 -5.67588 -0.273155
8.92754 -5.68288 -0.276155
8.99454 -5.68588 -0.279155
9.06154 -5.68888 -0.281155
9.12954 -5.69188 -0.284155
9.27454 -5.70188 -0.290155
9.33554 -5.71988 -0.292155
9.39854 -5.71788 -0.295155
9.47254 -5.72288 -0.298155
9.55654 -5.73288 -0.301155
9.62254 -5.73188 -0.304155
9.69554 -5.73388 -0.306155
9.77254 -5.73788 -0.309155
9.83954 -5.75688 -0.312155
9.91154 -5.75688 -0.315155
9.99854 -5.76588 -0.319155
10.0755 -5.76888 -0.322155
10.1615 -5.77588 -0.325155
10.2365 -5.77588 -0.328155
10.3085 -5.79588 -0.331155
10.3915 -5.79888 -0.335155
10.4775 -5.80488 -0.338155
10.5585 -5.80688 -0.341155
10.6415 -5.80888 -0.345155
10.7265 -5.81188 -0.348155
10.9035 -5.84188 -0.356155
0.000538864 -5.00088 -0.0571552
0.0155389 -4.99288 -0.0561552
0.0235389 -5.00488 -0.0571552
0.0865389 -5.00188 -0.0571552
0.102539 -5.01788 -0.0581552
0.118539 -5.00688 -0.0571552
0.141539 -5.00288 -0.0571552
0.158539 -5.02188 -0.0581552
0.173539 -5.00988 -0.0571552
0.205539 -5.01488 -0.0581552
0.213539 -5.01588 -0.0581552
0.229539 -5.01688 -0.0581552
0.244539 -5.02088 -0.0581552
0.260539 -5.02188 -0.0581552
0.276539 -5.02088 -0.0581552
0.292539 -5.01988 -0.0581552
0.308539 -5.02288 -0.0581552
0.316539 -5.02088 -0.0581552
0.348539 -5.02488 -0.0591552
0.364539 -5.02688 -0.0591552
0.380539 -5.03388 -0.0591552
0.396539 -5.03688 -0.0591552
0.412539 -5.03388 -0.0591552
0.419539 -5.02488 -0.0591552
0.436539 -5.03388 -0.0591552
0.468539 -5.03088 -0.0591552
0.484539 -5.03688 -0.0601552
0.501539 -5.04188 -0.0601552
0.509539 -5.04688 -0.0601552
0.525539 -5.04288 -0.0601552
0.556539 -5.03588 -0.0601552
0.574539 -5.05188 -0.0611552
0.589539 -5.04588 -0.0611552
0.605539 -5.04588 -0.0611552
0.630539 -5.04688 -0.0611552
0.647539 -5.05288 -0.0621552
0.679539 -5.05088 -0.0621552
0.694539 -5.04488 -0.0611552
0.720539 -5.05588 -0.0621552
0.737539 -5.06088 -0.0631552
0.753539 -5.06088 -0.0631552
0.803539 -5.06888 -0.0631552
0.810539 -5.05988 -0.0631552
0.826539 -5.05888 -0.0631552
0.843539 -5.06488 -0.0641552
0.859539 -5.06188 -0.0641552
0.878539 -5.07288 -0.0641552
0.893539 -5.06788 -0.0641552
0.935539 -5.07088 -0.0651552
0.950539 -5.06388 -0.0641552
0.971539 -5.08488 -0.0661552
1.01854 -5.07488 -0.0661552
1.02854 -5.07888 -0.0661552
1.04554 -5.08188 -0.0661552
1.06054 -5.07288 -0.0661552
1.09454 -5.07588 -0.0661552
1.11254 -5.08188 -0.0671552
1.14054 -5.09388 -0.0681552
1.15554 -5.08888 -0.0681552
1.17454 -5.09888 -0.0681552
1.22354 -5.08888 -0.0691552
1.23054 -5.08588 -0.0681552
1.24954 -5.09088 -0.0691552
1.30154 -5.09488 -0.0701552
1.31954 -5.09988 -0.0701552
1.36254 -5.10088 -0.0711552
1.38154 -5.10488 -0.0711552
