3.63779 3.49093 0.000126184
3.61079 3.48693 0.000126184
3.58979 3.48793 0.00112618
3.53979 3.50493 0.00212618
3.48979 3.48793 0.00412618
3.48179 3.50093 0.00412618
3.42379 3.50793 0.00512618
3.34079 3.49893 0.00712619
3.27279 3.51393 0.00912618
3.25579 3.50793 0.00912618
3.22879 3.49993 0.0101262
3.22179 3.51493 0.0101262
3.20279 3.51593 0.0111262
3.09679 3.51993 0.0131262
3.07279 3.51393 0.0141262
3.05879 3.52093 0.0141262
2.99079 3.51893 0.0161262
2.93579 3.52093 0.0171262
2.87179 3.52193 0.0191262
2.78179 3.52193 0.0211262
2.77579 3.52693 0.0211262
2.63379 3.53493 0.0241262
2.61079 3.52693 0.0251262
4.90179 3.44893 -0.0728738
4.87979 3.45593 -0.0718738
4.85679 3.45093 -0.0708738
4.81979 3.44793 -0.0698738
4.80379 3.45993 -0.0698738
4.76079 3.45193 -0.0678738
4.69979 3.46393 -0.0658738
4.66579 3.46193 -0.0648738
4.15979 3.48093 -0.0478738
3.94779 3.48893 -0.0408738
3.81679 3.49193 -0.0358738
3.75579 3.48093 -0.0338738
3.75079 3.49793 -0.0348738
3.56679 3.49893 -0.0288738
3.50179 3.49993 -0.0268738
3.46079 3.50393 -0.0248738
3.45079 3.50493 -0.0248738
3.40779 3.50493 -0.0238738
3.38579 3.50493 -0.0228738
3.36779 3.50793 -0.0228738
3.29579 3.50993 -0.0208738
3.27279 3.50693 -0.0198738
3.25079 3.50593 -0.0188738
3.23679 3.51293 -0.0188738
3.21479 3.51193 -0.0178738
3.19879 3.51593 -0.0178738
3.18779 3.51493 -0.0168738
3.13879 3.50493 -0.0158738
3.12379 3.51093 -0.0148738
3.10579 3.51293 -0.0148738
3.06779 3.51493 -0.0138738
3.06079 3.51793 -0.0138738
3.03979 3.51493 -0.0128738
3.01279 3.50693 -0.0118738
2.99879 3.51293 -0.0118738
2.98079 3.51393 -0.0108738
2.96679 3.51993 -0.0108738
2.94579 3.51693 -0.00987382
2.93679 3.51893 -0.00987382
2.91979 3.51993 -0.00987382
2.90379 3.52293 -0.00887382
2.88579 3.52493 -0.00887382
2.86479 3.52093 -0.00787382
2.83279 3.52693 -0.00787382
2.82179 3.52493 -0.00687382
2.80379 3.52493 -0.00687382
2.78579 3.52593 -0.00587382
2.75879 3.51393 -0.00487382
2.75179 3.52693 -0.00487382
2.72879 3.52193 -0.00487382
2.72879 3.53193 -0.00487382
2.70979 3.53093 -0.00387382
2.69079 3.52893 -0.00387382
2.67179 3.52793 -0.00287382
2.65279 3.52493 -0.00287382
2.63179 3.52093 -0.00187382
2.61579 3.52193 -0.00187382
4.91879 3.45293 -0.107874
4.85779 3.45593 -0.105874
4.82279 3.45293 -0.104874
4.79179 3.45393 -0.102874
4.76479 3.45793 -0.101874
4.73679 3.45893 -0.100874
4.70279 3.44593 -0.0988738
4.68179 3.45293 -0.0988738
4.60979 3.46693 -0.0958738
4.57979 3.46693 -0.0948738
4.52979 3.46293 -0.0928738
4.45579 3.47293 -0.0898738
4.42179 3.46893 -0.0888738
4.35579 3.47193 -0.0858738
4.28579 3.45993 -0.0828738
4.21779 3.47093 -0.0808738
4.20079 3.46893 -0.0798738
4.09779 3.46993 -0.0758738
4.03479 3.47093 -0.0738738
3.97779 3.48793 -0.0718738
3.68879 3.48793 -0.0618738
3.63979 3.48393 -0.0598738
3.52379 3.49193 -0.0558738
3.49979 3.48993 -0.0548738
3.34379 3.49493 -0.0498738
3.23179 3.49593 -0.0458738
3.21479 3.49793 -0.0448738
2.93379 3.52093 -0.0368738
2.90479 3.50893 -0.0348738
2.88779 3.50993 -0.0348738
2.82879 3.51693 -0.0328738
2.81179 3.51793 -0.0328738
2.79679 3.52193 -0.0328738
2.77079 3.51193 -0.0308738
2.75479 3.51393 -0.0308738
2.74479 3.51193 -0.0308738
2.73379 3.52093 -0.0308738
2.69679 3.51893 -0.0288738
2.68479 3.52593 -0.0288738
2.66879 3.52793 -0.0288738
2.64679 3.52193 -0.0278738
2.63879 3.52193 -0.0278738
2.60179 3.51793 -0.0258738
4.79979 3.44493 -0.140874
4.77379 3.44893 -0.139874
4.74179 3.44893 -0.138874
4.72479 3.45893 -0.137874
4.67979 3.44993 -0.135874
4.66879 3.46393 -0.135874
4.60679 3.45193 -0.132874
4.59579 3.46593 -0.132874
4.53979 3.46993 -0.129874
4.31679 3.46393 -0.119874
4.29579 3.46993 -0.118874
4.24379 3.46093 -0.116874
4.22579 3.46793 -0.115874
4.19879 3.46893 -0.114874
4.17579 3.47193 -0.113874
4.14779 3.47093 -0.112874
4.12379 3.47293 -0.111874
4.10979 3.47293 -0.110874
4.07779 3.46693 -0.109874
4.00379 3.47093 -0.106874
3.98079 3.47293 -0.105874
3.95279 3.48093 -0.104874
3.88379 3.48593 -0.101874
3.84879 3.47693 -0.0998738
3.83779 3.48893 -0.0998738
3.79679 3.48393 -0.0988738
3.77679 3.48793 -0.0978738
3.74979 3.48493 -0.0968738
3.72579 3.48493 -0.0958738
3.70679 3.48993 -0.0948738
3.66979 3.48793 -0.0928738
3.65079 3.49093 -0.0928738
3.63779 3.50093 -0.0928738
3.61179 3.49793 -0.0908738
3.58479 3.49393 -0.0898738
3.56879 3.50093 -0.0898738
3.53779 3.49193 -0.0878738
3.49079 3.49993 -0.0868738
3.43679 3.48993 -0.0838738
3.42679 3.50193 -0.0838738
3.40279 3.49993 -0.0828738
3.39379 3.50093 -0.0828738
3.37079 3.49993 -0.0818738
3.35379 3.50293 -0.0808738
3.32679 3.49793 -0.0798738
3.31479 3.50693 -0.0798738
3.29279 3.50593 -0.0788738
3.27379 3.50793 -0.0778738
3.25979 3.50393 -0.0778738
3.23279 3.49693 -0.0758738
3.19779 3.50393 -0.0748738
3.17579 3.50193 -0.0738738
3.16279 3.50893 -0.0738738
3.14679 3.50193 -0.0728738
3.13279 3.50893 -0.0728738
3.11079 3.50693 -0.0718738
3.09279 3.50893 -0.0718738
3.07579 3.51093 -0.0708738
3.06079 3.51693 -0.0708738
3.02679 3.51093 -0.0688738
2.98279 3.50493 -0.0668738
2.97679 3.51993 -0.0678738
2.94779 3.50793 -0.0658738
2.93779 3.51893 -0.0658738
2.92379 3.52493 -0.0658738
2.90379 3.51093 -0.0648738
2.89479 3.52293 -0.0648738
2.87379 3.51993 -0.0638738
2.85579 3.52093 -0.0638738
2.83379 3.51693 -0.0628738
2.78579 3.51393 -0.0608738
2.74979 3.51393 -0.0588738
2.73679 3.51893 -0.0588738
2.70079 3.51893 -0.0578738
2.69079 3.52893 -0.0578738
2.67879 3.52393 -0.0568738
2.64879 3.53093 -0.0568738
2.61979 3.51593 -0.0548738
4.94979 3.45193 -0.180874
4.92179 3.44393 -0.178874
4.82779 3.44493 -0.173874
4.78479 3.45993 -0.172874
4.75279 3.45993 -0.170874
4.72179 3.44893 -0.168874
4.70179 3.45593 -0.167874
4.59579 3.46793 -0.163874
4.22379 3.47593 -0.145874
4.19979 3.47893 -0.144874
4.17079 3.47693 -0.142874
4.12479 3.48193 -0.140874
4.02879 3.47693 -0.136874
4.00179 3.47593 -0.134874
3.98879 3.48693 -0.134874
3.96579 3.48893 -0.133874
3.87879 3.48793 -0.129874
3.85879 3.49193 -0.128874
3.83479 3.49193 -0.127874
3.80379 3.48493 -0.126874
3.77879 3.48493 -0.124874
3.76179 3.47993 -0.123874
3.74379 3.48493 -0.123874
3.71579 3.47993 -0.121874
3.70779 3.49393 -0.122874
3.44879 3.50393 -0.111874
3.31279 3.50493 -0.105874
3.20879 3.51493 -0.101874
4.72779 3.44993 -0.210874
4.70579 3.45693 -0.209874
4.66879 3.45293 -0.206874
4.63679 3.45193 -0.205874
4.62679 3.45593 -0.204874
4.59679 3.45593 -0.203874
4.54479 3.46193 -0.200874
4.52579 3.46993 -0.199874
4.47179 3.46193 -0.196874
4.38679 3.46393 -0.191874
4.31179 3.47093 -0.188874
4.29679 3.47093 -0.187874
4.27879 3.47793 -0.186874
4.21279 3.46893 -0.182874
4.19179 3.47393 -0.181874
4.17279 3.47993 -0.181874
4.15779 3.47893 -0.180874
4.12679 3.47593 -0.178874
4.09779 3.47293 -0.177874
4.07279 3.47493 -0.175874
4.04679 3.47393 -0.174874
4.01979 3.47293 -0.172874
4.00579 3.48293 -0.172874
3.97879 3.47093 -0.170874
3.95879 3.47593 -0.169874
3.93279 3.47493 -0.168874
3.92379 3.48893 -0.168874
3.89579 3.48593 -0.167874
3.87479 3.48893 -0.166874
3.85479 3.49293 -0.165874
3.83179 3.48293 -0.163874
3.81579 3.49093 -0.163874
3.78879 3.48893 -0.161874
3.75479 3.47893 -0.159874
3.73779 3.48493 -0.159874
3.68679 3.49293 -0.156874
3.64579 3.49793 -0.155874
3.61879 3.49393 -0.153874
3.58179 3.50193 -0.152874
3.52379 3.49993 -0.149874
3.45979 3.50193 -0.146874
3.40679 3.50393 -0.143874
3.38379 3.50193 -0.142874
3.36779 3.50793 -0.141874
3.33779 3.49793 -0.140874
3.32379 3.50593 -0.139874
3.27179 3.50593 -0.137874
3.21179 3.50693 -0.134874
3.16479 3.50093 -0.132874
3.16079 3.50693 -0.132874
3.14579 3.51293 -0.131874
3.09479 3.49993 -0.128874
3.08979 3.51693 -0.129874
3.06579 3.51193 -0.128874
3.05079 3.50593 -0.127874
3.04279 3.51793 -0.127874
3.02379 3.51893 -0.126874
2.98579 3.51993 -0.124874
2.85779 3.51193 -0.118874
2.84379 3.51793 -0.118874
2.79679 3.51493 -0.116874
2.77579 3.51193 -0.115874
2.75979 3.51393 -0.114874
2.72779 3.51893 -0.113874
2.71379 3.52393 -0.113874
2.68979 3.52793 -0.112874
2.67079 3.52493 -0.111874
2.64579 3.51593 -0.110874
2.61779 3.52393 -0.109874
4.90179 3.45093 -0.249874
4.87279 3.44293 -0.247874
4.84579 3.44693 -0.246874
4.81279 3.44493 -0.243874
4.79379 3.45493 -0.243874
4.76979 3.45993 -0.242874
4.73479 3.45693 -0.239874
4.69479 3.46193 -0.237874
4.57779 3.46493 -0.230874
4.54679 3.46293 -0.228874
3.87279 3.49193 -0.192874
3.77579 3.49193 -0.186874
3.75579 3.49493 -0.185874
3.53179 3.49893 -0.174874
3.50779 3.49693 -0.172874
3.39979 3.50793 -0.167874
4.81679 3.44293 -0.283874
4.76879 3.44293 -0.280874
4.72079 3.45393 -0.277874
4.68579 3.45093 -0.275874
4.65579 3.45193 -0.273874
4.63879 3.46193 -0.272874
4.62179 3.46093 -0.271874
4.58579 3.45593 -0.268874
4.56779 3.46593 -0.268874
4.54179 3.46793 -0.266874
4.47679 3.46393 -0.262874
4.20479 3.47093 -0.245874
4.14779 3.46793 -0.241874
4.06079 3.47293 -0.236874
3.97979 3.46893 -0.231874
3.94379 3.47093 -0.229874
3.92979 3.48093 -0.229874
3.88579 3.48493 -0.226874
3.85079 3.47593 -0.224874
3.83379 3.48293 -0.223874
3.76779 3.47793 -0.219874
3.74879 3.48193 -0.218874
3.72279 3.47993 -0.217874
3.71379 3.49293 -0.217874
3.69179 3.49493 -0.216874
3.64779 3.48593 -0.213874
3.62879 3.48993 -0.212874
3.58179 3.48893 -0.209874
3.54579 3.49693 -0.207874
3.52779 3.48993 -0.206874
3.50979 3.49393 -0.205874
3.48579 3.49293 -0.204874
3.46579 3.49493 -0.203874
3.44579 3.49593 -0.201874
3.42079 3.49293 -0.200874
3.40379 3.49793 -0.199874
3.39679 3.50193 -0.199874
3.36879 3.49493 -0.197874
3.32679 3.49493 -0.195874
3.30679 3.49693 -0.194874
3.28679 3.49693 -0.193874
3.26979 3.50193 -0.192874
3.25379 3.49493 -0.191874
3.23579 3.49793 -0.190874
3.21979 3.50193 -0.189874
3.19579 3.49893 -0.188874
3.17879 3.50193 -0.187874
3.04779 3.49993 -0.180874
3.02979 3.50093 -0.179874
3.01479 3.50593 -0.179874
2.97079 3.51093 -0.177874
2.95079 3.50993 -0.176874
2.92679 3.50393 -0.174874
2.91379 3.50993 -0.174874
2.89979 3.51593 -0.173874
2.84879 3.50893 -0.170874
2.83179 3.51193 -0.170874
2.81079 3.50893 -0.168874
2.80179 3.51893 -0.169874
2.78579 3.51093 -0.167874
2.77579 3.52093 -0.167874
2.74979 3.51093 -0.165874
2.71779 3.51593 -0.164874
2.69779 3.51193 -0.163874
2.68179 3.51393 -0.162874
2.67479 3.51693 -0.162874
2.65879 3.51893 -0.161874
2.63779 3.51393 -0.160874
2.62579 3.52093 -0.160874
4.90479 3.43793 -0.323874
4.84979 3.44593 -0.319874
4.82679 3.44093 -0.318874
4.77279 3.44793 -0.314874
4.74779 3.45193 -0.313874
4.69879 3.46193 -0.310874
4.64779 3.45693 -0.306874
4.56879 3.46593 -0.301874
4.53879 3.46593 -0.299874
4.48679 3.47093 -0.296874
4.47079 3.46893 -0.294874
4.38379 3.46793 -0.288874
4.31079 3.46593 -0.283874
4.26879 3.47593 -0.281874
4.23079 3.46693 -0.278874
4.17379 3.46393 -0.274874
4.13479 3.46393 -0.272874
4.11879 3.47293 -0.271874
4.08879 3.46893 -0.269874
4.07179 3.47693 -0.268874
4.04379 3.47493 -0.266874
4.01479 3.47193 -0.264874
4.00379 3.48493 -0.264874
3.97579 3.47093 -0.262874
3.95179 3.47193 -0.260874
3.93379 3.47793 -0.259874
3.90779 3.47693 -0.258874
3.88079 3.47393 -0.256874
3.75479 3.47893 -0.248874
3.70979 3.48093 -0.245874
3.69779 3.48093 -0.245874
3.67279 3.47893 -0.243874
3.65479 3.48393 -0.242874
3.60679 3.48193 -0.239874
3.56479 3.48493 -0.236874
3.55379 3.48493 -0.236874
3.53179 3.48493 -0.234874
3.51079 3.48593 -0.233874
3.49179 3.48793 -0.232874
3.48179 3.50093 -0.232874
3.44779 3.48693 -0.229874
3.42979 3.49093 -0.229874
3.42279 3.49493 -0.228874
3.40279 3.49693 -0.227874
3.35879 3.49493 -0.225874
3.29779 3.49593 -0.221874
3.28579 3.49393 -0.220874
3.27679 3.50693 -0.221874
3.25879 3.50993 -0.220874
3.16979 3.49993 -0.214874
3.15779 3.49793 -0.213874
3.13879 3.49893 -0.212874
3.09979 3.49893 -0.210874
3.06179 3.49993 -0.208874
3.03379 3.50093 -0.206874
3.02879 3.51793 -0.207874
3.00079 3.50793 -0.205874
2.97279 3.51893 -0.204874
2.94279 3.50493 -0.201874
2.92179 3.51493 -0.201874
2.90779 3.51893 -0.200874
2.89279 3.52393 -0.200874
2.86979 3.51893 -0.198874
2.85079 3.51693 -0.197874
2.83579 3.52093 -0.197874
2.82779 3.52293 -0.196874
2.80279 3.51393 -0.194874
2.76079 3.52893 -0.193874
2.74179 3.52693 -0.192874
2.71279 3.52393 -0.190874
2.68379 3.53093 -0.189874
4.81479 3.44993 -0.353874
4.79479 3.45793 -0.351874
4.75779 3.45493 -0.349874
4.72079 3.46193 -0.346874
4.64879 3.45493 -0.341874
4.54879 3.45893 -0.333874
4.49479 3.46293 -0.330874
4.47479 3.46993 -0.329874
4.40079 3.46793 -0.323874
4.37179 3.46893 -0.321874
4.26179 3.46993 -0.313874
4.22179 3.47093 -0.310874
3.99679 3.46893 -0.295874
3.86479 3.47393 -0.286874
3.71979 3.48493 -0.277874
3.69379 3.48293 -0.275874
3.54779 3.48493 -0.265874
3.51179 3.49393 -0.263874
3.29779 3.49393 -0.250874
3.27579 3.49293 -0.248874
3.15279 3.50293 -0.241874
3.12679 3.49693 -0.239874
3.10779 3.49793 -0.238874
2.99179 3.50893 -0.232874
2.87379 3.51393 -0.225874
2.85879 3.50793 -0.224874
2.82279 3.50893 -0.222874
2.80479 3.50793 -0.221874
2.77279 3.51393 -0.220874
2.75379 3.51293 -0.218874
2.74479 3.51193 -0.218874
2.72879 3.51493 -0.217874
2.69179 3.51293 -0.215874
2.67479 3.51393 -0.214874
2.66079 3.51693 -0.213874
2.64279 3.51793 -0.213874
2.63179 3.51393 -0.212874
4.34979 3.45593 -0.354874
4.29879 3.45993 -0.351874
3.68979 3.47793 -0.307874
3.57079 3.48293 -0.299874
3.55179 3.48593 -0.297874
3.43579 3.48993 -0.290874
3.41979 3.49693 -0.289874
3.40279 3.49993 -0.288874
3.39579 3.50393 -0.288874
3.34479 3.49493 -0.284874
3.29979 3.49093 -0.280874
3.28879 3.50193 -0.280874
3.26979 3.50293 -0.279874
3.25179 3.49493 -0.278874
3.21279 3.49593 -0.275874
3.19179 3.49593 -0.274874
3.18679 3.51193 -0.274874
3.16079 3.50593 -0.272874
3.14679 3.50193 -0.271874
3.12279 3.49693 -0.269874
3.09279 3.50693 -0.268874
3.07079 3.50293 -0.266874
3.05579 3.50793 -0.266874
3.03379 3.50593 -0.264874
3.02579 3.50793 -0.264874
2.97079 3.50993 -0.260874
2.95479 3.51293 -0.260874
2.92979 3.50593 -0.257874
2.91779 3.51293 -0.257874
2.90379 3.50693 -0.256874
2.86979 3.51093 -0.254874
2.85279 3.51193 -0.253874
2.83679 3.51493 -0.252874
2.82179 3.51893 -0.252874
2.81379 3.52093 -0.251874
2.79279 3.51693 -0.250874
2.78079 3.52393 -0.250874
2.75279 3.51093 -0.247874
2.73779 3.51493 -0.246874
2.73079 3.52793 -0.247874
2.70879 3.52193 -0.245874
2.69679 3.51893 -0.244874
2.67979 3.51893 -0.243874
2.65979 3.51493 -0.242874
2.64979 3.52493 -0.242874
2.61479 3.52393 -0.240874
4.69479 3.44893 -0.417874
4.67479 3.44493 -0.415874
4.60279 3.45993 -0.410874
4.55979 3.44993 -0.406874
4.53279 3.45293 -0.404874
4.46479 3.45693 -0.398874
4.44579 3.46493 -0.397874
4.35279 3.46993 -0.390874
4.28779 3.46293 -0.384874
4.27379 3.47393 -0.384874
4.23579 3.46593 -0.380874
4.22179 3.47593 -0.380874
4.17679 3.47193 -0.376874
4.14879 3.47093 -0.373874
4.12679 3.47593 -0.372874
4.06279 3.46493 -0.366874
4.05179 3.47793 -0.366874
4.00679 3.47293 -0.362874
3.95479 3.47193 -0.358874
3.90879 3.47493 -0.355874
3.88579 3.47693 -0.353874
3.85179 3.47893 -0.351874
3.80679 3.48193 -0.347874
3.75679 3.48093 -0.343874
3.64879 3.47893 -0.335874
3.63979 3.49193 -0.335874
3.61579 3.49093 -0.333874
3.50379 3.50193 -0.326874
3.47979 3.50093 -0.324874
3.43279 3.48593 -0.319874
3.35779 3.49693 -0.315874
3.32679 3.49693 -0.313874
3.25079 3.50493 -0.308874
3.20579 3.51193 -0.305874
3.13379 3.49893 -0.299874
3.06979 3.50493 -0.295874
3.04579 3.49993 -0.293874
3.03479 3.50893 -0.293874
2.97479 3.50593 -0.289874
2.96779 3.50893 -0.289874
2.92979 3.50993 -0.286874
2.90779 3.50493 -0.284874
2.87579 3.51093 -0.283874
2.85579 3.50893 -0.281874
2.83179 3.51393 -0.280874
2.81079 3.50993 -0.278874
2.79979 3.51893 -0.278874
2.78479 3.52293 -0.278874
2.72079 3.52193 -0.273874
2.70379 3.52293 -0.272874
2.67979 3.51393 -0.270874
2.67079 3.52493 -0.270874
2.64779 3.51793 -0.268874
2.62679 3.51393 -0.267874
4.87779 3.44393 -0.471874
4.85179 3.44893 -0.469874
4.80779 3.43993 -0.465874
4.78079 3.44293 -0.463874
4.73879 3.44693 -0.459874
4.71179 3.44993 -0.457874
4.67879 3.44793 -0.454874
4.62479 3.45293 -0.449874
4.60179 3.45793 -0.448874
4.57679 3.46193 -0.446874
4.55379 3.45593 -0.443874
4.50379 3.46193 -0.439874
4.48479 3.46993 -0.438874
4.13979 3.48093 -0.409874
4.04679 3.47893 -0.401874
4.02279 3.47993 -0.399874
3.97479 3.48293 -0.395874
3.94979 3.48193 -0.393874
3.91579 3.47493 -0.390874
3.90479 3.47493 -0.389874
3.88079 3.47593 -0.387874
3.84879 3.49093 -0.385874
3.81379 3.48093 -0.382874
3.79579 3.48593 -0.381874
3.73479 3.48493 -0.376874
3.66579 3.48493 -0.370874
3.64479 3.48693 -0.369874
3.60479 3.48093 -0.365874
2.99679 3.50393 -0.321874
2.90879 3.51093 -0.315874
2.89879 3.52193 -0.315874
2.87979 3.50893 -0.313874
2.86279 3.51093 -0.312874
2.83279 3.51893 -0.310874
2.80179 3.52593 -0.309874
2.78479 3.52693 -0.308874
2.68979 3.52993 -0.301874
4.91079 3.43793 -0.511874
4.88079 3.43993 -0.508874
4.85079 3.44093 -0.506874
4.80479 3.44293 -0.501874
4.78279 3.44993 -0.500874
4.74579 3.44693 -0.496874
4.72679 3.45593 -0.495874
4.68779 3.44993 -0.491874
4.67879 3.45493 -0.490874
4.64879 3.45493 -0.487874
4.61879 3.45593 -0.485874
4.60179 3.46493 -0.484874
4.53979 3.46393 -0.478874
4.51479 3.46793 -0.476874
4.44079 3.46693 -0.469874
4.41379 3.46793 -0.467874
4.32279 3.47493 -0.459874
4.29179 3.47193 -0.456874
4.26079 3.46893 -0.453874
4.23879 3.47393 -0.451874
4.21279 3.47493 -0.449874
4.14179 3.47193 -0.442874
4.12079 3.47593 -0.440874
4.09879 3.47993 -0.439874
4.05179 3.48393 -0.435874
4.02179 3.48093 -0.432874
3.99279 3.47793 -0.429874
3.97279 3.47193 -0.427874
3.95779 3.47993 -0.426874
3.93279 3.48093 -0.424874
3.90579 3.47893 -0.422874
3.88679 3.48393 -0.421874
3.86779 3.48893 -0.419874
3.83779 3.47293 -0.415874
3.82279 3.48093 -0.415874
3.79879 3.48093 -0.413874
3.74479 3.47593 -0.407874
3.71279 3.48993 -0.406874
3.70279 3.49093 -0.405874
3.67179 3.48393 -0.402874
3.64279 3.47893 -0.399874
3.56479 3.49093 -0.394874
3.54779 3.48593 -0.392874
3.53379 3.49393 -0.391874
3.51279 3.49593 -0.390874
3.44379 3.49193 -0.384874
3.41279 3.49393 -0.381874
3.39379 3.49593 -0.380874
3.34679 3.49193 -0.376874
3.23579 3.49493 -0.367874
3.21679 3.49693 -0.366874
3.15179 3.50293 -0.361874
3.12879 3.49893 -0.359874
3.10779 3.49893 -0.357874
3.02179 3.49993 -0.351874
3.00679 3.50493 -0.350874
2.99879 3.51793 -0.351874
2.97079 3.50793 -0.347874
2.95079 3.50593 -0.346874
2.93379 3.51993 -0.346874
2.89879 3.52293 -0.344874
2.86679 3.50593 -0.340874
2.85079 3.50893 -0.339874
2.83379 3.51193 -0.338874
2.81279 3.50893 -0.336874
2.78579 3.50793 -0.334874
2.77579 3.51793 -0.334874
2.74479 3.52493 -0.332874
2.72179 3.51793 -0.330874
2.67779 3.51793 -0.327874
2.66179 3.52093 -0.326874
2.64479 3.52093 -0.325874
2.63179 3.52593 -0.324874
4.89779 3.44593 -0.545874
4.87079 3.44893 -0.543874
4.83679 3.44893 -0.539874
4.81779 3.45793 -0.538874
4.73379 3.45293 -0.529874
4.47079 3.46893 -0.504874
3.89679 3.47893 -0.451874
3.88179 3.48693 -0.450874
3.77279 3.48593 -0.440874
3.49179 3.49993 -0.417874
3.40779 3.50193 -0.410874
3.04779 3.51793 -0.381874
2.94479 3.51893 -0.373874
4.38579 3.45293 -0.524874
3.71479 3.47693 -0.461874
3.20879 3.49493 -0.417874
3.04479 3.50093 -0.403874
3.00279 3.50793 -0.401874
2.89879 3.50693 -0.392874
2.84279 3.50693 -0.387874
2.82479 3.50693 -0.386874
2.71979 3.52093 -0.379874
2.70379 3.52393 -0.378874
2.67679 3.51193 -0.375874
2.67479 3.52093 -0.375874
4.72279 3.44493 -0.599874
4.64779 3.44593 -0.591874
4.59279 3.44993 -0.585874
4.56779 3.45393 -0.583874
4.53879 3.45393 -0.579874
4.52079 3.45093 -0.577874
4.47079 3.45793 -0.572874
4.44079 3.45693 -0.569874
4.42679 3.46793 -0.569874
4.39579 3.46593 -0.565874
4.37279 3.46993 -0.563874
4.34379 3.45793 -0.559874
4.33179 3.47093 -0.559874
4.29779 3.46593 -0.555874
4.26679 3.46293 -0.551874
4.23879 3.46193 -0.548874
4.21879 3.46793 -0.547874
4.20479 3.46693 -0.545874
4.18279 3.47093 -0.543874
4.15479 3.46993 -0.540874
4.12879 3.46993 -0.538874
4.10279 3.47093 -0.535874
4.07279 3.46693 -0.531874
4.06079 3.47793 -0.531874
4.03679 3.46893 -0.528874
3.99079 3.47293 -0.524874
3.97779 3.48293 -0.523874
3.94879 3.47993 -0.520874
3.92579 3.48193 -0.518874
3.90079 3.47093 -0.514874
3.88279 3.47593 -0.513874
3.86579 3.48293 -0.512874
3.84379 3.48393 -0.510874
3.78779 3.47793 -0.504874
3.75279 3.47793 -0.500874
3.72379 3.49393 -0.499874
3.62179 3.49593 -0.489874
3.59479 3.49193 -0.486874
3.55879 3.49993 -0.483874
3.53079 3.49393 -0.480874
3.51479 3.49993 -0.479874
3.48379 3.50193 -0.476874
3.41879 3.50193 -0.470874
3.37879 3.50493 -0.467874
3.23979 3.51093 -0.455874
3.19779 3.50893 -0.451874
3.14079 3.51293 -0.446874
3.12379 3.51493 -0.444874
3.09479 3.51593 -0.442874
4.92379 3.44693 -0.662874
4.86679 3.45293 -0.655874
4.11779 3.47393 -0.573874
3.95779 3.48093 -0.557874
3.92279 3.47193 -0.552874
3.91179 3.48393 -0.552874
3.88279 3.48093 -0.549874
3.80979 3.49093 -0.542874
3.78079 3.48693 -0.539874
3.70279 3.48093 -0.530874
3.66079 3.49593 -0.527874
3.42279 3.50393 -0.504874
3.31879 3.50693 -0.494874
3.08079 3.51293 -0.472874
3.05379 3.51493 -0.470874
2.85979 3.52093 -0.453874
3.74879 3.49093 -0.559874
4.85979 3.45193 -0.725874
4.79679 3.44193 -0.716874
4.75579 3.45793 -0.712874
4.63279 3.45893 -0.697874
4.20679 3.47393 -0.647874
4.09179 3.47793 -0.634874
3.95779 3.48493 -0.619874
3.79979 3.48593 -0.601874
3.76879 3.47993 -0.597874
3.74279 3.47793 -0.594874
2.37879 3.40693 0.137126
2.29779 3.41493 0.138126
2.15279 3.41393 0.139126
2.13779 3.41393 0.139126
2.11679 3.41493 0.139126
2.02779 3.42693 0.140126
1.95679 3.42793 0.140126
1.93479 3.42493 0.140126
1.85979 3.42993 0.141126
1.83279 3.43093 0.141126
1.78979 3.42893 0.141126
1.77979 3.43393 0.141126
1.77079 3.43193 0.141126
1.74779 3.43893 0.142126
1.69379 3.43893 0.142126
1.68679 3.43793 0.142126
1.66079 3.43993 0.142126
1.64679 3.43793 0.142126
1.61979 3.43693 0.142126
1.61379 3.43793 0.142126
1.56779 3.45193 0.142126
1.53079 3.44293 0.143126
1.52279 3.45293 0.143126
1.49279 3.44193 0.143126
1.47979 3.44293 0.143126
1.43679 3.44593 0.143126
1.37779 3.45493 0.143126
1.34779 3.45893 0.144126
1.31979 3.45193 0.144126
1.25179 3.45193 0.144126
1.23979 3.45193 0.144126
1.14379 3.47193 0.144126
1.11179 3.46593 0.145126
1.07379 3.45893 0.145126
0.612786 3.48793 0.146126
0.599786 3.48093 0.146126
0.538786 3.48393 0.146126
0.506786 3.48893 0.146126
0.477786 3.48693 0.146126
0.466786 3.48893 0.146126
0.455786 3.48793 0.146126
0.445786 3.49593 0.146126
0.411786 3.49393 0.146126
2.37679 3.40293 0.108126
2.29379 3.40893 0.109126
2.26279 3.40793 0.109126
2.21279 3.41493 0.110126
2.18179 3.41293 0.110126
2.11579 3.41693 0.111126
2.10079 3.41693 0.111126
2.09079 3.42493 0.111126
2.07079 3.41593 0.111126
2.06679 3.42093 0.111126
2.05479 3.42593 0.111126
2.03879 3.42393 0.112126
2.02479 3.42493 0.112126
2.00779 3.42093 0.112126
1.99379 3.41993 0.112126
1.98579 3.43193 0.112126
1.97179 3.42093 0.112126
1.96379 3.43093 0.112126
1.94679 3.42693 0.112126
1.93279 3.42693 0.113126
1.92279 3.43493 0.113126
1.90679 3.43093 0.113126
1.88279 3.42593 0.113126
1.86779 3.42493 0.113126
1.85679 3.43093 0.113126
1.84579 3.43593 0.113126
1.82979 3.43193 0.114126
1.81679 3.43393 0.114126
1.80279 3.43193 0.114126
1.79479 3.43193 0.114126
1.78479 3.43693 0.114126
1.76779 3.43193 0.114126
1.75879 3.44093 0.114126
1.74679 3.44293 0.114126
1.73079 3.43993 0.114126
1.72479 3.44093 0.114126
1.70979 3.43693 0.115126
1.68379 3.43893 0.115126
1.67279 3.44393 0.115126
1.64779 3.44793 0.115126
1.61379 3.44593 0.115126
1.59779 3.43993 0.116126
1.57279 3.44493 0.116126
1.55979 3.44393 0.116126
1.55079 3.43893 0.116126
1.52579 3.44193 0.116126
1.51279 3.44093 0.116126
1.47679 3.44593 0.116126
1.46979 3.44493 0.117126
1.44979 3.45893 0.116126
1.43279 3.44893 0.117126
1.41979 3.44793 0.117126
1.41079 3.45593 0.117126
1.39379 3.44593 0.117126
1.38779 3.44793 0.117126
1.37879 3.45593 0.117126
1.36579 3.45493 0.117126
1.35179 3.45193 0.117126
1.34079 3.45593 0.117126
1.32679 3.45093 0.118126
1.30779 3.44993 0.118126
1.28679 3.45993 0.118126
1.27579 3.46593 0.118126
1.24779 3.45493 0.118126
1.23679 3.45893 0.118126
1.22879 3.45293 0.118126
1.21679 3.45493 0.118126
1.20679 3.46093 0.118126
1.17379 3.46993 0.118126
1.15679 3.45893 0.119126
1.15079 3.45793 0.119126
1.14279 3.46993 0.119126
1.12679 3.45793 0.119126
1.11679 3.46293 0.119126
1.10779 3.47293 0.119126
1.09279 3.46293 0.119126
1.08479 3.47593 0.119126
1.07379 3.46193 0.119126
1.06479 3.46893 0.119126
1.04979 3.46093 0.119126
1.04079 3.46793 0.119126
1.02679 3.46193 0.119126
1.01479 3.46293 0.119126
1.01379 3.47793 0.119126
0.985786 3.46493 0.120126
0.951786 3.46893 0.120126
0.939786 3.46793 0.120126
0.933786 3.46593 0.120126
0.921786 3.46693 0.120126
0.911786 3.47293 0.120126
0.899786 3.47193 0.120126
0.888786 3.47293 0.120126
0.876786 3.47193 0.120126
0.866786 3.47693 0.120126
0.859786 3.47193 0.120126
0.848786 3.47693 0.120126
0.838786 3.48293 0.120126
0.825786 3.47793 0.120126
0.814786 3.47893 0.120126
0.804786 3.48493 0.120126
0.790786 3.47593 0.120126
0.786786 3.48093 0.120126
0.752786 3.48493 0.120126
0.740786 3.48293 0.120126
0.728786 3.47993 0.121126
0.718786 3.48593 0.120126
0.712786 3.48293 0.121126
0.699786 3.47893 0.121126
0.689786 3.48493 0.121126
0.677786 3.48193 0.121126
0.667786 3.48593 0.121126
0.656786 3.49193 0.121126
0.645786 3.49193 0.121126
0.640786 3.49693 0.121126
0.628786 3.49093 0.121126
0.618786 3.49893 0.121126
0.606786 3.49493 0.121126
0.594786 3.48893 0.121126
0.584786 3.49893 0.121126
0.567786 3.50093 0.121126
0.544786 3.49293 0.121126
0.533786 3.49693 0.121126
0.521786 3.49393 0.121126
0.512786 3.50393 0.121126
0.493786 3.49393 0.121126
0.472786 3.50493 0.121126
0.450786 3.50393 0.121126
0.439786 3.50593 0.121126
0.427786 3.50093 0.121126
0.422786 3.50393 0.121126
0.400786 3.50593 0.121126
2.44479 3.40893 0.0851262
2.40879 3.41493 0.0861262
2.39679 3.42093 0.0861262
2.37579 3.41393 0.0861262
2.36079 3.41393 0.0871262
2.33479 3.42293 0.0871262
2.31979 3.42293 0.0871262
2.31079 3.42193 0.0871262
2.29179 3.41693 0.0871262
2.27779 3.41993 0.0881262
2.26379 3.42193 0.0881262
2.24879 3.42193 0.0881262
2.23079 3.41693 0.0881262
2.21979 3.42393 0.0881262
2.20979 3.42093 0.0891262
2.19879 3.42593 0.0891262
2.18579 3.42993 0.0891262
2.16479 3.42193 0.0891262
2.15079 3.42293 0.0891262
2.13779 3.42493 0.0891262
2.12879 3.42293 0.0901262
2.11679 3.42793 0.0901262
2.10379 3.43093 0.0901262
2.08579 3.42593 0.0901262
2.07679 3.43393 0.0901262
2.05679 3.42493 0.0911262
2.04679 3.43293 0.0911262
2.03579 3.42793 0.0911262
2.02079 3.42593 0.0911262
2.00879 3.42993 0.0911262
1.98379 3.43793 0.0911262
1.96879 3.43493 0.0921262
1.95179 3.43093 0.0921262
1.94779 3.43593 0.0921262
1.92779 3.42593 0.0921262
1.91579 3.42993 0.0921262
1.90479 3.43593 0.0921262
1.89079 3.43493 0.0931262
1.87879 3.43893 0.0931262
1.85679 3.43793 0.0931262
1.83879 3.42893 0.0931262
1.83079 3.43993 0.0931262
1.81479 3.43493 0.0931262
1.80479 3.44293 0.0931262
1.78979 3.44093 0.0941262
1.77579 3.43993 0.0941262
1.75879 3.44593 0.0941262
1.74079 3.43793 0.0941262
1.72979 3.44293 0.0941262
1.71379 3.43793 0.0951262
1.70479 3.44693 0.0941262
1.68779 3.43893 0.0951262
1.68179 3.43993 0.0951262
1.66979 3.44393 0.0951262
1.65679 3.44293 0.0951262
1.64679 3.45193 0.0951262
1.62979 3.44293 0.0951262
1.61479 3.43893 0.0961262
1.61179 3.44693 0.0961262
1.59479 3.43893 0.0961262
1.58279 3.44093 0.0961262
1.56979 3.44193 0.0961262
1.55679 3.44093 0.0961262
1.54879 3.45193 0.0961262
1.53779 3.45693 0.0961262
1.52779 3.44793 0.0961262
1.50379 3.45193 0.0971262
1.47979 3.45593 0.0971262
1.46379 3.44893 0.0971262
1.45179 3.45193 0.0971262
1.44279 3.44493 0.0971262
1.41779 3.44493 0.0981262
1.40779 3.45293 0.0981262
1.39279 3.44593 0.0981262
1.36879 3.44893 0.0981262
1.36179 3.44793 0.0981262
1.34979 3.44793 0.0981262
1.32579 3.45093 0.0981262
1.31279 3.44993 0.0991262
1.28979 3.45193 0.0991262
1.25979 3.45493 0.0991262
1.24779 3.45493 0.0991262
1.23479 3.45493 0.0991262
1.22279 3.45493 0.0991262
1.20479 3.45493 0.0991262
1.19379 3.45893 0.0991262
1.18479 3.46593 0.0991262
1.16979 3.45893 0.100126
1.16079 3.46793 0.0991262
1.14579 3.45793 0.100126
1.13679 3.46993 0.100126
1.12979 3.46593 0.100126
1.11779 3.46493 0.100126
1.10479 3.46293 0.100126
1.09279 3.46293 0.100126
1.08079 3.46093 0.100126
1.06979 3.46593 0.100126
1.06079 3.47293 0.100126
1.05179 3.46293 0.100126
1.04179 3.47193 0.100126
1.03279 3.47893 0.100126
1.01779 3.46893 0.100126
0.994786 3.47193 0.101126
0.990786 3.47893 0.100126
0.976786 3.46993 0.101126
0.952786 3.46693 0.101126
0.945786 3.48493 0.101126
0.932786 3.48193 0.101126
0.912786 3.47293 0.101126
0.868786 3.48193 0.101126
0.855786 3.47493 0.101126
0.843786 3.47393 0.102126
0.817786 3.48493 0.101126
0.806786 3.48693 0.101126
0.795786 3.48993 0.101126
0.781786 3.47993 0.102126
0.765786 3.48393 0.102126
0.754786 3.48493 0.102126
0.730786 3.47893 0.102126
0.710786 3.49393 0.102126
0.698786 3.48993 0.102126
0.692786 3.49093 0.102126
0.658786 3.49193 0.102126
0.635786 3.48793 0.102126
0.608786 3.49693 0.102126
0.597786 3.49693 0.102126
0.584786 3.49093 0.102126
0.573786 3.49193 0.102126
0.544786 3.48493 0.103126
0.535786 3.49693 0.103126
0.524786 3.50193 0.102126
0.512786 3.49593 0.103126
0.500786 3.48993 0.103126
0.491786 3.50293 0.103126
0.478786 3.49293 0.103126
0.451786 3.49393 0.103126
0.428786 3.49293 0.103126
0.417786 3.49593 0.103126
0.406786 3.49393 0.103126
0.402786 3.50793 0.103126
0.391786 3.50793 0.103126
2.47279 3.40193 0.0601262
2.34279 3.41193 0.0621262
2.24879 3.41193 0.0641262
2.07979 3.41893 0.0661262
1.97179 3.42093 0.0681262
1.90979 3.42393 0.0691262
1.83479 3.42793 0.0701262
1.72479 3.44093 0.0711262
1.68879 3.43793 0.0721262
1.66179 3.43593 0.0721262
1.64779 3.43593 0.0721262
1.58979 3.43893 0.0731262
1.57779 3.43993 0.0731262
1.56379 3.43993 0.0731262
1.50779 3.44493 0.0741262
1.46979 3.44593 0.0741262
1.39979 3.44693 0.0751262
1.34579 3.45393 0.0761262
1.26479 3.45193 0.0771262
1.25379 3.45593 0.0771262
1.24179 3.45593 0.0771262
1.23179 3.46193 0.0771262
1.22279 3.45493 0.0771262
1.21079 3.45693 0.0771262
1.19979 3.45893 0.0771262
1.18679 3.45693 0.0771262
1.15079 3.45793 0.0781262
1.14479 3.45793 0.0781262
1.13379 3.46193 0.0781262
1.12079 3.45993 0.0781262
1.11179 3.46693 0.0781262
1.08779 3.46793 0.0781262
1.08079 3.46593 0.0781262
1.06979 3.46693 0.0781262
1.05779 3.46893 0.0781262
1.03479 3.47193 0.0781262
1.02379 3.47293 0.0781262
1.00579 3.47393 0.0791262
0.993786 3.47293 0.0791262
0.981786 3.47193 0.0791262
0.968786 3.46793 0.0791262
0.957786 3.47093 0.0791262
0.934786 3.47293 0.0791262
0.928786 3.47293 0.0791262
0.915786 3.46793 0.0801262
0.905786 3.47293 0.0801262
0.895786 3.47893 0.0791262
0.870786 3.47293 0.0801262
0.859786 3.47593 0.0801262
0.853786 3.47293 0.0801262
0.832786 3.48093 0.0801262
0.819786 3.47493 0.0801262
0.807786 3.47593 0.0801262
0.797786 3.48193 0.0801262
0.779786 3.47793 0.0801262
0.767786 3.47493 0.0801262
0.755786 3.47493 0.0811262
0.746786 3.48593 0.0801262
0.735786 3.48593 0.0801262
0.721786 3.47693 0.0811262
0.710786 3.47893 0.0811262
0.705786 3.47793 0.0811262
0.671786 3.48193 0.0811262
0.649786 3.48293 0.0811262
0.639786 3.49093 0.0811262
0.621786 3.48393 0.0811262
0.609786 3.48393 0.0811262
0.576786 3.48893 0.0811262
0.564786 3.48293 0.0811262
0.560786 3.49193 0.0811262
0.549786 3.49593 0.0811262
0.537786 3.48993 0.0811262
0.515786 3.48893 0.0811262
0.492786 3.48793 0.0821262
0.487786 3.49293 0.0811262
0.476786 3.49593 0.0811262
0.453786 3.49093 0.0821262
0.442786 3.48893 0.0821262
0.432786 3.49593 0.0821262
0.426786 3.49293 0.0821262
0.405786 3.50493 0.0811262
0.394786 3.50493 0.0811262
2.42379 3.41593 0.0321262
2.41079 3.41993 0.0331262
2.36479 3.41093 0.0341262
2.34179 3.42393 0.0341262
2.30179 3.41093 0.0351262
2.29579 3.42593 0.0351262
2.25279 3.41893 0.0361262
2.24379 3.42893 0.0361262
2.21379 3.42993 0.0371262
2.18779 3.42493 0.0371262
2.13279 3.43193 0.0381262
2.08679 3.41793 0.0401262
2.08379 3.43593 0.0391262
2.03279 3.42493 0.0401262
2.02279 3.43293 0.0401262
2.01079 3.43693 0.0401262
2.00479 3.43893 0.0411262
1.98179 3.42393 0.0411262
1.97379 3.43593 0.0411262
1.95879 3.43293 0.0421262
1.93379 3.43993 0.0421262
1.92579 3.43793 0.0421262
1.88579 3.44193 0.0431262
1.87079 3.44093 0.0431262
1.85979 3.44493 0.0431262
1.83979 3.43493 0.0441262
1.82379 3.44293 0.0441262
1.78479 3.44793 0.0441262
1.75879 3.44993 0.0451262
1.75179 3.44893 0.0451262
1.73679 3.44793 0.0451262
1.70579 3.43893 0.0461262
1.69779 3.44993 0.0461262
1.68379 3.44993 0.0461262
1.66779 3.44193 0.0471262
1.66579 3.45393 0.0461262
1.64679 3.44093 0.0471262
1.63879 3.45193 0.0471262
1.62479 3.45093 0.0471262
1.59779 3.44893 0.0471262
1.58779 3.45493 0.0471262
1.57979 3.45193 0.0481262
1.56779 3.45593 0.0481262
1.55179 3.44793 0.0481262
1.54179 3.45393 0.0481262
1.52679 3.44993 0.0491262
1.51579 3.45493 0.0491262
1.50579 3.46093 0.0481262
1.49479 3.45093 0.0491262
1.48379 3.45393 0.0491262
1.47379 3.46193 0.0491262
1.44879 3.46393 0.0491262
1.42179 3.45993 0.0501262
1.41679 3.46193 0.0501262
1.40279 3.45893 0.0501262
1.37979 3.46393 0.0501262
1.36479 3.45693 0.0511262
1.35579 3.46693 0.0501262
1.33679 3.46793 0.0511262
1.32379 3.46693 0.0511262
1.30079 3.46893 0.0511262
1.28879 3.47093 0.0511262
1.22079 3.46993 0.0521262
1.16779 3.47593 0.0531262
1.15379 3.46993 0.0531262
1.13079 3.47293 0.0531262
1.10079 3.47493 0.0531262
1.08979 3.47593 0.0541262
1.06679 3.47893 0.0541262
1.03379 3.46993 0.0541262
1.02379 3.47493 0.0541262
1.00179 3.48193 0.0541262
0.960786 3.48093 0.0551262
0.937786 3.48293 0.0551262
0.926786 3.48593 0.0551262
0.891786 3.48493 0.0551262
0.886786 3.48793 0.0551262
0.874786 3.48893 0.0551262
0.838786 3.48293 0.0561262
0.826786 3.48193 0.0561262
0.764786 3.48793 0.0561262
0.743786 3.49493 0.0561262
0.737786 3.49193 0.0561262
0.724786 3.48593 0.0571262
0.701786 3.48293 0.0571262
0.681786 3.49693 0.0571262
0.669786 3.49493 0.0571262
0.640786 3.49093 0.0571262
0.628786 3.48893 0.0571262
0.618786 3.49493 0.0571262
0.601786 3.49993 0.0571262
0.590786 3.49493 0.0571262
0.577786 3.48893 0.0581262
0.567786 3.49693 0.0571262
0.557786 3.50293 0.0571262
0.534786 3.49993 0.0571262
0.529786 3.50293 0.0571262
0.516786 3.49493 0.0581262
0.455786 3.49893 0.0581262
0.434786 3.50593 0.0581262
0.412786 3.50693 0.0581262
0.389786 3.50493 0.0581262
2.48679 3.40593 0.00612618
2.46179 3.41693 0.00612618
2.41579 3.40893 0.00812618
2.39079 3.41893 0.00812618
2.35379 3.41293 0.00912618
2.33679 3.40993 0.0101262
2.32279 3.41293 0.0101262
2.31779 3.41793 0.0101262
2.28779 3.41893 0.0111262
2.27579 3.42493 0.0111262
2.26179 3.42693 0.0111262
2.23979 3.41693 0.0121262
2.22479 3.41793 0.0121262
2.22179 3.42393 0.0121262
2.20179 3.41793 0.0131262
2.19379 3.42793 0.0131262
2.17379 3.42193 0.0131262
2.16479 3.42993 0.0131262
2.14579 3.42493 0.0141262
2.13179 3.42693 0.0141262
2.12479 3.42693 0.0141262
2.10879 3.42493 0.0151262
2.08179 3.42993 0.0151262
2.06479 3.42593 0.0161262
2.05179 3.42893 0.0161262
2.04479 3.42893 0.0161262
2.03079 3.42993 0.0161262
2.01479 3.42793 0.0171262
1.99879 3.42593 0.0171262
1.98579 3.42793 0.0171262
1.97379 3.43293 0.0171262
1.95979 3.43193 0.0181262
1.95079 3.42993 0.0181262
1.93879 3.43393 0.0181262
1.92479 3.43393 0.0191262
1.90979 3.43293 0.0191262
1.89279 3.42793 0.0191262
1.88179 3.43193 0.0191262
1.87179 3.43993 0.0191262
1.86179 3.43593 0.0201262
1.84879 3.43593 0.0201262
1.83579 3.43893 0.0201262
1.82479 3.44493 0.0201262
1.80879 3.43993 0.0211262
1.78179 3.43993 0.0211262
1.77779 3.44693 0.0211262
1.76279 3.44293 0.0221262
1.74779 3.44193 0.0221262
1.73379 3.44193 0.0221262
1.70779 3.44393 0.0231262
1.68879 3.44593 0.0231262
1.67479 3.44493 0.0231262
1.66079 3.44293 0.0241262
1.63679 3.44893 0.0241262
1.59479 3.45793 0.0241262
1.56579 3.45193 0.0251262
1.54279 3.45993 0.0251262
1.52379 3.45993 0.0251262
1.47179 3.45993 0.0261262
1.44779 3.46393 0.0271262
1.42679 3.45993 0.0271262
1.38979 3.46393 0.0281262
1.37779 3.46393 0.0281262
1.35779 3.46193 0.0281262
1.33479 3.46593 0.0281262
1.29279 3.47093 0.0291262
1.26779 3.46993 0.0291262
1.24379 3.47193 0.0301262
1.22979 3.46893 0.0301262
1.19979 3.47093 0.0301262
1.15279 3.47593 0.0311262
1.08779 3.47993 0.0311262
1.06379 3.47893 0.0321262
1.05779 3.48093 0.0321262
1.02279 3.48293 0.0321262
0.987786 3.48493 0.0321262
0.970786 3.48593 0.0331262
0.933786 3.48093 0.0331262
0.921786 3.47993 0.0331262
0.905786 3.48493 0.0331262
0.894786 3.48793 0.0331262
0.847786 3.48893 0.0341262
0.829786 3.48693 0.0341262
0.795786 3.48893 0.0341262
0.761786 3.49193 0.0351262
0.756786 3.49293 0.0351262
0.733786 3.49193 0.0351262
0.722786 3.49693 0.0351262
0.710786 3.49293 0.0351262
0.682786 3.49593 0.0351262
0.671786 3.49693 0.0351262
0.658786 3.49293 0.0351262
0.625786 3.49693 0.0361262
0.620786 3.49993 0.0351262
0.609786 3.49993 0.0361262
0.575786 3.49993 0.0361262
0.546786 3.49793 0.0361262
0.452786 3.50693 0.0361262
2.45679 3.40893 -0.0178738
2.38279 3.40693 -0.0158738
2.20479 3.41893 -0.0108738
2.10879 3.41993 -0.00787382
1.80079 3.42993 -0.000873816
1.66479 3.44093 0.00112618
1.52279 3.44493 0.00412618
1.48379 3.44393 0.00512618
1.45379 3.44793 0.00512618
1.44179 3.44893 0.00612618
1.41479 3.44693 0.00612618
1.28079 3.45393 0.00812618
1.24479 3.45493 0.00912618
1.18179 3.46693 0.00912618
1.16679 3.45893 0.0101262
0.909786 3.47093 0.0131262
0.859786 3.47993 0.0131262
0.721786 3.47993 0.0151262
0.665786 3.48493 0.0151262
0.654786 3.48593 0.0151262
0.603786 3.48293 0.0161262
0.542786 3.48693 0.0161262
0.481786 3.48993 0.0161262
0.469786 3.48893 0.0161262
2.46879 3.41393 -0.0448738
2.45279 3.41493 -0.0448738
2.42579 3.42193 -0.0438738
2.40179 3.42193 -0.0438738
2.38479 3.42193 -0.0428738
2.30079 3.41393 -0.0398738
2.29979 3.42393 -0.0398738
2.27879 3.41693 -0.0388738
2.23079 3.41493 -0.0378738
2.13479 3.41893 -0.0348738
2.10979 3.42593 -0.0348738
2.05479 3.42093 -0.0328738
2.02879 3.42693 -0.0318738
2.01879 3.43393 -0.0318738
2.01179 3.43493 -0.0318738
1.99479 3.43093 -0.0318738
1.97979 3.42893 -0.0308738
1.92779 3.43993 -0.0298738
1.89979 3.42793 -0.0288738
1.87279 3.42893 -0.0278738
1.86679 3.44393 -0.0288738
1.84979 3.43893 -0.0278738
1.83379 3.43393 -0.0268738
1.83179 3.44393 -0.0278738
1.81579 3.43893 -0.0268738
1.79879 3.43493 -0.0258738
1.78879 3.43993 -0.0258738
1.77579 3.44193 -0.0258738
1.76479 3.44793 -0.0258738
1.74979 3.44393 -0.0258738
1.73879 3.43693 -0.0248738
1.72879 3.44393 -0.0248738
1.69379 3.45493 -0.0248738
1.67579 3.44593 -0.0238738
1.66879 3.44493 -0.0238738
1.65879 3.45293 -0.0238738
1.64279 3.44793 -0.0228738
1.61879 3.45293 -0.0228738
1.60779 3.45793 -0.0228738
1.59579 3.45893 -0.0228738
1.58779 3.45593 -0.0218738
1.57479 3.45793 -0.0218738
1.56079 3.45493 -0.0218738
1.54779 3.45493 -0.0208738
1.53479 3.45593 -0.0208738
1.50979 3.45793 -0.0208738
1.49079 3.45993 -0.0198738
1.47979 3.46293 -0.0198738
1.46679 3.46393 -0.0198738
1.45479 3.46393 -0.0198738
1.43879 3.45793 -0.0188738
1.42679 3.45893 -0.0188738
1.42279 3.46493 -0.0188738
1.40879 3.46193 -0.0178738
1.39579 3.46093 -0.0178738
1.37079 3.46193 -0.0178738
1.35879 3.46293 -0.0168738
1.34479 3.45893 -0.0168738
1.33879 3.46093 -0.0168738
1.32479 3.45593 -0.0158738
1.30279 3.46493 -0.0158738
1.29179 3.46893 -0.0158738
1.26779 3.46893 -0.0158738
1.26079 3.46893 -0.0158738
1.24879 3.46793 -0.0158738
1.23579 3.46593 -0.0148738
1.22479 3.46993 -0.0148738
1.21179 3.46993 -0.0148738
1.19779 3.46393 -0.0138738
1.18879 3.47393 -0.0148738
1.18179 3.47193 -0.0148738
1.16979 3.46993 -0.0138738
1.15679 3.46793 -0.0138738
1.14579 3.47093 -0.0138738
1.13079 3.46193 -0.0128738
1.12279 3.47693 -0.0138738
1.10479 3.47593 -0.0128738
1.09279 3.47593 -0.0128738
1.08079 3.47593 -0.0128738
1.05379 3.46693 -0.0118738
1.04379 3.47193 -0.0118738
1.03179 3.47393 -0.0118738
1.02479 3.46893 -0.0118738
1.01479 3.47493 -0.0118738
1.00079 3.46593 -0.0108738
0.989786 3.47093 -0.0108738
0.979786 3.47593 -0.0108738
0.965786 3.46793 -0.0108738
0.963786 3.48093 -0.0108738
0.948786 3.47193 -0.0108738
0.938786 3.47693 -0.0108738
0.928786 3.48193 -0.0108738
0.916786 3.48093 -0.0108738
0.902786 3.47393 -0.00987382
0.893786 3.48293 -0.00987382
0.887786 3.48393 -0.00987382
0.862786 3.47593 -0.00987382
0.851786 3.48093 -0.00987382
0.840786 3.48393 -0.00987382
0.829786 3.48593 -0.00987382
0.817786 3.48293 -0.00887382
0.812786 3.48393 -0.00887382
0.800786 3.48493 -0.00887382
0.787786 3.47993 -0.00887382
0.779786 3.49193 -0.00887382
0.764786 3.47693 -0.00787382
0.753786 3.48093 -0.00887382
0.743786 3.48493 -0.00887382
0.737786 3.48693 -0.00887382
0.726786 3.48693 -0.00887382
0.713786 3.47893 -0.00787382
0.704786 3.49293 -0.00887382
0.691786 3.48593 -0.00787382
0.681786 3.49193 -0.00787382
0.671786 3.49793 -0.00887382
0.653786 3.49293 -0.00787382
0.642786 3.49493 -0.00787382
0.631786 3.49893 -0.00787382
0.620786 3.50093 -0.00787382
0.607786 3.49093 -0.00787382
0.581786 3.50393 -0.00787382
0.569786 3.49593 -0.00687382
0.557786 3.49393 -0.00687382
0.546786 3.49293 -0.00687382
0.525786 3.50293 -0.00687382
0.496786 3.50293 -0.00687382
0.474786 3.50193 -0.00687382
2.46579 3.42193 -0.0678738
2.44579 3.41693 -0.0668738
2.43079 3.41793 -0.0668738
2.41479 3.41793 -0.0658738
2.25079 3.42993 -0.0608738
2.23179 3.42593 -0.0598738
2.15479 3.43493 -0.0578738
2.12279 3.43093 -0.0568738
2.09779 3.42793 -0.0558738
2.08779 3.43393 -0.0558738
2.05879 3.43493 -0.0548738
2.04579 3.43793 -0.0548738
1.96779 3.43993 -0.0528738
1.83079 3.44693 -0.0488738
1.77779 3.45193 -0.0478738
1.74479 3.45293 -0.0468738
1.67879 3.45493 -0.0448738
1.67079 3.45193 -0.0448738
1.63079 3.45293 -0.0438738
1.60679 3.45793 -0.0428738
1.52279 3.46093 -0.0408738
1.50579 3.46393 -0.0408738
1.49179 3.46193 -0.0408738
1.42279 3.46693 -0.0388738
1.34879 3.46993 -0.0378738
1.34279 3.47093 -0.0378738
1.21379 3.47293 -0.0348738
1.17379 3.46493 -0.0598738
1.10779 3.46493 -0.0578738
1.07579 3.47793 -0.0578738
1.04479 3.47593 -0.0578738
1.01079 3.47993 -0.0568738
0.978786 3.47293 -0.0558738
0.944786 3.47593 -0.0558738
0.908786 3.47493 -0.0548738
0.880786 3.47793 -0.0548738
0.845786 3.47693 -0.0538738
0.817786 3.48193 -0.0538738
0.783786 3.48293 -0.0538738
0.754786 3.48293 -0.0528738
0.720786 3.48693 -0.0528738
0.685786 3.48093 -0.0518738
0.657786 3.48293 -0.0518738
0.595786 3.48793 -0.0508738
0.562786 3.49093 -0.0508738
0.439786 3.49293 -0.0498738
2.37779 3.42193 -0.114874
2.35579 3.42393 -0.113874
2.29479 3.42593 -0.111874
2.05079 3.43393 -0.102874
1.94879 3.44293 -0.0998738
1.89579 3.43793 -0.0978738
1.88579 3.44593 -0.0978738
1.81279 3.45093 -0.0958738
1.78479 3.44993 -0.0938738
1.74379 3.45093 -0.0928738
1.72579 3.45493 -0.0928738
1.67179 3.45493 -0.0908738
1.63879 3.45593 -0.0898738
1.62579 3.45493 -0.0898738
1.58879 3.46093 -0.0888738
1.48079 3.46593 -0.0858738
1.45879 3.45993 -0.0848738
1.34179 3.46793 -0.0818738
1.20779 3.47293 -0.0788738
1.18579 3.47793 -0.0788738
1.06579 3.47993 -0.0758738
1.01379 3.48493 -0.0758738
1.00179 3.48593 -0.0758738
0.942786 3.48393 -0.0738738
0.925786 3.48793 -0.0738738
0.903786 3.48993 -0.0738738
0.862786 3.49193 -0.0728738
0.816786 3.49093 -0.0718738
0.680786 3.49993 -0.0708738
0.606786 3.50093 -0.0698738
0.505786 3.50493 -0.0688738
0.437786 3.49393 -0.0678738
0.410786 3.50493 -0.0678738
0.389786 3.51393 -0.0688738
0.306786 3.51593 -0.0678738
2.43179 3.40593 -0.143874
1.83479 3.43293 -0.120874
1.73979 3.43693 -0.117874
1.72679 3.43693 -0.116874
1.53279 3.44693 -0.110874
1.50779 3.44893 -0.110874
1.47679 3.45193 -0.109874
1.46279 3.44893 -0.108874
1.45179 3.45393 -0.108874
1.43779 3.45293 -0.108874
1.42679 3.45593 -0.108874
1.42079 3.45593 -0.107874
1.40679 3.45293 -0.107874
1.36979 3.45693 -0.106874
1.35879 3.45893 -0.106874
1.33979 3.45993 -0.105874
1.29079 3.46193 -0.104874
1.26579 3.46193 -0.103874
1.25879 3.45893 -0.103874
1.24679 3.46093 -0.103874
1.23779 3.46793 -0.103874
1.22579 3.46893 -0.103874
1.21179 3.46493 -0.102874
1.19779 3.46093 -0.101874
1.19079 3.47593 -0.102874
1.17379 3.47793 -0.102874
1.15879 3.46993 -0.101874
1.14379 3.46293 -0.100874
1.12379 3.47393 -0.101874
1.10279 3.46593 -0.0998738
1.09279 3.47093 -0.100874
1.07979 3.46893 -0.0998738
1.06879 3.47193 -0.0998738
1.05779 3.47493 -0.0998738
1.04479 3.47093 -0.0988738
1.03279 3.46993 -0.0988738
1.02779 3.47393 -0.0988738
1.01579 3.47493 -0.0988738
0.994786 3.48393 -0.0988738
0.967786 3.47193 -0.0978738
0.957786 3.47693 -0.0978738
0.938786 3.47393 -0.0968738
0.930786 3.48693 -0.0978738
0.916786 3.47593 -0.0968738
0.903786 3.47293 -0.0968738
0.894786 3.48193 -0.0968738
0.864786 3.47893 -0.0958738
0.840786 3.47693 -0.0958738
0.828786 3.47593 -0.0948738
0.807786 3.48493 -0.0958738
0.800786 3.47993 -0.0948738
0.789786 3.48093 -0.0948738
0.766786 3.48193 -0.0948738
0.743786 3.47893 -0.0938738
0.739786 3.48893 -0.0948738
0.726786 3.47993 -0.0938738
0.715786 3.48193 -0.0938738
0.704786 3.48693 -0.0938738
0.693786 3.48493 -0.0938738
0.682786 3.48893 -0.0938738
0.671786 3.49093 -0.0938738
0.653786 3.48593 -0.0928738
0.643786 3.49393 -0.0938738
0.631786 3.49193 -0.0928738
0.620786 3.48993 -0.0928738
0.608786 3.48593 -0.0928738
0.580786 3.49093 -0.0928738
0.547786 3.49393 -0.0918738
0.525786 3.49593 -0.0918738
0.519786 3.49293 -0.0918738
0.497786 3.49593 -0.0918738
0.486786 3.50093 -0.0918738
0.474786 3.49293 -0.0908738
0.464786 3.49993 -0.0918738
0.452786 3.49793 -0.0918738
0.436786 3.49993 -0.0918738
0.424786 3.49393 -0.0908738
0.413786 3.49893 -0.0908738
0.402786 3.49793 -0.0908738
0.392786 3.50693 -0.0918738
0.381786 3.50693 -0.0918738
0.374786 3.49693 -0.0908738
0.364786 3.50593 -0.0908738
0.353786 3.50493 -0.0908738
0.341786 3.50493 -0.0908738
0.330786 3.50393 -0.0908738
0.319786 3.50493 -0.0908738
0.309786 3.50993 -0.0908738
0.302786 3.50193 -0.0908738
0.292786 3.50893 -0.0908738
0.281786 3.50993 -0.0908738
0.270786 3.50893 -0.0908738
0.258786 3.50593 -0.0908738
0.248786 3.50993 -0.0908738
0.236786 3.50493 -0.0898738
0.231786 3.51393 -0.0908738
0.220786 3.50993 -0.0908738
0.210786 3.52093 -0.0918738
0.198786 3.51193 -0.0908738
0.187786 3.51593 -0.0908738
0.175786 3.50493 -0.0898738
0.165786 3.52293 -0.0918738
0.159786 3.51193 -0.0908738
0.148786 3.51793 -0.0908738
0.137786 3.51493 -0.0908738
0.126786 3.52293 -0.0908738
0.115786 3.51093 -0.0898738
0.104786 3.52393 -0.0908738
0.0887863 3.51793 -0.0908738
0.0777863 3.51993 -0.0908738
0.0657863 3.52093 -0.0908738
0.0447863 3.52893 -0.0918738
0.0217863 3.52493 -0.0908738
0.0167863 3.51893 -0.0908738
1.99779 3.42493 -0.149874
1.77979 3.43593 -0.141874
1.57679 3.44393 -0.134874
1.46979 3.44993 -0.130874
1.43979 3.45393 -0.130874
1.33279 3.45393 -0.126874
0.190786 3.50593 -0.110874
0.0147863 3.51693 -0.110874
1.68479 3.44393 -0.161874
1.61279 3.44593 -0.158874
0.376786 3.49793 -0.131874
0.338786 3.50393 -0.132874
0.304786 3.50093 -0.131874
0.282786 3.50193 -0.131874
0.266786 3.50793 -0.131874
0.210786 3.50593 -0.131874
0.194786 3.50493 -0.131874
0.183786 3.50493 -0.131874
0.172786 3.50593 -0.131874
0.161786 3.51193 -0.131874
0.150786 3.51093 -0.131874
0.144786 3.50893 -0.131874
0.133786 3.50693 -0.131874
0.122786 3.51393 -0.131874
0.111786 3.51393 -0.131874
0.0897863 3.51693 -0.131874
0.0737863 3.52293 -0.132874
0.0617863 3.51293 -0.131874
0.0507863 3.51593 -0.131874
0.0287863 3.51593 -0.131874
0.0177863 3.52393 -0.132874
0.00678626 3.52593 -0.132874
0.00178626 3.52593 -0.132874
0.693786 3.48293 -0.157874
2.41879 3.41193 -0.245874
2.27179 3.41793 -0.237874
2.25479 3.41593 -0.236874
2.00079 3.42793 -0.223874
1.92579 3.43493 -0.220874
1.79479 3.43993 -0.214874
1.72079 3.44193 -0.210874
1.58879 3.44593 -0.205874
1.55179 3.44993 -0.204874
1.50679 3.45193 -0.202874
1.41179 3.45293 -0.198874
1.38579 3.45293 -0.197874
1.30679 3.45793 -0.195874
1.30179 3.46193 -0.195874
1.24179 3.46493 -0.193874
1.22679 3.45993 -0.192874
1.19879 3.46793 -0.192874
1.16379 3.47093 -0.191874
1.15079 3.46693 -0.190874
1.14579 3.47093 -0.190874
1.13179 3.46493 -0.189874
1.10879 3.46793 -0.189874
1.09779 3.47193 -0.189874
1.08479 3.46793 -0.188874
1.07879 3.46893 -0.188874
1.05479 3.46993 -0.187874
1.04479 3.47393 -0.187874
1.03179 3.47093 -0.187874
1.02179 3.47593 -0.187874
1.01279 3.48693 -0.188874
1.00179 3.47193 -0.186874
0.992786 3.47893 -0.186874
0.979786 3.47593 -0.186874
0.970786 3.48693 -0.187874
0.955786 3.47393 -0.185874
0.945786 3.47893 -0.185874
0.933786 3.47993 -0.185874
0.928786 3.48393 -0.185874
0.917786 3.48493 -0.185874
0.904786 3.47993 -0.184874
