1.04776 3.50703 0.32419
1.04076 3.52203 0.32419
1.03276 3.51803 0.32419
1.01076 3.52203 0.32419
0.997761 3.51903 0.32419
0.986761 3.52303 0.32419
0.974761 3.52403 0.32419
0.960761 3.51303 0.32319
0.955761 3.51703 0.32319
0.945761 3.52503 0.32419
0.931761 3.51503 0.32319
0.921761 3.52203 0.32319
0.895761 3.51403 0.32319
0.884761 3.51503 0.32319
0.880761 3.52603 0.32319
0.867761 3.51703 0.32319
0.854761 3.51203 0.32219
0.844761 3.51803 0.32219
0.832761 3.51703 0.32219
0.819761 3.51403 0.32219
0.808761 3.51603 0.32219
0.801761 3.51003 0.32219
0.778761 3.51103 0.32219
0.768761 3.51703 0.32219
0.754761 3.50803 0.32119
0.744761 3.51403 0.32219
0.732761 3.51303 0.32119
0.728761 3.52203 0.32219
0.715761 3.51203 0.32119
0.704761 3.51403 0.32119
0.693761 3.51703 0.32119
0.681761 3.51503 0.32119
0.670761 3.51703 0.32119
0.660761 3.52703 0.32119
0.643761 3.52803 0.32119
0.631761 3.52003 0.32119
0.618761 3.51403 0.32119
0.607761 3.51603 0.32119
0.595761 3.51203 0.32119
0.579761 3.51703 0.32119
0.568761 3.51703 0.32119
0.556761 3.51403 0.32019
0.546761 3.52403 0.32119
0.534761 3.51803 0.32019
0.522761 3.51603 0.32019
0.518761 3.52203 0.32119
0.506761 3.52003 0.32019
0.483761 3.51503 0.32019
0.473761 3.52703 0.32019
0.460761 3.51403 0.32019
0.450761 3.52403 0.32019
0.445761 3.52403 0.32019
0.432761 3.51603 0.32019
0.423761 3.52903 0.32019
0.411761 3.52203 0.32019
0.400761 3.52603 0.32019
0.388761 3.52303 0.32019
0.371761 3.51703 0.32019
0.349761 3.52303 0.32019
0.338761 3.52403 0.32019
0.328761 3.53303 0.32019
0.316761 3.53203 0.32019
0.304761 3.52103 0.32019
0.299761 3.52003 0.32019
0.288761 3.51903 0.32019
0.277761 3.53103 0.32019
0.266761 3.53403 0.32019
0.255761 3.53303 0.32019
0.243761 3.52403 0.32019
0.233761 3.53503 0.32019
0.227761 3.53303 0.32019
0.194761 3.52703 0.32019
0.183761 3.53003 0.32019
0.172761 3.53803 0.32019
0.155761 3.53103 0.32019
0.144761 3.53903 0.32019
0.133761 3.53403 0.32019
0.122761 3.53003 0.32019
0.0997605 3.53103 0.32019
0.0887605 3.52703 0.31919
0.0837605 3.52703 0.31919
0.0727605 3.53403 0.32019
0.0497605 3.53403 0.32019
0.0167605 3.53603 0.32019
0.0117605 3.52603 0.31919
1.79476 3.47703 0.30719
1.73476 3.48003 0.30619
1.70576 3.47703 0.30619
1.69676 3.48603 0.30619
1.67276 3.47803 0.30619
1.64776 3.48303 0.30519
1.62376 3.48803 0.30519
1.60076 3.48203 0.30519
1.58976 3.48603 0.30519
1.55976 3.47903 0.30419
1.53376 3.48003 0.30419
1.47876 3.48803 0.30419
1.45376 3.49003 0.30419
1.43476 3.49103 0.30319
1.40776 3.48703 0.30319
1.39576 3.48803 0.30319
1.36976 3.48803 0.30319
1.34976 3.48503 0.30219
1.32676 3.49103 0.30219
1.30376 3.49803 0.30219
1.28276 3.49103 0.30219
1.27576 3.50403 0.30219
1.25576 3.48403 0.30119
1.24776 3.49703 0.30219
1.23176 3.48603 0.30119
1.22276 3.49703 0.30119
1.20576 3.50103 0.30119
1.17776 3.49003 0.30119
1.16476 3.49003 0.30119
1.15476 3.49503 0.30119
1.13076 3.49703 0.30119
1.11176 3.49403 0.30019
1.10276 3.50403 0.30119
1.08576 3.48803 0.30019
1.07376 3.48903 0.30019
1.05076 3.49203 0.30019
1.04576 3.49603 0.30019
1.03276 3.49103 0.30019
1.02076 3.49103 0.30019
0.999761 3.50103 0.30019
0.973761 3.49203 0.29919
0.956761 3.49403 0.29919
0.934761 3.50003 0.29919
0.908761 3.49303 0.29919
0.892761 3.49703 0.29919
0.869761 3.49903 0.29919
0.822761 3.49803 0.29819
0.806761 3.50303 0.29819
0.758761 3.49603 0.29819
0.742761 3.50103 0.29819
0.719761 3.50203 0.29819
0.695761 3.49703 0.29819
0.678761 3.49603 0.29719
0.655761 3.49603 0.29719
0.643761 3.49603 0.29719
0.621761 3.49803 0.29719
0.610761 3.50003 0.29719
0.593761 3.49703 0.29719
0.582761 3.49903 0.29719
0.560761 3.50503 0.29719
0.549761 3.50803 0.29719
0.531761 3.50103 0.29719
0.509761 3.50203 0.29719
0.497761 3.50003 0.29719
0.436761 3.50203 0.29719
0.426761 3.50903 0.29719
0.402761 3.50203 0.29619
0.391761 3.50303 0.29619
0.375761 3.50303 0.29619
0.364761 3.50603 0.29619
0.342761 3.51203 0.29719
0.332761 3.51703 0.29719
0.314761 3.50703 0.29619
0.304761 3.51603 0.29719
0.280761 3.50603 0.29619
0.270761 3.50903 0.29619
0.248761 3.51603 0.29619
0.243761 3.52103 0.29719
0.220761 3.51403 0.29619
0.198761 3.51303 0.29619
0.187761 3.52003 0.29619
0.171761 3.52103 0.29619
0.160761 3.52103 0.29619
0.138761 3.52603 0.29719
0.126761 3.52103 0.29619
0.104761 3.51203 0.29619
0.0987605 3.51203 0.29619
0.0767605 3.52203 0.29619
0.0657605 3.52203 0.29619
0.0437605 3.52503 0.29619
0.0277605 3.52103 0.29619
0.0167605 3.53103 0.29719
1.88576 3.48303 0.28919
1.85676 3.48303 0.28919
1.83076 3.48503 0.28919
1.81576 3.48403 0.28919
1.80876 3.48303 0.28919
1.79676 3.48703 0.28919
1.78276 3.48703 0.28819
1.74276 3.48803 0.28819
1.72776 3.48603 0.28819
1.72176 3.48703 0.28819
1.65276 3.48503 0.28719
1.64676 3.48503 0.28719
1.62176 3.49003 0.28719
1.60876 3.49003 0.28719
1.51176 3.49203 0.28619
1.48576 3.49203 0.28619
1.45176 3.48903 0.28519
1.40176 3.49003 0.28519
1.34476 3.49103 0.28419
1.33176 3.48903 0.28419
1.23976 3.49303 0.28419
1.23476 3.49503 0.28419
1.20976 3.49503 0.28419
1.17076 3.48803 0.28319
1.14376 3.49903 0.28319
1.13076 3.49503 0.28319
1.09576 3.49903 0.28319
1.07476 3.49103 0.28219
1.06276 3.49103 0.28219
1.04076 3.49703 0.28219
1.02876 3.49703 0.28219
1.00676 3.50103 0.28219
0.999761 3.49903 0.28219
0.988761 3.50003 0.28219
0.974761 3.49303 0.28219
0.962761 3.49303 0.28219
0.951761 3.49603 0.28219
0.940761 3.49703 0.28219
0.923761 3.49903 0.28219
0.908761 3.48803 0.28119
0.899761 3.49903 0.28219
0.888761 3.50003 0.28219
0.863761 3.49603 0.28119
0.858761 3.49703 0.28119
0.835761 3.49903 0.28119
0.823761 3.49503 0.28119
0.812761 3.49803 0.28119
0.799761 3.49503 0.28119
0.790761 3.50503 0.28119
0.783761 3.49803 0.28119
0.772761 3.50303 0.28119
0.761761 3.50303 0.28119
0.749761 3.50003 0.28119
0.738761 3.50603 0.28119
0.726761 3.50003 0.28119
0.715761 3.50103 0.28119
0.709761 3.50403 0.28119
0.698761 3.50403 0.28119
0.686761 3.49803 0.28019
0.675761 3.50003 0.28019
0.663761 3.50103 0.28019
0.653761 3.50903 0.28119
0.641761 3.50703 0.28019
0.636761 3.50603 0.28019
0.624761 3.50203 0.28019
0.611761 3.49403 0.28019
0.601761 3.50403 0.28019
0.590761 3.50203 0.28019
0.579761 3.50703 0.28019
0.568761 3.50503 0.28019
0.563761 3.51003 0.28019
0.550761 3.50003 0.28019
0.539761 3.50003 0.28019
0.529761 3.50903 0.28019
0.517761 3.50703 0.28019
0.506761 3.50703 0.28019
0.495761 3.50803 0.28019
0.478761 3.51003 0.28019
0.467761 3.50803 0.28019
0.456761 3.50703 0.28019
0.445761 3.51103 0.28019
0.434761 3.51203 0.28019
0.422761 3.51003 0.28019
0.417761 3.51003 0.28019
0.406761 3.51203 0.28019
0.372761 3.51303 0.28019
0.361761 3.51203 0.28019
0.350761 3.51403 0.28019
0.344761 3.51003 0.28019
0.333761 3.50903 0.28019
0.322761 3.51003 0.28019
0.300761 3.51003 0.28019
0.278761 3.51603 0.28019
0.272761 3.51003 0.27919
0.261761 3.51503 0.28019
0.250761 3.50803 0.27919
0.217761 3.51403 0.27919
0.206761 3.51503 0.27919
0.167761 3.51903 0.28019
0.156761 3.51803 0.27919
0.145761 3.52003 0.28019
0.134761 3.51803 0.27919
0.117761 3.51503 0.27919
0.0847605 3.51603 0.27919
0.0577605 3.51703 0.27919
0.0357605 3.52103 0.27919
0.00176054 3.51903 0.27919
1.86776 3.45703 0.25819
1.85476 3.45903 0.25819
1.84176 3.46203 0.25819
1.82776 3.46203 0.25819
1.82376 3.46703 0.25819
1.80376 3.45703 0.25819
1.79376 3.46203 0.25819
1.78076 3.46403 0.25819
1.76776 3.46603 0.25819
1.75376 3.46503 0.25819
1.74576 3.46403 0.25819
1.73376 3.46603 0.25819
1.70476 3.46403 0.25719
1.67676 3.46203 0.25719
1.65876 3.46703 0.25719
1.64576 3.46603 0.25719
1.60276 3.46003 0.25719
1.53476 3.46903 0.25619
1.50976 3.47103 0.25619
1.49276 3.46303 0.25619
1.49076 3.47303 0.25619
1.47776 3.47203 0.25619
1.46276 3.46703 0.25619
1.43776 3.47103 0.25619
1.42576 3.47203 0.25619
1.41376 3.47403 0.25619
1.39276 3.47003 0.25619
1.38276 3.47603 0.25619
1.36876 3.47303 0.25519
1.35476 3.46803 0.25519
1.33276 3.47703 0.25519
1.32676 3.47703 0.25519
1.29976 3.47203 0.25519
1.28576 3.46903 0.25519
1.26476 3.47803 0.25519
1.19376 3.47003 0.25519
1.16476 3.47303 0.25419
1.15276 3.47503 0.25419
1.12976 3.47803 0.25419
1.11876 3.48003 0.25419
1.09176 3.47403 0.25419
1.08776 3.47703 0.25419
1.07476 3.47703 0.25419
1.06376 3.47803 0.25419
1.05176 3.47803 0.25419
1.04076 3.48303 0.25419
1.01476 3.47403 0.25419
0.999761 3.48303 0.25419
0.986761 3.47803 0.25419
0.975761 3.48303 0.25419
0.934761 3.48403 0.25419
0.899761 3.48503 0.25319
0.888761 3.48603 0.25319
0.859761 3.48703 0.25319
0.835761 3.48403 0.25319
0.824761 3.48503 0.25319
0.812761 3.48603 0.25319
0.794761 3.48403 0.25319
0.772761 3.48503 0.25319
0.749761 3.48803 0.25319
0.738761 3.49003 0.25319
0.727761 3.49003 0.25319
0.710761 3.49003 0.25319
0.696761 3.48003 0.25319
0.647761 3.49203 0.25319
0.635761 3.48603 0.25319
0.579761 3.49103 0.25319
0.562761 3.48803 0.25219
0.517761 3.49103 0.25219
0.479761 3.49503 0.25219
0.406761 3.49403 0.25219
0.290761 3.49903 0.25219
1.86376 3.44103 0.23819
1.84576 3.43303 0.23819
1.82376 3.44303 0.23819
1.81076 3.44503 0.23819
1.80076 3.43903 0.23819
1.78876 3.44303 0.23819
1.77776 3.44803 0.23819
1.74376 3.43403 0.23719
1.72076 3.44203 0.23719
1.68876 3.44403 0.23719
1.67276 3.44003 0.23719
1.64576 3.43803 0.23719
1.63976 3.44103 0.23719
1.62476 3.43703 0.23719
1.61376 3.44003 0.23719
1.60176 3.44303 0.23719
1.56176 3.44203 0.23619
1.54376 3.44403 0.23619
1.53176 3.44703 0.23619
1.50876 3.45303 0.23619
1.49176 3.44403 0.23619
1.47976 3.44503 0.23619
1.46076 3.44503 0.23619
1.41476 3.45703 0.23619
1.39976 3.45303 0.23619
1.38276 3.45503 0.23619
1.36876 3.45203 0.23619
1.35476 3.44903 0.23619
1.34176 3.44603 0.23619
1.32776 3.44303 0.23619
1.32076 3.45603 0.23619
1.31176 3.44903 0.23619
1.29276 3.46503 0.23619
1.27576 3.45203 0.23519
1.26176 3.44803 0.23519
1.25376 3.46003 0.23519
1.24076 3.45803 0.23519
1.23076 3.44703 0.23519
1.22176 3.45603 0.23519
1.20876 3.45203 0.23519
1.19876 3.46003 0.23519
1.18676 3.46003 0.23519
1.17176 3.45003 0.23519
1.16176 3.45803 0.23519
1.15476 3.45403 0.23519
1.14476 3.46103 0.23519
1.13376 3.46303 0.23519
1.12176 3.46303 0.23519
1.09876 3.46803 0.23519
1.09276 3.46803 0.23519
1.08176 3.47103 0.23519
1.06976 3.46903 0.23519
1.05776 3.46803 0.23519
1.03176 3.46103 0.23519
1.02176 3.46603 0.23519
1.00176 3.46003 0.23519
0.992761 3.46903 0.23519
0.979761 3.46603 0.23519
0.967761 3.46303 0.23519
0.956761 3.46603 0.23519
0.937761 3.46303 0.23519
0.928761 3.47003 0.23519
0.917761 3.47503 0.23519
0.903761 3.46603 0.23419
0.893761 3.47203 0.23519
0.882761 3.47303 0.23519
0.869761 3.46603 0.23419
0.863761 3.46803 0.23419
0.852761 3.46803 0.23419
0.841761 3.47103 0.23419
0.828761 3.46403 0.23419
0.817761 3.46903 0.23419
0.806761 3.46703 0.23419
0.796761 3.47603 0.23419
0.765761 3.46203 0.23419
0.756761 3.47403 0.23419
0.742761 3.46303 0.23419
0.731761 3.46303 0.23419
0.721761 3.47403 0.23419
0.712761 3.45703 0.23419
0.670761 3.47403 0.23419
0.659761 3.47603 0.23419
0.646761 3.46403 0.23419
0.642761 3.47103 0.23419
0.632761 3.47903 0.23419
0.618761 3.46303 0.23419
0.587761 3.47903 0.23419
0.574761 3.47003 0.23419
0.569761 3.47303 0.23419
0.559761 3.47903 0.23419
0.547761 3.47303 0.23419
0.536761 3.47703 0.23419
0.514761 3.47803 0.23419
0.502761 3.47603 0.23419
0.497761 3.47403 0.23419
0.486761 3.47403 0.23419
0.474761 3.47303 0.23419
0.462761 3.46703 0.23419
0.453761 3.48003 0.23419
0.441761 3.47003 0.23419
0.401761 3.46503 0.23419
0.381761 3.47903 0.23419
0.369761 3.46803 0.23419
0.363761 3.46703 0.23419
0.354761 3.48403 0.23419
0.332761 3.48403 0.23419
0.319761 3.46903 0.23419
0.309761 3.47203 0.23419
0.271761 3.47703 0.23419
0.260761 3.47803 0.23419
0.249761 3.48303 0.23419
0.237761 3.47003 0.23319
0.227761 3.48203 0.23419
0.221761 3.47103 0.23319
0.210761 3.47303 0.23319
0.189761 3.48903 0.23419
0.167761 3.48403 0.23419
0.155761 3.47003 0.23319
0.150761 3.47903 0.23319
0.139761 3.48503 0.23419
0.128761 3.48103 0.23419
0.117761 3.48803 0.23419
0.106761 3.48403 0.23419
0.0957605 3.47603 0.23319
0.0847605 3.48303 0.23419
0.0797605 3.47503 0.23319
0.0687605 3.48103 0.23319
0.0467605 3.48403 0.23419
0.0357605 3.48403 0.23419
0.0247605 3.48403 0.23419
0.0137605 3.47203 0.23319
1.83376 3.41603 0.21019
1.82676 3.42903 0.21019
1.82076 3.43003 0.21019
1.77176 3.41703 0.21019
1.76376 3.42803 0.21019
1.75176 3.43003 0.21019
1.74376 3.42903 0.21019
1.73576 3.44003 0.21019
1.71376 3.42203 0.21019
1.70376 3.42903 0.21019
1.69176 3.43303 0.21019
1.67776 3.43103 0.21019
1.66876 3.44003 0.21019
1.65676 3.43003 0.21019
1.64776 3.43903 0.21019
1.63576 3.44003 0.21019
1.61876 3.43303 0.21019
1.60376 3.42903 0.21019
1.57076 3.42903 0.21019
1.55876 3.43203 0.21019
1.54776 3.43503 0.21019
1.53676 3.44003 0.21019
1.52376 3.43903 0.21019
1.50976 3.43803 0.21019
1.49376 3.43003 0.21019
1.48776 3.43303 0.21019
1.47376 3.43003 0.21019
1.46576 3.44003 0.21019
1.45276 3.43903 0.21019
1.43876 3.43603 0.21019
1.42976 3.44403 0.21019
1.41576 3.44303 0.21019
1.40776 3.43803 0.21019
1.39876 3.44603 0.21019
1.38076 3.43403 0.20919
1.36976 3.43803 0.20919
1.36076 3.44603 0.20919
1.34376 3.43603 0.20919
1.33476 3.44403 0.20919
1.32376 3.43303 0.20919
1.31576 3.44203 0.20919
1.30576 3.44803 0.20919
1.28976 3.43903 0.20919
1.27876 3.44403 0.20919
1.26876 3.44903 0.20919
1.25076 3.43503 0.20919
1.24776 3.44403 0.20919
1.22276 3.44103 0.20919
1.21076 3.44303 0.20919
1.20176 3.45203 0.20919
1.18976 3.45203 0.20919
1.18076 3.44403 0.20919
1.17076 3.44803 0.20919
1.15776 3.44803 0.20919
1.14576 3.44603 0.20919
1.12176 3.44703 0.20919
1.11076 3.45103 0.20919
1.10476 3.45103 0.20919
1.09176 3.44803 0.20919
1.07976 3.44803 0.20919
1.05476 3.44303 0.20919
1.04576 3.45003 0.20919
1.02676 3.45003 0.20919
1.01476 3.44903 0.20919
1.00576 3.45603 0.20919
0.990761 3.44603 0.20919
0.980761 3.45103 0.20919
0.948761 3.44303 0.20919
0.940761 3.45403 0.20919
0.928761 3.45303 0.20919
0.916761 3.45203 0.20919
0.904761 3.45103 0.20919
0.895761 3.45903 0.20919
0.882761 3.45603 0.20919
0.862761 3.44703 0.20919
0.852761 3.45103 0.20919
0.841761 3.45403 0.20919
0.828761 3.44903 0.20919
0.817761 3.45003 0.20919
0.808761 3.45803 0.20919
0.801761 3.45303 0.20919
0.789761 3.45003 0.20919
0.778761 3.45503 0.20919
0.764761 3.44303 0.20919
0.743761 3.45203 0.20919
0.730761 3.44103 0.20919
0.715761 3.45003 0.20919
0.702761 3.44403 0.20919
0.691761 3.44503 0.20919
0.681761 3.45303 0.20919
0.669761 3.44703 0.20919
0.658761 3.44703 0.20919
0.652761 3.44803 0.20919
0.642761 3.45603 0.20919
0.630761 3.44803 0.20919
0.620761 3.45803 0.20919
0.608761 3.45003 0.20919
0.597761 3.45403 0.20919
0.586761 3.45203 0.20919
0.580761 3.44903 0.20919
0.568761 3.44503 0.20919
0.557761 3.45003 0.20919
0.546761 3.44803 0.20919
0.526761 3.46103 0.20919
0.498761 3.46003 0.20919
0.485761 3.44903 0.20919
0.463761 3.44803 0.20919
0.452761 3.45203 0.20919
0.446761 3.44803 0.20919
0.436761 3.45403 0.20919
0.425761 3.45703 0.20919
0.414761 3.45203 0.20919
0.402761 3.44803 0.20919
0.392761 3.45303 0.20919
0.381761 3.45203 0.20919
0.377761 3.46303 0.20919
0.354761 3.45503 0.20919
0.332761 3.45303 0.20919
0.321761 3.46003 0.20919
0.310761 3.45503 0.20919
0.304761 3.45603 0.20919
0.283761 3.46403 0.20919
0.272761 3.45503 0.20919
0.250761 3.46403 0.20919
0.239761 3.45703 0.20919
0.234761 3.46903 0.20919
0.223761 3.46203 0.20919
0.211761 3.45303 0.20919
0.201761 3.45303 0.20919
0.190761 3.45803 0.20919
0.179761 3.45303 0.20919
0.169761 3.46503 0.20919
0.163761 3.45503 0.20919
0.152761 3.46603 0.20919
0.141761 3.46003 0.20919
0.130761 3.46703 0.20919
0.120761 3.46903 0.20919
0.108761 3.46403 0.20919
0.0977605 3.45803 0.20919
0.0927605 3.45803 0.20919
0.0817605 3.46203 0.20919
0.0717605 3.47103 0.20919
0.0607605 3.46703 0.20919
0.0497605 3.47103 0.20919
0.0777605 3.47303 0.17019
0.0507605 3.47403 0.17019
0.0287605 3.47603 0.17019
1.85976 3.45703 0.14219
1.85476 3.46003 0.14219
1.84376 3.46603 0.14219
1.81576 3.46503 0.14219
1.79776 3.45603 0.14219
1.76276 3.45603 0.14219
1.75276 3.46303 0.14219
1.73676 3.45803 0.14219
1.72376 3.45803 0.14219
1.70976 3.45803 0.14319
1.69676 3.45803 0.14319
1.69376 3.46603 0.14319
1.67776 3.46103 0.14319
1.64976 3.45803 0.14319
1.62676 3.46503 0.14319
1.61376 3.46703 0.14319
1.58976 3.45803 0.14319
1.55576 3.46903 0.14319
1.54076 3.46503 0.14319
1.52076 3.46303 0.14419
1.50676 3.46003 0.14419
1.48076 3.46003 0.14419
1.47276 3.47003 0.14419
1.45876 3.47003 0.14419
1.44276 3.46103 0.14419
1.42576 3.46603 0.14419
1.41076 3.45903 0.14419
1.40076 3.46703 0.14419
1.38776 3.46403 0.14419
1.36276 3.46603 0.14419
1.34476 3.46803 0.14419
1.33276 3.46903 0.14419
1.29576 3.47003 0.14519
1.28076 3.46303 0.14519
1.27376 3.46103 0.14519
1.26676 3.47603 0.14519
1.25176 3.46703 0.14519
1.23676 3.46003 0.14519
1.22876 3.47103 0.14519
1.20176 3.46303 0.14519
1.17276 3.46903 0.14519
1.16176 3.47103 0.14519
1.14576 3.46103 0.14519
1.12576 3.47403 0.14519
1.08276 3.46903 0.14619
1.05876 3.47003 0.14619
1.03976 3.46303 0.14619
0.971761 3.47503 0.14619
0.962761 3.46303 0.14619
0.939761 3.46503 0.14619
0.901761 3.47503 0.14619
0.866761 3.47303 0.14619
0.853761 3.46603 0.14719
0.802761 3.47003 0.14719
0.778761 3.46703 0.14719
0.767761 3.47003 0.14719
0.750761 3.46803 0.14719
0.738761 3.46403 0.14719
0.717761 3.47503 0.14719
0.705761 3.47303 0.14719
0.683761 3.47503 0.14719
0.676761 3.46503 0.14719
0.666761 3.47603 0.14719
0.653761 3.46503 0.14719
0.643761 3.47303 0.14719
0.631761 3.46703 0.14719
0.620761 3.46703 0.14719
0.604761 3.47403 0.14719
0.581761 3.47003 0.14719
0.570761 3.46903 0.14719
0.560761 3.47903 0.14719
0.530761 3.46703 0.14719
0.520761 3.47503 0.14719
0.508761 3.46703 0.14719
0.498761 3.47203 0.14719
0.487761 3.47403 0.14719
0.477761 3.48503 0.14719
0.465761 3.48103 0.14719
0.459761 3.47803 0.14719
0.447761 3.46903 0.14819
0.437761 3.47803 0.14719
0.426761 3.47403 0.14819
0.415761 3.47703 0.14719
0.404761 3.47403 0.14819
0.394761 3.48403 0.14719
0.387761 3.47403 0.14819
0.376761 3.47203 0.14819
0.354761 3.47603 0.14819
0.343761 3.47303 0.14819
0.332761 3.47403 0.14819
0.321761 3.47703 0.14819
0.316761 3.47603 0.14819
0.305761 3.48103 0.14819
0.293761 3.46803 0.14819
0.283761 3.47803 0.14819
0.272761 3.48503 0.14819
0.261761 3.48003 0.14819
0.234761 3.48603 0.14819
0.223761 3.48503 0.14819
0.190761 3.48703 0.14819
0.179761 3.48103 0.14819
0.173761 3.48803 0.14819
0.162761 3.48803 0.14819
0.0807605 3.48103 0.14819
0.0477605 3.48803 0.14819
1.87976 3.45903 0.11419
1.85276 3.46203 0.11419
1.84276 3.46803 0.11419
1.82976 3.47003 0.11419
1.81376 3.46703 0.11419
1.78876 3.46003 0.11419
1.76376 3.46403 0.11519
1.74776 3.45903 0.11519
1.73676 3.46403 0.11519
1.72476 3.46803 0.11519
1.71676 3.46503 0.11519
1.70676 3.47203 0.11519
1.68076 3.47603 0.11519
1.66376 3.46703 0.11519
1.63776 3.47003 0.11619
1.62776 3.46303 0.11619
1.61876 3.47203 0.11619
1.60476 3.47003 0.11619
1.59076 3.46803 0.11619
1.56176 3.46303 0.11619
1.54976 3.46603 0.11619
1.54376 3.46703 0.11719
1.52776 3.46103 0.11719
1.51676 3.46503 0.11719
1.50576 3.46803 0.11719
1.48876 3.46003 0.11719
1.47876 3.46703 0.11719
1.46576 3.46603 0.11719
1.45676 3.46103 0.11719
1.44576 3.46303 0.11719
1.43876 3.47703 0.11719
1.41876 3.46103 0.11819
1.40776 3.46603 0.11819
1.39876 3.47403 0.11819
1.38576 3.47303 0.11819
1.37876 3.47103 0.11819
1.36676 3.47403 0.11819
1.35176 3.46703 0.11819
1.33676 3.46203 0.11819
1.33076 3.47703 0.11819
1.31476 3.47003 0.11819
1.29676 3.47103 0.11819
1.28276 3.46503 0.11919
1.27176 3.46903 0.11919
1.26276 3.47903 0.11919
1.24576 3.46803 0.11919
1.23176 3.46203 0.11919
1.22376 3.47403 0.11919
1.21576 3.46803 0.11919
1.20276 3.46603 0.11919
1.19476 3.47803 0.11919
1.17676 3.46203 0.11919
1.16876 3.47403 0.11919
1.15676 3.47403 0.11919
1.14176 3.46803 0.12019
1.13576 3.46603 0.12019
1.12676 3.47503 0.12019
1.10276 3.47603 0.12019
1.08776 3.46803 0.12019
1.07476 3.46403 0.12019
1.06676 3.47503 0.12019
1.06176 3.47903 0.12019
1.03476 3.46803 0.12019
1.02676 3.48103 0.12019
1.00976 3.46703 0.12019
0.999761 3.47003 0.12019
0.994761 3.47303 0.12019
0.982761 3.47503 0.12019
0.969761 3.47003 0.12119
0.959761 3.47503 0.12119
0.946761 3.47003 0.12119
0.936761 3.47703 0.12119
0.924761 3.47803 0.12119
0.918761 3.47803 0.12119
0.908761 3.48203 0.12119
0.895761 3.47803 0.12119
0.883761 3.47603 0.12119
0.872761 3.47903 0.12119
0.848761 3.47503 0.12119
0.841761 3.47203 0.12119
0.831761 3.47903 0.12119
0.808761 3.47803 0.12119
0.785761 3.47703 0.12119
0.773761 3.47803 0.12119
0.768761 3.48103 0.12119
0.758761 3.48303 0.12119
0.745761 3.48003 0.12119
0.732761 3.47303 0.12219
0.711761 3.48103 0.12219
0.699761 3.47703 0.12219
0.694761 3.48203 0.12219
0.671761 3.48103 0.12219
0.626761 3.47903 0.12219
0.597761 3.47803 0.12219
0.587761 3.48203 0.12219
0.553761 3.48103 0.12219
0.536761 3.47803 0.12219
0.514761 3.48503 0.12219
0.441761 3.47703 0.12319
0.430761 3.48303 0.12319
0.409761 3.48703 0.12219
1.88176 3.45803 0.0931902
1.86076 3.47203 0.0931902
1.84876 3.46203 0.0931902
1.83776 3.46603 0.0931902
1.82876 3.47603 0.0931902
1.80976 3.46703 0.0941902
1.76476 3.47203 0.0941902
1.73476 3.46703 0.0951902
1.70676 3.46603 0.0951902
1.69676 3.47303 0.0951902
1.68476 3.47603 0.0951902
1.67876 3.47703 0.0951902
1.66376 3.47303 0.0951902
1.64876 3.46903 0.0961902
1.63876 3.47603 0.0961902
1.62276 3.47103 0.0961902
1.60876 3.46803 0.0961902
1.60376 3.47303 0.0961902
1.58776 3.46703 0.0961902
1.57176 3.46103 0.0971902
1.56076 3.46603 0.0971902
1.54876 3.46703 0.0971902
1.53976 3.47703 0.0971902
1.52776 3.47803 0.0971902
1.51676 3.46803 0.0971902
1.49376 3.47403 0.0971902
1.48076 3.47503 0.0971902
1.46876 3.47603 0.0971902
1.45676 3.47803 0.0971902
1.44276 3.47603 0.0981902
1.42376 3.47703 0.0981902
1.39676 3.47103 0.0981902
1.37276 3.47403 0.0981902
1.35876 3.47103 0.0991902
1.35476 3.47803 0.0981902
1.33976 3.47203 0.0991902
1.33076 3.47903 0.0991902
1.31576 3.47403 0.0991902
1.30576 3.48003 0.0991902
1.28976 3.46903 0.0991902
1.28076 3.47903 0.0991902
1.27276 3.47503 0.0991902
1.26176 3.47903 0.0991902
1.24976 3.47803 0.0991902
1.23276 3.46603 0.10019
1.21276 3.48003 0.10019
1.19976 3.47603 0.10019
1.19276 3.47403 0.10019
1.16676 3.46803 0.10019
1.13476 3.48103 0.10019
1.11576 3.47903 0.10019
1.10176 3.47303 0.10119
1.09176 3.48003 0.10119
1.05676 3.48003 0.10119
1.03576 3.47003 0.10119
1.02776 3.48303 0.10119
0.938761 3.48103 0.10219
0.839761 3.48103 0.10219
0.828761 3.48403 0.10219
0.775761 3.47803 0.10319
0.763761 3.47403 0.10319
0.747761 3.48203 0.10319
0.736761 3.48203 0.10319
0.679761 3.48403 0.10319
0.651761 3.48503 0.10319
0.588761 3.47603 0.10419
0.556761 3.48703 0.10419
0.544761 3.48103 0.10419
0.526761 3.47203 0.10419
0.505761 3.48303 0.10419
0.482761 3.48003 0.10419
0.432761 3.48203 0.10419
0.410761 3.48103 0.10419
0.399761 3.48203 0.10419
0.360761 3.48303 0.10419
0.338761 3.47703 0.10519
0.328761 3.48603 0.10419
0.300761 3.48203 0.10519
0.278761 3.48203 0.10519
0.267761 3.48703 0.10519
0.256761 3.49003 0.10519
0.207761 3.48903 0.10519
0.185761 3.48603 0.10519
0.113761 3.48103 0.10519
0.0977605 3.48403 0.10519
0.0757605 3.48903 0.10519
0.0267605 3.49103 0.10519
0.00476054 3.48903 0.10519
1.87976 3.45903 0.0691902
1.72776 3.46103 0.0721902
1.67976 3.46003 0.0721902
1.65276 3.46003 0.0731902
1.63976 3.46003 0.0731902
1.62776 3.46303 0.0731902
1.56776 3.46203 0.0741902
1.50276 3.47803 0.0741902
1.46076 3.47003 0.0751902
1.44076 3.46703 0.0751902
1.41376 3.46503 0.0761902
1.40076 3.46403 0.0761902
1.36876 3.46403 0.0761902
1.35876 3.47003 0.0761902
1.34576 3.46903 0.0761902
1.33376 3.46903 0.0761902
1.32476 3.47903 0.0761902
1.30876 3.47003 0.0771902
1.29676 3.47003 0.0771902
1.28876 3.46703 0.0771902
1.27576 3.46503 0.0771902
1.26276 3.46403 0.0771902
1.25276 3.47103 0.0771902
1.24076 3.47103 0.0771902
1.22876 3.47203 0.0781902
1.21676 3.47203 0.0781902
1.20776 3.46403 0.0781902
1.19976 3.47703 0.0781902
1.18676 3.47403 0.0781902
1.17376 3.47403 0.0781902
1.16376 3.47703 0.0781902
1.15276 3.48303 0.0781902
1.12976 3.46703 0.0791902
1.11676 3.46503 0.0791902
1.10676 3.47203 0.0791902
1.09576 3.47403 0.0791902
1.08376 3.47503 0.0791902
1.07176 3.47503 0.0791902
1.06876 3.48203 0.0791902
1.05376 3.47203 0.0791902
1.04476 3.48303 0.0791902
1.02976 3.47303 0.0791902
1.01776 3.47503 0.0791902
1.00876 3.48203 0.0791902
0.993761 3.47303 0.0801902
0.987761 3.47303 0.0801902
0.979761 3.48403 0.0801902
0.965761 3.47903 0.0801902
0.953761 3.47803 0.0801902
0.942761 3.47903 0.0801902
0.928761 3.47303 0.0801902
0.918761 3.47703 0.0801902
0.900761 3.47403 0.0811902
0.889761 3.47703 0.0811902
0.879761 3.48503 0.0801902
0.865761 3.47503 0.0811902
0.852761 3.47103 0.0811902
0.842761 3.47603 0.0811902
0.836761 3.47703 0.0811902
0.825761 3.47603 0.0811902
0.802761 3.47903 0.0811902
0.790761 3.47603 0.0811902
0.780761 3.48003 0.0811902
0.767761 3.47703 0.0811902
0.762761 3.48003 0.0811902
0.752761 3.48603 0.0811902
0.737761 3.47103 0.0821902
0.728761 3.48103 0.0821902
0.705761 3.47803 0.0821902
0.693761 3.47603 0.0821902
0.687761 3.47503 0.0821902
0.676761 3.47603 0.0821902
0.664761 3.47403 0.0821902
0.654761 3.48203 0.0821902
0.642761 3.48003 0.0821902
0.632761 3.48203 0.0821902
0.613761 3.47303 0.0821902
0.601761 3.47103 0.0831902
0.591761 3.47903 0.0821902
0.580761 3.47703 0.0831902
0.568761 3.47403 0.0831902
0.559761 3.48803 0.0821902
0.546761 3.47803 0.0831902
0.541761 3.48103 0.0831902
0.531761 3.48403 0.0831902
0.520761 3.48603 0.0831902
0.508761 3.48203 0.0831902
0.496761 3.47703 0.0831902
0.485761 3.48103 0.0831902
0.474761 3.47903 0.0831902
0.468761 3.47303 0.0831902
0.457761 3.47903 0.0831902
0.447761 3.48203 0.0831902
0.435761 3.48203 0.0831902
0.424761 3.48103 0.0831902
0.413761 3.47803 0.0831902
0.408761 3.48703 0.0831902
0.396761 3.47803 0.0831902
0.385761 3.47703 0.0831902
0.374761 3.48303 0.0831902
0.363761 3.48403 0.0831902
0.353761 3.48903 0.0831902
0.341761 3.48403 0.0831902
0.325761 3.48403 0.0831902
0.314761 3.48703 0.0831902
0.302761 3.48203 0.0841902
0.292761 3.48303 0.0841902
0.281761 3.48503 0.0831902
0.270761 3.48603 0.0831902
0.264761 3.48103 0.0841902
0.242761 3.48203 0.0841902
0.231761 3.48103 0.0841902
0.198761 3.48503 0.0841902
0.193761 3.49103 0.0831902
0.171761 3.48903 0.0841902
0.149761 3.48203 0.0841902
0.138761 3.48003 0.0841902
0.127761 3.48603 0.0841902
0.121761 3.48703 0.0841902
0.111761 3.49103 0.0841902
0.0507605 3.48203 0.0841902
0.0177605 3.49303 0.0841902
0.00676054 3.49303 0.0841902
1.90876 3.47203 0.0421902
1.89376 3.47003 0.0431902
1.88276 3.47603 0.0431902
1.85576 3.47803 0.0431902
1.80776 3.47903 0.0441902
1.79376 3.47903 0.0441902
1.77376 3.46703 0.0451902
1.72976 3.47403 0.0451902
1.71676 3.47603 0.0461902
1.67776 3.47903 0.0461902
1.66176 3.47303 0.0471902
1.65276 3.46703 0.0471902
1.61476 3.47203 0.0471902
1.60276 3.47503 0.0471902
1.53276 3.47803 0.0481902
1.50476 3.47503 0.0491902
1.44976 3.48103 0.0501902
1.39176 3.47903 0.0511902
1.31076 3.48003 0.0521902
1.04876 3.47803 0.0551902
0.909761 3.48603 0.0561902
0.845761 3.48603 0.0571902
0.719761 3.48803 0.0581902
0.622761 3.48803 0.0581902
0.588761 3.48603 0.0591902
0.572761 3.48803 0.0591902
0.537761 3.48203 0.0591902
0.464761 3.48203 0.0601902
0.404761 3.49003 0.0601902
0.343761 3.48603 0.0601902
0.282761 3.48803 0.0601902
1.89576 3.47203 0.0191902
1.87876 3.46603 0.0191902
1.86776 3.47203 0.0191902
1.86076 3.47103 0.0191902
1.84376 3.46603 0.0201902
1.83676 3.47903 0.0201902
1.82176 3.47803 0.0201902
1.80076 3.46403 0.0211902
1.79176 3.47303 0.0211902
1.78076 3.47903 0.0211902
1.77076 3.47303 0.0211902
1.75376 3.46803 0.0221902
1.74076 3.46803 0.0221902
1.71776 3.47703 0.0221902
1.69176 3.47903 0.0231902
1.67076 3.47803 0.0231902
1.64476 3.47903 0.0231902
1.62976 3.47703 0.0241902
1.61576 3.47503 0.0241902
1.59576 3.47503 0.0241902
1.57276 3.48203 0.0251902
1.54476 3.47903 0.0251902
1.44076 3.47803 0.0271902
1.42976 3.48203 0.0271902
1.28476 3.48303 0.0291902
0.893761 3.48603 0.0351902
0.422761 3.49103 0.0381902
0.316761 3.49003 0.0391902
1.62276 3.46503 0.00219019
1.53876 3.46603 0.00419019
1.23176 3.47003 0.00919019
1.16376 3.46803 0.0111902
1.09876 3.47103 0.0111902
0.990761 3.46803 0.0131902
0.805761 3.47003 0.0151902
0.742761 3.47003 0.0161902
0.731761 3.47003 0.0161902
0.619761 3.48003 0.0171902
0.557761 3.47403 0.0181902
0.491761 3.48603 0.0171902
0.485761 3.47903 0.0181902
0.462761 3.47603 0.0181902
0.429761 3.47803 0.0181902
0.418761 3.47903 0.0181902
0.390761 3.47503 0.0191902
0.379761 3.47803 0.0191902
0.369761 3.48703 0.0181902
0.346761 3.48103 0.0191902
0.341761 3.48003 0.0191902
0.330761 3.47903 0.0191902
0.319761 3.48003 0.0191902
0.308761 3.48703 0.0181902
0.297761 3.48203 0.0191902
0.285761 3.47503 0.0191902
0.274761 3.47603 0.0191902
0.269761 3.47603 0.0191902
0.258761 3.47503 0.0191902
0.248761 3.48803 0.0191902
0.236761 3.47903 0.0191902
0.225761 3.47903 0.0191902
0.215761 3.49203 0.0191902
0.203761 3.48103 0.0191902
0.198761 3.48703 0.0191902
0.188761 3.49203 0.0191902
0.176761 3.49003 0.0191902
0.165761 3.49103 0.0191902
0.154761 3.48103 0.0191902
0.143761 3.48603 0.0191902
0.133761 3.49003 0.0191902
0.116761 3.48703 0.0191902
0.105761 3.49103 0.0191902
0.0947605 3.48303 0.0191902
0.0837605 3.49203 0.0191902
0.0727605 3.49003 0.0191902
0.0567605 3.48803 0.0191902
0.0347605 3.49203 0.0191902
0.0237605 3.49503 0.0191902
0.0127605 3.49303 0.0191902
1.84376 3.46503 -0.0278098
1.82976 3.46603 -0.0278098
1.82476 3.46903 -0.0278098
1.80876 3.46603 -0.0268098
1.77976 3.46303 -0.0258098
1.77176 3.47403 -0.0268098
1.75776 3.47403 -0.0258098
1.75076 3.47303 -0.0258098
1.71876 3.46403 -0.0248098
1.69876 3.47903 -0.0248098
1.68176 3.47103 -0.0238098
1.64876 3.47403 -0.0238098
1.63976 3.48303 -0.0238098
1.60576 3.46703 -0.0218098
1.57676 3.47603 -0.0218098
1.56576 3.47903 -0.0218098
1.53576 3.47303 -0.0208098
1.51376 3.48103 -0.0208098
1.49976 3.48003 -0.0198098
1.49376 3.48003 -0.0198098
1.46776 3.48103 -0.0198098
1.45476 3.48003 -0.0188098
1.44176 3.47903 -0.0188098
1.42776 3.47803 -0.0188098
1.41776 3.48403 -0.0188098
1.40876 3.47703 -0.0178098
1.39276 3.46803 -0.0168098
1.38376 3.47803 -0.0178098
1.35576 3.47203 -0.0168098
1.34676 3.48203 -0.0168098
1.33276 3.47703 -0.0168098
1.32276 3.46803 -0.0158098
1.31676 3.48503 -0.0168098
1.29776 3.46903 -0.0158098
1.29176 3.48403 -0.0158098
1.27776 3.48003 -0.0158098
1.25276 3.48103 -0.0148098
1.24276 3.47003 -0.0148098
1.23676 3.48703 -0.0148098
1.20776 3.47603 -0.0138098
1.19676 3.47903 -0.0138098
1.18676 3.48503 -0.0138098
1.17276 3.47903 -0.0138098
1.16676 3.47903 -0.0138098
1.14376 3.48303 -0.0128098
1.12876 3.47503 -0.0128098
1.11676 3.47503 -0.0128098
1.10676 3.48203 -0.0128098
1.09576 3.48503 -0.0128098
1.08776 3.48003 -0.0118098
1.07476 3.47703 -0.0118098
1.06376 3.48103 -0.0118098
1.05276 3.48203 -0.0118098
1.04076 3.48103 -0.0118098
1.02776 3.47903 -0.0108098
1.01876 3.48803 -0.0118098
1.01076 3.48003 -0.0108098
0.998761 3.48103 -0.0108098
0.987761 3.48403 -0.0108098
0.975761 3.48203 -0.0108098
0.952761 3.48403 -0.00980981
0.945761 3.48203 -0.00980981
0.932761 3.47703 -0.00980981
0.918761 3.47003 -0.00880981
0.910761 3.48103 -0.00980981
0.886761 3.47903 -0.00880981
0.869761 3.48303 -0.00880981
0.856761 3.47803 -0.00880981
0.834761 3.47903 -0.00780981
0.823761 3.48403 -0.00880981
0.813761 3.48803 -0.00880981
0.800761 3.48503 -0.00780981
0.794761 3.48203 -0.00780981
0.782761 3.48103 -0.00780981
0.769761 3.47503 -0.00680981
0.760761 3.48603 -0.00780981
0.748761 3.48203 -0.00780981
0.735761 3.47703 -0.00680981
0.724761 3.47703 -0.00680981
0.718761 3.47803 -0.00680981
0.710761 3.49003 -0.00780981
0.697761 3.48703 -0.00680981
0.675761 3.48703 -0.00680981
0.664761 3.49103 -0.00680981
0.653761 3.49103 -0.00680981
0.645761 3.48003 -0.00580981
0.634761 3.48203 -0.00580981
0.624761 3.48803 -0.00680981
0.611761 3.48203 -0.00580981
0.589761 3.48403 -0.00580981
0.577761 3.47803 -0.00580981
0.571761 3.47903 -0.00580981
0.562761 3.48903 -0.00580981
0.551761 3.49103 -0.00580981
0.538761 3.48203 -0.00480981
0.527761 3.48003 -0.00480981
0.443761 3.48203 -0.00480981
0.394761 3.48603 -0.00380981
0.283761 3.49003 -0.00380981
1.88476 3.47003 -0.0508098
1.87476 3.47803 -0.0508098
1.86076 3.47803 -0.0498098
1.84576 3.47503 -0.0498098
1.83376 3.47903 -0.0498098
1.80876 3.47203 -0.0488098
1.78676 3.48103 -0.0488098
1.75776 3.48003 -0.0478098
1.69876 3.48303 -0.0458098
1.67176 3.48303 -0.0448098
1.66376 3.48203 -0.0448098
1.63776 3.48303 -0.0448098
1.56576 3.48303 -0.0428098
1.53776 3.47903 -0.0418098
1.52676 3.48303 -0.0418098
1.51276 3.48103 -0.0408098
0.531761 3.49303 -0.0248098
1.26776 3.47003 -0.0608098
1.23676 3.47003 -0.0598098
1.17176 3.47603 -0.0588098
1.13376 3.47403 -0.0578098
1.10476 3.47503 -0.0578098
1.09076 3.47103 -0.0568098
1.06876 3.47603 -0.0568098
1.05676 3.47703 -0.0568098
1.03776 3.47203 -0.0558098
1.02776 3.47903 -0.0568098
1.00376 3.47603 -0.0558098
0.992761 3.47903 -0.0558098
0.938761 3.47803 -0.0548098
0.925761 3.47303 -0.0538098
0.874761 3.47803 -0.0538098
0.861761 3.47503 -0.0528098
0.828761 3.47903 -0.0528098
0.765761 3.48103 -0.0518098
0.740761 3.47403 -0.0508098
0.736761 3.47903 -0.0518098
0.650761 3.47803 -0.0498098
0.577761 3.48103 -0.0498098
0.555761 3.48003 -0.0488098
0.482761 3.47703 -0.0478098
0.460761 3.48203 -0.0488098
0.371761 3.48103 -0.0478098
0.310761 3.48303 -0.0468098
0.277761 3.47903 -0.0468098
0.255761 3.48103 -0.0468098
0.244761 3.48203 -0.0468098
0.239761 3.48403 -0.0468098
0.217761 3.48003 -0.0468098
0.206761 3.48603 -0.0468098
0.184761 3.48403 -0.0468098
0.173761 3.48403 -0.0468098
0.156761 3.48303 -0.0468098
0.145761 3.48103 -0.0468098
0.124761 3.49403 -0.0468098
0.113761 3.48503 -0.0468098
0.102761 3.48303 -0.0468098
0.0967605 3.48903 -0.0468098
0.0857605 3.48503 -0.0468098
0.0637605 3.49003 -0.0468098
0.0527605 3.48403 -0.0468098
0.0417605 3.48003 -0.0458098
0.0317605 3.49203 -0.0468098
0.0257605 3.49003 -0.0468098
0.00376054 3.49803 -0.0478098
1.89976 3.48403 -0.0998098
1.88076 3.47603 -0.0978098
1.87076 3.48203 -0.0978098
1.81676 3.48503 -0.0968098
1.79276 3.48003 -0.0958098
1.78176 3.48503 -0.0958098
1.76676 3.48203 -0.0948098
1.75176 3.48003 -0.0938098
1.70476 3.48103 -0.0928098
1.69176 3.48303 -0.0928098
1.66576 3.48503 -0.0918098
1.65376 3.48603 -0.0918098
1.61876 3.48303 -0.0898098
1.57876 3.48303 -0.0888098
1.54476 3.47903 -0.0878098
1.48376 3.48803 -0.0868098
1.36776 3.48603 -0.0828098
0.832761 3.48503 -0.0708098
0.683761 3.48903 -0.0688098
0.431761 3.49303 -0.0668098
1.69576 3.47003 -0.11681
1.68176 3.47003 -0.11681
1.58176 3.46903 -0.11281
1.55076 3.47403 -0.11281
1.52376 3.47103 -0.11181
1.49876 3.47303 -0.11081
1.45476 3.47603 -0.10981
1.43876 3.47003 -0.10881
1.42676 3.47103 -0.10881
1.41376 3.47103 -0.10781
1.40776 3.47203 -0.10781
1.39776 3.47803 -0.10781
1.38276 3.47303 -0.10781
1.35976 3.47803 -0.10681
1.34576 3.47503 -0.10681
1.31776 3.48403 -0.10581
1.28976 3.47503 -0.10481
1.27776 3.47703 -0.10481
1.25276 3.47603 -0.10381
1.25076 3.48703 -0.10481
1.23276 3.47203 -0.10281
1.22076 3.47203 -0.10281
1.20876 3.47403 -0.10281
1.19776 3.47803 -0.10281
1.18776 3.48403 -0.10281
1.17376 3.48003 -0.10181
1.16776 3.47803 -0.10181
1.15676 3.48403 -0.10181
1.14376 3.48003 -0.10081
1.12976 3.47603 -0.10081
1.12076 3.48303 -0.10081
1.10876 3.48303 -0.10081
1.08876 3.47803 -0.0998098
1.07876 3.48403 -0.0998098
1.06376 3.47603 -0.0988098
1.05476 3.48303 -0.0998098
1.04176 3.48003 -0.0988098
1.01876 3.48303 -0.0988098
1.01376 3.48803 -0.0988098
0.999761 3.47803 -0.0978098
0.990761 3.49103 -0.0988098
0.976761 3.48103 -0.0978098
0.967761 3.49103 -0.0978098
0.952761 3.48103 -0.0968098
0.943761 3.49003 -0.0978098
0.934761 3.48003 -0.0968098
0.923761 3.48203 -0.0968098
0.911761 3.48103 -0.0958098
0.899761 3.48003 -0.0958098
0.887761 3.47903 -0.0958098
0.878761 3.48803 -0.0958098
0.865761 3.48503 -0.0958098
0.861761 3.49003 -0.0958098
0.846761 3.47703 -0.0948098
0.835761 3.47803 -0.0948098
0.823761 3.47903 -0.0938098
0.799761 3.47603 -0.0938098
0.789761 3.48103 -0.0938098
0.783761 3.48003 -0.0938098
0.772761 3.48003 -0.0938098
0.759761 3.47703 -0.0928098
0.749761 3.48103 -0.0928098
0.736761 3.47603 -0.0928098
0.727761 3.48403 -0.0928098
0.722761 3.49103 -0.0938098
0.709761 3.48303 -0.0928098
0.698761 3.48403 -0.0928098
0.685761 3.47803 -0.0918098
0.674761 3.47803 -0.0918098
0.665761 3.49003 -0.0928098
0.653761 3.48603 -0.0918098
0.647761 3.48303 -0.0918098
0.634761 3.47603 -0.0908098
0.625761 3.48503 -0.0918098
0.614761 3.48703 -0.0918098
0.601761 3.48203 -0.0908098
0.590761 3.47903 -0.0908098
0.573761 3.48203 -0.0908098
0.562761 3.48003 -0.0898098
0.551761 3.48203 -0.0898098
0.529761 3.48503 -0.0898098
0.517761 3.48103 -0.0898098
0.507761 3.49003 -0.0908098
0.501761 3.48703 -0.0898098
0.489761 3.48303 -0.0898098
0.478761 3.48103 -0.0888098
0.467761 3.48203 -0.0888098
0.455761 3.47903 -0.0888098
0.445761 3.48903 -0.0898098
0.434761 3.48403 -0.0888098
0.429761 3.48903 -0.0898098
0.418761 3.49603 -0.0898098
0.407761 3.49403 -0.0898098
0.394761 3.48103 -0.0888098
0.384761 3.48403 -0.0888098
0.373761 3.48503 -0.0888098
0.362761 3.48603 -0.0888098
0.357761 3.49303 -0.0888098
0.345761 3.48803 -0.0888098
0.334761 3.48703 -0.0888098
0.323761 3.48603 -0.0888098
0.313761 3.49303 -0.0888098
0.301761 3.48803 -0.0888098
0.290761 3.49103 -0.0888098
0.285761 3.49403 -0.0888098
0.274761 3.49303 -0.0888098
0.263761 3.49503 -0.0888098
0.251761 3.48803 -0.0878098
0.240761 3.48903 -0.0878098
0.213761 3.49503 -0.0888098
0.202761 3.49703 -0.0888098
0.191761 3.49403 -0.0878098
0.180761 3.49903 -0.0888098
0.142761 3.49803 -0.0888098
0.120761 3.49903 -0.0888098
0.0987605 3.49803 -0.0878098
0.00476054 3.49703 -0.0878098
1.77576 3.46903 -0.14281
1.62876 3.47203 -0.13781
1.49776 3.47103 -0.13281
1.45976 3.47303 -0.13181
1.37776 3.47503 -0.12881
1.32076 3.47303 -0.12681
1.28376 3.47203 -0.12581
1.25376 3.47503 -0.12481
1.20476 3.47503 -0.12381
0.459761 3.47903 -0.10981
0.249761 3.48203 -0.10781
0.233761 3.48503 -0.10781
0.211761 3.48103 -0.10781
0.189761 3.48203 -0.10781
0.173761 3.48903 -0.10781
0.162761 3.48703 -0.10781
0.151761 3.48403 -0.10781
0.140761 3.48403 -0.10781
0.102761 3.48903 -0.10781
0.0917605 3.48403 -0.10681
0.0807605 3.48403 -0.10681
0.0697605 3.48203 -0.10681
0.0587605 3.48503 -0.10681
0.0477605 3.49503 -0.10781
0.0417605 3.48903 -0.10781
0.0307605 3.49703 -0.10881
0.0197605 3.48703 -0.10781
0.00876054 3.49303 -0.10781
1.60476 3.47203 -0.15981
1.38476 3.47303 -0.15181
0.418761 3.48103 -0.12981
0.407761 3.48003 -0.12981
0.379761 3.48103 -0.12981
0.358761 3.48603 -0.12981
0.346761 3.48103 -0.12981
0.330761 3.48403 -0.12981
0.319761 3.48703 -0.12981
0.309761 3.49203 -0.12981
0.297761 3.48103 -0.12881
0.286761 3.48403 -0.12881
0.265761 3.49803 -0.13081
0.258761 3.48603 -0.12881
0.248761 3.49703 -0.12981
0.237761 3.49403 -0.12981
0.226761 3.49103 -0.12981
0.214761 3.48303 -0.12881
0.204761 3.49203 -0.12981
0.193761 3.49103 -0.12881
0.187761 3.48903 -0.12881
0.176761 3.49303 -0.12981
0.155761 3.49803 -0.12981
0.132761 3.49503 -0.12981
0.127761 3.50203 -0.12981
0.116761 3.49603 -0.12981
0.105761 3.50203 -0.12981
0.0947605 3.49903 -0.12981
1.37876 3.48203 -0.19981
1.35776 3.47503 -0.19781
1.29576 3.47903 -0.19581
1.22776 3.47903 -0.19381
1.21476 3.47703 -0.19281
1.20876 3.47703 -0.19281
1.19876 3.48303 -0.19281
1.17376 3.48303 -0.19181
1.14776 3.47703 -0.19081
1.13076 3.48003 -0.19081
1.11876 3.48203 -0.19081
1.10976 3.49103 -0.19081
1.09576 3.48503 -0.18981
1.08576 3.49003 -0.18981
1.07076 3.48203 -0.18881
1.05176 3.48003 -0.18781
1.04176 3.48503 -0.18781
1.03276 3.49603 -0.18881
0.995761 3.49003 -0.18781
0.986761 3.47803 -0.18581
0.975761 3.48303 -0.18581
0.964761 3.48603 -0.18581
0.952761 3.48503 -0.18581
0.939761 3.48103 -0.18481
0.930761 3.49103 -0.18581
0.916761 3.48303 -0.18481
0.911761 3.48603 -0.18481
0.901761 3.49303 -0.18481
0.887761 3.48203 -0.18381
0.878761 3.49303 -0.18481
0.867761 3.49503 -0.18481
0.851761 3.48103 -0.18281
0.841761 3.48303 -0.18281
0.836761 3.48903 -0.18281
0.824761 3.48503 -0.18281
0.812761 3.48603 -0.18181
0.801761 3.48903 -0.18181
0.788761 3.47903 -0.18081
0.777761 3.48203 -0.18081
0.767761 3.49203 -0.18181
0.762761 3.49103 -0.18181
0.748761 3.48003 -0.17981
0.738761 3.49003 -0.18081
0.726761 3.48703 -0.18081
0.714761 3.48503 -0.17981
0.705761 3.49503 -0.18081
0.691761 3.48203 -0.17881
0.685761 3.48303 -0.17881
0.674761 3.48503 -0.17881
0.663761 3.48303 -0.17881
0.652761 3.48703 -0.17881
0.640761 3.48503 -0.17881
0.617761 3.48303 -0.17781
0.613761 3.49003 -0.17881
0.600761 3.48203 -0.17781
0.589761 3.48403 -0.17781
0.580761 3.49803 -0.17881
0.568761 3.49003 -0.17781
0.556761 3.48803 -0.17681
0.545761 3.48703 -0.17681
0.538761 3.48203 -0.17681
0.506761 3.49303 -0.17681
0.495761 3.48903 -0.17681
0.483761 3.48903 -0.17581
0.472761 3.48803 -0.17581
0.466761 3.48703 -0.17581
0.455761 3.48603 -0.17581
0.444761 3.49003 -0.17581
0.432761 3.48303 -0.17481
0.423761 3.50003 -0.17681
0.410761 3.48603 -0.17481
0.406761 3.49403 -0.17581
0.394761 3.49003 -0.17481
0.383761 3.48503 -0.17481
0.371761 3.48403 -0.17481
0.362761 3.49503 -0.17581
0.350761 3.48803 -0.17481
0.339761 3.49003 -0.17481
0.334761 3.50003 -0.17581
0.322761 3.49103 -0.17481
0.312761 3.49403 -0.17481
0.301761 3.49903 -0.17481
0.290761 3.49803 -0.17481
0.278761 3.48503 -0.17381
0.267761 3.49003 -0.17381
0.262761 3.49403 -0.17481
0.251761 3.50103 -0.17481
0.240761 3.50203 -0.17481
0.229761 3.49703 -0.17481
0.218761 3.49303 -0.17381
0.207761 3.49203 -0.17381
0.195761 3.48903 -0.17381
0.190761 3.48503 -0.17281
0.179761 3.49303 -0.17381
0.168761 3.49403 -0.17381
0.157761 3.49803 -0.17381
0.146761 3.49703 -0.17381
0.135761 3.49903 -0.17381
0.124761 3.49403 -0.17381
0.108761 3.49203 -0.17381
0.0977605 3.49903 -0.17381
0.0857605 3.48903 -0.17281
0.0757605 3.50103 -0.17381
0.0647605 3.49703 -0.17381
0.0367605 3.50203 -0.17381
0.0147605 3.50203 -0.17381
0.00376054 3.49603 -0.17381
0.672761 3.48303 -0.20281
0.514761 3.48203 -0.19981
0.415761 3.48503 -0.19781
0.211761 3.48803 -0.19681
0.0687605 3.49403 -0.19681
0.0137605 3.49003 -0.19581
1.15676 3.48003 -0.23881
1.14676 3.48303 -0.23881
1.11476 3.48103 -0.23681
1.08076 3.48503 -0.23681
1.04376 3.48203 -0.23481
1.01376 3.48103 -0.23381
0.978761 3.48403 -0.23281
0.883761 3.48103 -0.22981
0.598761 3.48703 -0.22381
0.575761 3.48303 -0.22281
0.541761 3.48403 -0.22181
0.530761 3.48403 -0.22181
0.525761 3.48703 -0.22181
0.502761 3.48403 -0.22081
0.468761 3.48503 -0.22081
0.458761 3.49203 -0.22181
0.441761 3.49003 -0.22081
0.430761 3.48803 -0.22081
0.407761 3.48403 -0.21981
0.396761 3.48603 -0.21981
0.380761 3.48503 -0.21981
0.368761 3.48503 -0.21981
0.324761 3.48703 -0.21881
0.314761 3.49803 -0.22081
0.308761 3.48603 -0.21881
0.297761 3.48703 -0.21881
0.286761 3.49403 -0.21981
0.275761 3.48903 -0.21881
0.264761 3.48803 -0.21881
0.253761 3.49103 -0.21881
0.237761 3.50003 -0.21981
0.225761 3.49103 -0.21881
0.214761 3.49003 -0.21881
0.204761 3.49403 -0.21881
0.182761 3.49503 -0.21881
0.171761 3.49603 -0.21881
0.165761 3.49403 -0.21881
0.154761 3.49303 -0.21881
0.143761 3.50303 -0.21981
0.132761 3.49803 -0.21881
0.121761 3.49603 -0.21881
0.110761 3.49203 -0.21781
0.0997605 3.49903 -0.21881
0.0947605 3.49703 -0.21881
0.0727605 3.50103 -0.21881
0.0617605 3.49603 -0.21881
0.0507605 3.50203 -0.21881
0.0287605 3.49803 -0.21881
0.0227605 3.50003 -0.21881
1.81976 3.48803 -0.29281
1.79376 3.49203 -0.29181
1.67976 3.49503 -0.28581
1.79376 3.47803 -0.33781
1.69676 3.48903 -0.33281
1.67876 3.47803 -0.33081
1.66676 3.48203 -0.33081
1.54676 3.48003 -0.32381
1.52276 3.48403 -0.32281
1.49576 3.48303 -0.32081
1.47876 3.48803 -0.32081
1.46276 3.48003 -0.31881
1.45176 3.48403 -0.31881
1.43776 3.48203 -0.31781
1.41376 3.48503 -0.31681
1.40676 3.48303 -0.31681
1.39476 3.48403 -0.31581
1.38276 3.48703 -0.31581
1.35776 3.48603 -0.31481
1.33376 3.49103 -0.31381
1.31376 3.48603 -0.31281
1.27476 3.48303 -0.30981
1.26276 3.48303 -0.30981
1.24976 3.48203 -0.30881
1.24476 3.48603 -0.30881
1.19876 3.49303 -0.30781
1.18676 3.49303 -0.30781
1.17076 3.48403 -0.30581
1.16676 3.49003 -0.30581
1.15376 3.48803 -0.30581
1.13176 3.49503 -0.30581
1.11976 3.49503 -0.30481
1.10776 3.49403 -0.30481
1.10276 3.49603 -0.30481
1.07776 3.49303 -0.30281
1.06576 3.49503 -0.30281
1.05376 3.49403 -0.30181
1.04176 3.49403 -0.30181
1.02976 3.49303 -0.30081
1.02176 3.48703 -0.29981
1.01176 3.49203 -0.30081
0.964761 3.49303 -0.29881
0.936761 3.50103 -0.29881
0.912761 3.49703 -0.29781
0.836761 3.49803 -0.29481
0.813761 3.49703 -0.29381
0.802761 3.50103 -0.29481
0.797761 3.50303 -0.29481
0.784761 3.49703 -0.29381
0.750761 3.49903 -0.29281
0.709761 3.49303 -0.29081
0.677761 3.50403 -0.29081
0.653761 3.49803 -0.28981
0.637761 3.50503 -0.29081
0.592761 3.50503 -0.28981
0.529761 3.50103 -0.28781
0.518761 3.50503 -0.28781
0.489761 3.49703 -0.28581
0.479761 3.50403 -0.28681
0.467761 3.50003 -0.28581
0.457761 3.50303 -0.28681
0.445761 3.50303 -0.28581
0.433761 3.49403 -0.28481
0.406761 3.49803 -0.28481
0.384761 3.50603 -0.28581
0.345761 3.50003 -0.28481
0.312761 3.50503 -0.28481
0.300761 3.49603 -0.28281
0.295761 3.49903 -0.28381
0.284761 3.50203 -0.28381
0.273761 3.50403 -0.28381
0.251761 3.50403 -0.28381
0.229761 3.50603 -0.28381
0.223761 3.50203 -0.28281
0.201761 3.50703 -0.28381
0.168761 3.50503 -0.28281
0.157761 3.49803 -0.28181
0.141761 3.50803 -0.28381
0.0977605 3.50803 -0.28281
0.0587605 3.50903 -0.28281
1.83476 3.48203 -0.36781
1.80976 3.48803 -0.36681
1.78076 3.48503 -0.36481
1.73276 3.48703 -0.36181
1.68276 3.48103 -0.35781
1.65776 3.48603 -0.35681
1.61776 3.48703 -0.35481
1.60176 3.48203 -0.35281
1.59576 3.48203 -0.35281
1.58576 3.48903 -0.35281
1.57276 3.48903 -0.35181
1.54676 3.49003 -0.35081
1.51876 3.48703 -0.34881
1.49976 3.48803 -0.34781
1.48776 3.49103 -0.34781
1.47376 3.48903 -0.34681
1.43776 3.49303 -0.34481
1.39976 3.48103 -0.34181
1.39176 3.49003 -0.34281
1.36376 3.48603 -0.34081
1.35276 3.48903 -0.33981
1.33376 3.48903 -0.33981
1.31176 3.49803 -0.33981
1.29576 3.48703 -0.33681
1.28176 3.48403 -0.33581
1.27476 3.49903 -0.33781
1.26276 3.48403 -0.33481
1.25276 3.49003 -0.33581
1.24276 3.49603 -0.33581
1.20276 3.48903 -0.33281
1.20076 3.50003 -0.33381
1.18676 3.49403 -0.33281
1.17076 3.48303 -0.33081
1.16376 3.50003 -0.33281
1.15276 3.50103 -0.33281
1.13776 3.49603 -0.33081
1.09676 3.50003 -0.32981
1.08576 3.50203 -0.32981
1.06176 3.50303 -0.32881
1.04276 3.49903 -0.32681
1.02876 3.49403 -0.32581
1.01976 3.50303 -0.32681
1.00676 3.50103 -0.32581
0.993761 3.49603 -0.32481
0.971761 3.50203 -0.32481
0.963761 3.49403 -0.32381
0.940761 3.49803 -0.32381
0.894761 3.50003 -0.32181
0.877761 3.50303 -0.32181
0.862761 3.49203 -0.31981
0.841761 3.49703 -0.31981
0.830761 3.50003 -0.31981
0.810761 3.49003 -0.31781
0.777761 3.49803 -0.31781
0.765761 3.49803 -0.31781
0.755761 3.50503 -0.31781
0.737761 3.49803 -0.31681
0.715761 3.50303 -0.31681
0.702761 3.49903 -0.31581
0.678761 3.49203 -0.31381
0.668761 3.49803 -0.31481
0.652761 3.50303 -0.31481
0.577761 3.49603 -0.31181
0.555761 3.50003 -0.31181
0.543761 3.50003 -0.31181
0.515761 3.50003 -0.31181
0.505761 3.50503 -0.31181
0.471761 3.50603 -0.31181
0.459761 3.50203 -0.31081
0.431761 3.49903 -0.30981
0.398761 3.49903 -0.30881
0.371761 3.50803 -0.30981
0.298761 3.50703 -0.30881
0.276761 3.50303 -0.30781
0.215761 3.50103 -0.30681
0.193761 3.50903 -0.30781
0.166761 3.51003 -0.30781
0.132761 3.50803 -0.30781
1.82776 3.48303 -0.38481
1.77176 3.49603 -0.38281
1.75376 3.48803 -0.38081
1.73176 3.49903 -0.38081
1.68376 3.49603 -0.37781
1.66476 3.48503 -0.37481
1.64276 3.49503 -0.37481
1.63776 3.49803 -0.37481
1.62276 3.49403 -0.37381
1.55676 3.49603 -0.36981
1.52376 3.49503 -0.36781
1.48576 3.49603 -0.36581
1.46776 3.48503 -0.36281
1.44976 3.48803 -0.36281
1.41576 3.49803 -0.36181
1.40276 3.49703 -0.36081
1.36676 3.48503 -0.35781
1.33076 3.49103 -0.35681
1.26376 3.49603 -0.35381
1.19276 3.48603 -0.34881
1.12676 3.48903 -0.34581
1.09276 3.49403 -0.34581
1.04976 3.49203 -0.34381
1.02476 3.48503 -0.34181
1.01676 3.50003 -0.34281
0.963761 3.50303 -0.34181
0.947761 3.48603 -0.33881
0.895761 3.48803 -0.33681
0.848761 3.48703 -0.33481
0.785761 3.49003 -0.33281
0.771761 3.50103 -0.33481
0.736761 3.50303 -0.33381
0.714761 3.50303 -0.33281
0.699761 3.48803 -0.33081
0.696761 3.49903 -0.33181
0.673761 3.50103 -0.33181
