5.22269 3.7389 0.263222
5.20569 3.7519 0.263222
5.16569 3.7469 0.263222
5.11469 3.7349 0.262222
5.09669 3.7459 0.262222
5.01469 3.7469 0.262222
4.97269 3.7389 0.261222
4.90769 3.7389 0.261222
4.88669 3.7469 0.261222
4.84269 3.7379 0.260222
4.83269 3.7419 0.260222
4.80669 3.7459 0.260222
4.76469 3.7369 0.259222
4.72069 3.7509 0.259222
4.68569 3.7469 0.259222
4.65269 3.7439 0.259222
15.8287 3.7509 0.249222
15.5947 3.7479 0.248222
15.3947 3.7509 0.248222
14.9647 3.7469 0.246222
14.7687 3.7469 0.246222
14.5947 3.7519 0.245222
13.7557 3.7459 0.243222
13.5857 3.7459 0.242222
13.4357 3.7499 0.242222
12.4367 3.7489 0.239222
8.31369 3.7529 0.227222
8.27469 3.7529 0.183222
6.46369 3.7499 0.186222
6.41669 3.7499 0.186222
6.17769 3.7539 0.186222
6.13169 3.7519 0.186222
6.04869 3.7529 0.186222
5.94469 3.7529 0.187222
4.64669 3.7479 0.188222
15.7077 3.7679 0.0702224
15.4727 3.7639 0.0712224
15.2697 3.7659 0.0732224
15.0547 3.7629 0.0752224
14.8637 3.7649 0.0762224
14.6737 3.7669 0.0782224
14.3207 3.7489 0.0802224
14.1527 3.7519 0.0822224
13.9787 3.7539 0.0832224
13.8347 3.7619 0.0842224
13.6667 3.7629 0.0852224
13.3577 3.7459 0.0882224
13.2177 3.7519 0.0892224
13.0617 3.7519 0.0902224
12.9227 3.7569 0.0912224
12.7747 3.7569 0.0922224
12.6357 3.7599 0.0932224
12.4997 3.7629 0.0942224
12.2307 3.7449 0.0962224
12.1107 3.7499 0.0972224
11.9687 3.7479 0.0982224
11.8597 3.7549 0.0992224
11.7297 3.7539 0.100222
11.6167 3.7589 0.101222
11.0387 3.7469 0.105222
10.9347 3.7499 0.106222
10.8337 3.7529 0.107222
10.6817 3.7579 0.108222
9.70069 3.7429 0.115222
9.63069 3.7519 0.116222
9.38669 3.7419 0.117222
9.21269 3.7409 0.119222
9.14369 3.7459 0.119222
8.15869 3.7409 0.126222
7.98769 3.7399 0.127222
7.92369 3.7399 0.128222
7.86469 3.7429 0.128222
7.80569 3.7449 0.129222
7.74169 3.7449 0.129222
7.58969 3.7449 0.130222
7.51869 3.7399 0.131222
7.41669 3.7479 0.131222
7.34969 3.7429 0.132222
7.32169 3.7439 0.132222
7.25369 3.7379 0.133222
7.21669 3.7479 0.133222
7.14269 3.7379 0.133222
7.10269 3.7459 0.134222
7.04269 3.7429 0.134222
7.01769 3.7429 0.134222
6.96169 3.7419 0.135222
6.90769 3.7409 0.135222
6.85769 3.7419 0.135222
6.76169 3.7449 0.136222
6.70969 3.7439 0.136222
6.63469 3.7439 0.137222
6.59169 3.7469 0.137222
6.54269 3.7469 0.138222
6.49669 3.7469 0.138222
6.44869 3.7469 0.138222
6.38769 3.7389 0.139222
6.36269 3.7379 0.139222
6.31369 3.7359 0.139222
6.27769 3.7409 0.139222
6.23869 3.7439 0.140222
6.20969 3.7539 0.140222
6.16469 3.7539 0.140222
6.10669 3.7449 0.141222
6.07769 3.7399 0.141222
6.03669 3.7409 0.141222
5.95669 3.7439 0.142222
5.91469 3.7439 0.142222
5.87269 3.7429 0.142222
5.83869 3.7469 0.142222
5.79869 3.7349 0.143222
5.77869 3.7479 0.143222
5.68169 3.7359 0.143222
5.65269 3.7429 0.144222
5.62469 3.7499 0.144222
5.56569 3.7479 0.144222
5.52469 3.7469 0.144222
5.45069 3.7469 0.145222
5.38069 3.7489 0.145222
5.35869 3.7459 0.145222
5.31669 3.7419 0.146222
5.29169 3.7499 0.146222
5.25269 3.7469 0.146222
5.18869 3.7499 0.147222
5.16269 3.7449 0.147222
5.12869 3.7439 0.147222
5.09669 3.7459 0.147222
5.05469 3.7399 0.147222
5.02869 3.7449 0.148222
5.00569 3.7519 0.148222
4.94169 3.7409 0.148222
4.86669 3.7329 0.149222
4.84669 3.7429 0.149222
4.80669 3.7359 0.149222
4.78669 3.7449 0.149222
4.74669 3.7379 0.149222
4.74469 3.7479 0.149222
4.70769 3.7429 0.150222
4.67869 3.7439 0.150222
4.65669 3.7509 0.150222
15.2477 3.7589 -0.0237776
15.0517 3.7599 -0.0207776
14.8557 3.7609 -0.0177776
14.6737 3.7629 -0.0157776
14.4957 3.7659 -0.0127776
14.1547 3.7479 -0.00877756
13.9887 3.7509 -0.00577756
13.8357 3.7559 -0.00377756
13.6717 3.7579 -0.00177756
13.5177 3.7609 0.000222439
13.3647 3.7629 0.00222244
13.2267 3.7459 0.00422244
13.0897 3.7519 0.00622244
12.9417 3.7529 0.00822244
12.7857 3.7509 0.0102224
12.6587 3.7569 0.0112224
12.5097 3.7549 0.0132224
12.3787 3.7579 0.0152224
12.2617 3.7439 0.0172224
11.8847 3.7509 0.0222224
11.7457 3.7469 0.0242224
11.6327 3.7509 0.0252224
10.8627 3.7469 0.0352224
9.66469 3.7449 0.0512224
9.58569 3.7489 0.0522224
9.26869 3.7419 0.0562224
7.91069 3.7379 0.0742224
15.1367 3.7579 -0.130778
14.9187 3.7539 -0.125778
14.7327 3.7569 -0.122778
14.5677 3.7639 -0.118778
14.3607 3.7589 -0.114778
14.2037 3.7659 -0.111778
14.0567 3.7509 -0.108778
13.8747 3.7489 -0.104778
13.7277 3.7559 -0.101778
13.5717 3.7599 -0.0987776
13.4167 3.7619 -0.0957776
13.1277 3.7489 -0.0897776
12.9697 3.7479 -0.0867776
12.8237 3.7499 -0.0837776
12.6907 3.7549 -0.0807776
12.5407 3.7529 -0.0777776
12.4067 3.7559 -0.0757776
12.2857 3.7619 -0.0727776
11.9147 3.7509 -0.0657776
11.7747 3.7479 -0.0627776
11.6557 3.7509 -0.0607776
11.5527 3.7579 -0.0587776
10.9777 3.7449 -0.0467776
10.8757 3.7479 -0.0447776
10.7707 3.7509 -0.0427776
10.6817 3.7569 -0.0407776
9.74569 3.7429 -0.0227776
9.66969 3.7489 -0.0207776
9.58769 3.7519 -0.0197776
9.51069 3.7569 -0.0177776
9.42969 3.7419 -0.0167776
9.34769 3.7439 -0.0147776
9.26169 3.7429 -0.0127776
9.18069 3.7449 -0.0117776
8.21569 3.7519 0.00722244
8.15669 3.7559 0.00822244
8.04769 3.7519 0.0102224
7.97769 3.7499 0.0112224
7.90869 3.7479 0.0132224
7.79669 3.7559 0.0152224
7.72469 3.7509 0.0162224
7.62969 3.7499 0.0182224
7.56269 3.7469 0.0192224
7.49669 3.7439 0.0202224
7.45969 3.7549 0.0212224
7.39669 3.7519 0.0222224
7.33669 3.7509 0.0232224
7.22969 3.7399 0.0252224
7.18569 3.7459 0.0262224
7.13169 3.7459 0.0272224
7.07169 3.7439 0.0282224
7.02469 3.7469 0.0292224
6.98169 3.7519 0.0302224
6.88769 3.7439 0.0322224
6.84469 3.7489 0.0322224
6.78869 3.7459 0.0342224
6.74869 3.7519 0.0342224
6.69869 3.7519 0.0352224
6.61669 3.7469 0.0372224
6.58069 3.7539 0.0372224
6.50269 3.7369 0.0392224
6.46169 3.7409 0.0402224
6.41469 3.7409 0.0402224
6.38269 3.7489 0.0412224
6.34469 3.7539 0.0422224
6.31269 3.7489 0.0422224
6.26369 3.7459 0.0432224
6.20669 3.7389 0.0442224
6.17669 3.7469 0.0452224
6.12469 3.7429 0.0462224
6.06469 3.7449 0.0472224
6.01769 3.7419 0.0482224
5.97169 3.7399 0.0482224
5.94569 3.7499 0.0492224
5.90169 3.7489 0.0492224
5.85369 3.7439 0.0502224
5.81069 3.7429 0.0512224
5.71469 3.7449 0.0532224
5.66769 3.7399 0.0542224
5.63869 3.7459 0.0542224
5.59269 3.7409 0.0552224
5.53669 3.7419 0.0562224
5.49469 3.7389 0.0572224
5.45969 3.7399 0.0572224
5.40669 3.7539 0.0582224
5.35569 3.7439 0.0592224
5.30369 3.7449 0.0602224
5.27469 3.7499 0.0602224
5.22769 3.7409 0.0612224
5.20769 3.7519 0.0622224
5.15869 3.7409 0.0622224
5.13369 3.7479 0.0632224
5.10069 3.7489 0.0632224
5.06469 3.7339 0.0642224
5.03469 3.7369 0.0652224
5.01469 3.7469 0.0652224
4.97069 3.7389 0.0662224
4.94369 3.7429 0.0662224
4.91569 3.7459 0.0672224
4.86869 3.7349 0.0672224
4.85369 3.7349 0.0682224
4.79469 3.7389 0.0692224
4.77169 3.7449 0.0692224
4.73069 3.7369 0.0702224
4.69869 3.7359 0.0702224
4.68969 3.7399 0.0702224
9.35769 3.7599 -0.0667776
6.95869 3.7519 -0.00977756
6.43469 3.7469 0.00222244
6.28869 3.7539 0.00522244
6.15769 3.7549 0.00822244
6.11369 3.7539 0.00922244
6.07969 3.7469 0.0102224
6.03269 3.7439 0.0112224
6.00269 3.7509 0.0112224
5.92669 3.7549 0.0132224
5.86769 3.7429 0.0142224
5.82169 3.7519 0.0152224
5.57169 3.7539 0.0212224
5.53169 3.7519 0.0212224
5.49469 3.7519 0.0222224
5.37469 3.7439 0.0252224
5.28669 3.7439 0.0272224
5.22069 3.7469 0.0282224
5.15669 3.7499 0.0292224
5.09569 3.7419 0.0312224
5.07369 3.7509 0.0312224
5.03469 3.7469 0.0322224
4.96669 3.7439 0.0342224
4.91469 3.7409 0.0352224
4.87869 3.7379 0.0352224
4.81869 3.7399 0.0372224
4.75669 3.7389 0.0382224
4.74269 3.7529 0.0382224
4.71169 3.7409 0.0392224
4.69569 3.7519 0.0392224
4.64669 3.7359 0.0402224
15.0447 3.7619 -0.300778
14.8547 3.7639 -0.294778
14.6587 3.7639 -0.288778
14.4767 3.7659 -0.282778
13.8247 3.7599 -0.262778
13.6647 3.7629 -0.257778
13.5117 3.7669 -0.253778
12.7797 3.7599 -0.230778
12.6317 3.7599 -0.225778
12.5027 3.7649 -0.222778
11.8557 3.7549 -0.202778
11.7387 3.7579 -0.198778
11.6057 3.7559 -0.194778
11.0507 3.7509 -0.177778
10.9487 3.7549 -0.174778
10.8417 3.7569 -0.171778
10.7447 3.7619 -0.168778
9.71469 3.7499 -0.137778
9.63569 3.7539 -0.135778
9.54169 3.7519 -0.132778
9.47269 3.7599 -0.130778
9.38469 3.7589 -0.127778
9.31669 3.7489 -0.125778
9.22769 3.7469 -0.122778
9.16369 3.7549 -0.121778
8.16169 3.7439 -0.0917776
8.11169 3.7519 -0.0907776
8.04569 3.7519 -0.0887776
7.98669 3.7549 -0.0867776
7.93069 3.7439 -0.0847776
7.86669 3.7439 -0.0827776
7.80069 3.7429 -0.0817776
7.74169 3.7449 -0.0797776
7.67969 3.7449 -0.0777776
7.61869 3.7459 -0.0757776
7.57469 3.7539 -0.0747776
7.51369 3.7379 -0.0727776
7.45669 3.7389 -0.0717776
7.41169 3.7459 -0.0697776
7.34969 3.7439 -0.0687776
7.29269 3.7439 -0.0667776
7.24569 3.7489 -0.0657776
7.18269 3.7449 -0.0637776
6.98069 3.7379 -0.0577776
6.93369 3.7409 -0.0567776
6.88069 3.7409 -0.0547776
6.83369 3.7439 -0.0537776
6.79969 3.7389 -0.0527776
6.74769 3.7379 -0.0517776
6.66169 3.7459 -0.0487776
6.60469 3.7409 -0.0477776
6.56269 3.7449 -0.0457776
6.29069 3.7359 -0.0387776
6.25669 3.7429 -0.0377776
6.01069 3.7389 -0.0307776
5.97369 3.7419 -0.0297776
5.94169 3.7359 -0.0287776
5.81869 3.7359 -0.0257776
5.52869 3.7369 -0.0177776
5.29069 3.7369 -0.0117776
5.25869 3.7389 -0.0107776
5.16669 3.7349 -0.00877756
5.10669 3.7419 -0.00677756
5.06469 3.7349 -0.00577756
5.03669 3.7389 -0.00477756
4.98369 3.7369 -0.00377756
4.95169 3.7369 -0.00277756
4.85369 3.7359 -0.00077756
4.77369 3.7349 0.00122244
4.74169 3.7339 0.00222244
4.71869 3.7399 0.00322244
4.68669 3.7389 0.00322244
4.65169 3.7349 0.00422244
12.8217 3.7659 -0.319778
11.9097 3.7629 -0.286778
11.4087 3.7609 -0.267778
11.1047 3.7569 -0.256778
11.0057 3.7619 -0.252778
9.75069 3.7469 -0.207778
9.30469 3.7599 -0.191778
9.22269 3.7599 -0.188778
8.23369 3.7529 -0.153778
7.93469 3.7529 -0.142778
7.53069 3.7509 -0.128778
7.41969 3.7529 -0.125778
7.22069 3.7519 -0.118778
7.16469 3.7519 -0.116778
7.10869 3.7509 -0.114778
6.99869 3.7489 -0.110778
6.96269 3.7569 -0.109778
6.90369 3.7529 -0.107778
6.88369 3.7559 -0.106778
6.82069 3.7499 -0.104778
6.72869 3.7539 -0.101778
6.68269 3.7559 -0.100778
6.54569 3.7459 -0.0957776
6.44769 3.7439 -0.0917776
6.40269 3.7449 -0.0907776
6.35369 3.7429 -0.0887776
6.31469 3.7459 -0.0877776
6.28469 3.7419 -0.0867776
6.20269 3.7459 -0.0837776
6.14869 3.7389 -0.0817776
6.10769 3.7399 -0.0807776
6.07769 3.7479 -0.0797776
6.03669 3.7489 -0.0787776
5.99569 3.7359 -0.0767776
5.95269 3.7359 -0.0757776
5.91569 3.7379 -0.0747776
5.87869 3.7409 -0.0737776
5.84369 3.7439 -0.0727776
5.79969 3.7419 -0.0707776
5.69869 3.7399 -0.0677776
5.66069 3.7399 -0.0667776
5.63569 3.7489 -0.0657776
5.59169 3.7449 -0.0647776
5.55369 3.7449 -0.0627776
5.52869 3.7529 -0.0627776
5.49669 3.7439 -0.0607776
5.45169 3.7379 -0.0597776
5.42869 3.7469 -0.0587776
5.39869 3.7519 -0.0577776
5.35469 3.7459 -0.0567776
5.28369 3.7459 -0.0547776
5.26769 3.7469 -0.0537776
5.22669 3.7419 -0.0527776
5.19869 3.7469 -0.0517776
5.17269 3.7529 -0.0507776
5.10269 3.7509 -0.0487776
5.07769 3.7439 -0.0477776
5.05769 3.7539 -0.0477776
5.00869 3.7419 -0.0457776
4.98969 3.7519 -0.0457776
4.94769 3.7449 -0.0437776
4.92469 3.7519 -0.0437776
4.89369 3.7529 -0.0427776
4.87069 3.7469 -0.0417776
4.83769 3.7459 -0.0407776
4.75069 3.7499 -0.0377776
4.72369 3.7529 -0.0377776
4.70069 3.7459 -0.0367776
14.7677 3.7579 -0.482778
14.5857 3.7609 -0.474778
14.4117 3.7649 -0.467778
14.2407 3.7679 -0.460778
13.6057 3.7619 -0.432778
13.4417 3.7619 -0.425778
13.2877 3.7639 -0.419778
12.7237 3.7569 -0.394778
12.5817 3.7589 -0.388778
12.4507 3.7619 -0.383778
12.3187 3.7649 -0.377778
12.1807 3.7649 -0.371778
11.8057 3.7519 -0.355778
11.6927 3.7569 -0.351778
11.5427 3.7489 -0.344778
11.4427 3.7559 -0.340778
11.0207 3.7529 -0.322778
10.9157 3.7559 -0.318778
10.8057 3.7569 -0.313778
10.7037 3.7589 -0.309778
10.0237 3.7529 -0.280778
9.91969 3.7499 -0.276778
9.77869 3.7499 -0.270778
9.67369 3.7449 -0.266778
9.60769 3.7549 -0.263778
9.52769 3.7579 -0.260778
9.43169 3.7549 -0.256778
9.34969 3.7559 -0.253778
9.20969 3.7509 -0.247778
8.41769 3.7589 -0.214778
8.20069 3.7399 -0.205778
8.15969 3.7519 -0.204778
8.09869 3.7549 -0.201778
7.86169 3.7519 -0.192778
7.79769 3.7509 -0.189778
7.74669 3.7569 -0.187778
7.61669 3.7539 -0.182778
7.47069 3.7549 -0.176778
7.40369 3.7509 -0.174778
7.24169 3.7559 -0.167778
7.10269 3.7549 -0.162778
7.04769 3.7549 -0.160778
6.81769 3.7569 -0.151778
6.70969 3.7539 -0.146778
6.48969 3.7389 -0.138778
6.47069 3.7419 -0.137778
6.43569 3.7489 -0.136778
6.34569 3.7499 -0.132778
6.28669 3.7419 -0.130778
6.17869 3.7439 -0.126778
5.97469 3.7509 -0.118778
5.91869 3.7549 -0.116778
5.78469 3.7479 -0.111778
5.74169 3.7449 -0.109778
5.71269 3.7519 -0.108778
5.46169 3.7499 -0.0997776
4.81269 3.7479 -0.0767776
14.9377 3.7679 -0.578778
14.4067 3.7539 -0.552778
14.2237 3.7539 -0.543778
14.0727 3.7609 -0.536778
13.9117 3.7649 -0.528778
13.4497 3.7519 -0.506778
13.2977 3.7549 -0.498778
13.1747 3.7649 -0.493778
12.9877 3.7549 -0.483778
12.8687 3.7639 -0.478778
12.7147 3.7619 -0.470778
12.5907 3.7469 -0.464778
12.4527 3.7479 -0.458778
12.3337 3.7539 -0.452778
12.1807 3.7489 -0.445778
12.0737 3.7579 -0.440778
11.9397 3.7569 -0.433778
11.8197 3.7599 -0.427778
11.5907 3.7469 -0.416778
11.1247 3.7499 -0.394778
10.6157 3.7449 -0.370778
10.5057 3.7439 -0.365778
9.86869 3.7439 -0.335778
9.78469 3.7469 -0.331778
9.29869 3.7449 -0.308778
9.22169 3.7479 -0.304778
8.37269 3.7429 -0.265778
8.07169 3.7449 -0.251778
7.94669 3.7469 -0.246778
7.87369 3.7429 -0.242778
7.77669 3.7419 -0.238778
7.72169 3.7449 -0.236778
7.66169 3.7449 -0.233778
7.59969 3.7449 -0.230778
7.55069 3.7499 -0.228778
7.39769 3.7459 -0.221778
7.34369 3.7469 -0.219778
7.27469 3.7409 -0.215778
7.22769 3.7449 -0.213778
7.17369 3.7459 -0.211778
7.13569 3.7399 -0.209778
7.08369 3.7409 -0.207778
6.98769 3.7469 -0.203778
6.93369 3.7459 -0.200778
6.88569 3.7469 -0.198778
6.82269 3.7409 -0.195778
6.80669 3.7459 -0.195778
6.74569 3.7399 -0.192778
6.60969 3.7459 -0.186778
6.01969 3.7419 -0.161778
5.62669 3.7469 -0.144778
5.60069 3.7539 -0.143778
5.55269 3.7469 -0.141778
5.52569 3.7539 -0.140778
5.49369 3.7449 -0.139778
5.45169 3.7419 -0.137778
5.42569 3.7489 -0.136778
5.38869 3.7479 -0.134778
5.31969 3.7499 -0.132778
5.28369 3.7489 -0.130778
5.26169 3.7459 -0.129778
5.22869 3.7469 -0.128778
5.20269 3.7529 -0.127778
5.16469 3.7499 -0.125778
5.12569 3.7459 -0.124778
5.09769 3.7499 -0.123778
5.06669 3.7519 -0.121778
5.03969 3.7449 -0.120778
4.95369 3.7529 -0.117778
4.91669 3.7489 -0.115778
4.88169 3.7459 -0.114778
4.84569 3.7429 -0.112778
4.83469 3.7469 -0.112778
4.77069 3.7449 -0.109778
4.68669 3.7509 -0.106778
4.65469 3.7489 -0.105778
14.9757 3.7589 -0.678778
14.8057 3.7659 -0.669778
14.6097 3.7659 -0.658778
14.1177 3.7589 -0.631778
13.9247 3.7539 -0.621778
13.7917 3.7649 -0.613778
13.6257 3.7659 -0.604778
13.3177 3.7489 -0.587778
13.1887 3.7579 -0.580778
13.0207 3.7549 -0.571778
12.8917 3.7619 -0.564778
12.7387 3.7609 -0.556778
12.6117 3.7669 -0.549778
12.3507 3.7529 -0.535778
12.2017 3.7499 -0.527778
12.0677 3.7499 -0.520778
11.9507 3.7549 -0.513778
11.8197 3.7549 -0.506778
11.6897 3.7549 -0.499778
11.1337 3.7519 -0.469778
11.0157 3.7509 -0.463778
10.9277 3.7599 -0.459778
10.6137 3.7459 -0.442778
10.5057 3.7449 -0.436778
10.4057 3.7459 -0.430778
10.3227 3.7529 -0.426778
10.2097 3.7489 -0.420778
9.76169 3.7429 -0.396778
9.68469 3.7479 -0.392778
9.44669 3.7429 -0.380778
9.35869 3.7419 -0.375778
9.28969 3.7479 -0.372778
9.20569 3.7479 -0.367778
9.13469 3.7529 -0.364778
8.83169 3.7429 -0.347778
8.76269 3.7469 -0.344778
8.68969 3.7489 -0.340778
8.61769 3.7499 -0.337778
8.49369 3.7439 -0.330778
8.41969 3.7429 -0.326778
8.35569 3.7459 -0.323778
8.28869 3.7479 -0.319778
8.22069 3.7479 -0.316778
8.11069 3.7449 -0.310778
8.04069 3.7429 -0.307778
7.98869 3.7499 -0.304778
7.92469 3.7499 -0.301778
7.85469 3.7479 -0.297778
7.79969 3.7519 -0.295778
7.74369 3.7399 -0.291778
7.68669 3.7429 -0.289778
7.63069 3.7449 -0.286778
7.57869 3.7489 -0.283778
7.51569 3.7479 -0.280778
7.46069 3.7499 -0.277778
7.40269 3.7499 -0.274778
7.29769 3.7399 -0.269778
7.24869 3.7439 -0.266778
7.19069 3.7429 -0.263778
7.13969 3.7449 -0.261778
7.09269 3.7489 -0.259778
7.03669 3.7479 -0.256778
7.00269 3.7439 -0.254778
6.94969 3.7449 -0.252778
6.90169 3.7459 -0.249778
6.84569 3.7439 -0.246778
6.79669 3.7459 -0.244778
6.74169 3.7429 -0.241778
6.69669 3.7459 -0.239778
6.67869 3.7489 -0.238778
5.63469 3.7389 -0.188778
5.40269 3.7469 -0.177778
5.37169 3.7379 -0.175778
5.07169 3.7359 -0.161778
5.03769 3.7349 -0.160778
4.93969 3.7359 -0.155778
4.82769 3.7349 -0.150778
4.76769 3.7369 -0.148778
4.73369 3.7349 -0.146778
4.68769 3.7349 -0.144778
9.25369 3.7609 -0.423778
8.81569 3.7599 -0.398778
7.19469 3.7569 -0.308778
6.43369 3.7529 -0.266778
6.27869 3.7549 -0.258778
6.17369 3.7449 -0.252778
6.14469 3.7539 -0.251778
6.04969 3.7479 -0.246778
5.97669 3.7409 -0.242778
5.89069 3.7389 -0.237778
5.87569 3.7549 -0.237778
5.77969 3.7449 -0.231778
5.69069 3.7509 -0.227778
5.63369 3.7379 -0.224778
5.59769 3.7389 -0.222778
5.51769 3.7359 -0.218778
5.46569 3.7379 -0.215778
5.43069 3.7399 -0.213778
5.40369 3.7459 -0.212778
5.35969 3.7399 -0.210778
5.33169 3.7459 -0.209778
5.24069 3.7429 -0.204778
5.13869 3.7439 -0.199778
5.10169 3.7409 -0.197778
4.95169 3.7389 -0.189778
4.93769 3.7529 -0.189778
4.82869 3.7539 -0.184778
4.79369 3.7509 -0.182778
4.64869 3.7439 -0.175778
14.6127 3.7669 -0.844778
14.4327 3.7689 -0.832778
13.4567 3.7649 -0.767778
11.7027 3.7589 -0.652778
11.5827 3.7609 -0.644778
11.4667 3.7629 -0.636778
10.9307 3.7599 -0.601778
10.8087 3.7569 -0.593778
10.7177 3.7629 -0.587778
10.3347 3.7579 -0.562778
10.2137 3.7509 -0.555778
10.1437 3.7609 -0.550778
10.0497 3.7619 -0.544778
9.94269 3.7579 -0.537778
9.85669 3.7609 -0.532778
9.76769 3.7629 -0.526778
9.69169 3.7509 -0.521778
9.61069 3.7549 -0.516778
9.52969 3.7579 -0.511778
9.42869 3.7529 -0.504778
9.28169 3.7619 -0.495778
9.12269 3.7489 -0.485778
9.05569 3.7539 -0.480778
8.97169 3.7529 -0.475778
8.89569 3.7539 -0.470778
8.82869 3.7589 -0.466778
8.75669 3.7609 -0.462778
8.62369 3.7519 -0.453778
8.54769 3.7509 -0.448778
8.47669 3.7519 -0.444778
8.34369 3.7569 -0.436778
8.27769 3.7579 -0.431778
8.23169 3.7529 -0.428778
8.15269 3.7489 -0.423778
8.09369 3.7519 -0.420778
8.03869 3.7579 -0.416778
7.97069 3.7569 -0.412778
7.90469 3.7559 -0.408778
7.78769 3.7459 -0.401778
7.73969 3.7529 -0.398778
7.67269 3.7509 -0.394778
7.61069 3.7499 -0.390778
7.55369 3.7519 -0.386778
7.50669 3.7579 -0.383778
7.44869 3.7579 -0.380778
7.40169 3.7489 -0.377778
7.33969 3.7469 -0.373778
7.27969 3.7459 -0.369778
7.22869 3.7489 -0.366778
7.18869 3.7569 -0.364778
7.11369 3.7459 -0.359778
7.07369 3.7529 -0.357778
7.03069 3.7449 -0.354778
6.98369 3.7479 -0.351778
6.92369 3.7449 -0.348778
6.88769 3.7529 -0.346778
6.82369 3.7459 -0.341778
6.78569 3.7529 -0.339778
6.75269 3.7489 -0.337778
6.69969 3.7469 -0.334778
6.64969 3.7469 -0.331778
6.60969 3.7519 -0.329778
6.55969 3.7509 -0.326778
6.51669 3.7539 -0.323778
6.47369 3.7569 -0.321778
6.42269 3.7409 -0.317778
6.39269 3.7499 -0.316778
6.34269 3.7479 -0.313778
6.30469 3.7529 -0.311778
6.26069 3.7529 -0.308778
6.21269 3.7509 -0.305778
6.17869 3.7569 -0.303778
6.14169 3.7479 -0.301778
6.10169 3.7499 -0.299778
6.01869 3.7509 -0.294778
5.97269 3.7489 -0.291778
5.92569 3.7459 -0.288778
5.89269 3.7379 -0.286778
5.86569 3.7469 -0.285778
5.81969 3.7439 -0.282778
5.78669 3.7479 -0.280778
5.74769 3.7489 -0.278778
5.70069 3.7439 -0.275778
5.67069 3.7499 -0.274778
5.63169 3.7369 -0.271778
5.60669 3.7459 -0.270778
5.55769 3.7389 -0.267778
5.51969 3.7389 -0.265778
5.48969 3.7439 -0.263778
5.45969 3.7489 -0.262778
5.39769 3.7439 -0.258778
5.35669 3.7399 -0.255778
5.29569 3.7469 -0.252778
5.25769 3.7459 -0.250778
5.22169 3.7449 -0.248778
5.19669 3.7519 -0.247778
5.16469 3.7409 -0.245778
5.13869 3.7469 -0.243778
5.06769 3.7449 -0.239778
5.03569 3.7459 -0.238778
5.00769 3.7499 -0.236778
4.97169 3.7469 -0.234778
4.95269 3.7459 -0.233778
4.91869 3.7439 -0.231778
4.88469 3.7429 -0.229778
4.81669 3.7389 -0.225778
4.77769 3.7449 -0.224778
4.74369 3.7429 -0.222778
4.70869 3.7389 -0.220778
4.69469 3.7529 -0.219778
4.65469 3.7449 -0.217778
11.7817 3.7669 -0.718778
11.0007 3.7649 -0.663778
7.42169 3.7569 -0.419778
7.25269 3.7579 -0.408778
7.11069 3.7549 -0.399778
7.00569 3.7559 -0.392778
6.90669 3.7579 -0.386778
6.77269 3.7539 -0.377778
6.72269 3.7539 -0.374778
6.58469 3.7579 -0.365778
6.51269 3.7569 -0.360778
6.45769 3.7519 -0.357778
6.41769 3.7569 -0.354778
6.32369 3.7549 -0.348778
6.28169 3.7559 -0.346778
6.23069 3.7519 -0.342778
6.20069 3.7469 -0.340778
6.17069 3.7549 -0.339778
6.04469 3.7569 -0.331778
5.95769 3.7539 -0.325778
5.92769 3.7489 -0.323778
5.89469 3.7529 -0.321778
5.85769 3.7559 -0.319778
5.72969 3.7499 -0.311778
5.67369 3.7519 -0.308778
5.63269 3.7489 -0.305778
5.60269 3.7549 -0.303778
5.16769 3.7509 -0.277778
5.01869 3.7519 -0.268778
14.3367 3.7629 -0.996778
14.1727 3.7679 -0.983778
13.3807 3.7619 -0.922778
13.2387 3.7669 -0.911778
13.0787 3.7659 -0.899778
12.4057 3.7649 -0.847778
12.2477 3.7589 -0.835778
11.9897 3.7629 -0.815778
11.7427 3.7669 -0.796778
11.1727 3.7599 -0.753778
10.7707 3.7579 -0.722778
10.6667 3.7599 -0.714778
10.5587 3.7599 -0.706778
10.4627 3.7629 -0.699778
10.3547 3.7609 -0.691778
10.2587 3.7629 -0.683778
10.1757 3.7509 -0.677778
10.0707 3.7479 -0.669778
9.98569 3.7529 -0.663778
9.89769 3.7549 -0.656778
9.79869 3.7529 -0.649778
9.72669 3.7609 -0.643778
9.64069 3.7629 -0.637778
9.56269 3.7499 -0.631778
9.47469 3.7499 -0.624778
9.41469 3.7599 -0.620778
9.30969 3.7529 -0.612778
9.24269 3.7599 -0.607778
9.08469 3.7619 -0.596778
9.02169 3.7529 -0.591778
8.94669 3.7549 -0.585778
8.87969 3.7599 -0.580778
8.52269 3.7529 -0.554778
8.44869 3.7519 -0.548778
8.06969 3.7529 -0.521778
7.94069 3.7549 -0.511778
7.81669 3.7559 -0.503778
7.69269 3.7419 -0.493778
7.66469 3.7579 -0.492778
7.59369 3.7539 -0.486778
7.46669 3.7499 -0.477778
7.34869 3.7489 -0.469778
7.32169 3.7489 -0.467778
7.25869 3.7459 -0.462778
7.21869 3.7539 -0.459778
7.15369 3.7489 -0.455778
7.09769 3.7489 -0.451778
7.05069 3.7519 -0.447778
7.01269 3.7469 -0.445778
6.90669 3.7459 -0.437778
6.85269 3.7449 -0.433778
6.79169 3.7399 -0.429778
6.76769 3.7539 -0.428778
6.70669 3.7489 -0.423778
6.61969 3.7409 -0.417778
6.56769 3.7389 -0.413778
6.52369 3.7409 -0.410778
6.48369 3.7459 -0.407778
6.43269 3.7429 -0.404778
6.38269 3.7409 -0.400778
6.35969 3.7409 -0.399778
6.32069 3.7449 -0.396778
6.28769 3.7529 -0.394778
6.23369 3.7469 -0.390778
6.17869 3.7409 -0.386778
6.13769 3.7429 -0.383778
6.09469 3.7559 -0.381778
6.04269 3.7499 -0.377778
6.00669 3.7539 -0.375778
5.96269 3.7529 -0.372778
5.91869 3.7519 -0.369778
5.88169 3.7539 -0.367778
5.81869 3.7529 -0.362778
5.77869 3.7529 -0.360778
5.70169 3.7539 -0.354778
5.66469 3.7559 -0.352778
5.60969 3.7449 -0.348778
5.59369 3.7469 -0.347778
5.56369 3.7519 -0.345778
5.45669 3.7559 -0.338778
5.36569 3.7559 -0.332778
5.32869 3.7559 -0.330778
5.29469 3.7559 -0.328778
5.25669 3.7549 -0.325778
5.13369 3.7539 -0.317778
5.06869 3.7549 -0.313778
4.70469 3.7449 -0.289778
4.67569 3.7459 -0.287778
14.5077 3.7719 -1.09678
14.3497 3.7539 -1.08278
14.1767 3.7559 -1.06878
14.0277 3.7639 -1.05678
13.8677 3.7679 -1.04278
13.7097 3.7709 -1.02978
13.2697 3.7609 -0.993778
13.1007 3.7579 -0.979778
12.9727 3.7649 -0.968778
12.8347 3.7679 -0.957778
12.6867 3.7679 -0.945778
12.2957 3.7559 -0.912778
12.1727 3.7599 -0.902778
12.0457 3.7619 -0.892778
11.9057 3.7589 -0.880778
11.7897 3.7629 -0.871778
11.6607 3.7619 -0.860778
11.5577 3.7489 -0.852778
11.4347 3.7479 -0.841778
11.1237 3.7619 -0.816778
11.0017 3.7589 -0.806778
10.9097 3.7659 -0.799778
10.8167 3.7529 -0.791778
10.7107 3.7529 -0.783778
10.5937 3.7499 -0.773778
10.5107 3.7569 -0.767778
10.3967 3.7529 -0.757778
10.3147 3.7599 -0.751778
10.2027 3.7549 -0.742778
10.1307 3.7469 -0.736778
9.95069 3.7509 -0.721778
9.75269 3.7459 -0.705778
9.68669 3.7549 -0.700778
9.59169 3.7529 -0.692778
9.45169 3.7489 -0.681778
9.36069 3.7469 -0.674778
9.27269 3.7449 -0.667778
9.20069 3.7489 -0.661778
9.12169 3.7509 -0.655778
8.90569 3.7429 -0.637778
8.83469 3.7459 -0.632778
8.76769 3.7499 -0.627778
8.69369 3.7509 -0.621778
8.62569 3.7529 -0.616778
8.50069 3.7459 -0.606778
8.35669 3.7449 -0.594778
8.29069 3.7469 -0.589778
8.22469 3.7479 -0.584778
8.17069 3.7539 -0.580778
8.04869 3.7439 -0.570778
7.99169 3.7479 -0.566778
7.92269 3.7449 -0.560778
7.86069 3.7459 -0.555778
7.79969 3.7469 -0.551778
7.63269 3.7409 -0.538778
7.57869 3.7429 -0.534778
7.52369 3.7459 -0.529778
7.47769 3.7519 -0.526778
7.41169 3.7479 -0.521778
7.36769 3.7399 -0.517778
7.15269 3.7439 -0.501778
7.09369 3.7409 -0.496778
7.04469 3.7439 -0.493778
6.96969 3.7459 -0.487778
6.90869 3.7409 -0.482778
6.86069 3.7419 -0.479778
6.81369 3.7449 -0.475778
6.76369 3.7449 -0.472778
6.72069 3.7479 -0.468778
6.68169 3.7399 -0.465778
6.59769 3.7479 -0.459778
6.54269 3.7429 -0.455778
6.49969 3.7459 -0.452778
6.44169 3.7389 -0.447778
6.40769 3.7459 -0.445778
6.33869 3.7459 -0.440778
6.28769 3.7419 -0.436778
6.24269 3.7419 -0.433778
6.21069 3.7489 -0.431778
6.17369 3.7529 -0.428778
6.12869 3.7389 -0.424778
6.08769 3.7399 -0.421778
6.04269 3.7379 -0.418778
6.00569 3.7409 -0.415778
5.96869 3.7439 -0.413778
5.92669 3.7439 -0.410778
5.88469 3.7429 -0.406778
5.86469 3.7439 -0.405778
5.81969 3.7399 -0.402778
5.77669 3.7379 -0.398778
5.75169 3.7469 -0.397778
5.70469 3.7419 -0.393778
5.66469 3.7409 -0.391778
5.64569 3.7409 -0.389778
5.61369 3.7459 -0.387778
5.53569 3.7439 -0.381778
5.49769 3.7429 -0.379778
5.47769 3.7549 -0.378778
5.43669 3.7519 -0.375778
5.41469 3.7489 -0.373778
5.37669 3.7469 -0.370778
5.34969 3.7539 -0.369778
5.30569 3.7469 -0.365778
5.27569 3.7509 -0.363778
5.23169 3.7449 -0.360778
5.19569 3.7429 -0.357778
5.18369 3.7469 -0.357778
5.14769 3.7459 -0.354778
5.08569 3.7489 -0.350778
5.04669 3.7449 -0.347778
5.02269 3.7509 -0.346778
4.99469 3.7549 -0.344778
4.97869 3.7549 -0.343778
4.93369 3.7459 -0.339778
4.89969 3.7439 -0.337778
4.84969 3.7539 -0.334778
4.81569 3.7519 -0.332778
4.76569 3.7489 -0.328778
4.74169 3.7539 -0.327778
4.70169 3.7459 -0.324778
4.68169 3.7539 -0.323778
13.5617 3.7589 -1.10178
13.4197 3.7659 -1.08878
13.2617 3.7669 -1.07478
12.9837 3.7539 -1.04978
12.8287 3.7539 -1.03678
12.6847 3.7549 -1.02378
12.5597 3.7609 -1.01278
12.4207 3.7619 -1.00078
12.2937 3.7669 -0.989778
12.1717 3.7499 -0.978778
12.0307 3.7489 -0.965778
11.9027 3.7499 -0.954778
11.7847 3.7539 -0.944778
11.6597 3.7539 -0.933778
11.5417 3.7569 -0.923778
11.1137 3.7539 -0.885778
10.9987 3.7539 -0.875778
10.8947 3.7569 -0.866778
10.8017 3.7629 -0.858778
10.6877 3.7619 -0.849778
10.5937 3.7469 -0.840778
10.4937 3.7489 -0.831778
10.3977 3.7519 -0.823778
10.2917 3.7509 -0.814778
10.2077 3.7569 -0.807778
10.0987 3.7529 -0.797778
9.74969 3.7459 -0.767778
9.65369 3.7449 -0.759778
9.57369 3.7489 -0.752778
9.48769 3.7489 -0.745778
9.43169 3.7449 -0.740778
9.20769 3.7569 -0.721778
9.09269 3.7439 -0.711778
9.02869 3.7509 -0.706778
8.97269 3.7609 -0.701778
8.83369 3.7519 -0.689778
8.73769 3.7439 -0.681778
8.68369 3.7539 -0.677778
8.59769 3.7479 -0.669778
8.55269 3.7609 -0.666778
8.42569 3.7529 -0.655778
8.26769 3.7449 -0.641778
8.20069 3.7469 -0.636778
8.06669 3.7469 -0.625778
8.04269 3.7519 -0.623778
7.90969 3.7499 -0.612778
7.83869 3.7469 -0.606778
7.78469 3.7519 -0.601778
7.71369 3.7479 -0.595778
7.66269 3.7529 -0.591778
7.54869 3.7409 -0.581778
7.43769 3.7449 -0.573778
7.32869 3.7489 -0.564778
7.25669 3.7409 -0.557778
7.12969 3.7469 -0.547778
7.06369 3.7409 -0.542778
7.00969 3.7399 -0.537778
6.97269 3.7489 -0.535778
6.90369 3.7399 -0.529778
6.77569 3.7409 -0.519778
6.72569 3.7409 -0.514778
6.67569 3.7409 -0.510778
6.65369 3.7559 -0.509778
6.50969 3.7429 -0.497778
6.41169 3.7409 -0.489778
6.36569 3.7409 -0.486778
6.31769 3.7399 -0.482778
6.20769 3.7409 -0.473778
6.11569 3.7389 -0.466778
5.49469 3.7399 -0.418778
5.38369 3.7399 -0.410778
5.31069 3.7389 -0.404778
5.18969 3.7409 -0.395778
5.11669 3.7369 -0.389778
5.08569 3.7389 -0.387778
4.99969 3.7369 -0.381778
4.90569 3.7399 -0.374778
4.87269 3.7399 -0.372778
12.7117 3.7609 -1.11078
12.5957 3.7699 -1.09978
12.4517 3.7689 -1.08678
12.0797 3.7599 -1.05078
11.9527 3.7609 -1.03978
11.8287 3.7629 -1.02778
11.7127 3.7659 -1.01678
11.5927 3.7679 -1.00578
11.1327 3.7529 -0.962778
11.0567 3.7659 -0.955778
10.9397 3.7639 -0.944778
10.5487 3.7589 -0.908778
10.4507 3.7609 -0.899778
10.3477 3.7599 -0.889778
10.1527 3.7609 -0.871778
9.98369 3.7519 -0.855778
9.90669 3.7579 -0.848778
9.81269 3.7579 -0.840778
9.73769 3.7639 -0.833778
9.63369 3.7579 -0.823778
9.56069 3.7639 -0.817778
9.47269 3.7639 -0.809778
9.40669 3.7539 -0.802778
9.31469 3.7519 -0.794778
9.25869 3.7629 -0.789778
9.14969 3.7519 -0.779778
8.96069 3.7559 -0.762778
8.86569 3.7489 -0.753778
8.82169 3.7629 -0.750778
8.73269 3.7569 -0.741778
8.47269 3.7559 -0.718778
8.39069 3.7499 -0.710778
8.26169 3.7549 -0.699778
8.13669 3.7599 -0.688778
8.02569 3.7539 -0.678778
7.90869 3.7599 -0.668778
7.84769 3.7609 -0.662778
7.60969 3.7499 -0.641778
7.49269 3.7499 -0.631778
7.33469 3.7569 -0.617778
7.28469 3.7459 -0.612778
7.24069 3.7519 -0.609778
7.17769 3.7479 -0.603778
7.12769 3.7499 -0.599778
7.08369 3.7559 -0.595778
7.02169 3.7509 -0.590778
6.93369 3.7449 -0.582778
6.87869 3.7429 -0.577778
6.83369 3.7469 -0.573778
6.79769 3.7549 -0.570778
6.73369 3.7469 -0.565778
6.69569 3.7529 -0.562778
6.65069 3.7549 -0.558778
6.60369 3.7419 -0.553778
6.56769 3.7489 -0.550778
6.52469 3.7519 -0.547778
6.46669 3.7449 -0.542778
6.42369 3.7469 -0.538778
6.39669 3.7579 -0.536778
6.33369 3.7479 -0.531778
6.30669 3.7449 -0.528778
6.26069 3.7449 -0.524778
6.22069 3.7469 -0.521778
6.17269 3.7439 -0.517778
6.13869 3.7499 -0.514778
6.08469 3.7429 -0.509778
6.01369 3.7379 -0.503778
5.93469 3.7409 -0.497778
5.89269 3.7399 -0.493778
5.85569 3.7419 -0.490778
5.82369 3.7479 -0.488778
5.79069 3.7389 -0.485778
5.71469 3.7409 -0.478778
5.67069 3.7379 -0.475778
5.64269 3.7439 -0.473778
5.55769 3.7379 -0.466778
5.47169 3.7419 -0.459778
5.43669 3.7439 -0.456778
5.40169 3.7449 -0.453778
5.36569 3.7439 -0.450778
5.27469 3.7419 -0.443778
5.25369 3.7519 -0.442778
5.20269 3.7409 -0.437778
5.18269 3.7509 -0.436778
5.14269 3.7459 -0.433778
5.05069 3.7399 -0.425778
5.01769 3.7399 -0.422778
4.99369 3.7459 -0.421778
4.91969 3.7389 -0.415778
4.90069 3.7369 -0.413778
4.82169 3.7479 -0.408778
4.74769 3.7389 -0.401778
4.67169 3.7389 -0.395778
11.8937 3.7579 -1.11078
11.8267 3.7569 -1.10378
11.7047 3.7589 -1.09178
11.5877 3.7619 -1.07978
11.4377 3.7529 -1.06478
11.0257 3.7539 -1.02478
10.9257 3.7579 -1.01478
10.8257 3.7619 -1.00478
10.7257 3.7649 -0.994778
10.4317 3.7549 -0.965778
10.3467 3.7619 -0.957778
10.2407 3.7599 -0.947778
10.1467 3.7619 -0.937778
9.96169 3.7649 -0.919778
9.88669 3.7539 -0.912778
9.80069 3.7569 -0.903778
9.71069 3.7579 -0.895778
9.61669 3.7569 -0.885778
9.53869 3.7609 -0.878778
9.45669 3.7629 -0.870778
9.37269 3.7639 -0.862778
9.30369 3.7539 -0.855778
9.21969 3.7539 -0.847778
9.15069 3.7589 -0.840778
9.06869 3.7589 -0.833778
8.99469 3.7619 -0.825778
8.91369 3.7609 -0.818778
8.77469 3.7519 -0.804778
8.70969 3.7569 -0.798778
8.64169 3.7589 -0.791778
8.57069 3.7609 -0.785778
8.49569 3.7599 -0.778778
8.35169 3.7599 -0.764778
8.31269 3.7579 -0.760778
8.23269 3.7529 -0.752778
8.17869 3.7599 -0.747778
8.10169 3.7559 -0.740778
7.97169 3.7569 -0.728778
7.92869 3.7519 -0.723778
7.86469 3.7519 -0.717778
7.81169 3.7569 -0.713778
7.73669 3.7509 -0.705778
7.61469 3.7519 -0.694778
7.51669 3.7479 -0.685778
7.46969 3.7539 -0.680778
7.39169 3.7439 -0.673778
7.36369 3.7589 -0.671778
7.27769 3.7439 -0.662778
7.24669 3.7569 -0.660778
7.18169 3.7529 -0.654778
7.15069 3.7509 -0.651778
7.08469 3.7449 -0.644778
7.04669 3.7529 -0.641778
6.98169 3.7469 -0.635778
6.93669 3.7509 -0.631778
6.89869 3.7589 -0.628778
6.84169 3.7559 -0.622778
6.79669 3.7449 -0.618778
6.75069 3.7479 -0.614778
6.70169 3.7479 -0.609778
6.65069 3.7469 -0.605778
6.61069 3.7519 -0.601778
6.56069 3.7519 -0.597778
6.52569 3.7449 -0.593778
6.47569 3.7439 -0.589778
6.42569 3.7419 -0.584778
6.37669 3.7399 -0.579778
6.33569 3.7429 -0.576778
6.30369 3.7509 -0.573778
6.24669 3.7449 -0.568778
6.22069 3.7419 -0.566778
6.13769 3.7449 -0.558778
6.09369 3.7449 -0.554778
6.04069 3.7389 -0.549778
6.00369 3.7419 -0.546778
5.96869 3.7459 -0.543778
5.85669 3.7409 -0.533778
5.81969 3.7429 -0.530778
5.77769 3.7419 -0.526778
5.74569 3.7469 -0.524778
5.59469 3.7379 -0.510778
5.55669 3.7379 -0.507778
5.52469 3.7419 -0.504778
5.48669 3.7409 -0.501778
5.42669 3.7379 -0.496778
5.35369 3.7379 -0.489778
5.32369 3.7419 -0.487778
5.28569 3.7409 -0.484778
5.26169 3.7479 -0.482778
5.22969 3.7379 -0.479778
5.19469 3.7379 -0.476778
5.16069 3.7379 -0.473778
5.13569 3.7449 -0.471778
5.09169 3.7379 -0.467778
5.06769 3.7439 -0.465778
5.03469 3.7449 -0.463778
4.94269 3.7379 -0.455778
4.91369 3.7399 -0.452778
4.88169 3.7399 -0.450778
4.84869 3.7399 -0.447778
4.82469 3.7449 -0.445778
4.73569 3.7359 -0.437778
4.70969 3.7399 -0.436778
4.68069 3.7409 -0.433778
4.65469 3.7449 -0.431778
10.9727 3.7519 -1.09478
10.8667 3.7529 -1.08378
10.7767 3.7599 -1.07478
10.6787 3.7629 -1.06478
10.5687 3.7619 -1.05278
10.4867 3.7509 -1.04378
10.3907 3.7529 -1.03478
10.2967 3.7549 -1.02478
10.2087 3.7589 -1.01578
10.1087 3.7589 -1.00478
10.0177 3.7599 -0.995778
9.84869 3.7499 -0.977778
9.76469 3.7529 -0.968778
9.68069 3.7549 -0.960778
9.59169 3.7549 -0.951778
9.50969 3.7569 -0.942778
9.43869 3.7629 -0.935778
9.34969 3.7609 -0.926778
9.27869 3.7499 -0.918778
9.20469 3.7529 -0.911778
9.13369 3.7579 -0.904778
9.05069 3.7569 -0.895778
8.98569 3.7629 -0.889778
8.90469 3.7609 -0.880778
8.84169 3.7509 -0.873778
8.76069 3.7489 -0.865778
8.70269 3.7569 -0.860778
8.62969 3.7569 -0.852778
8.56469 3.7609 -0.846778
8.49069 3.7599 -0.838778
8.36869 3.7519 -0.825778
8.28969 3.7479 -0.817778
8.23969 3.7569 -0.813778
8.04569 3.7599 -0.793778
7.94569 3.7579 -0.783778
7.88669 3.7609 -0.777778
7.76169 3.7609 -0.765778
7.23069 3.7579 -0.712778
7.12169 3.7579 -0.701778
6.95469 3.7529 -0.685778
6.88469 3.7569 -0.678778
6.77569 3.7529 -0.667778
6.72569 3.7529 -0.662778
6.51569 3.7569 -0.642778
6.47169 3.7579 -0.638778
6.33469 3.7589 -0.625778
6.25769 3.7529 -0.617778
6.17769 3.7579 -0.610778
6.08969 3.7559 -0.602778
6.02169 3.7529 -0.595778
5.96269 3.7429 -0.589778
5.90269 3.7559 -0.584778
5.86069 3.7549 -0.580778
5.74769 3.7469 -0.569778
5.66269 3.7419 -0.561778
5.58469 3.7409 -0.554778
5.51169 3.7539 -0.548778
5.47369 3.7529 -0.544778
5.43669 3.7539 -0.541778
5.40569 3.7569 -0.538778
5.33469 3.7569 -0.532778
5.27669 3.7539 -0.526778
5.08069 3.7469 -0.508778
5.01869 3.7499 -0.503778
4.95569 3.7509 -0.498778
4.89769 3.7559 -0.493778
4.83769 3.7459 -0.487778
4.77969 3.7489 -0.482778
4.67469 3.7499 -0.473778
10.0857 3.7489 -1.06878
9.99169 3.7509 -1.05878
9.90269 3.7529 -1.04878
9.80669 3.7519 -1.03778
9.65769 3.7469 -1.02178
9.47669 3.7459 -1.00178
9.39769 3.7499 -0.993778
9.30869 3.7479 -0.983778
9.24169 3.7549 -0.976778
9.02269 3.7499 -0.952778
8.94669 3.7509 -0.944778
8.87069 3.7529 -0.936778
8.79669 3.7539 -0.928778
8.72869 3.7579 -0.921778
8.66569 3.7469 -0.914778
8.59369 3.7479 -0.906778
8.52769 3.7509 -0.899778
8.44869 3.7479 -0.890778
8.38369 3.7519 -0.884778
8.32169 3.7549 -0.877778
8.24769 3.7529 -0.869778
8.20269 3.7479 -0.864778
8.12769 3.7449 -0.856778
8.06169 3.7459 -0.849778
8.00069 3.7479 -0.843778
7.93869 3.7499 -0.836778
7.87969 3.7529 -0.830778
7.77069 3.7459 -0.818778
7.70769 3.7459 -0.811778
7.64369 3.7449 -0.805778
7.58869 3.7479 -0.799778
7.53469 3.7499 -0.794778
7.47669 3.7509 -0.788778
7.43369 3.7439 -0.783778
7.37569 3.7439 -0.777778
7.32469 3.7479 -0.772778
7.27069 3.7489 -0.766778
7.21769 3.7509 -0.761778
7.16569 3.7519 -0.755778
7.11669 3.7549 -0.750778
7.06169 3.7409 -0.744778
7.01869 3.7459 -0.740778
6.96069 3.7439 -0.734778
6.92269 3.7519 -0.730778
6.87269 3.7529 -0.725778
6.81869 3.7509 -0.719778
6.78869 3.7489 -0.716778
6.73669 3.7479 -0.711778
6.68669 3.7479 -0.706778
6.64569 3.7519 -0.702778
6.59369 3.7509 -0.696778
6.54769 3.7519 -0.692778
6.50269 3.7539 -0.687778
6.46569 3.7459 -0.683778
6.41469 3.7429 -0.678778
6.37369 3.7459 -0.674778
6.33669 3.7509 -0.670778
6.29569 3.7539 -0.666778
6.24469 3.7499 -0.661778
6.20369 3.7529 -0.657778
6.16569 3.7429 -0.653778
6.12969 3.7479 -0.649778
6.08569 3.7469 -0.645778
6.03969 3.7459 -0.640778
6.00669 3.7509 -0.637778
5.96769 3.7529 -0.634778
5.92569 3.7529 -0.629778
5.90069 3.7499 -0.627778
5.86269 3.7519 -0.623778
5.82169 3.7519 -0.619778
5.76869 3.7439 -0.613778
5.73469 3.7479 -0.610778
5.69869 3.7489 -0.607778
5.67169 3.7569 -0.605778
5.63869 3.7489 -0.601778
5.60269 3.7499 -0.598778
5.57069 3.7539 -0.595778
5.53269 3.7539 -0.591778
5.49469 3.7539 -0.587778
5.46169 3.7559 -0.584778
5.43569 3.7509 -0.582778
5.38669 3.7429 -0.576778
5.35969 3.7489 -0.574778
5.32569 3.7499 -0.571778
5.29869 3.7569 -0.569778
5.26469 3.7569 -0.566778
5.17369 3.7539 -0.557778
5.10669 3.7549 -0.550778
5.02369 3.7559 -0.543778
4.98369 3.7509 -0.539778
4.95569 3.7539 -0.536778
4.80469 3.7489 -0.522778
4.77769 3.7509 -0.519778
4.75169 3.7549 -0.517778
4.72069 3.7559 -0.515778
4.65069 3.7479 -0.508778
9.54169 3.7509 -1.06778
9.44469 3.7469 -1.05678
9.36469 3.7489 -1.04778
9.29569 3.7549 -1.04078
9.15469 3.7479 -1.02378
9.07369 3.7479 -1.01478
8.99969 3.7499 -1.00678
8.92769 3.7529 -0.998778
8.85369 3.7549 -0.989778
8.72269 3.7479 -0.974778
8.65269 3.7489 -0.967778
8.58069 3.7499 -0.958778
8.51469 3.7529 -0.951778
8.44469 3.7539 -0.943778
8.38069 3.7569 -0.936778
8.31869 3.7439 -0.929778
8.25269 3.7459 -0.921778
8.19369 3.7499 -0.915778
8.12669 3.7499 -0.908778
8.05869 3.7489 -0.900778
7.99669 3.7509 -0.893778
7.94169 3.7549 -0.887778
7.88969 3.7459 -0.881778
7.82769 3.7459 -0.874778
7.75869 3.7429 -0.866778
7.71269 3.7509 -0.862778
7.64569 3.7479 -0.854778
7.58469 3.7469 -0.847778
7.48569 3.7419 -0.836778
7.39069 3.7519 -0.826778
7.32269 3.7459 -0.819778
7.25969 3.7429 -0.812778
7.21769 3.7499 -0.807778
7.18069 3.7449 -0.803778
7.07269 3.7449 -0.791778
7.02769 3.7489 -0.787778
6.97069 3.7469 -0.780778
6.92869 3.7519 -0.776778
6.87569 3.7509 -0.770778
6.83269 3.7419 -0.765778
6.79569 3.7489 -0.762778
6.74669 3.7499 -0.756778
6.69169 3.7469 -0.750778
6.65569 3.7539 -0.747778
6.60969 3.7549 -0.742778
6.55469 3.7509 -0.736778
6.52169 3.7449 -0.732778
6.47769 3.7469 -0.727778
6.42569 3.7439 -0.722778
6.39069 3.7499 -0.718778
6.34769 3.7519 -0.714778
6.29469 3.7469 -0.708778
6.26669 3.7569 -0.706778
6.22869 3.7469 -0.701778
6.17569 3.7419 -0.695778
6.14069 3.7469 -0.692778
6.10469 3.7509 -0.688778
6.05069 3.7439 -0.682778
6.01369 3.7469 -0.679778
5.98769 3.7439 -0.676778
5.94569 3.7439 -0.671778
5.90869 3.7459 -0.668778
5.86869 3.7469 -0.664778
5.78369 3.7429 -0.655778
5.74169 3.7419 -0.650778
5.72169 3.7409 -0.648778
5.64669 3.7429 -0.640778
5.60669 3.7409 -0.636778
5.58469 3.7519 -0.635778
5.53369 3.7429 -0.629778
5.50969 3.7389 -0.626778
5.47569 3.7409 -0.623778
5.44869 3.7479 -0.621778
5.40269 3.7409 -0.616778
5.37369 3.7459 -0.613778
5.33669 3.7449 -0.609778
5.30769 3.7489 -0.607778
5.28069 3.7429 -0.603778
5.24969 3.7449 -0.600778
5.21369 3.7439 -0.597778
5.17569 3.7419 -0.593778
5.14869 3.7459 -0.590778
5.11869 3.7499 -0.588778
5.08769 3.7509 -0.585778
5.05669 3.7399 -0.581778
5.03269 3.7469 -0.579778
5.00969 3.7539 -0.577778
4.96769 3.7469 -0.573778
4.94269 3.7529 -0.571778
4.89969 3.7439 -0.566778
4.87669 3.7509 -0.564778
4.84469 3.7379 -0.560778
4.82169 3.7449 -0.558778
4.78869 3.7429 -0.555778
4.77069 3.7529 -0.554778
4.72469 3.7399 -0.549778
4.70369 3.7479 -0.547778
4.65369 3.7439 -0.542778
8.67669 3.7449 -1.01878
8.60269 3.7449 -1.00978
8.28469 3.7479 -0.972778
7.84469 3.7449 -0.921778
7.78269 3.7459 -0.914778
7.40169 3.7509 -0.870778
7.13669 3.7459 -0.840778
7.08969 3.7499 -0.835778
7.03069 3.7469 -0.828778
6.89269 3.7439 -0.812778
6.84069 3.7429 -0.806778
6.79869 3.7489 -0.802778
6.74769 3.7479 -0.796778
6.69369 3.7459 -0.790778
6.57269 3.7469 -0.777778
6.52269 3.7459 -0.771778
6.47469 3.7459 -0.766778
6.43069 3.7469 -0.761778
6.39769 3.7409 -0.757778
6.30869 3.7429 -0.747778
6.25969 3.7409 -0.742778
6.22169 3.7449 -0.738778
6.17469 3.7429 -0.732778
6.13269 3.7439 -0.728778
5.93569 3.7409 -0.706778
5.89369 3.7399 -0.702778
5.71069 3.7389 -0.682778
5.67369 3.7409 -0.678778
5.53669 3.7389 -0.663778
5.46369 3.7399 -0.656778
5.29669 3.7379 -0.638778
5.19669 3.7409 -0.628778
5.04269 3.7399 -0.612778
4.94369 3.7399 -0.602778
4.76669 3.7379 -0.584778
8.63169 3.7559 -1.07978
5.72769 3.7579 -0.733778
5.67969 3.7509 -0.727778
5.64869 3.7559 -0.724778
5.61369 3.7579 -0.720778
5.57269 3.7559 -0.715778
5.51169 3.7529 -0.708778
5.47569 3.7529 -0.704778
5.40969 3.7579 -0.697778
5.27969 3.7539 -0.683778
5.06069 3.7549 -0.659778
5.02469 3.7529 -0.655778
8.08869 3.7589 -1.07278
8.00669 3.7519 -1.06278
7.96269 3.7619 -1.05778
7.90069 3.7629 -1.04978
7.79369 3.7579 -1.03578
7.72869 3.7559 -1.02678
7.67569 3.7609 -1.02078
7.61569 3.7609 -1.01278
7.55269 3.7599 -1.00478
7.49769 3.7619 -0.997778
7.40469 3.7589 -0.985778
7.34469 3.7579 -0.978778
7.29569 3.7619 -0.972778
7.23469 3.7599 -0.964778
7.04269 3.7589 -0.940778
6.60469 3.7569 -0.886778
6.43869 3.7569 -0.865778
6.39069 3.7569 -0.859778
6.33969 3.7539 -0.853778
6.13869 3.7539 -0.828778
6.10269 3.7579 -0.824778
6.06069 3.7589 -0.819778
5.90969 3.7569 -0.801778
5.79069 3.7589 -0.787778
5.75269 3.7589 -0.783778
5.60569 3.7519 -0.765778
5.49769 3.7559 -0.752778
5.40569 3.7569 -0.742778
7.55469 3.7539 -1.04278
7.48569 3.7489 -1.03378
7.39269 3.7449 -1.02078
7.33369 3.7439 -1.01378
7.29369 3.7529 -1.00878
7.24269 3.7549 -1.00278
7.18069 3.7509 -0.993778
7.12469 3.7509 -0.986778
7.08569 3.7439 -0.981778
7.04469 3.7509 -0.976778
6.98669 3.7479 -0.968778
6.94569 3.7539 -0.963778
6.88369 3.7479 -0.955778
6.85469 3.7599 -0.952778
6.80169 3.7589 -0.945778
6.76469 3.7519 -0.940778
6.71469 3.7519 -0.933778
6.66669 3.7519 -0.927778
6.62869 3.7589 -0.923778
6.57369 3.7549 -0.916778
6.52669 3.7539 -0.910778
6.48469 3.7439 -0.904778
6.43569 3.7419 -0.897778
6.40269 3.7499 -0.894778
6.36069 3.7519 -0.889778
6.31169 3.7499 -0.882778
6.27369 3.7539 -0.878778
6.22469 3.7509 -0.872778
6.19369 3.7459 -0.867778
6.15169 3.7459 -0.862778
6.10969 3.7469 -0.857778
6.06069 3.7429 -0.850778
6.03369 3.7529 -0.848778
5.99569 3.7549 -0.843778
5.95669 3.7569 -0.839778
5.93269 3.7539 -0.835778
5.89269 3.7549 -0.830778
5.84769 3.7519 -0.825778
5.80769 3.7519 -0.820778
5.76369 3.7489 -0.814778
5.72469 3.7489 -0.809778
5.69269 3.7539 -0.806778
5.65569 3.7419 -0.800778
5.61569 3.7409 -0.796778
5.58769 3.7469 -0.793778
5.55169 3.7479 -0.788778
5.51669 3.7499 -0.784778
5.47069 3.7439 -0.778778
5.44769 3.7529 -0.776778
5.42169 3.7479 -0.773778
5.39069 3.7509 -0.769778
5.36469 3.7579 -0.767778
5.32169 3.7529 -0.761778
5.28969 3.7549 -0.757778
5.25469 3.7549 -0.753778
5.23569 3.7539 -0.751778
5.19669 3.7509 -0.746778
5.12769 3.7489 -0.738778
5.09769 3.7519 -0.735778
5.06569 3.7529 -0.731778
5.03469 3.7539 -0.727778
5.01669 3.7529 -0.725778
4.98669 3.7549 -0.722778
4.94269 3.7459 -0.716778
4.92469 3.7569 -0.715778
4.89169 3.7559 -0.711778
4.85069 3.7479 -0.705778
4.83169 3.7459 -0.703778
4.80169 3.7469 -0.700778
4.73769 3.7449 -0.692778
4.72169 3.7559 -0.691778
4.68469 3.7509 -0.687778
7.19469 3.7439 -1.05378
7.09369 3.7489 -1.04078
7.02969 3.7429 -1.03078
6.91069 3.7499 -1.01578
6.85769 3.7499 -1.00878
6.80969 3.7509 -1.00178
6.76469 3.7539 -0.996778
6.71269 3.7539 -0.989778
6.67469 3.7459 -0.983778
6.62969 3.7479 -0.977778
6.57969 3.7479 -0.971778
6.53569 3.7499 -0.965778
6.48969 3.7509 -0.959778
6.44669 3.7529 -0.953778
6.39969 3.7529 -0.947778
6.36469 3.7459 -0.942778
6.32669 3.7509 -0.937778
6.27069 3.7439 -0.929778
6.25069 3.7589 -0.928778
6.19169 3.7499 -0.919778
6.15369 3.7539 -0.915778
6.11169 3.7549 -0.909778
6.08869 3.7539 -0.906778
6.03669 3.7489 -0.899778
6.01369 3.7599 -0.897778
5.95469 3.7499 -0.888778
5.92569 3.7579 -0.885778
5.87869 3.7539 -0.879778
5.84269 3.7569 -0.874778
5.81469 3.7519 -0.871778
5.76269 3.7449 -0.863778
5.72669 3.7469 -0.859778
5.69269 3.7509 -0.855778
5.65969 3.7539 -0.851778
5.61669 3.7509 -0.845778
5.59469 3.7489 -0.842778
5.55469 3.7479 -0.837778
5.52169 3.7509 -0.833778
5.47869 3.7469 -0.827778
5.45069 3.7529 -0.824778
5.41369 3.7539 -0.820778
5.38169 3.7559 -0.816778
5.35269 3.7489 -0.811778
5.32169 3.7519 -0.808778
5.29469 3.7579 -0.805778
5.24969 3.7509 -0.799778
5.21469 3.7509 -0.795778
5.18269 3.7529 -0.791778
5.15869 3.7479 -0.787778
5.11769 3.7439 -0.782778
5.08869 3.7469 -0.778778
5.06369 3.7529 -0.776778
5.02669 3.7499 -0.771778
4.99469 3.7509 -0.767778
4.95869 3.7489 -0.763778
4.93769 3.7449 -0.760778
4.90969 3.7479 -0.757778
4.88169 3.7519 -0.754778
4.84569 3.7479 -0.749778
4.82269 3.7539 -0.747778
4.78769 3.7509 -0.742778
4.75869 3.7529 -0.739778
4.73869 3.7499 -0.736778
4.70969 3.7509 -0.733778
6.23069 3.7449 -1.03778
6.18669 3.7449 -1.03178
6.16169 3.7559 -1.02978
6.13869 3.7559 -1.02578
5.87469 3.7599 -0.990778
5.62469 3.7489 -1.02378
5.58169 3.7459 -1.01678
5.54469 3.7469 -1.01178
5.50369 3.7449 -1.00578
5.47969 3.7409 -1.00278
5.41069 3.7449 -0.992778
5.36869 3.7399 -0.986778
5.34369 3.7479 -0.983778
5.30269 3.7439 -0.977778
5.28069 3.7539 -0.975778
5.24669 3.7419 -0.970778
5.21869 3.7469 -0.966778
5.19169 3.7529 -0.963778
5.15769 3.7529 -0.959778
5.12569 3.7539 -0.954778
5.08369 3.7479 -0.948778
5.05969 3.7439 -0.944778
5.03069 3.7469 -0.941778
4.98869 3.7399 -0.934778
4.97269 3.7519 -0.933778
4.93869 3.7509 -0.929778
4.78969 3.7469 -0.908778
4.76569 3.7519 -0.906778
4.73369 3.7509 -0.901778
4.70069 3.7489 -0.897778
5.23269 3.7529 -1.02678
5.20369 3.7569 -1.02278
2.71069 3.6339 0.353222
2.59269 3.6509 0.352222
2.57369 3.6489 0.351222
2.55869 3.6519 0.351222
2.46669 3.6529 0.349222
2.40669 3.6499 0.348222
2.32969 3.6559 0.347222
2.25869 3.6569 0.345222
2.12669 3.6579 0.343222
2.00569 3.6579 0.341222
1.91569 3.6539 0.340222
1.75969 3.6589 0.337222
2.89269 3.6439 0.327222
2.88369 3.6459 0.327222
2.79569 3.6509 0.326222
2.77069 3.6419 0.325222
2.70769 3.6419 0.324222
2.67769 3.6489 0.324222
2.65869 3.6359 0.323222
2.56269 3.6459 0.322222
2.51269 3.6369 0.321222
2.50469 3.6499 0.321222
2.48669 3.6479 0.321222
2.42069 3.6369 0.320222
2.41069 3.6459 0.320222
2.37369 3.6409 0.319222
2.36369 3.6499 0.319222
2.31669 3.6399 0.318222
2.30669 3.6489 0.318222
2.25269 3.6399 0.317222
2.23969 3.6449 0.317222
2.22969 3.6419 0.317222
2.21369 3.6409 0.317222
2.20069 3.6459 0.317222
2.17269 3.6509 0.316222
2.12969 3.6439 0.316222
2.00969 3.6589 0.314222
1.84669 3.6439 0.312222
1.82869 3.6509 0.312222
1.80969 3.6419 0.311222
1.72269 3.6529 0.311222
1.69769 3.6599 0.310222
1.67869 3.6489 0.310222
1.66969 3.6439 0.310222
1.64969 3.6599 0.310222
1.63369 3.6559 0.310222
1.59369 3.6589 0.309222
1.57469 3.6629 0.309222
1.55569 3.6509 0.309222
1.54769 3.6629 0.309222
1.50269 3.6539 0.308222
1.48069 3.6479 0.308222
1.47369 3.6639 0.308222
2.03669 3.6559 0.295222
3.13269 3.6439 0.272222
3.08669 3.6479 0.271222
2.97069 3.6379 0.270222
2.93269 3.6379 0.270222
2.91669 3.6409 0.270222
2.89769 3.6409 0.269222
2.82969 3.6379 0.269222
2.81369 3.6399 0.269222
2.79469 3.6399 0.269222
2.77369 3.6359 0.268222
2.72669 3.6339 0.268222
2.70969 3.6339 0.268222
2.69569 3.6399 0.268222
2.68169 3.6449 0.268222
2.65569 3.6339 0.267222
2.63969 3.6359 0.267222
2.55269 3.6469 0.266222
2.54069 3.6549 0.266222
2.51769 3.6459 0.266222
2.17369 3.6419 0.263222
2.14269 3.6419 0.263222
2.12569 3.6399 0.263222
2.11569 3.6479 0.263222
2.05869 3.6419 0.262222
2.04469 3.6449 0.262222
2.02869 3.6419 0.262222
2.01369 3.6419 0.262222
1.99069 3.6409 0.262222
1.96169 3.6429 0.262222
1.93169 3.6419 0.261222
1.90969 3.6429 0.261222
1.88069 3.6419 0.261222
1.79269 3.6529 0.261222
1.77569 3.6479 0.260222
1.75969 3.6439 0.260222
1.74969 3.6519 0.260222
1.73669 3.6549 0.260222
1.69769 3.6469 0.260222
1.68369 3.6469 0.260222
1.65669 3.6489 0.260222
1.64369 3.6499 0.260222
1.63669 3.6509 0.260222
1.62269 3.6509 0.259222
1.54869 3.6519 0.259222
1.53569 3.6539 0.259222
1.52069 3.6509 0.259222
1.50669 3.6499 0.259222
1.49169 3.6459 0.259222
1.46769 3.6529 0.259222
1.45869 3.6459 0.258222
1.44669 3.6509 0.258222
1.43669 3.6569 0.258222
3.69169 3.6329 0.251222
3.65169 3.6389 0.250222
3.61069 3.6439 0.250222
