7.12079 -2.8029 -1.7222
7.13379 -2.7819 -1.7232
7.12179 -2.7649 -1.7182
7.14479 -2.7479 -1.7222
7.15479 -2.7259 -1.7232
7.16179 -2.7029 -1.7222
7.15779 -2.6759 -1.7192
7.18279 -2.6589 -1.7232
7.17579 -2.6309 -1.7192
7.17079 -2.6169 -1.7172
7.20279 -2.6029 -1.7232
7.20779 -2.5789 -1.7222
7.19179 -2.5479 -1.7162
7.22679 -2.5349 -1.7232
7.21879 -2.5059 -1.7192
7.21579 -2.4799 -1.7162
7.22879 -2.4719 -1.7182
7.23079 -2.4469 -1.7172
7.24179 -2.4259 -1.7182
7.26079 -2.4069 -1.7212
7.25379 -2.3789 -1.7172
7.25679 -2.3549 -1.7162
7.27179 -2.3469 -1.7192
7.27179 -2.3219 -1.7172
7.26579 -2.2949 -1.7142
7.29179 -2.2529 -1.7162
7.28579 -2.2259 -1.7132
7.30579 -2.1939 -1.7162
7.30879 -2.1699 -1.7152
7.31979 -2.1229 -1.7142
7.32279 -2.0989 -1.7132
7.34379 -2.0679 -1.7162
7.34879 -2.0439 -1.7162
7.33779 -2.0169 -1.7112
7.37079 -2.0009 -1.7182
7.36179 -1.9739 -1.7142
7.38179 -1.9539 -1.7172
7.37979 -1.9289 -1.7162
7.37379 -1.9149 -1.7132
7.38679 -1.8929 -1.7152
7.39479 -1.8709 -1.7162
7.39679 -1.8469 -1.7152
7.39179 -1.8199 -1.7122
7.41579 -1.8019 -1.7162
7.42179 -1.7789 -1.7162
7.41679 -1.7649 -1.7152
7.42379 -1.7179 -1.7142
7.42579 -1.6929 -1.7132
7.43979 -1.6479 -1.7142
7.45279 -1.5889 -1.7142
7.46379 -1.5179 -1.7132
7.24079 0.0680966 -1.6992
7.25979 0.0910966 -1.7032
7.24579 0.102097 -1.7002
7.25179 0.125097 -1.7022
7.23579 0.147097 -1.6982
7.24979 0.193097 -1.7022
7.25079 0.216097 -1.7022
7.22979 0.227097 -1.6972
7.24279 0.250097 -1.7002
7.23979 0.273097 -1.7002
7.24479 0.296097 -1.7012
7.23979 0.318097 -1.7002
7.23879 0.375097 -1.7012
7.19079 0.759097 -1.6962
7.18979 0.793097 -1.6972
7.16779 0.928097 -1.6952
7.16779 0.939097 -1.6962
7.16279 0.962097 -1.6952
7.16279 1.0071 -1.6972
7.15579 1.0291 -1.6962
7.14879 1.0741 -1.6962
7.13579 1.0841 -1.6932
7.13079 1.1061 -1.6922
7.12679 1.1281 -1.6922
7.13079 1.1521 -1.6942
7.11979 1.1731 -1.6922
7.11779 1.2191 -1.6942
7.10279 1.2511 -1.6912
7.10579 1.2741 -1.6932
7.10979 1.2981 -1.6952
7.10179 1.3201 -1.6942
7.08279 1.4201 -1.6942
6.87479 2.0201 -1.6802
6.52879 -3.3529 -1.7232
6.55579 -3.3399 -1.7282
6.58179 -3.3019 -1.7292
6.58779 -3.2789 -1.7282
6.60879 -3.2639 -1.7312
6.59979 -3.2459 -1.7272
6.60679 -3.2239 -1.7262
6.61679 -3.2029 -1.7262
6.61679 -3.1769 -1.7232
6.61079 -3.1489 -1.7192
6.62779 -3.1319 -1.7212
6.60379 -3.1079 -1.7132
6.64679 -3.0769 -1.7202
6.64679 -3.0259 -1.7142
6.66679 -3.0099 -1.7172
6.66079 -2.9699 -1.7122
6.68479 -2.9559 -1.7162
6.70179 -2.8879 -1.7132
6.70479 -2.8649 -1.7112
6.71279 -2.8309 -1.7102
6.73779 -2.7909 -1.7122
6.73979 -2.7669 -1.7102
6.74479 -2.7449 -1.7092
6.75279 -2.7229 -1.7092
6.76179 -2.7019 -1.7092
6.78179 -2.6729 -1.7112
6.80679 -2.6089 -1.7112
6.80179 -2.5829 -1.7072
6.83179 -2.5089 -1.7082
6.83379 -2.4849 -1.7062
6.85279 -2.4429 -1.7072
6.86079 -2.4099 -1.7062
6.86479 -2.3869 -1.7052
6.87779 -2.3429 -1.7052
6.88679 -2.3219 -1.7052
6.89079 -2.2989 -1.7042
6.90279 -2.2669 -1.7052
6.93679 -2.1819 -1.7062
6.93179 -2.1449 -1.7032
6.94079 -2.1239 -1.7032
6.95579 -2.0809 -1.7032
6.97079 -2.0369 -1.7042
6.98479 -1.9589 -1.7022
7.00979 -1.8829 -1.7032
7.00279 -1.8569 -1.7002
7.03079 -1.8179 -1.7042
7.02779 -1.7929 -1.7022
7.02779 -1.7699 -1.7002
7.04279 -1.7379 -1.7022
7.03879 -1.7139 -1.7002
7.06379 -1.6959 -1.7042
7.05179 -1.6699 -1.7002
7.05079 -1.6469 -1.6992
7.05479 -1.6239 -1.6982
7.07779 -1.6179 -1.7032
7.05979 -1.5899 -1.6982
7.08179 -1.5719 -1.7022
7.07779 -1.5479 -1.7002
7.08079 -1.5249 -1.6992
7.08379 -1.5019 -1.6992
7.09979 -1.4819 -1.7022
7.08479 -1.4679 -1.6972
7.10279 -1.4479 -1.7012
7.11479 -1.4269 -1.7032
7.10579 -1.4019 -1.6992
7.10679 -1.3789 -1.6982
7.13879 -1.3619 -1.7052
7.12879 -1.3249 -1.7012
7.13979 -1.3039 -1.7032
7.12179 -1.2779 -1.6972
7.14779 -1.2599 -1.7032
7.14479 -1.2359 -1.7012
7.14279 -1.2119 -1.7002
7.14779 -1.1899 -1.7002
7.16779 -1.1819 -1.7042
7.14979 -1.1559 -1.6992
7.17079 -1.1359 -1.7032
7.16079 -1.1119 -1.7002
7.14879 -1.0869 -1.6962
7.15579 -1.0649 -1.6972
7.19379 -1.0469 -1.7062
7.16879 -1.0319 -1.6992
7.17379 -1.0099 -1.7002
7.18879 -0.988903 -1.7032
7.17079 -0.963903 -1.6972
7.17179 -0.940903 -1.6972
7.18779 -0.919903 -1.7002
7.17979 -0.895903 -1.6972
7.18279 -0.884903 -1.6982
7.20079 -0.863903 -1.7022
7.19579 -0.840903 -1.7002
7.20379 -0.818903 -1.7012
7.20679 -0.795903 -1.7012
7.19779 -0.771903 -1.6982
7.20679 -0.761903 -1.7002
7.22279 -0.739903 -1.7032
7.20179 -0.714903 -1.6982
7.24279 -0.695903 -1.7072
7.21779 -0.670903 -1.7012
7.21179 -0.647903 -1.6992
7.23479 -0.626903 -1.7042
7.22679 -0.591903 -1.7012
7.21679 -0.567903 -1.6982
7.24779 -0.547903 -1.7052
7.23179 -0.523903 -1.7012
7.25679 -0.502903 -1.7072
7.24279 -0.478903 -1.7032
7.24179 -0.466903 -1.7032
7.22579 -0.443903 -1.6982
7.25979 -0.422903 -1.7062
7.25679 -0.399903 -1.7052
7.23279 -0.375903 -1.6992
7.24479 -0.295903 -1.7012
7.26279 -0.273903 -1.7052
7.24579 -0.102903 -1.7002
7.25079 9.6598e-05 -1.7012
6.95179 0.0210966 -1.6982
6.95779 0.0430966 -1.6992
6.95779 0.0650966 -1.6992
6.97079 0.0870966 -1.7032
6.96979 0.131097 -1.7032
6.95579 0.163097 -1.6992
6.96879 0.185097 -1.7032
6.96079 0.207097 -1.7012
6.97179 0.229097 -1.7042
6.96779 0.284097 -1.7032
6.95479 0.305097 -1.7002
6.91179 0.817097 -1.7002
6.89079 0.826097 -1.6952
6.89379 0.848097 -1.6962
6.89279 0.892097 -1.6972
6.87779 0.912097 -1.6942
6.88279 0.935097 -1.6962
6.86979 0.955097 -1.6942
6.87879 0.967097 -1.6962
6.86979 0.988097 -1.6952
6.85479 1.0081 -1.6922
6.85979 1.0311 -1.6942
6.86979 1.0541 -1.6972
6.85879 1.0751 -1.6952
6.84579 1.0841 -1.6922
6.84979 1.1291 -1.6952
6.83879 1.1491 -1.6932
6.83879 1.1711 -1.6942
6.83479 1.1921 -1.6942
6.83479 1.2151 -1.6952
6.82979 1.2471 -1.6952
6.82379 1.2681 -1.6952
6.81579 1.3111 -1.6952
6.81479 1.3331 -1.6962
6.80879 1.3651 -1.6962
6.79679 1.3851 -1.6942
6.79379 1.4291 -1.6952
6.78279 1.4711 -1.6952
6.77579 1.4921 -1.6942
6.60879 2.0101 -1.6862
6.18879 -3.3529 -1.7202
6.22679 -3.3479 -1.7282
6.22679 -3.3359 -1.7272
6.23779 -3.3159 -1.7272
6.24279 -3.2939 -1.7252
6.24279 -3.2689 -1.7222
6.25779 -3.2519 -1.7242
6.27379 -3.2349 -1.7252
6.27479 -3.2109 -1.7232
6.27679 -3.1989 -1.7222
6.28779 -3.1799 -1.7222
6.27779 -3.1499 -1.7162
6.29379 -3.1339 -1.7182
6.30279 -3.1129 -1.7182
6.30979 -3.0679 -1.7142
6.31779 -3.0589 -1.7152
6.74679 -1.7219 -1.7012
6.76679 -1.6249 -1.7002
6.78579 -1.6069 -1.7032
6.79679 -1.5419 -1.7022
6.80679 -1.4209 -1.6982
6.81379 -1.3779 -1.6982
6.82879 -1.2809 -1.6972
6.84279 -1.2389 -1.6982
6.84479 -1.2059 -1.6972
6.84779 -1.1849 -1.6972
6.84579 -1.1619 -1.6962
6.86279 -1.1429 -1.6992
6.86079 -1.1199 -1.6982
6.86279 -1.0989 -1.6972
6.87579 -1.0899 -1.7002
6.87579 -1.0669 -1.6992
6.87879 -1.0459 -1.6992
6.87079 -1.0219 -1.6962
6.88679 -1.0029 -1.7002
6.88779 -0.980903 -1.6992
6.90279 -0.960903 -1.7022
6.88879 -0.947903 -1.6982
6.88979 -0.925903 -1.6982
6.89679 -0.904903 -1.6992
6.88979 -0.881903 -1.6962
6.89679 -0.860903 -1.6972
6.90279 -0.839903 -1.6982
6.90379 -0.817903 -1.6982
6.91079 -0.807903 -1.6992
6.91679 -0.785903 -1.7002
6.91979 -0.764903 -1.7002
6.91979 -0.742903 -1.7002
6.90879 -0.718903 -1.6962
6.91279 -0.697903 -1.6972
6.91479 -0.675903 -1.6972
6.91779 -0.665903 -1.6972
6.92979 -0.644903 -1.7002
6.92579 -0.621903 -1.6982
6.93179 -0.600903 -1.6992
6.95279 -0.580903 -1.7042
6.94679 -0.557903 -1.7022
6.94079 -0.535903 -1.7002
6.95179 -0.525903 -1.7032
6.92979 -0.501903 -1.6972
6.94479 -0.480903 -1.7002
6.93879 -0.458903 -1.6982
6.95179 -0.437903 -1.7012
6.94879 -0.415903 -1.7002
6.95979 -0.405903 -1.7032
6.94279 -0.382903 -1.6982
6.94679 -0.360903 -1.6992
6.94979 -0.338903 -1.6992
6.94079 -0.316903 -1.6972
6.95379 -0.295903 -1.7002
6.96779 -0.273903 -1.7032
6.95279 -0.262903 -1.6992
6.95579 -0.240903 -1.7002
6.96579 -0.219903 -1.7022
6.95079 -0.196903 -1.6982
6.96879 -0.175903 -1.7032
6.96379 -0.153903 -1.7012
6.95979 -0.142903 -1.7002
6.94879 -0.120903 -1.6972
6.96479 -0.0989034 -1.7012
6.95879 -0.0769034 -1.7002
6.97079 -0.0549034 -1.7032
6.96579 -0.0329034 -1.7012
6.95979 -0.0119034 -1.7002
6.96779 -0.000903402 -1.7022
6.29179 2.0081 -1.6812
5.85879 -3.3819 -1.7242
5.88779 -3.3739 -1.7302
5.92579 -3.3699 -1.7382
5.98779 -3.2459 -1.7372
6.02179 -3.1789 -1.7362
6.03679 -3.1389 -1.7352
6.03579 -3.1259 -1.7332
6.04079 -3.1049 -1.7312
6.05379 -3.0879 -1.7322
6.06179 -3.0679 -1.7322
6.07179 -3.0489 -1.7322
6.08479 -3.0309 -1.7332
6.07979 -3.0049 -1.7292
6.08479 -2.9959 -1.7292
6.09379 -2.9769 -1.7292
6.08779 -2.9499 -1.7242
6.11279 -2.9379 -1.7292
6.10979 -2.9129 -1.7252
6.12979 -2.8989 -1.7282
6.13179 -2.8759 -1.7262
6.12179 -2.8599 -1.7222
6.14179 -2.8459 -1.7252
6.15079 -2.8269 -1.7252
6.15379 -2.8049 -1.7242
6.16779 -2.7879 -1.7252
6.17279 -2.7669 -1.7242
6.17279 -2.7439 -1.7212
6.17879 -2.7349 -1.7222
6.20179 -2.7209 -1.7262
6.19979 -2.6969 -1.7232
6.21679 -2.6819 -1.7262
6.20179 -2.6519 -1.7192
6.22679 -2.6399 -1.7242
6.22879 -2.6289 -1.7232
6.22979 -2.6069 -1.7212
6.23679 -2.5859 -1.7202
6.24279 -2.5659 -1.7202
6.24879 -2.5459 -1.7192
6.26379 -2.5289 -1.7212
6.26879 -2.5079 -1.7202
6.27079 -2.4969 -1.7202
6.28179 -2.4789 -1.7212
6.28279 -2.4559 -1.7192
6.29579 -2.4389 -1.7202
6.29579 -2.4159 -1.7182
6.30179 -2.3959 -1.7182
6.31479 -2.3779 -1.7192
6.31879 -2.3679 -1.7192
6.33279 -2.3509 -1.7212
6.33679 -2.3289 -1.7202
6.34079 -2.3079 -1.7192
6.34579 -2.2879 -1.7192
6.33479 -2.2609 -1.7142
6.35879 -2.2579 -1.7192
6.35079 -2.2329 -1.7152
6.36179 -2.2149 -1.7162
6.37579 -2.1969 -1.7182
6.37579 -2.1749 -1.7162
6.37879 -2.1529 -1.7152
6.38879 -2.1339 -1.7162
6.38679 -2.1229 -1.7152
6.39679 -2.1039 -1.7162
6.40579 -2.0839 -1.7162
6.41879 -2.0659 -1.7182
6.41879 -2.0439 -1.7162
6.42979 -2.0249 -1.7182
6.43879 -2.0059 -1.7182
6.42679 -1.9909 -1.7142
6.44779 -1.9749 -1.7182
6.44879 -1.9529 -1.7172
6.43379 -1.9269 -1.7112
6.45479 -1.9109 -1.7152
6.45779 -1.8899 -1.7142
6.45779 -1.8679 -1.7132
6.47179 -1.8609 -1.7162
6.46479 -1.8369 -1.7122
6.47579 -1.8179 -1.7142
6.49079 -1.8009 -1.7162
6.48879 -1.7779 -1.7142
6.48179 -1.7539 -1.7102
6.49979 -1.7369 -1.7142
6.50279 -1.7269 -1.7142
6.50279 -1.7049 -1.7132
6.51179 -1.6859 -1.7142
6.50779 -1.6629 -1.7112
6.50379 -1.6399 -1.7082
6.53479 -1.6259 -1.7162
6.52879 -1.6029 -1.7132
6.51979 -1.5899 -1.7092
6.53579 -1.5719 -1.7132
6.54079 -1.5519 -1.7132
6.54579 -1.5309 -1.7132
6.55279 -1.5109 -1.7132
6.54779 -1.4879 -1.7102
6.56179 -1.4799 -1.7142
6.55879 -1.4579 -1.7122
6.56479 -1.4379 -1.7122
6.55579 -1.4139 -1.7082
6.57779 -1.3969 -1.7132
6.58179 -1.3769 -1.7132
6.57079 -1.3529 -1.7092
6.58679 -1.3449 -1.7132
6.57879 -1.3219 -1.7092
6.58479 -1.3019 -1.7102
6.59879 -1.2829 -1.7132
6.59679 -1.2609 -1.7112
6.58379 -1.2369 -1.7062
6.61279 -1.2209 -1.7132
6.60679 -1.2089 -1.7112
6.59579 -1.1859 -1.7072
6.62179 -1.1689 -1.7132
6.62379 -1.1479 -1.7132
6.61379 -1.1249 -1.7092
6.62879 -1.1059 -1.7122
6.64179 -1.0869 -1.7152
6.62779 -1.0739 -1.7102
6.63879 -1.0539 -1.7132
6.63279 -1.0319 -1.7102
6.63979 -1.0119 -1.7112
6.64879 -0.991903 -1.7132
6.65579 -0.970903 -1.7142
6.63579 -0.946903 -1.7072
6.66179 -0.939903 -1.7142
6.65579 -0.917903 -1.7122
6.65679 -0.896903 -1.7112
6.66379 -0.854903 -1.7122
6.66079 -0.833903 -1.7102
6.65979 -0.822903 -1.7092
6.67279 -0.802903 -1.7122
6.67879 -0.782903 -1.7132
6.67679 -0.760903 -1.7122
6.67579 -0.739903 -1.7112
6.67379 -0.717903 -1.7102
6.68379 -0.697903 -1.7122
6.67979 -0.686903 -1.7102
6.70779 -0.213903 -1.7092
6.45679 0.0080966 -1.6982
6.47279 0.0180966 -1.7022
6.46079 0.0390966 -1.6992
6.47379 0.0590966 -1.7022
6.46079 0.0790966 -1.6992
6.46079 0.100097 -1.6992
6.45779 0.120097 -1.6982
6.46679 0.140097 -1.7012
6.45379 0.150097 -1.6972
6.46679 0.171097 -1.7012
6.45079 0.191097 -1.6972
6.45979 0.211097 -1.6992
6.46079 0.232097 -1.7002
6.45279 0.252097 -1.6982
6.45379 0.262097 -1.6982
6.45079 0.282097 -1.6982
6.44779 0.302097 -1.6972
6.45479 0.323097 -1.6992
6.45379 0.343097 -1.6992
6.46079 0.364097 -1.7012
6.45579 0.384097 -1.7002
6.46879 0.395097 -1.7042
6.45179 0.414097 -1.7002
6.46179 0.435097 -1.7032
6.45679 0.455097 -1.7022
6.45879 0.476097 -1.7032
6.45379 0.516097 -1.7022
6.45279 0.526097 -1.7022
6.45179 0.628097 -1.7052
6.44179 0.648097 -1.7022
6.44079 0.658097 -1.7022
6.44079 0.678097 -1.7032
6.43679 0.699097 -1.7022
6.43079 0.718097 -1.7012
6.42479 0.738097 -1.7002
6.42179 0.758097 -1.7002
6.41179 0.778097 -1.6982
6.41479 0.788097 -1.6992
6.40879 0.808097 -1.6982
6.40379 0.828097 -1.6982
6.39779 0.847097 -1.6972
6.38479 0.866097 -1.6942
6.38079 0.886097 -1.6932
6.37779 0.896097 -1.6932
6.37479 0.916097 -1.6932
6.37379 0.936097 -1.6932
6.37779 0.957097 -1.6952
6.37479 0.977097 -1.6952
6.35679 0.995097 -1.6912
6.34979 1.0141 -1.6902
6.34579 1.0241 -1.6902
6.34879 1.0451 -1.6912
6.34379 1.0641 -1.6912
6.33779 1.0841 -1.6902
6.34979 1.1061 -1.6942
6.32979 1.1231 -1.6902
6.33379 1.1451 -1.6922
6.33579 1.1551 -1.6932
6.32379 1.1741 -1.6912
6.31279 1.1921 -1.6882
6.31879 1.2141 -1.6912
6.31279 1.2331 -1.6912
6.31279 1.2541 -1.6922
6.29979 1.2721 -1.6892
6.29879 1.2821 -1.6902
6.31179 1.3051 -1.6942
6.29679 1.3231 -1.6912
6.29079 1.3421 -1.6912
6.27479 1.3601 -1.6872
6.27279 1.3801 -1.6882
6.26679 1.3991 -1.6872
6.26979 1.4101 -1.6892
6.27279 1.4311 -1.6912
6.26079 1.4491 -1.6892
6.26179 1.4701 -1.6912
6.25579 1.4901 -1.6902
6.25979 1.5121 -1.6932
6.24579 1.5291 -1.6902
6.26779 1.5451 -1.6972
6.25679 1.5631 -1.6952
6.25079 1.5821 -1.6952
6.25279 1.6041 -1.6972
6.24579 1.6231 -1.6972
6.24079 1.6421 -1.6972
6.24179 1.6531 -1.6982
6.11579 1.9751 -1.6892
5.61079 -3.3679 -1.7222
5.64779 -3.3669 -1.7312
5.67479 -3.3589 -1.7362
5.66479 -3.3289 -1.7292
5.66579 -3.3169 -1.7282
5.68079 -3.3019 -1.7292
5.68979 -3.2839 -1.7292
5.70279 -3.2679 -1.7302
5.71179 -3.2489 -1.7292
5.70979 -3.2239 -1.7262
5.72879 -3.2109 -1.7282
5.73179 -3.2009 -1.7282
5.72679 -3.1739 -1.7232
5.73879 -3.1569 -1.7242
5.75979 -3.1459 -1.7272
5.74679 -3.1149 -1.7202
5.76079 -3.0989 -1.7212
5.76779 -3.0799 -1.7202
5.77479 -3.0489 -1.7182
5.80579 -2.9949 -1.7192
5.98679 -2.5599 -1.7132
6.36979 -1.1029 -1.7002
6.40279 -0.881903 -1.6992
6.39879 -0.840903 -1.6972
6.40679 -0.759903 -1.6962
6.41179 -0.750903 -1.6972
6.41979 -0.730903 -1.6992
6.41979 -0.689903 -1.6982
6.42079 -0.669903 -1.6972
6.42279 -0.628903 -1.6972
6.42579 -0.618903 -1.6972
6.42379 -0.598903 -1.6962
6.45579 -0.581903 -1.7052
6.42879 -0.558903 -1.6972
6.44079 -0.538903 -1.6992
6.43479 -0.517903 -1.6972
6.43779 -0.497903 -1.6982
6.44279 -0.488903 -1.6992
6.43679 -0.467903 -1.6972
6.43979 -0.447903 -1.6972
6.45479 -0.427903 -1.7012
6.43879 -0.406903 -1.6962
6.44179 -0.386903 -1.6972
6.43479 -0.375903 -1.6942
6.44779 -0.356903 -1.6982
6.45279 -0.336903 -1.6992
6.45379 -0.315903 -1.6992
6.45379 -0.295903 -1.6992
6.47079 -0.276903 -1.7032
6.44279 -0.254903 -1.6952
6.46379 -0.245903 -1.7012
6.45479 -0.224903 -1.6982
6.46779 -0.204903 -1.7012
6.46079 -0.184903 -1.6992
6.46279 -0.163903 -1.7002
6.46479 -0.143903 -1.7002
6.46579 -0.123903 -1.7002
6.45779 -0.112903 -1.6982
6.45479 -0.0929034 -1.6972
6.44479 -0.0729034 -1.6942
6.46079 -0.0529034 -1.6992
6.46479 -0.0319034 -1.7002
6.45879 -0.0119034 -1.6982
6.25879 0.0110966 -1.7042
6.24679 0.0310966 -1.7002
6.25779 0.0510966 -1.7042
6.23679 0.0700966 -1.6972
6.25179 0.0900966 -1.7022
6.24779 0.100097 -1.7012
6.23779 0.119097 -1.6982
6.25479 0.139097 -1.7032
6.23679 0.158097 -1.6982
6.23679 0.178097 -1.6982
6.23579 0.197097 -1.6982
6.24279 0.217097 -1.7002
6.23679 0.227097 -1.6992
6.23579 0.246097 -1.6992
6.23379 0.266097 -1.6982
6.23679 0.286097 -1.6992
6.22779 0.305097 -1.6972
6.22479 0.324097 -1.6962
6.22179 0.344097 -1.6962
6.23879 0.355097 -1.7012
6.23579 0.374097 -1.7002
6.23479 0.394097 -1.7002
6.23179 0.413097 -1.7002
6.23579 0.433097 -1.7012
6.23479 0.453097 -1.7012
6.24079 0.463097 -1.7042
6.22679 0.482097 -1.7002
6.22879 0.501097 -1.7012
6.24379 0.523097 -1.7062
6.22979 0.561097 -1.7032
6.22879 0.590097 -1.7032
6.22679 0.610097 -1.7032
6.22679 0.630097 -1.7042
6.22479 0.649097 -1.7042
6.22879 0.669097 -1.7052
6.21479 0.688097 -1.7022
6.21479 0.707097 -1.7032
6.20379 0.716097 -1.7002
6.19579 0.735097 -1.6982
6.19679 0.755097 -1.6992
6.18879 0.773097 -1.6972
6.19579 0.794097 -1.7002
6.19179 0.813097 -1.7002
6.18179 0.832097 -1.6972
6.17479 0.841097 -1.6962
6.19079 0.863097 -1.7012
6.17479 0.880097 -1.6972
6.16079 0.898097 -1.6942
6.15179 0.916097 -1.6922
6.15279 0.936097 -1.6942
6.15379 0.956097 -1.6952
6.15779 0.967097 -1.6962
6.14179 0.984097 -1.6922
6.13479 1.0031 -1.6912
6.13879 1.0231 -1.6942
6.12979 1.0411 -1.6922
6.12679 1.0611 -1.6922
6.13679 1.0821 -1.6962
6.12579 1.0901 -1.6932
6.11879 1.1091 -1.6922
6.11679 1.1281 -1.6922
6.10579 1.1461 -1.6902
6.11679 1.1681 -1.6952
6.10579 1.1861 -1.6922
6.10179 1.1951 -1.6922
6.09679 1.2141 -1.6912
6.09479 1.2341 -1.6922
6.08879 1.2521 -1.6912
6.08479 1.2711 -1.6912
6.08979 1.2931 -1.6942
6.07279 1.3091 -1.6902
6.08779 1.3221 -1.6952
6.07079 1.3381 -1.6912
6.07179 1.3591 -1.6932
6.06179 1.3761 -1.6912
6.07079 1.3981 -1.6952
6.06079 1.4161 -1.6942
6.06379 1.4271 -1.6952
6.04779 1.4431 -1.6922
6.04579 1.4631 -1.6922
6.04879 1.4841 -1.6952
6.05279 1.5051 -1.6972
6.03379 1.5201 -1.6932
6.03779 1.5421 -1.6962
6.03579 1.5511 -1.6962
6.03579 1.5711 -1.6972
5.89479 1.9681 -1.6912
5.35379 -3.3719 -1.7242
5.38279 -3.3669 -1.7302
5.39679 -3.3519 -1.7312
5.39979 -3.3419 -1.7302
5.41079 -3.3249 -1.7302
5.42879 -3.3129 -1.7332
5.44479 -3.2989 -1.7352
5.45179 -3.2799 -1.7342
5.46979 -3.2679 -1.7362
5.46679 -3.2429 -1.7322
5.46679 -3.2309 -1.7302
5.48679 -3.2199 -1.7342
5.48879 -3.1979 -1.7312
5.50279 -3.1819 -1.7322
5.49779 -3.1569 -1.7272
5.51379 -3.1429 -1.7292
5.51079 -3.1299 -1.7262
5.51179 -3.1079 -1.7242
5.52679 -3.0929 -1.7252
5.55679 -3.0869 -1.7322
5.53579 -3.0529 -1.7222
5.55679 -3.0419 -1.7262
5.55279 -3.0169 -1.7212
5.55979 -3.0089 -1.7222
5.57079 -2.9929 -1.7232
5.58479 -2.9779 -1.7242
5.58979 -2.9579 -1.7232
5.59379 -2.9369 -1.7212
5.59579 -2.9159 -1.7192
5.60679 -2.8999 -1.7192
5.60779 -2.8889 -1.7182
5.62779 -2.8769 -1.7212
5.62579 -2.8539 -1.7182
5.64379 -2.8399 -1.7212
5.65379 -2.7899 -1.7172
5.67979 -2.7369 -1.7172
5.71779 -2.6779 -1.7202
5.73279 -2.6189 -1.7162
5.78579 -2.4799 -1.7142
5.83279 -2.3609 -1.7142
5.86079 -2.2759 -1.7122
6.15679 -1.0929 -1.7022
6.15979 -1.0539 -1.7012
6.16879 -0.985903 -1.7002
6.17479 -0.946903 -1.7002
6.17779 -0.887903 -1.6992
6.18979 -0.799903 -1.6992
6.19779 -0.781903 -1.7002
6.21079 -0.772903 -1.7042
6.20479 -0.752903 -1.7012
6.20379 -0.732903 -1.7002
6.20079 -0.692903 -1.6982
6.20679 -0.673903 -1.6992
6.20079 -0.653903 -1.6972
6.20179 -0.643903 -1.6972
6.22479 -0.626903 -1.7032
6.21979 -0.605903 -1.7012
6.22679 -0.586903 -1.7032
6.21879 -0.566903 -1.7002
6.23079 -0.547903 -1.7032
6.21479 -0.526903 -1.6972
6.21979 -0.517903 -1.6992
6.22279 -0.497903 -1.6992
6.23579 -0.479903 -1.7032
6.22279 -0.458903 -1.6982
6.25279 -0.440903 -1.7062
6.23679 -0.419903 -1.7012
6.23779 -0.400903 -1.7012
6.23079 -0.390903 -1.6992
6.22979 -0.370903 -1.6992
6.23079 -0.350903 -1.6992
6.24379 -0.331903 -1.7022
6.23379 -0.311903 -1.6992
6.24179 -0.292903 -1.7012
6.23679 -0.272903 -1.6992
6.25079 -0.263903 -1.7032
6.23279 -0.243903 -1.6972
6.25279 -0.224903 -1.7032
6.23779 -0.203903 -1.6992
6.24379 -0.184903 -1.7002
6.23879 -0.164903 -1.6992
6.24279 -0.155903 -1.7002
6.24579 -0.135903 -1.7002
6.24579 -0.115903 -1.7002
6.24379 -0.0969034 -1.7002
6.24979 -0.0769034 -1.7012
6.24279 -0.0569034 -1.6992
6.24479 -0.0379034 -1.7002
6.26579 -0.0279034 -1.7062
6.24479 -0.0079034 -1.7002
6.09179 0.0040966 -1.6992
6.07679 0.0230966 -1.6952
6.08779 0.0510966 -1.6982
6.07579 0.0700966 -1.6952
6.09079 0.0900966 -1.6992
6.07379 0.109097 -1.6942
6.07479 0.128097 -1.6952
6.08679 0.137097 -1.6982
6.07879 0.156097 -1.6962
6.07779 0.176097 -1.6962
6.06579 0.194097 -1.6922
6.07679 0.214097 -1.6962
6.06679 0.232097 -1.6932
6.07679 0.252097 -1.6962
6.08479 0.262097 -1.6992
6.08179 0.281097 -1.6982
6.06679 0.299097 -1.6942
6.07179 0.319097 -1.6962
6.05579 0.337097 -1.6912
6.07379 0.357097 -1.6972
6.07079 0.376097 -1.6962
6.06779 0.385097 -1.6962
6.06679 0.404097 -1.6962
6.09079 0.425097 -1.7032
6.06779 0.443097 -1.6972
6.08579 0.463097 -1.7032
6.07479 0.482097 -1.7002
6.08079 0.501097 -1.7022
6.08979 0.512097 -1.7052
6.07679 0.530097 -1.7012
6.07679 0.549097 -1.7022
6.06879 0.568097 -1.7002
6.08279 0.588097 -1.7052
6.05179 0.605097 -1.6962
6.06579 0.625097 -1.7012
6.06079 0.634097 -1.7002
6.05679 0.653097 -1.6992
6.04679 0.671097 -1.6972
6.04479 0.690097 -1.6972
6.03879 0.709097 -1.6962
6.04079 0.728097 -1.6972
6.02479 0.746097 -1.6932
6.03079 0.756097 -1.6952
6.02879 0.775097 -1.6952
6.02279 0.793097 -1.6942
6.02579 0.813097 -1.6962
6.01179 0.830097 -1.6922
6.01279 0.850097 -1.6932
6.01379 0.860097 -1.6942
6.00279 0.877097 -1.6922
5.99079 0.895097 -1.6892
5.99979 0.915097 -1.6922
6.00079 0.935097 -1.6932
5.99579 0.953097 -1.6932
5.99779 0.973097 -1.6952
5.98679 0.981097 -1.6922
5.98579 1.0001 -1.6922
5.97479 1.0181 -1.6902
5.98179 1.0381 -1.6932
5.97779 1.0571 -1.6932
5.96379 1.0741 -1.6892
5.96579 1.0841 -1.6912
5.96579 1.1031 -1.6922
5.96279 1.1221 -1.6922
5.96279 1.1411 -1.6932
5.95179 1.1581 -1.6912
5.94179 1.1761 -1.6892
5.95179 1.1971 -1.6932
5.94779 1.2061 -1.6922
5.94579 1.2251 -1.6932
5.93279 1.2421 -1.6902
5.95879 1.2671 -1.6992
5.93379 1.2811 -1.6932
5.92779 1.3001 -1.6922
5.93679 1.3211 -1.6962
5.91979 1.3271 -1.6922
5.91379 1.3451 -1.6912
5.93579 1.3701 -1.6992
5.90379 1.3821 -1.6912
5.91079 1.4031 -1.6942
5.90779 1.4221 -1.6952
5.90479 1.4411 -1.6952
5.90079 1.4501 -1.6952
5.90779 1.4711 -1.6982
5.88579 1.4861 -1.6932
5.89079 1.5061 -1.6962
5.88979 1.5261 -1.6972
5.88079 1.5431 -1.6962
5.87479 1.5521 -1.6952
5.87979 1.5731 -1.6972
5.88579 1.5941 -1.7012
5.86179 1.6081 -1.6952
5.87179 1.6301 -1.7002
5.86679 1.6681 -1.7012
5.85679 1.6951 -1.7012
5.77479 1.9511 -1.7002
5.72679 1.9551 -1.6872
5.17679 -3.3849 -1.7272
5.20679 -3.3819 -1.7342
5.22079 -3.3669 -1.7352
5.23179 -3.3509 -1.7352
5.24279 -3.3469 -1.7372
5.25079 -3.3279 -1.7362
5.26779 -3.3159 -1.7382
5.26979 -3.2939 -1.7362
5.27879 -3.2769 -1.7352
5.29379 -3.2629 -1.7372
5.30179 -3.2459 -1.7362
5.29379 -3.2289 -1.7322
5.30879 -3.2159 -1.7332
5.32279 -3.2009 -1.7342
5.31779 -3.1749 -1.7292
5.33779 -3.1639 -1.7332
5.33379 -3.1399 -1.7282
5.34779 -3.1249 -1.7292
5.34279 -3.1109 -1.7262
5.36579 -3.1019 -1.7302
5.35979 -3.0759 -1.7252
5.37279 -3.0609 -1.7262
5.37979 -3.0419 -1.7252
5.38679 -3.0239 -1.7252
5.38879 -3.0139 -1.7242
5.39979 -2.9979 -1.7242
5.40379 -2.9779 -1.7222
5.43179 -2.9719 -1.7292
5.41779 -2.9419 -1.7212
5.42479 -2.9239 -1.7202
5.44379 -2.9009 -1.7222
5.44979 -2.8819 -1.7212
5.46579 -2.8469 -1.7202
5.49579 -2.7969 -1.7212
5.49879 -2.7659 -1.7182
5.54479 -2.6809 -1.7192
5.67579 -2.3469 -1.7142
6.00279 -1.1119 -1.7032
6.00279 -1.0929 -1.7022
6.02379 -0.969903 -1.7022
6.02479 -0.940903 -1.7012
6.05879 -0.597903 -1.6982
6.06079 -0.578903 -1.6982
6.06479 -0.569903 -1.6992
6.06679 -0.511903 -1.6982
6.06779 -0.473903 -1.6972
6.07579 -0.464903 -1.7002
6.07379 -0.320903 -1.6962
6.07279 -0.301903 -1.6962
6.07979 -0.282903 -1.6972
6.07679 -0.263903 -1.6962
6.08679 -0.244903 -1.6992
6.07979 -0.225903 -1.6972
6.08379 -0.215903 -1.6982
6.07479 -0.196903 -1.6952
6.07479 -0.158903 -1.6952
6.08479 -0.139903 -1.6972
6.08079 -0.120903 -1.6962
6.08479 -0.101903 -1.6972
6.08879 -0.0919034 -1.6992
6.08979 -0.0729034 -1.6992
6.08379 -0.0539034 -1.6972
6.08179 -0.0349034 -1.6962
6.08579 -0.0159034 -1.6972
5.89279 0.0230966 -1.7122
5.89679 0.0420966 -1.7132
5.88179 0.0600966 -1.7082
5.89079 0.0690966 -1.7112
5.88279 0.0880966 -1.7092
5.88079 0.125097 -1.7082
5.88479 0.162097 -1.7102
5.87879 0.189097 -1.7082
5.87879 0.226097 -1.7092
5.87179 0.263097 -1.7072
5.87379 0.300097 -1.7082
5.87979 0.328097 -1.7102
5.82779 0.769097 -1.7072
5.81679 0.805097 -1.7052
5.81579 0.842097 -1.7062
5.81679 0.860097 -1.7072
5.81179 0.878097 -1.7072
5.81279 0.888097 -1.7072
5.80579 0.906097 -1.7062
5.79379 0.941097 -1.7042
5.78779 0.977097 -1.7042
5.77779 0.994097 -1.7022
5.77879 1.0231 -1.7042
5.77879 1.0411 -1.7052
5.76879 1.0771 -1.7042
5.76679 1.0951 -1.7042
5.75779 1.1221 -1.7032
5.75479 1.1401 -1.7032
5.74679 1.1571 -1.7022
5.74679 1.1951 -1.7042
5.74379 1.2221 -1.7052
5.73179 1.2391 -1.7032
5.71879 1.2741 -1.7012
5.72179 1.2931 -1.7032
5.71579 1.3111 -1.7032
5.71979 1.3301 -1.7052
5.71279 1.3571 -1.7052
5.47379 1.9851 -1.6902
4.87679 -3.4099 -1.7292
4.90779 -3.4089 -1.7372
4.92779 -3.3999 -1.7402
5.07079 -3.2009 -1.7432
5.10379 -3.1439 -1.7432
5.10579 -3.1009 -1.7362
5.12679 -3.0919 -1.7402
5.13279 -3.0629 -1.7382
5.14079 -3.0449 -1.7372
5.15379 -3.0089 -1.7352
5.16579 -2.9949 -1.7362
5.18179 -2.9819 -1.7382
5.18679 -2.9629 -1.7362
5.18779 -2.9529 -1.7352
5.20379 -2.9409 -1.7382
5.20279 -2.9189 -1.7342
5.22179 -2.9079 -1.7382
5.21779 -2.8839 -1.7332
5.22879 -2.8689 -1.7332
5.22779 -2.8469 -1.7302
5.25579 -2.8509 -1.7382
5.24279 -2.8229 -1.7302
5.26779 -2.8159 -1.7362
5.26479 -2.7929 -1.7322
5.26879 -2.7739 -1.7302
5.27879 -2.7579 -1.7312
5.28579 -2.7399 -1.7302
5.28879 -2.7309 -1.7302
5.28579 -2.7089 -1.7262
5.31079 -2.7009 -1.7322
5.30379 -2.6759 -1.7262
5.32479 -2.6649 -1.7302
5.32979 -2.6469 -1.7292
5.31779 -2.6309 -1.7242
5.34679 -2.6239 -1.7312
5.33479 -2.5979 -1.7242
5.34379 -2.5819 -1.7252
5.35079 -2.5639 -1.7242
5.37379 -2.5549 -1.7292
5.36979 -2.5319 -1.7252
5.37779 -2.5249 -1.7262
5.39579 -2.5129 -1.7302
5.38779 -2.4889 -1.7252
5.38879 -2.4689 -1.7222
5.41779 -2.4609 -1.7292
5.40579 -2.4359 -1.7232
5.42779 -2.4249 -1.7272
5.42779 -2.4149 -1.7262
5.43179 -2.3959 -1.7252
5.42679 -2.3739 -1.7212
5.45179 -2.3639 -1.7272
5.44179 -2.3399 -1.7212
5.45079 -2.3229 -1.7222
5.47279 -2.3119 -1.7262
5.46179 -2.2979 -1.7222
5.46779 -2.2799 -1.7212
5.47979 -2.2649 -1.7232
5.48479 -2.2469 -1.7222
5.49579 -2.2309 -1.7232
5.49079 -2.2089 -1.7192
5.48679 -2.1969 -1.7172
5.50379 -2.1839 -1.7202
5.50179 -2.1629 -1.7172
5.52279 -2.1519 -1.7222
5.52679 -2.1329 -1.7212
5.51379 -2.1079 -1.7142
5.53779 -2.0969 -1.7202
5.52679 -2.0829 -1.7162
5.54579 -2.0709 -1.7202
5.54479 -2.0509 -1.7172
5.55879 -2.0359 -1.7202
5.55579 -2.0149 -1.7172
5.56479 -1.9979 -1.7172
5.56879 -1.9799 -1.7172
5.56979 -1.9709 -1.7162
5.59579 -1.9599 -1.7232
5.57279 -1.9329 -1.7132
5.57379 -1.9129 -1.7122
5.60879 -1.9049 -1.7212
5.58779 -1.8789 -1.7122
5.60279 -1.8639 -1.7152
5.59979 -1.8539 -1.7132
5.60779 -1.8369 -1.7142
5.62679 -1.8039 -1.7162
5.61879 -1.7819 -1.7122
5.62079 -1.7629 -1.7112
5.63679 -1.7579 -1.7152
5.64379 -1.7409 -1.7162
5.64079 -1.7209 -1.7132
5.64379 -1.7019 -1.7122
5.65479 -1.6859 -1.7142
5.65679 -1.6669 -1.7132
5.67079 -1.6519 -1.7162
5.67879 -1.6449 -1.7172
5.67279 -1.6239 -1.7142
5.67379 -1.6049 -1.7132
5.67379 -1.5859 -1.7112
5.68079 -1.5679 -1.7122
5.69279 -1.5529 -1.7142
5.69079 -1.5329 -1.7122
5.70179 -1.5259 -1.7142
5.70479 -1.5079 -1.7142
5.70079 -1.4869 -1.7112
5.72379 -1.4739 -1.7172
5.71179 -1.4519 -1.7122
5.71979 -1.4349 -1.7132
5.72379 -1.4269 -1.7132
5.72079 -1.4069 -1.7112
5.74579 -1.3939 -1.7172
5.73479 -1.3719 -1.7132
5.74679 -1.3559 -1.7152
5.73779 -1.3349 -1.7112
5.75479 -1.3199 -1.7152
5.74979 -1.3089 -1.7132
5.75979 -1.2919 -1.7142
5.77279 -1.2759 -1.7172
5.76979 -1.2559 -1.7152
5.76779 -1.2369 -1.7132
5.79379 -1.2229 -1.7202
5.76979 -1.1999 -1.7122
5.77379 -1.1909 -1.7122
5.81279 -1.1799 -1.7232
5.76379 -1.1509 -1.7072
5.79579 -1.1389 -1.7162
5.80279 -1.1209 -1.7172
5.79879 -1.1009 -1.7142
5.81579 -1.0859 -1.7192
5.81179 -1.0749 -1.7172
5.80579 -1.0559 -1.7142
5.82579 -1.0399 -1.7192
5.82179 -1.0209 -1.7172
5.81379 -0.999903 -1.7132
5.82579 -0.983903 -1.7162
5.82179 -0.963903 -1.7142
5.81879 -0.953903 -1.7132
5.81679 -0.934903 -1.7112
5.83679 -0.919903 -1.7162
5.80879 -0.896903 -1.7072
5.83679 -0.881903 -1.7142
5.82979 -0.861903 -1.7122
5.83779 -0.844903 -1.7132
5.82279 -0.832903 -1.7082
5.84779 -0.817903 -1.7152
5.82779 -0.796903 -1.7082
5.85979 -0.781903 -1.7172
5.83779 -0.760903 -1.7102
5.83479 -0.741903 -1.7082
5.83579 -0.732903 -1.7082
5.84979 -0.715903 -1.7122
5.84179 -0.695903 -1.7092
5.85579 -0.678903 -1.7122
5.84479 -0.658903 -1.7082
5.86779 -0.642903 -1.7142
5.85279 -0.622903 -1.7092
5.86479 -0.595903 -1.7122
5.87379 -0.577903 -1.7142
5.86879 -0.558903 -1.7122
5.87379 -0.540903 -1.7132
5.86979 -0.521903 -1.7122
5.87379 -0.503903 -1.7122
5.87079 -0.493903 -1.7112
5.87379 -0.475903 -1.7122
5.88679 -0.458903 -1.7152
5.88279 -0.439903 -1.7132
5.88779 -0.383903 -1.7142
5.88279 -0.374903 -1.7122
5.88279 -0.355903 -1.7122
5.87979 -0.336903 -1.7102
5.88679 -0.318903 -1.7122
5.89279 -0.300903 -1.7142
5.89379 -0.282903 -1.7142
5.89679 -0.263903 -1.7142
5.89879 -0.254903 -1.7152
5.89279 -0.217903 -1.7132
5.88579 -0.198903 -1.7102
5.90179 -0.180903 -1.7152
5.89079 -0.161903 -1.7122
5.89679 -0.152903 -1.7132
5.89779 -0.115903 -1.7132
5.89879 -0.0789034 -1.7132
5.89279 -0.0599034 -1.7122
5.88379 -0.0319034 -1.7092
5.89079 -0.0139034 -1.7112
5.27979 1.9801 -1.6922
4.62879 -3.4369 -1.7322
4.64979 -3.4299 -1.7372
4.67579 -3.4269 -1.7432
4.69579 -3.4189 -1.7462
5.08379 -2.7699 -1.7402
5.09279 -2.7339 -1.7372
5.11379 -2.7139 -1.7402
5.11879 -2.6969 -1.7392
5.12779 -2.6799 -1.7392
5.13579 -2.6639 -1.7392
5.14279 -2.6469 -1.7382
5.15179 -2.6209 -1.7372
5.15779 -2.6039 -1.7372
5.16579 -2.5879 -1.7372
5.17779 -2.5729 -1.7382
5.18579 -2.5569 -1.7382
5.18879 -2.5379 -1.7362
5.19279 -2.5199 -1.7352
5.19179 -2.5099 -1.7332
5.21779 -2.4819 -1.7372
5.22079 -2.4629 -1.7352
5.23379 -2.4489 -1.7372
5.23479 -2.4199 -1.7332
5.25079 -2.4069 -1.7362
5.26579 -2.3739 -1.7362
5.26979 -2.3559 -1.7352
5.27579 -2.3389 -1.7342
5.27979 -2.3199 -1.7332
5.28479 -2.2929 -1.7312
5.29379 -2.2769 -1.7322
5.30079 -2.2609 -1.7322
5.30779 -2.2439 -1.7322
5.31379 -2.2269 -1.7312
5.32179 -2.2109 -1.7322
5.32179 -2.2009 -1.7302
5.32879 -2.1839 -1.7302
5.32479 -2.1629 -1.7272
5.34479 -2.1509 -1.7312
5.33679 -2.1289 -1.7262
5.34579 -2.1129 -1.7272
5.35579 -2.0969 -1.7282
5.36079 -2.0899 -1.7292
5.37779 -2.0769 -1.7322
5.36979 -2.0549 -1.7272
5.37679 -2.0379 -1.7272
5.38979 -2.0229 -1.7302
5.39279 -2.0049 -1.7292
5.38479 -1.9929 -1.7252
5.39179 -1.9759 -1.7252
5.40079 -1.9599 -1.7262
5.40879 -1.9439 -1.7272
5.42079 -1.9289 -1.7292
5.42979 -1.9129 -1.7302
5.42879 -1.8929 -1.7272
5.42679 -1.8829 -1.7262
5.43079 -1.8649 -1.7252
5.44179 -1.8499 -1.7272
5.45679 -1.8359 -1.7302
5.46279 -1.8189 -1.7302
5.45779 -1.7789 -1.7242
5.47479 -1.7749 -1.7292
5.47879 -1.7579 -1.7292
5.48779 -1.7219 -1.7282
5.48979 -1.7039 -1.7272
5.48879 -1.6849 -1.7252
5.49579 -1.6779 -1.7262
5.49479 -1.6589 -1.7242
5.50379 -1.6429 -1.7262
5.51079 -1.6259 -1.7262
5.50379 -1.6049 -1.7222
5.51779 -1.5899 -1.7252
5.51779 -1.5619 -1.7232
5.52479 -1.5449 -1.7232
5.54679 -1.5139 -1.7272
5.54279 -1.4939 -1.7242
5.55679 -1.4609 -1.7262
5.56579 -1.4349 -1.7272
5.57279 -1.3989 -1.7262
5.56679 -1.3609 -1.7212
5.58379 -1.3459 -1.7262
5.59079 -1.2649 -1.7222
5.59879 -1.2479 -1.7232
5.61079 -1.1679 -1.7212
5.61379 -1.1499 -1.7212
5.62179 -1.1329 -1.7232
5.62079 -1.1149 -1.7212
5.62679 -1.1069 -1.7232
5.63579 -1.0899 -1.7242
5.63579 -1.0709 -1.7232
5.63279 -1.0529 -1.7212
5.64479 -1.0179 -1.7232
5.64279 -1.0089 -1.7222
5.64779 -0.990903 -1.7232
5.64179 -0.971903 -1.7192
5.66079 -0.892903 -1.7212
5.66079 -0.856903 -1.7192
5.66679 -0.838903 -1.7212
5.66479 -0.802903 -1.7182
5.67179 -0.775903 -1.7192
5.68379 -0.686903 -1.7192
5.67979 -0.668903 -1.7182
5.68879 -0.660903 -1.7202
5.68079 -0.623903 -1.7162
5.69479 -0.570903 -1.7192
5.69879 -0.525903 -1.7192
5.51479 0.0110966 -1.7162
5.50579 0.0280966 -1.7132
5.51479 0.0450966 -1.7162
5.50079 0.0620966 -1.7112
5.51279 0.0710966 -1.7152
5.49679 0.0880966 -1.7102
5.49879 0.106097 -1.7112
5.50779 0.123097 -1.7142
5.50179 0.140097 -1.7122
5.49779 0.157097 -1.7112
5.49479 0.175097 -1.7102
5.49679 0.183097 -1.7112
5.49579 0.201097 -1.7112
5.50479 0.218097 -1.7142
5.50079 0.235097 -1.7132
5.49379 0.252097 -1.7112
5.49479 0.270097 -1.7112
5.48279 0.286097 -1.7082
5.47679 0.295097 -1.7062
5.48879 0.313097 -1.7102
5.48979 0.330097 -1.7112
5.49279 0.347097 -1.7122
5.48979 0.365097 -1.7112
5.48679 0.382097 -1.7112
5.49179 0.391097 -1.7132
5.48279 0.425097 -1.7112
5.48479 0.477097 -1.7132
5.48479 0.494097 -1.7132
5.48279 0.503097 -1.7132
5.48079 0.520097 -1.7132
5.46179 0.536097 -1.7072
5.46779 0.571097 -1.7102
5.45879 0.587097 -1.7082
5.45779 0.613097 -1.7082
5.44479 0.629097 -1.7042
5.44979 0.647097 -1.7072
5.43079 0.662097 -1.7012
5.44779 0.681097 -1.7082
5.44179 0.698097 -1.7062
5.42879 0.714097 -1.7032
5.44379 0.724097 -1.7082
5.43779 0.741097 -1.7072
5.41279 0.755097 -1.6992
5.42979 0.775097 -1.7062
5.43079 0.792097 -1.7072
5.42079 0.808097 -1.7042
5.41679 0.825097 -1.7042
5.42279 0.835097 -1.7062
5.41079 0.850097 -1.7032
5.41579 0.868097 -1.7062
5.41279 0.885097 -1.7062
5.40079 0.901097 -1.7032
5.39779 0.918097 -1.7032
5.40379 0.927097 -1.7052
5.39679 0.944097 -1.7042
5.39379 0.961097 -1.7042
5.39679 0.979097 -1.7062
5.38079 0.993097 -1.7012
5.38079 1.0111 -1.7032
5.38379 1.0291 -1.7042
5.37379 1.0361 -1.7022
5.38379 1.0551 -1.7062
5.37279 1.0711 -1.7042
5.37179 1.0881 -1.7042
5.37579 1.1061 -1.7072
5.36479 1.1221 -1.7042
5.35979 1.1381 -1.7042
5.36679 1.1491 -1.7072
5.35979 1.1651 -1.7062
5.34979 1.1801 -1.7042
5.34479 1.1971 -1.7032
5.35179 1.2161 -1.7072
5.33479 1.2301 -1.7032
5.33879 1.2481 -1.7052
5.33279 1.2561 -1.7042
5.34179 1.2761 -1.7082
5.31179 1.2861 -1.6992
5.33179 1.3091 -1.7082
5.31879 1.3231 -1.7042
5.32379 1.3421 -1.7082
5.30579 1.3821 -1.7052
5.30079 1.3991 -1.7052
5.28779 1.4131 -1.7022
5.29279 1.4321 -1.7052
5.28879 1.4671 -1.7072
5.09379 1.9541 -1.6962
5.06079 1.9501 -1.6862
4.41379 -3.4099 -1.7372
4.42679 -3.4089 -1.7402
4.44679 -3.4019 -1.7432
4.47979 -3.3829 -1.7492
4.49079 -3.3689 -1.7492
4.50279 -3.3339 -1.7452
4.51079 -3.3289 -1.7462
4.53179 -3.2999 -1.7462
4.54179 -3.2859 -1.7462
4.56379 -3.2589 -1.7472
4.57379 -3.2439 -1.7472
4.59179 -3.2029 -1.7432
4.61079 -3.1949 -1.7472
4.61679 -3.1769 -1.7452
4.61879 -3.1569 -1.7422
4.63779 -3.1489 -1.7462
4.63679 -3.1379 -1.7432
4.64679 -3.1229 -1.7432
4.65779 -3.1089 -1.7442
4.65279 -3.0849 -1.7382
4.66579 -3.0729 -1.7402
4.67079 -3.0549 -1.7382
4.67079 -3.0449 -1.7362
4.68379 -3.0319 -1.7372
4.69779 -3.0199 -1.7392
4.69579 -2.9989 -1.7352
4.71379 -2.9889 -1.7382
4.71679 -2.9699 -1.7352
4.72279 -2.9529 -1.7342
4.73379 -2.9499 -1.7372
4.73379 -2.9289 -1.7332
4.74379 -2.9149 -1.7332
4.74979 -2.8979 -1.7322
4.77079 -2.8899 -1.7372
4.75879 -2.8619 -1.7282
4.76879 -2.8479 -1.7292
4.78279 -2.8469 -1.7332
4.78279 -2.8259 -1.7292
4.79079 -2.8109 -1.7292
4.80679 -2.7999 -1.7322
4.81379 -2.7829 -1.7312
4.81579 -2.7649 -1.7282
4.82579 -2.7499 -1.7292
4.83079 -2.7429 -1.7292
4.83279 -2.7239 -1.7272
4.83579 -2.7059 -1.7252
4.85079 -2.6939 -1.7272
4.85979 -2.6789 -1.7272
4.86979 -2.6649 -1.7282
4.86379 -2.6519 -1.7242
4.88179 -2.6419 -1.7282
4.87479 -2.6179 -1.7222
4.89679 -2.6099 -1.7272
4.89479 -2.5889 -1.7232
4.90779 -2.5769 -1.7252
4.91979 -2.5629 -1.7272
4.92379 -2.5549 -1.7272
4.92779 -2.5379 -1.7252
4.93579 -2.5229 -1.7252
4.94379 -2.5069 -1.7252
4.94179 -2.4859 -1.7212
4.94579 -2.4689 -1.7202
4.96579 -2.4599 -1.7252
4.96579 -2.4499 -1.7232
4.98279 -2.4389 -1.7272
4.98679 -2.4209 -1.7252
4.98879 -2.4029 -1.7232
5.00179 -2.3899 -1.7252
5.00379 -2.3719 -1.7232
5.00079 -2.3509 -1.7202
5.02379 -2.3329 -1.7242
5.01979 -2.3119 -1.7202
5.03379 -2.2989 -1.7222
5.04079 -2.2829 -1.7222
5.04779 -2.2679 -1.7222
5.04479 -2.2569 -1.7202
5.06079 -2.2439 -1.7232
5.05879 -2.2249 -1.7202
5.06179 -2.2069 -1.7182
5.07479 -2.1939 -1.7202
5.08079 -2.1779 -1.7202
5.08079 -2.1589 -1.7182
5.08979 -2.1529 -1.7202
5.09779 -2.1379 -1.7202
5.09579 -2.1179 -1.7172
5.11179 -2.1059 -1.7202
5.10879 -2.0859 -1.7172
5.11779 -2.0709 -1.7182
5.12079 -2.0529 -1.7162
5.12379 -2.0449 -1.7162
5.12679 -2.0279 -1.7152
5.13279 -2.0119 -1.7152
5.13879 -1.9949 -1.7152
5.14679 -1.9799 -1.7162
5.15379 -1.9639 -1.7162
5.15679 -1.9559 -1.7162
5.15679 -1.9379 -1.7142
5.16379 -1.9209 -1.7142
5.17079 -1.9059 -1.7152
5.19179 -1.8759 -1.7182
5.19279 -1.8579 -1.7162
5.19579 -1.8499 -1.7162
5.19379 -1.8309 -1.7132
5.21579 -1.8199 -1.7192
5.21979 -1.7669 -1.7152
5.22379 -1.7499 -1.7142
5.23779 -1.7269 -1.7162
5.23379 -1.7079 -1.7132
5.25179 -1.6949 -1.7172
5.26479 -1.6809 -1.7202
5.24779 -1.6579 -1.7122
5.26079 -1.6349 -1.7142
5.26079 -1.6159 -1.7122
5.28179 -1.5869 -1.7162
5.28779 -1.5519 -1.7152
5.29679 -1.5369 -1.7162
5.29779 -1.5099 -1.7142
5.29679 -1.4739 -1.7102
5.31279 -1.4429 -1.7132
5.30879 -1.4229 -1.7102
5.31379 -1.4159 -1.7112
5.32379 -1.4009 -1.7132
5.32679 -1.3839 -1.7122
5.34479 -1.3519 -1.7152
5.33079 -1.3309 -1.7092
5.35479 -1.3099 -1.7152
5.35379 -1.2919 -1.7132
5.34979 -1.2739 -1.7112
5.36179 -1.2589 -1.7132
5.34879 -1.2379 -1.7082
5.36979 -1.2249 -1.7132
5.36379 -1.2149 -1.7112
5.35679 -1.1949 -1.7072
5.37279 -1.1809 -1.7112
5.38079 -1.1649 -1.7132
5.37479 -1.1459 -1.7102
5.37879 -1.1299 -1.7102
5.39479 -1.1149 -1.7142
5.37979 -1.1039 -1.7082
5.38679 -1.0869 -1.7102
5.40179 -1.0729 -1.7132
5.38979 -1.0529 -1.7082
5.40879 -1.0389 -1.7132
5.40979 -1.0209 -1.7132
5.39579 -1.0009 -1.7072
5.39779 -0.992903 -1.7072
5.42679 -0.979903 -1.7162
5.42279 -0.961903 -1.7132
5.41279 -0.942903 -1.7092
5.43079 -0.927903 -1.7142
5.41279 -0.907903 -1.7072
5.43579 -0.893903 -1.7142
5.43179 -0.884903 -1.7122
5.41779 -0.864903 -1.7062
5.43779 -0.850903 -1.7122
5.44379 -0.833903 -1.7132
5.43479 -0.814903 -1.7102
5.44679 -0.799903 -1.7132
5.45379 -0.791903 -1.7152
5.43779 -0.771903 -1.7082
5.45479 -0.756903 -1.7132
5.45879 -0.739903 -1.7142
5.44879 -0.720903 -1.7102
5.45779 -0.704903 -1.7122
5.46579 -0.688903 -1.7142
5.45979 -0.678903 -1.7112
5.46379 -0.661903 -1.7122
5.46579 -0.644903 -1.7122
5.45979 -0.626903 -1.7102
5.46579 -0.609903 -1.7112
5.47879 -0.593903 -1.7152
5.47779 -0.584903 -1.7142
5.47979 -0.567903 -1.7142
5.49679 -0.551903 -1.7192
5.49479 -0.534903 -1.7182
5.48879 -0.516903 -1.7152
5.48479 -0.498903 -1.7132
5.48279 -0.481903 -1.7122
5.48479 -0.472903 -1.7132
5.48879 -0.455903 -1.7132
5.48379 -0.437903 -1.7112
5.48179 -0.420903 -1.7102
5.48879 -0.403903 -1.7122
5.49579 -0.386903 -1.7142
5.49679 -0.369903 -1.7142
5.50879 -0.361903 -1.7182
5.49879 -0.343903 -1.7142
5.49779 -0.326903 -1.7132
5.49879 -0.308903 -1.7132
5.48479 -0.290903 -1.7082
5.50379 -0.274903 -1.7152
5.50879 -0.257903 -1.7162
5.50179 -0.248903 -1.7132
5.50079 -0.231903 -1.7132
5.51079 -0.214903 -1.7162
5.50779 -0.196903 -1.7152
5.51779 -0.179903 -1.7182
5.51479 -0.162903 -1.7162
5.49979 -0.153903 -1.7112
5.50179 -0.135903 -1.7122
5.50479 -0.101903 -1.7132
5.51079 -0.0849034 -1.7152
5.49979 -0.0669034 -1.7112
5.50279 -0.0499034 -1.7122
5.51679 -0.0409034 -1.7162
5.49979 -0.0069034 -1.7112
5.32679 0.0060966 -1.7032
5.33279 0.0140966 -1.7052
5.33779 0.0310966 -1.7072
5.33779 0.0470966 -1.7072
5.33579 0.0640966 -1.7062
5.32979 0.0810966 -1.7042
5.33179 0.0980966 -1.7052
5.33479 0.106097 -1.7062
5.34079 0.123097 -1.7082
5.32879 0.139097 -1.7042
5.33179 0.156097 -1.7052
5.32579 0.173097 -1.7032
5.32879 0.190097 -1.7052
5.30779 0.206097 -1.6982
5.32479 0.215097 -1.7032
5.31779 0.231097 -1.7012
5.32679 0.248097 -1.7052
5.32379 0.265097 -1.7042
5.32479 0.282097 -1.7052
5.32379 0.299097 -1.7052
5.33079 0.316097 -1.7072
5.32679 0.324097 -1.7062
5.31979 0.340097 -1.7042
5.32779 0.358097 -1.7072
5.31579 0.374097 -1.7032
5.31679 0.449097 -1.7062
5.32179 0.483097 -1.7092
5.32579 0.500097 -1.7112
5.31679 0.517097 -1.7082
5.32679 0.534097 -1.7122
5.31779 0.542097 -1.7092
5.31679 0.559097 -1.7092
5.30179 0.574097 -1.7052
5.30379 0.591097 -1.7062
5.29379 0.607097 -1.7032
5.29979 0.624097 -1.7062
5.28779 0.631097 -1.7022
5.29279 0.649097 -1.7052
5.28879 0.665097 -1.7042
5.29579 0.683097 -1.7072
5.28679 0.699097 -1.7052
5.27479 0.714097 -1.7012
5.28579 0.732097 -1.7062
5.26979 0.739097 -1.7012
5.27079 0.756097 -1.7022
5.26279 0.772097 -1.7002
5.26279 0.788097 -1.7012
5.25779 0.805097 -1.7002
5.26879 0.823097 -1.7052
5.25279 0.838097 -1.7002
5.27379 0.849097 -1.7082
5.24879 0.862097 -1.7002
5.24779 0.879097 -1.7012
5.24179 0.895097 -1.7002
5.24379 0.912097 -1.7012
5.23979 0.929097 -1.7012
5.23479 0.945097 -1.7002
5.22779 0.969097 -1.7002
5.25879 0.992097 -1.7112
5.25379 1.0081 -1.7112
5.24679 1.0241 -1.7092
5.21979 1.0351 -1.7012
5.23879 1.0561 -1.7092
5.23279 1.0641 -1.7072
5.22479 1.1131 -1.7082
5.21379 1.1621 -1.7082
5.21779 1.1721 -1.7102
5.18279 1.1981 -1.7002
5.20079 1.2371 -1.7092
5.19079 1.2611 -1.7082
5.16679 1.2891 -1.7022
5.16579 1.3231 -1.7052
5.15179 1.3631 -1.7032
5.15079 1.3801 -1.7052
5.14279 1.3951 -1.7032
5.14979 1.4141 -1.7072
5.13579 1.4281 -1.7042
5.13279 1.4451 -1.7052
5.13779 1.4551 -1.7072
4.91279 1.9331 -1.6872
4.20679 -3.4289 -1.7372
4.22479 -3.4219 -1.7402
4.23979 -3.4119 -1.7422
4.29279 -3.3889 -1.7512
4.29779 -3.3819 -1.7512
4.30679 -3.3449 -1.7462
4.31779 -3.3319 -1.7462
4.33679 -3.3249 -1.7502
4.33379 -3.3009 -1.7442
4.35479 -3.2959 -1.7492
4.35079 -3.2819 -1.7452
4.36979 -3.2749 -1.7492
4.38179 -3.2409 -1.7452
4.38579 -3.2229 -1.7422
4.39579 -3.2089 -1.7422
4.39579 -3.1979 -1.7402
4.40479 -3.1839 -1.7402
4.41979 -3.1519 -1.7382
4.45279 -3.1549 -1.7472
4.44579 -3.1289 -1.7402
4.47079 -3.1259 -1.7472
4.45179 -3.1009 -1.7362
4.45979 -3.0859 -1.7362
4.46879 -3.0719 -1.7362
4.47379 -3.0549 -1.7342
4.50879 -3.0579 -1.7442
4.49179 -3.0259 -1.7332
4.50379 -3.0139 -1.7342
4.50479 -3.0039 -1.7322
4.51679 -2.9919 -1.7342
4.51879 -2.9719 -1.7302
4.53579 -2.9629 -1.7342
4.54279 -2.9479 -1.7332
4.56679 -2.9429 -1.7392
4.55379 -2.9139 -1.7302
4.55079 -2.9019 -1.7272
4.55779 -2.8859 -1.7262
4.57379 -2.8759 -1.7292
4.58279 -2.8619 -1.7292
4.59279 -2.8479 -1.7292
4.59979 -2.8329 -1.7292
4.61879 -2.8349 -1.7342
4.63279 -2.8229 -1.7362
4.62479 -2.7779 -1.7262
4.63879 -2.7469 -1.7252
4.66679 -2.7439 -1.7322
4.69179 -2.6899 -1.7302
4.70879 -2.6599 -1.7302
4.71979 -2.6369 -1.7302
4.72779 -2.5829 -1.7232
4.75079 -2.5769 -1.7292
4.76079 -2.5629 -1.7302
4.76979 -2.5489 -1.7302
4.77679 -2.5229 -1.7292
4.78979 -2.4919 -1.7272
4.80979 -2.4639 -1.7292
4.81179 -2.4559 -1.7292
4.81279 -2.4369 -1.7262
4.82279 -2.4229 -1.7272
4.81179 -2.3979 -1.7202
4.83779 -2.3919 -1.7272
4.82679 -2.3679 -1.7202
4.85279 -2.3619 -1.7272
4.85879 -2.3369 -1.7252
4.87079 -2.3239 -1.7272
4.88379 -2.3109 -1.7292
4.89579 -2.2789 -1.7282
4.91079 -2.2389 -1.7272
4.89479 -2.2139 -1.7182
4.93479 -2.1669 -1.7242
4.94279 -2.1519 -1.7252
4.95879 -2.1399 -1.7282
4.95779 -2.1219 -1.7252
4.96779 -2.0889 -1.7242
4.97279 -2.0629 -1.7222
4.98379 -2.0499 -1.7242
4.98479 -2.0129 -1.7202
4.98779 -1.9959 -1.7182
5.00879 -1.9589 -1.7202
5.01979 -1.9449 -1.7222
5.02979 -1.9129 -1.7212
5.04579 -1.8649 -1.7212
5.04779 -1.8559 -1.7202
5.04779 -1.8389 -1.7182
5.06979 -1.8109 -1.7222
5.05779 -1.7709 -1.7142
5.08679 -1.7629 -1.7222
5.07179 -1.7489 -1.7162
5.08479 -1.7169 -1.7162
5.09279 -1.6849 -1.7162
5.10079 -1.6689 -1.7162
5.10179 -1.6519 -1.7152
5.11879 -1.6309 -1.7182
5.12779 -1.5629 -1.7142
5.14279 -1.5409 -1.7172
5.15579 -1.5099 -1.7182
5.15079 -1.4729 -1.7132
5.16879 -1.4519 -1.7172
5.15479 -1.4309 -1.7112
5.16979 -1.4179 -1.7142
5.17479 -1.4009 -1.7142
5.18479 -1.3869 -1.7162
5.20179 -1.3559 -1.7202
5.19279 -1.3449 -1.7162
5.19179 -1.3279 -1.7142
5.19579 -1.3109 -1.7142
5.20279 -1.2779 -1.7132
5.21979 -1.2479 -1.7162
5.21679 -1.1859 -1.7112
5.22179 -1.1269 -1.7082
5.22679 -1.1109 -1.7092
5.26579 -1.0849 -1.7202
5.24879 -1.0639 -1.7122
5.25579 -1.0479 -1.7142
5.26079 -1.0409 -1.7152
5.25679 -1.0229 -1.7122
5.26679 -0.845903 -1.7052
5.26679 -0.836903 -1.7052
5.28179 -0.771903 -1.7072
5.27879 -0.753903 -1.7052
5.28279 -0.728903 -1.7052
5.28479 -0.712903 -1.7052
5.29879 -0.629903 -1.7062
5.29779 -0.621903 -1.7052
5.30179 -0.587903 -1.7052
5.30779 -0.571903 -1.7072
5.30179 -0.511903 -1.7032
5.32079 -0.496903 -1.7092
5.32779 -0.480903 -1.7112
5.31379 -0.462903 -1.7052
5.31579 -0.445903 -1.7052
5.31279 -0.428903 -1.7042
5.32879 -0.404903 -1.7092
5.33179 -0.388903 -1.7092
5.32179 -0.370903 -1.7052
5.32979 -0.354903 -1.7082
5.32979 -0.337903 -1.7072
5.32279 -0.320903 -1.7052
5.33679 -0.312903 -1.7092
5.33579 -0.296903 -1.7092
5.33079 -0.279903 -1.7072
5.33579 -0.262903 -1.7082
5.32879 -0.245903 -1.7052
5.32179 -0.228903 -1.7032
5.32979 -0.211903 -1.7052
5.33379 -0.203903 -1.7072
5.32679 -0.186903 -1.7042
5.33579 -0.170903 -1.7072
5.32279 -0.152903 -1.7022
5.32679 -0.136903 -1.7032
5.32879 -0.119903 -1.7042
5.33479 -0.102903 -1.7062
5.33679 -0.0949034 -1.7072
5.33979 -0.0779034 -1.7072
5.33979 -0.0619034 -1.7072
5.33779 -0.0449034 -1.7072
5.33579 -0.0279034 -1.7062
5.34179 -0.0109034 -1.7082
5.20679 0.0130966 -1.7162
5.20579 0.0300966 -1.7152
5.19779 0.0460966 -1.7122
5.21079 0.0620966 -1.7172
5.18179 0.0700966 -1.7072
5.20879 0.0870966 -1.7162
5.19279 0.103097 -1.7112
5.20779 0.120097 -1.7162
5.19079 0.135097 -1.7102
5.19579 0.152097 -1.7122
5.19879 0.168097 -1.7142
5.19679 0.176097 -1.7132
5.19379 0.193097 -1.7122
5.19379 0.209097 -1.7122
5.19679 0.226097 -1.7142
5.19379 0.242097 -1.7132
5.19679 0.266097 -1.7142
5.19379 0.283097 -1.7142
5.19479 0.299097 -1.7142
5.19579 0.316097 -1.7152
5.19279 0.332097 -1.7142
5.19379 0.348097 -1.7152
5.18679 0.364097 -1.7132
5.18179 0.495097 -1.7152
5.17479 0.560097 -1.7152
5.16479 0.583097 -1.7122
5.16679 0.600097 -1.7142
5.16679 0.617097 -1.7142
5.14579 0.647097 -1.7082
5.14979 0.664097 -1.7102
5.15679 0.681097 -1.7142
5.14279 0.688097 -1.7092
5.14279 0.704097 -1.7102
5.13979 0.720097 -1.7102
5.14679 0.738097 -1.7132
5.12579 0.767097 -1.7072
5.12679 0.784097 -1.7082
5.12179 0.791097 -1.7072
5.12279 0.808097 -1.7082
5.12279 0.825097 -1.7092
5.11379 0.840097 -1.7072
5.11179 0.856097 -1.7072
5.11779 0.873097 -1.7102
5.11279 0.881097 -1.7092
5.09879 0.895097 -1.7052
5.10779 0.913097 -1.7092
5.09379 0.927097 -1.7052
5.09579 0.944097 -1.7072
5.09679 0.961097 -1.7082
5.08779 0.976097 -1.7062
5.08879 0.984097 -1.7072
5.06879 0.997097 -1.7012
5.07479 1.0141 -1.7042
5.08079 1.0321 -1.7082
5.06279 1.0451 -1.7022
5.07279 1.0641 -1.7072
5.05779 1.0691 -1.7022
5.05979 1.1031 -1.7062
5.06379 1.1201 -1.7082
5.06279 1.1531 -1.7102
5.04179 1.1651 -1.7042
5.04579 1.1751 -1.7062
5.04579 1.1911 -1.7082
5.03279 1.2051 -1.7042
5.03079 1.2381 -1.7062
5.03279 1.2551 -1.7082
5.02779 1.2791 -1.7092
5.01779 1.3271 -1.7102
5.00479 1.3741 -1.7102
4.99579 1.3801 -1.7072
4.79579 1.9391 -1.7042
4.76479 1.9351 -1.6932
4.00179 -3.4429 -1.7412
4.01779 -3.4359 -1.7432
4.03779 -3.4299 -1.7472
4.05079 -3.4199 -1.7492
4.36179 -2.9979 -1.7452
4.40379 -2.9359 -1.7452
4.43379 -2.8859 -1.7452
4.44479 -2.8729 -1.7452
4.45879 -2.8429 -1.7442
4.47879 -2.8159 -1.7452
4.50079 -2.7809 -1.7452
4.49779 -2.7599 -1.7402
4.51979 -2.7339 -1.7422
4.51679 -2.7129 -1.7372
4.53479 -2.7139 -1.7432
4.52979 -2.6919 -1.7372
4.54179 -2.6799 -1.7392
4.55679 -2.6689 -1.7412
4.55879 -2.6509 -1.7392
4.55879 -2.6319 -1.7352
4.57679 -2.6229 -1.7392
4.57779 -2.6139 -1.7382
4.57879 -2.5959 -1.7352
4.59579 -2.5859 -1.7392
4.59379 -2.5669 -1.7352
4.60479 -2.5539 -1.7362
4.61779 -2.5419 -1.7382
4.62079 -2.5249 -1.7362
4.61979 -2.5149 -1.7342
4.63579 -2.5049 -1.7372
4.64379 -2.4899 -1.7372
4.64379 -2.4709 -1.7342
4.65979 -2.4609 -1.7372
4.66079 -2.4429 -1.7352
4.66279 -2.4349 -1.7342
4.67079 -2.4199 -1.7342
4.68779 -2.4109 -1.7382
4.68079 -2.3879 -1.7322
4.69479 -2.3769 -1.7352
4.70379 -2.3629 -1.7352
4.69979 -2.3419 -1.7312
4.71479 -2.3409 -1.7352
4.72179 -2.3259 -1.7352
4.71879 -2.3059 -1.7322
4.73279 -2.2949 -1.7342
4.74379 -2.2809 -1.7352
4.73879 -2.2609 -1.7312
4.76279 -2.2539 -1.7372
4.75679 -2.2419 -1.7332
4.74979 -2.2199 -1.7282
4.77379 -2.2129 -1.7352
4.77179 -2.1939 -1.7322
4.77379 -2.1769 -1.7302
4.78279 -2.1629 -1.7302
4.79079 -2.1479 -1.7312
4.78779 -2.1379 -1.7282
4.80779 -2.1289 -1.7332
4.80979 -2.1119 -1.7322
4.80079 -2.0899 -1.7262
4.81779 -2.0789 -1.7302
4.81679 -2.0609 -1.7272
4.81779 -2.0439 -1.7252
4.82679 -2.0379 -1.7272
4.83779 -2.0249 -1.7292
4.82879 -2.0039 -1.7232
4.84579 -1.9929 -1.7272
4.85179 -1.9769 -1.7272
4.85479 -1.9609 -1.7262
4.87479 -1.9509 -1.7312
4.85679 -1.9349 -1.7232
4.87179 -1.9229 -1.7262
4.89379 -1.9139 -1.7322
4.88179 -1.8919 -1.7262
4.88279 -1.8749 -1.7242
4.90279 -1.8649 -1.7292
4.89679 -1.8539 -1.7262
4.89479 -1.8359 -1.7232
4.90579 -1.8219 -1.7252
4.90679 -1.8049 -1.7232
