13.4938 0.121983 -1.62973
13.4978 0.164983 -1.62973
13.1028 2.55898 -1.60973
13.3438 -1.20302 -1.61673
13.3538 -1.03502 -1.61573
13.3658 -0.888017 -1.61573
13.3668 -0.846017 -1.61573
13.3848 -0.805017 -1.61773
13.3808 -0.783017 -1.61773
13.3868 -0.742017 -1.61773
13.4128 -0.701017 -1.62073
13.4088 -0.658017 -1.61973
13.4188 -0.616017 -1.62173
13.4268 -0.575017 -1.62173
13.4348 -0.533017 -1.62273
13.4258 -0.511017 -1.62173
13.4248 -0.469017 -1.62173
13.4398 -0.427017 -1.62273
13.4398 -0.385017 -1.62273
13.4628 -0.343017 -1.62573
13.4698 -0.301017 -1.62673
13.4758 -0.259017 -1.62773
13.4928 -0.238017 -1.62973
13.4838 -0.195017 -1.62773
13.4638 -0.153017 -1.62573
13.4708 -0.111017 -1.62673
13.4628 -0.0680168 -1.62573
13.4808 -0.0260168 -1.62773
12.8958 0.00698316 -1.63573
12.8708 0.0479832 -1.63273
12.8908 0.189983 -1.63573
12.4918 2.51298 -1.61473
12.7468 -1.15702 -1.62273
12.7558 -0.956017 -1.62173
12.7648 -0.937017 -1.62273
12.7778 -0.897017 -1.62373
12.7768 -0.857017 -1.62373
12.7808 -0.817017 -1.62373
12.7878 -0.777017 -1.62373
12.7938 -0.737017 -1.62473
12.7998 -0.697017 -1.62573
12.8208 -0.678017 -1.62773
12.8148 -0.637017 -1.62673
12.8068 -0.597017 -1.62573
12.8288 -0.557017 -1.62873
12.8228 -0.517017 -1.62673
12.8098 -0.476017 -1.62573
12.8178 -0.436017 -1.62573
12.8158 -0.416017 -1.62573
12.8198 -0.375017 -1.62573
12.8388 -0.336017 -1.62873
12.8298 -0.295017 -1.62673
12.8378 -0.255017 -1.62873
12.8388 -0.215017 -1.62873
12.8378 -0.194017 -1.62773
12.8678 -0.154017 -1.63273
12.8538 -0.114017 -1.63073
12.8488 -0.0730168 -1.62973
12.8668 -0.0330168 -1.63173
12.5218 0.160983 -1.63973
12.3818 -1.14702 -1.62673
12.3798 -1.06802 -1.62573
12.3928 -1.03002 -1.62673
12.4018 -0.992017 -1.62773
12.4088 -0.953017 -1.62873
12.4388 -0.916017 -1.63273
12.4188 -0.895017 -1.62973
12.4138 -0.855017 -1.62773
12.4208 -0.817017 -1.62873
12.4368 -0.779017 -1.63073
12.4388 -0.739017 -1.63073
12.4448 -0.701017 -1.63173
12.4518 -0.681017 -1.63273
12.4568 -0.642017 -1.63273
12.4578 -0.603017 -1.63273
12.4638 -0.564017 -1.63273
12.4598 -0.525017 -1.63273
12.4698 -0.486017 -1.63373
12.4628 -0.447017 -1.63273
12.4678 -0.427017 -1.63273
12.4668 -0.388017 -1.63273
12.4798 -0.349017 -1.63473
12.4828 -0.310017 -1.63473
12.5078 -0.271017 -1.63773
12.4888 -0.231017 -1.63473
12.4948 -0.192017 -1.63573
12.4998 -0.173017 -1.63673
12.5178 -0.134017 -1.63873
12.5178 -0.0940168 -1.63873
12.5228 -0.0160168 -1.63973
11.6208 2.44098 -1.63073
11.6238 -2.73702 -1.64073
11.6348 -2.70102 -1.64073
11.6388 -2.66302 -1.64073
11.6488 -2.64602 -1.64173
11.6518 -2.57002 -1.63873
11.6698 -2.53602 -1.64073
11.6698 -2.49702 -1.63973
11.6798 -2.46102 -1.63973
11.6888 -2.44402 -1.64073
11.6908 -2.36802 -1.63873
11.6938 -2.33002 -1.63773
11.7048 -2.25602 -1.63773
11.7218 -2.22102 -1.63873
11.7128 -2.20002 -1.63673
11.7298 -2.16502 -1.63873
11.7388 -2.09102 -1.63773
11.7398 -2.05302 -1.63673
11.7428 -2.01502 -1.63673
11.7418 -1.99602 -1.63573
11.7478 -1.95902 -1.63573
11.7558 -1.92302 -1.63573
11.7678 -1.88702 -1.63673
11.7908 -1.85302 -1.63973
11.7778 -1.81202 -1.63673
11.7928 -1.77702 -1.63873
11.7758 -1.75502 -1.63573
11.7948 -1.72002 -1.63773
11.8088 -1.68502 -1.63873
11.8098 -1.64702 -1.63773
11.8248 -1.61102 -1.63973
11.8278 -1.57402 -1.63873
11.8228 -1.53502 -1.63773
11.8428 -1.51902 -1.64073
11.8238 -1.47902 -1.63673
11.8478 -1.44402 -1.63973
11.8388 -1.40502 -1.63773
11.8488 -1.36902 -1.63873
11.8518 -1.33102 -1.63873
11.8688 -1.29502 -1.64073
11.8688 -1.27702 -1.63973
11.8708 -1.23902 -1.63973
11.8768 -1.20202 -1.63973
11.8868 -1.16502 -1.64073
11.8828 -1.12702 -1.63973
11.8958 -1.09102 -1.64173
11.9058 -1.07302 -1.64273
11.9068 -1.03502 -1.64173
11.9258 -0.999017 -1.64473
11.9128 -0.960017 -1.64173
11.9018 -0.922017 -1.63973
11.9368 -0.887017 -1.64473
11.9318 -0.849017 -1.64373
11.9348 -0.830017 -1.64373
11.9628 -0.794017 -1.64773
11.9458 -0.756017 -1.64473
11.9458 -0.718017 -1.64473
11.9658 -0.644017 -1.64673
11.9618 -0.606017 -1.64573
11.9728 -0.550017 -1.64773
11.9718 -0.512017 -1.64673
11.1118 0.00598316 -1.64773
11.1198 0.0409832 -1.64973
11.1188 0.0759832 -1.64973
11.1168 0.110983 -1.64873
11.1268 0.127983 -1.65073
11.1298 0.162983 -1.65073
11.1338 0.197983 -1.65173
11.1328 0.232983 -1.65173
11.1298 0.267983 -1.65173
11.1328 0.302983 -1.65173
11.1378 0.337983 -1.65273
11.1358 0.390983 -1.65273
11.1308 0.425983 -1.65273
11.1338 0.460983 -1.65273
11.0578 1.22698 -1.64973
10.8308 2.40898 -1.64573
10.7478 2.42598 -1.63373
10.9938 -1.24302 -1.64073
11.0138 -1.05302 -1.64073
11.0188 -1.01802 -1.64073
11.0298 -0.985017 -1.64173
11.0368 -0.933017 -1.64273
11.0278 -0.897017 -1.64073
11.0418 -0.863017 -1.64273
11.0508 -0.829017 -1.64373
11.0518 -0.794017 -1.64273
11.0558 -0.760017 -1.64373
11.0408 -0.741017 -1.64073
11.0568 -0.707017 -1.64273
11.0578 -0.673017 -1.64273
11.0578 -0.638017 -1.64273
11.0678 -0.603017 -1.64373
11.0638 -0.568017 -1.64273
11.0808 -0.534017 -1.64473
11.0738 -0.517017 -1.64373
11.0778 -0.482017 -1.64373
11.0808 -0.447017 -1.64473
11.0738 -0.412017 -1.64373
11.0948 -0.378017 -1.64673
11.1058 -0.343017 -1.64773
11.1048 -0.326017 -1.64773
11.0918 -0.291017 -1.64573
11.0848 -0.256017 -1.64373
11.0998 -0.221017 -1.64673
11.1078 -0.186017 -1.64773
11.1108 -0.151017 -1.64773
11.0988 -0.116017 -1.64573
11.1088 -0.0990168 -1.64773
11.1018 -0.0640168 -1.64673
11.1118 -0.0290168 -1.64773
10.2238 2.34298 -1.65273
10.1058 -2.91102 -1.65673
10.1048 -2.87702 -1.65573
10.1258 -2.83102 -1.65673
10.1278 -2.79702 -1.65573
10.1498 -2.70102 -1.65473
10.3348 -1.66302 -1.64873
10.3508 -1.59902 -1.64973
10.3498 -1.56502 -1.64873
10.3618 -1.53402 -1.64973
10.3658 -1.46802 -1.64873
10.3588 -1.45002 -1.64773
10.3828 -1.42102 -1.65073
10.3868 -1.38802 -1.65073
10.3908 -1.35502 -1.65073
10.3958 -1.32302 -1.65073
10.4058 -1.29102 -1.65173
10.4078 -1.25802 -1.65173
10.4168 -1.24202 -1.65273
10.4058 -1.20802 -1.64973
10.4228 -1.17702 -1.65273
10.4248 -1.14402 -1.65173
10.4358 -1.11202 -1.65373
10.4338 -1.07802 -1.65273
10.4408 -1.04602 -1.65273
10.4408 -1.02902 -1.65273
10.4498 -0.997017 -1.65373
10.4528 -0.964017 -1.65373
10.4438 -0.930017 -1.65173
10.4608 -0.899017 -1.65373
10.4668 -0.866017 -1.65473
10.4728 -0.850017 -1.65573
10.4788 -0.818017 -1.65573
10.4858 -0.785017 -1.65673
10.4818 -0.752017 -1.65573
10.4858 -0.719017 -1.65573
10.4958 -0.686017 -1.65773
10.4928 -0.653017 -1.65673
10.5008 -0.637017 -1.65773
10.4978 -0.604017 -1.65673
10.4928 -0.570017 -1.65573
10.5128 -0.538017 -1.65873
10.5048 -0.505017 -1.65673
10.5218 -0.473017 -1.65973
10.5078 -0.439017 -1.65673
10.5098 -0.422017 -1.65773
10.5138 -0.389017 -1.65773
10.5308 -0.357017 -1.66073
10.5198 -0.323017 -1.65873
10.5048 -0.290017 -1.65573
10.5218 -0.257017 -1.65873
10.5238 -0.224017 -1.65873
10.5288 -0.208017 -1.65973
10.5358 -0.142017 -1.66073
10.5378 -0.0760168 -1.66073
9.72179 2.30198 -1.65673
9.65279 2.31698 -1.64573
9.56179 -3.00802 -1.66273
9.57679 -2.97902 -1.66373
9.59379 -2.95102 -1.66473
9.60179 -2.93802 -1.66573
9.60179 -2.90502 -1.66373
9.60179 -2.87202 -1.66173
9.60879 -2.84102 -1.66173
9.62479 -2.78002 -1.66173
9.65979 -2.61002 -1.65973
9.75279 -2.16402 -1.65673
9.77279 -2.07202 -1.65673
9.78479 -1.99402 -1.65573
9.80579 -1.93402 -1.65673
9.81179 -1.87202 -1.65573
9.80979 -1.83902 -1.65473
9.82279 -1.81002 -1.65573
9.83179 -1.76402 -1.65573
9.83879 -1.73302 -1.65673
9.84079 -1.70202 -1.65573
9.83979 -1.67002 -1.65473
9.85679 -1.64102 -1.65673
9.86379 -1.61002 -1.65673
9.85879 -1.59302 -1.65573
9.87479 -1.56402 -1.65773
9.87779 -1.53302 -1.65773
9.88879 -1.50302 -1.65873
9.90279 -1.47302 -1.66073
9.89579 -1.44002 -1.65873
9.89979 -1.42502 -1.65873
9.90679 -1.39402 -1.65873
9.91279 -1.36302 -1.65973
9.91879 -1.33202 -1.65973
9.92479 -1.30102 -1.65973
9.92179 -1.26902 -1.65873
9.93079 -1.23902 -1.65973
9.92279 -1.22202 -1.65773
9.92279 -1.19002 -1.65673
9.93879 -1.16102 -1.65973
9.93779 -1.12902 -1.65873
9.94979 -1.09802 -1.65973
9.94679 -1.06702 -1.65873
9.97379 -1.03802 -1.66273
9.96579 -1.02102 -1.66173
9.95879 -0.989017 -1.65973
9.97379 -0.959017 -1.66173
9.96279 -0.926017 -1.65973
9.97779 -0.896017 -1.66173
9.98879 -0.865017 -1.66273
9.99679 -0.834017 -1.66373
10.0018 -0.819017 -1.66473
10.0028 -0.787017 -1.66373
10.0008 -0.755017 -1.66373
10.0178 -0.725017 -1.66573
10.0198 -0.694017 -1.66573
10.0158 -0.662017 -1.66473
10.0258 -0.631017 -1.66673
10.0248 -0.615017 -1.66573
10.0108 -0.582017 -1.66273
10.0338 -0.552017 -1.66673
10.0298 -0.520017 -1.66573
10.0338 -0.489017 -1.66673
10.0368 -0.457017 -1.66673
10.0238 -0.410017 -1.66373
10.0368 -0.315017 -1.66573
10.0338 -0.284017 -1.66473
9.47379 1.71598 -1.66373
9.46879 1.77698 -1.66473
9.46379 1.80698 -1.66473
9.44079 1.83298 -1.66173
9.43679 1.89398 -1.66273
9.36879 2.21998 -1.66373
9.35979 2.24798 -1.66273
9.29379 2.26398 -1.65173
9.15779 -3.03802 -1.66673
9.17279 -3.01102 -1.66773
9.22679 -2.99702 -1.67673
9.20379 -2.97302 -1.67173
9.20179 -2.94102 -1.66973
9.23079 -2.91802 -1.67373
9.21579 -2.88202 -1.66873
9.25079 -2.86102 -1.67373
9.23579 -2.82402 -1.66873
9.23679 -2.79302 -1.66773
9.24379 -2.77902 -1.66773
9.25579 -2.75102 -1.66873
9.26579 -2.72302 -1.66873
9.27679 -2.69402 -1.66973
9.27979 -2.66302 -1.66773
9.28979 -2.63502 -1.66873
9.27079 -2.61402 -1.66373
9.29579 -2.58902 -1.66773
9.29279 -2.55702 -1.66573
9.30479 -2.52902 -1.66573
9.32379 -2.50202 -1.66773
9.31279 -2.46802 -1.66473
9.33179 -2.44202 -1.66673
9.33179 -2.42602 -1.66573
9.33379 -2.39502 -1.66473
9.33579 -2.36502 -1.66373
9.33779 -2.33402 -1.66273
9.35379 -2.30702 -1.66473
9.35179 -2.27502 -1.66273
9.36879 -2.24802 -1.66473
9.37179 -2.23302 -1.66473
9.36579 -2.20102 -1.66173
9.37479 -2.17202 -1.66273
9.38279 -2.14302 -1.66273
9.38579 -2.11202 -1.66173
9.40579 -2.08602 -1.66473
9.40679 -2.05502 -1.66373
9.40579 -2.03902 -1.66273
9.41779 -2.01102 -1.66373
9.42279 -1.98102 -1.66373
9.42079 -1.95002 -1.66173
9.44079 -1.92302 -1.66473
9.43879 -1.89202 -1.66273
9.44979 -1.87802 -1.66473
9.44979 -1.84802 -1.66373
9.45879 -1.81902 -1.66373
9.45679 -1.78702 -1.66273
9.47279 -1.76002 -1.66473
9.46079 -1.72702 -1.66173
9.47379 -1.69802 -1.66273
9.47579 -1.68302 -1.66273
9.49279 -1.65602 -1.66473
9.49479 -1.62502 -1.66373
9.51079 -1.59702 -1.66673
9.50079 -1.56502 -1.66373
9.51479 -1.53702 -1.66573
9.53379 -1.50902 -1.66773
9.52579 -1.49202 -1.66573
9.53079 -1.46202 -1.66573
9.53279 -1.43202 -1.66573
9.53579 -1.40202 -1.66573
9.54179 -1.37202 -1.66573
9.55379 -1.34302 -1.66673
9.55479 -1.31302 -1.66673
9.55479 -1.29702 -1.66573
9.56679 -1.26802 -1.66773
9.57079 -1.23802 -1.66773
9.56679 -1.20702 -1.66573
9.58979 -1.18002 -1.66973
9.58179 -1.14802 -1.66773
9.60079 -1.12002 -1.67073
9.59679 -1.10402 -1.66973
9.59379 -1.07302 -1.66773
9.59979 -1.04302 -1.66873
9.61079 -1.01402 -1.66973
9.60379 -0.983017 -1.66773
9.61079 -0.953017 -1.66873
9.62179 -0.924017 -1.67073
9.61879 -0.908017 -1.66973
9.61779 -0.878017 -1.66873
9.63479 -0.849017 -1.67173
9.63479 -0.818017 -1.67073
9.63979 -0.788017 -1.67173
9.63579 -0.757017 -1.67073
9.64079 -0.742017 -1.67073
9.64179 -0.712017 -1.67073
9.64979 -0.682017 -1.67173
9.64379 -0.651017 -1.67073
9.64979 -0.621017 -1.67073
9.65179 -0.484017 -1.66973
9.12479 1.30798 -1.66873
9.11479 1.33598 -1.66773
9.11879 1.35098 -1.66873
9.11079 1.37898 -1.66873
9.09879 1.40598 -1.66673
9.10379 1.43598 -1.66873
9.08979 1.46298 -1.66673
9.07379 1.48998 -1.66473
9.07079 1.51898 -1.66473
9.07379 1.53398 -1.66573
9.06179 1.56098 -1.66473
9.06079 1.58998 -1.66573
9.05679 1.61898 -1.66573
9.05179 1.64798 -1.66573
9.04279 1.67498 -1.66473
9.04779 1.69098 -1.66673
9.03879 1.71898 -1.66573
9.03579 1.74798 -1.66573
9.02979 1.77598 -1.66573
9.02079 1.80298 -1.66573
9.02979 1.83498 -1.66873
9.01279 1.86098 -1.66573
9.02079 1.87798 -1.66873
8.90879 2.26698 -1.66373
8.84279 2.27998 -1.65273
8.84479 2.30998 -1.65473
8.71679 -3.06702 -1.67373
8.75979 -3.05102 -1.67973
8.77979 -3.02702 -1.68273
8.77279 -2.99402 -1.67873
8.78679 -2.98302 -1.68073
8.79979 -2.95702 -1.68173
8.79379 -2.92402 -1.67873
8.80679 -2.89802 -1.67973
8.79879 -2.86502 -1.67573
8.79279 -2.83202 -1.67273
8.81179 -2.80802 -1.67473
8.82179 -2.79602 -1.67573
8.82079 -2.76502 -1.67373
8.84079 -2.74102 -1.67673
8.84579 -2.71202 -1.67573
8.84279 -2.68002 -1.67373
8.86279 -2.65602 -1.67573
8.86879 -2.62802 -1.67473
8.87279 -2.61402 -1.67473
8.87379 -2.58402 -1.67373
8.89079 -2.55802 -1.67573
8.89379 -2.52902 -1.67473
8.90179 -2.50102 -1.67473
8.91479 -2.47502 -1.67573
8.92479 -2.44702 -1.67573
8.92279 -2.43102 -1.67473
8.91479 -2.39902 -1.67173
8.92079 -2.37102 -1.67173
8.92179 -2.34102 -1.66973
8.93479 -2.31502 -1.67173
8.94279 -2.28702 -1.67173
8.97079 -2.27902 -1.67673
8.95679 -2.24502 -1.67173
8.99879 -2.22602 -1.67873
8.97479 -2.19002 -1.67273
9.00879 -2.16802 -1.67773
8.98679 -2.13302 -1.67273
8.98879 -2.10402 -1.67173
9.02279 -2.09702 -1.67773
9.02979 -2.06902 -1.67773
9.00179 -2.03302 -1.67073
9.04079 -2.01102 -1.67773
9.02779 -1.97902 -1.67373
9.04779 -1.95302 -1.67673
9.03079 -1.92002 -1.67173
9.03479 -1.90602 -1.67173
9.03179 -1.87602 -1.66973
9.04179 -1.84802 -1.67073
9.05279 -1.82102 -1.67173
9.05279 -1.79102 -1.67073
9.05479 -1.76202 -1.66973
9.06979 -1.73602 -1.67173
9.04679 -1.71702 -1.66673
9.06379 -1.69002 -1.66973
9.08079 -1.66402 -1.67173
9.07479 -1.63302 -1.66973
9.11279 -1.61102 -1.67573
9.09479 -1.57802 -1.67173
9.11879 -1.55302 -1.67473
9.08779 -1.53302 -1.66873
9.13979 -1.51202 -1.67773
9.10379 -1.47702 -1.66973
9.13679 -1.45302 -1.67573
9.12379 -1.42102 -1.67173
9.11679 -1.39102 -1.66973
9.15779 -1.38202 -1.67773
9.13279 -1.34902 -1.67173
9.16679 -1.32502 -1.67773
9.14679 -1.29302 -1.67273
9.15279 -1.26402 -1.67373
9.14979 -1.23402 -1.67173
9.15479 -1.20602 -1.67173
9.16679 -1.19302 -1.67373
9.16279 -1.16302 -1.67273
9.16279 -1.13402 -1.67173
9.17179 -1.10602 -1.67273
9.17479 -1.07702 -1.67273
9.18079 -1.04802 -1.67373
9.19779 -1.02102 -1.67573
9.18179 -1.00402 -1.67273
9.18879 -0.976017 -1.67373
9.19579 -0.948017 -1.67373
9.19579 -0.918017 -1.67373
9.20679 -0.890017 -1.67473
9.22279 -0.760017 -1.67573
8.71079 0.00298316 -1.67273
8.71479 0.0309832 -1.67373
8.70479 0.0579832 -1.67173
8.71479 0.0849832 -1.67373
8.71279 0.112983 -1.67373
8.70679 0.125983 -1.67173
8.70979 0.153983 -1.67273
8.71679 0.180983 -1.67473
8.71279 0.208983 -1.67373
8.71979 0.235983 -1.67573
8.72679 0.263983 -1.67673
8.70479 0.290983 -1.67273
8.71179 0.303983 -1.67373
8.71279 0.331983 -1.67473
8.71979 0.359983 -1.67573
8.71479 0.386983 -1.67573
8.71879 0.413983 -1.67673
8.71179 0.441983 -1.67573
8.70279 0.468983 -1.67373
8.69979 0.509983 -1.67373
8.70879 0.536983 -1.67573
8.70679 0.564983 -1.67573
8.65279 0.971983 -1.67173
8.64779 0.998983 -1.67173
8.63679 1.01198 -1.66973
8.63179 1.03898 -1.66973
8.61679 1.06398 -1.66673
8.60879 1.09098 -1.66573
8.60379 1.11798 -1.66573
8.59079 1.14398 -1.66373
8.58279 1.15598 -1.66273
8.58279 1.18398 -1.66273
8.56779 1.20898 -1.66073
8.56979 1.23698 -1.66173
8.56179 1.26298 -1.66073
8.55179 1.28898 -1.65973
8.56379 1.31798 -1.66273
8.54379 1.32898 -1.65973
8.53979 1.35598 -1.65973
8.53379 1.38298 -1.65873
8.52679 1.40898 -1.65873
8.52479 1.43598 -1.65873
8.52179 1.46298 -1.65973
8.50579 1.48798 -1.65673
8.51079 1.50298 -1.65873
8.50779 1.52998 -1.65873
8.50379 1.55698 -1.65873
8.49079 1.58198 -1.65773
8.48379 1.60798 -1.65673
8.47879 1.63498 -1.65673
8.47879 1.66298 -1.65873
8.46879 1.67398 -1.65673
8.46979 1.70198 -1.65773
8.46179 1.72798 -1.65773
8.45479 1.75398 -1.65673
8.45079 1.78098 -1.65773
8.44779 1.80798 -1.65773
8.45979 1.82498 -1.66073
8.46379 1.85398 -1.66273
8.45379 1.87898 -1.66273
8.44379 1.90498 -1.66173
8.45679 1.93598 -1.66573
8.45679 1.96398 -1.66673
8.44879 1.98998 -1.66673
8.44379 2.00298 -1.66573
8.44479 2.03098 -1.66773
8.44479 2.05898 -1.66873
8.43979 2.08598 -1.66973
8.42579 2.10998 -1.66773
8.41879 2.13698 -1.66773
8.41579 2.16398 -1.66873
8.41279 2.17798 -1.66873
8.41079 2.20498 -1.66973
8.37979 2.22498 -1.66473
8.37879 2.25298 -1.66573
8.36179 2.27698 -1.66373
8.17579 -3.05702 -1.67673
8.17979 -3.02902 -1.67573
8.18979 -3.00302 -1.67573
8.56879 -1.39502 -1.66673
8.59579 -1.17902 -1.66573
8.59579 -1.15102 -1.66473
8.61679 -1.04402 -1.66673
8.61679 -1.03002 -1.66573
8.61879 -0.976017 -1.66473
8.63979 -0.950017 -1.66873
8.63479 -0.922017 -1.66673
8.63779 -0.895017 -1.66673
8.64679 -0.883017 -1.66873
8.66279 -0.857017 -1.67173
8.65579 -0.829017 -1.66973
8.66879 -0.802017 -1.67173
8.65679 -0.774017 -1.66873
8.65579 -0.746017 -1.66773
8.66579 -0.720017 -1.66973
8.66679 -0.706017 -1.66973
8.67279 -0.679017 -1.67073
8.66379 -0.651017 -1.66773
8.65579 -0.623017 -1.66573
8.67479 -0.597017 -1.66973
8.67279 -0.570017 -1.66873
8.68179 -0.557017 -1.67073
8.66779 -0.528017 -1.66673
8.67879 -0.502017 -1.66973
8.67279 -0.474017 -1.66773
8.68579 -0.447017 -1.66973
8.69179 -0.420017 -1.67073
8.69679 -0.393017 -1.67173
8.69079 -0.379017 -1.67073
8.70579 -0.352017 -1.67373
8.70679 -0.325017 -1.67373
8.71179 -0.298017 -1.67373
8.70479 -0.270017 -1.67273
8.70979 -0.243017 -1.67373
8.71079 -0.216017 -1.67373
8.71679 -0.202017 -1.67473
8.70979 -0.175017 -1.67273
8.70579 -0.147017 -1.67173
8.71279 -0.120017 -1.67373
8.70679 -0.0920168 -1.67173
8.71479 -0.0650168 -1.67373
8.70579 -0.0380168 -1.67173
8.70779 -0.0240168 -1.67173
8.18279 1.67498 -1.67773
8.17179 1.69898 -1.67673
8.17179 1.72598 -1.67773
8.16779 1.73798 -1.67773
8.13779 1.87998 -1.67773
8.03779 2.23298 -1.67573
8.02179 2.25598 -1.67373
7.98979 2.27398 -1.66873
7.96779 2.29398 -1.66473
7.78479 -3.11702 -1.68473
7.81579 -3.10202 -1.69073
7.85079 -3.08702 -1.69573
7.86779 -3.06502 -1.69773
7.87779 -3.04002 -1.69773
7.87479 -3.01102 -1.69473
7.87179 -2.99602 -1.69273
7.88479 -2.97202 -1.69373
7.89279 -2.94702 -1.69373
7.88679 -2.91702 -1.69073
7.89779 -2.89202 -1.69073
7.90179 -2.86602 -1.68973
7.92179 -2.84502 -1.69173
7.92179 -2.83102 -1.69073
7.92879 -2.80502 -1.69073
7.91979 -2.77402 -1.68673
7.95379 -2.75802 -1.69273
7.93879 -2.72502 -1.68673
7.96179 -2.70502 -1.69073
7.96879 -2.67902 -1.68973
7.96679 -2.66502 -1.68873
7.97979 -2.64102 -1.68973
7.98779 -2.61602 -1.68973
7.98679 -2.58802 -1.68773
7.99679 -2.56302 -1.68773
8.01179 -2.54102 -1.68973
8.01579 -2.51402 -1.68873
8.01979 -2.50202 -1.68873
8.04079 -2.48002 -1.69173
8.03979 -2.45202 -1.68973
8.04279 -2.42602 -1.68873
8.06379 -2.40502 -1.69173
8.04879 -2.37302 -1.68673
8.05779 -2.34802 -1.68673
8.07679 -2.34002 -1.69073
8.07079 -2.31002 -1.68773
8.07279 -2.28302 -1.68573
8.10479 -2.26502 -1.69173
8.08479 -2.23202 -1.68573
8.09979 -2.20902 -1.68773
8.11079 -2.19802 -1.68873
8.10779 -2.17002 -1.68673
8.12079 -2.14602 -1.68773
8.13679 -2.12302 -1.69073
8.12279 -2.09202 -1.68573
8.12879 -2.06702 -1.68573
8.15079 -2.04502 -1.68873
8.14979 -2.03102 -1.68773
8.15479 -2.00502 -1.68773
8.16279 -1.98002 -1.68773
8.15179 -1.95002 -1.68473
8.16879 -1.92702 -1.68673
8.19179 -1.90502 -1.69073
8.17879 -1.87502 -1.68673
8.16679 -1.85902 -1.68273
8.19979 -1.83902 -1.68873
8.17679 -1.80702 -1.68273
8.18579 -1.78202 -1.68373
8.19379 -1.75702 -1.68373
8.19479 -1.73102 -1.68273
8.21379 -1.70802 -1.68573
8.21479 -1.69402 -1.68573
8.21779 -1.66802 -1.68473
8.22679 -1.64302 -1.68573
8.23779 -1.61802 -1.68773
8.23479 -1.59102 -1.68573
8.24779 -1.56702 -1.68773
8.25679 -1.54102 -1.68773
8.24779 -1.52602 -1.68573
8.23879 -1.49802 -1.68273
8.27079 -1.47702 -1.68873
8.25779 -1.44802 -1.68473
8.26179 -1.42202 -1.68473
8.26879 -1.39602 -1.68473
8.27479 -1.38402 -1.68573
8.28279 -1.35802 -1.68673
8.28879 -1.33302 -1.68773
8.27579 -1.30402 -1.68373
8.28879 -1.27902 -1.68573
8.29279 -1.25302 -1.68573
8.29879 -1.22802 -1.68573
8.29879 -1.21402 -1.68573
8.30879 -1.16202 -1.68573
8.31779 -1.11002 -1.68673
8.33079 -0.992017 -1.68573
7.99279 0.981983 -1.67973
7.99879 1.00798 -1.68173
7.98779 1.03298 -1.68073
7.98479 1.05798 -1.68073
7.97579 1.08198 -1.67873
7.97779 1.09498 -1.67973
7.97279 1.11998 -1.67973
7.96479 1.14398 -1.67873
7.95379 1.16798 -1.67673
7.95779 1.19398 -1.67873
7.94579 1.21798 -1.67673
7.95179 1.24498 -1.67873
7.94279 1.25598 -1.67773
7.93279 1.27998 -1.67573
7.95379 1.30898 -1.68173
7.93779 1.33198 -1.67873
7.93179 1.35698 -1.67873
7.91779 1.37998 -1.67673
7.93479 1.39598 -1.68073
7.92679 1.41998 -1.67973
7.92579 1.44498 -1.68073
7.90779 1.46798 -1.67773
7.91079 1.49398 -1.67973
7.90179 1.54398 -1.67973
7.90479 1.55698 -1.68073
7.89979 1.58198 -1.68073
7.88979 1.63198 -1.68073
7.88079 1.65598 -1.67973
7.86779 1.71798 -1.67973
7.85479 1.76698 -1.67973
7.72579 2.21598 -1.67673
7.71679 2.23998 -1.67573
7.67779 2.25498 -1.66873
7.48679 -3.13102 -1.69373
7.50179 -3.11002 -1.69473
7.50979 -3.08602 -1.69473
7.52479 -3.06402 -1.69573
7.51679 -3.03302 -1.69173
7.51479 -3.00502 -1.68873
7.54579 -2.99002 -1.69473
7.54179 -2.97502 -1.69173
7.54379 -2.94802 -1.69073
7.55679 -2.92602 -1.69173
7.56379 -2.90202 -1.69073
7.56179 -2.87402 -1.68773
7.59879 -2.86002 -1.69473
7.58579 -2.82802 -1.68973
7.57779 -2.81102 -1.68673
7.59679 -2.79202 -1.68873
7.60379 -2.76702 -1.68873
7.60479 -2.74102 -1.68673
7.62479 -2.72102 -1.68973
7.61679 -2.69102 -1.68573
7.63079 -2.66902 -1.68673
7.65179 -2.66302 -1.69073
7.64679 -2.63402 -1.68773
7.67379 -2.61602 -1.69173
7.69479 -2.59702 -1.69473
7.66079 -2.55802 -1.68473
7.68879 -2.54102 -1.68973
7.68679 -2.52702 -1.68873
7.68379 -2.49902 -1.68573
7.69879 -2.47702 -1.68773
7.70679 -2.45302 -1.68773
7.70679 -2.42702 -1.68573
7.71079 -2.40102 -1.68473
7.73479 -2.38202 -1.68873
7.72579 -2.36602 -1.68573
7.73679 -2.34302 -1.68673
7.74979 -2.32002 -1.68773
7.75179 -2.29402 -1.68673
7.74779 -2.26602 -1.68473
7.75679 -2.24302 -1.68473
7.75179 -2.21502 -1.68173
7.77479 -2.20802 -1.68673
7.78479 -2.18502 -1.68773
7.78679 -2.15902 -1.68573
7.79879 -2.13602 -1.68773
7.80179 -2.11002 -1.68673
7.80979 -2.08602 -1.68673
7.79979 -2.05702 -1.68273
7.82979 -2.05202 -1.68873
7.81879 -2.02302 -1.68473
7.82479 -1.99802 -1.68473
7.83879 -1.97602 -1.68673
7.83779 -1.94902 -1.68473
7.83979 -1.92402 -1.68473
7.84379 -1.89802 -1.68373
7.84879 -1.88702 -1.68473
7.83979 -1.85802 -1.68073
7.85879 -1.83702 -1.68373
7.86079 -1.81102 -1.68273
7.87179 -1.78802 -1.68473
7.87579 -1.76302 -1.68373
7.88579 -1.75202 -1.68573
7.86679 -1.72202 -1.67973
7.88379 -1.70002 -1.68273
7.88479 -1.67402 -1.68173
7.89779 -1.65102 -1.68373
7.89479 -1.62402 -1.68173
7.90779 -1.60102 -1.68373
7.92179 -1.59102 -1.68573
7.91879 -1.56502 -1.68473
7.91879 -1.53902 -1.68273
7.92279 -1.51402 -1.68273
7.93179 -1.49002 -1.68373
7.91879 -1.46102 -1.67973
7.93879 -1.45202 -1.68373
7.93779 -1.42602 -1.68273
7.93979 -1.40102 -1.68173
7.94279 -1.37602 -1.68173
7.96979 -1.35502 -1.68673
7.94879 -1.32502 -1.68173
7.96879 -1.30302 -1.68473
7.97079 -1.29002 -1.68473
7.96279 -1.26302 -1.68173
7.96879 -1.23902 -1.68273
7.97679 -1.21402 -1.68373
7.98579 -1.19002 -1.68473
7.97979 -1.16402 -1.68273
7.98379 -1.13802 -1.68273
7.98779 -1.12602 -1.68273
8.00279 -1.10302 -1.68573
8.00779 -1.07802 -1.68573
8.01079 -1.05302 -1.68573
8.00479 -1.02602 -1.68373
8.01179 -1.00202 -1.68473
8.02079 -0.977017 -1.68573
8.01279 -0.963017 -1.68373
8.02179 -0.939017 -1.68473
8.02079 -0.913017 -1.68473
8.03679 -0.890017 -1.68773
8.03379 -0.864017 -1.68573
8.04179 -0.826017 -1.68673
8.04979 -0.725017 -1.68673
8.05879 -0.662017 -1.68773
8.06079 -0.611017 -1.68673
8.06979 -0.472017 -1.68673
8.07179 -0.446017 -1.68673
7.76379 0.0129832 -1.68373
7.77279 0.0369832 -1.68673
7.76679 0.0619832 -1.68473
7.76279 0.0859832 -1.68373
7.76479 0.122983 -1.68473
7.76579 0.146983 -1.68473
7.77179 0.170983 -1.68673
7.76479 0.195983 -1.68473
7.76579 0.219983 -1.68573
7.77179 0.244983 -1.68673
7.76879 0.256983 -1.68673
7.76279 0.280983 -1.68473
7.75779 0.304983 -1.68373
7.75079 0.328983 -1.68273
7.75579 0.353983 -1.68373
7.76379 0.378983 -1.68673
7.74879 0.402983 -1.68273
7.74879 0.414983 -1.68273
7.74679 0.438983 -1.68273
7.74979 0.463983 -1.68373
7.74279 0.487983 -1.68273
7.73479 0.511983 -1.68173
7.73279 0.535983 -1.68173
7.74279 0.560983 -1.68373
7.73879 0.572983 -1.68273
7.74279 0.597983 -1.68473
7.73079 0.620983 -1.68273
7.71479 0.864983 -1.68373
7.71679 0.888983 -1.68473
7.71779 0.913983 -1.68573
7.69879 0.935983 -1.68273
7.68979 0.959983 -1.68073
7.69679 0.984983 -1.68273
7.67479 1.00698 -1.67873
7.69379 1.02198 -1.68373
7.68679 1.04498 -1.68273
7.66479 1.06698 -1.67773
7.66879 1.09198 -1.67973
7.66479 1.11598 -1.67973
7.65779 1.13898 -1.67873
7.65579 1.16398 -1.67973
7.65379 1.17598 -1.67973
7.65079 1.19998 -1.67973
7.63879 1.22298 -1.67773
7.65079 1.24898 -1.68173
7.63479 1.27098 -1.67873
7.62879 1.29498 -1.67773
7.62279 1.31898 -1.67773
7.61479 1.32998 -1.67673
7.60379 1.35198 -1.67473
7.61979 1.37998 -1.67973
7.60079 1.40098 -1.67573
7.60379 1.42598 -1.67773
7.60079 1.44998 -1.67773
7.59479 1.46198 -1.67773
7.58479 1.48398 -1.67573
7.60279 1.51298 -1.68173
7.57279 1.53198 -1.67573
7.57579 1.55698 -1.67773
7.56879 1.57998 -1.67673
7.56779 1.60498 -1.67773
7.56579 1.61698 -1.67773
7.55879 1.63998 -1.67773
7.54379 1.66198 -1.67473
7.54179 1.68598 -1.67573
7.54979 1.71298 -1.67873
7.52179 1.73098 -1.67373
7.51279 1.75398 -1.67273
7.53279 1.77098 -1.67773
7.51579 1.79198 -1.67573
7.50579 1.81498 -1.67473
7.51379 1.84198 -1.67773
7.48179 1.85898 -1.67173
7.47979 1.88298 -1.67273
7.49079 1.91098 -1.67673
7.48179 1.92098 -1.67473
7.49279 1.94898 -1.67873
7.48979 1.97398 -1.67973
7.47679 1.99498 -1.67773
7.47379 2.01998 -1.67873
7.48279 2.04798 -1.68273
7.46679 2.06798 -1.68073
7.47079 2.08198 -1.68273
7.45379 2.12798 -1.68173
7.45679 2.15398 -1.68373
7.42979 2.19698 -1.68073
7.39479 2.19898 -1.67273
7.37679 2.21898 -1.66973
7.13779 -3.14202 -1.69173
7.17779 -3.13202 -1.69973
7.18579 -3.10902 -1.69973
7.20879 -3.09202 -1.70273
7.19079 -3.05802 -1.69573
7.19679 -3.03402 -1.69473
7.20579 -3.02402 -1.69573
7.19679 -2.99402 -1.69173
7.20279 -2.97002 -1.69073
7.20479 -2.94402 -1.68873
7.20079 -2.91602 -1.68573
7.23079 -2.90202 -1.69073
7.23679 -2.89102 -1.69073
7.22579 -2.86002 -1.68573
7.25279 -2.84502 -1.69073
7.26379 -2.82302 -1.69073
7.26479 -2.79702 -1.68873
7.26279 -2.77002 -1.68673
7.28479 -2.75202 -1.68973
7.27079 -2.73402 -1.68473
7.27879 -2.71102 -1.68473
7.30779 -2.69502 -1.68973
7.29579 -2.66502 -1.68473
7.33679 -2.62802 -1.69073
7.32279 -2.59702 -1.68573
7.31779 -2.58202 -1.68273
7.35079 -2.56802 -1.68973
7.34279 -2.53902 -1.68573
7.35479 -2.51702 -1.68673
7.37879 -2.50002 -1.69073
7.36479 -2.46902 -1.68473
7.37079 -2.44602 -1.68473
7.38179 -2.43602 -1.68673
7.38579 -2.38602 -1.68373
7.40979 -2.36802 -1.68773
7.40179 -2.31502 -1.68273
7.41879 -2.29502 -1.68473
7.41679 -2.28102 -1.68273
7.41679 -2.25602 -1.68173
7.44979 -2.24002 -1.68773
7.42879 -2.20802 -1.68073
7.44879 -2.18902 -1.68373
7.45679 -2.16602 -1.68473
7.46479 -2.15502 -1.68573
7.45379 -2.12702 -1.68173
7.45879 -2.10302 -1.68073
7.46579 -2.08002 -1.68073
7.46979 -2.05602 -1.68073
7.49579 -2.03702 -1.68473
7.48279 -2.00902 -1.68073
7.49379 -1.97402 -1.68073
7.49279 -1.94902 -1.67873
7.50279 -1.92602 -1.67973
7.51079 -1.90302 -1.68073
7.51079 -1.87802 -1.67873
7.51179 -1.86602 -1.67873
7.51979 -1.84202 -1.67873
7.52779 -1.81902 -1.67973
7.52579 -1.79402 -1.67773
7.54779 -1.77402 -1.68173
7.54379 -1.74802 -1.67973
7.54879 -1.71202 -1.67873
7.54979 -1.68702 -1.67773
7.55879 -1.66402 -1.67873
7.57179 -1.64202 -1.68073
7.57679 -1.59302 -1.67873
7.57779 -1.56902 -1.67773
7.58579 -1.55802 -1.67973
7.58679 -1.53302 -1.67873
7.61079 -1.51302 -1.68273
7.59379 -1.48502 -1.67773
7.60079 -1.46202 -1.67873
7.61679 -1.44002 -1.68173
7.60779 -1.41402 -1.67773
7.60279 -1.40002 -1.67673
7.62179 -1.37902 -1.67973
7.61279 -1.35302 -1.67673
7.62279 -1.33002 -1.67773
7.62379 -1.30502 -1.67773
7.62779 -1.28102 -1.67773
7.63279 -1.27002 -1.67773
7.64879 -1.24802 -1.68073
7.65679 -1.22502 -1.68173
7.64679 -1.19802 -1.67873
7.65079 -1.17402 -1.67873
7.66979 -1.15302 -1.68273
7.66779 -1.12802 -1.68073
7.67079 -1.11602 -1.68173
7.66479 -1.09002 -1.67873
7.66979 -1.06702 -1.67973
7.67379 -1.04302 -1.67973
7.67879 -1.01902 -1.67973
7.68179 -0.995017 -1.67973
7.67679 -0.969017 -1.67773
7.67679 -0.957017 -1.67773
7.69379 -0.935017 -1.68073
7.70979 -0.912017 -1.68373
7.70479 -0.887017 -1.68273
7.69979 -0.862017 -1.68073
7.70679 -0.838017 -1.68173
7.68979 -0.812017 -1.67673
7.70679 -0.801017 -1.68073
7.72979 -0.779017 -1.68573
7.71479 -0.753017 -1.68173
7.72279 -0.730017 -1.68273
7.71979 -0.705017 -1.68173
7.72379 -0.681017 -1.68173
7.72179 -0.656017 -1.68073
7.73679 -0.645017 -1.68373
7.72879 -0.620017 -1.68173
7.73079 -0.596017 -1.68173
7.74279 -0.572017 -1.68373
7.73279 -0.547017 -1.68173
7.72979 -0.522017 -1.68073
7.75179 -0.499017 -1.68473
7.73879 -0.486017 -1.68173
7.73579 -0.462017 -1.68073
7.75279 -0.438017 -1.68473
7.74279 -0.413017 -1.68173
7.75979 -0.390017 -1.68573
7.75879 -0.365017 -1.68473
7.75379 -0.353017 -1.68373
7.75079 -0.328017 -1.68273
7.77079 -0.305017 -1.68673
7.76079 -0.280017 -1.68473
7.76079 -0.256017 -1.68473
7.76379 -0.231017 -1.68473
7.76879 -0.207017 -1.68573
7.75879 -0.195017 -1.68373
7.78079 -0.171017 -1.68873
7.77179 -0.146017 -1.68673
7.76679 -0.121017 -1.68473
7.76679 -0.0970168 -1.68473
7.76479 -0.0730168 -1.68473
7.76579 -0.0480168 -1.68473
7.77679 -0.0360168 -1.68673
7.76579 -0.0120168 -1.68473
7.37279 1.42198 -1.68673
7.12079 2.23098 -1.67573
6.84479 -3.17802 -1.69573
6.88079 -3.18202 -1.70373
6.86679 -3.14902 -1.69773
6.90479 -3.14002 -1.70473
6.95279 -3.05702 -1.70773
6.94679 -3.04102 -1.70473
6.94179 -3.01302 -1.70073
6.95479 -2.99302 -1.70173
6.95679 -2.96802 -1.69973
6.97379 -2.94902 -1.70173
6.97179 -2.92302 -1.69873
6.98979 -2.90502 -1.70173
6.98579 -2.89002 -1.69873
6.99779 -2.86902 -1.69973
7.00379 -2.84602 -1.69873
6.99479 -2.81702 -1.69473
7.03179 -2.80602 -1.70173
7.01779 -2.77502 -1.69573
7.03879 -2.75802 -1.69873
7.03779 -2.74502 -1.69773
7.03879 -2.72002 -1.69573
7.04379 -2.69602 -1.69473
7.07779 -2.68402 -1.70173
7.07679 -2.65802 -1.69873
7.08579 -2.63602 -1.69873
7.10079 -2.61602 -1.70073
7.09779 -2.60202 -1.69873
7.09679 -2.57702 -1.69673
7.10679 -2.55502 -1.69673
7.09779 -2.52702 -1.69273
7.10079 -2.50202 -1.69173
7.13079 -2.48802 -1.69673
7.11579 -2.47002 -1.69273
7.11979 -2.44702 -1.69173
7.14279 -2.42902 -1.69573
7.13479 -2.40202 -1.69173
7.13579 -2.37702 -1.68973
7.14879 -2.35602 -1.69073
7.16479 -2.33702 -1.69373
7.15579 -2.32102 -1.68973
7.18279 -2.30602 -1.69573
7.15479 -2.27202 -1.68673
7.18879 -2.25702 -1.69273
7.19679 -2.23502 -1.69373
7.18579 -2.20702 -1.68873
7.19879 -2.19902 -1.69073
7.21079 -2.17802 -1.69273
7.21379 -2.15402 -1.69173
7.22779 -2.13302 -1.69373
7.23479 -2.11102 -1.69373
7.23179 -2.08502 -1.69073
7.23879 -2.06302 -1.69073
7.25079 -2.05402 -1.69373
7.25179 -2.02902 -1.69173
7.24679 -2.00402 -1.68873
7.26479 -1.98402 -1.69173
7.24979 -1.95502 -1.68673
7.26179 -1.93402 -1.68873
7.28479 -1.91602 -1.69273
7.27279 -1.90002 -1.68873
7.26179 -1.87302 -1.68473
7.28879 -1.85602 -1.68973
7.29079 -1.83202 -1.68873
7.29579 -1.80902 -1.68873
7.29179 -1.78402 -1.68673
7.29979 -1.76102 -1.68673
7.29279 -1.74702 -1.68473
7.32079 -1.73002 -1.68973
7.32279 -1.70602 -1.68873
7.32579 -1.68202 -1.68873
7.33379 -1.66002 -1.68873
7.33879 -1.63702 -1.68873
7.33579 -1.62402 -1.68773
7.32379 -1.59702 -1.68373
7.35279 -1.58002 -1.68973
7.35079 -1.55502 -1.68773
7.34979 -1.53102 -1.68673
7.36779 -1.51002 -1.68973
7.35179 -1.48302 -1.68473
7.36179 -1.47302 -1.68673
7.37579 -1.45202 -1.68873
7.36079 -1.42502 -1.68373
7.37879 -1.40402 -1.68773
7.38279 -1.38102 -1.68773
7.37179 -1.35502 -1.68373
7.40479 -1.33702 -1.69073
7.38979 -1.32202 -1.68673
7.39779 -1.30002 -1.68773
7.41179 -1.27802 -1.68973
7.39279 -1.25102 -1.68373
7.39479 -1.22702 -1.68373
7.41779 -1.20702 -1.68873
7.41379 -1.18302 -1.68673
7.41379 -1.17102 -1.68573
7.43779 -1.15102 -1.69073
7.42679 -1.12502 -1.68773
7.44379 -1.10402 -1.69073
7.43479 -1.07902 -1.68773
7.44479 -1.05602 -1.68873
7.46079 -1.03502 -1.69273
7.44879 -1.02102 -1.68873
7.45779 -0.998017 -1.69073
7.46179 -0.975017 -1.69073
7.46279 -0.951017 -1.68973
7.46679 -0.928017 -1.69073
7.47379 -0.905017 -1.69173
7.48079 -0.882017 -1.69273
7.48379 -0.870017 -1.69273
7.46779 -0.845017 -1.68873
7.47979 -0.822017 -1.69073
7.48779 -0.799017 -1.69173
7.48079 -0.775017 -1.68973
7.49179 -0.740017 -1.69173
7.50179 -0.718017 -1.69373
7.50679 -0.694017 -1.69373
7.49679 -0.646017 -1.69073
7.50979 -0.564017 -1.69173
7.50979 -0.445017 -1.68973
7.17079 0.0109832 -1.68073
7.18279 0.0329832 -1.68373
7.17479 0.0559832 -1.68173
7.18479 0.0669832 -1.68473
7.17979 0.0899832 -1.68373
7.17179 0.111983 -1.68173
7.16779 0.133983 -1.68073
7.17679 0.156983 -1.68273
7.17779 0.201983 -1.68373
7.17579 0.213983 -1.68273
7.16879 0.257983 -1.68173
7.17279 0.280983 -1.68273
7.16479 0.302983 -1.68073
7.16279 0.347983 -1.68073
7.13379 0.380983 -1.67373
7.16379 0.404983 -1.68173
7.13079 0.469983 -1.67473
7.12479 0.491983 -1.67373
7.12379 0.503983 -1.67373
7.12879 0.525983 -1.67473
7.12879 0.548983 -1.67573
7.12479 0.570983 -1.67473
7.12279 0.593983 -1.67473
7.12479 0.615983 -1.67573
7.14879 0.629983 -1.68273
7.14179 0.651983 -1.68073
7.13179 0.672983 -1.67873
7.14279 0.696983 -1.68273
7.14479 0.719983 -1.68373
7.14779 0.742983 -1.68473
7.14179 0.764983 -1.68373
7.15779 0.777983 -1.68773
7.11679 0.795983 -1.67873
7.12379 0.819983 -1.68073
7.12479 0.842983 -1.68173
7.11279 0.863983 -1.67973
7.12579 0.887983 -1.68373
7.09579 0.906983 -1.67673
7.10779 0.919983 -1.67973
7.08579 0.939983 -1.67473
7.10179 0.964983 -1.67973
7.08779 0.984983 -1.67673
7.08279 1.00698 -1.67673
7.08279 1.02998 -1.67773
7.07179 1.05098 -1.67573
7.07079 1.06198 -1.67573
7.06279 1.08398 -1.67473
7.05979 1.12898 -1.67573
7.05979 1.15198 -1.67673
7.04479 1.17198 -1.67373
7.03979 1.20498 -1.67373
7.02779 1.27098 -1.67373
7.01179 1.31398 -1.67173
7.00579 1.34698 -1.67173
6.98879 1.43498 -1.67173
6.98179 1.46798 -1.67173
6.97579 1.51298 -1.67273
6.96279 1.55598 -1.67173
6.94879 1.63298 -1.67273
6.93879 1.67698 -1.67273
6.92979 1.69698 -1.67173
6.92179 1.74198 -1.67273
6.89879 1.83998 -1.67273
6.88479 1.88298 -1.67273
6.88779 1.89498 -1.67373
6.87779 1.91598 -1.67273
6.89679 1.94398 -1.67973
6.86979 1.95998 -1.67373
6.87079 1.98398 -1.67573
6.85879 2.00398 -1.67473
6.86679 2.01798 -1.67773
6.84579 2.03498 -1.67373
6.87879 2.06798 -1.68373
6.85179 2.08398 -1.67873
6.86579 2.11098 -1.68373
6.84379 2.12798 -1.67973
6.83179 2.14798 -1.67873
6.84879 2.16498 -1.68373
6.83979 2.18598 -1.68373
6.81079 2.19998 -1.67773
6.49979 -3.16002 -1.69473
6.52879 -3.14802 -1.70073
6.55179 -3.13402 -1.70373
6.55579 -3.11102 -1.70273
6.57679 -3.10802 -1.70673
6.55779 -3.07402 -1.69873
6.56379 -3.05202 -1.69773
6.58579 -3.03702 -1.70173
6.58279 -3.01002 -1.69773
6.59079 -2.98902 -1.69773
6.59679 -2.96702 -1.69673
6.60779 -2.90902 -1.69273
6.62879 -2.86902 -1.69373
6.64379 -2.81402 -1.69173
7.02179 -1.46602 -1.68173
7.09279 -1.03302 -1.67973
7.11179 -0.842017 -1.67873
7.12679 -0.720017 -1.67873
7.13179 -0.652017 -1.67873
7.16079 -0.474017 -1.68273
7.16179 -0.429017 -1.68173
7.14779 -0.405017 -1.67773
7.16079 -0.384017 -1.68073
7.14479 -0.360017 -1.67673
7.17279 -0.339017 -1.68373
7.15179 -0.282017 -1.67773
7.15079 -0.259017 -1.67673
7.18079 -0.238017 -1.68473
7.15079 -0.214017 -1.67673
7.16479 -0.181017 -1.67973
7.18479 -0.159017 -1.68473
7.17979 -0.136017 -1.68373
7.18579 -0.114017 -1.68473
7.14879 -0.0910168 -1.67573
7.18979 -0.0680168 -1.68573
7.17079 -0.0570168 -1.68073
7.15179 -0.0340168 -1.67573
7.17279 -0.0120168 -1.68173
6.86179 0.355983 -1.67673
6.86279 0.517983 -1.67973
6.84979 0.527983 -1.67673
6.87179 0.550983 -1.68273
6.86079 0.571983 -1.67973
6.87579 0.594983 -1.68473
6.86079 0.615983 -1.68073
6.87779 0.638983 -1.68573
6.86379 0.658983 -1.68273
6.87479 0.670983 -1.68573
6.87079 0.692983 -1.68573
6.87379 0.714983 -1.68673
6.88879 0.737983 -1.69173
6.87579 0.758983 -1.68873
6.86279 0.778983 -1.68573
6.85079 0.799983 -1.68373
6.85179 0.810983 -1.68373
6.82579 0.828983 -1.67773
6.81579 0.849983 -1.67573
6.82079 0.871983 -1.67773
6.81779 0.893983 -1.67773
6.80779 0.913983 -1.67573
6.63479 1.79198 -1.67673
6.63479 1.81498 -1.67873
6.62679 1.83498 -1.67773
6.62279 1.85598 -1.67873
6.61779 1.86598 -1.67773
6.60279 1.88398 -1.67573
6.59879 1.90598 -1.67573
6.60979 1.93098 -1.68073
6.59979 1.95098 -1.67973
6.59379 1.97198 -1.67973
6.59079 1.99298 -1.68073
6.59179 2.00498 -1.68173
6.58179 2.02498 -1.68073
6.57179 2.04398 -1.67973
6.55979 2.06298 -1.67773
6.55879 2.08498 -1.67973
6.56279 2.10898 -1.68273
6.55479 2.11798 -1.68073
6.54179 2.13698 -1.67973
6.54979 2.16198 -1.68373
6.52479 2.17698 -1.67873
6.18079 -3.17402 -1.69673
6.20979 -3.17702 -1.70373
6.23179 -3.16402 -1.70673
6.23579 -3.14202 -1.70573
6.23779 -3.11802 -1.70273
6.23379 -3.09102 -1.69873
6.24779 -3.07402 -1.70073
6.25779 -3.05402 -1.70073
6.25379 -3.04002 -1.69773
6.26479 -3.02102 -1.69873
6.26379 -2.99702 -1.69573
6.27679 -2.97902 -1.69673
6.28279 -2.95702 -1.69573
6.63179 0.00698316 -1.68773
6.61979 0.0279832 -1.68473
6.62779 0.0489832 -1.68673
6.62379 0.0699832 -1.68573
6.63479 0.0799832 -1.68873
6.63079 0.100983 -1.68773
6.63879 0.121983 -1.68973
6.62679 0.142983 -1.68673
6.62779 0.163983 -1.68673
6.62179 0.183983 -1.68573
6.62079 0.204983 -1.68573
6.63779 0.215983 -1.69073
6.62779 0.235983 -1.68773
6.62479 0.256983 -1.68673
6.61479 0.277983 -1.68473
6.62679 0.298983 -1.68773
6.62379 0.319983 -1.68773
6.62079 0.339983 -1.68673
6.62279 0.350983 -1.68773
6.62479 0.371983 -1.68873
6.61779 0.391983 -1.68673
6.62079 0.412983 -1.68773
6.61579 0.433983 -1.68673
6.61579 0.454983 -1.68773
6.62279 0.475983 -1.68973
6.60779 0.485983 -1.68573
6.61779 0.506983 -1.68873
6.61279 0.527983 -1.68773
6.61079 0.548983 -1.68773
6.61079 0.569983 -1.68873
6.62079 0.590983 -1.69173
6.61579 0.600983 -1.69073
6.62379 0.622983 -1.69373
6.62579 0.643983 -1.69473
6.62179 0.664983 -1.69373
6.63079 0.686983 -1.69673
6.62879 0.707983 -1.69673
6.61679 0.779983 -1.69573
6.61079 0.799983 -1.69473
6.60379 0.820983 -1.69373
6.60179 0.840983 -1.69373
6.58879 0.860983 -1.69173
6.58979 0.871983 -1.69173
6.57579 0.890983 -1.68873
6.56479 0.909983 -1.68673
6.55879 0.929983 -1.68573
6.55179 0.949983 -1.68473
6.53279 0.968983 -1.68073
6.53779 0.989983 -1.68273
6.52879 0.998983 -1.68073
6.52379 1.01998 -1.67973
6.52379 1.04098 -1.68073
6.52879 1.06198 -1.68273
6.52679 1.08298 -1.68373
6.50679 1.10098 -1.67873
6.50279 1.11098 -1.67773
6.48979 1.17198 -1.67773
6.48279 1.21198 -1.67773
6.47879 1.23298 -1.67773
6.47079 1.28398 -1.67773
6.46279 1.32498 -1.67773
6.45679 1.34398 -1.67773
6.45379 1.37598 -1.67873
6.44779 1.39598 -1.67773
6.44079 1.43598 -1.67873
6.43379 1.47698 -1.67973
6.43079 1.49798 -1.67973
6.41579 1.52598 -1.67773
6.41479 1.54698 -1.67873
6.41379 1.56898 -1.67973
6.41279 1.58998 -1.68073
6.39979 1.60798 -1.67873
6.39979 1.61798 -1.67973
6.40879 1.64198 -1.68373
6.39479 1.65998 -1.68073
6.39679 1.68198 -1.68273
6.38979 1.70198 -1.68273
6.39779 1.72498 -1.68573
6.39379 1.74598 -1.68673
6.38679 1.75498 -1.68573
6.38779 1.77698 -1.68673
6.38179 1.79698 -1.68673
6.38179 1.81798 -1.68873
6.37579 1.83798 -1.68873
6.36779 1.85798 -1.68773
6.36579 1.87898 -1.68873
6.37079 1.89098 -1.69173
6.36079 1.90998 -1.69073
6.36579 1.93298 -1.69373
6.35979 1.95298 -1.69373
6.34779 1.97198 -1.69173
6.34879 1.99398 -1.69373
6.34379 2.02498 -1.69473
6.33679 2.04498 -1.69473
6.31579 2.10398 -1.69473
6.29879 2.15298 -1.69473
6.25579 2.16098 -1.68373
6.25779 2.18298 -1.68673
5.86579 -3.21602 -1.70373
5.88779 -3.21602 -1.70873
5.91479 -3.20702 -1.71373
5.96279 -3.13702 -1.71673
5.97779 -3.12102 -1.71773
5.98179 -3.11002 -1.71773
5.98279 -3.08702 -1.71473
6.00079 -3.07302 -1.71773
6.00879 -3.05302 -1.71673
6.01279 -3.03102 -1.71573
6.01379 -3.00802 -1.71273
6.00779 -2.98202 -1.70773
6.02079 -2.97602 -1.71073
6.02679 -2.95602 -1.70973
6.03579 -2.93702 -1.70973
6.05079 -2.92002 -1.71173
6.03679 -2.89102 -1.70473
6.05479 -2.87602 -1.70673
6.06179 -2.85602 -1.70673
6.05479 -2.84102 -1.70273
6.07079 -2.82502 -1.70473
6.08079 -2.80702 -1.70573
6.07779 -2.78202 -1.70173
6.08779 -2.76402 -1.70273
6.10379 -2.74802 -1.70473
6.08179 -2.72602 -1.69673
6.10579 -2.71402 -1.70173
6.11279 -2.69402 -1.70073
6.12779 -2.67802 -1.70273
6.13079 -2.65602 -1.70173
6.13779 -2.63602 -1.70073
6.14579 -2.61702 -1.70073
6.15379 -2.60902 -1.70173
6.15479 -2.58702 -1.69973
6.16679 -2.56902 -1.70073
6.17079 -2.54802 -1.69973
6.17679 -2.52802 -1.69873
6.18879 -2.51002 -1.70073
6.19979 -2.49202 -1.70173
6.19979 -2.48102 -1.70073
6.20479 -2.46002 -1.69873
6.20879 -2.43902 -1.69773
6.22379 -2.42202 -1.70073
6.22779 -2.40102 -1.69873
6.22979 -2.38002 -1.69773
6.24379 -2.36302 -1.69973
6.23679 -2.34902 -1.69673
6.24579 -2.33002 -1.69673
6.26079 -2.31302 -1.69873
6.25479 -2.28902 -1.69573
6.26779 -2.27102 -1.69673
6.27279 -2.25102 -1.69673
6.27479 -2.24002 -1.69573
6.28879 -2.22302 -1.69773
6.29079 -2.20102 -1.69673
6.28779 -2.17802 -1.69373
6.31179 -2.16402 -1.69873
6.30779 -2.14102 -1.69573
6.31079 -2.12002 -1.69473
6.31779 -2.11102 -1.69573
6.32179 -2.09002 -1.69473
6.32879 -2.07102 -1.69473
6.34579 -2.05402 -1.69773
6.34179 -2.03102 -1.69473
6.34279 -2.00902 -1.69373
6.35979 -1.99302 -1.69673
6.35179 -1.97902 -1.69373
6.35979 -1.96002 -1.69373
6.37479 -1.94302 -1.69673
6.37779 -1.92102 -1.69573
6.36479 -1.89602 -1.69073
6.38979 -1.88102 -1.69573
6.38579 -1.85902 -1.69273
6.39479 -1.85002 -1.69473
6.39079 -1.80602 -1.69073
6.39479 -1.78502 -1.68973
6.40579 -1.76702 -1.69173
6.40779 -1.74502 -1.69073
6.41479 -1.72602 -1.69073
6.41579 -1.71502 -1.69073
6.42179 -1.69502 -1.69073
6.43779 -1.65602 -1.69173
6.43179 -1.63302 -1.68873
6.44079 -1.61402 -1.68973
6.44679 -1.60502 -1.69073
6.45579 -1.58502 -1.69173
6.45679 -1.56402 -1.69073
6.46179 -1.54402 -1.69073
6.46479 -1.52302 -1.69073
6.47079 -1.50302 -1.69073
6.47179 -1.48202 -1.68973
6.47579 -1.47202 -1.69073
6.47179 -1.45002 -1.68773
6.47579 -1.42902 -1.68773
6.49079 -1.36902 -1.68773
6.49679 -1.33802 -1.68773
6.49979 -1.31702 -1.68773
6.49979 -1.29602 -1.68673
6.50579 -1.27602 -1.68673
6.52679 -1.25902 -1.69173
6.51579 -1.21402 -1.68673
6.53479 -1.20702 -1.69173
6.52179 -1.18402 -1.68673
6.52679 -1.16302 -1.68673
6.54179 -1.14502 -1.69073
6.53979 -1.12302 -1.68873
6.53379 -1.10102 -1.68573
6.54079 -1.08102 -1.68673
6.54279 -1.07102 -1.68673
6.54979 -1.05102 -1.68773
6.55479 -1.03102 -1.68873
6.55079 -1.00902 -1.68673
6.55179 -0.988017 -1.68573
6.56679 -0.969017 -1.68873
6.55879 -0.958017 -1.68673
6.56479 -0.937017 -1.68773
6.56779 -0.917017 -1.68773
6.56279 -0.895017 -1.68573
6.56579 -0.875017 -1.68573
6.57679 -0.855017 -1.68773
6.57279 -0.834017 -1.68573
6.57879 -0.824017 -1.68673
6.58479 -0.803017 -1.68773
6.56979 -0.781017 -1.68373
6.57779 -0.761017 -1.68473
6.59179 -0.741017 -1.68773
6.57879 -0.719017 -1.68373
6.58579 -0.709017 -1.68573
6.59979 -0.690017 -1.68873
6.58979 -0.668017 -1.68573
6.59579 -0.648017 -1.68673
6.60379 -0.627017 -1.68773
6.60579 -0.607017 -1.68773
6.61379 -0.586017 -1.68973
6.61479 -0.576017 -1.68973
6.62179 -0.556017 -1.69173
6.60279 -0.533017 -1.68573
6.60579 -0.513017 -1.68573
6.60779 -0.492017 -1.68573
6.63579 -0.473017 -1.69373
6.62179 -0.451017 -1.68873
6.61479 -0.440017 -1.68673
6.61879 -0.420017 -1.68773
6.63279 -0.399017 -1.69173
6.63479 -0.379017 -1.69173
6.63379 -0.358017 -1.69073
6.63279 -0.337017 -1.69073
6.62179 -0.315017 -1.68673
6.63079 -0.305017 -1.68873
6.63379 -0.285017 -1.68973
6.62479 -0.263017 -1.68673
6.63079 -0.243017 -1.68873
6.62779 -0.222017 -1.68773
6.63279 -0.201017 -1.68873
6.62279 -0.190017 -1.68573
6.63579 -0.170017 -1.68873
6.62379 -0.149017 -1.68573
6.63079 -0.128017 -1.68773
6.63479 -0.107017 -1.68873
6.64279 -0.0870168 -1.69073
6.64079 -0.0660168 -1.69073
6.63179 -0.0550168 -1.68773
6.63179 -0.0340168 -1.68773
6.63379 -0.0130168 -1.68773
6.36479 0.660983 -1.68073
6.36679 0.680983 -1.68173
6.35879 0.699983 -1.68073
6.36679 0.721983 -1.68373
6.35479 0.739983 -1.68073
6.09579 1.91598 -1.67873
6.09379 1.93598 -1.67973
6.09079 1.95598 -1.68073
6.08679 1.97598 -1.68073
6.08179 1.98498 -1.68073
6.07379 2.00398 -1.67973
6.07479 2.02498 -1.68173
6.05879 2.04098 -1.67973
6.05979 2.06298 -1.68173
6.05379 2.08198 -1.68173
6.04179 2.09898 -1.67973
5.64279 -3.19802 -1.70573
5.66279 -3.17402 -1.70673
5.67279 -3.15602 -1.70673
5.68179 -3.13702 -1.70673
5.69079 -3.11902 -1.70673
5.69879 -3.10102 -1.70573
5.70079 -3.07802 -1.70373
5.71179 -3.06102 -1.70373
5.71179 -3.04902 -1.70173
5.72679 -3.01202 -1.70073
6.16079 0.671983 -1.68573
6.15079 0.689983 -1.68373
6.16879 0.701983 -1.68873
6.16079 0.720983 -1.68673
6.16379 0.740983 -1.68873
6.15079 0.758983 -1.68573
6.13879 0.776983 -1.68273
6.14779 0.806983 -1.68673
6.12979 0.843983 -1.68273
5.90079 1.86698 -1.68373
5.87479 1.92998 -1.68173
5.87679 1.97198 -1.68573
5.85579 1.98598 -1.68173
5.86379 1.99898 -1.68473
5.86279 2.01898 -1.68673
5.84979 2.03498 -1.68473
5.84479 2.05398 -1.68473
5.84879 2.07598 -1.68873
5.82579 2.08898 -1.68373
5.81379 2.10498 -1.68173
5.81479 2.11498 -1.68273
5.40779 -3.20802 -1.71173
5.42879 -3.19702 -1.71573
5.42879 -3.17502 -1.71273
5.43879 -3.15802 -1.71273
5.45879 -3.14602 -1.71573
5.45679 -3.12202 -1.71173
5.45879 -3.11202 -1.71073
5.47679 -3.09902 -1.71373
5.47179 -3.07402 -1.70873
5.48479 -3.05802 -1.70973
5.50579 -3.04802 -1.71373
5.50479 -3.02502 -1.70973
5.52279 -3.01202 -1.71273
5.51579 -2.99702 -1.70873
5.52679 -2.98102 -1.70973
5.51979 -2.95402 -1.70373
5.53179 -2.93902 -1.70473
5.53479 -2.91802 -1.70273
5.54379 -2.90002 -1.70273
5.55579 -2.88502 -1.70373
5.56379 -2.87802 -1.70473
5.56479 -2.85602 -1.70273
5.57179 -2.83702 -1.70173
5.68579 -2.58702 -1.69973
5.72179 1.92298 -1.68273
5.73379 1.94698 -1.68773
5.72279 1.96298 -1.68673
5.71779 1.98198 -1.68673
5.70579 1.99798 -1.68473
5.70679 2.00798 -1.68673
5.70179 2.02698 -1.68673
5.69579 2.04498 -1.68673
5.68079 2.05898 -1.68373
5.66979 2.07598 -1.68273
5.66979 2.10598 -1.68573
5.20879 -3.22202 -1.70873
5.23679 -3.21602 -1.71473
5.26079 -3.22002 -1.72173
5.26779 -3.20202 -1.72073
5.27679 -3.18402 -1.71973
5.28479 -3.16702 -1.71973
5.29679 -3.15102 -1.71973
5.30179 -3.13102 -1.71873
5.30279 -3.11002 -1.71573
5.30779 -3.10202 -1.71573
5.32079 -3.08702 -1.71673
5.32379 -3.06602 -1.71473
5.34179 -3.05402 -1.71673
5.33479 -3.02802 -1.71173
5.34579 -3.01202 -1.71173
5.34879 -3.00302 -1.71173
5.35979 -2.98702 -1.71173
5.35779 -2.96302 -1.70773
5.37179 -2.94902 -1.70973
5.38079 -2.93302 -1.70973
5.38379 -2.91202 -1.70773
5.38479 -2.89002 -1.70473
5.38579 -2.88002 -1.70373
5.40079 -2.86702 -1.70573
5.42679 -2.79302 -1.70273
5.44279 -2.77002 -1.70373
5.55579 -2.52602 -1.70273
5.83779 0.0139832 -1.69373
5.82579 0.0319832 -1.69073
5.82979 0.0589832 -1.69173
5.83479 0.0779832 -1.69373
5.82879 0.0959832 -1.69173
5.83679 0.113983 -1.69373
5.81879 0.131983 -1.68873
5.82379 0.150983 -1.69073
5.83479 0.168983 -1.69373
5.81979 0.177983 -1.68973
5.83479 0.196983 -1.69373
5.81679 0.214983 -1.68873
5.83679 0.233983 -1.69573
5.81879 0.250983 -1.68973
5.82979 0.269983 -1.69373
5.80979 0.286983 -1.68773
5.83579 0.297983 -1.69573
5.81979 0.314983 -1.69073
5.82079 0.333983 -1.69173
5.83179 0.370983 -1.69573
5.81479 0.397983 -1.69073
5.80179 0.414983 -1.68773
5.80079 0.432983 -1.68773
5.80679 0.470983 -1.69073
5.80779 0.488983 -1.69073
5.82279 0.508983 -1.69673
5.80179 0.515983 -1.68973
5.80879 0.534983 -1.69273
5.79779 0.551983 -1.68973
5.81179 0.571983 -1.69473
5.79979 0.588983 -1.69173
5.82879 0.610983 -1.70073
5.79679 0.625983 -1.69173
5.81279 0.636983 -1.69673
5.79879 0.653983 -1.69373
5.80279 0.672983 -1.69573
5.83079 0.694983 -1.70473
5.80379 0.709983 -1.69673
5.82279 0.730983 -1.70373
5.79179 0.744983 -1.69473
5.80179 0.755983 -1.69773
5.80679 0.774983 -1.70073
5.80079 0.792983 -1.69973
5.78179 0.808983 -1.69373
5.78979 0.828983 -1.69773
5.77779 0.844983 -1.69473
5.76079 0.860983 -1.68973
5.77979 0.872983 -1.69673
5.76179 0.888983 -1.69173
5.76479 0.907983 -1.69373
5.75079 0.923983 -1.68973
5.74979 0.942983 -1.69073
5.73679 0.958983 -1.68773
5.75679 0.980983 -1.69473
5.73579 0.986983 -1.68873
5.74079 1.00598 -1.69073
5.73179 1.02298 -1.68973
5.73779 1.04298 -1.69273
5.72479 1.05898 -1.68973
5.71579 1.07598 -1.68773
5.71079 1.10298 -1.68773
5.71679 1.14198 -1.69173
5.71379 1.17798 -1.69273
5.68779 1.20098 -1.68673
