3.1207 -4.7129 0.328398
3.1397 -4.7099 0.328398
3.1487 -4.7059 0.328398
3.1707 -4.7079 0.329398
3.1897 -4.7049 0.329398
3.2107 -4.7029 0.329398
3.2337 -4.7039 0.329398
3.2537 -4.7019 0.330398
3.2657 -4.7039 0.330398
3.2867 -4.7019 0.330398
3.3067 -4.6989 0.330398
3.3247 -4.6939 0.330398
3.3527 -4.7009 0.331398
3.3687 -4.6919 0.331398
3.3927 -4.6949 0.331398
3.4027 -4.6919 0.331398
3.4257 -4.6929 0.332398
3.4497 -4.6949 0.332398
3.4677 -4.6889 0.332398
3.5067 -4.6799 0.332398
3.5337 -4.6849 0.333398
3.5477 -4.6869 0.333398
3.5667 -4.6819 0.333398
3.5917 -4.6839 0.334398
3.6107 -4.6789 0.334398
3.6367 -4.6819 0.334398
3.6557 -4.6749 0.334398
3.6787 -4.6739 0.335398
3.8017 -4.6629 0.336398
3.8277 -4.6639 0.337398
3.8667 -4.6659 0.337398
3.9607 -4.6579 0.339398
4.0207 -4.6539 0.339398
4.0937 -4.6489 0.340398
4.2307 -4.6409 0.342398
4.5837 -4.6029 0.347398
5.3257 -4.5639 0.359398
5.4647 -4.5509 0.361398
5.6747 -4.5319 0.365398
5.7167 -4.5359 0.365398
5.7457 -4.5289 0.366398
5.8357 -4.5269 0.367398
5.8647 -4.5189 0.368398
5.9387 -4.5169 0.369398
5.9657 -4.5079 0.370398
5.9967 -4.5169 0.370398
6.0337 -4.5139 0.371398
6.0637 -4.5069 0.371398
6.1037 -4.5069 0.372398
6.1347 -4.4999 0.373398
6.1647 -4.4919 0.373398
6.1987 -4.5019 0.374398
6.2327 -4.4969 0.374398
6.2617 -4.4879 0.375398
6.3017 -4.4859 0.375398
6.3407 -4.4839 0.376398
6.3777 -4.4799 0.377398
6.4177 -4.4779 0.378398
13.0097 -4.0229 0.509398
13.1107 -4.0089 0.512398
13.2417 -4.0039 0.514398
13.3347 -3.9859 0.516398
15.0817 -3.8669 0.554398
0.0137003 -4.9269 0.274398
0.0297003 -4.9309 0.274398
0.0447003 -4.9289 0.274398
0.0677003 -4.9269 0.274398
0.0837003 -4.9299 0.274398
0.0987003 -4.9259 0.274398
0.1147 -4.9259 0.274398
0.1297 -4.9189 0.274398
0.1377 -4.9269 0.274398
0.1527 -4.9169 0.274398
0.1837 -4.9239 0.274398
0.2147 -4.9139 0.274398
0.2307 -4.9159 0.274398
0.2377 -4.9169 0.274398
0.2537 -4.9129 0.274398
0.2687 -4.9179 0.274398
0.2837 -4.9089 0.273398
0.2997 -4.9119 0.274398
0.3147 -4.9049 0.273398
0.3307 -4.9119 0.274398
0.3847 -4.9079 0.274398
0.3997 -4.9069 0.274398
0.4307 -4.9039 0.274398
0.5157 -4.8979 0.274398
0.5237 -4.8969 0.274398
0.5537 -4.8919 0.274398
0.5697 -4.8939 0.274398
0.6007 -4.8939 0.274398
0.6157 -4.8879 0.274398
0.6387 -4.8839 0.274398
0.6547 -4.8849 0.274398
0.6707 -4.8909 0.274398
0.6857 -4.8849 0.274398
0.7007 -4.8769 0.274398
0.7247 -4.8859 0.274398
0.7387 -4.8729 0.274398
0.7707 -4.8769 0.274398
0.7857 -4.8699 0.274398
0.8167 -4.8709 0.274398
0.8247 -4.8679 0.274398
0.8417 -4.8749 0.274398
0.8567 -4.8699 0.274398
0.8697 -4.8579 0.274398
0.9047 -4.8739 0.274398
0.9087 -4.8549 0.274398
0.9277 -4.8719 0.274398
0.9407 -4.8549 0.274398
0.9577 -4.8639 0.274398
0.9737 -4.8669 0.274398
0.9877 -4.8539 0.274398
1.0057 -4.8659 0.274398
1.0127 -4.8609 0.274398
1.0427 -4.8519 0.274398
1.0607 -4.8589 0.274398
1.0737 -4.8479 0.274398
1.0917 -4.8579 0.274398
1.1077 -4.8559 0.274398
1.1137 -4.8489 0.274398
1.1297 -4.8489 0.274398
1.1467 -4.8529 0.275398
1.1597 -4.8379 0.274398
1.1767 -4.8399 0.274398
1.1917 -4.8379 0.274398
1.2077 -4.8389 0.275398
1.2167 -4.8419 0.275398
1.2317 -4.8349 0.275398
1.2477 -4.8369 0.275398
1.2627 -4.8309 0.275398
1.2827 -4.8439 0.275398
1.2977 -4.8399 0.275398
1.3117 -4.8299 0.275398
1.3217 -4.8399 0.275398
1.3357 -4.8299 0.275398
1.3527 -4.8309 0.275398
1.3667 -4.8229 0.275398
1.3837 -4.8269 0.275398
1.4007 -4.8299 0.275398
1.4087 -4.8299 0.275398
1.4227 -4.8189 0.275398
1.4397 -4.8229 0.275398
1.4557 -4.8179 0.275398
1.4717 -4.8189 0.275398
1.4887 -4.8199 0.275398
1.5067 -4.8249 0.276398
1.5127 -4.8169 0.276398
1.5287 -4.8159 0.276398
1.5477 -4.8209 0.276398
1.5657 -4.8269 0.276398
1.5797 -4.8169 0.276398
1.5957 -4.8159 0.276398
1.6107 -4.8109 0.276398
1.6207 -4.8159 0.276398
1.6367 -4.8119 0.276398
1.6537 -4.8129 0.276398
1.6687 -4.8079 0.276398
1.6867 -4.8099 0.276398
1.7047 -4.8119 0.276398
1.7197 -4.8069 0.276398
1.7287 -4.8099 0.276398
1.7437 -4.8019 0.276398
1.7617 -4.8059 0.277398
1.7787 -4.8059 0.277398
1.7957 -4.8049 0.277398
1.8117 -4.8029 0.277398
1.8207 -4.8039 0.277398
1.8377 -4.8029 0.277398
1.8517 -4.7939 0.277398
1.8707 -4.7989 0.277398
1.8857 -4.7929 0.277398
1.9027 -4.7909 0.277398
1.9307 -4.7949 0.277398
1.9497 -4.7999 0.278398
1.9657 -4.7959 0.278398
1.9797 -4.7859 0.277398
2.0157 -4.7879 0.278398
2.0427 -4.7899 0.278398
2.0767 -4.7859 0.278398
2.1447 -4.7779 0.278398
2.1567 -4.7839 0.279398
2.1717 -4.7769 0.279398
2.2107 -4.7829 0.279398
2.2447 -4.7779 0.279398
2.2707 -4.7749 0.279398
2.3077 -4.7749 0.279398
2.3227 -4.7689 0.279398
2.3417 -4.7689 0.280398
2.3857 -4.7649 0.280398
2.4217 -4.7609 0.280398
2.4597 -4.7609 0.280398
2.4887 -4.7619 0.280398
2.5237 -4.7569 0.281398
2.5587 -4.7519 0.281398
2.5937 -4.7439 0.281398
2.6237 -4.7459 0.281398
2.6597 -4.7399 0.281398
2.6997 -4.7419 0.282398
2.7817 -4.7299 0.282398
2.8077 -4.7399 0.283398
2.8277 -4.7229 0.282398
2.9547 -4.7299 0.284398
3.0637 -4.7219 0.284398
3.1137 -4.7179 0.285398
3.1317 -4.7129 0.285398
3.1547 -4.7149 0.285398
3.1737 -4.7119 0.285398
3.1937 -4.7099 0.285398
3.2867 -4.7019 0.286398
3.3097 -4.7029 0.286398
3.3267 -4.6959 0.286398
3.3397 -4.6989 0.286398
3.3597 -4.6969 0.287398
3.3817 -4.6959 0.287398
3.4027 -4.6939 0.287398
3.4247 -4.6939 0.287398
3.4497 -4.6959 0.287398
3.4697 -4.6929 0.287398
3.5207 -4.6849 0.288398
3.5417 -4.6819 0.288398
3.5677 -4.6849 0.288398
3.5877 -4.6819 0.288398
3.6127 -4.6839 0.289398
3.6667 -4.6769 0.289398
3.6897 -4.6769 0.289398
3.7117 -4.6749 0.289398
3.7287 -4.6659 0.290398
3.7687 -4.6699 0.290398
3.7877 -4.6649 0.290398
3.8117 -4.6639 0.290398
3.8347 -4.6619 0.291398
3.8547 -4.6559 0.291398
3.8807 -4.6579 0.291398
3.9167 -4.6569 0.291398
3.9417 -4.6569 0.292398
3.9617 -4.6499 0.292398
3.9867 -4.6499 0.292398
4.0117 -4.6499 0.292398
4.0337 -4.6459 0.292398
4.0737 -4.6479 0.293398
4.0987 -4.6479 0.293398
4.1177 -4.6389 0.293398
4.1497 -4.6459 0.293398
4.1677 -4.6369 0.294398
4.1927 -4.6359 0.294398
4.2107 -4.6409 0.294398
4.2367 -4.6399 0.294398
4.2827 -4.6319 0.295398
4.3047 -4.6259 0.295398
4.3327 -4.6269 0.295398
4.3617 -4.6299 0.295398
4.3717 -4.6259 0.296398
4.3947 -4.6209 0.296398
4.4267 -4.6259 0.296398
4.6667 -4.5939 0.298398
4.6907 -4.6039 0.299398
4.7327 -4.5869 0.299398
4.7757 -4.5999 0.300398
4.7887 -4.5829 0.300398
4.8337 -4.5969 0.300398
4.8537 -4.5879 0.300398
4.9337 -4.5899 0.301398
4.9897 -4.5849 0.302398
5.0427 -4.5749 0.302398
5.0887 -4.5739 0.303398
6.4947 -4.4809 0.319398
6.6757 -4.4679 0.321398
6.7197 -4.4669 0.321398
6.7587 -4.4619 0.322398
7.3177 -4.4149 0.329398
7.3487 -4.4179 0.329398
7.3917 -4.4119 0.330398
7.4327 -4.4059 0.330398
7.4867 -4.4059 0.331398
7.5397 -4.4049 0.332398
7.5687 -4.3909 0.332398
7.6297 -4.3939 0.333398
7.6607 -4.3959 0.333398
7.7677 -4.3929 0.334398
7.9227 -4.3829 0.336398
8.5247 -4.3399 0.344398
11.8977 -4.0989 0.390398
12.0017 -4.0929 0.392398
12.0857 -4.0789 0.393398
12.3647 -4.0659 0.397398
12.4647 -4.0559 0.398398
12.5687 -4.0459 0.400398
12.6707 -4.0349 0.401398
12.8727 -4.0329 0.404398
12.9787 -4.0219 0.405398
13.0867 -4.0109 0.407398
13.1967 -3.9989 0.408398
0.00570033 -4.9339 0.248398
0.0207003 -4.9199 0.248398
0.0747003 -4.9189 0.248398
0.0907003 -4.9149 0.248398
0.1057 -4.9129 0.248398
0.1217 -4.9119 0.248398
0.1367 -4.9199 0.248398
0.1677 -4.9069 0.248398
0.2367 -4.9019 0.248398
0.2527 -4.9049 0.248398
0.3907 -4.8959 0.248398
0.7457 -4.8729 0.248398
0.8227 -4.8609 0.248398
0.9237 -4.8549 0.248398
0.9647 -4.8589 0.248398
0.9787 -4.8519 0.248398
0.9947 -4.8529 0.248398
1.0117 -4.8549 0.248398
1.0257 -4.8479 0.248398
1.0807 -4.8429 0.248398
1.0967 -4.8449 0.248398
1.1287 -4.8439 0.249398
1.1447 -4.8439 0.249398
1.1527 -4.8439 0.249398
1.1697 -4.8449 0.249398
1.2017 -4.8449 0.249398
1.2307 -4.8329 0.249398
1.2487 -4.8389 0.249398
1.2727 -4.8369 0.249398
1.3047 -4.8369 0.249398
1.3207 -4.8339 0.249398
1.3367 -4.8339 0.249398
1.3607 -4.8299 0.249398
1.3747 -4.8239 0.249398
1.4247 -4.8239 0.249398
1.4427 -4.8289 0.249398
1.4487 -4.8209 0.249398
1.5147 -4.8189 0.249398
1.5347 -4.8299 0.250398
1.5467 -4.8149 0.249398
1.5537 -4.8109 0.249398
1.5737 -4.8209 0.250398
1.5877 -4.8129 0.250398
1.6057 -4.8169 0.250398
1.6197 -4.8099 0.250398
1.6357 -4.8069 0.250398
1.6547 -4.8109 0.250398
1.6617 -4.8089 0.250398
1.6767 -4.8029 0.250398
1.6947 -4.8059 0.250398
1.7467 -4.8079 0.250398
1.7907 -4.8089 0.250398
1.8027 -4.7959 0.250398
1.8357 -4.7919 0.250398
1.8547 -4.7959 0.250398
1.8607 -4.7909 0.250398
1.8767 -4.7869 0.250398
1.9017 -4.8049 0.251398
1.9147 -4.7939 0.250398
1.9287 -4.7859 0.250398
1.9487 -4.7919 0.251398
1.9617 -4.7809 0.251398
1.9727 -4.7869 0.251398
1.9907 -4.7859 0.251398
2.0087 -4.7869 0.251398
2.0257 -4.7849 0.251398
2.0437 -4.7859 0.251398
2.0587 -4.7789 0.251398
2.0757 -4.7779 0.251398
2.0837 -4.7769 0.251398
2.1027 -4.7769 0.251398
2.1197 -4.7759 0.251398
2.1367 -4.7729 0.251398
2.1527 -4.7679 0.251398
2.1737 -4.7759 0.251398
2.1887 -4.7669 0.251398
2.2007 -4.7749 0.251398
2.2327 -4.7649 0.251398
2.2517 -4.7669 0.252398
2.2707 -4.7679 0.252398
2.2867 -4.7629 0.252398
2.2957 -4.7609 0.252398
2.3157 -4.7649 0.252398
2.3297 -4.7559 0.252398
2.3487 -4.7569 0.252398
2.3747 -4.7709 0.252398
2.3897 -4.7639 0.252398
2.4087 -4.7629 0.252398
2.4177 -4.7629 0.252398
2.4317 -4.7539 0.252398
2.4537 -4.7599 0.252398
2.4727 -4.7599 0.252398
2.4837 -4.7449 0.252398
2.5047 -4.7479 0.253398
2.5277 -4.7559 0.253398
2.5327 -4.7459 0.253398
2.5497 -4.7439 0.253398
2.5747 -4.7529 0.253398
2.5857 -4.7379 0.253398
2.6107 -4.7469 0.253398
2.6257 -4.7409 0.253398
2.6477 -4.7449 0.253398
2.6577 -4.7439 0.253398
2.6757 -4.7429 0.253398
2.7087 -4.7309 0.253398
2.7307 -4.7339 0.254398
2.7627 -4.7369 0.254398
2.7777 -4.7299 0.254398
2.7947 -4.7249 0.254398
2.8177 -4.7299 0.254398
2.8377 -4.7289 0.254398
2.8537 -4.7219 0.254398
2.8737 -4.7219 0.254398
2.8847 -4.7219 0.254398
2.9017 -4.7159 0.254398
2.9417 -4.7149 0.254398
2.9807 -4.7119 0.255398
3.0047 -4.7159 0.255398
3.0107 -4.7089 0.255398
3.0547 -4.7119 0.255398
3.0907 -4.7029 0.255398
3.1127 -4.7029 0.255398
3.1317 -4.6999 0.255398
3.1427 -4.6999 0.255398
3.1617 -4.6969 0.256398
3.1827 -4.6969 0.256398
3.2047 -4.6959 0.256398
3.2277 -4.6979 0.256398
3.2477 -4.6959 0.256398
3.2697 -4.6949 0.256398
3.2837 -4.6999 0.256398
3.2987 -4.6899 0.256398
3.3217 -4.6909 0.256398
3.3477 -4.6969 0.257398
3.3827 -4.6839 0.257398
3.3997 -4.6909 0.257398
3.4407 -4.6859 0.257398
3.4637 -4.6859 0.257398
3.4857 -4.6849 0.257398
3.5037 -4.6769 0.257398
3.5277 -4.6789 0.258398
3.5447 -4.6859 0.258398
3.5597 -4.6749 0.258398
3.6047 -4.6729 0.258398
3.6357 -4.6819 0.258398
3.6517 -4.6719 0.258398
3.6797 -4.6779 0.258398
3.6877 -4.6739 0.258398
3.7527 -4.6629 0.259398
3.7997 -4.6609 0.259398
3.8307 -4.6689 0.259398
3.8627 -4.6639 0.259398
3.8847 -4.6609 0.260398
3.9117 -4.6619 0.260398
3.9257 -4.6499 0.260398
3.9517 -4.6509 0.260398
3.9867 -4.6479 0.260398
4.0127 -4.6469 0.260398
4.0637 -4.6469 0.261398
4.0837 -4.6399 0.261398
4.1257 -4.6439 0.261398
4.1777 -4.6429 0.261398
4.2217 -4.6329 0.262398
4.2647 -4.6359 0.262398
4.4197 -4.6249 0.263398
4.6557 -4.6039 0.264398
5.9427 -4.5219 0.274398
6.1797 -4.5049 0.276398
6.1977 -4.5039 0.276398
6.4247 -4.4849 0.277398
11.8137 -4.1109 0.325398
11.9137 -4.1039 0.326398
12.3797 -4.0689 0.330398
12.4737 -4.0559 0.331398
12.6567 -4.0489 0.333398
12.8807 -4.0309 0.335398
12.9927 -4.0219 0.336398
13.0917 -4.0069 0.337398
13.2147 -3.9989 0.338398
13.2727 -3.9939 0.338398
15.0787 -3.8699 0.356398
6.4407 -4.4789 0.223398
6.4667 -4.4659 0.223398
6.5137 -4.4689 0.223398
6.5497 -4.4789 0.223398
6.5777 -4.4669 0.223398
6.6147 -4.4619 0.223398
6.6977 -4.4569 0.223398
6.7347 -4.4519 0.223398
6.7747 -4.4629 0.223398
6.8087 -4.4549 0.223398
6.8567 -4.4559 0.224398
6.9007 -4.4539 0.224398
6.9327 -4.4439 0.224398
6.9707 -4.4369 0.224398
7.0437 -4.4379 0.224398
7.0927 -4.4379 0.224398
7.1867 -4.4349 0.224398
7.2577 -4.4149 0.225398
7.5847 -4.3899 0.225398
7.9117 -4.3669 0.226398
8.2747 -4.3499 0.227398
8.3167 -4.3389 0.227398
8.3787 -4.3379 0.228398
8.4257 -4.3289 0.228398
8.5407 -4.3209 0.228398
8.6537 -4.3269 0.228398
8.6917 -4.3119 0.228398
8.7577 -4.3109 0.229398
9.0417 -4.2939 0.229398
9.1087 -4.2909 0.230398
9.1747 -4.2869 0.230398
9.2407 -4.2829 0.230398
9.2997 -4.2749 0.230398
9.3617 -4.2679 0.230398
9.4237 -4.2779 0.230398
9.4767 -4.2669 0.231398
9.5447 -4.2609 0.231398
9.6127 -4.2559 0.231398
9.6867 -4.2519 0.231398
9.7567 -4.2469 0.231398
9.8257 -4.2399 0.232398
9.9557 -4.2409 0.232398
9.9977 -4.2219 0.232398
10.2407 -4.2119 0.233398
10.3227 -4.2079 0.233398
11.6777 -4.1129 0.237398
11.7607 -4.0999 0.237398
11.8587 -4.0929 0.237398
12.0447 -4.0939 0.238398
12.1427 -4.0849 0.238398
12.2267 -4.0709 0.238398
12.3347 -4.0639 0.239398
12.4307 -4.0529 0.239398
12.5347 -4.0429 0.239398
12.7387 -4.0429 0.240398
12.8237 -4.0259 0.240398
12.9397 -4.0179 0.241398
13.1727 -3.9999 0.241398
13.2297 -4.0089 0.176398
13.3137 -3.9889 0.176398
14.5517 -3.9129 0.174398
15.2107 -3.8589 0.173398
0.7497 -4.8729 0.158398
2.5117 -4.7439 0.155398
4.1917 -4.6279 0.148398
4.2487 -4.6329 0.147398
4.2907 -4.6209 0.147398
4.3147 -4.6169 0.147398
4.3457 -4.6209 0.147398
4.3587 -4.6199 0.147398
4.3837 -4.6179 0.147398
4.4337 -4.6119 0.147398
4.7317 -4.5949 0.145398
4.7707 -4.6039 0.145398
4.7807 -4.5849 0.145398
4.8397 -4.5829 0.144398
4.8677 -4.5809 0.144398
4.9167 -4.5839 0.144398
4.9417 -4.5779 0.144398
4.9757 -4.5809 0.144398
4.9997 -4.5739 0.144398
5.0357 -4.5779 0.143398
5.0447 -4.5719 0.143398
5.1317 -4.5639 0.143398
5.1617 -4.5609 0.143398
5.2057 -4.5709 0.142398
5.2977 -4.5499 0.142398
5.3257 -4.5459 0.142398
5.3747 -4.5589 0.141398
5.4397 -4.5409 0.141398
5.4707 -4.5379 0.141398
5.5147 -4.5449 0.141398
5.5427 -4.5389 0.141398
5.5677 -4.5299 0.140398
5.6427 -4.5329 0.140398
5.7187 -4.5209 0.140398
5.7547 -4.5199 0.139398
5.8007 -4.5269 0.139398
5.8757 -4.5119 0.139398
5.9177 -4.5149 0.138398
5.9817 -4.5049 0.138398
6.0197 -4.5039 0.138398
6.1107 -4.4979 0.137398
6.3517 -4.4789 0.136398
6.4397 -4.4809 0.135398
6.5257 -4.4809 0.135398
7.2627 -4.4229 0.130398
7.2927 -4.4089 0.130398
7.3647 -4.4059 0.129398
7.4157 -4.4049 0.129398
7.6787 -4.3839 0.127398
7.7287 -4.3809 0.127398
7.7837 -4.3799 0.127398
7.9297 -4.3649 0.126398
7.9647 -4.3679 0.125398
8.0187 -4.3649 0.125398
8.0627 -4.3559 0.125398
8.1147 -4.3509 0.124398
8.3287 -4.3489 0.123398
8.3757 -4.3409 0.123398
8.4357 -4.3379 0.122398
8.4827 -4.3289 0.122398
8.5407 -4.3249 0.122398
8.6007 -4.3219 0.121398
8.6667 -4.3209 0.121398
8.7057 -4.3229 0.120398
8.7677 -4.3199 0.120398
8.8237 -4.3129 0.120398
8.8737 -4.3029 0.119398
8.9357 -4.2989 0.119398
8.9977 -4.2939 0.118398
9.0547 -4.2869 0.118398
9.1057 -4.2939 0.118398
9.1717 -4.2899 0.117398
9.2347 -4.2839 0.117398
9.2947 -4.2769 0.116398
9.3597 -4.2709 0.116398
9.4197 -4.2629 0.115398
9.5457 -4.2659 0.115398
9.6217 -4.2639 0.114398
9.6917 -4.2589 0.114398
9.7527 -4.2489 0.113398
9.8207 -4.2419 0.113398
9.8867 -4.2339 0.112398
10.3217 -4.2119 0.109398
10.4087 -4.2099 0.108398
11.6787 -4.1179 0.0993976
11.7507 -4.1019 0.0993976
11.8557 -4.0969 0.0983976
11.9437 -4.0859 0.0973976
12.0437 -4.0779 0.0973976
12.3257 -4.0659 0.0953976
12.4187 -4.0539 0.0943976
12.5307 -4.0469 0.0933976
12.8267 -4.0319 0.0913976
12.9327 -4.0209 0.0903976
13.0347 -4.0079 0.0893976
7.6937 -4.3879 0.0723976
7.7377 -4.3799 0.0723976
7.7897 -4.3769 0.0713976
7.8867 -4.3669 0.0703976
7.9727 -4.3649 0.0693976
8.0217 -4.3589 0.0693976
8.0787 -4.3569 0.0683976
8.1337 -4.3539 0.0673976
8.1877 -4.3489 0.0673976
8.2477 -4.3479 0.0663976
8.3057 -4.3449 0.0653976
8.3427 -4.3479 0.0653976
8.4017 -4.3449 0.0643976
8.4567 -4.3399 0.0633976
8.5117 -4.3339 0.0633976
8.5657 -4.3279 0.0623976
8.6207 -4.3209 0.0613976
8.6727 -4.3299 0.0613976
8.7347 -4.3259 0.0603976
8.7817 -4.3159 0.0593976
8.8527 -4.3159 0.0593976
8.9067 -4.3069 0.0583976
8.9717 -4.3039 0.0573976
9.0307 -4.2969 0.0563976
9.2687 -4.2849 0.0533976
9.3287 -4.2779 0.0533976
9.3937 -4.2709 0.0523976
9.4547 -4.2629 0.0513976
9.5837 -4.2669 0.0503976
9.6537 -4.2619 0.0493976
9.7907 -4.2489 0.0473976
9.8627 -4.2429 0.0463976
9.9407 -4.2389 0.0453976
9.9807 -4.2379 0.0453976
10.3747 -4.2129 0.0403976
10.6587 -4.1909 0.0363976
11.9117 -4.0859 0.0203976
12.0207 -4.0819 0.0193976
12.1957 -4.0769 0.0163976
12.3017 -4.0689 0.0153976
12.4057 -4.0599 0.0143976
12.5037 -4.0479 0.0123976
12.9087 -4.0219 0.00739758
13.0267 -4.0139 0.00539758
0.0477003 -4.9269 0.0933976
0.0637003 -4.9279 0.0933976
0.0867003 -4.9219 0.0933976
0.1177 -4.9209 0.0933976
0.1487 -4.9209 0.0933976
0.1717 -4.9159 0.0933976
0.2027 -4.9209 0.0933976
0.2327 -4.9089 0.0933976
0.2637 -4.9079 0.0933976
0.2717 -4.9189 0.0933976
0.2867 -4.9079 0.0933976
0.3187 -4.9139 0.0933976
0.3717 -4.9029 0.0933976
0.4187 -4.9089 0.0933976
0.4567 -4.9019 0.0933976
0.4877 -4.8969 0.0933976
0.5037 -4.8989 0.0933976
0.5347 -4.8999 0.0933976
0.5497 -4.8939 0.0933976
0.5727 -4.8909 0.0933976
0.5887 -4.8969 0.0933976
0.6037 -4.8899 0.0933976
0.6187 -4.8899 0.0933976
0.6347 -4.8879 0.0933976
0.6567 -4.8789 0.0933976
0.6897 -4.8879 0.0933976
0.7197 -4.8839 0.0933976
0.7497 -4.8709 0.0933976
0.7587 -4.8839 0.0923976
0.7747 -4.8799 0.0933976
0.7907 -4.8829 0.0923976
0.8037 -4.8689 0.0933976
0.8357 -4.8739 0.0923976
0.8597 -4.8749 0.0923976
0.8737 -4.8649 0.0923976
0.8907 -4.8679 0.0923976
0.9217 -4.8639 0.0923976
0.9387 -4.8709 0.0923976
0.9447 -4.8639 0.0923976
0.9607 -4.8649 0.0923976
0.9767 -4.8619 0.0923976
1.0077 -4.8589 0.0923976
1.0247 -4.8639 0.0923976
1.0397 -4.8589 0.0923976
1.0487 -4.8649 0.0923976
1.0627 -4.8579 0.0923976
1.0937 -4.8529 0.0923976
1.1107 -4.8569 0.0923976
1.1247 -4.8479 0.0923976
1.1397 -4.8439 0.0923976
1.1657 -4.8509 0.0923976
1.1787 -4.8369 0.0923976
1.1957 -4.8429 0.0923976
1.2117 -4.8389 0.0923976
1.2287 -4.8429 0.0913976
1.2427 -4.8359 0.0913976
1.2537 -4.8449 0.0913976
1.2677 -4.8389 0.0913976
1.2837 -4.8389 0.0913976
1.3007 -4.8389 0.0913976
1.3157 -4.8349 0.0913976
1.3307 -4.8289 0.0913976
1.3577 -4.8379 0.0913976
1.3727 -4.8359 0.0913976
1.3897 -4.8349 0.0913976
1.4067 -4.8379 0.0903976
1.4227 -4.8379 0.0903976
1.4437 -4.8229 0.0913976
1.4627 -4.8339 0.0903976
1.4767 -4.8239 0.0903976
1.4937 -4.8249 0.0903976
1.5077 -4.8159 0.0903976
1.5277 -4.8289 0.0903976
1.5397 -4.8119 0.0903976
1.5527 -4.8269 0.0903976
1.5687 -4.8239 0.0903976
1.5857 -4.8249 0.0903976
1.6167 -4.8189 0.0903976
1.6327 -4.8149 0.0893976
1.6477 -4.8099 0.0893976
1.6587 -4.8169 0.0893976
1.6737 -4.8119 0.0893976
1.6917 -4.8159 0.0893976
1.7227 -4.8069 0.0893976
1.7397 -4.8079 0.0893976
1.7477 -4.8069 0.0893976
1.7677 -4.8119 0.0893976
1.7827 -4.8089 0.0893976
1.8157 -4.8029 0.0883976
1.8517 -4.8079 0.0883976
1.8737 -4.7979 0.0883976
1.9097 -4.8009 0.0883976
1.9277 -4.8019 0.0883976
1.9567 -4.7859 0.0883976
1.9667 -4.7909 0.0883976
1.9877 -4.7969 0.0873976
2.0027 -4.7929 0.0873976
2.0187 -4.7879 0.0873976
2.0377 -4.7909 0.0873976
2.0517 -4.7809 0.0873976
2.0707 -4.7859 0.0873976
2.1157 -4.7859 0.0863976
2.1517 -4.7849 0.0863976
2.1657 -4.7769 0.0863976
2.1927 -4.7769 0.0863976
2.2117 -4.7779 0.0863976
2.2317 -4.7819 0.0853976
2.2477 -4.7779 0.0853976
2.2657 -4.7769 0.0853976
2.2817 -4.7709 0.0853976
2.2857 -4.7599 0.0853976
2.3087 -4.7689 0.0853976
2.3427 -4.7639 0.0853976
2.3597 -4.7619 0.0853976
2.3997 -4.7669 0.0843976
2.4087 -4.7659 0.0843976
2.4217 -4.7529 0.0843976
2.4387 -4.7509 0.0843976
2.4597 -4.7539 0.0843976
2.4817 -4.7609 0.0843976
2.4977 -4.7549 0.0833976
2.5147 -4.7499 0.0833976
2.5287 -4.7599 0.0833976
2.5627 -4.7509 0.0833976
2.5847 -4.7559 0.0833976
2.5997 -4.7479 0.0833976
2.6167 -4.7449 0.0823976
2.6367 -4.7449 0.0823976
2.6497 -4.7519 0.0823976
2.6627 -4.7399 0.0823976
2.6857 -4.7449 0.0823976
2.7067 -4.7469 0.0823976
2.7377 -4.7339 0.0813976
2.7647 -4.7279 0.0813976
2.7857 -4.7289 0.0813976
2.8027 -4.7239 0.0813976
2.8207 -4.7219 0.0813976
2.8417 -4.7229 0.0813976
2.8717 -4.7219 0.0803976
2.8927 -4.7229 0.0803976
2.9287 -4.7149 0.0803976
2.9477 -4.7129 0.0803976
2.9867 -4.7259 0.0793976
3.0007 -4.7149 0.0793976
3.0187 -4.7099 0.0793976
3.0397 -4.7109 0.0793976
3.1707 -4.7009 0.0773976
3.5927 -4.6829 0.0723976
3.6377 -4.6659 0.0723976
3.6637 -4.6679 0.0723976
3.7117 -4.6689 0.0713976
4.1487 -4.6399 0.0663976
4.1747 -4.6389 0.0653976
4.2197 -4.6299 0.0653976
4.2487 -4.6329 0.0643976
4.2517 -4.6219 0.0643976
4.3277 -4.6169 0.0633976
4.3577 -4.6189 0.0633976
4.3887 -4.6229 0.0623976
4.4767 -4.6129 0.0613976
4.6837 -4.6049 0.0583976
4.7367 -4.5989 0.0583976
4.7787 -4.5969 0.0573976
4.8357 -4.5939 0.0563976
4.8877 -4.5859 0.0563976
4.9347 -4.5859 0.0553976
4.9997 -4.5889 0.0543976
5.0957 -4.5749 0.0533976
5.2037 -4.5549 0.0513976
5.2807 -4.5649 0.0503976
5.3177 -4.5529 0.0493976
5.3927 -4.5599 0.0483976
5.4227 -4.5549 0.0483976
5.4897 -4.5529 0.0473976
5.5647 -4.5429 0.0453976
5.5977 -4.5409 0.0453976
5.6227 -4.5319 0.0453976
5.6687 -4.5389 0.0443976
5.7477 -4.5299 0.0433976
5.8137 -4.5229 0.0423976
5.8797 -4.5159 0.0413976
5.9377 -4.5159 0.0403976
6.0047 -4.5069 0.0393976
6.0477 -4.5099 0.0383976
6.0697 -4.4969 0.0383976
6.1127 -4.4999 0.0373976
6.1457 -4.5089 0.0363976
6.2007 -4.4899 0.0363976
6.2327 -4.4839 0.0353976
6.3247 -4.4899 0.0333976
6.3707 -4.4929 0.0333976
6.3717 -4.4779 0.0333976
6.4667 -4.4849 0.0313976
6.8707 -4.4539 0.0243976
6.9177 -4.4539 0.0243976
7.0477 -4.4439 0.0213976
7.0907 -4.4399 0.0213976
7.3867 -4.4189 0.0163976
7.4347 -4.4159 0.0153976
11.4927 -4.1329 -0.0596024
11.6747 -4.1159 -0.0626024
12.0347 -4.0959 -0.0696024
12.1387 -4.0889 -0.0716024
12.2267 -4.0759 -0.0736024
12.7347 -4.0469 -0.0836024
12.8407 -4.0369 -0.0856024
12.9257 -4.0189 -0.0876024
13.1377 -4.0179 -0.0916024
13.2407 -4.0039 -0.0936024
13.3547 -3.9929 -0.0956024
13.4707 -3.9819 -0.0976024
13.5847 -3.9689 -0.100602
13.8277 -3.9699 -0.105602
13.9387 -3.9549 -0.107602
14.0737 -3.9459 -0.109602
14.1897 -3.9299 -0.112602
14.6887 -3.8959 -0.122602
14.8437 -3.8869 -0.125602
0.0267003 -4.9329 0.0673976
0.0347003 -4.9249 0.0673976
0.0497003 -4.9169 0.0683976
0.0657003 -4.9159 0.0683976
0.0807003 -4.9219 0.0673976
0.0967003 -4.9159 0.0683976
0.1277 -4.9149 0.0683976
0.1657 -4.9119 0.0683976
0.2117 -4.9079 0.0683976
0.2277 -4.9079 0.0683976
0.2507 -4.9019 0.0683976
0.2817 -4.9069 0.0683976
0.2967 -4.8999 0.0683976
0.3507 -4.8959 0.0683976
0.3657 -4.9009 0.0683976
0.4117 -4.8919 0.0683976
0.4817 -4.8909 0.0683976
0.5117 -4.8839 0.0683976
0.6197 -4.8759 0.0683976
0.6507 -4.8759 0.0673976
0.6817 -4.8729 0.0673976
0.7677 -4.8729 0.0673976
0.8057 -4.8649 0.0673976
0.8537 -4.8669 0.0673976
0.8997 -4.8599 0.0673976
0.9147 -4.8569 0.0673976
0.9387 -4.8589 0.0673976
0.9707 -4.8589 0.0673976
0.9847 -4.8519 0.0673976
1.0007 -4.8509 0.0673976
1.0107 -4.8589 0.0663976
1.0267 -4.8619 0.0663976
1.0577 -4.8569 0.0663976
1.0717 -4.8459 0.0663976
1.0877 -4.8479 0.0663976
1.1027 -4.8429 0.0663976
1.1137 -4.8549 0.0663976
1.1277 -4.8449 0.0663976
1.1417 -4.8399 0.0663976
1.1607 -4.8499 0.0663976
1.1757 -4.8459 0.0663976
1.1897 -4.8389 0.0663976
1.2097 -4.8519 0.0653976
1.2147 -4.8409 0.0663976
1.2287 -4.8329 0.0663976
1.2457 -4.8369 0.0663976
1.2627 -4.8389 0.0653976
1.2787 -4.8389 0.0653976
1.2977 -4.8479 0.0653976
1.3107 -4.8339 0.0653976
1.3207 -4.8419 0.0653976
1.3357 -4.8359 0.0653976
1.3497 -4.8279 0.0653976
1.3657 -4.8269 0.0653976
1.3857 -4.8379 0.0653976
1.3977 -4.8219 0.0653976
1.4097 -4.8369 0.0643976
1.4257 -4.8349 0.0643976
1.4377 -4.8209 0.0653976
1.4737 -4.8289 0.0643976
1.4877 -4.8199 0.0643976
1.5027 -4.8159 0.0643976
1.5127 -4.8209 0.0643976
1.5297 -4.8219 0.0643976
1.5447 -4.8169 0.0643976
1.5607 -4.8139 0.0643976
1.5917 -4.8079 0.0643976
1.6117 -4.8159 0.0633976
1.6367 -4.8139 0.0633976
1.6557 -4.8199 0.0633976
1.6827 -4.8019 0.0633976
1.6997 -4.8029 0.0633976
1.7447 -4.8079 0.0623976
1.7587 -4.7989 0.0623976
1.7967 -4.8099 0.0623976
1.8087 -4.7949 0.0623976
1.8167 -4.7939 0.0623976
1.8857 -4.7929 0.0613976
1.9187 -4.7879 0.0613976
1.9807 -4.7889 0.0613976
2.0287 -4.7779 0.0603976
2.0577 -4.7829 0.0603976
2.0747 -4.7799 0.0603976
2.1067 -4.7719 0.0603976
2.1247 -4.7729 0.0603976
2.1527 -4.7739 0.0593976
2.1697 -4.7709 0.0593976
2.2217 -4.7659 0.0593976
2.2657 -4.7609 0.0583976
2.3217 -4.7629 0.0583976
2.3567 -4.7589 0.0573976
2.3717 -4.7699 0.0573976
2.3827 -4.7549 0.0573976
2.4207 -4.7559 0.0573976
2.4567 -4.7529 0.0563976
2.4737 -4.7489 0.0563976
2.4847 -4.7519 0.0563976
2.5037 -4.7509 0.0563976
2.5207 -4.7469 0.0563976
2.5587 -4.7469 0.0553976
2.5757 -4.7419 0.0553976
2.6027 -4.7389 0.0553976
2.6227 -4.7389 0.0553976
2.6787 -4.7329 0.0543976
2.7257 -4.7289 0.0533976
2.7857 -4.7289 0.0533976
2.8317 -4.7229 0.0523976
2.9307 -4.7179 0.0513976
2.9607 -4.7159 0.0513976
3.0887 -4.7199 0.0493976
3.1117 -4.7069 0.0493976
3.1547 -4.7069 0.0483976
3.1967 -4.7049 0.0473976
3.3127 -4.6979 0.0463976
3.3537 -4.6929 0.0453976
3.4467 -4.6819 0.0443976
3.4717 -4.6839 0.0443976
3.4777 -4.6769 0.0443976
3.5277 -4.6819 0.0433976
3.5457 -4.6759 0.0433976
3.5947 -4.6789 0.0423976
3.6107 -4.6689 0.0423976
3.6287 -4.6779 0.0413976
3.6647 -4.6629 0.0413976
3.6987 -4.6759 0.0403976
3.7187 -4.6709 0.0403976
3.7337 -4.6589 0.0403976
3.7617 -4.6639 0.0393976
3.7817 -4.6739 0.0393976
3.7957 -4.6599 0.0393976
4.1527 -4.6339 0.0333976
4.2457 -4.6329 0.0323976
4.2777 -4.6389 0.0313976
4.3207 -4.6259 0.0313976
4.3437 -4.6219 0.0303976
4.3897 -4.6269 0.0293976
4.4687 -4.6209 0.0283976
4.5827 -4.6069 0.0263976
4.6617 -4.5989 0.0253976
5.4157 -4.5599 0.0113976
5.5957 -4.5469 0.00839758
5.6287 -4.5439 0.00739758
5.6547 -4.5369 0.00739758
5.7467 -4.5359 0.00539758
5.7787 -4.5319 0.00439758
5.9747 -4.5199 0.000397577
6.0427 -4.5119 -0.000602422
6.0827 -4.5119 -0.00160242
6.1177 -4.5089 -0.00160242
6.2437 -4.4959 -0.00460242
6.2837 -4.4949 -0.00560242
6.3257 -4.4939 -0.00660242
6.4567 -4.4809 -0.00860242
6.5787 -4.4739 -0.0116024
11.5567 -4.1289 -0.123602
12.1077 -4.0909 -0.137602
12.3247 -4.0769 -0.142602
12.9267 -4.0289 -0.156602
13.2337 -4.0099 -0.164602
13.3507 -3.9999 -0.167602
13.4497 -3.9829 -0.169602
13.5987 -3.9809 -0.173602
13.7037 -3.9639 -0.175602
13.9447 -3.9629 -0.181602
14.0707 -3.9509 -0.184602
14.1837 -3.9339 -0.187602
14.3287 -3.9259 -0.191602
14.6957 -3.9019 -0.200602
14.8257 -3.8859 -0.203602
0.0247003 -4.9219 0.0383976
0.0947003 -4.9149 0.0383976
0.2257 -4.9069 0.0383976
0.5257 -4.8839 0.0383976
0.5577 -4.8939 0.0383976
0.6107 -4.8819 0.0383976
0.6637 -4.8729 0.0383976
0.6957 -4.8729 0.0383976
0.8117 -4.8689 0.0373976
0.8427 -4.8619 0.0373976
0.8657 -4.8599 0.0373976
0.9127 -4.8569 0.0373976
0.9437 -4.8569 0.0373976
0.9687 -4.8599 0.0373976
1.0157 -4.8569 0.0373976
1.0297 -4.8479 0.0373976
1.0617 -4.8509 0.0363976
1.0847 -4.8459 0.0363976
1.1017 -4.8479 0.0363976
1.1177 -4.8509 0.0363976
1.1327 -4.8449 0.0363976
1.1507 -4.8529 0.0363976
1.1637 -4.8419 0.0363976
1.1717 -4.8379 0.0363976
1.1877 -4.8379 0.0363976
1.2187 -4.8369 0.0363976
1.2347 -4.8349 0.0363976
1.2517 -4.8369 0.0353976
1.2757 -4.8369 0.0353976
1.3657 -4.8389 0.0343976
1.4117 -4.8259 0.0343976
1.5497 -4.8169 0.0333976
1.5737 -4.8129 0.0333976
1.8707 -4.7889 0.0313976
4.7127 -4.5899 -0.0146024
4.8107 -4.5839 -0.0166024
4.9437 -4.5789 -0.0196024
4.9727 -4.5769 -0.0206024
7.0087 -4.4339 -0.0696024
7.2017 -4.4159 -0.0746024
7.2497 -4.4139 -0.0756024
7.5197 -4.4029 -0.0836024
7.6097 -4.3909 -0.0856024
7.6617 -4.3899 -0.0866024
7.7857 -4.3799 -0.0906024
7.8397 -4.3789 -0.0916024
7.8847 -4.3709 -0.0926024
7.9477 -4.3739 -0.0946024
8.0457 -4.3619 -0.0976024
8.0907 -4.3539 -0.0986024
8.1487 -4.3689 -0.100602
8.1887 -4.3569 -0.101602
8.2467 -4.3549 -0.102602
8.2987 -4.3499 -0.104602
8.3617 -4.3489 -0.105602
8.4077 -4.3399 -0.106602
8.4677 -4.3369 -0.108602
8.5047 -4.3389 -0.109602
8.6227 -4.3319 -0.112602
8.6767 -4.3249 -0.114602
8.7337 -4.3189 -0.115602
8.7807 -4.3089 -0.117602
8.8537 -4.3099 -0.119602
9.0867 -4.3009 -0.125602
9.1527 -4.2969 -0.127602
9.2077 -4.2879 -0.129602
9.2627 -4.2789 -0.130602
9.3197 -4.2869 -0.132602
9.3867 -4.2819 -0.134602
9.4437 -4.2729 -0.135602
9.5097 -4.2669 -0.137602
9.5777 -4.2619 -0.139602
9.6497 -4.2569 -0.141602
10.5697 -4.1969 -0.168602
10.6497 -4.1899 -0.170602
10.9547 -4.1719 -0.179602
11.0407 -4.1659 -0.181602
11.1167 -4.1549 -0.184602
11.1977 -4.1449 -0.186602
11.3537 -4.1429 -0.190602
11.4407 -4.1339 -0.193602
11.5267 -4.1239 -0.195602
11.6147 -4.1149 -0.198602
11.7067 -4.1059 -0.201602
11.7847 -4.1129 -0.203602
11.8747 -4.1029 -0.206602
11.9727 -4.0949 -0.209602
12.0707 -4.0859 -0.212602
12.1637 -4.0749 -0.214602
12.2647 -4.0669 -0.217602
12.3617 -4.0559 -0.220602
12.4567 -4.0649 -0.223602
12.5607 -4.0559 -0.226602
12.6647 -4.0459 -0.229602
12.7657 -4.0339 -0.232602
12.8767 -4.0249 -0.235602
12.9807 -4.0129 -0.239602
13.1887 -4.0099 -0.245602
13.2857 -3.9939 -0.248602
13.5327 -3.9759 -0.255602
14.0007 -3.9479 -0.269602
14.1287 -3.9359 -0.273602
14.2567 -3.9239 -0.277602
3.0567 -4.7149 -0.0216024
5.9097 -4.5259 -0.0916024
6.1077 -4.5119 -0.0976024
6.1797 -4.5049 -0.0996024
6.2317 -4.4979 -0.100602
6.3117 -4.4959 -0.103602
6.4497 -4.4879 -0.107602
6.5257 -4.4799 -0.109602
6.6107 -4.4769 -0.112602
6.6717 -4.4719 -0.114602
6.9257 -4.4549 -0.122602
12.3897 -4.0719 -0.307602
12.4997 -4.0639 -0.311602
12.8907 -4.0349 -0.325602
13.0027 -4.0249 -0.329602
13.1167 -4.0149 -0.333602
13.5567 -3.9859 -0.349602
13.6767 -3.9749 -0.353602
13.7967 -3.9619 -0.357602
13.9117 -3.9479 -0.361602
14.1687 -3.9479 -0.371602
14.2817 -3.9309 -0.375602
14.4187 -3.9199 -0.380602
14.9407 -3.8849 -0.399602
15.0737 -3.8689 -0.404602
0.00670033 -4.9369 -0.0246024
0.0297003 -4.9309 -0.0246024
0.0607003 -4.9209 -0.0236024
0.0767003 -4.9329 -0.0246024
0.0917003 -4.9299 -0.0246024
0.1147 -4.9139 -0.0236024
0.1307 -4.9229 -0.0236024
0.1457 -4.9249 -0.0246024
0.1767 -4.9199 -0.0236024
0.1997 -4.9149 -0.0236024
0.2617 -4.9039 -0.0236024
0.2767 -4.9109 -0.0236024
0.2927 -4.9139 -0.0236024
0.3467 -4.9109 -0.0236024
0.4087 -4.9039 -0.0236024
0.4167 -4.9099 -0.0246024
0.4927 -4.8959 -0.0236024
0.5007 -4.8959 -0.0236024
0.5317 -4.8999 -0.0246024
0.5477 -4.9009 -0.0246024
0.5627 -4.8949 -0.0246024
0.6327 -4.8919 -0.0246024
0.7167 -4.8809 -0.0246024
0.8807 -4.8719 -0.0256024
1.0047 -4.8579 -0.0256024
1.0217 -4.8609 -0.0256024
1.0917 -4.8539 -0.0266024
1.1087 -4.8599 -0.0266024
1.1707 -4.8499 -0.0266024
1.1877 -4.8539 -0.0276024
1.1947 -4.8459 -0.0266024
1.2997 -4.8459 -0.0286024
1.3317 -4.8449 -0.0286024
1.3797 -4.8399 -0.0286024
1.3867 -4.8359 -0.0286024
1.4187 -4.8309 -0.0286024
1.4327 -4.8249 -0.0286024
1.4847 -4.8319 -0.0296024
1.5097 -4.8309 -0.0306024
1.5257 -4.8319 -0.0306024
1.5387 -4.8189 -0.0296024
1.5577 -4.8259 -0.0306024
1.5737 -4.8249 -0.0306024
1.6287 -4.8109 -0.0306024
1.6457 -4.8109 -0.0316024
1.7227 -4.8139 -0.0326024
1.7687 -4.7989 -0.0326024
1.7887 -4.8089 -0.0336024
1.8647 -4.8039 -0.0346024
1.8967 -4.7969 -0.0346024
1.9037 -4.7929 -0.0346024
1.9257 -4.8029 -0.0356024
1.9917 -4.7939 -0.0356024
2.0087 -4.7929 -0.0366024
2.0527 -4.7919 -0.0366024
2.0847 -4.7819 -0.0366024
2.1807 -4.7759 -0.0386024
2.2997 -4.7779 -0.0406024
2.3977 -4.7679 -0.0426024
2.4477 -4.7559 -0.0426024
2.4967 -4.7589 -0.0436024
2.5137 -4.7549 -0.0446024
2.5997 -4.7539 -0.0456024
2.6177 -4.7509 -0.0466024
2.6547 -4.7489 -0.0466024
2.6937 -4.7479 -0.0476024
2.7037 -4.7489 -0.0476024
2.7377 -4.7379 -0.0486024
2.7797 -4.7419 -0.0496024
2.8007 -4.7269 -0.0496024
2.8217 -4.7289 -0.0496024
2.8487 -4.7399 -0.0506024
2.8837 -4.7309 -0.0516024
2.9267 -4.7179 -0.0516024
2.9517 -4.7239 -0.0526024
2.9727 -4.7249 -0.0536024
2.9927 -4.7239 -0.0536024
3.0617 -4.7179 -0.0556024
3.0967 -4.7069 -0.0556024
3.1397 -4.7069 -0.0566024
3.1577 -4.7029 -0.0566024
3.1887 -4.7009 -0.0576024
3.2527 -4.6999 -0.0596024
3.2727 -4.6969 -0.0596024
3.3237 -4.6919 -0.0606024
3.3487 -4.6959 -0.0616024
4.1577 -4.6389 -0.0826024
4.1977 -4.6399 -0.0836024
4.2477 -4.6359 -0.0846024
4.3017 -4.6369 -0.0866024
4.3557 -4.6219 -0.0876024
4.8877 -4.5899 -0.103602
4.9747 -4.5849 -0.105602
5.0057 -4.5839 -0.106602
5.0257 -4.5879 -0.107602
5.0487 -4.5799 -0.108602
5.0727 -4.5729 -0.108602
5.1427 -4.5779 -0.111602
5.2777 -4.5669 -0.115602
5.3097 -4.5659 -0.116602
5.3807 -4.5539 -0.118602
5.4147 -4.5529 -0.119602
5.4457 -4.5509 -0.120602
5.4667 -4.5389 -0.120602
5.5857 -4.5349 -0.124602
5.7327 -4.5369 -0.130602
5.8007 -4.5319 -0.132602
5.8797 -4.5199 -0.134602
6.0087 -4.5159 -0.139602
6.0847 -4.5139 -0.141602
6.1117 -4.5039 -0.142602
6.1467 -4.4999 -0.143602
6.1817 -4.4959 -0.144602
6.2217 -4.4949 -0.146602
6.2817 -4.4939 -0.148602
6.3267 -4.4959 -0.150602
6.3637 -4.4929 -0.151602
6.3997 -4.4879 -0.152602
6.4187 -4.4709 -0.152602
6.4587 -4.4689 -0.154602
6.4937 -4.4779 -0.155602
6.5287 -4.4729 -0.156602
6.5707 -4.4709 -0.158602
6.6167 -4.4719 -0.160602
6.6457 -4.4609 -0.160602
6.6927 -4.4629 -0.162602
6.7587 -4.4609 -0.165602
6.8007 -4.4579 -0.166602
6.8467 -4.4579 -0.168602
6.8807 -4.4489 -0.169602
6.9277 -4.4499 -0.171602
6.9657 -4.4429 -0.172602
7.0007 -4.4499 -0.173602
7.0877 -4.4429 -0.177602
7.1237 -4.4349 -0.178602
7.1647 -4.4289 -0.179602
7.2107 -4.4269 -0.181602
7.2627 -4.4269 -0.183602
7.2877 -4.4269 -0.184602
7.3277 -4.4199 -0.185602
7.3807 -4.4209 -0.187602
7.4257 -4.4159 -0.189602
7.4787 -4.4159 -0.191602
7.5167 -4.4069 -0.192602
7.5597 -4.3999 -0.193602
7.7417 -4.3929 -0.200602
7.8457 -4.3879 -0.204602
7.9027 -4.3869 -0.206602
7.9797 -4.3809 -0.209602
8.0317 -4.3769 -0.211602
8.0857 -4.3739 -0.213602
8.1867 -4.3619 -0.217602
8.5627 -4.3409 -0.231602
8.9457 -4.3099 -0.246602
12.6597 -4.0519 -0.396602
13.1787 -4.0149 -0.417602
13.2847 -4.0019 -0.422602
13.8697 -3.9659 -0.446602
13.9957 -3.9549 -0.451602
14.1267 -3.9439 -0.457602
14.4837 -3.9219 -0.472602
14.6097 -3.9069 -0.477602
14.7447 -3.8939 -0.483602
14.8907 -3.8829 -0.489602
15.1527 -3.8749 -0.500602
15.3007 -3.8619 -0.506602
15.4367 -3.8449 -0.512602
16.0067 -3.8019 -0.536602
16.2147 -3.7979 -0.545602
0.0537003 -4.9209 -0.0526024
0.2087 -4.9119 -0.0526024
0.2547 -4.9019 -0.0516024
0.2697 -4.9009 -0.0516024
0.3547 -4.8979 -0.0516024
0.3777 -4.8999 -0.0526024
0.3937 -4.9029 -0.0526024
0.4087 -4.8939 -0.0516024
0.4537 -4.8879 -0.0516024
0.4777 -4.8939 -0.0526024
0.4937 -4.8919 -0.0526024
0.5087 -4.8879 -0.0526024
0.5237 -4.8829 -0.0516024
0.5397 -4.8849 -0.0526024
0.5547 -4.8809 -0.0516024
0.5717 -4.8979 -0.0526024
0.5777 -4.8849 -0.0526024
0.5927 -4.8789 -0.0526024
0.6087 -4.8829 -0.0526024
0.6387 -4.8749 -0.0526024
0.6567 -4.8869 -0.0526024
0.6637 -4.8819 -0.0526024
0.6787 -4.8759 -0.0526024
0.6947 -4.8839 -0.0526024
0.7087 -4.8699 -0.0526024
0.7247 -4.8749 -0.0526024
0.7417 -4.8789 -0.0536024
0.7557 -4.8709 -0.0526024
0.7647 -4.8749 -0.0536024
0.7797 -4.8749 -0.0536024
0.7937 -4.8639 -0.0526024
0.8107 -4.8719 -0.0536024
0.8277 -4.8789 -0.0536024
0.8427 -4.8709 -0.0536024
0.8647 -4.8659 -0.0536024
0.9137 -4.8699 -0.0546024
0.9587 -4.8589 -0.0536024
0.9807 -4.8509 -0.0536024
0.9997 -4.8629 -0.0546024
1.0517 -4.8459 -0.0546024
1.0697 -4.8539 -0.0546024
1.0877 -4.8629 -0.0556024
1.1147 -4.8419 -0.0546024
1.1327 -4.8499 -0.0556024
1.1707 -4.8409 -0.0556024
1.2337 -4.8339 -0.0556024
1.2577 -4.8339 -0.0566024
1.5567 -4.8149 -0.0596024
1.8377 -4.7919 -0.0626024
1.9317 -4.7869 -0.0646024
2.1027 -4.7739 -0.0676024
2.1227 -4.7759 -0.0676024
2.1567 -4.7719 -0.0686024
2.2907 -4.7659 -0.0706024
2.3537 -4.7619 -0.0716024
2.3697 -4.7569 -0.0726024
2.3897 -4.7579 -0.0726024
2.4047 -4.7519 -0.0726024
2.4317 -4.7499 -0.0736024
2.4517 -4.7509 -0.0736024
2.4737 -4.7569 -0.0746024
2.5417 -4.7579 -0.0766024
2.6267 -4.7369 -0.0776024
2.6487 -4.7419 -0.0776024
2.6547 -4.7349 -0.0776024
2.6747 -4.7349 -0.0786024
2.6937 -4.7329 -0.0786024
2.9107 -4.7269 -0.0836024
2.9837 -4.7109 -0.0856024
3.0197 -4.7179 -0.0866024
3.1667 -4.6999 -0.0896024
4.1697 -4.6299 -0.118602
4.2287 -4.6359 -0.120602
4.2807 -4.6339 -0.121602
4.2857 -4.6249 -0.121602
4.3137 -4.6259 -0.122602
4.3447 -4.6299 -0.124602
4.3877 -4.6169 -0.125602
4.4267 -4.6289 -0.126602
4.4537 -4.6279 -0.127602
4.6897 -4.6049 -0.135602
4.7117 -4.5969 -0.135602
4.7377 -4.5929 -0.136602
4.7727 -4.5969 -0.137602
4.7857 -4.5949 -0.138602
4.8227 -4.6019 -0.139602
4.8377 -4.5869 -0.139602
4.8987 -4.5869 -0.142602
4.9277 -4.5849 -0.143602
4.9627 -4.5879 -0.144602
4.9707 -4.5819 -0.144602
5.0527 -4.5689 -0.147602
5.0847 -4.5689 -0.148602
5.1217 -4.5729 -0.149602
5.1477 -4.5679 -0.150602
5.2027 -4.5719 -0.152602
5.2197 -4.5589 -0.153602
5.2557 -4.5599 -0.154602
5.2897 -4.5609 -0.155602
5.3667 -4.5539 -0.158602
5.3897 -4.5449 -0.159602
5.4227 -4.5429 -0.160602
5.4647 -4.5489 -0.162602
5.4847 -4.5369 -0.162602
5.5257 -4.5409 -0.164602
5.5337 -4.5329 -0.164602
5.5747 -4.5369 -0.166602
5.5997 -4.5289 -0.166602
5.6497 -4.5399 -0.169602
5.6707 -4.5269 -0.169602
5.7377 -4.5219 -0.172602
5.7607 -4.5249 -0.173602
5.8017 -4.5279 -0.174602
5.8307 -4.5199 -0.175602
5.8587 -4.5129 -0.176602
5.9867 -4.5069 -0.181602
6.0227 -4.5049 -0.182602
6.0537 -4.4979 -0.183602
6.0897 -4.4949 -0.185602
6.1397 -4.5019 -0.187602
6.1947 -4.4969 -0.189602
6.2287 -4.4919 -0.190602
6.2567 -4.4829 -0.191602
6.2967 -4.4819 -0.193602
6.3407 -4.4819 -0.195602
6.3797 -4.4799 -0.196602
6.4517 -4.4849 -0.199602
6.5137 -4.4679 -0.201602
6.5607 -4.4699 -0.203602
6.5917 -4.4599 -0.204602
6.6337 -4.4579 -0.206602
6.6997 -4.4569 -0.209602
6.7437 -4.4549 -0.211602
6.7917 -4.4559 -0.213602
6.8207 -4.4439 -0.213602
6.8667 -4.4429 -0.215602
6.9067 -4.4389 -0.217602
6.9527 -4.4369 -0.219602
6.9817 -4.4399 -0.220602
7.0317 -4.4409 -0.222602
7.0687 -4.4329 -0.224602
7.1167 -4.4319 -0.226602
7.2417 -4.4159 -0.231602
7.2777 -4.4219 -0.232602
7.3197 -4.4149 -0.234602
7.3657 -4.4119 -0.236602
7.4087 -4.4059 -0.238602
7.5507 -4.4099 -0.244602
7.5937 -4.4029 -0.245602
7.6407 -4.3979 -0.247602
7.6807 -4.3889 -0.249602
7.7337 -4.3869 -0.251602
7.8327 -4.3779 -0.255602
7.8677 -4.3809 -0.257602
7.9217 -4.3789 -0.259602
7.9707 -4.3729 -0.261602
8.0177 -4.3659 -0.263602
8.0717 -4.3619 -0.265602
8.1257 -4.3579 -0.268602
8.1717 -4.3499 -0.270602
8.2227 -4.3599 -0.272602
8.2677 -4.3509 -0.274602
8.3207 -4.3449 -0.276602
8.3787 -4.3419 -0.279602
8.4477 -4.3439 -0.282602
8.5077 -4.3409 -0.284602
8.5497 -4.3279 -0.286602
8.7157 -4.3259 -0.293602
8.7777 -4.3229 -0.296602
8.8397 -4.3189 -0.299602
11.3867 -4.1389 -0.413602
11.7327 -4.1189 -0.429602
11.8307 -4.1119 -0.434602
11.9227 -4.1009 -0.438602
12.1917 -4.0869 -0.450602
12.2997 -4.0799 -0.455602
12.4077 -4.0719 -0.460602
12.5097 -4.0619 -0.465602
12.5977 -4.0469 -0.469602
12.7927 -4.0419 -0.478602
12.9137 -4.0359 -0.484602
13.1227 -4.0099 -0.494602
13.2387 -3.9999 -0.499602
13.3557 -3.9899 -0.505602
13.4507 -3.9949 -0.509602
13.5687 -3.9829 -0.515602
13.6887 -3.9709 -0.520602
13.8067 -3.9589 -0.526602
13.9377 -3.9489 -0.532602
14.1737 -3.9429 -0.543602
14.3077 -3.9319 -0.550602
14.4357 -3.9179 -0.556602
14.5737 -3.9059 -0.562602
15.1187 -3.8729 -0.588602
15.2527 -3.8569 -0.595602
16.1807 -3.7939 -0.639602
0.0687003 -4.9189 -0.0836024
0.1687 -4.9269 -0.0846024
0.1997 -4.9199 -0.0846024
0.4157 -4.9099 -0.0846024
1.0757 -4.8539 -0.0866024
1.1057 -4.8469 -0.0866024
1.2997 -4.8459 -0.0896024
1.5777 -4.8109 -0.0916024
1.6107 -4.8109 -0.0926024
1.6687 -4.8059 -0.0936024
1.7257 -4.7999 -0.0946024
1.7617 -4.8049 -0.0946024
1.7757 -4.7969 -0.0946024
1.8117 -4.8009 -0.0956024
1.8537 -4.7979 -0.0966024
1.8677 -4.7899 -0.0966024
1.8837 -4.7879 -0.0966024
1.9457 -4.7889 -0.0976024
1.9637 -4.7899 -0.0986024
1.9807 -4.7899 -0.0986024
1.9957 -4.7819 -0.0986024
2.0127 -4.7809 -0.0986024
2.0317 -4.7839 -0.0996024
2.0407 -4.7839 -0.0996024
2.0567 -4.7809 -0.0996024
2.0907 -4.7779 -0.100602
2.1507 -4.7709 -0.101602
2.1867 -4.7699 -0.102602
2.2567 -4.7639 -0.103602
2.2827 -4.7619 -0.104602
2.3227 -4.7669 -0.105602
2.3637 -4.7559 -0.105602
2.4527 -4.7489 -0.107602
6.8027 -4.4449 -0.265602
6.8487 -4.4449 -0.267602
6.9317 -4.4369 -0.270602
6.9757 -4.4349 -0.273602
7.0167 -4.4299 -0.274602
7.0527 -4.4369 -0.276602
7.0967 -4.4339 -0.278602
7.1337 -4.4269 -0.280602
7.2217 -4.4179 -0.284602
7.2657 -4.4139 -0.286602
7.3517 -4.4189 -0.290602
7.3997 -4.4169 -0.292602
7.4377 -4.4079 -0.294602
7.4837 -4.4039 -0.296602
7.5317 -4.4009 -0.298602
7.5787 -4.3959 -0.301602
7.6197 -4.3879 -0.302602
7.6687 -4.3999 -0.305602
7.7147 -4.3949 -0.307602
7.7597 -4.3879 -0.309602
7.8117 -4.3859 -0.312602
7.8657 -4.3839 -0.314602
7.9077 -4.3739 -0.316602
7.9597 -4.3709 -0.319602
8.0047 -4.3789 -0.321602
8.0537 -4.3729 -0.323602
8.0987 -4.3649 -0.325602
8.1517 -4.3609 -0.328602
8.2077 -4.3579 -0.331602
8.2647 -4.3549 -0.333602
8.2987 -4.3559 -0.335602
8.4137 -4.3499 -0.341602
8.5227 -4.3389 -0.346602
8.5887 -4.3379 -0.349602
8.6337 -4.3279 -0.351602
8.7387 -4.3289 -0.357602
8.8547 -4.3179 -0.362602
8.9737 -4.3059 -0.368602
10.4367 -4.2089 -0.441602
11.9117 -4.1029 -0.517602
12.0217 -4.0989 -0.523602
12.1117 -4.0879 -0.528602
12.6107 -4.0589 -0.554602
12.7077 -4.0459 -0.559602
13.1227 -4.0209 -0.581602
13.2447 -4.0129 -0.588602
13.3467 -3.9989 -0.593602
13.4727 -3.9899 -0.600602
13.8047 -3.9719 -0.617602
13.9397 -3.9639 -0.625602
14.0497 -3.9469 -0.630602
14.1837 -3.9369 -0.637602
14.3037 -3.9219 -0.644602
14.5527 -3.9179 -0.657602
14.6927 -3.9059 -0.665602
14.8147 -3.8889 -0.671602
14.9677 -3.8789 -0.679602
15.3697 -3.8549 -0.701602
15.5307 -3.8439 -0.710602
0.0307003 -4.9349 -0.111602
0.1157 -4.9299 -0.110602
0.1627 -4.9259 -0.110602
0.1707 -4.9259 -0.110602
0.2007 -4.9189 -0.110602
0.2167 -4.9179 -0.110602
0.2467 -4.9129 -0.110602
0.2547 -4.9119 -0.110602
0.2707 -4.9179 -0.110602
0.3017 -4.9179 -0.110602
0.3167 -4.9169 -0.110602
0.3327 -4.9139 -0.110602
0.3557 -4.9139 -0.110602
0.3707 -4.9089 -0.110602
0.3867 -4.9079 -0.110602
0.4017 -4.9049 -0.110602
0.4487 -4.9069 -0.110602
0.4557 -4.9019 -0.110602
0.4707 -4.9019 -0.110602
0.5557 -4.8939 -0.110602
0.5707 -4.8919 -0.110602
0.5867 -4.8899 -0.110602
0.6027 -4.8919 -0.110602
0.6177 -4.8919 -0.110602
0.6337 -4.8939 -0.111602
0.6407 -4.8889 -0.110602
0.7037 -4.8869 -0.111602
0.7347 -4.8859 -0.111602
0.7427 -4.8869 -0.111602
0.7887 -4.8819 -0.111602
0.8047 -4.8809 -0.111602
0.9207 -4.8689 -0.112602
0.9377 -4.8719 -0.112602
0.9607 -4.8669 -0.112602
1.3747 -4.8419 -0.117602
1.4227 -4.8379 -0.117602
1.4477 -4.8369 -0.118602
1.4607 -4.8269 -0.117602
1.4967 -4.8339 -0.119602
1.5107 -4.8259 -0.118602
1.5537 -4.8309 -0.119602
1.6027 -4.8259 -0.120602
1.6177 -4.8209 -0.120602
1.6457 -4.8049 -0.120602
1.6907 -4.8119 -0.121602
1.7057 -4.8069 -0.121602
1.7277 -4.8179 -0.122602
1.7497 -4.8079 -0.122602
1.7817 -4.8029 -0.122602
1.7987 -4.8029 -0.123602
1.8177 -4.8079 -0.123602
1.8337 -4.8029 -0.123602
1.8477 -4.7949 -0.123602
1.8617 -4.8089 -0.124602
1.8917 -4.7969 -0.124602
1.9117 -4.8039 -0.125602
1.9247 -4.7909 -0.125602
1.9397 -4.7859 -0.125602
1.9627 -4.7989 -0.126602
1.9707 -4.7969 -0.126602
1.9827 -4.7839 -0.126602
2.0357 -4.7829 -0.127602
2.0727 -4.7849 -0.128602
2.0977 -4.7819 -0.129602
2.1327 -4.7779 -0.129602
2.1677 -4.7769 -0.130602
2.1937 -4.7739 -0.130602
2.2307 -4.7749 -0.131602
2.2947 -4.7729 -0.133602
2.4127 -4.7669 -0.136602
2.4257 -4.7549 -0.136602
2.5427 -4.7429 -0.138602
2.6177 -4.7389 -0.140602
2.6727 -4.7499 -0.143602
2.6937 -4.7509 -0.143602
2.7987 -4.7439 -0.146602
2.8327 -4.7329 -0.147602
2.8537 -4.7339 -0.147602
2.8757 -4.7369 -0.148602
2.9427 -4.7289 -0.150602
3.0047 -4.7279 -0.152602
3.0137 -4.7259 -0.152602
3.0967 -4.7229 -0.155602
3.1137 -4.7169 -0.155602
3.1337 -4.7149 -0.156602
3.1877 -4.7149 -0.158602
3.2267 -4.7079 -0.159602
3.2477 -4.7079 -0.159602
4.2467 -4.6269 -0.194602
4.4407 -4.6139 -0.202602
4.6797 -4.6089 -0.212602
4.7387 -4.6079 -0.214602
4.8337 -4.5979 -0.218602
4.9227 -4.5949 -0.222602
4.9557 -4.5819 -0.223602
4.9937 -4.5879 -0.225602
5.0067 -4.5709 -0.225602
5.1147 -4.5819 -0.230602
5.1107 -4.5629 -0.229602
5.1707 -4.5589 -0.232602
5.2337 -4.5559 -0.235602
5.3237 -4.5609 -0.239602
5.3767 -4.5479 -0.241602
5.4147 -4.5509 -0.243602
5.4577 -4.5579 -0.245602
5.5107 -4.5439 -0.247602
5.5317 -4.5459 -0.248602
5.5637 -4.5429 -0.250602
5.5937 -4.5379 -0.251602
5.6227 -4.5329 -0.252602
5.6527 -4.5269 -0.253602
5.6847 -4.5229 -0.255602
5.7377 -4.5359 -0.258602
5.7887 -4.5319 -0.260602
5.8257 -4.5309 -0.262602
5.8937 -4.5249 -0.265602
5.9217 -4.5169 -0.266602
5.9557 -4.5129 -0.268602
6.0197 -4.5169 -0.271602
6.0547 -4.5129 -0.273602
6.0897 -4.5099 -0.274602
6.1197 -4.5019 -0.275602
6.1617 -4.5029 -0.278602
6.2967 -4.4959 -0.284602
6.3287 -4.4889 -0.285602
6.3697 -4.4879 -0.287602
6.3977 -4.4779 -0.289602
6.4267 -4.4819 -0.290602
6.5137 -4.4829 -0.295602
6.5497 -4.4769 -0.296602
6.6217 -4.4649 -0.300602
6.6677 -4.4659 -0.302602
6.7387 -4.4669 -0.306602
6.7827 -4.4649 -0.308602
6.8607 -4.4549 -0.311602
6.9067 -4.4539 -0.314602
6.9527 -4.4529 -0.316602
6.9747 -4.4509 -0.317602
7.3567 -4.4219 -0.336602
7.4067 -4.4199 -0.339602
7.4557 -4.4169 -0.341602
7.4997 -4.4119 -0.344602
7.7767 -4.3949 -0.358602
7.8187 -4.3859 -0.360602
8.0667 -4.3759 -0.373602
8.1157 -4.3689 -0.376602
8.4117 -4.3419 -0.391602
8.8677 -4.3149 -0.415602
8.9687 -4.3119 -0.421602
11.0777 -4.1659 -0.538602
11.2467 -4.1489 -0.547602
11.7707 -4.1119 -0.577602
11.8627 -4.1019 -0.582602
12.1357 -4.0889 -0.598602
12.2467 -4.0829 -0.604602
12.3357 -4.0699 -0.609602
12.4447 -4.0619 -0.615602
12.7357 -4.0459 -0.632602
12.8587 -4.0409 -0.639602
12.9587 -4.0269 -0.645602
13.0747 -4.0179 -0.652602
13.1787 -4.0049 -0.657602
13.3867 -3.9989 -0.670602
13.5127 -3.9899 -0.677602
13.6247 -3.9759 -0.683602
13.7597 -3.9689 -0.691602
14.1117 -3.9499 -0.712602
14.2297 -3.9339 -0.719602
14.3507 -3.9189 -0.726602
14.4917 -3.9089 -0.734602
15.0247 -3.8749 -0.765602
0.4997 -4.8859 -0.144602
0.9487 -4.8549 -0.146602
1.0827 -4.8499 -0.148602
1.1057 -4.8479 -0.148602
1.1227 -4.8509 -0.148602
1.1697 -4.8439 -0.149602
1.2087 -4.8419 -0.149602
1.2947 -4.8299 -0.150602
1.3447 -4.8309 -0.151602
1.4807 -4.8199 -0.153602
1.5207 -4.8139 -0.153602
1.5697 -4.8109 -0.154602
1.8027 -4.7989 -0.159602
2.9457 -4.7149 -0.188602
3.1777 -4.7019 -0.196602
4.2137 -4.6289 -0.237602
4.3757 -4.6149 -0.243602
4.6727 -4.5999 -0.257602
4.7027 -4.6009 -0.259602
4.7317 -4.5999 -0.260602
4.7607 -4.5989 -0.261602
4.7817 -4.5909 -0.262602
4.8107 -4.5899 -0.263602
4.8367 -4.5999 -0.265602
4.8527 -4.5859 -0.265602
4.8817 -4.5849 -0.267602
4.9147 -4.5869 -0.268602
4.9347 -4.5769 -0.269602
4.9667 -4.5779 -0.271602
4.9957 -4.5759 -0.272602
5.0147 -4.5789 -0.273602
5.0777 -4.5779 -0.276602
5.1007 -4.5699 -0.277602
5.1547 -4.5599 -0.279602
5.1867 -4.5599 -0.281602
5.2047 -4.5609 -0.282602
5.2437 -4.5669 -0.284602
5.2957 -4.5539 -0.286602
5.3327 -4.5559 -0.288602
5.4187 -4.5569 -0.293602
5.4417 -4.5479 -0.294602
5.4697 -4.5419 -0.295602
5.5027 -4.5399 -0.297602
5.6807 -4.5259 -0.306602
5.9747 -4.5049 -0.321602
6.0257 -4.4999 -0.323602
6.0657 -4.4999 -0.326602
6.2687 -4.4849 -0.336602
6.8257 -4.4449 -0.366602
6.9547 -4.4359 -0.373602
7.0177 -4.4299 -0.377602
7.0687 -4.4319 -0.380602
7.3147 -4.4129 -0.394602
7.5757 -4.3939 -0.408602
7.7187 -4.3809 -0.417602
7.9007 -4.3709 -0.427602
7.9517 -4.3659 -0.430602
8.0107 -4.3659 -0.434602
8.2527 -4.3489 -0.448602
8.3127 -4.3469 -0.451602
8.6247 -4.3229 -0.470602
8.6847 -4.3189 -0.473602
8.7397 -4.3119 -0.476602
8.8067 -4.3109 -0.481602
8.9267 -4.3009 -0.488602
10.4367 -4.2089 -0.580602
10.5187 -4.2039 -0.585602
10.5837 -4.1909 -0.589602
10.6587 -4.1819 -0.594602
10.7307 -4.1719 -0.598602
10.8317 -4.1719 -0.605602
10.9827 -4.1719 -0.614602
11.0657 -4.1629 -0.619602
11.1417 -4.1519 -0.624602
11.2297 -4.1449 -0.629602
11.3157 -4.1369 -0.635602
11.3897 -4.1439 -0.640602
11.4777 -4.1349 -0.645602
11.5697 -4.1269 -0.651602
11.6577 -4.1179 -0.657602
11.7547 -4.1109 -0.663602
11.8487 -4.1019 -0.669602
11.9337 -4.0899 -0.674602
12.0187 -4.0979 -0.680602
12.1167 -4.0889 -0.686602
12.2107 -4.0779 -0.692602
12.3087 -4.0679 -0.698602
12.4187 -4.0619 -0.705602
12.5127 -4.0489 -0.711602
12.7157 -4.0489 -0.724602
12.8137 -4.0359 -0.730602
12.9297 -4.0279 -0.738602
13.0467 -4.0199 -0.745602
13.1397 -4.0039 -0.751602
13.4707 -3.9899 -0.773602
13.5947 -3.9799 -0.780602
13.7217 -3.9709 -0.789602
14.1737 -3.9339 -0.818602
14.3017 -3.9219 -0.826602
4.5927 -4.6099 -0.286602
13.3917 -4.0019 -0.836602
13.5557 -3.9809 -0.848602
