3.58873 4.23002 -0.0183153
3.57673 4.23002 -0.0183153
3.52173 4.21802 -0.0163153
3.48273 4.22502 -0.0153153
3.37173 4.21002 -0.0123153
3.34473 4.20302 -0.0113153
3.29373 4.19202 -0.0103153
3.15473 4.18802 -0.00631531
3.07773 4.18102 -0.00431531
2.99173 4.17202 -0.00231531
2.96373 4.17402 -0.00131531
2.88073 4.16702 0.000684691
2.74073 4.14102 0.00468469
2.68973 4.13402 0.00568469
2.64773 4.12502 0.00668469
2.58773 4.13102 0.00768469
2.57173 4.13502 0.00768469
2.45973 4.11002 0.0106847
2.42773 4.11502 0.0116847
2.38873 4.10802 0.0126847
2.32773 4.10602 0.0136847
2.29373 4.10502 0.0146847
2.27373 4.10002 0.0146847
12.6927 5.13502 -0.413315
12.5487 5.12302 -0.407315
12.4147 5.11402 -0.402315
12.1517 5.07402 -0.390315
12.0277 5.06702 -0.385315
11.8937 5.05502 -0.379315
11.7727 5.04702 -0.374315
11.6507 5.03802 -0.369315
11.3027 4.99502 -0.354315
11.1887 4.98702 -0.349315
11.0787 4.97902 -0.345315
10.9587 4.96702 -0.340315
10.5427 4.92002 -0.322315
10.4417 4.91302 -0.318315
10.3417 4.90602 -0.314315
9.86373 4.85302 -0.293315
9.77173 4.84602 -0.290315
9.67973 4.83802 -0.286315
9.59473 4.83402 -0.282315
9.24973 4.78902 -0.268315
9.17373 4.78702 -0.265315
9.08973 4.77902 -0.261315
8.70273 4.73502 -0.245315
8.63173 4.73202 -0.242315
8.54873 4.72202 -0.239315
8.40773 4.71302 -0.233315
8.32673 4.70202 -0.230315
8.27873 4.69302 -0.228315
8.21173 4.68902 -0.225315
7.34373 4.60302 -0.190315
7.29173 4.60302 -0.188315
7.22173 4.59102 -0.185315
7.17173 4.59102 -0.183315
7.02173 4.57302 -0.177315
6.91273 4.56502 -0.173315
5.84573 4.45902 -0.131315
5.77573 4.44902 -0.129315
4.97573 4.37402 -0.0993153
4.08573 4.28702 -0.0683153
4.04673 4.27402 -0.0663153
4.02373 4.27702 -0.0663153
3.95773 4.27302 -0.0633153
3.83373 4.25902 -0.0593153
3.43073 4.22202 -0.0463153
3.33773 4.20202 -0.0433153
3.31573 4.20202 -0.0423153
3.00973 4.18002 -0.0343153
2.93373 4.17202 -0.0313153
2.41973 4.12102 -0.0173153
2.17973 4.08802 -0.0113153
12.4167 5.10102 -0.479315
12.2627 5.08302 -0.471315
12.1487 5.08002 -0.466315
11.6637 5.02802 -0.442315
11.4157 5.00602 -0.431315
11.2927 4.99402 -0.425315
10.8717 4.95002 -0.404315
10.7457 4.93302 -0.398315
10.6557 4.93302 -0.394315
10.5367 4.91802 -0.389315
10.3537 4.89102 -0.380315
10.2607 4.88602 -0.375315
10.1457 4.87102 -0.370315
10.0587 4.86802 -0.366315
9.95573 4.85602 -0.361315
9.34873 4.79702 -0.332315
8.43373 4.70002 -0.289315
8.36673 4.69702 -0.286315
8.29073 4.68902 -0.283315
7.42273 4.60502 -0.243315
7.26373 4.58502 -0.236315
7.20773 4.58102 -0.234315
7.14773 4.57502 -0.231315
7.08773 4.56802 -0.228315
6.94473 4.55302 -0.222315
6.89773 4.55302 -0.220315
6.83973 4.54502 -0.217315
6.79073 4.54302 -0.215315
6.74373 4.54202 -0.213315
5.73173 4.43302 -0.169315
5.69073 4.43002 -0.167315
5.65973 4.43402 -0.166315
5.57073 4.42102 -0.162315
5.53673 4.42202 -0.161315
5.51273 4.41702 -0.159315
5.46873 4.41102 -0.157315
5.43173 4.40902 -0.156315
5.40573 4.41602 -0.155315
5.35673 4.40302 -0.153315
5.28873 4.40402 -0.150315
5.25873 4.39302 -0.149315
5.21673 4.38502 -0.147315
5.15373 4.38702 -0.145315
5.10873 4.37602 -0.142315
5.07773 4.37802 -0.141315
5.06173 4.37802 -0.141315
5.01673 4.36602 -0.139315
4.93973 4.35402 -0.135315
4.92473 4.36802 -0.135315
4.88973 4.36502 -0.134315
4.84873 4.35402 -0.132315
4.82073 4.34302 -0.131315
4.79773 4.35002 -0.130315
4.75773 4.34102 -0.128315
4.73873 4.35102 -0.128315
4.70573 4.34802 -0.126315
4.66173 4.33402 -0.124315
4.64073 4.34202 -0.124315
4.57073 4.31702 -0.120315
4.54773 4.32102 -0.120315
4.50873 4.31202 -0.118315
4.47973 4.31102 -0.117315
4.46473 4.32302 -0.117315
4.40473 4.30502 -0.114315
4.36873 4.29602 -0.112315
4.34773 4.30302 -0.112315
4.31173 4.29402 -0.110315
4.29673 4.30602 -0.110315
4.26673 4.30302 -0.109315
4.24073 4.30302 -0.108315
4.21373 4.29002 -0.107315
4.13073 4.28402 -0.104315
4.00873 4.27702 -0.0993153
3.97373 4.26602 -0.0973153
3.94673 4.26302 -0.0963153
3.91773 4.26002 -0.0953153
3.85673 4.24602 -0.0933153
3.82873 4.25502 -0.0923153
3.77573 4.24902 -0.0903153
3.72073 4.24102 -0.0883153
3.67873 4.23202 -0.0863153
3.66273 4.24102 -0.0863153
3.63373 4.23402 -0.0853153
3.61273 4.23602 -0.0843153
3.58473 4.22902 -0.0833153
3.55673 4.22402 -0.0823153
3.53373 4.22302 -0.0813153
3.52073 4.22002 -0.0813153
3.49173 4.21302 -0.0793153
3.47573 4.22102 -0.0793153
3.45773 4.22502 -0.0793153
3.41573 4.20102 -0.0773153
3.39273 4.19902 -0.0763153
3.29473 4.19702 -0.0733153
3.27473 4.19802 -0.0723153
3.23773 4.19102 -0.0713153
3.21073 4.18402 -0.0703153
3.19573 4.19102 -0.0693153
3.14673 4.18102 -0.0673153
3.12173 4.17402 -0.0663153
3.10673 4.18302 -0.0663153
3.09573 4.18102 -0.0663153
3.04573 4.16802 -0.0643153
2.94973 4.15802 -0.0613153
2.92873 4.15602 -0.0603153
2.91573 4.16502 -0.0603153
2.88773 4.15302 -0.0593153
2.84373 4.14502 -0.0573153
2.77773 4.14402 -0.0553153
2.76573 4.15402 -0.0553153
2.74073 4.14502 -0.0543153
2.72173 4.14502 -0.0543153
2.70173 4.14202 -0.0533153
2.66673 4.13102 -0.0523153
2.64873 4.13102 -0.0513153
2.62773 4.12702 -0.0503153
2.60673 4.12202 -0.0503153
2.58973 4.12302 -0.0493153
2.57173 4.12502 -0.0493153
2.56973 4.13502 -0.0493153
2.54673 4.12602 -0.0483153
2.50273 4.11302 -0.0463153
2.48873 4.11902 -0.0463153
2.46773 4.11302 -0.0463153
2.44973 4.11202 -0.0453153
2.42773 4.11902 -0.0453153
2.38573 4.10602 -0.0433153
2.37073 4.11002 -0.0433153
2.34773 4.10002 -0.0423153
2.33373 4.10602 -0.0423153
2.32873 4.11102 -0.0423153
2.28573 4.09402 -0.0403153
2.26673 4.09102 -0.0403153
2.24973 4.09102 -0.0393153
12.4407 5.10102 -0.565315
12.2947 5.08702 -0.557315
12.1757 5.08302 -0.551315
12.0287 5.06602 -0.543315
11.9157 5.06302 -0.537315
11.6747 5.02602 -0.524315
11.5437 5.01302 -0.517315
11.4347 5.00902 -0.511315
11.2997 4.99202 -0.504315
11.2057 4.99302 -0.499315
10.9927 4.96102 -0.487315
10.8727 4.94802 -0.481315
10.7617 4.93902 -0.475315
10.6697 4.93702 -0.470315
10.5457 4.92002 -0.463315
10.3607 4.89402 -0.453315
10.2757 4.89402 -0.449315
10.1567 4.87702 -0.442315
10.0787 4.87902 -0.438315
9.96473 4.86202 -0.432315
9.88273 4.86102 -0.428315
9.78173 4.85002 -0.422315
9.70273 4.83002 -0.418315
9.60473 4.81902 -0.413315
9.51973 4.81402 -0.408315
9.42973 4.80602 -0.404315
9.34573 4.80002 -0.399315
9.26173 4.79402 -0.395315
9.18273 4.79002 -0.391315
8.70873 4.73702 -0.366315
8.63373 4.73202 -0.362315
8.50673 4.71502 -0.355315
8.41973 4.70202 -0.350315
8.35773 4.70202 -0.347315
8.28373 4.69502 -0.344315
8.21073 4.68802 -0.340315
8.14373 4.68402 -0.336315
8.08373 4.66702 -0.333315
8.02273 4.66502 -0.330315
7.95273 4.65802 -0.326315
7.88273 4.65102 -0.323315
7.81873 4.64602 -0.319315
7.76073 4.64502 -0.317315
7.64273 4.62402 -0.310315
7.58073 4.61902 -0.307315
7.52173 4.61602 -0.304315
7.46773 4.61502 -0.302315
7.40273 4.60702 -0.298315
7.33873 4.60002 -0.295315
7.29773 4.59002 -0.293315
7.23973 4.58502 -0.290315
7.18673 4.58402 -0.287315
7.12773 4.57802 -0.284315
7.08373 4.58102 -0.282315
7.02573 4.57502 -0.279315
6.92873 4.55902 -0.274315
6.87573 4.55602 -0.272315
6.82173 4.55102 -0.269315
6.77273 4.54902 -0.266315
6.71473 4.54102 -0.263315
6.67073 4.54202 -0.261315
6.61873 4.53702 -0.259315
6.57873 4.52502 -0.257315
6.52773 4.52102 -0.254315
6.49273 4.52702 -0.253315
6.38873 4.51502 -0.247315
6.33673 4.50802 -0.245315
6.28873 4.50402 -0.242315
6.25873 4.49702 -0.241315
6.17073 4.49302 -0.237315
6.11573 4.48302 -0.234315
6.07573 4.48402 -0.232315
6.03173 4.48002 -0.230315
5.98073 4.47202 -0.227315
5.95373 4.46702 -0.226315
5.90173 4.45702 -0.223315
5.85573 4.45102 -0.221315
5.82073 4.45402 -0.220315
5.78473 4.45502 -0.218315
5.73173 4.44302 -0.215315
5.69373 4.44202 -0.213315
5.65873 4.42902 -0.211315
5.57873 4.42402 -0.208315
5.53673 4.41902 -0.206315
5.49473 4.41402 -0.204315
5.42673 4.40202 -0.200315
5.39273 4.40302 -0.199315
5.34673 4.39402 -0.196315
5.23473 4.38502 -0.191315
5.19773 4.38202 -0.190315
5.02773 4.36302 -0.182315
5.00473 4.37102 -0.181315
4.72873 4.33202 -0.168315
4.31473 4.29102 -0.149315
4.18073 4.27802 -0.143315
4.15173 4.27502 -0.142315
4.08673 4.27502 -0.140315
4.06473 4.27902 -0.139315
4.02573 4.26402 -0.137315
4.00773 4.27202 -0.136315
3.98773 4.27802 -0.136315
3.95673 4.27102 -0.134315
3.90773 4.25902 -0.132315
3.85473 4.25602 -0.130315
3.82273 4.24702 -0.128315
3.80073 4.24902 -0.127315
3.76673 4.25202 -0.126315
3.70073 4.23002 -0.123315
3.68473 4.23902 -0.123315
3.66173 4.24002 -0.122315
3.63473 4.23502 -0.121315
3.61573 4.22702 -0.120315
3.59173 4.22602 -0.119315
3.56473 4.22102 -0.118315
3.53973 4.21802 -0.117315
3.52273 4.22502 -0.116315
3.49273 4.21602 -0.115315
3.47273 4.21902 -0.114315
3.45573 4.21202 -0.113315
3.43573 4.21402 -0.113315
3.41273 4.21402 -0.112315
3.38473 4.20602 -0.110315
3.36273 4.20602 -0.110315
3.33873 4.20202 -0.109315
3.32273 4.20902 -0.108315
3.30073 4.19602 -0.107315
3.27973 4.19502 -0.106315
3.25473 4.19102 -0.105315
3.23073 4.18702 -0.104315
3.20973 4.18802 -0.104315
3.19373 4.19302 -0.103315
3.16973 4.18902 -0.102315
3.15373 4.18302 -0.101315
3.12673 4.17402 -0.100315
3.10973 4.17902 -0.100315
3.08373 4.17102 -0.0983153
3.06573 4.17402 -0.0983153
3.04773 4.17702 -0.0983153
3.02373 4.17202 -0.0973153
3.00673 4.16302 -0.0963153
2.99273 4.17102 -0.0953153
2.97573 4.17502 -0.0953153
2.94773 4.16302 -0.0943153
2.92673 4.16102 -0.0933153
2.91073 4.16702 -0.0933153
2.88473 4.15702 -0.0913153
2.87373 4.15502 -0.0913153
2.85773 4.16002 -0.0913153
2.83373 4.15302 -0.0893153
2.81773 4.15802 -0.0893153
2.79173 4.14702 -0.0883153
2.77773 4.15402 -0.0883153
2.75373 4.14702 -0.0873153
2.73973 4.14102 -0.0863153
2.72273 4.14302 -0.0853153
2.70273 4.14102 -0.0853153
2.68473 4.14202 -0.0843153
2.66473 4.14002 -0.0843153
2.64873 4.14302 -0.0833153
2.61073 4.12702 -0.0813153
2.59373 4.12902 -0.0813153
2.57473 4.12802 -0.0803153
2.55273 4.12102 -0.0793153
2.53973 4.12902 -0.0793153
2.51673 4.12002 -0.0783153
2.49873 4.12102 -0.0783153
2.48873 4.11802 -0.0773153
2.47573 4.12602 -0.0773153
2.45573 4.12202 -0.0763153
2.43273 4.11402 -0.0753153
2.41973 4.12202 -0.0753153
2.39573 4.11002 -0.0743153
2.37873 4.11102 -0.0743153
2.37373 4.11602 -0.0743153
2.31773 4.10902 -0.0723153
2.29973 4.10802 -0.0713153
7.93473 4.66902 -0.375315
7.50673 4.62502 -0.351315
7.45173 4.62302 -0.348315
7.11773 4.58702 -0.329315
6.80373 4.55202 -0.312315
6.10673 4.48402 -0.274315
6.06473 4.48302 -0.272315
6.02173 4.48002 -0.270315
5.97573 4.47502 -0.267315
5.86473 4.46402 -0.261315
5.76573 4.44502 -0.256315
5.73773 4.45202 -0.255315
5.64673 4.43902 -0.250315
5.57773 4.42702 -0.246315
5.50173 4.42302 -0.242315
5.42573 4.41802 -0.238315
5.35073 4.41202 -0.234315
5.27873 4.39502 -0.230315
5.19973 4.38402 -0.226315
5.13273 4.38302 -0.223315
5.12673 4.39202 -0.223315
5.07273 4.37302 -0.220315
5.04973 4.38102 -0.219315
5.00873 4.37302 -0.217315
4.96573 4.36302 -0.214315
4.94473 4.37102 -0.214315
4.87873 4.35502 -0.210315
4.85673 4.36202 -0.209315
4.80873 4.34602 -0.206315
4.78973 4.35602 -0.206315
4.74473 4.34302 -0.203315
4.72073 4.34802 -0.202315
4.67773 4.33502 -0.200315
4.62673 4.32902 -0.197315
4.60873 4.33902 -0.197315
4.57473 4.33402 -0.195315
4.53873 4.32702 -0.193315
4.51373 4.33002 -0.192315
4.45573 4.31502 -0.189315
4.42973 4.31602 -0.188315
4.36673 4.30902 -0.185315
4.30973 4.30602 -0.182315
4.27073 4.30602 -0.181315
4.20873 4.29702 -0.178315
4.18073 4.29602 -0.176315
4.15073 4.29202 -0.175315
3.81273 4.25002 -0.159315
3.75773 4.24202 -0.156315
3.74473 4.24102 -0.155315
3.73173 4.25302 -0.155315
3.70473 4.24902 -0.154315
3.59973 4.23402 -0.149315
3.53473 4.22402 -0.146315
3.48873 4.22302 -0.144315
3.43773 4.21402 -0.142315
3.40873 4.21902 -0.141315
3.34973 4.20002 -0.138315
3.32473 4.19402 -0.137315
3.27673 4.20102 -0.135315
2.54173 4.13402 -0.106315
2.50273 4.12802 -0.104315
2.47573 4.12702 -0.103315
2.45573 4.12302 -0.102315
2.37373 4.11602 -0.0993153
2.35673 4.11602 -0.0993153
2.31973 4.11002 -0.0973153
2.30273 4.11002 -0.0973153
12.7207 5.14602 -0.750315
12.5747 5.13302 -0.740315
12.0537 5.07702 -0.706315
11.9017 5.05702 -0.696315
11.7817 5.05002 -0.688315
11.6607 5.04202 -0.680315
11.1947 4.98802 -0.649315
11.0837 4.98102 -0.642315
10.8577 4.96202 -0.627315
10.4467 4.91502 -0.600315
10.3557 4.91202 -0.594315
10.2517 4.90202 -0.588315
9.85473 4.84702 -0.562315
9.79173 4.85502 -0.558315
9.67573 4.83602 -0.550315
9.60573 4.83802 -0.546315
9.41673 4.81802 -0.534315
9.26073 4.79402 -0.523315
9.16373 4.78102 -0.517315
9.09073 4.77902 -0.513315
9.00973 4.77302 -0.507315
8.69173 4.72902 -0.487315
8.62673 4.72802 -0.483315
8.56273 4.72802 -0.479315
8.47773 4.71702 -0.473315
8.40673 4.71202 -0.469315
8.33473 4.70602 -0.464315
8.26073 4.69902 -0.460315
8.19973 4.68202 -0.456315
8.13873 4.68102 -0.452315
8.06473 4.67202 -0.447315
7.99973 4.66902 -0.443315
7.93173 4.66302 -0.439315
7.86373 4.65602 -0.435315
7.79473 4.64802 -0.430315
7.74273 4.63402 -0.427315
7.68173 4.63102 -0.423315
7.61573 4.62402 -0.419315
7.55873 4.62202 -0.415315
7.49773 4.61702 -0.412315
7.43973 4.61402 -0.408315
7.32973 4.59402 -0.401315
7.20573 4.58002 -0.393315
7.15773 4.58102 -0.391315
7.10173 4.57702 -0.387315
7.04673 4.57302 -0.384315
6.95173 4.55902 -0.378315
6.89173 4.55102 -0.374315
6.84273 4.54902 -0.371315
6.79673 4.55002 -0.369315
6.73973 4.54202 -0.365315
6.69573 4.54302 -0.363315
6.59773 4.52302 -0.356315
6.54873 4.52002 -0.353315
6.50373 4.51902 -0.351315
6.45673 4.51702 -0.348315
6.40773 4.51302 -0.345315
6.35973 4.50902 -0.342315
6.32973 4.50302 -0.340315
6.27473 4.49402 -0.337315
6.23673 4.49602 -0.335315
6.18873 4.49102 -0.332315
6.14873 4.49202 -0.330315
6.05373 4.48202 -0.324315
6.02973 4.47902 -0.323315
5.97673 4.46902 -0.319315
5.93273 4.46502 -0.317315
5.84673 4.45902 -0.312315
5.74173 4.45102 -0.306315
5.69373 4.44202 -0.303315
5.66073 4.44502 -0.301315
5.42573 4.41602 -0.287315
5.35073 4.41102 -0.283315
5.27773 4.40702 -0.279315
5.25573 4.40302 -0.278315
5.21773 4.39902 -0.275315
5.17773 4.39402 -0.273315
5.13973 4.38902 -0.271315
5.09673 4.38102 -0.268315
5.02273 4.37202 -0.264315
5.00973 4.37502 -0.264315
4.96973 4.36802 -0.261315
4.89873 4.36102 -0.257315
4.86573 4.35902 -0.255315
4.76773 4.34002 -0.249315
4.71273 4.34402 -0.247315
4.68273 4.34402 -0.245315
4.62073 4.34102 -0.242315
4.52673 4.32102 -0.236315
4.49773 4.32002 -0.235315
4.44373 4.32302 -0.232315
4.41373 4.32002 -0.231315
4.34573 4.29502 -0.226315
4.32273 4.29902 -0.225315
4.26573 4.29602 -0.222315
4.23273 4.29002 -0.221315
4.21773 4.30202 -0.220315
4.17773 4.28802 -0.218315
4.15573 4.27902 -0.216315
4.11473 4.29002 -0.215315
4.07573 4.27702 -0.212315
4.00573 4.27002 -0.209315
3.98773 4.27802 -0.208315
3.92173 4.26102 -0.204315
3.89073 4.25402 -0.203315
3.27173 4.20002 -0.172315
3.24873 4.19702 -0.171315
3.20873 4.20002 -0.170315
3.19073 4.19002 -0.168315
3.16073 4.17702 -0.166315
3.14973 4.19102 -0.167315
3.12473 4.18502 -0.165315
3.09673 4.17502 -0.164315
3.06273 4.18302 -0.163315
3.03073 4.18202 -0.161315
3.00373 4.17202 -0.160315
2.94273 4.17102 -0.157315
2.91773 4.16202 -0.156315
2.91173 4.16802 -0.156315
2.88973 4.16402 -0.155315
2.85173 4.16602 -0.153315
2.82273 4.15202 -0.151315
2.80073 4.14702 -0.150315
2.77173 4.14602 -0.149315
2.74773 4.13802 -0.148315
2.71173 4.14002 -0.146315
2.68873 4.13402 -0.145315
2.67973 4.14902 -0.146315
2.65673 4.12802 -0.144315
2.62673 4.13802 -0.143315
2.59873 4.12202 -0.141315
2.57073 4.13502 -0.141315
2.54873 4.13002 -0.140315
2.51973 4.12602 -0.139315
2.49673 4.11702 -0.137315
2.46573 4.12402 -0.137315
2.44073 4.11202 -0.135315
2.42273 4.11102 -0.134315
2.41873 4.12002 -0.135315
2.39773 4.11402 -0.133315
2.37773 4.10902 -0.133315
2.34073 4.10502 -0.131315
2.32173 4.10202 -0.130315
2.30973 4.10902 -0.130315
2.29273 4.09502 -0.129315
2.27573 4.09602 -0.128315
2.22473 4.09402 -0.126315
11.9777 5.07302 -0.765315
11.2727 5.00402 -0.715315
9.85273 4.86202 -0.616315
8.29273 4.70602 -0.509315
8.22473 4.70102 -0.504315
8.07873 4.68502 -0.495315
7.83873 4.66102 -0.478315
7.70573 4.64702 -0.469315
7.58073 4.63702 -0.461315
7.41373 4.61502 -0.450315
7.34873 4.60602 -0.445315
7.03673 4.58102 -0.425315
6.97873 4.57402 -0.421315
6.87173 4.56602 -0.414315
6.63273 4.54202 -0.399315
6.57873 4.53602 -0.395315
6.30673 4.51002 -0.378315
6.04573 4.48202 -0.361315
3.42473 4.21102 -0.206315
3.40073 4.20802 -0.205315
3.36173 4.20002 -0.203315
3.29773 4.20002 -0.200315
3.18173 4.19902 -0.195315
2.69673 4.14802 -0.171315
2.61973 4.14302 -0.167315
2.58173 4.13902 -0.166315
2.55173 4.13402 -0.164315
12.6327 5.12802 -0.901315
12.4947 5.11902 -0.890315
12.3427 5.10202 -0.878315
12.2237 5.09802 -0.869315
12.0747 5.08102 -0.858315
11.8377 5.04702 -0.839315
11.7137 5.03802 -0.830315
11.5897 5.02802 -0.820315
11.3497 5.01002 -0.802315
11.0197 4.96802 -0.777315
10.9167 4.96302 -0.769315
10.8097 4.95602 -0.761315
10.6927 4.94402 -0.752315
10.5907 4.93702 -0.744315
10.2917 4.89702 -0.721315
10.1897 4.88802 -0.714315
10.0997 4.88402 -0.707315
10.0017 4.87602 -0.699315
9.89773 4.86402 -0.692315
9.80373 4.85702 -0.685315
9.71373 4.85002 -0.678315
9.63473 4.83002 -0.671315
9.53973 4.82002 -0.664315
9.45473 4.81502 -0.658315
9.36473 4.80602 -0.651315
9.28473 4.80202 -0.645315
9.20173 4.79602 -0.639315
9.12173 4.77302 -0.633315
9.03673 4.76502 -0.626315
8.96273 4.76202 -0.621315
8.66273 4.74402 -0.599315
8.60573 4.73102 -0.595315
8.52973 4.72402 -0.589315
8.44873 4.71402 -0.583315
8.39273 4.71702 -0.579315
8.31973 4.71202 -0.574315
8.24273 4.70202 -0.568315
8.12873 4.68802 -0.560315
8.05173 4.67802 -0.554315
7.99473 4.67802 -0.550315
7.90373 4.65902 -0.543315
7.83073 4.64902 -0.537315
7.77873 4.65202 -0.534315
7.71773 4.64802 -0.530315
7.67473 4.63902 -0.526315
7.59673 4.62502 -0.520315
7.54473 4.62602 -0.517315
7.47773 4.61702 -0.512315
7.41373 4.61002 -0.507315
7.29173 4.59902 -0.498315
7.26873 4.60102 -0.497315
7.19873 4.58802 -0.492315
7.14773 4.58702 -0.488315
7.08473 4.57802 -0.483315
6.96873 4.56602 -0.475315
6.88673 4.56002 -0.469315
6.82273 4.54802 -0.465315
6.77673 4.54902 -0.462315
6.72673 4.54602 -0.458315
6.66873 4.53802 -0.454315
6.63173 4.54302 -0.452315
6.58473 4.52602 -0.448315
6.52973 4.51902 -0.444315
6.48573 4.51902 -0.441315
6.43873 4.51602 -0.438315
6.39173 4.51402 -0.435315
6.33873 4.50602 -0.431315
6.25073 4.48902 -0.424315
6.20773 4.48702 -0.421315
6.16973 4.48902 -0.419315
6.12473 4.48602 -0.416315
6.07173 4.47702 -0.412315
6.03573 4.48002 -0.410315
5.96173 4.46902 -0.404315
5.91873 4.46602 -0.402315
5.87573 4.46302 -0.399315
5.83373 4.46002 -0.396315
5.79373 4.45902 -0.393315
5.68473 4.44702 -0.386315
5.59973 4.43802 -0.380315
4.93273 4.37402 -0.336315
4.67173 4.34502 -0.319315
4.28773 4.30102 -0.294315
4.22873 4.29702 -0.290315
4.16873 4.28902 -0.287315
4.11673 4.27602 -0.283315
4.06573 4.27702 -0.280315
4.00873 4.27102 -0.277315
3.95573 4.26802 -0.274315
3.91073 4.25902 -0.271315
3.86773 4.26602 -0.269315
3.80973 4.25602 -0.265315
3.78273 4.25302 -0.263315
3.76273 4.24402 -0.262315
3.73673 4.24102 -0.260315
3.71673 4.24502 -0.259315
3.68973 4.24202 -0.258315
3.66773 4.24302 -0.257315
3.61373 4.23402 -0.253315
3.59873 4.23102 -0.252315
3.57473 4.23002 -0.251315
3.55273 4.23102 -0.250315
3.53173 4.23302 -0.249315
3.50873 4.23202 -0.248315
3.47673 4.22102 -0.245315
3.43973 4.21602 -0.243315
3.39073 4.21002 -0.240315
3.34973 4.21402 -0.239315
3.30073 4.20702 -0.236315
3.28873 4.20402 -0.235315
3.23773 4.19302 -0.232315
3.21473 4.19102 -0.230315
3.19373 4.19102 -0.229315
3.16973 4.18702 -0.228315
3.16773 4.19802 -0.229315
3.13473 4.18102 -0.226315
3.11873 4.18802 -0.226315
3.09273 4.18002 -0.224315
3.07473 4.18302 -0.223315
3.04973 4.17702 -0.222315
3.03573 4.18502 -0.221315
3.01573 4.17202 -0.220315
2.99773 4.17502 -0.219315
2.97373 4.16802 -0.217315
2.95173 4.16602 -0.216315
2.93473 4.16902 -0.216315
2.91573 4.17002 -0.215315
2.87973 4.16102 -0.213315
2.86473 4.16702 -0.212315
2.84373 4.16402 -0.211315
2.77973 4.15402 -0.208315
2.76173 4.15602 -0.207315
2.74573 4.14602 -0.206315
2.73273 4.15402 -0.206315
2.70973 4.14802 -0.204315
2.69073 4.14802 -0.203315
2.63373 4.14502 -0.201315
2.59973 4.13502 -0.199315
2.58173 4.13502 -0.198315
2.54273 4.13102 -0.196315
2.52573 4.13202 -0.195315
2.49573 4.12702 -0.194315
2.47773 4.12602 -0.193315
2.45973 4.12502 -0.192315
2.41773 4.11502 -0.190315
2.38473 4.11702 -0.188315
2.37673 4.11902 -0.188315
2.35773 4.11602 -0.187315
2.28573 4.10802 -0.184315
12.3807 5.10102 -0.958315
12.2417 5.08802 -0.947315
12.1117 5.07902 -0.936315
11.9657 5.06102 -0.924315
11.8507 5.05602 -0.915315
11.5127 5.01902 -0.887315
11.3837 5.00502 -0.876315
11.2757 4.99902 -0.867315
11.1747 4.99602 -0.859315
11.0477 4.98102 -0.849315
10.9507 4.95802 -0.840315
10.8337 4.94602 -0.831315
10.7367 4.94202 -0.823315
10.6257 4.93102 -0.814315
10.5367 4.93002 -0.807315
10.4307 4.92002 -0.798315
10.2427 4.89002 -0.783315
10.1357 4.87802 -0.774315
10.0487 4.87502 -0.767315
9.93473 4.85802 -0.758315
9.85373 4.85602 -0.751315
9.74673 4.84202 -0.743315
9.68473 4.83002 -0.737315
9.49773 4.81102 -0.722315
9.41673 4.80702 -0.716315
9.31873 4.79302 -0.708315
9.24873 4.79402 -0.702315
9.16673 4.78802 -0.696315
9.01673 4.76402 -0.684315
8.70273 4.73802 -0.659315
8.63373 4.73502 -0.653315
8.49673 4.71202 -0.642315
8.34873 4.69802 -0.631315
8.27873 4.69302 -0.625315
8.21773 4.69202 -0.620315
8.13673 4.68002 -0.614315
7.95273 4.65702 -0.599315
7.88273 4.64902 -0.594315
7.82373 4.64702 -0.589315
7.75673 4.64002 -0.584315
7.68773 4.63102 -0.578315
7.46473 4.60902 -0.561315
7.40473 4.60402 -0.557315
7.34673 4.60002 -0.552315
7.02873 4.57102 -0.528315
6.97773 4.56902 -0.524315
6.87673 4.54902 -0.516315
6.82973 4.54802 -0.512315
6.72173 4.53702 -0.504315
6.66973 4.53202 -0.500315
6.62573 4.53302 -0.497315
6.53773 4.51802 -0.490315
6.49073 4.51502 -0.487315
6.44373 4.51302 -0.483315
6.39873 4.51102 -0.480315
6.35673 4.51102 -0.477315
6.26873 4.49302 -0.470315
6.22073 4.48802 -0.466315
6.19573 4.50002 -0.465315
6.13473 4.48502 -0.460315
6.09973 4.48902 -0.458315
6.05773 4.48602 -0.455315
6.00673 4.47802 -0.451315
5.98073 4.47302 -0.449315
5.92973 4.46402 -0.445315
5.88273 4.45702 -0.441315
5.84273 4.45602 -0.439315
5.75673 4.44802 -0.432315
5.69373 4.44102 -0.428315
5.64873 4.43502 -0.424315
5.60473 4.42902 -0.421315
5.53173 4.42802 -0.416315
5.49973 4.43002 -0.414315
5.42173 4.40902 -0.408315
5.39773 4.41802 -0.407315
5.35373 4.41002 -0.403315
5.32273 4.41302 -0.401315
5.27973 4.40502 -0.398315
5.20873 4.38702 -0.392315
5.18173 4.39202 -0.391315
5.14673 4.39002 -0.388315
5.07573 4.38402 -0.383315
4.97773 4.36902 -0.376315
4.91073 4.36402 -0.372315
4.86973 4.35502 -0.369315
4.84273 4.35902 -0.367315
4.81473 4.36002 -0.365315
4.77473 4.35102 -0.362315
4.76473 4.35602 -0.362315
4.70973 4.33302 -0.357315
4.68173 4.33402 -0.355315
4.66573 4.34602 -0.355315
4.61973 4.33102 -0.351315
4.59473 4.33402 -0.350315
4.54673 4.33002 -0.347315
4.51073 4.32202 -0.344315
4.48573 4.32502 -0.343315
4.45073 4.31802 -0.340315
4.42273 4.31802 -0.338315
4.38673 4.30902 -0.336315
4.35973 4.31002 -0.334315
4.33773 4.30202 -0.332315
4.29073 4.30902 -0.330315
4.25073 4.29502 -0.326315
4.22073 4.29202 -0.324315
4.19673 4.29302 -0.323315
4.16573 4.28902 -0.321315
4.11473 4.27602 -0.317315
4.06673 4.28002 -0.314315
4.03673 4.27502 -0.312315
3.98873 4.27702 -0.310315
3.96673 4.26702 -0.308315
3.94173 4.26602 -0.306315
3.91673 4.26702 -0.305315
3.89273 4.26702 -0.303315
3.85973 4.25702 -0.301315
3.83973 4.26202 -0.300315
3.80673 4.25202 -0.297315
3.78773 4.24402 -0.296315
3.75973 4.24002 -0.294315
3.74673 4.25102 -0.294315
3.69273 4.24302 -0.290315
3.66873 4.24302 -0.289315
3.64773 4.24502 -0.288315
3.60473 4.23502 -0.285315
3.55273 4.22702 -0.282315
3.52173 4.21602 -0.279315
3.49773 4.21502 -0.278315
3.45873 4.20802 -0.275315
3.41173 4.20402 -0.272315
3.38873 4.20202 -0.271315
3.36873 4.20502 -0.270315
3.34073 4.19602 -0.268315
3.33273 4.20002 -0.268315
3.28373 4.19102 -0.265315
3.23873 4.18802 -0.262315
3.20073 4.19202 -0.260315
3.18573 4.18602 -0.259315
3.16673 4.18802 -0.258315
3.07073 4.17002 -0.252315
2.97973 4.16702 -0.247315
2.93373 4.15802 -0.244315
2.91273 4.15602 -0.243315
2.88073 4.15102 -0.241315
2.86573 4.15702 -0.241315
2.84273 4.15102 -0.239315
2.81873 4.14402 -0.238315
2.80073 4.14602 -0.237315
2.78573 4.15102 -0.237315
2.73373 4.14302 -0.234315
2.71173 4.13802 -0.232315
2.69373 4.13802 -0.231315
2.67473 4.13802 -0.231315
2.66173 4.14702 -0.231315
2.62173 4.12702 -0.227315
2.60173 4.12402 -0.226315
2.58773 4.13002 -0.226315
2.56473 4.12102 -0.224315
2.54973 4.12602 -0.224315
2.53073 4.12502 -0.223315
2.52573 4.13102 -0.223315
2.50273 4.12202 -0.221315
2.48573 4.12302 -0.221315
2.46073 4.11002 -0.219315
2.44773 4.11802 -0.219315
2.41073 4.11402 -0.217315
2.39673 4.10602 -0.216315
2.38273 4.11102 -0.215315
2.36773 4.11402 -0.215315
2.33073 4.10902 -0.213315
2.31173 4.10602 -0.212315
2.29473 4.10602 -0.211315
2.28873 4.11002 -0.211315
2.26673 4.10002 -0.210315
2.25173 4.10302 -0.209315
2.16873 4.08702 -0.205315
11.7247 5.03602 -0.980315
11.2717 4.99002 -0.940315
11.1577 4.98202 -0.930315
11.0367 4.96902 -0.920315
10.9367 4.96602 -0.911315
10.6297 4.92902 -0.884315
10.5227 4.91902 -0.875315
10.4147 4.90902 -0.865315
10.3257 4.90702 -0.858315
10.2097 4.89102 -0.848315
10.0357 4.86702 -0.832315
9.94473 4.86202 -0.825315
9.84173 4.85002 -0.816315
9.75373 4.84502 -0.808315
9.67373 4.84402 -0.801315
9.57673 4.83302 -0.793315
9.49673 4.81102 -0.786315
9.32273 4.79702 -0.771315
9.24373 4.79402 -0.764315
9.16173 4.78802 -0.757315
9.07873 4.78102 -0.750315
8.67973 4.73002 -0.716315
8.62273 4.73402 -0.711315
8.53273 4.72002 -0.703315
8.36373 4.71302 -0.689315
8.26673 4.69302 -0.681315
8.21773 4.70002 -0.677315
8.12673 4.68202 -0.669315
8.07373 4.68602 -0.665315
7.94873 4.66302 -0.654315
7.87073 4.65102 -0.647315
7.80473 4.64502 -0.642315
7.67373 4.63402 -0.631315
7.60973 4.62802 -0.626315
7.57373 4.62202 -0.623315
7.44473 4.60802 -0.612315
7.38573 4.60502 -0.607315
7.33573 4.60602 -0.603315
7.26073 4.59002 -0.597315
7.21973 4.59602 -0.594315
7.16673 4.57902 -0.589315
7.11073 4.57402 -0.584315
7.05073 4.56802 -0.579315
7.00173 4.56702 -0.575315
6.94373 4.56102 -0.571315
6.89073 4.55702 -0.566315
6.84473 4.55802 -0.563315
6.79773 4.54202 -0.559315
6.75073 4.54202 -0.555315
6.69473 4.53502 -0.550315
6.65073 4.53602 -0.547315
6.59873 4.53102 -0.543315
6.56373 4.53702 -0.540315
6.49873 4.52302 -0.535315
6.45673 4.50902 -0.531315
6.40673 4.50402 -0.527315
6.35473 4.49802 -0.523315
6.30973 4.49602 -0.519315
6.27273 4.50002 -0.517315
6.22173 4.49302 -0.512315
6.14373 4.48102 -0.506315
6.10873 4.48502 -0.504315
5.95773 4.46202 -0.491315
5.91473 4.45902 -0.488315
5.84273 4.44802 -0.482315
5.80973 4.45202 -0.480315
5.76573 4.44702 -0.476315
5.72473 4.44502 -0.473315
5.66873 4.43002 -0.468315
5.64873 4.44302 -0.468315
5.60673 4.42502 -0.464315
5.56673 4.42102 -0.460315
5.53373 4.42402 -0.458315
5.48373 4.41302 -0.454315
5.44073 4.40602 -0.451315
5.41473 4.41302 -0.449315
5.36473 4.40102 -0.445315
5.30573 4.39502 -0.440315
5.19373 4.38602 -0.432315
5.02073 4.36402 -0.419315
4.87973 4.35002 -0.408315
4.08973 4.27102 -0.351315
4.06373 4.27102 -0.349315
3.88873 4.25802 -0.337315
3.81573 4.24602 -0.332315
3.73973 4.24102 -0.327315
3.59473 4.22202 -0.317315
3.38773 4.21502 -0.304315
3.36573 4.21502 -0.303315
3.33173 4.20102 -0.300315
3.32173 4.21402 -0.300315
3.29073 4.20302 -0.298315
3.25473 4.19802 -0.295315
3.22973 4.19302 -0.294315
3.21773 4.20402 -0.294315
3.19073 4.19702 -0.292315
3.16473 4.19002 -0.290315
3.14673 4.19302 -0.289315
3.10773 4.18202 -0.286315
3.09073 4.18702 -0.286315
3.06573 4.18102 -0.284315
3.04773 4.18402 -0.283315
3.02273 4.17802 -0.281315
2.97273 4.17702 -0.278315
2.94973 4.17202 -0.277315
2.93173 4.17502 -0.276315
2.90373 4.16302 -0.274315
2.88973 4.17002 -0.273315
2.84673 4.16502 -0.271315
2.83873 4.16602 -0.271315
2.77673 4.16002 -0.267315
2.44373 4.10902 -0.247315
2.35573 4.10702 -0.242315
2.30573 4.09402 -0.239315
2.27473 4.10002 -0.238315
2.25473 4.09502 -0.237315
2.18173 4.09802 -0.234315
2.16173 4.09102 -0.232315
11.1807 4.98602 -1.01032
11.0717 4.97902 -1.00032
10.7847 4.95202 -0.973315
10.6717 4.94002 -0.963315
10.5847 4.94002 -0.955315
10.4537 4.91802 -0.942315
10.1957 4.89502 -0.919315
10.0927 4.88402 -0.909315
10.0097 4.88302 -0.902315
9.88173 4.85802 -0.889315
9.71273 4.85102 -0.874315
9.54973 4.82502 -0.859315
9.45973 4.81702 -0.850315
9.37873 4.81302 -0.843315
9.29373 4.80602 -0.835315
9.11873 4.78802 -0.819315
8.67673 4.74802 -0.779315
8.59773 4.73902 -0.772315
8.55073 4.73002 -0.767315
8.45573 4.71202 -0.758315
8.40273 4.71702 -0.754315
8.31473 4.70302 -0.746315
8.26373 4.70802 -0.742315
8.18673 4.69802 -0.735315
8.00573 4.67702 -0.718315
7.91373 4.65702 -0.710315
7.87073 4.66402 -0.706315
7.78173 4.64502 -0.698315
7.73673 4.65102 -0.694315
7.65773 4.63602 -0.687315
7.61773 4.62802 -0.683315
7.55073 4.62002 -0.677315
7.51073 4.62802 -0.674315
7.42873 4.60902 -0.666315
7.38573 4.61402 -0.663315
7.30373 4.59502 -0.655315
7.26473 4.60202 -0.652315
7.21173 4.58402 -0.647315
7.15573 4.58002 -0.642315
7.10473 4.57802 -0.638315
7.03973 4.56802 -0.632315
6.99273 4.56802 -0.628315
6.95273 4.57402 -0.625315
6.88573 4.56002 -0.619315
6.85073 4.55202 -0.616315
6.74873 4.54602 -0.607315
6.68373 4.53202 -0.601315
6.63973 4.53302 -0.597315
6.59773 4.53502 -0.594315
6.55973 4.52402 -0.590315
6.50673 4.51702 -0.586315
6.45473 4.51102 -0.581315
6.41573 4.51402 -0.578315
6.36473 4.50702 -0.574315
6.31973 4.50502 -0.570315
6.27373 4.50202 -0.566315
6.18573 4.48302 -0.558315
6.14973 4.48602 -0.555315
6.10173 4.48102 -0.551315
6.06373 4.48202 -0.548315
6.01473 4.47502 -0.544315
5.97873 4.47702 -0.541315
5.89673 4.45902 -0.534315
5.86373 4.46302 -0.531315
5.80873 4.45002 -0.526315
5.76973 4.44802 -0.523315
5.73273 4.44802 -0.520315
5.68873 4.44302 -0.517315
5.65673 4.43202 -0.513315
5.62073 4.43202 -0.511315
5.57773 4.42602 -0.507315
5.53873 4.42402 -0.504315
5.49673 4.41902 -0.500315
5.47173 4.42702 -0.499315
5.42773 4.41902 -0.495315
5.39773 4.40902 -0.492315
5.36173 4.40802 -0.489315
5.32073 4.40202 -0.486315
5.28373 4.39902 -0.483315
5.26073 4.40802 -0.482315
5.20773 4.39102 -0.477315
5.17873 4.39502 -0.475315
5.15173 4.38602 -0.472315
5.11273 4.38002 -0.469315
5.08273 4.38202 -0.467315
5.04773 4.37902 -0.464315
5.00873 4.37302 -0.461315
4.97373 4.37002 -0.458315
4.95073 4.36302 -0.456315
4.91473 4.35902 -0.453315
4.88573 4.36102 -0.451315
4.85173 4.35802 -0.448315
4.81473 4.35102 -0.445315
4.78473 4.35202 -0.443315
4.75173 4.34902 -0.440315
4.73173 4.34402 -0.439315
4.69473 4.33802 -0.435315
4.67373 4.34502 -0.434315
4.62373 4.32602 -0.430315
4.59373 4.32402 -0.427315
4.56573 4.32502 -0.425315
4.54273 4.33102 -0.424315
4.51873 4.32102 -0.422315
4.48073 4.31202 -0.418315
4.44873 4.30802 -0.416315
4.43873 4.32502 -0.416315
4.36273 4.30502 -0.410315
4.28673 4.29602 -0.404315
4.26973 4.30602 -0.403315
4.20373 4.29202 -0.398315
4.12473 4.27802 -0.391315
4.09573 4.27502 -0.389315
4.02673 4.28302 -0.385315
3.96573 4.27102 -0.380315
3.86873 4.25802 -0.373315
3.82573 4.26502 -0.370315
3.77273 4.24502 -0.365315
3.72273 4.24202 -0.362315
3.69973 4.24302 -0.361315
3.64973 4.23902 -0.357315
3.61073 4.23302 -0.354315
3.55873 4.22502 -0.350315
3.51573 4.22802 -0.348315
3.32673 4.19702 -0.334315
3.17973 4.18402 -0.324315
3.07873 4.17102 -0.317315
3.06773 4.18402 -0.317315
2.96073 4.16002 -0.309315
2.93973 4.15802 -0.308315
2.90473 4.16302 -0.306315
2.78873 4.14602 -0.298315
2.71873 4.14002 -0.294315
2.64373 4.13802 -0.290315
2.61373 4.13402 -0.288315
2.57473 4.12802 -0.286315
2.54973 4.11802 -0.283315
2.53373 4.12102 -0.283315
2.50373 4.11402 -0.281315
2.46773 4.11202 -0.279315
2.44973 4.11102 -0.278315
2.43273 4.11202 -0.277315
2.41473 4.11102 -0.276315
2.40273 4.10602 -0.275315
2.38373 4.10402 -0.274315
2.36873 4.10602 -0.273315
2.35373 4.11002 -0.273315
2.31173 4.09702 -0.270315
2.29773 4.10202 -0.269315
2.26973 4.09602 -0.268315
2.24873 4.08902 -0.266315
2.21573 4.08902 -0.264315
10.4357 4.90902 -1.01132
10.3517 4.90902 -1.00432
10.2477 4.90002 -0.993315
10.1477 4.89202 -0.984315
9.96773 4.86302 -0.965315
9.87673 4.85802 -0.957315
9.78673 4.85202 -0.948315
9.69673 4.84502 -0.939315
9.60273 4.83702 -0.930315
9.51873 4.83202 -0.922315
9.43673 4.80902 -0.913315
9.34873 4.80202 -0.905315
9.26673 4.79602 -0.897315
9.17673 4.78702 -0.888315
9.10173 4.78502 -0.881315
9.02673 4.78202 -0.874315
8.64773 4.73902 -0.837315
8.56273 4.72802 -0.829315
8.50073 4.72902 -0.823315
8.42873 4.72402 -0.816315
8.37073 4.70902 -0.810315
8.29173 4.69902 -0.803315
8.22573 4.69602 -0.796315
8.15373 4.68902 -0.790315
8.08573 4.68402 -0.783315
8.01373 4.67602 -0.776315
7.95473 4.67502 -0.771315
7.88573 4.65202 -0.763315
7.82773 4.65102 -0.758315
7.75373 4.64002 -0.751315
7.69573 4.63902 -0.746315
7.62373 4.62802 -0.739315
7.57673 4.63202 -0.735315
7.51073 4.62502 -0.729315
7.46273 4.61202 -0.724315
7.34273 4.60202 -0.712315
7.27473 4.59102 -0.706315
7.23273 4.59702 -0.702315
7.16373 4.58402 -0.696315
7.01973 4.57102 -0.682315
6.95073 4.55802 -0.675315
6.91173 4.56302 -0.672315
6.84273 4.54902 -0.665315
6.79773 4.55002 -0.662315
6.70373 4.53402 -0.653315
6.65373 4.53002 -0.648315
6.60773 4.53002 -0.644315
6.55273 4.52202 -0.639315
6.50373 4.51902 -0.634315
6.46073 4.51902 -0.631315
6.32673 4.50102 -0.618315
6.28673 4.50202 -0.615315
6.23273 4.49302 -0.610315
6.20073 4.50002 -0.607315
6.14173 4.48702 -0.602315
6.10873 4.47702 -0.598315
6.06373 4.47402 -0.594315
6.01473 4.46702 -0.590315
5.97673 4.46802 -0.587315
5.93573 4.46702 -0.583315
5.88173 4.45602 -0.578315
5.84673 4.45902 -0.575315
5.81273 4.44702 -0.572315
5.77073 4.44402 -0.568315
5.73473 4.44502 -0.565315
5.69173 4.44102 -0.561315
5.64873 4.43602 -0.557315
5.61773 4.44002 -0.555315
5.57473 4.43502 -0.551315
5.53973 4.42202 -0.548315
5.49173 4.41202 -0.543315
5.46073 4.41502 -0.541315
5.42373 4.41402 -0.538315
5.38373 4.41002 -0.534315
5.35473 4.41402 -0.532315
5.28573 4.40002 -0.526315
5.24473 4.39302 -0.522315
5.20373 4.38702 -0.518315
5.16573 4.38302 -0.515315
5.13373 4.38402 -0.512315
5.09373 4.37802 -0.509315
5.03973 4.37302 -0.504315
5.00173 4.36802 -0.501315
4.96573 4.36402 -0.498315
4.93273 4.36302 -0.495315
4.89473 4.35702 -0.492315
4.86673 4.35902 -0.490315
4.84073 4.35002 -0.487315
4.81173 4.35202 -0.485315
4.77173 4.34302 -0.481315
4.74473 4.34602 -0.479315
4.71173 4.34302 -0.477315
4.67873 4.34002 -0.474315
4.64773 4.33902 -0.471315
4.61973 4.32602 -0.468315
4.59373 4.32902 -0.467315
4.55873 4.32302 -0.464315
4.52773 4.32102 -0.461315
4.50073 4.32302 -0.459315
4.47573 4.32602 -0.458315
4.44273 4.32102 -0.455315
4.41373 4.30702 -0.452315
4.39673 4.31702 -0.451315
4.35173 4.30002 -0.446315
4.32273 4.29802 -0.444315
4.30073 4.30302 -0.443315
4.26673 4.29702 -0.440315
4.23973 4.29702 -0.438315
4.21873 4.28902 -0.436315
4.18973 4.28702 -0.434315
4.16073 4.28402 -0.431315
4.13673 4.28602 -0.430315
4.09973 4.27502 -0.426315
4.07273 4.27302 -0.424315
4.05773 4.28402 -0.424315
4.02773 4.26602 -0.420315
4.00173 4.26602 -0.418315
3.97573 4.26502 -0.416315
3.94773 4.26202 -0.414315
3.91773 4.25702 -0.412315
3.89773 4.26202 -0.411315
3.82673 4.25102 -0.405315
3.77173 4.24402 -0.400315
3.75373 4.25002 -0.400315
3.71873 4.23802 -0.396315
3.68073 4.23402 -0.393315
3.62673 4.22602 -0.389315
3.60573 4.22802 -0.388315
3.55173 4.21902 -0.383315
3.46673 4.21202 -0.377315
3.39673 4.20702 -0.372315
3.18473 4.18202 -0.356315
3.09573 4.17402 -0.350315
3.04173 4.16902 -0.347315
2.95873 4.16502 -0.341315
2.90373 4.15602 -0.337315
2.88273 4.15302 -0.336315
2.84173 4.15002 -0.333315
2.80873 4.14402 -0.330315
2.70873 4.13602 -0.324315
2.68773 4.13302 -0.322315
2.64073 4.13002 -0.320315
2.60473 4.13202 -0.318315
2.55273 4.12002 -0.314315
2.51373 4.11602 -0.311315
2.47573 4.11102 -0.309315
2.45973 4.11402 -0.308315
2.43173 4.11202 -0.306315
2.39173 4.10302 -0.304315
2.37473 4.10402 -0.303315
2.36373 4.11402 -0.303315
2.33773 4.09902 -0.300315
2.33373 4.10702 -0.301315
2.29273 4.09502 -0.298315
2.27473 4.09202 -0.296315
2.25873 4.09402 -0.296315
2.24173 4.09402 -0.295315
9.65073 4.83402 -1.00532
9.57073 4.83202 -0.997315
9.47073 4.81802 -0.987315
9.23073 4.78702 -0.961315
9.15173 4.78202 -0.953315
9.06673 4.77402 -0.945315
9.00973 4.78002 -0.939315
8.63273 4.73702 -0.900315
8.54673 4.72402 -0.891315
8.48673 4.72602 -0.886315
8.40973 4.71702 -0.878315
8.34873 4.70002 -0.871315
8.28173 4.69702 -0.864315
8.21373 4.69202 -0.857315
8.14873 4.68902 -0.851315
8.06773 4.67502 -0.842315
8.00773 4.67502 -0.837315
7.81873 4.64702 -0.817315
7.76073 4.64402 -0.811315
7.69473 4.63802 -0.805315
7.65273 4.64502 -0.801315
7.59573 4.64302 -0.796315
7.52573 4.61702 -0.787315
7.47073 4.61502 -0.782315
7.42573 4.62002 -0.778315
7.31173 4.61202 -0.767315
7.24973 4.60502 -0.761315
7.19173 4.60002 -0.755315
7.15773 4.59402 -0.752315
7.10173 4.58902 -0.746315
6.99373 4.58102 -0.735315
6.79573 4.55902 -0.716315
6.73373 4.54702 -0.709315
6.68873 4.54702 -0.705315
6.64273 4.54702 -0.701315
6.53973 4.53602 -0.691315
6.47173 4.51902 -0.684315
6.44473 4.51502 -0.681315
6.40273 4.51602 -0.677315
6.34873 4.50702 -0.672315
6.30173 4.50402 -0.667315
6.16973 4.49702 -0.655315
6.14673 4.49502 -0.653315
6.10073 4.49102 -0.648315
6.00973 4.48202 -0.640315
5.84673 4.46102 -0.624315
5.76673 4.45702 -0.617315
5.60873 4.43402 -0.601315
5.53473 4.43102 -0.595315
5.34473 4.40402 -0.576315
5.27273 4.40002 -0.570315
5.20073 4.39602 -0.563315
5.11473 4.39202 -0.556315
5.07973 4.39002 -0.553315
4.88273 4.36802 -0.535315
4.56773 4.33702 -0.507315
4.36373 4.31602 -0.489315
4.28973 4.30902 -0.483315
4.25373 4.30002 -0.479315
4.19873 4.29802 -0.475315
4.14273 4.29402 -0.470315
4.08673 4.27602 -0.464315
4.07373 4.28902 -0.464315
4.02773 4.26702 -0.459315
4.01673 4.28202 -0.459315
3.95473 4.26902 -0.454315
3.91073 4.26202 -0.450315
3.89473 4.27102 -0.449315
3.85573 4.25502 -0.445315
3.80673 4.25402 -0.441315
3.78973 4.26102 -0.441315
3.76173 4.25702 -0.438315
3.75073 4.25802 -0.438315
3.71073 4.23802 -0.433315
3.68873 4.24102 -0.432315
3.67173 4.24802 -0.431315
3.63873 4.23702 -0.428315
3.59173 4.23502 -0.424315
3.58373 4.23902 -0.424315
3.54873 4.22502 -0.420315
3.52673 4.22502 -0.419315
3.50373 4.22402 -0.417315
3.48173 4.22402 -0.415315
3.44773 4.21002 -0.412315
3.43573 4.22302 -0.412315
3.41873 4.21402 -0.410315
3.40273 4.22202 -0.410315
3.36873 4.20602 -0.406315
3.35673 4.21802 -0.406315
3.32073 4.20002 -0.402315
3.30673 4.20902 -0.402315
3.27273 4.19302 -0.398315
3.26573 4.19802 -0.398315
3.21773 4.19002 -0.394315
3.17973 4.19402 -0.392315
3.15473 4.18802 -0.390315
3.13573 4.19002 -0.389315
3.12473 4.18902 -0.388315
3.09573 4.17802 -0.385315
3.08573 4.19202 -0.386315
3.05173 4.17302 -0.382315
3.03773 4.18102 -0.381315
3.01073 4.17102 -0.379315
2.99873 4.18202 -0.379315
2.96273 4.17302 -0.376315
2.93573 4.16302 -0.373315
2.92273 4.17202 -0.373315
2.87573 4.15902 -0.369315
2.84173 4.15102 -0.366315
2.82373 4.15402 -0.365315
2.80373 4.15302 -0.364315
2.77973 4.14502 -0.362315
2.76973 4.15702 -0.362315
2.72973 4.14002 -0.358315
2.71273 4.14202 -0.357315
2.67373 4.13902 -0.355315
2.65373 4.13502 -0.353315
2.63773 4.13902 -0.352315
2.61573 4.13302 -0.351315
2.60473 4.13102 -0.350315
2.56273 4.12002 -0.346315
2.52773 4.12102 -0.344315
2.51473 4.12802 -0.344315
2.48173 4.11802 -0.341315
2.44473 4.11502 -0.339315
2.42773 4.11602 -0.338315
2.40573 4.10802 -0.336315
2.39073 4.11202 -0.336315
2.37173 4.10902 -0.334315
2.36273 4.10702 -0.334315
2.32973 4.11002 -0.332315
2.29573 4.10902 -0.330315
2.27673 4.10602 -0.329315
2.24373 4.09202 -0.326315
8.37173 4.70202 -0.932315
8.30673 4.70002 -0.926315
7.91073 4.65902 -0.883315
7.54073 4.62002 -0.844315
7.47673 4.61302 -0.837315
7.41673 4.60902 -0.831315
7.13973 4.57902 -0.801315
7.08673 4.57602 -0.796315
7.02473 4.56702 -0.789315
6.88173 4.55302 -0.774315
6.82573 4.54702 -0.768315
6.77573 4.54402 -0.763315
6.72173 4.53902 -0.758315
6.67273 4.53602 -0.753315
6.48873 4.51702 -0.734315
6.44173 4.51502 -0.729315
6.38973 4.50902 -0.724315
6.30673 4.49502 -0.715315
6.26173 4.49302 -0.711315
6.21873 4.49202 -0.706315
6.17873 4.49302 -0.703315
6.14073 4.49502 -0.699315
6.09173 4.48802 -0.694315
6.04773 4.47102 -0.689315
6.00573 4.46902 -0.685315
5.96873 4.47002 -0.681315
5.92573 4.46802 -0.677315
5.87473 4.45902 -0.672315
5.83673 4.45902 -0.668315
5.79473 4.45602 -0.664315
5.77173 4.45302 -0.662315
5.72973 4.44902 -0.658315
5.68573 4.44402 -0.653315
5.64673 4.44202 -0.649315
5.60773 4.44002 -0.646315
5.57173 4.44102 -0.642315
5.52673 4.43402 -0.638315
5.50173 4.42702 -0.635315
5.46873 4.43002 -0.632315
5.38673 4.42002 -0.624315
5.34973 4.41802 -0.621315
5.24073 4.39802 -0.609315
5.21473 4.40402 -0.607315
5.17473 4.39802 -0.603315
5.02773 4.38402 -0.589315
5.00373 4.37702 -0.587315
4.96173 4.36802 -0.582315
4.93773 4.37502 -0.581315
4.86673 4.36702 -0.574315
4.78073 4.35902 -0.566315
4.74973 4.35802 -0.563315
4.68073 4.35002 -0.556315
4.59073 4.33402 -0.547315
4.56173 4.33402 -0.545315
4.53273 4.33402 -0.542315
4.50473 4.33402 -0.540315
4.46973 4.32802 -0.537315
4.40373 4.31802 -0.530315
4.38873 4.31702 -0.529315
4.35773 4.31402 -0.526315
4.32573 4.30902 -0.523315
4.29873 4.30902 -0.521315
4.27373 4.31102 -0.519315
4.23173 4.29602 -0.514315
4.20573 4.29702 -0.512315
4.18773 4.29202 -0.510315
4.16073 4.29102 -0.508315
4.13573 4.29302 -0.506315
4.10573 4.28902 -0.503315
4.07173 4.28002 -0.500315
4.04473 4.27802 -0.498315
3.99473 4.26602 -0.493315
3.97273 4.27002 -0.491315
3.94673 4.26902 -0.489315
3.91873 4.26502 -0.486315
3.89173 4.26302 -0.484315
3.86973 4.26502 -0.483315
3.83973 4.25902 -0.480315
3.82273 4.25402 -0.478315
3.79873 4.25402 -0.476315
3.76773 4.24702 -0.473315
3.73973 4.24202 -0.470315
3.71973 4.24602 -0.469315
3.69173 4.24202 -0.467315
3.66473 4.23702 -0.464315
3.65373 4.23802 -0.463315
3.62873 4.23602 -0.461315
3.59873 4.22802 -0.458315
3.58573 4.23902 -0.458315
3.55373 4.22902 -0.455315
3.50573 4.22502 -0.451315
3.46073 4.21102 -0.446315
3.44073 4.21402 -0.445315
3.41473 4.21002 -0.443315
3.40273 4.22202 -0.443315
3.37373 4.21302 -0.440315
3.34773 4.20802 -0.438315
3.33173 4.20102 -0.436315
3.30773 4.19902 -0.434315
3.28773 4.20002 -0.433315
3.26073 4.19302 -0.430315
3.24673 4.20102 -0.430315
3.21973 4.19402 -0.427315
3.20073 4.19702 -0.426315
3.19173 4.19802 -0.426315
3.16873 4.19602 -0.424315
3.13973 4.18502 -0.421315
3.12073 4.18702 -0.420315
3.10173 4.18902 -0.419315
3.07973 4.18802 -0.417315
3.06773 4.18402 -0.416315
3.04373 4.18002 -0.414315
3.02173 4.17602 -0.412315
2.97973 4.17402 -0.409315
2.95373 4.16602 -0.406315
2.93773 4.17002 -0.406315
2.92773 4.17002 -0.405315
2.90673 4.16802 -0.403315
2.88273 4.16202 -0.401315
2.85773 4.15302 -0.399315
2.84373 4.16102 -0.398315
2.80273 4.15702 -0.395315
2.79073 4.15302 -0.394315
2.76973 4.15102 -0.393315
2.75073 4.15102 -0.391315
2.72873 4.14602 -0.390315
2.71073 4.14702 -0.388315
2.69073 4.14502 -0.387315
2.67173 4.14402 -0.386315
2.65773 4.13602 -0.384315
2.63973 4.13802 -0.383315
2.62273 4.13902 -0.382315
2.60373 4.13802 -0.381315
2.58073 4.13102 -0.379315
2.54673 4.13302 -0.377315
2.53473 4.12902 -0.376315
2.51873 4.13202 -0.375315
2.47773 4.12402 -0.372315
2.46073 4.12502 -0.371315
2.44273 4.12402 -0.370315
2.42073 4.11602 -0.367315
2.41473 4.12002 -0.367315
2.39873 4.12202 -0.367315
2.32373 4.11302 -0.361315
2.29773 4.11102 -0.360315
2.27173 4.09602 -0.357315
2.26073 4.10702 -0.357315
2.24173 4.10202 -0.356315
2.17773 4.09302 -0.351315
8.37373 4.71302 -0.988315
8.16973 4.68202 -0.965315
8.09973 4.67602 -0.957315
7.96973 4.66702 -0.943315
7.90673 4.66402 -0.936315
7.79873 4.64902 -0.923315
7.73473 4.64402 -0.916315
7.60973 4.63402 -0.903315
7.55373 4.63202 -0.897315
7.48473 4.62202 -0.889315
7.37773 4.60402 -0.876315
7.31573 4.59702 -0.870315
7.27073 4.60102 -0.865315
7.21173 4.59502 -0.859315
7.15573 4.59002 -0.852315
7.10973 4.57702 -0.847315
7.05273 4.57102 -0.841315
6.99973 4.56802 -0.835315
6.95173 4.56802 -0.830315
6.89773 4.56302 -0.824315
6.84273 4.55702 -0.818315
6.79373 4.55602 -0.813315
6.75873 4.54702 -0.809315
6.70173 4.53902 -0.803315
6.65273 4.53702 -0.797315
6.60473 4.53402 -0.792315
6.55573 4.53102 -0.787315
6.51073 4.53002 -0.783315
6.46273 4.52602 -0.777315
6.41973 4.51102 -0.772315
6.37473 4.51002 -0.767315
6.32773 4.50602 -0.763315
6.28373 4.50402 -0.758315
6.24073 4.50302 -0.754315
6.19773 4.50102 -0.749315
6.15473 4.50002 -0.745315
6.12473 4.49302 -0.741315
6.06973 4.48102 -0.735315
6.03973 4.48802 -0.733315
5.98373 4.47602 -0.726315
5.94673 4.47702 -0.723315
5.82773 4.45902 -0.710315
5.79673 4.46402 -0.707315
5.74673 4.45402 -0.701315
5.70273 4.44902 -0.697315
5.66473 4.44802 -0.693315
5.55573 4.43302 -0.681315
5.51373 4.42802 -0.677315
5.47873 4.42802 -0.674315
5.44173 4.42602 -0.670315
5.40473 4.42402 -0.666315
5.36473 4.42002 -0.662315
5.29173 4.40202 -0.654315
5.26273 4.40502 -0.651315
5.22773 4.40402 -0.648315
5.19273 4.40202 -0.645315
5.15073 4.39402 -0.640315
5.09573 4.38802 -0.634315
5.05073 4.37702 -0.629315
5.02173 4.38002 -0.627315
4.94973 4.37102 -0.619315
4.92373 4.37602 -0.618315
4.88473 4.36902 -0.613315
4.85773 4.35802 -0.610315
4.82473 4.35602 -0.607315
4.79373 4.35502 -0.604315
4.76073 4.35302 -0.601315
4.73373 4.35602 -0.599315
4.69873 4.35002 -0.595315
4.66473 4.34602 -0.591315
4.64473 4.34102 -0.589315
4.61773 4.34302 -0.587315
4.58673 4.34102 -0.584315
4.55073 4.33402 -0.580315
4.51973 4.33102 -0.577315
4.49073 4.33002 -0.575315
4.45473 4.32202 -0.571315
4.44273 4.32502 -0.570315
4.39973 4.31002 -0.565315
4.38173 4.31902 -0.564315
4.34573 4.31002 -0.560315
4.31673 4.30902 -0.558315
4.28373 4.30202 -0.554315
4.26473 4.31002 -0.553315
4.23573 4.29402 -0.549315
4.20273 4.28702 -0.546315
4.17673 4.28802 -0.544315
4.14973 4.28702 -0.541315
4.12273 4.28502 -0.539315
4.10273 4.29102 -0.538315
4.06673 4.28102 -0.534315
4.05073 4.27702 -0.532315
4.02373 4.27502 -0.530315
3.99473 4.27002 -0.527315
3.96873 4.27002 -0.524315
3.93673 4.26202 -0.521315
3.91673 4.26702 -0.520315
3.89273 4.26702 -0.518315
3.86873 4.25402 -0.515315
3.85273 4.26302 -0.514315
3.82073 4.25502 -0.511315
3.79673 4.25502 -0.509315
3.76273 4.24302 -0.505315
3.74473 4.25002 -0.504315
3.71973 4.24802 -0.502315
3.69673 4.23502 -0.499315
3.67773 4.24002 -0.498315
3.65373 4.24002 -0.496315
3.62773 4.23602 -0.493315
3.59773 4.22802 -0.490315
3.57173 4.22402 -0.488315
3.55273 4.22702 -0.487315
3.51373 4.22102 -0.483315
3.48473 4.21402 -0.480315
3.47173 4.22402 -0.480315
3.44073 4.21402 -0.477315
3.42373 4.22002 -0.476315
3.40373 4.20802 -0.473315
3.37973 4.20502 -0.471315
3.35373 4.20002 -0.469315
3.33073 4.19802 -0.467315
3.31173 4.20102 -0.465315
3.28773 4.19702 -0.463315
3.26173 4.19102 -0.461315
3.25673 4.19802 -0.461315
3.22873 4.18902 -0.458315
3.20873 4.19002 -0.457315
3.17073 4.19402 -0.454315
3.12773 4.19202 -0.451315
3.08473 4.17402 -0.446315
3.06173 4.17102 -0.444315
3.04373 4.17402 -0.443315
3.02273 4.17302 -0.441315
3.00273 4.17202 -0.440315
2.98573 4.17702 -0.439315
2.95173 4.17002 -0.436315
2.92573 4.16102 -0.433315
2.90873 4.16402 -0.432315
2.88973 4.16502 -0.431315
2.86473 4.15602 -0.428315
2.85373 4.16802 -0.429315
2.83173 4.14902 -0.426315
2.81573 4.15502 -0.425315
2.79073 4.14602 -0.422315
2.77973 4.15802 -0.423315
2.75173 4.14302 -0.419315
2.73973 4.15402 -0.420315
2.71673 4.14702 -0.417315
2.71073 4.15102 -0.417315
2.68173 4.13502 -0.414315
2.64673 4.13802 -0.412315
2.62673 4.13502 -0.410315
2.61073 4.13802 -0.409315
2.59173 4.13802 -0.408315
2.57573 4.12502 -0.406315
2.56373 4.13502 -0.406315
2.54073 4.12702 -0.404315
2.52173 4.12502 -0.402315
2.50373 4.12402 -0.401315
2.48273 4.11902 -0.399315
2.46773 4.12302 -0.399315
2.45473 4.11702 -0.397315
2.44173 4.12302 -0.397315
2.42073 4.11702 -0.395315
2.40173 4.11402 -0.394315
2.38673 4.11802 -0.393315
2.36573 4.11202 -0.391315
2.34073 4.11202 -0.390315
2.32273 4.11102 -0.388315
2.30073 4.10302 -0.386315
2.28873 4.11002 -0.386315
2.26073 4.09102 -0.383315
7.39773 4.60602 -0.923315
7.33573 4.60002 -0.916315
7.18573 4.58502 -0.899315
7.07173 4.57602 -0.886315
7.00873 4.56702 -0.879315
6.95573 4.56402 -0.873315
6.81473 4.54802 -0.857315
6.76173 4.54402 -0.851315
6.71273 4.54202 -0.846315
6.65573 4.53402 -0.839315
