1.51382 4.73096 -1.71779
1.49782 4.73196 -1.71679
1.48381 4.73896 -1.71779
1.47982 4.75196 -1.72179
1.46982 4.77296 -1.72779
1.44682 4.75196 -1.71779
1.43281 4.75896 -1.71879
1.41581 4.75596 -1.71579
1.40681 4.77996 -1.72379
1.39181 4.78396 -1.72379
1.37981 4.76996 -1.71779
1.36782 4.78596 -1.72179
1.35081 4.78396 -1.71979
1.33281 4.77596 -1.71479
1.32182 4.79796 -1.72179
1.30481 4.79296 -1.71779
1.28582 4.81196 -1.72279
1.26781 4.80496 -1.71879
1.25381 4.81296 -1.72079
1.23881 4.81896 -1.72079
1.22482 4.82596 -1.72279
1.20482 4.81296 -1.71579
1.19281 4.82996 -1.72079
1.18581 4.83396 -1.72179
1.16981 4.83396 -1.72079
1.15681 4.84496 -1.72279
1.14082 4.84496 -1.72179
1.12681 4.85396 -1.72379
1.11081 4.85396 -1.72279
1.09181 4.84196 -1.71679
1.08482 4.84396 -1.71679
1.07381 4.86996 -1.72479
1.05382 4.84896 -1.71579
1.03981 4.85796 -1.71779
1.02681 4.87596 -1.72379
1.00782 4.86096 -1.71679
0.994815 4.87296 -1.72079
0.987815 4.87996 -1.72279
0.970815 4.87396 -1.71879
0.956815 4.88196 -1.72079
0.940815 4.88196 -1.71979
0.928815 4.90096 -1.72579
0.907815 4.87796 -1.71579
0.897815 4.90696 -1.72579
0.886815 4.88996 -1.71879
0.871815 4.89796 -1.72079
0.857815 4.90496 -1.72279
0.840815 4.89996 -1.71979
0.823815 4.89496 -1.71679
0.810815 4.91196 -1.72279
0.793815 4.90196 -1.71779
0.776815 4.89696 -1.71479
0.770815 4.90596 -1.71779
0.756815 4.91696 -1.72079
0.737815 4.89896 -1.71379
0.723815 4.90696 -1.71579
0.707815 4.90796 -1.71479
0.690815 4.89896 -1.71079
0.676815 4.90796 -1.71379
0.669815 4.91496 -1.71579
0.651815 4.89996 -1.70879
0.638815 4.91696 -1.71479
0.623815 4.92496 -1.71679
0.605815 4.90596 -1.70879
0.593815 4.93396 -1.71879
0.575815 4.91896 -1.71279
0.567815 4.91996 -1.71279
0.551815 4.91396 -1.70979
0.536815 4.91596 -1.70979
0.520815 4.91396 -1.70879
0.505815 4.92496 -1.71179
0.490815 4.92296 -1.71079
0.473815 4.91296 -1.70679
0.468815 4.94596 -1.71779
0.452815 4.93996 -1.71579
0.419815 4.91796 -1.70679
0.404815 4.92996 -1.71079
0.388815 4.92196 -1.70679
0.373815 4.93096 -1.70979
0.359815 4.94496 -1.71479
0.335815 4.93896 -1.71179
0.318815 4.92396 -1.70579
0.289815 4.94596 -1.71379
0.256815 4.92696 -1.70579
0.233815 4.92796 -1.70579
0.187815 4.93196 -1.70679
0.117815 4.93396 -1.70679
0.102815 4.93496 -1.70679
0.0328149 4.94296 -1.70879
2.26482 4.30296 -1.73479
2.25081 4.30996 -1.73479
2.24081 4.30696 -1.73179
2.22781 4.31596 -1.73179
2.21081 4.31596 -1.72979
2.19682 4.32296 -1.72979
2.18781 4.33796 -1.73279
2.17282 4.34196 -1.73179
2.15982 4.34996 -1.73179
2.13881 4.35996 -1.73179
2.12782 4.37196 -1.73479
2.10981 4.36896 -1.72979
2.09281 4.36796 -1.72779
2.07981 4.37796 -1.72879
2.07182 4.39496 -1.73279
2.05681 4.39996 -1.73179
2.04681 4.39596 -1.72979
2.03281 4.40296 -1.72979
2.01882 4.40896 -1.72979
2.00282 4.40996 -1.72779
1.98981 4.41796 -1.72779
1.97181 4.41596 -1.72479
1.95881 4.42396 -1.72479
1.95281 4.42896 -1.72579
1.94182 4.44096 -1.72879
1.92481 4.44096 -1.72579
1.90882 4.44296 -1.72479
1.89481 4.44796 -1.72379
1.87981 4.45196 -1.72279
1.86782 4.46296 -1.72479
1.85782 4.45696 -1.72179
1.84681 4.47196 -1.72479
1.82881 4.46696 -1.72079
1.82081 4.48796 -1.72779
1.80481 4.48896 -1.72479
1.79281 4.49996 -1.72779
1.77981 4.50896 -1.72879
1.76681 4.51596 -1.72979
1.75981 4.52096 -1.72979
1.74282 4.51896 -1.72779
1.72782 4.52096 -1.72579
1.71581 4.53196 -1.72779
1.69781 4.52796 -1.72479
1.68281 4.53196 -1.72379
1.67182 4.54596 -1.72779
1.66382 4.54696 -1.72679
1.64781 4.54696 -1.72479
1.63582 4.55696 -1.72679
1.61881 4.55496 -1.72379
1.60482 4.55996 -1.72379
1.59282 4.57196 -1.72679
1.57982 4.58096 -1.72779
1.57081 4.57996 -1.72679
1.55682 4.58496 -1.72679
1.54081 4.58396 -1.72479
1.52781 4.59396 -1.72679
1.51481 4.60296 -1.72779
1.49681 4.59896 -1.72479
1.48282 4.60496 -1.72479
1.47681 4.60896 -1.72579
1.46081 4.60796 -1.72379
1.44482 4.60896 -1.72279
1.43581 4.63196 -1.72979
1.41981 4.63296 -1.72779
1.40281 4.62796 -1.72479
1.39082 4.64196 -1.72779
1.38181 4.63696 -1.72479
1.36782 4.64396 -1.72679
1.35482 4.65196 -1.72779
1.33782 4.64796 -1.72479
1.32081 4.64596 -1.72279
1.30882 4.65796 -1.72479
1.29382 4.66196 -1.72479
1.28681 4.66396 -1.72479
1.27181 4.66796 -1.72479
1.25881 4.67696 -1.72779
1.24481 4.68296 -1.72779
1.21282 4.68196 -1.72479
1.19682 4.68196 -1.72279
1.19081 4.68896 -1.72479
1.17581 4.68896 -1.72379
1.15981 4.68896 -1.72279
1.14781 4.70596 -1.72779
1.13282 4.70696 -1.72679
1.11782 4.70696 -1.72479
1.10381 4.71396 -1.72679
1.09381 4.70896 -1.72379
1.07982 4.71396 -1.72479
1.06682 4.72296 -1.72679
1.04781 4.71196 -1.72079
1.03382 4.71896 -1.72279
1.00481 4.72496 -1.72279
0.990815 4.73396 -1.72479
0.984815 4.74096 -1.72679
0.968815 4.73796 -1.72479
0.954815 4.74496 -1.72579
0.940815 4.75496 -1.72879
0.922815 4.74296 -1.72279
0.908815 4.74796 -1.72379
0.886815 4.75596 -1.72479
0.869815 4.74996 -1.72179
0.858815 4.76896 -1.72779
0.839815 4.75096 -1.71979
0.826815 4.76296 -1.72379
0.812815 4.77096 -1.72579
0.794815 4.75696 -1.71979
0.787815 4.76396 -1.72179
0.773815 4.77196 -1.72379
0.755815 4.75796 -1.71779
0.740815 4.75996 -1.71779
0.727815 4.77396 -1.72179
0.711815 4.76496 -1.71779
0.695815 4.76296 -1.71579
0.689815 4.77196 -1.71879
0.671815 4.75496 -1.71179
0.657815 4.76296 -1.71379
0.643815 4.77096 -1.71579
0.626815 4.76296 -1.71279
0.611815 4.76296 -1.71179
0.598815 4.77596 -1.71579
0.582815 4.77596 -1.71479
0.574815 4.76996 -1.71279
0.560815 4.78096 -1.71579
0.544815 4.77496 -1.71279
0.530815 4.78296 -1.71479
0.516815 4.79496 -1.71979
0.500815 4.78596 -1.71479
0.484815 4.78396 -1.71379
0.477815 4.78796 -1.71479
0.461815 4.77996 -1.71179
0.446815 4.78196 -1.71179
0.432815 4.78896 -1.71379
0.416815 4.78596 -1.71279
0.402815 4.79096 -1.71379
0.386815 4.78896 -1.71279
0.378815 4.78396 -1.70979
0.363815 4.78296 -1.70979
0.349815 4.79396 -1.71279
0.333815 4.78496 -1.70979
0.318815 4.78396 -1.70879
0.303815 4.78696 -1.70979
0.288815 4.78796 -1.70979
0.280815 4.78696 -1.70879
0.266815 4.79496 -1.71179
0.250815 4.78996 -1.70979
0.235815 4.79296 -1.70979
0.221815 4.81096 -1.71679
0.205815 4.79796 -1.71179
0.190815 4.80096 -1.71279
0.183815 4.81396 -1.71779
0.168815 4.79996 -1.71179
0.152815 4.79596 -1.70979
0.137815 4.79896 -1.71079
0.123815 4.80296 -1.71279
0.107815 4.80096 -1.71179
0.0938149 4.81296 -1.71579
0.085815 4.79796 -1.70979
0.070815 4.79496 -1.70879
0.0558149 4.80796 -1.71379
0.0398149 4.79496 -1.70879
0.0248149 4.80096 -1.71079
0.00981495 4.78896 -1.70679
2.25781 4.14096 -1.72979
2.24081 4.14096 -1.72679
2.23481 4.16196 -1.73279
2.21882 4.16396 -1.72979
2.19881 4.17196 -1.72979
2.17181 4.18496 -1.72879
2.16082 4.19596 -1.73079
2.14682 4.20096 -1.72979
2.13382 4.20796 -1.72979
2.11281 4.19996 -1.72379
2.11281 4.21696 -1.72979
2.09482 4.21296 -1.72479
2.08681 4.23096 -1.72979
2.06881 4.22796 -1.72579
2.06082 4.24396 -1.72979
2.04581 4.24796 -1.72879
2.03582 4.26096 -1.73179
2.01882 4.25996 -1.72879
2.01381 4.26696 -1.72979
1.98981 4.28596 -1.73279
1.96081 4.29296 -1.73079
1.94781 4.29996 -1.73079
1.92781 4.29196 -1.72479
1.89781 4.31596 -1.72879
1.83681 4.34196 -1.72879
1.80981 4.35496 -1.72979
1.78082 4.36296 -1.72779
1.76681 4.36696 -1.72679
1.75681 4.38096 -1.73079
1.72282 4.39696 -1.73179
1.69482 4.40496 -1.73079
1.67581 4.39896 -1.72579
1.66682 4.41596 -1.73079
1.65681 4.40996 -1.72679
1.64481 4.42196 -1.72979
1.62981 4.42196 -1.72779
1.58881 4.44096 -1.72979
1.56881 4.42796 -1.72179
1.56381 4.43796 -1.72479
1.55182 4.44596 -1.72679
1.53382 4.43996 -1.72179
1.52181 4.44996 -1.72479
1.50881 4.45896 -1.72579
1.48981 4.44896 -1.71979
1.48081 4.46796 -1.72579
1.47581 4.47596 -1.72779
1.45581 4.46296 -1.72079
1.44381 4.47196 -1.72279
1.43182 4.48396 -1.72579
1.41281 4.47196 -1.71879
1.40382 4.49496 -1.72679
1.39082 4.50096 -1.72679
1.37981 4.49196 -1.72279
1.37082 4.51296 -1.72979
1.34782 4.48796 -1.71779
1.33881 4.50896 -1.72479
1.32281 4.50596 -1.72179
1.30882 4.50996 -1.72179
1.29281 4.50896 -1.71879
1.27882 4.51296 -1.71879
1.27382 4.52196 -1.72179
1.25381 4.50796 -1.71479
1.24582 4.53296 -1.72379
1.23181 4.53696 -1.72379
1.21681 4.53796 -1.72179
1.19781 4.52496 -1.71579
1.18682 4.53996 -1.71979
1.17581 4.52896 -1.71479
1.16382 4.53796 -1.71679
1.14681 4.53296 -1.71379
1.13381 4.53996 -1.71479
1.11582 4.53096 -1.70979
1.10881 4.56296 -1.72179
1.09181 4.55596 -1.71679
1.08482 4.55896 -1.71779
1.06982 4.55696 -1.71579
1.05481 4.55696 -1.71379
1.04781 4.59296 -1.72679
1.02781 4.57096 -1.71679
1.01082 4.56296 -1.71279
0.995815 4.56196 -1.71079
0.993815 4.58796 -1.72079
0.963815 4.58796 -1.71879
0.949815 4.59696 -1.72079
0.928815 4.56696 -1.70779
0.914815 4.57196 -1.70879
0.901815 4.57996 -1.71079
0.887815 4.58596 -1.71179
0.866815 4.59096 -1.71179
0.851815 4.59096 -1.71079
0.839815 4.60696 -1.71679
0.823815 4.59996 -1.71279
0.806815 4.59196 -1.70879
0.792815 4.59296 -1.70779
0.787815 4.61196 -1.71479
0.771815 4.59996 -1.70879
0.756815 4.60396 -1.70979
0.741815 4.60096 -1.70779
0.726815 4.59996 -1.70579
0.712815 4.60596 -1.70779
0.699815 4.61496 -1.71079
0.690815 4.60696 -1.70679
0.675815 4.60696 -1.70579
0.663815 4.62096 -1.71079
0.647815 4.61696 -1.70879
0.633815 4.62296 -1.70979
0.617815 4.61396 -1.70579
0.603815 4.61696 -1.70579
0.597815 4.63096 -1.71079
0.582815 4.62996 -1.70979
0.568815 4.63696 -1.71179
0.553815 4.62896 -1.70879
0.538815 4.62896 -1.70779
0.524815 4.63496 -1.70879
0.509815 4.63396 -1.70879
0.501815 4.62796 -1.70579
0.487815 4.62896 -1.70579
0.473815 4.63796 -1.70879
0.458815 4.63996 -1.70879
0.444815 4.64096 -1.70879
0.428815 4.63496 -1.70579
0.414815 4.64196 -1.70779
0.407815 4.63896 -1.70579
0.393815 4.64796 -1.70879
0.377815 4.63596 -1.70379
0.348815 4.63996 -1.70479
0.334815 4.64096 -1.70479
0.319815 4.64896 -1.70779
0.305815 4.66196 -1.71179
0.298815 4.66196 -1.71179
0.283815 4.65896 -1.71079
0.268815 4.65496 -1.70879
0.254815 4.65896 -1.70979
0.240815 4.66596 -1.71179
0.224815 4.65296 -1.70679
0.210815 4.66096 -1.70979
0.202815 4.65596 -1.70779
0.188815 4.66396 -1.71079
0.173815 4.64996 -1.70479
0.159815 4.66696 -1.71079
0.144815 4.66896 -1.71179
0.130815 4.66996 -1.71179
0.115815 4.65696 -1.70679
0.108815 4.67196 -1.71279
0.0938149 4.66296 -1.70879
0.078815 4.66396 -1.70879
0.0648149 4.67096 -1.71179
0.0498149 4.66996 -1.71079
0.0348149 4.66396 -1.70879
0.0208149 4.67696 -1.71379
0.0128149 4.67496 -1.71379
1.97881 4.11996 -1.72979
1.96581 4.12596 -1.72979
1.95081 4.12896 -1.72879
1.93682 4.13196 -1.72679
1.92382 4.13996 -1.72779
1.91082 4.14596 -1.72779
1.90382 4.14696 -1.72679
1.89181 4.15496 -1.72779
1.75481 4.21796 -1.72879
1.73782 4.21496 -1.72579
1.72982 4.21296 -1.72279
1.72081 4.22796 -1.72779
1.70581 4.22996 -1.72579
1.69482 4.24096 -1.72879
1.66682 4.24996 -1.72779
1.56081 4.29396 -1.72879
1.50481 4.30596 -1.72579
1.47782 4.31696 -1.72679
1.46381 4.31796 -1.72579
1.45781 4.32396 -1.72679
1.44081 4.31996 -1.72279
1.43081 4.33496 -1.72779
1.40382 4.34196 -1.72679
1.36681 4.34396 -1.72279
1.35181 4.34696 -1.72279
1.33881 4.35296 -1.72279
1.32381 4.35296 -1.72179
1.31182 4.36296 -1.72379
1.30081 4.37596 -1.72779
1.28181 4.36196 -1.71979
1.27681 4.36896 -1.72279
1.26382 4.37496 -1.72279
1.24881 4.37496 -1.72179
1.23381 4.37596 -1.71979
1.22381 4.38996 -1.72479
1.20581 4.37996 -1.71879
1.19081 4.37996 -1.71679
1.18682 4.39296 -1.72179
1.17182 4.39096 -1.71979
1.15882 4.39796 -1.72079
1.14582 4.40496 -1.72279
1.13181 4.40696 -1.72179
1.11381 4.39596 -1.71579
1.10381 4.41196 -1.72079
1.08782 4.40896 -1.71779
1.08081 4.40896 -1.71679
1.06881 4.42296 -1.72179
1.05182 4.41296 -1.71679
1.03882 4.41996 -1.71779
1.02681 4.43096 -1.72079
1.01082 4.42296 -1.71679
0.995815 4.42496 -1.71579
0.989815 4.42796 -1.71679
0.973815 4.42396 -1.71379
0.959815 4.42496 -1.71279
0.947815 4.43696 -1.71679
0.932815 4.43596 -1.71479
0.919815 4.44096 -1.71579
0.906815 4.45096 -1.71879
0.898815 4.44696 -1.71679
0.884815 4.44996 -1.71679
0.870815 4.45096 -1.71579
0.854815 4.44496 -1.71179
0.841815 4.44896 -1.71279
0.827815 4.45496 -1.71379
0.812815 4.45196 -1.71179
0.808815 4.46596 -1.71679
0.792815 4.46196 -1.71379
0.778815 4.46196 -1.71379
0.764815 4.46696 -1.71379
0.751815 4.47396 -1.71679
0.734815 4.45796 -1.70879
0.721815 4.46396 -1.71079
0.713815 4.46396 -1.70979
0.699815 4.46596 -1.70979
0.685815 4.46796 -1.70979
0.672815 4.47796 -1.71279
0.657815 4.47096 -1.70879
0.644815 4.47996 -1.71179
0.629815 4.47796 -1.71079
0.622815 4.47596 -1.70879
0.608815 4.48296 -1.71079
0.595815 4.49196 -1.71379
0.581815 4.48996 -1.71279
0.567815 4.49196 -1.71279
0.553815 4.49796 -1.71379
0.539815 4.50296 -1.71579
0.525815 4.50096 -1.71379
0.518815 4.50696 -1.71679
0.503815 4.50196 -1.71379
0.489815 4.49996 -1.71179
0.475815 4.50296 -1.71279
0.460815 4.50296 -1.71179
0.445815 4.49296 -1.70779
0.432815 4.50896 -1.71379
0.426815 4.51196 -1.71379
0.410815 4.50396 -1.71079
0.396815 4.50496 -1.71079
0.383815 4.50996 -1.71179
0.369815 4.51796 -1.71479
0.355815 4.51796 -1.71379
0.339815 4.50596 -1.70879
0.333815 4.50996 -1.71079
0.319815 4.51696 -1.71279
0.304815 4.51396 -1.71079
0.290815 4.51496 -1.71079
0.276815 4.52096 -1.71379
0.262815 4.51296 -1.70979
0.249815 4.53596 -1.71879
0.241815 4.51796 -1.71079
0.226815 4.51696 -1.71079
0.212815 4.51696 -1.71079
0.198815 4.52896 -1.71479
0.184815 4.51996 -1.71079
0.170815 4.52696 -1.71379
0.156815 4.53096 -1.71479
0.149815 4.53096 -1.71479
0.134815 4.52396 -1.71179
0.120815 4.53396 -1.71579
0.106815 4.52896 -1.71379
0.092815 4.52696 -1.71279
0.077815 4.53096 -1.71379
0.063815 4.53496 -1.71579
0.0568149 4.52796 -1.71279
0.0428149 4.53096 -1.71379
0.0278149 4.52596 -1.71179
0.0138149 4.53496 -1.71579
1.69182 4.11596 -1.72679
1.67281 4.10596 -1.72079
1.64681 4.11596 -1.72079
1.63082 4.13096 -1.72379
1.61582 4.13096 -1.72079
1.44982 4.20596 -1.72679
1.41781 4.19696 -1.71879
1.40481 4.20496 -1.72079
1.38681 4.19396 -1.71379
1.37681 4.20896 -1.71779
1.36181 4.20796 -1.71579
1.35381 4.20296 -1.71279
1.34482 4.22296 -1.71979
1.32682 4.21096 -1.71279
1.31581 4.22196 -1.71579
1.30182 4.22296 -1.71379
1.29281 4.24096 -1.72079
1.27681 4.23796 -1.71679
1.27181 4.24396 -1.71879
1.25681 4.24396 -1.71679
1.24481 4.25196 -1.71879
1.22982 4.24996 -1.71679
1.21482 4.24896 -1.71379
1.20081 4.25096 -1.71379
1.18781 4.25396 -1.71379
1.18081 4.25596 -1.71379
1.16781 4.25996 -1.71379
1.15481 4.26396 -1.71379
1.14181 4.27096 -1.71479
1.12582 4.26496 -1.71079
1.11582 4.27996 -1.71579
1.09982 4.27596 -1.71279
1.09681 4.29196 -1.71879
1.08081 4.28296 -1.71379
1.06781 4.28796 -1.71379
1.05382 4.28996 -1.71379
1.04081 4.29596 -1.71479
1.02681 4.29596 -1.71379
1.01382 4.30096 -1.71379
1.00782 4.30796 -1.71679
0.992815 4.30396 -1.71379
0.981815 4.31796 -1.71779
0.966815 4.31596 -1.71579
0.951815 4.31296 -1.71379
0.938815 4.31796 -1.71379
0.924815 4.31896 -1.71379
0.918815 4.32196 -1.71379
0.903815 4.31796 -1.71079
0.891815 4.32996 -1.71479
0.878815 4.33296 -1.71479
0.863815 4.33196 -1.71379
0.850815 4.33396 -1.71379
0.837815 4.34296 -1.71579
0.822815 4.33796 -1.71279
0.815815 4.33696 -1.71179
0.801815 4.33996 -1.71179
0.789815 4.34796 -1.71379
0.773815 4.34096 -1.71079
0.762815 4.35596 -1.71579
0.747815 4.35096 -1.71279
0.734815 4.35696 -1.71379
0.728815 4.36396 -1.71679
0.712815 4.35396 -1.71079
0.698815 4.35596 -1.71079
0.686815 4.36296 -1.71379
0.673815 4.37296 -1.71679
0.658815 4.36996 -1.71379
0.644815 4.36396 -1.71079
0.639815 4.38196 -1.71779
0.623815 4.36696 -1.71079
0.610815 4.37496 -1.71379
0.597815 4.38196 -1.71579
0.581815 4.36696 -1.70879
0.568815 4.37696 -1.71179
0.556815 4.38896 -1.71679
0.547815 4.36996 -1.70779
0.535815 4.38796 -1.71479
0.521815 4.39196 -1.71579
0.507815 4.38596 -1.71279
0.492815 4.37996 -1.70979
0.480815 4.39596 -1.71579
0.464815 4.38096 -1.70879
0.457815 4.37996 -1.70779
0.444815 4.38896 -1.71079
0.430815 4.38696 -1.70979
0.417815 4.39696 -1.71379
0.404815 4.40596 -1.71679
0.389815 4.39396 -1.71079
0.375815 4.39396 -1.71079
0.369815 4.40496 -1.71479
0.354815 4.39496 -1.71079
0.340815 4.39296 -1.70879
0.327815 4.40096 -1.71179
0.313815 4.39496 -1.70879
0.299815 4.39396 -1.70779
0.286815 4.40796 -1.71379
0.273815 4.41996 -1.71779
0.265815 4.40396 -1.71079
0.251815 4.40396 -1.71079
0.237815 4.41096 -1.71379
0.224815 4.41296 -1.71379
0.209815 4.40696 -1.71079
0.196815 4.41296 -1.71379
0.182815 4.41196 -1.71279
0.175815 4.41496 -1.71379
0.161815 4.41196 -1.71279
0.147815 4.41996 -1.71579
0.133815 4.41096 -1.71179
0.119815 4.41596 -1.71379
0.106815 4.41396 -1.71279
0.092815 4.41196 -1.71179
0.085815 4.41096 -1.71079
0.0718149 4.41696 -1.71379
0.0578149 4.41296 -1.71179
0.0438149 4.41096 -1.71079
0.0298149 4.41296 -1.71179
0.0158149 4.40596 -1.70879
0.00181495 4.42596 -1.71679
1.48282 4.09596 -1.72579
1.46881 4.09896 -1.72479
1.45281 4.09296 -1.71979
1.44982 4.10496 -1.72479
1.25881 4.13496 -1.71179
1.24681 4.14496 -1.71379
1.23381 4.14696 -1.71279
1.21982 4.14696 -1.71179
1.20881 4.15796 -1.71479
1.19381 4.15496 -1.71179
1.18481 4.15096 -1.70979
1.17281 4.15796 -1.71079
1.15882 4.15696 -1.70879
1.14382 4.15496 -1.70579
1.11981 4.16896 -1.70979
1.10681 4.17296 -1.70979
1.09881 4.16896 -1.70679
1.08581 4.17396 -1.70779
1.07381 4.17996 -1.70879
1.05981 4.18096 -1.70779
1.04981 4.19496 -1.71279
1.03281 4.18596 -1.70679
1.00681 4.19396 -1.70779
0.987815 4.19896 -1.70779
0.974815 4.20196 -1.70779
0.962815 4.21196 -1.71079
0.948815 4.21096 -1.70979
0.933815 4.20896 -1.70679
0.922815 4.22096 -1.71079
0.913815 4.21196 -1.70579
0.899815 4.21096 -1.70479
0.888815 4.22296 -1.70879
0.876815 4.23096 -1.71079
0.864815 4.24296 -1.71479
0.847815 4.22496 -1.70579
0.836815 4.24096 -1.71179
0.829815 4.23996 -1.71079
0.817815 4.24596 -1.71279
0.799815 4.22896 -1.70379
0.790815 4.25096 -1.71279
0.775815 4.24696 -1.70979
0.759815 4.23596 -1.70379
0.750815 4.26096 -1.71279
0.742815 4.25596 -1.71079
0.729815 4.25996 -1.71179
0.715815 4.25896 -1.70979
0.702815 4.25896 -1.70979
0.690815 4.26896 -1.71279
0.675815 4.26196 -1.70879
0.662815 4.27096 -1.71179
0.655815 4.27096 -1.71079
0.640815 4.26196 -1.70579
0.629815 4.27596 -1.71179
0.615815 4.27696 -1.71079
0.600815 4.26896 -1.70679
0.589815 4.28396 -1.71279
0.574815 4.27696 -1.70879
0.568815 4.28296 -1.71079
0.554815 4.28296 -1.70979
0.540815 4.28096 -1.70879
0.526815 4.27896 -1.70679
0.513815 4.28296 -1.70779
0.500815 4.28796 -1.70979
0.487815 4.28796 -1.70879
0.472815 4.27996 -1.70479
0.467815 4.29296 -1.70979
0.452815 4.28596 -1.70579
0.438815 4.28396 -1.70479
0.426815 4.29796 -1.70979
0.413815 4.29896 -1.70979
0.400815 4.30396 -1.71179
0.387815 4.31096 -1.71379
0.378815 4.28896 -1.70479
0.365815 4.29796 -1.70779
0.352815 4.30296 -1.70979
0.338815 4.30196 -1.70879
0.324815 4.29196 -1.70379
0.311815 4.30596 -1.70979
0.297815 4.29896 -1.70579
0.291815 4.30196 -1.70679
0.278815 4.31196 -1.71079
0.263815 4.29996 -1.70579
0.251815 4.31496 -1.71179
0.237815 4.30896 -1.70879
0.224815 4.31896 -1.71279
0.210815 4.32496 -1.71479
0.202815 4.29796 -1.70279
0.189815 4.31296 -1.70979
0.176815 4.31296 -1.70979
0.162815 4.30796 -1.70679
0.148815 4.30496 -1.70579
0.135815 4.31996 -1.71179
0.121815 4.30596 -1.70579
0.108815 4.32696 -1.71379
0.101815 4.30296 -1.70379
0.088815 4.31596 -1.70979
0.074815 4.30496 -1.70479
0.0618149 4.31696 -1.70979
0.0478149 4.30796 -1.70579
0.00181495 -5.50004 -1.42679
0.0108149 -5.50404 -1.42779
0.0278149 -5.51404 -1.43079
0.0458149 -5.51704 -1.43179
0.062815 -5.51004 -1.42979
0.0798149 -5.52104 -1.43279
0.0978149 -5.51304 -1.43079
0.114815 -5.51804 -1.43279
0.122815 -5.51204 -1.43079
0.140815 -5.51604 -1.43179
0.157815 -5.51904 -1.43279
0.175815 -5.52304 -1.43379
0.192815 -5.52004 -1.43379
0.210815 -5.52904 -1.43679
0.227815 -5.53804 -1.43879
0.236815 -5.52804 -1.43679
0.253815 -5.53304 -1.43779
0.271815 -5.53804 -1.43979
0.288815 -5.53904 -1.43979
0.306815 -5.53404 -1.43879
0.323815 -5.53504 -1.43979
0.340815 -5.53204 -1.43879
0.349815 -5.53504 -1.43979
0.368815 -5.55004 -1.44479
0.384815 -5.53704 -1.44079
0.402815 -5.53604 -1.44079
0.420815 -5.54004 -1.44279
0.437815 -5.53504 -1.44179
0.455815 -5.54104 -1.44379
0.464815 -5.54604 -1.44579
0.482815 -5.55304 -1.44779
0.499815 -5.54704 -1.44679
0.517815 -5.54904 -1.44779
0.534815 -5.54804 -1.44779
0.552815 -5.54604 -1.44779
0.570815 -5.55404 -1.45079
0.579815 -5.55504 -1.45079
0.597815 -5.55504 -1.45179
0.615815 -5.56104 -1.45379
0.632815 -5.56104 -1.45379
0.650815 -5.55904 -1.45379
0.686815 -5.56604 -1.45779
0.694815 -5.55704 -1.45479
0.712815 -5.55704 -1.45579
0.730815 -5.56404 -1.45879
0.748815 -5.56404 -1.45879
0.767815 -5.56904 -1.46079
0.782815 -5.54904 -1.45679
0.810815 -5.55904 -1.45979
0.828815 -5.56404 -1.46179
0.847815 -5.56704 -1.46379
0.880815 -5.55404 -1.46179
0.897815 -5.54604 -1.45979
0.913815 -5.53304 -1.45779
0.924815 -5.54704 -1.46179
0.943815 -5.55404 -1.46479
0.960815 -5.54704 -1.46379
0.974815 -5.52704 -1.45879
0.996815 -5.54604 -1.46479
1.01382 -5.54504 -1.46579
1.02981 -5.53404 -1.46379
1.03781 -5.52704 -1.46179
0.0138149 -5.35004 -1.43779
0.0308149 -5.35004 -1.43779
0.0478149 -5.36304 -1.44179
0.0648149 -5.35204 -1.43879
0.080815 -5.34404 -1.43579
0.089815 -5.35304 -1.43879
0.106815 -5.36204 -1.44179
0.123815 -5.36604 -1.44279
0.140815 -5.36904 -1.44379
0.157815 -5.36704 -1.44379
0.174815 -5.37804 -1.44679
0.191815 -5.36804 -1.44379
0.199815 -5.37704 -1.44679
0.216815 -5.37604 -1.44679
0.234815 -5.38304 -1.44879
0.250815 -5.36704 -1.44479
0.267815 -5.38004 -1.44879
0.284815 -5.37104 -1.44579
0.301815 -5.37404 -1.44779
0.310815 -5.38004 -1.44879
0.326815 -5.37704 -1.44879
0.343815 -5.37204 -1.44779
0.360815 -5.36904 -1.44679
0.377815 -5.37904 -1.44979
0.394815 -5.36804 -1.44779
0.412815 -5.38004 -1.45079
0.421815 -5.39304 -1.45479
0.437815 -5.38404 -1.45279
0.454815 -5.38304 -1.45279
0.472815 -5.39104 -1.45579
0.488815 -5.38004 -1.45279
0.506815 -5.38604 -1.45479
0.524815 -5.40004 -1.45979
0.531815 -5.38304 -1.45479
0.548815 -5.38004 -1.45479
0.567815 -5.39504 -1.45979
0.616815 -5.38004 -1.45679
0.634815 -5.38004 -1.45779
0.644815 -5.39204 -1.46079
0.663815 -5.40604 -1.46579
0.677815 -5.38604 -1.46079
0.694815 -5.38404 -1.46079
0.715815 -5.40904 -1.46879
0.729815 -5.38904 -1.46379
0.746815 -5.38504 -1.46279
0.756815 -5.39504 -1.46579
0.773815 -5.39504 -1.46679
0.790815 -5.39004 -1.46579
0.809815 -5.40304 -1.47079
0.824815 -5.38704 -1.46679
0.841815 -5.38504 -1.46679
0.858815 -5.38204 -1.46679
0.865815 -5.37304 -1.46479
0.885815 -5.38504 -1.46879
0.905815 -5.40304 -1.47479
0.919815 -5.38504 -1.47079
0.937815 -5.38404 -1.47079
0.954815 -5.38504 -1.47279
0.970815 -5.37604 -1.47079
0.979815 -5.37504 -1.47079
0.998815 -5.38704 -1.47479
1.03082 -5.36904 -1.47179
0.0148149 -5.27204 -1.45279
0.0308149 -5.26404 -1.45079
0.0398149 -5.27704 -1.45479
0.0558149 -5.26904 -1.45279
0.0728149 -5.25204 -1.44779
0.088815 -5.25204 -1.44779
0.105815 -5.26704 -1.45179
0.121815 -5.26204 -1.45079
0.138815 -5.27704 -1.45579
0.146815 -5.27104 -1.45379
0.163815 -5.27304 -1.45379
0.179815 -5.26804 -1.45279
0.197815 -5.28504 -1.45779
0.213815 -5.28804 -1.45979
0.230815 -5.28204 -1.45779
0.247815 -5.30204 -1.46379
0.255815 -5.29004 -1.46079
0.272815 -5.28804 -1.45979
0.288815 -5.29204 -1.46179
0.305815 -5.28604 -1.45979
0.321815 -5.27104 -1.45579
0.337815 -5.27004 -1.45579
0.355815 -5.28804 -1.46179
0.362815 -5.26904 -1.45579
0.380815 -5.29004 -1.46279
0.395815 -5.26804 -1.45679
0.412815 -5.26504 -1.45579
0.431815 -5.29404 -1.46479
0.446815 -5.28104 -1.46179
0.462815 -5.26904 -1.45779
0.504815 -5.27004 -1.45979
0.521815 -5.27804 -1.46279
0.538815 -5.27504 -1.46179
0.554815 -5.27104 -1.46179
0.570815 -5.26804 -1.46079
0.612815 -5.26904 -1.46279
0.663815 -5.27404 -1.46579
0.681815 -5.27804 -1.46779
0.691815 -5.29004 -1.47179
0.706815 -5.28204 -1.46979
0.722815 -5.27204 -1.46779
0.739815 -5.27204 -1.46879
0.759815 -5.29404 -1.47579
0.773815 -5.27504 -1.47079
0.791815 -5.28304 -1.47379
0.803815 -5.30304 -1.48079
0.816815 -5.27804 -1.47379
0.835815 -5.29204 -1.47879
0.850815 -5.27604 -1.47479
0.868815 -5.28504 -1.47779
0.885815 -5.28404 -1.47879
0.903815 -5.29104 -1.48179
0.912815 -5.29304 -1.48279
0.927815 -5.28104 -1.47979
0.944815 -5.27804 -1.47979
0.960815 -5.27104 -1.47879
0.993815 -5.26704 -1.47879
0.0248149 -5.11404 -1.46779
0.0328149 -5.11404 -1.46779
0.0648149 -5.09404 -1.46179
0.080815 -5.12304 -1.47079
0.112815 -5.10104 -1.46479
0.120815 -5.10704 -1.46679
0.137815 -5.12504 -1.47279
0.153815 -5.13104 -1.47379
0.169815 -5.11904 -1.47079
0.185815 -5.12004 -1.47079
0.201815 -5.12104 -1.47179
0.217815 -5.11104 -1.46879
0.233815 -5.12604 -1.47379
0.241815 -5.11804 -1.47079
0.257815 -5.11304 -1.46979
0.274815 -5.12404 -1.47379
0.289815 -5.11904 -1.47279
0.306815 -5.12704 -1.47479
0.322815 -5.12704 -1.47479
0.338815 -5.11804 -1.47279
0.347815 -5.13404 -1.47779
0.363815 -5.13004 -1.47679
0.378815 -5.11904 -1.47379
0.395815 -5.12504 -1.47679
0.411815 -5.12604 -1.47679
0.426815 -5.11104 -1.47279
0.443815 -5.11604 -1.47479
0.483815 -5.11604 -1.47579
0.499815 -5.11204 -1.47479
0.516815 -5.11804 -1.47779
0.531815 -5.10904 -1.47479
0.540815 -5.11404 -1.47679
0.556815 -5.10804 -1.47579
0.573815 -5.11604 -1.47879
0.589815 -5.11404 -1.47879
0.606815 -5.12404 -1.48279
0.622815 -5.11604 -1.48079
0.638815 -5.11404 -1.48079
0.654815 -5.11404 -1.48079
0.663815 -5.11904 -1.48279
0.680815 -5.12604 -1.48579
0.698815 -5.13304 -1.48879
0.712815 -5.12204 -1.48579
0.728815 -5.11404 -1.48379
0.745815 -5.11904 -1.48679
0.761815 -5.11504 -1.48579
0.770815 -5.12104 -1.48779
0.787815 -5.12604 -1.49079
0.800815 -5.10504 -1.48479
0.819815 -5.11904 -1.48979
0.834815 -5.10704 -1.48679
0.852815 -5.11604 -1.49079
0.867815 -5.10704 -1.48879
0.877815 -5.12104 -1.49379
0.895815 -5.12804 -1.49679
0.911815 -5.12304 -1.49579
0.929815 -5.13104 -1.49979
0.947815 -5.13604 -1.50179
0.960815 -5.12004 -1.49779
0.978815 -5.12604 -1.50079
0.986815 -5.12704 -1.50079
1.00282 -5.12204 -1.50079
1.01981 -5.12004 -1.50079
0.218815 -5.00604 -1.48879
0.249815 -5.00304 -1.48779
0.265815 -5.00904 -1.49079
0.289815 -5.00804 -1.49079
0.305815 -5.00904 -1.49179
0.321815 -5.01004 -1.49179
0.336815 -5.00504 -1.49079
0.352815 -5.00204 -1.48979
0.368815 -5.01204 -1.49379
0.384815 -5.00904 -1.49279
0.391815 -5.00504 -1.49179
0.408815 -5.01104 -1.49479
0.423815 -5.00604 -1.49279
0.439815 -5.00504 -1.49279
0.455815 -5.00904 -1.49479
0.471815 -5.01304 -1.49679
0.486815 -5.00604 -1.49479
0.494815 -5.00304 -1.49479
0.510815 -5.00604 -1.49579
0.526815 -5.00404 -1.49579
0.541815 -4.99904 -1.49479
0.558815 -5.00604 -1.49779
0.573815 -5.00304 -1.49679
0.589815 -5.00104 -1.49679
0.597815 -5.00004 -1.49679
0.614815 -5.00904 -1.50079
0.631815 -5.01704 -1.50379
0.645815 -5.00304 -1.49979
0.662815 -5.00904 -1.50179
0.719815 -5.01804 -1.50779
0.735815 -5.01604 -1.50779
0.748815 -4.99704 -1.50179
0.766815 -5.00904 -1.50679
0.784815 -5.01804 -1.51079
0.800815 -5.01804 -1.51179
0.0138149 -4.83004 -1.48679
0.0288149 -4.82204 -1.48379
0.0438149 -4.82404 -1.48479
0.0518149 -4.82804 -1.48579
0.066815 -4.81604 -1.48179
0.081815 -4.82304 -1.48479
0.096815 -4.82504 -1.48579
0.111815 -4.83404 -1.48879
0.127815 -4.83004 -1.48679
0.142815 -4.82804 -1.48679
0.149815 -4.82404 -1.48579
0.165815 -4.83104 -1.48779
0.180815 -4.83004 -1.48779
0.195815 -4.82804 -1.48679
0.210815 -4.82904 -1.48779
0.226815 -4.83804 -1.49079
0.249815 -4.83704 -1.49079
0.263815 -4.82604 -1.48779
0.340815 -4.83504 -1.49179
0.347815 -4.82904 -1.49079
0.00781495 -4.72104 -1.49479
0.0228149 -4.73404 -1.49879
0.0378149 -4.73604 -1.49979
0.0518149 -4.73404 -1.49879
0.066815 -4.72804 -1.49679
0.081815 -4.73604 -1.49979
0.096815 -4.73504 -1.49979
0.103815 -4.73504 -1.49979
0.118815 -4.73904 -1.50079
0.133815 -4.71704 -1.49379
0.148815 -4.73604 -1.49979
0.163815 -4.73504 -1.49979
0.178815 -4.73304 -1.49979
0.193815 -4.73404 -1.49979
0.201815 -4.74304 -1.50379
0.215815 -4.73904 -1.50179
0.230815 -4.74004 -1.50279
0.245815 -4.73604 -1.50179
0.260815 -4.73704 -1.50179
0.275815 -4.73604 -1.50179
0.290815 -4.73504 -1.50179
0.297815 -4.73604 -1.50279
0.327815 -4.74004 -1.50479
0.342815 -4.73004 -1.50179
0.357815 -4.73604 -1.50379
0.371815 -4.72504 -1.50079
0.387815 -4.73004 -1.50279
0.395815 -4.74104 -1.50679
0.409815 -4.73204 -1.50379
0.424815 -4.73204 -1.50479
0.439815 -4.73304 -1.50579
0.454815 -4.72804 -1.50379
0.471815 -4.75504 -1.51379
0.486815 -4.75704 -1.51479
0.492815 -4.73904 -1.50879
0.00181495 -4.62804 -1.50979
0.0158149 -4.63004 -1.51079
0.0308149 -4.62004 -1.50779
0.0448149 -4.63004 -1.51079
0.0598149 -4.62804 -1.50979
0.066815 -4.62904 -1.51079
0.081815 -4.62904 -1.51079
0.095815 -4.63104 -1.51179
0.110815 -4.63404 -1.51279
0.124815 -4.63604 -1.51379
0.139815 -4.63304 -1.51279
0.153815 -4.62904 -1.51179
0.161815 -4.63104 -1.51179
0.176815 -4.63604 -1.51379
0.190815 -4.63504 -1.51379
0.205815 -4.63304 -1.51379
0.219815 -4.63804 -1.51579
0.234815 -4.63504 -1.51479
0.249815 -4.64404 -1.51779
0.255815 -4.63004 -1.51379
0.271815 -4.63904 -1.51679
0.285815 -4.63804 -1.51679
0.300815 -4.64304 -1.51879
0.314815 -4.63104 -1.51479
0.329815 -4.63104 -1.51579
0.344815 -4.64404 -1.51979
0.351815 -4.63504 -1.51779
0.365815 -4.63204 -1.51679
0.380815 -4.63904 -1.51979
0.396815 -4.64304 -1.52179
0.408815 -4.62304 -1.51479
0.424815 -4.63704 -1.51979
0.439815 -4.63404 -1.51979
0.444815 -4.61804 -1.51379
0.460815 -4.62604 -1.51779
0.475815 -4.63004 -1.51979
0.489815 -4.62104 -1.51679
0.506815 -4.64004 -1.52379
0.520815 -4.63804 -1.52379
0.534815 -4.62704 -1.52079
0.542815 -4.63204 -1.52279
0.556815 -4.62504 -1.52079
0.570815 -4.62504 -1.52179
0.586815 -4.63304 -1.52479
0.599815 -4.62104 -1.52179
0.614815 -4.62304 -1.52279
0.630815 -4.62904 -1.52579
0.636815 -4.62204 -1.52379
0.666815 -4.62004 -1.52379
0.681815 -4.62104 -1.52579
0.710815 -4.61904 -1.52579
0.726815 -4.62404 -1.52879
0.748815 -4.62304 -1.52979
0.777815 -4.61604 -1.52879
0.792815 -4.61904 -1.53079
0.822815 -4.61904 -1.53279
0.833815 -4.63904 -1.53979
0.848815 -4.63604 -1.53979
0.873815 -4.61004 -1.53279
0.887815 -4.60704 -1.53279
0.906815 -4.62704 -1.54079
0.299815 -4.55504 -1.52579
0.334815 -4.54304 -1.52279
0.350815 -4.57204 -1.53279
0.363815 -4.55604 -1.52779
0.401815 -4.57204 -1.53479
0.442815 -4.54504 -1.52679
0.457815 -4.55704 -1.53079
0.0508149 -4.42504 -1.51879
0.274815 -4.43204 -1.52379
0.0198149 -4.31304 -1.52579
0.0478149 -4.31204 -1.52579
0.0608149 -4.31604 -1.52679
0.0878149 -4.31704 -1.52779
0.0948149 -4.32804 -1.53179
0.108815 -4.31904 -1.52879
0.121815 -4.31704 -1.52779
0.135815 -4.32204 -1.52979
0.176815 -4.32604 -1.53179
0.183815 -4.32404 -1.53179
0.196815 -4.32304 -1.53179
0.210815 -4.32604 -1.53279
0.223815 -4.32604 -1.53279
0.251815 -4.32604 -1.53379
0.285815 -4.32804 -1.53479
0.312815 -4.32404 -1.53379
0.326815 -4.32804 -1.53679
0.347815 -4.33404 -1.53879
0.362815 -4.35204 -1.54679
0.388815 -4.33804 -1.54179
0.506815 -4.34104 -1.54779
0.539815 -4.33304 -1.54679
0.553815 -4.32804 -1.54479
0.567815 -4.33004 -1.54679
0.581815 -4.33404 -1.54879
0.597815 -4.35204 -1.55579
0.612815 -4.35804 -1.55879
0.00581495 -4.23604 -1.54179
0.0188149 -4.21704 -1.53479
0.0318149 -4.23204 -1.54079
0.0388149 -4.22404 -1.53779
0.0518149 -4.23204 -1.54079
0.0648149 -4.21704 -1.53479
0.078815 -4.23704 -1.54279
0.091815 -4.22204 -1.53679
0.104815 -4.22904 -1.53979
0.118815 -4.24204 -1.54479
0.131815 -4.23204 -1.54079
0.138815 -4.25004 -1.54879
0.151815 -4.23504 -1.54279
0.164815 -4.22704 -1.53979
0.177815 -4.23004 -1.54079
0.191815 -4.23004 -1.54079
0.204815 -4.23104 -1.54179
0.218815 -4.24104 -1.54579
0.224815 -4.23304 -1.54279
0.252815 -4.24904 -1.54979
0.264815 -4.23304 -1.54379
0.278815 -4.23204 -1.54379
0.291815 -4.23704 -1.54579
0.305815 -4.24304 -1.54879
0.312815 -4.24304 -1.54879
0.325815 -4.24604 -1.55079
0.340815 -4.25404 -1.55379
0.353815 -4.24904 -1.55279
0.367815 -4.26104 -1.55779
0.380815 -4.25204 -1.55479
0.392815 -4.24004 -1.55079
0.400815 -4.25204 -1.55579
0.413815 -4.24704 -1.55379
0.426815 -4.24604 -1.55379
0.440815 -4.24504 -1.55379
0.455815 -4.25604 -1.55879
0.466815 -4.23804 -1.55279
0.482815 -4.26104 -1.56179
0.485815 -4.23204 -1.55079
0.500815 -4.24204 -1.55579
0.515815 -4.25104 -1.55979
0.529815 -4.25904 -1.56379
0.540815 -4.23304 -1.55379
0.555815 -4.24404 -1.55879
0.568815 -4.24104 -1.55879
0.576815 -4.24904 -1.56179
0.588815 -4.24004 -1.55879
0.604815 -4.25404 -1.56579
0.616815 -4.24504 -1.56279
0.632815 -4.26204 -1.56979
0.645815 -4.25804 -1.56979
0.656815 -4.24104 -1.56379
0.665815 -4.25504 -1.56979
0.678815 -4.24704 -1.56679
0.704815 -4.24104 -1.56679
0.717815 -4.23504 -1.56479
0.729815 -4.22704 -1.56279
0.819815 -4.23004 -1.56979
0.834815 -4.23804 -1.57479
0.844815 -4.25104 -1.58079
0.867815 -4.22804 -1.57279
0.880815 -4.22304 -1.57279
0.892815 -4.21504 -1.56979
0.00881495 -4.11204 -1.54479
0.0148149 -4.10904 -1.54379
0.0278149 -4.12004 -1.54779
0.0408149 -4.12104 -1.54879
0.0538149 -4.11204 -1.54479
0.066815 -4.11704 -1.54779
0.0798149 -4.12304 -1.54979
0.092815 -4.13004 -1.55279
0.0988149 -4.11904 -1.54779
0.111815 -4.12204 -1.54979
0.124815 -4.12204 -1.54979
0.137815 -4.12704 -1.55179
0.150815 -4.13004 -1.55379
0.164815 -4.13304 -1.55479
0.183815 -4.14204 -1.55879
0.197815 -4.15204 -1.56279
0.222815 -4.13204 -1.55579
0.249815 -4.14904 -1.56279
0.261815 -4.12804 -1.55479
0.267815 -4.12204 -1.55279
0.280815 -4.12104 -1.55279
0.294815 -4.13204 -1.55679
0.307815 -4.13804 -1.55979
0.321815 -4.15404 -1.56679
0.334815 -4.14904 -1.56579
0.347815 -4.14804 -1.56579
0.354815 -4.15104 -1.56679
0.367815 -4.14804 -1.56579
0.381815 -4.15804 -1.57079
0.421815 -4.16004 -1.57279
0.433815 -4.15304 -1.57079
0.438815 -4.13204 -1.56279
0.451815 -4.13004 -1.56279
0.463815 -4.12704 -1.56179
0.478815 -4.14204 -1.56879
0.492815 -4.14804 -1.57179
0.00781495 -4.01804 -1.54879
0.0328149 -4.03304 -1.55479
0.0528149 -4.03804 -1.55679
0.0648149 -4.03404 -1.55579
0.077815 -4.03004 -1.55379
0.102815 -4.03504 -1.55579
0.127815 -4.02504 -1.55279
0.160815 -4.03904 -1.55879
0.172815 -4.03804 -1.55879
0.185815 -4.03404 -1.55679
0.198815 -4.04104 -1.55979
0.210815 -4.04004 -1.55979
0.217815 -4.04704 -1.56279
0.229815 -4.03504 -1.55879
0.242815 -4.03304 -1.55779
0.255815 -4.04504 -1.56279
0.268815 -4.03704 -1.55979
0.280815 -4.03604 -1.55979
0.293815 -4.04004 -1.56179
0.313815 -4.04304 -1.56379
0.326815 -4.04904 -1.56679
0.339815 -4.05204 -1.56879
0.351815 -4.04504 -1.56579
0.364815 -4.04004 -1.56479
0.376815 -4.03904 -1.56479
0.383815 -4.04004 -1.56579
0.396815 -4.04304 -1.56679
0.409815 -4.04204 -1.56679
0.423815 -4.05304 -1.57179
0.435815 -4.04604 -1.56979
0.448815 -4.04804 -1.57179
0.460815 -4.04004 -1.56879
0.467815 -4.04604 -1.57179
0.481815 -4.05004 -1.57379
0.492815 -4.03804 -1.56879
0.506815 -4.05104 -1.57479
0.520815 -4.05304 -1.57679
0.531815 -4.04404 -1.57379
0.594815 -4.06904 -1.58779
0.619815 -4.06304 -1.58679
0.633815 -4.03304 -1.57479
0.662815 -4.04904 -1.58379
0.674815 -4.04004 -1.58079
0.686815 -4.03704 -1.58079
0.750815 -4.06004 -1.59479
0.762815 -4.05804 -1.59479
0.774815 -4.05004 -1.59179
0.786815 -4.04204 -1.58979
0.797815 -4.03204 -1.58679
0.879815 -4.01704 -1.58779
0.00781495 -3.95204 -1.55579
0.063815 -3.95704 -1.55779
0.0758149 -3.96604 -1.56179
0.088815 -3.98804 -1.57079
0.132815 -3.98104 -1.56879
0.144815 -3.97204 -1.56479
0.157815 -3.97504 -1.56679
0.169815 -3.96904 -1.56379
0.181815 -3.96804 -1.56379
0.188815 -3.97504 -1.56679
0.270815 -3.99304 -1.57679
0.283815 -3.99704 -1.57879
0.295815 -3.97804 -1.57079
0.307815 -3.98104 -1.57279
0.320815 -3.98304 -1.57379
0.332815 -3.97904 -1.57279
0.352815 -3.98304 -1.57479
0.363815 -3.96704 -1.56879
0.378815 -3.99904 -1.58279
0.388815 -3.97004 -1.57079
0.403815 -3.98904 -1.57979
0.415815 -3.98404 -1.57779
0.427815 -3.98104 -1.57779
0.434815 -3.98404 -1.57879
0.445815 -3.97304 -1.57479
0.459815 -3.98504 -1.58079
0.462815 -3.90304 -1.58479
0.542815 -3.89604 -1.58579
0.556815 -3.90504 -1.59079
0.566815 -3.89104 -1.58479
0.579815 -3.88904 -1.58479
0.611815 -3.89704 -1.59079
0.625815 -3.90204 -1.59379
0.756815 -3.89204 -1.59979
0.761815 -3.88704 -1.59779
0.00581495 -3.78604 -1.57379
0.0178149 -3.78204 -1.57179
0.0298149 -3.78604 -1.57379
0.0418149 -3.78704 -1.57379
0.0538149 -3.78404 -1.57279
0.0768149 -3.79204 -1.57679
0.0828149 -3.78704 -1.57379
0.0948149 -3.78604 -1.57379
0.106815 -3.78804 -1.57479
0.263815 -3.81004 -1.58779
0.298815 -3.80304 -1.58679
0.317815 -3.81104 -1.59079
0.352815 -3.79704 -1.58579
0.377815 -3.80704 -1.59179
0.394815 -3.80204 -1.58979
0.408815 -3.81504 -1.59579
0.419815 -3.80504 -1.59179
0.431815 -3.80504 -1.59279
0.442815 -3.79504 -1.58879
0.455815 -3.80204 -1.59279
0.467815 -3.79904 -1.59179
0.484815 -3.79704 -1.59179
0.498815 -3.81004 -1.59879
0.509815 -3.80104 -1.59579
0.521815 -3.79904 -1.59579
0.566815 -3.81704 -1.60579
0.576815 -3.79904 -1.59879
0.588815 -3.80104 -1.59979
0.601815 -3.80604 -1.60379
0.00781495 -3.71504 -1.58379
0.0188149 -3.72104 -1.58679
0.0308149 -3.72104 -1.58679
0.0368149 -3.71904 -1.58579
0.0488149 -3.71904 -1.58579
0.0598149 -3.72004 -1.58679
0.0718149 -3.72204 -1.58779
0.0838149 -3.72504 -1.58879
0.0948149 -3.72004 -1.58679
0.106815 -3.72704 -1.58979
0.112815 -3.72604 -1.58979
0.124815 -3.73004 -1.59179
0.136815 -3.72404 -1.58879
0.147815 -3.72004 -1.58779
0.159815 -3.72504 -1.58979
0.171815 -3.72204 -1.58879
0.183815 -3.72704 -1.59179
0.188815 -3.72004 -1.58879
0.200815 -3.72504 -1.59079
0.213815 -3.74204 -1.59879
0.224815 -3.73204 -1.59479
0.235815 -3.71704 -1.58879
0.247815 -3.71804 -1.58879
0.259815 -3.72104 -1.59079
0.265815 -3.73104 -1.59579
0.276815 -3.71604 -1.58879
0.288815 -3.71904 -1.59079
0.300815 -3.72904 -1.59579
0.312815 -3.72204 -1.59379
0.324815 -3.72904 -1.59679
0.335815 -3.72004 -1.59379
0.342815 -3.73404 -1.59979
0.354815 -3.73004 -1.59879
0.366815 -3.73404 -1.60079
0.388815 -3.72104 -1.59579
0.401815 -3.73004 -1.60079
0.414815 -3.74004 -1.60579
0.570815 -3.73904 -1.61479
0.588815 -3.74004 -1.61679
0.597815 -3.72604 -1.61079
0.607815 -3.71304 -1.60579
0.620815 -3.71704 -1.60779
0.631815 -3.71304 -1.60779
0.644815 -3.71404 -1.60879
0.650815 -3.71504 -1.60979
0.660815 -3.70604 -1.60679
0.673815 -3.71104 -1.60979
0.684815 -3.70704 -1.60879
0.720815 -3.70204 -1.60979
0.749815 -3.69704 -1.60979
0.762815 -3.70304 -1.61379
0.791815 -3.72304 -1.62579
0.797815 -3.69604 -1.61379
0.803815 -3.69404 -1.61379
0.815815 -3.69504 -1.61579
0.155815 -3.66104 -1.59979
0.161815 -3.67004 -1.60379
0.172815 -3.64804 -1.59379
0.184815 -3.65104 -1.59579
0.196815 -3.66004 -1.59979
0.207815 -3.65304 -1.59679
0.219815 -3.66404 -1.60179
0.231815 -3.67204 -1.60679
0.236815 -3.66104 -1.60179
0.247815 -3.65804 -1.60079
0.260815 -3.67204 -1.60679
0.312815 -3.66804 -1.60679
0.335815 -3.67304 -1.61079
0.358815 -3.66904 -1.60979
0.370815 -3.66804 -1.60979
0.382815 -3.67004 -1.61179
0.399815 -3.66804 -1.61179
0.410815 -3.66404 -1.60979
0.434815 -3.67204 -1.61479
0.444815 -3.65604 -1.60779
0.458815 -3.67104 -1.61579
0.462815 -3.65604 -1.60879
0.476815 -3.67404 -1.61779
0.486815 -3.66504 -1.61479
0.498815 -3.66904 -1.61779
0.508815 -3.65504 -1.61179
0.521815 -3.66004 -1.61479
20.4858 -2.85704 0.902207
21.7338 -2.88204 0.804207
22.2938 -2.88604 0.819207
14.1318 -2.80804 0.529207
18.6438 -2.85104 0.631207
19.0368 -2.84904 0.640207
22.4428 -2.88704 0.717207
16.7518 -2.83004 0.459207
19.3198 -2.86404 0.498207
19.7608 -2.86604 0.504207
20.2308 -2.87004 0.512207
20.7648 -2.88004 0.520207
21.7398 -2.87704 0.534207
13.9328 -2.81804 0.344207
14.1538 -2.81604 0.346207
15.6408 -2.82904 0.361207
15.9258 -2.82804 0.364207
16.2438 -2.83204 0.367207
16.5628 -2.83304 0.370207
19.0898 -2.86204 0.395207
19.5338 -2.86504 0.400207
20.0098 -2.87004 0.405207
20.5558 -2.88204 0.410207
20.7368 -2.87404 0.412207
13.4918 -2.80904 0.243207
14.3218 -2.82004 0.246207
14.5708 -2.82204 0.247207
14.8028 -2.81904 0.247207
15.0638 -2.82004 0.248207
16.1688 -2.84504 0.252207
16.4828 -2.84804 0.253207
16.7998 -2.84804 0.254207
17.1398 -2.85104 0.255207
17.4738 -2.85104 0.256207
17.8398 -2.85404 0.257207
18.2228 -2.85704 0.258207
13.5398 -2.81104 0.178207
13.7538 -2.81004 0.178207
14.3938 -2.82204 0.177207
14.6388 -2.82204 0.176207
14.8758 -2.81904 0.176207
15.1678 -2.82404 0.176207
16.2798 -2.84504 0.174207
16.5828 -2.84304 0.173207
16.9208 -2.84604 0.173207
17.2458 -2.84504 0.172207
17.5878 -2.84404 0.172207
17.9588 -2.84504 0.171207
18.3568 -2.84904 0.171207
19.0978 -2.87104 0.170207
19.5008 -2.86804 0.169207
19.9968 -2.87604 0.168207
14.7748 -2.81904 0.0802066
15.0428 -2.82204 0.0782066
16.4408 -2.84704 0.0672066
16.7628 -2.84904 0.0652066
17.0958 -2.85004 0.0622066
17.4338 -2.85104 0.0602066
17.7788 -2.85104 0.0572066
18.1708 -2.85604 0.0542066
18.5388 -2.85404 0.0512066
19.2678 -2.87504 0.0452066
19.7228 -2.88004 0.0422066
22.2658 -2.89804 0.0222066
13.4398 -2.81204 0.00620656
13.6508 -2.81004 0.00320656
14.8048 -2.82804 -0.0127934
15.0788 -2.83104 -0.0157934
15.3338 -2.82904 -0.0197934
15.5988 -2.82704 -0.0237934
17.5338 -2.86204 -0.0497934
17.8868 -2.86204 -0.0547934
18.2668 -2.86304 -0.0607934
18.6578 -2.86404 -0.0657934
20.7248 -2.87904 -0.0947934
21.2548 -2.88404 -0.101793
22.4708 -2.90404 -0.118793
23.0738 -2.90704 -0.126793
13.4628 -2.80904 -0.0897934
13.8778 -2.82804 -0.0987934
14.1018 -2.82804 -0.102793
14.3248 -2.82604 -0.107793
14.5708 -2.82804 -0.112793
14.8088 -2.82604 -0.117793
15.0768 -2.82904 -0.123793
15.3438 -2.82904 -0.128793
16.1768 -2.85304 -0.145793
16.4848 -2.85404 -0.152793
16.8128 -2.85704 -0.158793
17.1508 -2.86004 -0.165793
17.4758 -2.85804 -0.172793
13.8628 -2.83204 -0.170793
14.3378 -2.83404 -0.182793
14.5858 -2.83604 -0.189793
14.8248 -2.83304 -0.195793
21.0298 -2.88904 -0.355793
13.4238 -2.82104 -0.241793
13.6398 -2.82304 -0.247793
14.5138 -2.83904 -0.275793
14.7488 -2.83704 -0.282793
15.0198 -2.84104 -0.291793
15.2748 -2.84004 -0.299793
20.7068 -2.89104 -0.471793
13.6688 -2.83204 -0.340793
13.8868 -2.83204 -0.348793
15.6198 -2.85104 -0.414793
20.9378 -2.90104 -0.617793
19.5698 -2.89304 -1.02779
20.0198 -2.89504 -1.05579
20.4478 -2.89104 -1.08179
22.4338 -2.91804 -1.20379
23.0098 -2.91904 -1.23879
23.6148 -2.91904 -1.27579
24.2738 -2.92304 -1.31679
15.4298 -2.85404 -0.884793
15.6248 -2.84004 -0.897793
16.1138 -2.85104 -0.930793
16.4078 -2.85004 -0.950793
16.7228 -2.85204 -0.971793
18.4898 -2.88704 -1.09179
20.2308 -2.90204 -1.21079
20.7188 -2.90604 -1.24379
14.1978 -2.84304 -0.871793
14.3788 -2.83204 -0.884793
14.5458 -2.84104 -0.897793
14.7568 -2.83404 -0.912793
16.4428 -2.86104 -1.03479
16.7798 -2.86504 -1.05979
17.1308 -2.86904 -1.08479
17.4888 -2.87204 -1.11179
18.2508 -2.87804 -1.16679
18.6188 -2.87604 -1.19379
16.9738 -2.87304 -1.18679
17.3288 -2.87804 -1.21479
18.4478 -2.88704 -1.30379
18.8508 -2.89004 -1.33579
17.3188 -2.88004 -1.31479
18.4658 -2.89104 -1.41279
12.5258 -2.81504 -0.985793
15.6608 -2.86004 -1.26879
15.9638 -2.86404 -1.29679
16.2648 -2.86604 -1.32379
17.2708 -2.87704 -1.41479
15.1218 -2.85204 -1.31779
16.0088 -2.86204 -1.40379
12.5048 -2.82104 -1.14479
12.7298 -2.83004 -1.16779
13.8728 -2.83604 -1.28479
14.0928 -2.83504 -1.30679
14.3448 -2.83904 -1.33279
14.5978 -2.84204 -1.35879
15.1118 -2.84504 -1.41179
11.3498 -2.80604 -1.10379
11.5068 -2.82504 -1.12079
11.6478 -2.82004 -1.13579
11.8438 -2.82804 -1.15779
11.9668 -2.81704 -1.17079
12.1268 -2.81404 -1.18779
12.6748 -2.83604 -1.24779
12.8468 -2.83104 -1.26579
14.3238 -2.84904 -1.42679
9.40681 -2.80104 -0.955793
10.2938 -2.80604 -1.05579
10.4168 -2.80504 -1.06979
10.5338 -2.80104 -1.08279
10.6828 -2.80504 -1.09979
10.7848 -2.81404 -1.11179
10.9378 -2.81704 -1.12879
11.0778 -2.81704 -1.14479
11.2348 -2.81904 -1.16279
11.3708 -2.81604 -1.17879
11.5138 -2.81304 -1.19479
11.6698 -2.81304 -1.21179
11.9768 -2.82804 -1.24779
12.1598 -2.83104 -1.26879
12.3308 -2.83104 -1.28779
12.5118 -2.83104 -1.30879
12.7088 -2.83404 -1.33179
12.9758 -2.83004 -1.36179
13.1578 -2.82704 -1.38279
13.6048 -2.83504 -1.43379
5.27181 -2.74604 -0.537793
5.35081 -2.74504 -0.545793
5.40381 -2.75004 -0.551793
5.44081 -2.74704 -0.555793
5.52681 -2.75804 -0.565793
5.55682 -2.75104 -0.568793
8.75881 -2.79604 -0.936793
9.64081 -2.79404 -1.03979
9.75482 -2.79404 -1.05379
9.86281 -2.80804 -1.06679
9.97482 -2.80504 -1.07979
10.1168 -2.81104 -1.09679
10.2408 -2.81004 -1.11179
10.3668 -2.80904 -1.12579
10.4808 -2.80504 -1.13979
10.6178 -2.80604 -1.15579
10.7338 -2.81804 -1.16979
10.9938 -2.81204 -1.20079
11.1758 -2.82104 -1.22279
11.3358 -2.82204 -1.24179
11.4748 -2.81904 -1.25779
11.6288 -2.81704 -1.27679
12.2998 -2.83604 -1.35679
12.4768 -2.83504 -1.37879
12.6858 -2.84004 -1.40379
12.9258 -2.82904 -1.43179
8.12282 -2.78704 -0.905793
8.14182 -2.78004 -0.907793
9.42482 -2.79704 -1.06479
9.52882 -2.79604 -1.07779
9.64581 -2.79804 -1.09179
9.75982 -2.79804 -1.10579
9.86782 -2.79604 -1.11979
9.99881 -2.79904 -1.13579
10.1218 -2.80004 -1.15079
10.2318 -2.81304 -1.16479
10.3468 -2.81004 -1.17879
10.4648 -2.80704 -1.19379
10.5948 -2.80704 -1.20979
10.7238 -2.80504 -1.22579
10.8678 -2.80704 -1.24279
11.0128 -2.80804 -1.26079
11.1518 -2.82504 -1.27879
11.3088 -2.82704 -1.29879
11.4558 -2.82604 -1.31679
11.6058 -2.82404 -1.33479
11.7668 -2.82504 -1.35479
5.38381 -2.75104 -0.623793
5.42582 -2.76104 -0.628793
5.45381 -2.75404 -0.631793
5.50281 -2.75704 -0.637793
5.54681 -2.75704 -0.643793
7.57481 -2.78204 -0.895793
8.23481 -2.78904 -0.980793
8.59381 -2.79004 -1.02679
8.69281 -2.79104 -1.03879
8.80381 -2.79604 -1.05379
8.97381 -2.80304 -1.07579
9.06981 -2.80204 -1.08779
9.16782 -2.80004 -1.10079
9.27382 -2.80004 -1.11379
9.38282 -2.80104 -1.12879
9.46982 -2.79404 -1.13979
9.80781 -2.81004 -1.18379
9.92782 -2.81004 -1.19879
10.0568 -2.81204 -1.21579
10.1758 -2.81104 -1.23179
10.3078 -2.81204 -1.24879
10.6748 -2.82104 -1.29679
10.9608 -2.82304 -1.33379
11.0998 -2.82104 -1.35279
11.2358 -2.81804 -1.36979
11.4088 -2.82304 -1.39279
5.33282 -2.76104 -0.658793
5.36082 -2.75504 -0.661793
5.40781 -2.75804 -0.667793
5.45182 -2.75904 -0.673793
5.49581 -2.75904 -0.678793
5.53782 -2.75904 -0.684793
7.04081 -2.78404 -0.880793
7.06781 -2.77004 -0.882793
7.12681 -2.76704 -0.890793
7.98181 -2.78804 -1.00579
8.07281 -2.79204 -1.01779
8.13781 -2.78604 -1.02579
8.22882 -2.78904 -1.03879
8.54782 -2.79404 -1.08179
8.83482 -2.79604 -1.12079
8.92982 -2.79604 -1.13279
9.03481 -2.79804 -1.14779
9.21082 -2.80504 -1.17179
9.30482 -2.80204 -1.18379
9.42982 -2.80804 -1.20179
9.54082 -2.80904 -1.21679
9.65082 -2.80804 -1.23179
9.76381 -2.80804 -1.24679
9.86382 -2.80404 -1.25979
10.6008 -2.81804 -1.36179
10.7368 -2.81804 -1.37979
5.32182 -2.75704 -0.683793
5.38181 -2.76604 -0.692793
5.39282 -2.75004 -0.692793
5.45982 -2.76204 -0.702793
5.49981 -2.76104 -0.707793
5.52781 -2.76404 -0.711793
6.64681 -2.77504 -0.860793
7.38582 -2.78504 -0.961793
7.46181 -2.78704 -0.971793
7.52382 -2.78304 -0.980793
7.61281 -2.78804 -0.992793
7.67582 -2.78404 -1.00079
7.88781 -2.79004 -1.03079
7.97082 -2.79104 -1.04279
8.05482 -2.79204 -1.05379
8.13081 -2.79004 -1.06479
8.21681 -2.79004 -1.07579
8.30781 -2.79204 -1.08879
8.39882 -2.79304 -1.10179
8.46782 -2.78604 -1.11079
8.65281 -2.80104 -1.13679
8.73081 -2.79604 -1.14779
8.83782 -2.79904 -1.16279
8.93581 -2.79904 -1.17679
9.01482 -2.79204 -1.18679
9.11382 -2.79204 -1.20079
9.19582 -2.80104 -1.21279
9.32082 -2.80604 -1.23079
9.42982 -2.80704 -1.24579
9.53582 -2.80504 -1.26079
9.64682 -2.80504 -1.27579
9.75282 -2.80204 -1.29079
9.86481 -2.80004 -1.30679
9.96082 -2.81004 -1.32079
10.1028 -2.81604 -1.34079
10.3498 -2.81404 -1.37579
10.4928 -2.81704 -1.39579
10.5988 -2.81004 -1.41079
10.7548 -2.81504 -1.43279
5.39081 -2.75604 -0.736793
5.42281 -2.76204 -0.741793
5.46881 -2.76404 -0.747793
5.50382 -2.76004 -0.752793
5.54581 -2.76004 -0.757793
6.17281 -2.76604 -0.845793
6.65881 -2.76204 -0.913793
6.72381 -2.76504 -0.922793
6.81681 -2.77804 -0.936793
6.88981 -2.78304 -0.947793
6.93182 -2.77404 -0.952793
7.59682 -2.78304 -1.04879
7.65281 -2.79004 -1.05679
7.72481 -2.78904 -1.06779
7.80981 -2.79204 -1.07979
7.88582 -2.79204 -1.09079
7.97282 -2.79504 -1.10379
8.04681 -2.79304 -1.11379
8.12681 -2.79204 -1.12579
8.25181 -2.79204 -1.14379
8.34282 -2.79404 -1.15679
8.40981 -2.78704 -1.16679
8.51381 -2.79204 -1.18179
8.62082 -2.79804 -1.19779
8.71782 -2.79904 -1.21179
9.18182 -2.80704 -1.27979
9.27182 -2.80304 -1.29279
9.38282 -2.80504 -1.30979
9.90981 -2.81204 -1.38779
10.0418 -2.81504 -1.40679
