1.57273 -4.62198 -0.317143
3.90573 -4.36998 -0.420144
4.28273 -4.32098 -0.443144
4.44173 -4.30198 -0.453144
4.54373 -4.29298 -0.460144
4.75473 -4.27198 -0.475144
5.16773 -4.22098 -0.504143
5.25473 -4.21098 -0.511144
5.33173 -4.20398 -0.517143
5.50473 -4.18898 -0.530143
5.59473 -4.17498 -0.536143
5.67973 -4.16998 -0.543144
5.73873 -4.15798 -0.547143
5.78073 -4.16098 -0.551143
5.97173 -4.14498 -0.567143
6.03573 -4.13298 -0.571144
6.05973 -4.12198 -0.573143
6.09873 -4.12098 -0.576144
6.11373 -4.11698 -0.577143
6.23873 -4.11598 -0.588143
6.25773 -4.10098 -0.589143
6.30373 -4.10298 -0.593143
6.38673 -4.08598 -0.599144
6.43973 -4.09198 -0.604144
6.46573 -4.07998 -0.606143
6.50573 -4.07698 -0.609143
6.57973 -4.06598 -0.615143
6.60273 -4.06598 -0.617144
6.65273 -4.06898 -0.622144
6.67573 -4.05398 -0.623143
6.71973 -4.05098 -0.627144
6.80073 -4.04298 -0.634143
6.81573 -4.03698 -0.635143
6.87473 -4.04298 -0.640144
6.90473 -4.03198 -0.642143
6.95673 -4.03298 -0.647143
7.03573 -4.01998 -0.654144
7.11073 -4.01898 -0.660143
7.14273 -4.00798 -0.663143
7.19173 -4.00598 -0.667143
7.27773 -3.99398 -0.674143
7.36173 -3.98098 -0.681143
7.38773 -3.97998 -0.684143
7.43673 -3.97598 -0.688143
7.52473 -3.96298 -0.696144
7.61873 -3.95098 -0.704143
7.70073 -3.94798 -0.711143
7.79773 -3.93698 -0.720143
7.83373 -3.92398 -0.722143
7.88473 -3.91898 -0.727143
0.04273 -4.80598 -0.341144
0.07273 -4.79998 -0.341144
0.09573 -4.79498 -0.340144
0.12573 -4.78698 -0.339144
0.14073 -4.79598 -0.340144
0.15573 -4.79198 -0.340144
0.17773 -4.78498 -0.339144
0.19273 -4.78798 -0.340144
0.20773 -4.77798 -0.339144
0.26773 -4.77698 -0.339144
0.28973 -4.77098 -0.338144
0.32073 -4.77598 -0.339144
0.35073 -4.77098 -0.339144
0.37273 -4.76598 -0.338144
0.40173 -4.75898 -0.338144
0.43173 -4.75498 -0.338144
0.46173 -4.75798 -0.338144
0.46973 -4.75898 -0.339144
0.48473 -4.75598 -0.338144
0.49873 -4.74998 -0.338144
0.51373 -4.74498 -0.337144
0.52973 -4.75298 -0.339144
0.54373 -4.74498 -0.338144
0.56673 -4.74898 -0.339144
0.59673 -4.74498 -0.339144
0.62673 -4.73898 -0.338144
0.64073 -4.73698 -0.338144
0.64873 -4.73598 -0.338144
0.66373 -4.73598 -0.339144
0.76173 -4.72698 -0.339144
0.79073 -4.71998 -0.339144
1.06973 -4.69398 -0.342144
1.26773 -4.67098 -0.345144
1.29673 -4.66298 -0.345144
1.32073 -4.66198 -0.346144
1.38273 -4.65898 -0.347144
1.41173 -4.64798 -0.347144
1.43673 -4.65098 -0.348144
1.49673 -4.63798 -0.349144
1.52273 -4.64198 -0.350144
1.54973 -4.62898 -0.350144
1.58273 -4.62798 -0.351144
1.65273 -4.62098 -0.352144
1.68473 -4.61798 -0.353144
1.71573 -4.61098 -0.354144
1.74273 -4.61698 -0.356144
1.79073 -4.61198 -0.357144
1.83173 -4.60998 -0.358144
1.86273 -4.60398 -0.359144
1.89573 -4.60198 -0.360144
1.95273 -4.59498 -0.362144
1.96973 -4.59498 -0.363144
2.00073 -4.58798 -0.363144
2.09273 -4.58098 -0.367144
2.12373 -4.57098 -0.367144
2.45873 -4.54098 -0.381144
2.55973 -4.52098 -0.384144
3.75873 -4.38298 -0.449144
7.95973 -3.92598 -0.793144
0.07173 -4.80298 -0.371144
0.08673 -4.79998 -0.370144
0.16873 -4.79198 -0.370144
0.39373 -4.76698 -0.368144
0.44573 -4.75998 -0.368144
1.14173 -4.67798 -0.372144
1.18173 -4.67998 -0.373144
1.19673 -4.67798 -0.374144
1.22673 -4.67498 -0.374144
1.32473 -4.65798 -0.375144
1.39273 -4.64698 -0.376144
1.40973 -4.64798 -0.377144
1.44273 -4.65198 -0.379144
1.48073 -4.64598 -0.379144
1.52573 -4.63598 -0.380144
1.54273 -4.63898 -0.381144
1.57273 -4.63098 -0.381144
1.61373 -4.63198 -0.383144
1.62873 -4.62998 -0.383144
1.64273 -4.62298 -0.383144
1.65973 -4.62498 -0.384144
1.67373 -4.61598 -0.383144
1.68373 -4.62298 -0.384144
1.69673 -4.61198 -0.384144
1.71473 -4.61598 -0.385144
1.73173 -4.61798 -0.386144
1.74773 -4.61698 -0.386144
1.76173 -4.61098 -0.386144
1.78673 -4.61198 -0.387144
1.80173 -4.60598 -0.387144
1.83473 -4.60398 -0.389144
1.84973 -4.60198 -0.389144
1.86773 -4.60398 -0.390144
1.87373 -4.59898 -0.390144
1.88973 -4.59698 -0.390144
1.92473 -4.59898 -0.392144
1.94073 -4.59698 -0.393144
1.95673 -4.59398 -0.393144
1.98173 -4.59198 -0.394144
2.02973 -4.58498 -0.395144
2.04673 -4.58398 -0.396144
2.07973 -4.58198 -0.397144
2.17073 -4.56998 -0.401144
2.18773 -4.56898 -0.401144
2.21273 -4.56498 -0.402144
2.24573 -4.55998 -0.403144
2.25873 -4.55198 -0.403144
2.29573 -4.55298 -0.405144
2.32273 -4.55498 -0.407144
2.38973 -4.54298 -0.409144
2.39873 -4.54398 -0.410144
2.43073 -4.53398 -0.411144
2.44973 -4.53598 -0.412144
2.46873 -4.53798 -0.413144
2.48573 -4.53398 -0.414144
2.50273 -4.53098 -0.414144
2.51173 -4.53098 -0.415144
2.52773 -4.52698 -0.415144
2.54473 -4.52398 -0.416144
3.31173 -4.43898 -0.457144
3.33273 -4.43798 -0.458144
3.35773 -4.42898 -0.459144
3.42373 -4.42898 -0.464144
3.44573 -4.42898 -0.465144
3.58073 -4.41298 -0.474144
3.60273 -4.41298 -0.475144
3.61273 -4.40998 -0.476144
3.65173 -4.40098 -0.478144
4.31573 -4.33298 -0.524143
4.53973 -4.30798 -0.541143
4.63773 -4.29198 -0.548144
4.88073 -4.26798 -0.567143
4.93773 -4.26298 -0.572143
4.96473 -4.25898 -0.574143
5.00573 -4.25398 -0.577143
5.09273 -4.24598 -0.585144
5.11673 -4.23898 -0.586143
5.16373 -4.23798 -0.590144
5.19373 -4.23498 -0.593143
5.24573 -4.22298 -0.597143
5.27373 -4.21898 -0.599144
5.33473 -4.21298 -0.604144
5.40673 -4.20098 -0.610143
5.43873 -4.19898 -0.613144
5.47673 -4.20098 -0.616143
5.49673 -4.18898 -0.617144
5.52973 -4.18698 -0.620143
5.58573 -4.18898 -0.626143
5.61673 -4.18398 -0.628143
5.67773 -4.17498 -0.633143
5.71473 -4.17498 -0.637143
5.74573 -4.16998 -0.639143
5.76173 -4.16798 -0.641144
5.79773 -4.16598 -0.644143
5.83173 -4.16298 -0.647143
5.86373 -4.15798 -0.650144
5.89173 -4.14998 -0.652143
5.93273 -4.15098 -0.656143
5.94673 -4.14698 -0.657143
5.98573 -4.14698 -0.661143
6.04773 -4.13398 -0.666143
6.08573 -4.13198 -0.669143
6.12273 -4.12898 -0.673144
6.15073 -4.11998 -0.675143
6.24873 -4.11598 -0.684143
6.28573 -4.11098 -0.688143
6.32473 -4.10898 -0.691144
6.35273 -4.09898 -0.693143
6.39173 -4.09598 -0.697143
6.45173 -4.09198 -0.703143
6.48673 -4.08498 -0.706143
6.52773 -4.08298 -0.710144
6.56373 -4.07698 -0.713143
6.60073 -4.07098 -0.716143
6.63673 -4.06498 -0.719144
6.69973 -4.05998 -0.725143
6.74173 -4.05698 -0.729144
6.78173 -4.05198 -0.733144
6.81973 -4.04598 -0.737143
6.85273 -4.03698 -0.739143
6.89173 -4.02998 -0.743143
6.97573 -4.03598 -0.752144
7.00873 -4.02598 -0.755143
7.05573 -4.02298 -0.759143
7.09073 -4.01398 -0.762143
7.13773 -4.01098 -0.767143
7.18173 -4.00598 -0.771143
7.25473 -4.00198 -0.778143
7.29773 -3.99698 -0.782143
7.33373 -3.98598 -0.785143
7.37373 -3.97898 -0.789144
7.42273 -3.97498 -0.794143
7.45873 -3.97898 -0.798144
7.49973 -3.97098 -0.802144
7.54373 -3.96398 -0.806143
7.59473 -3.96098 -0.811143
7.63173 -3.94998 -0.814143
7.67973 -3.94398 -0.819143
7.72473 -3.93698 -0.823143
7.76273 -3.94098 -0.828143
7.81073 -3.93498 -0.832143
7.95473 -3.91398 -0.846143
0.00772996 -4.79298 -0.422144
0.03773 -4.79798 -0.423144
0.05273 -4.78798 -0.421144
0.07573 -4.78798 -0.421144
0.09073 -4.79198 -0.422144
0.10573 -4.78098 -0.421144
0.12073 -4.78098 -0.421144
0.13573 -4.78698 -0.421144
0.17273 -4.77598 -0.420144
0.18873 -4.78098 -0.421144
0.20273 -4.77398 -0.420144
0.23273 -4.77098 -0.420144
0.24773 -4.76798 -0.420144
0.28473 -4.76398 -0.419144
0.30073 -4.76898 -0.420144
0.31473 -4.75998 -0.419144
0.32973 -4.75498 -0.419144
0.34473 -4.75398 -0.419144
0.35273 -4.76198 -0.420144
0.36773 -4.75698 -0.419144
0.38273 -4.75498 -0.419144
0.39773 -4.75998 -0.420144
0.41273 -4.75898 -0.420144
0.44273 -4.75398 -0.420144
0.44973 -4.75098 -0.419144
0.46373 -4.74398 -0.419144
0.48073 -4.75598 -0.420144
0.49373 -4.73698 -0.418144
0.50873 -4.74098 -0.419144
0.52373 -4.74398 -0.419144
0.53873 -4.73598 -0.419144
0.54573 -4.73298 -0.418144
0.56073 -4.73798 -0.419144
0.57773 -4.74598 -0.420144
0.59073 -4.72798 -0.418144
0.60473 -4.72398 -0.418144
0.61973 -4.72398 -0.418144
0.64273 -4.72498 -0.419144
0.65673 -4.71898 -0.418144
0.68673 -4.71498 -0.418144
0.70373 -4.72898 -0.420144
0.71673 -4.71298 -0.419144
0.76973 -4.71398 -0.420144
0.81373 -4.70098 -0.419144
0.85373 -4.71198 -0.421144
0.89573 -4.69198 -0.420144
0.91173 -4.69498 -0.421144
0.99373 -4.68598 -0.422144
1.03073 -4.67798 -0.422144
1.34173 -4.64398 -0.427144
2.29773 -4.54798 -0.461144
3.83773 -4.37498 -0.553144
3.97773 -4.35198 -0.563143
3.99873 -4.34798 -0.564143
4.02373 -4.34698 -0.566144
4.08073 -4.33998 -0.571144
4.15273 -4.33398 -0.577143
4.18973 -4.33198 -0.580144
4.20873 -4.32398 -0.581143
4.23273 -4.32298 -0.583143
4.28673 -4.32298 -0.588143
4.30573 -4.31498 -0.589143
4.33473 -4.31698 -0.591143
4.34473 -4.31298 -0.592143
4.39573 -4.30898 -0.596143
4.41873 -4.30498 -0.598143
4.44473 -4.30398 -0.600143
4.47173 -4.30198 -0.603144
4.49173 -4.29498 -0.604144
4.50573 -4.29498 -0.605143
4.52973 -4.28998 -0.607143
4.55673 -4.28898 -0.609143
4.58473 -4.28898 -0.612143
4.67273 -4.27598 -0.619143
4.69773 -4.27198 -0.621143
4.72473 -4.26898 -0.623143
4.75573 -4.26998 -0.626143
4.78373 -4.26798 -0.629143
4.80473 -4.25998 -0.630143
4.82973 -4.25498 -0.632143
4.85373 -4.26398 -0.635143
4.87373 -4.25398 -0.636144
4.92673 -4.24598 -0.641144
4.95673 -4.24498 -0.644143
5.01073 -4.23698 -0.648143
5.02673 -4.23698 -0.650144
5.05773 -4.23598 -0.653143
5.09373 -4.23998 -0.657143
5.11373 -4.22898 -0.658143
5.14073 -4.22398 -0.660143
5.16873 -4.21998 -0.662143
5.19573 -4.22898 -0.666143
5.21773 -4.21998 -0.667143
5.25173 -4.21998 -0.670143
5.27873 -4.21398 -0.673144
5.30373 -4.20798 -0.675143
5.33273 -4.20298 -0.677144
5.35873 -4.19598 -0.679143
5.38673 -4.20498 -0.683143
5.41673 -4.20198 -0.686143
5.44473 -4.19498 -0.688143
5.47973 -4.19498 -0.692143
5.51173 -4.19298 -0.695143
5.53373 -4.18198 -0.696144
5.55973 -4.17498 -0.698143
5.59173 -4.18498 -0.702143
5.62673 -4.18398 -0.706143
5.65673 -4.17798 -0.708143
5.68873 -4.17498 -0.711143
5.71473 -4.16598 -0.713143
5.74673 -4.16198 -0.716143
5.78573 -4.16298 -0.720143
5.80273 -4.16198 -0.722143
5.83673 -4.15798 -0.726143
5.87473 -4.15698 -0.729144
5.90373 -4.14998 -0.732143
5.93473 -4.14398 -0.735143
5.97073 -4.14198 -0.738144
6.00773 -4.13998 -0.742144
6.16273 -4.11998 -0.757143
6.20073 -4.11698 -0.761144
6.23173 -4.10998 -0.764143
6.57373 -4.07498 -0.798144
6.65373 -4.06698 -0.806143
6.79673 -4.05198 -0.821144
6.87273 -4.03998 -0.829143
6.95473 -4.02998 -0.837143
7.15573 -4.01298 -0.858144
7.24173 -4.00198 -0.867144
7.48273 -3.96798 -0.892143
7.51273 -3.95398 -0.895144
7.53873 -3.95298 -0.898143
7.17973 -4.00698 -0.918144
7.19973 -3.98798 -0.919143
2.10273 -4.57398 -0.522143
2.38773 -4.53998 -0.536143
2.54573 -4.52398 -0.545143
3.38373 -4.43398 -0.599144
3.44273 -4.42298 -0.603144
6.62573 -4.05698 -0.910143
6.64773 -4.05598 -0.912143
6.67873 -4.04698 -0.915143
5.51473 -4.19298 -0.822143
6.39073 -4.09298 -0.918144
6.42973 -4.08998 -0.923144
6.45073 -4.07498 -0.924143
5.99473 -4.13398 -0.926143
6.01873 -4.13698 -0.929143
6.04373 -4.12598 -0.931143
3.26473 -4.42398 -0.756144
3.29173 -4.43098 -0.759143
5.00273 -4.24198 -0.924143
5.01973 -4.24298 -0.926143
5.04073 -4.23298 -0.928144
2.58173 -4.50898 -0.759143
3.22773 -4.43098 -0.807144
3.25073 -4.43298 -0.810143
3.27373 -4.43398 -0.812144
4.53973 -4.29698 -0.937144
4.55473 -4.28398 -0.937144
4.57673 -4.27798 -0.939143
4.59473 -4.28098 -0.942143
4.61373 -4.27198 -0.943143
2.62473 -4.49498 -0.807144
2.66073 -4.49198 -0.809143
4.24773 -4.32998 -0.959143
4.26573 -4.32098 -0.960144
4.29473 -4.32298 -0.964143
4.30473 -4.30598 -0.964143
4.33373 -4.30798 -0.967143
4.36273 -4.30998 -0.971143
4.36573 -4.29898 -0.970143
4.39173 -4.29698 -0.973143
4.41673 -4.29398 -0.976143
0.11073 -4.78098 -0.767143
0.13373 -4.78298 -0.768143
0.16373 -4.78198 -0.768143
0.19373 -4.77498 -0.766144
0.22373 -4.76998 -0.766144
0.26073 -4.76998 -0.766144
0.27573 -4.76898 -0.766144
0.30573 -4.76298 -0.765144
0.35773 -4.75598 -0.765144
0.38673 -4.74698 -0.764143
0.42473 -4.75198 -0.765144
0.43973 -4.74898 -0.765144
0.46973 -4.74598 -0.765144
0.48373 -4.73798 -0.764143
0.51373 -4.73898 -0.764143
0.52173 -4.74198 -0.765144
0.56573 -4.73298 -0.764143
0.59573 -4.72398 -0.763143
0.60373 -4.73398 -0.765144
0.63373 -4.72898 -0.765144
0.64773 -4.72298 -0.764143
0.67673 -4.71098 -0.763143
0.70073 -4.72298 -0.766144
0.71473 -4.71498 -0.765144
0.72973 -4.71298 -0.765144
0.75873 -4.70398 -0.764143
0.78973 -4.71098 -0.766144
0.79673 -4.70798 -0.766144
0.81173 -4.70098 -0.765144
0.83973 -4.69198 -0.764143
0.85573 -4.69498 -0.765144
0.87173 -4.69698 -0.766144
0.88573 -4.68998 -0.765144
0.89173 -4.68498 -0.765144
0.90973 -4.69898 -0.768143
0.92273 -4.68298 -0.765144
0.93873 -4.69198 -0.768143
0.95273 -4.68498 -0.767143
0.96973 -4.69098 -0.769143
0.98273 -4.68098 -0.767143
0.99273 -4.69198 -0.770144
1.02073 -4.67798 -0.768143
1.03673 -4.67898 -0.769143
1.05173 -4.67998 -0.770144
1.06573 -4.67098 -0.769143
1.08873 -4.67298 -0.770144
1.10473 -4.67498 -0.771143
1.11973 -4.66998 -0.771143
1.13573 -4.67198 -0.772143
1.14973 -4.66698 -0.772143
1.16673 -4.67298 -0.773143
1.17073 -4.65698 -0.771143
1.20373 -4.66298 -0.773143
1.21773 -4.65998 -0.773143
1.23273 -4.65598 -0.773143
1.26273 -4.65198 -0.774143
1.27173 -4.65498 -0.775144
1.28773 -4.65498 -0.776143
1.30373 -4.65698 -0.777143
1.31673 -4.64698 -0.776143
1.34873 -4.64798 -0.778143
1.36173 -4.63798 -0.777143
1.36973 -4.63998 -0.777143
1.38673 -4.64498 -0.779144
1.40073 -4.63898 -0.779144
1.41873 -4.64498 -0.781143
1.43373 -4.64298 -0.781143
1.44973 -4.63998 -0.782143
1.46473 -4.63898 -0.782143
1.48673 -4.63198 -0.782143
1.51573 -4.62298 -0.782143
1.54973 -4.62798 -0.785143
1.56973 -4.61498 -0.784144
1.60373 -4.61798 -0.787143
1.66673 -4.61298 -0.790143
1.68673 -4.60098 -0.789144
1.75273 -4.60198 -0.793144
1.77873 -4.60398 -0.796143
1.81073 -4.59998 -0.797143
1.82673 -4.59798 -0.798144
1.83973 -4.58898 -0.797143
1.86273 -4.58398 -0.798144
1.88273 -4.59298 -0.801143
1.92673 -4.57698 -0.801143
1.95873 -4.57298 -0.803144
2.00473 -4.57998 -0.807144
2.01673 -4.56998 -0.806143
2.04573 -4.55698 -0.806143
2.06773 -4.56698 -0.810143
2.09273 -4.56598 -0.811143
2.10673 -4.55898 -0.811143
2.13873 -4.55098 -0.813143
2.15973 -4.55998 -0.816144
2.17573 -4.55498 -0.816144
2.18273 -4.55198 -0.816144
2.19673 -4.54498 -0.816144
2.23173 -4.54498 -0.819143
2.24873 -4.54398 -0.820143
2.28173 -4.53798 -0.822143
2.29273 -4.54198 -0.823143
2.32273 -4.53098 -0.824143
2.34473 -4.53898 -0.827143
2.36073 -4.53498 -0.828143
2.37873 -4.53498 -0.830144
2.38873 -4.51898 -0.828143
2.43973 -4.52898 -0.834143
2.45373 -4.52098 -0.834143
2.46873 -4.51498 -0.834143
2.48473 -4.51098 -0.835144
2.49973 -4.52098 -0.838143
2.53073 -4.50998 -0.839143
2.55073 -4.51298 -0.841143
2.56673 -4.50798 -0.842143
2.58073 -4.49998 -0.842143
2.60173 -4.50398 -0.845143
2.60973 -4.50098 -0.845143
2.64973 -4.50498 -0.849144
2.74773 -4.49298 -0.857143
2.78273 -4.48498 -0.859143
2.79873 -4.47998 -0.859143
2.81773 -4.47898 -0.861143
2.83173 -4.47098 -0.861143
2.85973 -4.46898 -0.864143
2.88273 -4.47298 -0.867144
2.89773 -4.46598 -0.867144
2.91573 -4.46298 -0.869143
2.96173 -4.47098 -0.874143
2.96073 -4.45498 -0.872144
2.98673 -4.46398 -0.876143
3.00973 -4.46698 -0.879143
3.02173 -4.45398 -0.878143
3.03873 -4.44998 -0.879143
3.06373 -4.45698 -0.883143
3.07573 -4.44398 -0.882143
3.09273 -4.45298 -0.885143
3.10773 -4.44498 -0.886144
3.12373 -4.43898 -0.886144
3.14773 -4.44298 -0.890144
3.16373 -4.43698 -0.890144
3.20073 -4.44398 -0.895144
3.21773 -4.43898 -0.897143
3.23573 -4.43398 -0.898143
3.25273 -4.42798 -0.899143
3.31173 -4.42098 -0.904144
3.32373 -4.42198 -0.906143
3.34673 -4.42398 -0.909144
3.35873 -4.40998 -0.908143
3.38873 -4.42198 -0.913143
3.40273 -4.41098 -0.913143
3.42973 -4.41798 -0.917143
3.44973 -4.41498 -0.919143
3.46173 -4.41498 -0.920143
3.47773 -4.40798 -0.921143
3.52173 -4.40598 -0.926143
3.54573 -4.40798 -0.929143
3.56273 -4.39998 -0.930143
3.58573 -4.40098 -0.933143
3.59473 -4.39698 -0.933143
3.63573 -4.39098 -0.937144
3.66073 -4.39398 -0.940143
3.68173 -4.39098 -0.942143
3.70173 -4.38698 -0.944143
3.71973 -4.37998 -0.945143
0.13473 -4.78298 -0.810143
0.16373 -4.76398 -0.807144
0.20973 -4.77398 -0.809143
0.23173 -4.77098 -0.808143
0.26173 -4.76998 -0.808143
0.29173 -4.76798 -0.808143
0.30673 -4.76498 -0.808143
0.31373 -4.76098 -0.807144
0.34273 -4.74698 -0.805143
0.38873 -4.75298 -0.807144
0.45573 -4.74898 -0.807144
0.46973 -4.73998 -0.806143
0.49173 -4.73398 -0.805143
0.50673 -4.73598 -0.806143
0.52173 -4.73098 -0.805143
0.53773 -4.73698 -0.807144
0.55173 -4.72898 -0.805143
0.56573 -4.72598 -0.805143
0.58273 -4.73598 -0.807144
0.58973 -4.73298 -0.807144
0.60373 -4.72298 -0.805143
0.61873 -4.72498 -0.806143
0.64773 -4.71498 -0.805143
0.66373 -4.71898 -0.806143
0.67773 -4.71698 -0.806143
0.68573 -4.71798 -0.807144
0.70073 -4.71598 -0.807144
0.71573 -4.71698 -0.807144
0.73073 -4.71098 -0.807144
0.74673 -4.71598 -0.808143
0.76073 -4.70998 -0.807144
0.78273 -4.70498 -0.807144
0.79573 -4.69598 -0.806143
0.81273 -4.70198 -0.807144
0.82673 -4.69698 -0.807144
0.84173 -4.69798 -0.808143
0.85773 -4.70098 -0.809143
0.87273 -4.70098 -0.809143
0.89373 -4.68898 -0.808143
0.90873 -4.68798 -0.808143
0.92473 -4.69098 -0.809143
0.93873 -4.68198 -0.808143
0.95473 -4.68698 -0.810143
0.97173 -4.69298 -0.812144
0.99273 -4.68698 -0.811143
1.00773 -4.68398 -0.811143
1.02273 -4.68198 -0.812144
1.03773 -4.68098 -0.812144
1.06873 -4.67998 -0.813143
1.07673 -4.67998 -0.813143
1.09073 -4.67298 -0.813143
1.10573 -4.67398 -0.813143
1.12073 -4.67198 -0.814143
1.13473 -4.66498 -0.813143
1.15173 -4.66898 -0.815143
1.15873 -4.66698 -0.815143
1.18973 -4.66498 -0.816144
1.22073 -4.66498 -0.817143
1.23473 -4.65698 -0.816144
1.25173 -4.66098 -0.818143
1.27173 -4.65098 -0.817143
1.28873 -4.65498 -0.819143
1.38673 -4.63898 -0.821144
1.41973 -4.64098 -0.823143
1.43573 -4.64098 -0.824143
1.45773 -4.63398 -0.824143
1.47273 -4.63098 -0.824143
1.50473 -4.63098 -0.826144
1.52073 -4.62998 -0.827143
1.54973 -4.62198 -0.827143
1.60573 -4.61798 -0.830144
1.63373 -4.60598 -0.830144
1.67773 -4.61498 -0.834143
1.69073 -4.60398 -0.833143
1.74073 -4.60598 -0.837143
1.76173 -4.59598 -0.837143
1.77873 -4.59798 -0.838143
1.79673 -4.60198 -0.840144
1.80873 -4.58898 -0.839143
1.82573 -4.58998 -0.840144
1.84973 -4.58698 -0.841143
1.86673 -4.58698 -0.842143
1.91773 -4.58698 -0.846143
1.94973 -4.58398 -0.848143
1.95473 -4.57498 -0.847143
2.00673 -4.57598 -0.851143
2.02473 -4.57698 -0.853144
2.04873 -4.55498 -0.851143
2.06473 -4.57198 -0.855143
2.08073 -4.56898 -0.856143
2.11273 -4.56298 -0.857143
2.13973 -4.54598 -0.856143
2.16173 -4.55498 -0.860143
2.16773 -4.54798 -0.859143
2.18473 -4.54798 -0.861143
2.19973 -4.54298 -0.861143
2.21773 -4.54298 -0.862143
2.23573 -4.54298 -0.864143
2.25573 -4.54698 -0.866143
2.26873 -4.53798 -0.866143
2.27973 -4.54098 -0.867144
2.29873 -4.54498 -0.870143
2.31073 -4.53198 -0.869143
2.34373 -4.52598 -0.870143
2.38073 -4.52898 -0.874143
2.38673 -4.52198 -0.873143
2.40573 -4.52498 -0.876143
2.44273 -4.52498 -0.879143
2.45673 -4.51498 -0.879143
2.47473 -4.51498 -0.880143
2.48673 -4.52098 -0.883143
2.50073 -4.51098 -0.882143
2.51973 -4.51198 -0.884143
2.53173 -4.50098 -0.883143
2.55273 -4.50498 -0.886144
2.58673 -4.49898 -0.888143
2.61673 -4.50198 -0.892143
2.63173 -4.49498 -0.892143
2.65073 -4.49498 -0.894143
2.66573 -4.48898 -0.894143
2.68673 -4.48998 -0.897143
2.71473 -4.48898 -0.899143
2.73273 -4.48698 -0.901143
2.76873 -4.48198 -0.904144
2.78873 -4.48298 -0.906143
2.80473 -4.47798 -0.907143
2.82773 -4.48198 -0.910143
2.83473 -4.47798 -0.910143
2.85273 -4.47498 -0.911143
2.87573 -4.47898 -0.914144
2.89173 -4.47398 -0.915143
2.90773 -4.46798 -0.916143
2.92373 -4.46198 -0.916143
2.94573 -4.46398 -0.919143
2.95673 -4.46598 -0.921143
2.97173 -4.45798 -0.921143
2.99073 -4.45598 -0.923144
3.01073 -4.45598 -0.925143
3.06873 -4.44998 -0.930143
3.07973 -4.45098 -0.932144
3.09973 -4.44998 -0.934143
3.11473 -4.44198 -0.934143
3.14173 -4.44898 -0.938143
3.15773 -4.44298 -0.939143
3.17473 -4.43798 -0.940143
3.19073 -4.44498 -0.943143
3.22673 -4.43598 -0.946144
3.26473 -4.42798 -0.949143
3.35673 -4.42098 -0.958143
3.39273 -4.40998 -0.961143
3.40973 -4.40398 -0.962143
3.43273 -4.40398 -0.965144
3.44573 -4.40698 -0.967143
3.46773 -4.40698 -0.969144
3.48173 -4.39598 -0.969144
3.50373 -4.39598 -0.972143
3.54673 -4.39198 -0.976143
3.57573 -4.38598 -0.979144
3.60373 -4.39098 -0.983144
3.66073 -4.37598 -0.988144
2.68573 -4.50098 -0.960144
2.70173 -4.49598 -0.961143
2.71973 -4.49398 -0.962143
2.79273 -4.47098 -0.966143
2.80173 -4.48698 -1.02014
2.83573 -4.47898 -1.02314
2.93873 -4.46898 -1.03314
2.95773 -4.46598 -1.03414
2.98573 -4.46298 -1.03714
3.06473 -4.45798 -1.04614
3.09873 -4.44798 -1.04814
3.16873 -4.44198 -1.05614
3.20573 -4.43498 -1.05914
3.22873 -4.43698 -1.06214
3.25273 -4.42698 -1.06414
3.27773 -4.43098 -1.06714
3.29973 -4.43098 -1.07014
3.31073 -4.41798 -1.07014
3.33273 -4.41798 -1.07214
3.36873 -4.42098 -1.07814
3.39073 -4.42098 -1.08014
3.42673 -4.41098 -1.08314
3.44573 -4.40598 -1.08514
3.46973 -4.40898 -1.08914
3.47373 -4.39898 -1.08814
3.49973 -4.40298 -1.09214
3.52173 -4.40298 -1.09514
3.53673 -4.39298 -1.09514
3.56073 -4.39398 -1.09814
3.58573 -4.39698 -1.10214
3.60073 -4.38698 -1.10314
3.61173 -4.38598 -1.10414
3.63473 -4.38598 -1.10714
3.64973 -4.37598 -1.10814
3.67173 -4.37398 -1.11014
3.69373 -4.37298 -1.11314
3.91373 -4.34698 -1.14014
3.93673 -4.34498 -1.14314
3.97873 -4.33598 -1.14814
4.00173 -4.33298 -1.15114
4.02973 -4.33598 -1.15514
4.04473 -4.33898 -1.15814
4.06373 -4.33198 -1.15914
4.10573 -4.32098 -1.16414
4.18973 -4.31398 -1.17514
4.21673 -4.31498 -1.18014
4.24273 -4.31398 -1.18314
4.28373 -4.30098 -1.18714
4.32173 -4.29798 -1.19314
4.37173 -4.29298 -1.20014
4.39473 -4.28898 -1.20314
4.41973 -4.28598 -1.20614
4.44673 -4.28498 -1.21014
4.50773 -4.27598 -1.21814
4.53573 -4.27498 -1.22214
4.55873 -4.26998 -1.22514
4.82373 -4.23998 -1.26314
5.22373 -4.19798 -1.32314
2.59973 -4.50898 -1.04514
2.65073 -4.49998 -1.04814
2.66873 -4.49798 -1.05014
2.75173 -4.49098 -1.05814
2.76673 -4.48398 -1.05914
2.81073 -4.47698 -1.06314
2.92373 -4.46798 -1.07514
2.96673 -4.45798 -1.07814
3.00673 -4.45698 -1.08314
3.02873 -4.45898 -1.08614
3.11073 -4.44498 -1.09414
3.12873 -4.43998 -1.09514
3.16373 -4.44498 -1.10114
3.17673 -4.43398 -1.10014
3.21873 -4.43298 -1.10514
3.23973 -4.43398 -1.10814
3.27373 -4.42098 -1.11114
3.28873 -4.42698 -1.11414
3.32373 -4.41598 -1.11614
3.34873 -4.42098 -1.12114
3.36673 -4.41498 -1.12214
3.39073 -4.41798 -1.12614
3.40373 -4.40598 -1.12514
3.41973 -4.41298 -1.12914
3.43673 -4.40598 -1.13014
3.45773 -4.40398 -1.13214
3.47573 -4.39898 -1.13414
3.49973 -4.40098 -1.13814
3.51973 -4.39698 -1.14014
3.53873 -4.39398 -1.14214
3.54973 -4.39298 -1.14314
3.56973 -4.38898 -1.14514
3.59573 -4.39298 -1.15014
3.61473 -4.38798 -1.15214
3.63473 -4.38398 -1.15414
3.65173 -4.37698 -1.15514
3.67673 -4.37898 -1.15914
3.68373 -4.37298 -1.15914
3.88873 -4.34798 -1.18514
3.90873 -4.34298 -1.18714
3.93173 -4.34098 -1.19014
3.95073 -4.34698 -1.19414
3.97473 -4.34698 -1.19714
3.99173 -4.33798 -1.19914
4.01773 -4.33898 -1.20214
4.03673 -4.33198 -1.20414
4.05673 -4.32598 -1.20614
4.07973 -4.32298 -1.20914
4.09873 -4.32998 -1.21314
4.11573 -4.32098 -1.21514
4.14473 -4.32398 -1.21914
4.16173 -4.31498 -1.22114
4.24773 -4.30798 -1.23314
4.27073 -4.30398 -1.23614
4.29473 -4.30198 -1.23914
4.31973 -4.29998 -1.24314
4.34273 -4.29598 -1.24614
4.37273 -4.29898 -1.25114
4.40473 -4.28898 -1.25514
4.43773 -4.29398 -1.26114
4.45173 -4.28098 -1.26114
4.47773 -4.27998 -1.26514
4.50573 -4.27898 -1.26914
4.55273 -4.28298 -1.27814
4.57373 -4.27598 -1.28014
4.59573 -4.26898 -1.28214
4.61873 -4.26398 -1.28614
4.64473 -4.26198 -1.28914
4.69873 -4.25698 -1.29814
4.74073 -4.25498 -1.30414
4.76673 -4.25198 -1.30814
4.78873 -4.24398 -1.31114
4.81873 -4.24398 -1.31614
4.84373 -4.23898 -1.31914
4.88373 -4.23398 -1.32514
4.92673 -4.24398 -1.33414
4.99773 -4.22398 -1.34314
5.07073 -4.21898 -1.35514
5.09173 -4.20898 -1.35714
5.11973 -4.20498 -1.36114
5.15473 -4.20698 -1.36714
5.23973 -4.19498 -1.38014
5.31673 -4.18798 -1.39314
5.40673 -4.17798 -1.40714
5.44773 -4.16898 -1.41314
5.48873 -4.17298 -1.42114
5.57773 -4.15898 -1.43514
5.65873 -4.15098 -1.44914
5.68773 -4.14498 -1.45314
5.75173 -4.13598 -1.46314
5.83473 -4.12698 -1.47714
0.80373 -4.70698 -0.991143
0.81873 -4.70398 -0.991143
0.84073 -4.70198 -0.991143
0.85573 -4.69898 -0.991143
0.88373 -4.68798 -0.990143
0.89973 -4.68898 -0.991143
0.92173 -4.68698 -0.991143
0.93773 -4.68598 -0.992144
0.96773 -4.68398 -0.993143
0.98273 -4.68398 -0.994143
1.01073 -4.67098 -0.992144
1.01873 -4.67298 -0.993143
1.03573 -4.67898 -0.995143
1.04973 -4.67198 -0.994143
1.06373 -4.66498 -0.993143
1.08073 -4.67298 -0.996143
1.09373 -4.66198 -0.994143
1.10873 -4.66198 -0.995143
1.13173 -4.66098 -0.996143
1.14673 -4.65698 -0.996143
1.16373 -4.66498 -0.999143
1.19173 -4.64998 -0.997144
1.20873 -4.65598 -0.999143
1.23073 -4.64998 -0.999143
1.24673 -4.65298 -1.00114
1.25873 -4.63798 -0.998143
1.27573 -4.64398 -1.00114
1.29073 -4.63998 -1.00114
1.29673 -4.63398 -1.00014
1.31373 -4.63898 -1.00214
1.32973 -4.64098 -1.00314
1.38873 -4.62298 -1.00314
1.41373 -4.62998 -1.00614
2.04073 -4.56898 -1.08514
2.82473 -4.47998 -1.15514
3.17473 -4.44098 -1.19514
3.48573 -4.40698 -1.23314
3.50673 -4.40498 -1.23614
3.54273 -4.39398 -1.23914
3.56673 -4.39498 -1.24314
3.61873 -4.38898 -1.25014
3.66273 -4.38598 -1.25614
3.71673 -4.38098 -1.26314
3.77773 -4.36798 -1.27014
3.79973 -4.36598 -1.27314
3.94773 -4.35398 -1.29514
3.96073 -4.33998 -1.29414
3.97473 -4.34298 -1.29714
4.01273 -4.32898 -1.30114
4.04073 -4.33198 -1.30614
4.07173 -4.33798 -1.31214
4.08573 -4.32498 -1.31214
4.10773 -4.32198 -1.31514
4.12973 -4.33098 -1.32014
4.14373 -4.31798 -1.32014
4.19773 -4.31998 -1.33014
4.23373 -4.30298 -1.33314
4.26673 -4.30898 -1.34014
4.29473 -4.29798 -1.34214
4.32573 -4.30198 -1.34814
4.39973 -4.29398 -1.36014
4.42973 -4.28298 -1.36314
4.46373 -4.28898 -1.37014
4.47873 -4.27598 -1.37014
4.50673 -4.27598 -1.37514
4.53373 -4.27498 -1.38014
4.55873 -4.27098 -1.38314
4.57273 -4.27098 -1.38614
4.60873 -4.27798 -1.39314
4.64873 -4.25998 -1.39714
4.67773 -4.25998 -1.40314
4.74373 -4.25298 -1.41314
4.77173 -4.25098 -1.41814
4.79373 -4.24398 -1.42114
4.82773 -4.24698 -1.42714
4.89773 -4.22798 -1.43714
4.91673 -4.23098 -1.44114
4.93873 -4.22298 -1.44414
4.96973 -4.22298 -1.44914
4.99473 -4.21698 -1.45314
5.02273 -4.21398 -1.45814
5.05173 -4.21198 -1.46314
5.08173 -4.20998 -1.46814
5.09573 -4.20798 -1.47014
5.12373 -4.20398 -1.47514
5.18373 -4.19898 -1.48514
5.20873 -4.19298 -1.48914
5.23873 -4.18998 -1.49414
5.26973 -4.18798 -1.50014
5.29373 -4.19298 -1.50514
5.31973 -4.18698 -1.50914
5.34673 -4.18098 -1.51314
5.37673 -4.17698 -1.51814
5.40373 -4.17098 -1.52214
5.43973 -4.17198 -1.52914
5.46373 -4.16298 -1.53314
5.48773 -4.16798 -1.53814
5.51173 -4.15898 -1.54114
5.57673 -4.15298 -1.55314
5.65673 -4.14498 -1.56714
0.12473 -4.76198 -1.07814
0.16273 -4.75698 -1.07714
0.28973 -4.74898 -1.07614
0.01273 -4.78098 -1.18414
0.07973 -4.76698 -1.18114
0.09573 -4.77398 -1.18314
0.12473 -4.76598 -1.18114
0.13973 -4.77098 -1.18214
0.14773 -4.76898 -1.18214
0.16273 -4.76298 -1.18014
0.17773 -4.76398 -1.18114
0.19273 -4.76898 -1.18214
0.22173 -4.75598 -1.17914
0.23673 -4.75398 -1.17914
0.24473 -4.75698 -1.18014
0.25873 -4.75298 -1.17914
0.27373 -4.74598 -1.17714
0.28973 -4.75898 -1.18114
0.30373 -4.74398 -1.17714
0.31873 -4.74298 -1.17714
0.33373 -4.74198 -1.17714
0.34073 -4.73998 -1.17714
0.35573 -4.74398 -1.17814
0.38573 -4.73598 -1.17714
0.39973 -4.73298 -1.17614
0.41473 -4.73198 -1.17614
0.42973 -4.73098 -1.17614
0.43673 -4.72998 -1.17614
0.45273 -4.73398 -1.17814
0.46673 -4.72498 -1.17614
0.48173 -4.72598 -1.17614
0.49673 -4.72598 -1.17714
0.51173 -4.72398 -1.17714
0.52673 -4.72298 -1.17714
0.53473 -4.72998 -1.17914
0.54873 -4.72398 -1.17814
0.56373 -4.71998 -1.17714
0.57773 -4.71498 -1.17614
0.59373 -4.71898 -1.17814
0.60873 -4.71698 -1.17814
0.62973 -4.70598 -1.17614
0.64573 -4.71398 -1.17814
0.66073 -4.71198 -1.17814
0.67573 -4.70998 -1.17814
0.69173 -4.71498 -1.18014
0.70473 -4.70298 -1.17814
0.71273 -4.70798 -1.17914
0.72773 -4.70398 -1.17914
0.74173 -4.69598 -1.17714
0.75773 -4.70498 -1.18014
0.77373 -4.70598 -1.18114
0.78773 -4.69998 -1.18014
0.80173 -4.69198 -1.17914
0.82373 -4.68998 -1.17914
0.83973 -4.69698 -1.18214
0.88473 -4.68998 -1.18214
0.89873 -4.68598 -1.18214
0.90673 -4.68398 -1.18214
0.96773 -4.68398 -1.18514
0.99673 -4.67798 -1.18514
1.00473 -4.67798 -1.18514
1.04873 -4.66798 -1.18514
1.06573 -4.67398 -1.18814
1.09473 -4.66598 -1.18814
1.16273 -4.65898 -1.19014
1.17873 -4.65898 -1.19114
1.18673 -4.65898 -1.19214
1.21473 -4.64998 -1.19114
1.24673 -4.65098 -1.19414
1.25973 -4.64198 -1.19214
1.27573 -4.64198 -1.19314
1.28973 -4.63598 -1.19314
1.29873 -4.63898 -1.19414
1.31573 -4.64398 -1.19714
1.34373 -4.63198 -1.19614
1.36173 -4.64098 -1.20014
1.37773 -4.63898 -1.20014
1.38073 -4.62298 -1.19614
1.39973 -4.63398 -1.20114
1.42873 -4.62498 -1.20114
1.44473 -4.62398 -1.20214
1.46173 -4.62698 -1.20414
1.47373 -4.61698 -1.20214
1.48473 -4.62398 -1.20514
1.51373 -4.61598 -1.20514
1.52973 -4.61498 -1.20614
1.54773 -4.61898 -1.20914
1.57473 -4.60398 -1.20714
1.58473 -4.61098 -1.21014
1.60073 -4.60898 -1.21114
1.61273 -4.59898 -1.21014
1.63173 -4.60598 -1.21314
1.66073 -4.59398 -1.21314
1.68273 -4.58798 -1.21314
1.69873 -4.58798 -1.21514
1.77973 -4.58398 -1.22214
1.78673 -4.57998 -1.22114
1.83673 -4.58098 -1.22614
1.88273 -4.56998 -1.22814
1.88873 -4.56398 -1.22714
1.93673 -4.55798 -1.23114
1.95573 -4.56298 -1.23414
1.97073 -4.55798 -1.23514
1.98173 -4.56398 -1.23714
1.99473 -4.55398 -1.23614
2.01273 -4.55698 -1.23914
2.04473 -4.55098 -1.24114
2.06273 -4.55098 -1.24314
2.10273 -4.54598 -1.24614
2.13373 -4.53798 -1.24814
2.15373 -4.54098 -1.25114
2.16673 -4.53298 -1.25014
2.18473 -4.53498 -1.25314
2.19573 -4.53798 -1.25514
2.24573 -4.53098 -1.25914
2.26073 -4.52598 -1.26014
2.31973 -4.51898 -1.26614
2.59873 -4.48998 -1.29514
2.61373 -4.48398 -1.29514
2.62373 -4.48498 -1.29714
2.77473 -4.46398 -1.31314
2.97873 -4.44198 -1.33814
3.14173 -4.42298 -1.35914
3.22073 -4.41598 -1.37014
3.22973 -4.41398 -1.37114
3.24873 -4.40998 -1.37414
2.87273 -4.46198 -1.52914
2.96373 -4.44798 -1.54114
2.96773 -4.43798 -1.53914
2.98573 -4.43498 -1.54114
3.00473 -4.43398 -1.54414
3.09273 -4.42698 -1.55814
3.15273 -4.42198 -1.56714
3.20373 -4.42098 -1.57614
2.40273 -4.50898 -1.52214
2.43373 -4.49898 -1.52414
2.44973 -4.51198 -1.53014
2.46773 -4.51098 -1.53214
2.48073 -4.49998 -1.53114
2.51673 -4.49898 -1.53614
2.53573 -4.49998 -1.53914
2.55273 -4.49698 -1.54114
2.55873 -4.49098 -1.54114
2.58073 -4.49798 -1.54614
2.59573 -4.48998 -1.54614
2.60973 -4.48198 -1.54614
2.62773 -4.47998 -1.54914
2.64873 -4.48498 -1.55314
2.66573 -4.48098 -1.55514
2.67373 -4.47898 -1.55614
2.69473 -4.48198 -1.56014
2.70973 -4.47498 -1.56114
2.88173 -4.45298 -1.58414
2.89373 -4.45698 -1.58714
2.91273 -4.45498 -1.59014
2.92973 -4.45098 -1.59214
3.19673 -4.42198 -1.63314
3.23473 -4.41498 -1.63814
3.24973 -4.40698 -1.63914
3.26473 -4.41198 -1.64314
3.27973 -4.40398 -1.64414
8.11173 4.91602 0.521856
5.21673 4.55902 0.434856
4.76873 4.52202 0.422856
4.17873 4.44802 0.406856
3.99473 4.43002 0.402856
3.96573 4.42602 0.401856
3.93873 4.42302 0.400856
3.85773 4.41502 0.398856
3.81473 4.40702 0.397856
3.78973 4.40502 0.397856
3.76273 4.40202 0.396856
3.73473 4.39702 0.395856
3.70173 4.38602 0.394856
3.67973 4.38802 0.394856
3.65373 4.38402 0.393856
3.62973 4.38302 0.393856
3.61373 4.37802 0.392856
3.58873 4.37602 0.391856
3.56273 4.37102 0.391856
3.54273 4.37502 0.390856
3.51273 4.36502 0.390856
3.49073 4.36702 0.389856
3.44873 4.35502 0.388857
3.40373 4.35502 0.387856
3.37173 4.34102 0.386856
3.34873 4.33902 0.385856
3.32373 4.33502 0.385856
3.30873 4.33002 0.384856
3.28673 4.32902 0.384856
3.26673 4.33102 0.384856
3.24873 4.33502 0.383856
3.22173 4.32702 0.383856
3.20273 4.32902 0.382856
3.17373 4.31802 0.381856
3.16373 4.31902 0.381856
3.07173 4.30602 0.379856
3.04673 4.29902 0.378856
3.02973 4.30402 0.378856
2.97773 4.30102 0.377856
2.94973 4.28902 0.376856
2.89273 4.29102 0.375856
2.75473 4.27202 0.372856
2.74373 4.27002 0.372856
2.62273 4.25402 0.369856
2.58973 4.24602 0.368856
2.57273 4.24702 0.368856
2.51473 4.24202 0.367856
2.49673 4.24102 0.367856
2.48273 4.23302 0.366856
2.43073 4.23302 0.365856
2.38873 4.22202 0.364856
2.36973 4.21902 0.364856
2.35073 4.23202 0.364856
2.32373 4.21302 0.363856
2.30773 4.21702 0.363856
2.28773 4.21002 0.362856
2.27273 4.21602 0.362856
2.25473 4.21202 0.362856
2.24473 4.21002 0.361856
2.22373 4.20202 0.361856
2.20873 4.20502 0.361856
2.19373 4.21002 0.361856
2.17073 4.19702 0.360856
2.13573 4.19302 0.359856
2.12573 4.18902 0.359856
2.11173 4.19602 0.359856
2.09273 4.19002 0.359856
2.07673 4.19102 0.358856
2.06073 4.19202 0.358856
2.01773 4.18702 0.357856
1.98473 4.18502 0.357856
1.92873 4.16702 0.355856
1.91673 4.17502 0.355856
1.90873 4.17402 0.355856
1.89073 4.17102 0.355856
1.85873 4.16802 0.354856
1.80873 4.16202 0.354856
1.80273 4.16602 0.354856
1.76773 4.15502 0.353856
1.74873 4.14802 0.352856
1.73873 4.16102 0.353856
11.8187 5.35002 0.556857
11.7017 5.34102 0.553856
11.5747 5.32702 0.550857
11.4577 5.31702 0.547857
11.3357 5.30502 0.544856
11.0047 5.25602 0.535857
10.8817 5.24002 0.532857
10.7787 5.23202 0.529857
10.6727 5.22202 0.526857
10.5717 5.21402 0.524857
10.4617 5.20202 0.521856
10.2707 5.16802 0.516856
10.1777 5.16102 0.513857
10.0797 5.15102 0.511856
9.96973 5.13502 0.508857
9.88073 5.12802 0.506857
9.78073 5.11602 0.503857
9.69173 5.10902 0.501857
9.60773 5.08402 0.498857
9.52173 5.07702 0.496856
9.43073 5.06702 0.494857
9.35373 5.06302 0.492856
9.26073 5.05102 0.489856
9.17273 5.04102 0.487856
9.02473 5.01502 0.483856
8.93673 5.00402 0.481856
8.86373 4.99902 0.479856
8.77973 4.98902 0.477856
8.69673 4.97802 0.475856
8.62173 4.97102 0.473856
8.42373 4.94602 0.468856
8.34773 4.93702 0.466856
7.93873 4.88402 0.456856
7.87273 4.87702 0.454856
7.80573 4.87002 0.452856
7.73473 4.86002 0.451856
7.67573 4.85602 0.449856
6.69073 4.73902 0.425856
6.63873 4.73402 0.424856
6.58773 4.72902 0.422856
6.49673 4.71102 0.420856
6.44973 4.70802 0.419856
6.40273 4.70402 0.418856
6.35873 4.70302 0.417856
6.30673 4.69602 0.416856
6.26173 4.69302 0.415856
6.22073 4.67802 0.414856
6.08273 4.66502 0.410856
6.04573 4.66702 0.409856
5.17473 4.55802 0.389856
5.13273 4.55002 0.388857
5.07973 4.54702 0.387856
5.00673 4.53802 0.385856
4.97173 4.53502 0.385856
4.92973 4.52502 0.384856
4.90373 4.53002 0.383856
4.84873 4.52202 0.382856
4.80773 4.51202 0.381856
4.78173 4.51702 0.380856
4.70973 4.50502 0.379856
4.68173 4.50602 0.378856
4.62373 4.49402 0.377856
4.59173 4.49002 0.376856
4.49373 4.47802 0.374856
4.44373 4.47102 0.373856
4.41173 4.46702 0.372856
4.37473 4.45802 0.371856
4.35073 4.46202 0.371856
4.31873 4.45702 0.370856
4.24073 4.44602 0.368856
4.21173 4.44302 0.368856
4.17673 4.43502 0.367856
4.16473 4.44902 0.367856
4.13573 4.44602 0.366856
4.09073 4.44102 0.366856
4.02773 4.42802 0.364856
3.97173 4.42202 0.363856
3.94473 4.42002 0.362856
3.90573 4.40402 0.361856
3.87173 4.40702 0.361856
3.85073 4.41202 0.361856
3.81073 4.39402 0.359856
3.76573 4.39802 0.359856
3.74473 4.40102 0.358856
3.70173 4.39202 0.357856
3.67573 4.39002 0.357856
3.63873 4.37402 0.356856
3.62173 4.38102 0.356856
3.60173 4.38502 0.356856
3.57373 4.37902 0.355856
3.47973 4.36202 0.353856
3.45473 4.35902 0.352856
3.41373 4.36302 0.352856
3.40073 4.36102 0.352856
3.37173 4.35102 0.351856
3.32573 4.34802 0.350856
3.30073 4.34402 0.350856
3.25573 4.34102 0.349856
3.23973 4.33502 0.348856
3.22073 4.33702 0.348856
3.18973 4.32502 0.347856
3.17073 4.32702 0.347856
3.15073 4.32902 0.347856
3.13073 4.32902 0.346856
3.08873 4.31502 0.345856
3.07173 4.31902 0.345856
3.02973 4.31702 0.345856
2.92873 4.30202 0.343856
2.76273 4.27302 0.339856
2.74273 4.27202 0.339856
2.72773 4.27702 0.339856
2.65773 4.27102 0.338856
8.58173 4.97802 0.425856
8.50973 4.97102 0.424856
5.24173 4.57602 0.358856
2.77673 4.28602 0.316856
12.4217 5.43802 0.405856
12.2707 5.41802 0.403856
12.1257 5.40002 0.401856
11.9847 5.38302 0.399856
11.8527 5.36902 0.397856
11.6197 5.33002 0.393856
11.5047 5.32102 0.392856
11.3887 5.31102 0.390856
11.2627 5.29602 0.388857
11.1467 5.28402 0.386856
11.0327 5.27302 0.385856
10.8167 5.23302 0.381856
10.7247 5.23002 0.380856
10.6147 5.21802 0.379856
10.5047 5.20602 0.377856
10.4007 5.19502 0.376856
10.2947 5.18302 0.374856
10.1187 5.15502 0.371856
10.0117 5.14002 0.370856
9.92473 5.13502 0.369856
9.82873 5.12502 0.367856
9.74273 5.11902 0.366856
9.48373 5.07902 0.362856
9.39573 5.07002 0.361856
9.31073 5.06302 0.360856
9.22473 5.05402 0.359856
9.14073 5.04502 0.358856
9.05773 5.03702 0.356856
8.91173 5.01102 0.354856
8.83173 5.00302 0.353856
8.75473 4.99602 0.352856
8.67473 4.98702 0.351856
8.60573 4.98302 0.350856
8.39673 4.95202 0.347856
8.10673 4.91902 0.343856
7.98473 4.89702 0.341856
7.91473 4.88902 0.340856
7.85173 4.88402 0.339856
7.79173 4.88102 0.339856
7.72673 4.87502 0.338856
7.66573 4.87002 0.337856
7.60373 4.86402 0.336856
6.76373 4.74602 0.324856
6.73073 4.75402 0.324856
6.67973 4.75002 0.323856
6.62773 4.74402 0.323856
6.57373 4.73702 0.322856
6.43073 4.71202 0.320856
6.38273 4.70802 0.319856
6.33573 4.70402 0.319856
6.28673 4.69902 0.318856
6.23173 4.68802 0.317856
6.19473 4.69102 0.317856
6.13873 4.67902 0.316856
6.11073 4.67302 0.316856
5.24673 4.58002 0.305856
5.14773 4.55102 0.303856
5.11373 4.55002 0.303856
5.08773 4.55502 0.303856
5.05473 4.54102 0.302856
5.02073 4.53902 0.302856
4.97973 4.53102 0.301856
4.94473 4.52802 0.301856
4.91473 4.52802 0.300856
4.87973 4.52502 0.300856
4.84373 4.52002 0.299856
4.82473 4.51602 0.299856
4.72373 4.50702 0.298856
4.69073 4.50402 0.298856
4.65373 4.49602 0.297856
4.62773 4.50002 0.297856
4.58973 4.49102 0.296856
4.54073 4.48602 0.296856
4.47173 4.47302 0.295856
4.44073 4.47002 0.295856
4.40673 4.46402 0.294856
4.36073 4.45902 0.294856
4.33073 4.45702 0.293856
4.30173 4.45502 0.293856
4.27173 4.45302 0.293856
4.24473 4.45202 0.292856
4.21073 4.44502 0.292856
4.10873 4.43402 0.291856
4.07873 4.42902 0.290856
4.04973 4.42602 0.290856
4.02173 4.42402 0.290856
4.00473 4.41802 0.289856
3.97973 4.41902 0.289856
3.94973 4.41402 0.289856
3.92373 4.41302 0.289856
3.89673 4.41002 0.288856
3.87373 4.41202 0.288856
3.84273 4.40402 0.288856
3.82173 4.39502 0.287856
3.79773 4.39502 0.287856
3.77373 4.39502 0.287856
3.75173 4.39802 0.287856
3.72373 4.39302 0.286856
3.69973 4.39302 0.286856
3.65273 4.37902 0.285856
3.63373 4.38502 0.285856
3.60373 4.37602 0.285856
3.58073 4.37702 0.285856
3.55473 4.37202 0.284856
3.53073 4.37102 0.284856
3.46673 4.36102 0.283856
3.43973 4.35602 0.283856
3.41873 4.35802 0.283856
3.39173 4.35102 0.283856
3.37573 4.35902 0.283856
3.34473 4.34702 0.282856
3.33173 4.34502 0.282856
3.30173 4.33402 0.282856
3.28473 4.34002 0.281856
3.26373 4.34102 0.281856
3.23673 4.33302 0.281856
3.21973 4.33902 0.281856
3.19573 4.33402 0.281856
3.17773 4.32502 0.280856
3.15473 4.32202 0.280856
3.13173 4.31902 0.280856
3.10773 4.31402 0.280856
3.08673 4.31402 0.279856
3.06473 4.31302 0.279856
3.04673 4.31602 0.279856
3.03173 4.30902 0.279856
3.01473 4.31402 0.279856
2.98973 4.30702 0.278856
2.96573 4.30102 0.278856
2.94573 4.30102 0.278856
2.92573 4.30002 0.278856
2.90373 4.29802 0.278856
2.89073 4.29202 0.277856
2.86973 4.29002 0.277856
2.84573 4.28402 0.277856
2.82873 4.28802 0.277856
2.80673 4.28302 0.277856
2.78773 4.28402 0.276856
2.76873 4.28402 0.276856
2.75573 4.27902 0.276856
2.73673 4.27902 0.276856
2.69373 4.27102 0.276856
2.67673 4.27402 0.275856
2.65173 4.26402 0.275856
2.60273 4.25902 0.275856
2.52573 4.25402 0.274856
2.49773 4.25202 0.274856
2.45673 4.24302 0.273856
2.41973 4.24102 0.273856
2.28073 4.22702 0.272856
2.25473 4.22502 0.272856
2.16173 4.21002 0.271856
2.13273 4.20302 0.270856
2.09973 4.20402 0.270856
2.06273 4.19502 0.270856
2.02873 4.19202 0.270856
2.02073 4.19202 0.269856
1.98673 4.19002 0.269856
1.90973 4.17902 0.269856
1.89473 4.18002 0.269856
1.72173 4.16102 0.267856
8.67273 4.99202 0.299856
8.36373 4.95402 0.297856
8.28373 4.94102 0.296856
6.74773 4.74502 0.282856
6.31373 4.71002 0.278856
5.20973 4.56002 0.268856
3.68073 4.39602 0.256856
3.63973 4.38902 0.256856
3.46073 4.35102 0.254856
3.41773 4.35202 0.254856
3.39773 4.35502 0.254856
3.37573 4.35402 0.254856
3.34873 4.34702 0.254856
3.30673 4.33402 0.253856
3.28473 4.33302 0.253856
3.26373 4.33402 0.253856
3.24073 4.33202 0.253856
3.22073 4.33402 0.253856
3.19273 4.32402 0.253856
3.17873 4.33302 0.253856
3.15073 4.32302 0.252856
3.13673 4.31802 0.252856
3.11273 4.31402 0.252856
3.09373 4.31502 0.252856
3.07073 4.31202 0.252856
3.04573 4.30502 0.252856
3.02673 4.30602 0.251856
3.01073 4.29802 0.251856
2.98873 4.29602 0.251856
2.97573 4.30502 0.251856
2.95273 4.30102 0.251856
2.92773 4.29202 0.251856
2.90273 4.28502 0.251856
2.88773 4.29202 0.251856
2.87373 4.28502 0.250856
2.85773 4.29102 0.250856
2.82873 4.27702 0.250856
2.80873 4.27502 0.250856
2.70273 4.27202 0.249856
2.68073 4.26702 0.249856
2.66073 4.26402 0.249856
2.63973 4.26002 0.249856
2.62173 4.26202 0.249856
2.60873 4.25502 0.249856
2.58873 4.25202 0.249856
2.52773 4.24102 0.248856
2.51573 4.25102 0.248856
2.49073 4.23802 0.248856
2.48173 4.23902 0.248856
2.44573 4.23802 0.248856
2.42673 4.23602 0.248856
2.30373 4.21702 0.247857
2.28373 4.21202 0.247857
2.24873 4.21102 0.247857
2.01873 4.18002 0.245857
1.80073 4.15202 0.244856
1.71273 4.14402 0.244856
12.5787 5.45102 0.241857
12.4147 5.42702 0.241857
12.2747 5.41202 0.240856
12.1337 5.39502 0.240856
11.9907 5.37702 0.239856
11.8607 5.36402 0.239856
11.7327 5.35102 0.238856
11.3817 5.30002 0.237857
11.2527 5.28302 0.237857
11.1367 5.27202 0.237857
11.0277 5.26302 0.236857
10.4927 5.19202 0.235857
10.3937 5.18402 0.234857
10.2877 5.17202 0.234857
9.81573 5.11102 0.233856
9.62473 5.08902 0.232856
9.03873 5.01902 0.230856
8.58273 4.96402 0.229857
6.50973 4.71702 0.223856
6.22973 4.68202 0.222857
5.12273 4.55302 0.219857
4.92073 4.52802 0.219857
4.72673 4.50402 0.218856
4.65673 4.49402 0.218856
4.44473 4.46902 0.218856
3.71273 4.38902 0.216856
2.28373 4.21002 0.213857
1.94073 4.17002 0.212857
3.44573 4.36902 0.189856
2.73673 4.27802 0.190857
12.4797 5.44902 0.0908565
12.3357 5.43302 0.0918565
12.1857 5.41302 0.0928565
11.9127 5.38202 0.0948565
11.5537 5.33002 0.0978565
11.4187 5.31202 0.0988565
11.3187 5.30902 0.0988565
11.1857 5.29002 0.0998565
11.0787 5.28202 0.100856
10.9487 5.26202 0.101856
10.7527 5.23102 0.103856
10.6447 5.22002 0.104856
10.5367 5.20902 0.104856
10.4377 5.20102 0.105856
10.3337 5.19002 0.106856
10.2367 5.18202 0.107856
10.0557 5.15002 0.108856
9.94873 5.13502 0.109856
9.84573 5.12102 0.109856
9.75973 5.11602 0.110856
9.67473 5.11102 0.111856
9.57873 5.09902 0.111856
9.50073 5.07602 0.112856
9.41373 5.06802 0.113856
9.32073 5.05602 0.113856
9.22873 5.04402 0.114856
9.15673 5.04302 0.115856
9.07273 5.03402 0.115856
8.99373 5.02702 0.116856
8.68673 4.98202 0.118856
8.60973 4.97502 0.119856
8.52973 4.96502 0.119856
8.45373 4.95602 0.120856
8.33073 4.93702 0.121856
8.04173 4.90502 0.123856
7.98073 4.90202 0.123856
7.86073 4.87902 0.124856
7.73273 4.86802 0.125857
7.65673 4.85402 0.126857
7.60973 4.85802 0.126857
6.78373 4.75002 0.132857
6.67873 4.74002 0.132857
6.65073 4.75102 0.133857
6.59073 4.74002 0.133857
6.53973 4.73502 0.133857
6.46273 4.72502 0.134857
6.40673 4.71602 0.134857
6.26973 4.70702 0.135856
6.21573 4.69802 0.136856
6.13173 4.68002 0.136856
6.04373 4.67302 0.137856
5.25473 4.57802 0.142856
5.20173 4.56102 0.142856
5.17673 4.56802 0.143856
5.11073 4.56702 0.143856
5.07373 4.56302 0.143856
5.01773 4.55602 0.144856
4.90673 4.54102 0.144856
4.86073 4.52702 0.145856
4.81373 4.52602 0.145856
4.77973 4.52202 0.145856
4.74473 4.51802 0.145856
4.71373 4.51602 0.146857
4.67573 4.50902 0.146857
4.62273 4.50002 0.146857
4.58873 4.49502 0.146857
4.56473 4.50002 0.146857
4.51373 4.47802 0.147857
4.48473 4.47802 0.147857
4.46973 4.49102 0.147857
4.41873 4.46802 0.147857
4.40373 4.46602 0.148857
4.37473 4.46602 0.148857
4.35373 4.47202 0.148857
4.31473 4.46002 0.148857
4.29373 4.46702 0.148857
4.25873 4.45902 0.148857
4.23073 4.45802 0.149857
4.20073 4.44002 0.149857
4.17573 4.44102 0.149857
4.14373 4.43502 0.149857
4.11473 4.43202 0.149857
4.08973 4.43302 0.149857
4.06073 4.43002 0.150856
4.03673 4.43102 0.150856
4.00473 4.42502 0.150856
3.98673 4.41902 0.150856
3.96573 4.42302 0.150856
3.93373 4.41602 0.150856
3.91073 4.41802 0.150856
3.88373 4.41502 0.151856
3.85073 4.40602 0.151856
3.84073 4.40802 0.151856
3.80273 4.39302 0.151856
3.78073 4.39502 0.151856
3.76473 4.40402 0.151856
3.70873 4.39402 0.152856
3.67873 4.38802 0.152856
3.66773 4.38902 0.152856
3.61073 4.37602 0.152856
3.58073 4.36802 0.152856
3.56473 4.37602 0.153857
3.53073 4.36202 0.153857
3.51173 4.36702 0.153857
3.39273 4.34402 0.154857
3.37573 4.35002 0.154857
3.34473 4.33802 0.154857
3.19273 4.32302 0.155857
3.04573 4.30502 0.155857
3.03173 4.30002 0.156857
2.96773 4.29402 0.156857
2.94773 4.29602 0.156857
2.69473 4.26402 0.157856
2.63773 4.26202 0.157856
2.47473 4.23402 0.158856
2.41773 4.22802 0.159856
2.31373 4.21502 0.159856
2.29573 4.21302 0.159856
2.26173 4.21302 0.159856
2.08173 4.18902 0.160857
2.03173 4.18702 0.160857
1.93373 4.16902 0.161857
1.89173 4.16402 0.161857
1.84173 4.15802 0.161857
1.80173 4.15602 0.161857
1.75373 4.15102 0.161857
1.70673 4.14902 0.162857
12.3537 5.43102 0.0078565
12.2027 5.41102 0.0098565
12.0657 5.39502 0.0118565
11.9357 5.38202 0.0138565
11.7987 5.36402 0.0158565
11.6727 5.35102 0.0178565
11.5527 5.34002 0.0188565
11.4407 5.31002 0.0208565
11.3267 5.29902 0.0218565
11.2117 5.28902 0.0238565
11.0907 5.27402 0.0248565
10.9857 5.26602 0.0268565
10.8827 5.25902 0.0278565
10.7847 5.23202 0.0298565
10.6807 5.22302 0.0308565
10.5757 5.21302 0.0318565
10.4667 5.19902 0.0338565
10.3607 5.18702 0.0348565
10.2647 5.17902 0.0358565
10.1717 5.17202 0.0378565
9.99073 5.13902 0.0398565
9.89673 5.13002 0.0408565
9.79873 5.11802 0.0428565
9.71773 5.11402 0.0438565
9.62373 5.10302 0.0448565
9.53873 5.09702 0.0458565
9.45673 5.07202 0.0468565
9.36373 5.05902 0.0478565
9.28773 5.05602 0.0488565
9.20073 5.04602 0.0498565
9.11573 5.03702 0.0518565
9.03273 5.02702 0.0528565
8.96773 5.02802 0.0528565
8.80873 4.99302 0.0558565
8.74073 4.99102 0.0558565
8.66773 4.98502 0.0568565
8.58073 4.97102 0.0588565
8.51073 4.96602 0.0588565
8.43273 4.95602 0.0598565
8.09073 4.90902 0.0648565
7.96573 4.90202 0.0658565
7.71573 4.86502 0.0698565
7.59073 4.85202 0.0708565
7.58473 4.86502 0.0708565
6.62573 4.73402 0.0828565
6.57273 4.72602 0.0838565
6.52673 4.72402 0.0848565
6.47673 4.71902 0.0848565
6.34173 4.69702 0.0868565
6.16273 4.68502 0.0888565
2.96873 4.29302 0.123856
2.83273 4.27902 0.125857
2.44673 4.23602 0.128856
2.42573 4.23002 0.128856
2.32273 4.21802 0.129856
2.28673 4.21302 0.129856
2.27573 4.21002 0.129856
2.25873 4.21002 0.130856
2.24773 4.22102 0.130856
2.20673 4.20802 0.130856
2.16173 4.20002 0.130856
2.11373 4.20402 0.131857
2.09273 4.19502 0.131857
2.07773 4.19802 0.131857
2.01373 4.18402 0.131857
1.98073 4.18202 0.132857
1.96773 4.18802 0.132857
1.94573 4.17502 0.132857
1.94173 4.18302 0.132857
1.90973 4.18302 0.132857
1.85273 4.16202 0.133857
1.83873 4.16602 0.133857
1.81173 4.15602 0.133857
1.79873 4.16202 0.133857
1.76373 4.15302 0.133857
1.73273 4.15102 0.134857
1.72473 4.15202 0.134857
1.70873 4.15002 0.134857
1.68973 4.14002 0.134857
12.2297 5.40902 -0.0831435
12.1067 5.40102 -0.0811435
11.9747 5.38702 -0.0781435
11.8377 5.37002 -0.0751435
11.7097 5.35702 -0.0731435
11.3497 5.30102 -0.0661435
11.2387 5.29302 -0.0631435
11.1267 5.28302 -0.0611435
11.0177 5.27402 -0.0591435
10.5977 5.21802 -0.0511435
10.4897 5.20602 -0.0481435
10.3897 5.19702 -0.0461435
10.2947 5.19102 -0.0451435
9.91873 5.14002 -0.0371435
9.82073 5.12802 -0.0351435
9.72673 5.11802 -0.0331435
9.63773 5.11102 -0.0321435
9.29873 5.06302 -0.0251435
9.21573 5.05602 -0.0231435
9.13173 5.04702 -0.0221435
8.75173 5.00102 -0.0141435
8.67273 4.99302 -0.0131435
8.58673 4.97902 -0.0111435
8.51573 4.97402 -0.0101435
8.10273 4.92402 -0.0021435
8.03973 4.92002 -0.0011435
7.85073 4.89102 0.0028565
7.78673 4.88502 0.0038565
