3.56092 -4.29204 -0.320164
3.59292 -4.30204 -0.322164
3.62292 -4.29804 -0.324164
3.65792 -4.28404 -0.325164
3.68292 -4.28604 -0.327164
3.69992 -4.27904 -0.327164
3.72392 -4.27904 -0.329164
3.74892 -4.28104 -0.330164
3.75492 -4.27404 -0.330164
3.78092 -4.27704 -0.332164
3.79992 -4.27104 -0.333164
3.82092 -4.26804 -0.334164
3.84592 -4.26904 -0.335164
3.85392 -4.25104 -0.335164
3.87792 -4.26404 -0.337164
3.89092 -4.25104 -0.337164
3.91592 -4.25204 -0.338164
3.94092 -4.25304 -0.340164
3.96592 -4.25204 -0.342164
3.97792 -4.23804 -0.341164
4.00592 -4.24204 -0.343164
4.01792 -4.24104 -0.344164
4.04092 -4.23904 -0.345164
4.08492 -4.23204 -0.348164
4.10792 -4.22904 -0.349164
4.12692 -4.22204 -0.350164
4.15592 -4.22404 -0.352164
4.18692 -4.21604 -0.353164
4.21492 -4.21904 -0.355164
4.23392 -4.21104 -0.356164
4.24892 -4.19904 -0.356164
4.27492 -4.19804 -0.358164
4.30592 -4.20304 -0.360164
4.30692 -4.19104 -0.359164
4.33692 -4.19404 -0.362164
4.36492 -4.19404 -0.363164
4.38392 -4.18604 -0.364164
4.40492 -4.18004 -0.365164
4.43292 -4.18004 -0.367164
4.45292 -4.17304 -0.368164
4.47192 -4.17704 -0.370164
4.49292 -4.17104 -0.371164
4.51692 -4.16604 -0.372164
4.54092 -4.16304 -0.373164
4.56492 -4.15804 -0.375164
4.61692 -4.15304 -0.378164
4.63592 -4.15704 -0.379164
4.70392 -4.13904 -0.383164
4.79492 -4.12704 -0.389164
4.82092 -4.12304 -0.390164
4.84792 -4.12004 -0.392164
4.99492 -4.09904 -0.401164
5.07792 -4.08804 -0.406164
5.46392 -4.04404 -0.432164
5.49992 -4.04304 -0.435164
5.50892 -4.03704 -0.435164
5.54892 -4.04004 -0.438164
5.57792 -4.03404 -0.440164
5.61092 -4.03204 -0.442164
5.64292 -4.02804 -0.444164
5.67192 -4.02204 -0.446164
5.70392 -4.01804 -0.448164
5.72892 -4.02204 -0.450164
5.75592 -4.01404 -0.452164
5.78492 -4.00704 -0.454164
5.82492 -4.00804 -0.457164
5.84092 -3.99204 -0.457164
5.91892 -3.99104 -0.463164
5.97192 -3.98704 -0.467164
6.02992 -3.97104 -0.471164
6.14192 -3.94904 -0.478164
6.24792 -3.93504 -0.486164
6.41692 -3.91604 -0.498164
6.45392 -3.91104 -0.501164
6.62692 -3.89004 -0.513164
6.70992 -3.88204 -0.520164
6.77892 -3.86504 -0.524164
6.82592 -3.86404 -0.528164
6.84092 -3.85804 -0.529164
6.88892 -3.85704 -0.533164
6.97792 -3.85004 -0.540164
7.04692 -3.83104 -0.544164
7.09192 -3.82604 -0.548164
7.12492 -3.83004 -0.551164
7.15892 -3.81904 -0.553164
7.22192 -3.82404 -0.558164
7.29592 -3.80504 -0.563164
7.39992 -3.78504 -0.571164
7.49392 -3.77504 -0.578164
7.55392 -3.77604 -0.583164
7.59292 -3.76504 -0.586164
9.12792 -3.57004 -0.708164
9.16892 -3.56904 -0.711164
9.22992 -3.56004 -0.716164
9.35792 -3.54304 -0.727164
9.42492 -3.53404 -0.732164
9.49392 -3.52604 -0.738164
9.80392 -3.48504 -0.763164
9.87692 -3.47604 -0.769164
9.94192 -3.46404 -0.775164
10.4289 -3.39804 -0.815164
10.8009 -3.35204 -0.847164
10.8819 -3.34004 -0.853164
10.9669 -3.32804 -0.860164
11.1869 -3.30004 -0.879164
5.43892 -4.04504 -0.473164
5.88792 -3.98704 -0.506164
5.95592 -3.97804 -0.511164
5.98792 -3.97304 -0.513164
6.06892 -3.95804 -0.519164
6.13892 -3.94904 -0.525164
6.62592 -3.88704 -0.562164
6.84992 -3.86104 -0.580164
6.88692 -3.85204 -0.583164
7.01192 -3.83604 -0.593164
7.07692 -3.82804 -0.598164
7.16292 -3.81604 -0.605164
7.31892 -3.79604 -0.618164
7.37692 -3.79704 -0.623164
7.46492 -3.78304 -0.630164
7.54592 -3.76404 -0.636164
7.63092 -3.76204 -0.643164
9.11592 -3.56504 -0.769164
9.16392 -3.55004 -0.773164
9.23792 -3.54504 -0.780164
9.37192 -3.52904 -0.791164
9.47992 -3.51904 -0.801164
9.52892 -3.50204 -0.805164
9.61492 -3.50004 -0.813164
9.68492 -3.49104 -0.819164
9.73992 -3.47604 -0.823164
9.82192 -3.47004 -0.831164
9.85492 -3.46404 -0.834164
9.94692 -3.46104 -0.842164
10.0009 -3.44504 -0.847164
10.0909 -3.44004 -0.855164
10.2429 -3.42004 -0.868164
1.35292 -4.57904 -0.306164
5.19992 -4.07304 -0.497164
5.52692 -4.03004 -0.522164
5.76392 -3.99904 -0.540164
5.89392 -3.98104 -0.550164
5.98092 -3.97204 -0.557164
6.04592 -3.96104 -0.562164
6.11892 -3.95404 -0.568164
6.18592 -3.95704 -0.574164
6.24092 -3.93704 -0.578164
6.39292 -3.92204 -0.591164
6.44892 -3.91504 -0.595164
6.52792 -3.90704 -0.602164
6.59992 -3.89404 -0.608164
6.65592 -3.88504 -0.612164
6.69092 -3.87804 -0.615164
6.73592 -3.87504 -0.619164
6.81492 -3.86504 -0.626164
6.87992 -3.85904 -0.631164
6.95392 -3.84404 -0.637164
7.03792 -3.83204 -0.644164
7.14092 -3.81704 -0.653164
7.19492 -3.81704 -0.658164
7.28092 -3.80404 -0.665164
7.43892 -3.78304 -0.679164
7.53192 -3.77204 -0.687164
9.13492 -3.56404 -0.831164
9.19292 -3.55404 -0.836164
9.25392 -3.54404 -0.842164
9.32092 -3.53604 -0.848164
9.38192 -3.52604 -0.854164
9.44292 -3.51504 -0.860164
9.50792 -3.50604 -0.866164
9.56992 -3.51204 -0.872164
9.63692 -3.50204 -0.878164
9.67792 -3.48304 -0.881164
0.0419174 -4.75604 -0.336164
0.0649174 -4.75604 -0.336164
0.123917 -4.74704 -0.335164
0.153917 -4.75004 -0.335164
0.205917 -4.73204 -0.334164
0.234917 -4.72904 -0.333164
0.257917 -4.72804 -0.333164
0.287917 -4.73204 -0.334164
0.301917 -4.71904 -0.333164
0.382917 -4.71304 -0.333164
0.413917 -4.71804 -0.334164
0.442917 -4.71004 -0.333164
0.464917 -4.70804 -0.333164
0.522917 -4.69204 -0.332164
0.545917 -4.69904 -0.333164
0.575917 -4.69704 -0.333164
0.588917 -4.68004 -0.331164
0.604917 -4.68804 -0.332164
0.633917 -4.68604 -0.333164
0.686917 -4.68504 -0.333164
0.715917 -4.67804 -0.333164
0.729917 -4.67004 -0.332164
0.737917 -4.67704 -0.333164
0.750917 -4.66104 -0.332164
0.779917 -4.65804 -0.332164
0.796917 -4.66904 -0.334164
0.808917 -4.65304 -0.332164
0.824917 -4.65804 -0.333164
0.831917 -4.65504 -0.333164
0.848917 -4.66404 -0.334164
0.860917 -4.64604 -0.332164
0.878917 -4.66004 -0.334164
0.891917 -4.65004 -0.333164
0.919917 -4.64004 -0.333164
0.942917 -4.63804 -0.333164
0.959917 -4.64804 -0.335164
0.972917 -4.63604 -0.334164
0.989917 -4.64404 -0.335164
1.00092 -4.62704 -0.333164
1.00992 -4.63204 -0.334164
1.04092 -4.63504 -0.335164
1.05292 -4.62004 -0.334164
1.07192 -4.63404 -0.336164
1.15192 -4.61504 -0.336164
1.16392 -4.60404 -0.335164
1.20292 -4.60604 -0.336164
1.21692 -4.60004 -0.336164
1.23192 -4.59604 -0.336164
1.29992 -4.59004 -0.337164
1.31892 -4.60104 -0.339164
1.34892 -4.59804 -0.340164
1.37592 -4.58204 -0.339164
1.38992 -4.57804 -0.339164
1.39892 -4.57904 -0.339164
1.46192 -4.57904 -0.341164
1.47292 -4.56604 -0.340164
1.49192 -4.57304 -0.342164
1.51092 -4.56004 -0.341164
1.54092 -4.55404 -0.341164
1.57192 -4.55204 -0.342164
1.59992 -4.56204 -0.344164
1.70992 -4.53204 -0.345164
1.74392 -4.53404 -0.347164
1.77492 -4.53004 -0.348164
1.82792 -4.51804 -0.349164
1.85992 -4.51604 -0.350164
1.88392 -4.51404 -0.351164
1.94692 -4.50304 -0.352164
2.08992 -4.48204 -0.357164
3.19392 -4.35204 -0.407164
3.21292 -4.34804 -0.408164
3.33992 -4.33204 -0.415164
4.50292 -4.18304 -0.490164
4.74592 -4.15104 -0.507164
4.98892 -4.11904 -0.526164
6.24692 -3.95204 -0.628164
6.37692 -3.93604 -0.639164
7.54492 -3.78204 -0.744164
7.62592 -3.76304 -0.751164
9.20892 -3.55504 -0.903164
0.0189174 -4.75604 -0.365164
0.0709174 -4.75304 -0.365164
0.0859174 -4.74704 -0.364164
0.100917 -4.75204 -0.365164
0.115917 -4.74204 -0.364164
0.167917 -4.74104 -0.364164
0.182917 -4.73404 -0.363164
0.196917 -4.73404 -0.363164
0.212917 -4.73904 -0.364164
0.219917 -4.72904 -0.363164
0.233917 -4.72804 -0.363164
0.249917 -4.74104 -0.364164
0.264917 -4.73604 -0.364164
0.278917 -4.72504 -0.363164
0.293917 -4.72904 -0.363164
0.307917 -4.72004 -0.362164
0.330917 -4.72004 -0.362164
0.359917 -4.71004 -0.361164
0.374917 -4.71104 -0.362164
0.388917 -4.70604 -0.361164
0.425917 -4.70404 -0.361164
0.440917 -4.70504 -0.362164
0.455917 -4.70404 -0.362164
0.470917 -4.70404 -0.362164
0.484917 -4.69504 -0.361164
0.499917 -4.69904 -0.362164
0.506917 -4.69204 -0.361164
0.522917 -4.69904 -0.362164
0.537917 -4.70104 -0.362164
0.550917 -4.68704 -0.361164
0.566917 -4.69404 -0.362164
0.582917 -4.69804 -0.363164
0.595917 -4.68804 -0.362164
0.602917 -4.68504 -0.361164
0.618917 -4.68904 -0.362164
0.631917 -4.67704 -0.361164
0.646917 -4.67704 -0.361164
0.661917 -4.67304 -0.361164
0.677917 -4.68104 -0.362164
0.691917 -4.67304 -0.361164
0.699917 -4.67804 -0.362164
0.714917 -4.67704 -0.362164
0.727917 -4.66504 -0.361164
0.743917 -4.67304 -0.362164
0.773917 -4.66804 -0.362164
0.788917 -4.67104 -0.363164
0.808917 -4.65604 -0.362164
0.824917 -4.65904 -0.362164
0.839917 -4.66304 -0.363164
0.854917 -4.65804 -0.363164
0.867917 -4.64904 -0.362164
0.889917 -4.64504 -0.362164
0.905917 -4.65004 -0.363164
0.919917 -4.64304 -0.363164
0.934917 -4.64004 -0.363164
0.950917 -4.64704 -0.364164
0.965917 -4.64604 -0.364164
0.972917 -4.64304 -0.364164
0.986917 -4.63404 -0.363164
1.00292 -4.64004 -0.364164
1.01592 -4.62804 -0.363164
1.03192 -4.63204 -0.364164
1.04792 -4.63704 -0.365164
1.06092 -4.62704 -0.364164
1.06792 -4.62204 -0.364164
1.08392 -4.62804 -0.365164
1.09892 -4.62304 -0.365164
1.11192 -4.61404 -0.364164
1.12792 -4.61604 -0.365164
1.14292 -4.61604 -0.365164
1.15592 -4.60704 -0.364164
1.16592 -4.61604 -0.366164
1.18092 -4.61304 -0.366164
1.19592 -4.61104 -0.366164
1.25292 -4.59404 -0.366164
1.27492 -4.59004 -0.366164
1.29292 -4.59704 -0.367164
1.32192 -4.58904 -0.367164
1.33792 -4.59004 -0.368164
1.37192 -4.57604 -0.368164
1.45592 -4.56504 -0.369164
1.50192 -4.56204 -0.371164
1.53092 -4.55504 -0.371164
1.58692 -4.55404 -0.373164
1.71692 -4.53304 -0.376164
1.84092 -4.51604 -0.379164
1.85792 -4.51704 -0.380164
1.87192 -4.51204 -0.380164
1.97692 -4.50204 -0.384164
2.00692 -4.49504 -0.385164
2.87192 -4.38304 -0.422164
2.91092 -4.38404 -0.424164
2.92192 -4.38604 -0.425164
2.93792 -4.38004 -0.426164
2.95392 -4.37404 -0.426164
2.97292 -4.37304 -0.427164
3.00892 -4.36504 -0.429164
3.03292 -4.37104 -0.431164
3.03792 -4.36404 -0.431164
3.05992 -4.36604 -0.433164
3.08192 -4.36804 -0.434164
3.11092 -4.35204 -0.435164
3.13192 -4.35204 -0.436164
3.15692 -4.34304 -0.437164
3.18092 -4.34804 -0.439164
3.21392 -4.33604 -0.440164
3.23492 -4.33504 -0.442164
3.25192 -4.33004 -0.442164
3.26592 -4.33404 -0.444164
3.41692 -4.32004 -0.453164
3.43692 -4.31704 -0.454164
3.45992 -4.31904 -0.456164
3.47192 -4.30504 -0.456164
3.49892 -4.31104 -0.458164
3.52092 -4.31104 -0.460164
3.52792 -4.30504 -0.460164
3.54792 -4.30204 -0.461164
3.57092 -4.30304 -0.463164
3.58492 -4.29204 -0.463164
3.60792 -4.29304 -0.465164
3.65192 -4.29004 -0.468164
3.66592 -4.29304 -0.469164
3.67992 -4.28104 -0.469164
3.69592 -4.27304 -0.470164
3.72592 -4.28104 -0.473164
3.74992 -4.28104 -0.475164
3.77092 -4.27804 -0.476164
3.80392 -4.27504 -0.478164
3.82292 -4.26904 -0.479164
3.84592 -4.26804 -0.481164
3.88992 -4.26304 -0.484164
3.91292 -4.26104 -0.486164
3.96692 -4.25304 -0.489164
4.00992 -4.24504 -0.492164
4.03192 -4.24204 -0.493164
4.05492 -4.23904 -0.495164
4.07592 -4.23504 -0.496164
4.09092 -4.23704 -0.498164
4.15592 -4.22404 -0.502164
4.20192 -4.21704 -0.505164
4.22392 -4.21304 -0.507164
4.25892 -4.20804 -0.509164
4.27992 -4.20304 -0.511164
4.30792 -4.20404 -0.513164
4.32792 -4.19704 -0.514164
4.35292 -4.19404 -0.516164
4.37892 -4.19304 -0.518164
4.39492 -4.19604 -0.520164
4.41692 -4.19004 -0.521164
4.46292 -4.18204 -0.524164
4.48192 -4.17304 -0.525164
4.50892 -4.17104 -0.527164
4.52792 -4.17604 -0.529164
4.54892 -4.16904 -0.531164
4.57492 -4.16604 -0.533164
4.60092 -4.16404 -0.535164
4.62392 -4.15904 -0.536164
4.65492 -4.16004 -0.539164
4.67892 -4.15504 -0.541164
4.68792 -4.15004 -0.541164
4.71192 -4.14504 -0.543164
4.73592 -4.14004 -0.545164
4.76092 -4.13604 -0.547164
4.79492 -4.13904 -0.550164
4.81592 -4.13104 -0.551164
4.84192 -4.12704 -0.553164
4.88592 -4.12504 -0.557164
4.90792 -4.11704 -0.558164
4.94392 -4.12104 -0.562164
4.96292 -4.11104 -0.563164
4.98292 -4.10104 -0.564164
5.02392 -4.10804 -0.568164
5.03792 -4.10704 -0.569164
5.05992 -4.09804 -0.571164
5.08992 -4.09604 -0.573164
5.10892 -4.08504 -0.574164
5.13992 -4.08404 -0.577164
5.17792 -4.08804 -0.581164
5.19692 -4.07604 -0.582164
5.21892 -4.08104 -0.584164
5.25492 -4.08304 -0.587164
5.27392 -4.07104 -0.588164
5.30292 -4.06604 -0.591164
5.33392 -4.06404 -0.593164
5.35992 -4.05704 -0.595164
5.41492 -4.05904 -0.601164
5.43592 -4.04804 -0.602164
5.46492 -4.04304 -0.604164
5.49992 -4.04204 -0.607164
5.52492 -4.03504 -0.609164
5.55492 -4.03004 -0.612164
5.58892 -4.02804 -0.615164
5.60492 -4.02604 -0.616164
5.64292 -4.02704 -0.620164
5.67692 -4.02404 -0.623164
5.69392 -4.01004 -0.624164
5.76792 -4.00804 -0.631164
5.78792 -4.00804 -0.632164
5.81492 -4.00004 -0.635164
5.85192 -3.99904 -0.638164
5.87592 -3.98804 -0.640164
5.91092 -3.98504 -0.643164
5.94192 -3.97904 -0.645164
6.00392 -3.98004 -0.652164
6.03392 -3.97304 -0.654164
6.06692 -3.96704 -0.657164
6.09592 -3.95904 -0.659164
6.13792 -3.95904 -0.663164
6.16092 -3.94604 -0.665164
6.22092 -3.94404 -0.671164
6.25492 -3.93804 -0.674164
6.28792 -3.93104 -0.676164
6.33892 -3.93604 -0.682164
6.36792 -3.92604 -0.684164
6.39692 -3.91704 -0.686164
6.43292 -3.91104 -0.690164
6.46292 -3.91504 -0.693164
6.50392 -3.91304 -0.697164
6.53792 -3.90504 -0.700164
6.56792 -3.89504 -0.702164
6.60692 -3.89104 -0.706164
6.64292 -3.88404 -0.709164
6.68292 -3.87904 -0.713164
6.70792 -3.88004 -0.715164
6.74892 -3.87604 -0.719164
6.78392 -3.86704 -0.722164
6.82692 -3.86404 -0.727164
6.86492 -3.85704 -0.730164
6.90292 -3.85004 -0.734164
6.94492 -3.84404 -0.738164
6.97192 -3.84504 -0.740164
7.01692 -3.84104 -0.745164
7.05292 -3.83304 -0.748164
7.09692 -3.82804 -0.752164
7.13992 -3.82204 -0.756164
7.17792 -3.81404 -0.760164
7.26292 -3.81504 -0.769164
7.29792 -3.80504 -0.772164
7.34692 -3.80104 -0.777164
7.37792 -3.78804 -0.779164
7.55192 -3.77404 -0.797164
7.59092 -3.76304 -0.800164
1.21992 -4.61504 -0.395164
1.41392 -4.58204 -0.397164
1.65392 -4.55804 -0.404164
1.73992 -4.54704 -0.406164
1.84092 -4.53104 -0.409164
1.90292 -4.52004 -0.411164
1.92792 -4.51804 -0.412164
1.96092 -4.51704 -0.413164
1.97092 -4.50204 -0.412164
2.00592 -4.50404 -0.414164
2.01592 -4.50804 -0.415164
2.11092 -4.49104 -0.418164
2.12092 -4.49504 -0.419164
2.13792 -4.49304 -0.420164
3.02292 -4.37504 -0.462164
3.10892 -4.36504 -0.467164
3.22392 -4.35004 -0.474164
3.48292 -4.31804 -0.490164
5.13992 -4.09804 -0.616164
5.16992 -4.09504 -0.619164
5.88392 -4.00204 -0.682164
6.22792 -3.95504 -0.715164
6.88092 -3.86804 -0.778164
7.11192 -3.83704 -0.801164
7.35892 -3.80704 -0.826164
7.40092 -3.79904 -0.830164
5.43892 -4.04204 -0.676164
5.46692 -4.03704 -0.678164
5.64092 -4.01704 -0.695164
5.67892 -4.01804 -0.699164
5.73992 -4.00704 -0.704164
5.76692 -4.00004 -0.707164
5.80792 -4.00104 -0.711164
5.85592 -3.99304 -0.715164
5.88792 -3.98804 -0.718164
5.91792 -3.98204 -0.721164
5.94892 -3.97604 -0.724164
5.98792 -3.97504 -0.728164
6.02392 -3.97104 -0.732164
6.06392 -3.97104 -0.736164
6.07992 -3.96804 -0.737164
6.11092 -3.96104 -0.740164
6.14492 -3.95604 -0.744164
6.18192 -3.95204 -0.747164
6.21492 -3.94604 -0.750164
6.25192 -3.94204 -0.754164
6.27992 -3.93204 -0.756164
6.31992 -3.94304 -0.762164
6.33992 -3.92904 -0.763164
6.38592 -3.93004 -0.768164
6.41392 -3.91904 -0.770164
6.46192 -3.92004 -0.776164
6.48592 -3.90704 -0.777164
6.53492 -3.90904 -0.783164
6.55492 -3.90704 -0.785164
6.62592 -3.89304 -0.792164
6.67892 -3.89704 -0.798164
6.70092 -3.88204 -0.799164
6.75092 -3.88304 -0.805164
6.76592 -3.87704 -0.806164
6.84892 -3.86804 -0.815164
6.91992 -3.85104 -0.822164
7.00292 -3.84004 -0.830164
7.07692 -3.83704 -0.838164
7.15692 -3.82304 -0.847164
7.20892 -3.82204 -0.852164
7.23992 -3.80904 -0.855164
7.28892 -3.80604 -0.861164
7.31392 -3.80504 -0.863164
7.36592 -3.80304 -0.869164
7.39992 -3.79004 -0.872164
7.45192 -3.78804 -0.878164
7.53192 -3.77004 -0.886164
0.167917 -4.75304 -0.451164
0.271917 -4.73404 -0.449164
0.300917 -4.73004 -0.448164
0.330917 -4.72304 -0.448164
0.352917 -4.72704 -0.448164
0.382917 -4.72504 -0.448164
0.411917 -4.71404 -0.447164
0.464917 -4.71504 -0.448164
0.522917 -4.70304 -0.447164
0.574917 -4.70104 -0.448164
0.603917 -4.69304 -0.447164
0.906917 -4.65404 -0.449164
1.62992 -4.55904 -0.462164
1.66092 -4.55604 -0.463164
1.95192 -4.51904 -0.473164
1.96692 -4.51404 -0.473164
1.98292 -4.51204 -0.474164
2.00792 -4.51104 -0.475164
2.03992 -4.50604 -0.476164
2.07192 -4.50004 -0.477164
2.08792 -4.49704 -0.478164
2.10292 -4.49204 -0.478164
2.12692 -4.49004 -0.479164
7.33192 -3.80904 -0.923164
7.36492 -3.79604 -0.927164
7.39992 -3.78504 -0.930164
7.42192 -3.78104 -0.932164
0.00391737 -4.76904 -0.485164
0.0419174 -4.75904 -0.483164
0.0709174 -4.75904 -0.483164
0.0859174 -4.76504 -0.484164
0.100917 -4.75104 -0.482164
0.115917 -4.76004 -0.484164
0.123917 -4.75004 -0.482164
0.138917 -4.75004 -0.482164
0.182917 -4.73804 -0.481164
0.197917 -4.74804 -0.482164
0.212917 -4.73704 -0.481164
0.219917 -4.74504 -0.482164
0.234917 -4.74404 -0.482164
0.279917 -4.73704 -0.482164
0.294917 -4.73504 -0.481164
0.308917 -4.72804 -0.480164
0.331917 -4.72804 -0.481164
0.345917 -4.72504 -0.480164
0.360917 -4.72404 -0.480164
0.375917 -4.72704 -0.481164
0.390917 -4.72204 -0.480164
0.404917 -4.71804 -0.480164
0.412917 -4.72204 -0.481164
0.426917 -4.71104 -0.479164
0.441917 -4.71304 -0.480164
0.501917 -4.70904 -0.480164
0.507917 -4.70004 -0.479164
0.552917 -4.70104 -0.480164
0.581917 -4.69404 -0.479164
0.596917 -4.69404 -0.480164
0.618917 -4.68504 -0.479164
0.633917 -4.68904 -0.480164
0.662917 -4.68104 -0.479164
0.700917 -4.68404 -0.480164
0.715917 -4.68104 -0.480164
0.729917 -4.67504 -0.480164
0.758917 -4.66904 -0.479164
0.787917 -4.66604 -0.480164
0.795917 -4.66604 -0.480164
0.825917 -4.66504 -0.480164
0.855917 -4.66204 -0.481164
0.980917 -4.64504 -0.482164
1.07692 -4.62604 -0.482164
1.24192 -4.60904 -0.485164
1.27992 -4.60704 -0.487164
1.30792 -4.59704 -0.486164
1.36292 -4.59704 -0.489164
1.48692 -4.56504 -0.489164
1.52192 -4.57404 -0.492164
1.53692 -4.57004 -0.492164
1.55892 -4.56604 -0.493164
1.57492 -4.56504 -0.493164
1.60392 -4.55704 -0.494164
1.61692 -4.54804 -0.493164
1.64692 -4.54104 -0.494164
1.65892 -4.55204 -0.496164
1.67492 -4.55004 -0.496164
1.68892 -4.54504 -0.496164
1.70492 -4.54504 -0.497164
1.71892 -4.53804 -0.497164
1.73292 -4.53304 -0.497164
1.75192 -4.54004 -0.499164
1.76092 -4.54104 -0.499164
1.77592 -4.53704 -0.499164
1.79092 -4.53504 -0.500164
1.80192 -4.52104 -0.499164
1.82092 -4.52604 -0.500164
1.87492 -4.51904 -0.502164
1.89192 -4.51804 -0.503164
1.92292 -4.51204 -0.504164
1.94292 -4.52004 -0.506164
1.96192 -4.50504 -0.505164
1.97792 -4.50504 -0.506164
1.99292 -4.50004 -0.506164
2.01092 -4.50104 -0.508164
2.03092 -4.50904 -0.510164
2.03992 -4.49204 -0.508164
2.05092 -4.49604 -0.509164
2.08492 -4.49604 -0.511164
2.11292 -4.48304 -0.511164
2.13192 -4.48704 -0.513164
2.14392 -4.47504 -0.512164
2.88092 -4.39704 -0.554164
2.89792 -4.39304 -0.555164
2.92492 -4.38904 -0.556164
2.93792 -4.37804 -0.556164
2.95892 -4.38104 -0.558164
2.97792 -4.37904 -0.559164
3.01392 -4.37204 -0.561164
3.03392 -4.37204 -0.563164
3.06492 -4.37304 -0.566164
3.08192 -4.36804 -0.566164
3.09992 -4.36504 -0.568164
3.12092 -4.36504 -0.569164
3.13692 -4.35804 -0.570164
3.16492 -4.35404 -0.572164
3.18092 -4.34804 -0.572164
3.20092 -4.34604 -0.574164
3.22392 -4.34804 -0.576164
3.24292 -4.34604 -0.577164
3.25892 -4.33904 -0.578164
3.44092 -4.32204 -0.592164
3.47392 -4.30804 -0.593164
3.54292 -4.31004 -0.600164
3.62992 -4.29104 -0.605164
3.64792 -4.28404 -0.606164
3.70792 -4.28704 -0.612164
3.76792 -4.27404 -0.616164
3.86892 -4.26604 -0.625164
3.96492 -4.25104 -0.633164
4.00692 -4.24104 -0.636164
4.02392 -4.23304 -0.637164
4.05492 -4.23904 -0.640164
4.08792 -4.23304 -0.643164
4.13592 -4.23004 -0.647164
4.18192 -4.22404 -0.651164
4.20392 -4.21904 -0.653164
4.22992 -4.21804 -0.655164
4.23892 -4.21404 -0.656164
4.31192 -4.20804 -0.663164
4.33392 -4.20204 -0.664164
4.35392 -4.19604 -0.666164
4.41692 -4.19004 -0.672164
4.46592 -4.18404 -0.676164
4.49292 -4.18204 -0.679164
4.51692 -4.17904 -0.681164
4.55292 -4.17204 -0.684164
4.59892 -4.16204 -0.688164
4.65192 -4.15704 -0.693164
4.68092 -4.15704 -0.696164
4.70192 -4.14904 -0.697164
4.74592 -4.14904 -0.702164
4.77092 -4.14404 -0.704164
4.82292 -4.13604 -0.709164
4.85092 -4.13404 -0.712164
4.87292 -4.12704 -0.714164
4.91192 -4.12004 -0.717164
4.94592 -4.12304 -0.721164
4.96492 -4.11204 -0.722164
5.00392 -4.11804 -0.727164
5.02592 -4.11004 -0.729164
5.14492 -4.08804 -0.740164
5.17492 -4.08504 -0.743164
5.21392 -4.09004 -0.748164
5.22392 -4.08404 -0.748164
5.57092 -4.04104 -0.784164
5.81092 -4.01104 -0.809164
6.02192 -3.97804 -0.831164
6.11392 -3.97004 -0.842164
6.17592 -3.95604 -0.848164
6.21292 -3.95204 -0.852164
6.25392 -3.95104 -0.857164
6.26792 -3.94604 -0.858164
6.38392 -3.93604 -0.871164
6.40692 -3.92204 -0.873164
6.45292 -3.92304 -0.879164
6.59092 -3.90904 -0.894164
6.62392 -3.90004 -0.898164
6.66292 -3.89504 -0.902164
6.69692 -3.88704 -0.906164
6.74692 -3.87304 -0.911164
6.78592 -3.86804 -0.916164
2.04392 -4.50504 -0.532164
2.99092 -4.38004 -0.584164
4.15992 -4.22904 -0.676164
4.26492 -4.21504 -0.686164
4.69492 -4.15404 -0.726164
4.75092 -4.15004 -0.731164
4.97792 -4.11904 -0.754164
5.07892 -4.10804 -0.764164
5.13392 -4.10004 -0.769164
5.15592 -4.09104 -0.771164
5.29292 -4.07904 -0.786164
5.31992 -4.07304 -0.789164
5.37792 -4.06304 -0.794164
5.39492 -4.06304 -0.796164
5.45892 -4.05704 -0.803164
5.48692 -4.05204 -0.806164
5.54192 -4.03804 -0.811164
5.58192 -4.04004 -0.816164
5.62592 -4.03204 -0.821164
5.65392 -4.02504 -0.824164
5.72292 -4.02004 -0.831164
5.75792 -4.01704 -0.835164
5.80792 -4.01204 -0.841164
5.90592 -3.99704 -0.852164
5.93292 -3.98904 -0.854164
5.97192 -3.98804 -0.859164
5.98892 -3.98504 -0.861164
6.02592 -3.98204 -0.865164
6.05492 -3.97404 -0.868164
6.08092 -3.96404 -0.870164
6.12092 -3.96304 -0.875164
6.15192 -3.95504 -0.878164
6.18092 -3.94604 -0.881164
6.21292 -3.95204 -0.885164
6.24992 -3.94904 -0.890164
6.28592 -3.94404 -0.894164
6.31492 -3.93404 -0.897164
6.35292 -3.93004 -0.901164
6.38192 -3.92004 -0.904164
6.43192 -3.92304 -0.910164
6.53492 -3.91604 -0.923164
6.57092 -3.90904 -0.927164
6.59092 -3.89304 -0.928164
0.00691737 -4.77404 -0.542164
0.0369174 -4.76904 -0.541164
0.0739174 -4.76704 -0.541164
0.118917 -4.75604 -0.539164
0.147917 -4.74904 -0.538164
0.155917 -4.75304 -0.539164
0.185917 -4.75204 -0.539164
0.200917 -4.74804 -0.538164
0.215917 -4.74704 -0.538164
0.252917 -4.74104 -0.538164
0.281917 -4.73904 -0.538164
0.326917 -4.73304 -0.537164
0.444917 -4.71504 -0.536164
0.665917 -4.68704 -0.536164
0.872917 -4.66104 -0.537164
1.16192 -4.61804 -0.540164
1.17792 -4.62004 -0.541164
1.21492 -4.61404 -0.541164
1.24292 -4.60504 -0.541164
1.25992 -4.60804 -0.542164
1.29692 -4.60204 -0.543164
1.32692 -4.59804 -0.543164
1.34292 -4.59904 -0.544164
1.37192 -4.59104 -0.544164
1.38792 -4.59404 -0.546164
1.40792 -4.58004 -0.544164
1.42392 -4.58104 -0.545164
1.47192 -4.58304 -0.548164
1.48592 -4.57604 -0.547164
1.49392 -4.57704 -0.548164
1.50792 -4.57304 -0.548164
1.52292 -4.56804 -0.548164
1.55592 -4.57104 -0.550164
1.57092 -4.57004 -0.551164
1.58492 -4.56304 -0.550164
1.59392 -4.56504 -0.551164
1.60892 -4.56204 -0.551164
1.62392 -4.56004 -0.552164
1.63692 -4.55104 -0.551164
1.65292 -4.55004 -0.552164
1.66992 -4.55404 -0.553164
1.67592 -4.54804 -0.553164
1.70392 -4.53504 -0.552164
1.72292 -4.54304 -0.555164
1.73792 -4.53904 -0.555164
1.75292 -4.53604 -0.555164
1.76992 -4.53704 -0.556164
1.79492 -4.53804 -0.558164
1.80592 -4.52304 -0.556164
1.82392 -4.52704 -0.558164
1.83892 -4.52504 -0.559164
1.85292 -4.51904 -0.559164
1.87192 -4.52404 -0.560164
1.87692 -4.51604 -0.559164
1.89292 -4.51504 -0.560164
1.91392 -4.52404 -0.563164
1.92592 -4.51204 -0.562164
1.94392 -4.51504 -0.563164
1.95892 -4.51304 -0.564164
1.97592 -4.51204 -0.565164
1.98492 -4.51404 -0.566164
2.01192 -4.49804 -0.565164
2.03192 -4.50504 -0.567164
2.04692 -4.50004 -0.568164
2.06092 -4.49404 -0.568164
2.07892 -4.49604 -0.569164
2.08792 -4.49604 -0.570164
2.09892 -4.48304 -0.569164
2.11692 -4.48504 -0.570164
2.91792 -4.38804 -0.618164
2.97892 -4.37604 -0.621164
3.00092 -4.37804 -0.623164
3.01492 -4.37004 -0.624164
3.03592 -4.37004 -0.626164
3.05192 -4.36404 -0.626164
3.07092 -4.36204 -0.628164
3.08392 -4.36604 -0.629164
3.12192 -4.36204 -0.632164
3.14292 -4.36204 -0.634164
3.17792 -4.35404 -0.636164
3.22892 -4.35104 -0.640164
5.84892 -4.00504 -0.896164
6.06392 -3.97404 -0.921164
6.07892 -3.97004 -0.923164
6.11092 -3.96404 -0.926164
0.00291737 -4.76904 -0.640164
0.0179174 -4.77304 -0.640164
0.0399174 -4.77104 -0.640164
0.0549174 -4.76304 -0.639164
0.114917 -4.76004 -0.638164
0.121917 -4.75204 -0.637164
0.151917 -4.75104 -0.637164
0.166917 -4.74704 -0.637164
0.181917 -4.75204 -0.638164
0.196917 -4.75104 -0.638164
0.210917 -4.74304 -0.636164
0.232917 -4.74004 -0.636164
0.247917 -4.74104 -0.636164
0.262917 -4.73804 -0.636164
0.277917 -4.73504 -0.636164
0.292917 -4.73304 -0.635164
0.306917 -4.72804 -0.635164
0.314917 -4.73104 -0.635164
0.329917 -4.73004 -0.635164
0.358917 -4.72204 -0.634164
0.373917 -4.72104 -0.634164
0.387917 -4.71404 -0.633164
0.402917 -4.71604 -0.634164
0.410917 -4.71804 -0.634164
0.425917 -4.71404 -0.634164
0.439917 -4.71304 -0.634164
0.499917 -4.71104 -0.635164
0.506917 -4.70804 -0.634164
0.536917 -4.70504 -0.634164
0.565917 -4.69804 -0.634164
0.580917 -4.70004 -0.634164
0.594917 -4.69404 -0.634164
0.602917 -4.69504 -0.634164
0.617917 -4.69504 -0.634164
0.632917 -4.69104 -0.634164
0.646917 -4.68904 -0.634164
0.661917 -4.68904 -0.634164
0.698917 -4.68404 -0.634164
0.712917 -4.67604 -0.633164
0.728917 -4.68104 -0.635164
0.743917 -4.67904 -0.635164
1.04692 -4.63904 -0.638164
1.11392 -4.62904 -0.638164
1.15792 -4.61804 -0.638164
1.19592 -4.61904 -0.640164
1.24092 -4.61304 -0.641164
1.29292 -4.60104 -0.641164
1.32292 -4.59704 -0.642164
1.33792 -4.59404 -0.642164
1.36092 -4.59404 -0.643164
1.37492 -4.58904 -0.643164
1.42092 -4.58404 -0.644164
1.43792 -4.58704 -0.646164
1.44992 -4.57704 -0.645164
1.45992 -4.58204 -0.646164
1.48792 -4.57104 -0.646164
1.50392 -4.57204 -0.647164
1.53292 -4.56204 -0.647164
1.55992 -4.57004 -0.649164
1.57292 -4.56104 -0.649164
1.58692 -4.55604 -0.649164
1.60492 -4.56204 -0.650164
1.61592 -4.54804 -0.649164
1.63192 -4.54604 -0.649164
1.64792 -4.54704 -0.650164
1.65492 -4.54404 -0.650164
1.67192 -4.54504 -0.651164
1.68992 -4.54904 -0.653164
1.70192 -4.54004 -0.652164
1.71792 -4.53804 -0.653164
1.73292 -4.53404 -0.653164
1.74792 -4.53104 -0.654164
1.75692 -4.53204 -0.654164
1.77092 -4.52804 -0.655164
1.78792 -4.52804 -0.655164
1.80392 -4.52804 -0.656164
1.81892 -4.52204 -0.656164
1.83292 -4.51604 -0.656164
1.84892 -4.51604 -0.657164
1.85892 -4.51804 -0.658164
1.87392 -4.51604 -0.659164
1.89092 -4.51604 -0.660164
1.90392 -4.50804 -0.660164
1.92192 -4.51104 -0.661164
1.94392 -4.50404 -0.661164
1.96092 -4.50304 -0.662164
1.97492 -4.49704 -0.662164
2.04092 -4.49304 -0.666164
2.04792 -4.49004 -0.666164
2.09592 -4.48304 -0.668164
2.91192 -4.37704 -0.717164
2.92892 -4.38904 -0.720164
2.94892 -4.38804 -0.722164
2.95992 -4.37504 -0.721164
2.97992 -4.37404 -0.723164
3.00092 -4.37604 -0.725164
3.01492 -4.36704 -0.725164
3.03992 -4.37304 -0.728164
3.06892 -4.37004 -0.730164
3.08692 -4.36704 -0.732164
3.12092 -4.35704 -0.734164
3.13692 -4.35104 -0.734164
3.17092 -4.35304 -0.738164
3.18992 -4.35104 -0.739164
3.21092 -4.35104 -0.741164
3.22992 -4.34804 -0.743164
3.24692 -4.34104 -0.743164
3.28692 -4.33804 -0.747164
3.29992 -4.34104 -0.748164
3.39592 -4.32404 -0.756164
3.53092 -4.31204 -0.767164
3.58092 -4.30404 -0.772164
3.64392 -4.29504 -0.777164
3.66492 -4.29304 -0.779164
3.69392 -4.28604 -0.781164
3.75892 -4.27904 -0.787164
3.78292 -4.27904 -0.789164
3.85792 -4.26804 -0.796164
3.88092 -4.26604 -0.798164
3.90192 -4.26204 -0.800164
3.92492 -4.26004 -0.802164
3.97892 -4.25004 -0.807164
3.99992 -4.24704 -0.809164
4.02592 -4.24704 -0.812164
4.04492 -4.24004 -0.813164
4.06492 -4.23404 -0.815164
4.08592 -4.23004 -0.816164
4.10292 -4.23304 -0.819164
4.12592 -4.23004 -0.821164
4.14592 -4.22404 -0.822164
4.17192 -4.22404 -0.825164
4.18992 -4.21604 -0.826164
4.21292 -4.21304 -0.829164
4.23492 -4.20804 -0.831164
4.25192 -4.21104 -0.833164
4.27592 -4.20904 -0.835164
4.30192 -4.20804 -0.838164
4.34692 -4.19804 -0.842164
4.36892 -4.19304 -0.844164
4.39492 -4.19104 -0.847164
4.43592 -4.19104 -0.852164
4.48292 -4.18104 -0.856164
4.53392 -4.17604 -0.861164
4.55392 -4.16804 -0.863164
4.59892 -4.16904 -0.868164
4.62492 -4.16704 -0.871164
4.67792 -4.16104 -0.877164
4.70292 -4.15704 -0.879164
4.72292 -4.14804 -0.881164
4.73992 -4.15004 -0.883164
4.81692 -4.13704 -0.891164
4.84292 -4.13304 -0.894164
4.86692 -4.12704 -0.896164
4.91292 -4.12704 -0.901164
4.93792 -4.12204 -0.904164
4.95892 -4.11204 -0.906164
4.99292 -4.11404 -0.910164
5.01692 -4.10704 -0.912164
5.05092 -4.10904 -0.916164
5.05792 -4.10104 -0.916164
5.08892 -4.10004 -0.920164
5.11292 -4.09204 -0.922164
5.14292 -4.09004 -0.926164
0.00191737 -4.76604 -0.686164
0.0169174 -4.76804 -0.687164
0.0319174 -4.76004 -0.685164
0.0469174 -4.76204 -0.686164
0.0619174 -4.76204 -0.686164
0.0769174 -4.76104 -0.686164
0.0919174 -4.76104 -0.686164
0.0999174 -4.75904 -0.685164
0.114917 -4.75304 -0.684164
0.129917 -4.75404 -0.685164
0.143917 -4.75404 -0.685164
0.158917 -4.75004 -0.684164
0.173917 -4.74104 -0.683164
0.188917 -4.74804 -0.684164
0.195917 -4.74204 -0.683164
0.210917 -4.74604 -0.684164
0.225917 -4.73904 -0.683164
0.240917 -4.73604 -0.682164
0.255917 -4.73904 -0.683164
0.270917 -4.74104 -0.683164
0.284917 -4.73204 -0.682164
0.292917 -4.72704 -0.681164
0.307917 -4.73004 -0.682164
0.322917 -4.73104 -0.682164
0.336917 -4.72104 -0.681164
0.351917 -4.72304 -0.681164
0.366917 -4.71804 -0.681164
0.380917 -4.71904 -0.681164
0.388917 -4.71504 -0.680164
0.403917 -4.72104 -0.682164
0.433917 -4.71904 -0.682164
0.448917 -4.71704 -0.682164
0.462917 -4.70804 -0.680164
0.477917 -4.70804 -0.681164
0.484917 -4.70604 -0.680164
0.513917 -4.70304 -0.680164
0.528917 -4.69704 -0.680164
0.544917 -4.70504 -0.681164
0.558917 -4.69904 -0.681164
0.573917 -4.70004 -0.681164
0.580917 -4.69704 -0.681164
0.594917 -4.69104 -0.680164
0.624917 -4.68904 -0.680164
0.638917 -4.68504 -0.680164
0.654917 -4.68904 -0.681164
0.668917 -4.68304 -0.680164
0.691917 -4.68604 -0.681164
0.772917 -4.67104 -0.681164
0.787917 -4.67104 -0.681164
0.817917 -4.66904 -0.682164
0.831917 -4.66504 -0.682164
0.853917 -4.66104 -0.682164
0.897917 -4.65704 -0.682164
0.941917 -4.64804 -0.682164
0.994917 -4.64504 -0.684164
1.02492 -4.64004 -0.684164
1.03992 -4.63904 -0.684164
1.06092 -4.63404 -0.684164
1.07592 -4.63104 -0.684164
1.10292 -4.61604 -0.683164
1.11992 -4.62404 -0.685164
1.14292 -4.62104 -0.685164
1.15692 -4.61704 -0.685164
1.20192 -4.61004 -0.686164
1.22992 -4.60004 -0.686164
1.23892 -4.60404 -0.687164
1.25592 -4.61004 -0.688164
1.26592 -4.59104 -0.686164
1.28392 -4.60004 -0.688164
1.30092 -4.60404 -0.689164
1.31292 -4.59204 -0.688164
1.33092 -4.59904 -0.690164
1.34892 -4.58004 -0.688164
1.36592 -4.58504 -0.689164
1.38192 -4.58804 -0.691164
1.39492 -4.57604 -0.689164
1.40992 -4.57504 -0.690164
1.42892 -4.58604 -0.693164
1.43192 -4.56904 -0.690164
1.44692 -4.56804 -0.691164
1.46592 -4.57704 -0.693164
1.47692 -4.56304 -0.691164
1.49292 -4.56404 -0.692164
1.50992 -4.56604 -0.694164
1.52292 -4.55804 -0.693164
1.53192 -4.56104 -0.694164
1.54892 -4.56604 -0.696164
1.56392 -4.56104 -0.696164
1.57692 -4.55404 -0.695164
1.59692 -4.56404 -0.698164
1.60792 -4.54904 -0.696164
1.63292 -4.55304 -0.698164
1.64592 -4.54204 -0.697164
1.66292 -4.54604 -0.699164
1.67992 -4.54704 -0.700164
1.69192 -4.53604 -0.699164
1.70992 -4.54204 -0.701164
1.71692 -4.53904 -0.701164
1.73292 -4.53704 -0.702164
1.74592 -4.53004 -0.701164
1.76492 -4.53504 -0.703164
1.81692 -4.52104 -0.704164
1.84992 -4.52104 -0.706164
1.89392 -4.50804 -0.707164
1.90992 -4.50604 -0.708164
1.91992 -4.51004 -0.709164
1.93492 -4.50604 -0.710164
1.95192 -4.50604 -0.711164
1.96692 -4.50104 -0.711164
1.98492 -4.50604 -0.713164
1.99992 -4.50104 -0.713164
2.02392 -4.49704 -0.714164
2.03992 -4.49504 -0.715164
2.05492 -4.49004 -0.715164
2.10292 -4.48504 -0.718164
2.11892 -4.48204 -0.719164
2.12592 -4.47804 -0.719164
2.92892 -4.38404 -0.772164
2.94192 -4.37304 -0.772164
2.96492 -4.37704 -0.774164
2.99492 -4.36304 -0.775164
3.00892 -4.36904 -0.777164
3.02892 -4.36904 -0.779164
3.04392 -4.36104 -0.780164
3.06292 -4.35904 -0.781164
3.08592 -4.36304 -0.784164
3.09992 -4.35304 -0.784164
3.12192 -4.35404 -0.786164
3.15292 -4.35604 -0.790164
3.16692 -4.34604 -0.790164
3.18892 -4.34704 -0.792164
3.20292 -4.33704 -0.792164
3.22392 -4.33804 -0.794164
3.24292 -4.34904 -0.798164
3.25692 -4.33904 -0.798164
3.27692 -4.33804 -0.800164
3.29892 -4.33904 -0.802164
3.47592 -4.30004 -0.815164
3.49792 -4.31304 -0.819164
3.56092 -4.30704 -0.825164
3.57692 -4.29904 -0.826164
3.61792 -4.29304 -0.829164
3.63292 -4.29804 -0.832164
3.65292 -4.29404 -0.833164
3.75892 -4.28104 -0.843164
3.83492 -4.27104 -0.851164
3.85192 -4.26404 -0.852164
3.87892 -4.26604 -0.855164
3.89592 -4.25904 -0.856164
3.99592 -4.24604 -0.866164
4.01892 -4.24404 -0.868164
4.04192 -4.24104 -0.871164
4.05292 -4.23904 -0.872164
4.07492 -4.23604 -0.874164
4.09992 -4.23504 -0.877164
4.11792 -4.22804 -0.878164
4.13992 -4.22304 -0.880164
4.16292 -4.22004 -0.882164
4.18792 -4.22004 -0.885164
4.20192 -4.22004 -0.887164
4.22192 -4.21404 -0.889164
4.24692 -4.21204 -0.891164
4.27092 -4.20904 -0.894164
4.29392 -4.20604 -0.896164
4.31792 -4.20304 -0.899164
4.34392 -4.20204 -0.902164
4.35892 -4.20304 -0.904164
4.38192 -4.19904 -0.906164
4.40292 -4.19204 -0.908164
4.42692 -4.18904 -0.911164
4.45492 -4.18904 -0.914164
4.47092 -4.17804 -0.915164
4.49192 -4.18404 -0.918164
4.51592 -4.18104 -0.921164
4.54192 -4.17904 -0.924164
4.58892 -4.16904 -0.928164
4.61092 -4.16204 -0.930164
4.63292 -4.15604 -0.932164
4.66792 -4.14804 -0.936164
4.68892 -4.14004 -0.938164
4.71592 -4.13904 -0.941164
2.91692 -4.38704 -0.818164
2.93492 -4.38504 -0.819164
2.96292 -4.38204 -0.822164
2.98092 -4.37904 -0.823164
3.07592 -4.36904 -0.831164
3.30692 -4.33904 -0.851164
3.41592 -4.32404 -0.861164
4.28692 -4.20804 -0.949164
4.28892 -4.19704 -0.948164
4.31092 -4.19204 -0.950164
4.34192 -4.19604 -0.954164
0.221917 -4.73204 -0.759164
0.303917 -4.72604 -0.758164
2.05892 -4.49004 -0.796164
2.08992 -4.48304 -0.797164
3.29392 -4.32404 -0.888164
3.33292 -4.31904 -0.891164
3.35192 -4.31604 -0.893164
3.52192 -4.29404 -0.910164
3.55692 -4.29604 -0.914164
3.59792 -4.29004 -0.918164
3.61892 -4.28704 -0.920164
3.64092 -4.28704 -0.923164
3.64692 -4.27904 -0.922164
3.68992 -4.27604 -0.927164
3.71092 -4.27304 -0.929164
3.74292 -4.28204 -0.934164
3.77892 -4.26904 -0.937164
3.78792 -4.26604 -0.938164
3.81692 -4.27204 -0.942164
3.83292 -4.26304 -0.943164
3.85792 -4.26404 -0.946164
3.86992 -4.25004 -0.946164
3.91692 -4.24804 -0.951164
0.0819174 -4.74904 -0.803164
1.39992 -4.57604 -0.810164
1.97292 -4.49904 -0.835164
3.15892 -4.34304 -0.923164
3.19692 -4.33704 -0.927164
3.26792 -4.33304 -0.934164
3.30292 -4.32304 -0.937164
3.32392 -4.32204 -0.939164
3.52792 -4.30004 -0.961164
3.55192 -4.30104 -0.964164
3.57792 -4.30504 -0.967164
3.59392 -4.29704 -0.968164
3.62892 -4.28304 -0.970164
3.63792 -4.28004 -0.971164
0.355917 -4.72704 -0.857164
0.540917 -4.70504 -0.856164
0.547917 -4.70304 -0.856164
0.562917 -4.70304 -0.856164
0.577917 -4.70104 -0.856164
0.606917 -4.69304 -0.855164
1.61592 -4.56204 -0.878164
1.66192 -4.55404 -0.879164
1.67792 -4.55504 -0.880164
1.76092 -4.53604 -0.883164
1.79892 -4.52904 -0.884164
1.84792 -4.52804 -0.888164
1.88092 -4.52604 -0.890164
1.89492 -4.52004 -0.890164
1.90092 -4.51504 -0.890164
1.93292 -4.51204 -0.892164
1.95092 -4.51304 -0.893164
1.98092 -4.50604 -0.894164
1.99792 -4.50704 -0.896164
2.02392 -4.50704 -0.898164
2.05692 -4.50404 -0.900164
2.06892 -4.49404 -0.900164
2.08692 -4.49504 -0.901164
2.10192 -4.49004 -0.902164
2.11292 -4.49604 -0.904164
2.14192 -4.48404 -0.904164
2.15692 -4.47904 -0.904164
2.17392 -4.48004 -0.906164
2.18992 -4.47604 -0.907164
2.20192 -4.48304 -0.909164
2.23092 -4.47104 -0.910164
2.24992 -4.47504 -0.912164
2.26492 -4.46904 -0.913164
2.28392 -4.47104 -0.915164
2.29692 -4.46204 -0.914164
2.30592 -4.46204 -0.915164
2.32592 -4.46704 -0.918164
2.34292 -4.46504 -0.919164
2.35592 -4.45604 -0.919164
2.36992 -4.44804 -0.919164
2.39192 -4.45604 -0.922164
2.40692 -4.45004 -0.923164
2.41692 -4.45204 -0.924164
2.43092 -4.44404 -0.924164
2.44892 -4.44504 -0.926164
2.48292 -4.44004 -0.928164
2.50192 -4.44104 -0.930164
2.51392 -4.43104 -0.930164
2.52692 -4.43704 -0.932164
2.54592 -4.43804 -0.934164
2.56092 -4.43204 -0.935164
2.57692 -4.42704 -0.935164
2.60792 -4.41704 -0.937164
2.62692 -4.41804 -0.939164
2.64192 -4.42704 -0.942164
2.65392 -4.41504 -0.941164
2.67592 -4.42004 -0.945164
2.69092 -4.41404 -0.945164
2.70592 -4.40704 -0.945164
2.72592 -4.40804 -0.948164
2.73892 -4.39804 -0.947164
2.74792 -4.39904 -0.949164
2.76992 -4.40204 -0.952164
2.78992 -4.40304 -0.954164
2.80592 -4.39804 -0.955164
2.82592 -4.39904 -0.957164
2.84492 -4.39804 -0.959164
2.86192 -4.39404 -0.960164
2.86592 -4.38604 -0.960164
2.89192 -4.39504 -0.964164
2.90292 -4.38104 -0.963164
2.91992 -4.37704 -0.964164
2.60592 -4.43404 -0.989164
2.67392 -4.42104 -0.994164
2.69792 -4.41404 -0.995164
2.73692 -4.41504 -0.999164
2.75192 -4.40804 -1.00016
2.76492 -4.39804 -0.999164
2.78992 -4.40704 -1.00416
2.79892 -4.39004 -1.00216
2.81492 -4.40004 -1.00616
2.83592 -4.40304 -1.00916
2.84992 -4.39404 -1.00916
2.86292 -4.38304 -1.00816
2.88692 -4.39104 -1.01216
2.92892 -4.37904 -1.01516
2.94992 -4.38004 -1.01816
2.99192 -4.38204 -1.02316
2.99992 -4.36504 -1.02116
3.03592 -4.35804 -1.02516
3.13992 -4.34504 -1.03516
2.10092 -4.49804 -0.991164
2.11392 -4.49004 -0.991164
2.12492 -4.49604 -0.993164
2.14092 -4.49204 -0.994164
2.15492 -4.48604 -0.994164
2.16992 -4.48104 -0.994164
2.18592 -4.47704 -0.995164
2.20092 -4.47404 -0.996164
2.21592 -4.46904 -0.996164
2.22692 -4.47204 -0.998164
2.24192 -4.46904 -0.999164
2.26092 -4.47004 -1.00116
2.27292 -4.46004 -1.00016
2.29192 -4.46304 -1.00316
2.32592 -4.45904 -1.00516
2.33292 -4.45504 -1.00516
2.34992 -4.45504 -1.00716
2.37292 -4.46304 -1.01116
2.38192 -4.44704 -1.00916
2.39892 -4.44504 -1.01016
2.41792 -4.44704 -1.01316
2.42292 -4.44004 -1.01216
2.46092 -4.44204 -1.01616
2.47392 -4.43304 -1.01616
2.51292 -4.43704 -1.02116
2.53292 -4.42404 -1.02116
2.55692 -4.43404 -1.02516
2.60292 -4.41704 -1.02716
2.64492 -4.41004 -1.03116
2.75092 -4.39604 -1.04016
2.79692 -4.39204 -1.04516
2.81292 -4.38804 -1.04616
2.84892 -4.38404 -1.05016
2.89392 -4.37704 -1.05416
2.94992 -4.37104 -1.06016
2.99492 -4.36404 -1.06416
3.04992 -4.35604 -1.07016
0.0429174 -4.76104 -0.988164
0.0579174 -4.76904 -0.990164
0.0649174 -4.75504 -0.987164
0.0949174 -4.74504 -0.984164
0.109917 -4.75604 -0.987164
0.123917 -4.74804 -0.985164
0.139917 -4.75504 -0.987164
0.161917 -4.74904 -0.986164
0.175917 -4.73604 -0.983164
0.191917 -4.75004 -0.986164
0.205917 -4.73704 -0.983164
0.220917 -4.74204 -0.985164
0.235917 -4.73004 -0.982164
0.257917 -4.73504 -0.983164
0.272917 -4.74004 -0.985164
0.287917 -4.72904 -0.982164
0.317917 -4.73104 -0.983164
0.332917 -4.73004 -0.983164
0.354917 -4.72604 -0.983164
0.368917 -4.71804 -0.981164
0.397917 -4.71104 -0.980164
0.412917 -4.71604 -0.982164
0.428917 -4.72004 -0.983164
0.434917 -4.70804 -0.980164
0.449917 -4.70504 -0.980164
0.478917 -4.69804 -0.979164
0.494917 -4.70604 -0.981164
0.509917 -4.70804 -0.982164
0.522917 -4.69504 -0.979164
0.530917 -4.69404 -0.979164
0.560917 -4.69504 -0.980164
0.575917 -4.69704 -0.981164
0.604917 -4.69304 -0.981164
0.619917 -4.68904 -0.981164
0.640917 -4.67904 -0.979164
0.655917 -4.67704 -0.979164
0.685917 -4.67604 -0.980164
0.723917 -4.68004 -0.982164
0.738917 -4.68004 -0.982164
0.752917 -4.67604 -0.982164
0.765917 -4.66004 -0.979164
0.779917 -4.65504 -0.978164
0.819917 -4.66604 -0.982164
0.847917 -4.65704 -0.982164
0.861917 -4.65104 -0.981164
0.906917 -4.64604 -0.982164
0.913917 -4.64704 -0.982164
0.926917 -4.63604 -0.980164
0.941917 -4.63504 -0.981164
0.960917 -4.65104 -0.985164
0.986917 -4.63204 -0.982164
1.00492 -4.64404 -0.986164
1.00892 -4.62504 -0.982164
1.04192 -4.63804 -0.986164
1.06792 -4.62004 -0.983164
1.08292 -4.61604 -0.983164
1.12192 -4.62104 -0.987164
1.14992 -4.60604 -0.985164
1.16392 -4.60504 -0.985164
1.20392 -4.60704 -0.988164
1.23392 -4.60504 -0.989164
1.24692 -4.59704 -0.988164
1.26192 -4.59304 -0.988164
1.28592 -4.59404 -0.990164
1.32892 -4.58404 -0.991164
1.11592 -4.62904 -1.02716
1.15192 -4.62004 -1.02716
1.24192 -4.61004 -1.03016
1.24992 -4.60804 -1.03016
1.29292 -4.59804 -1.03116
1.30892 -4.60004 -1.03216
1.32392 -4.59604 -1.03216
1.33592 -4.58204 -1.03016
1.34792 -4.59904 -1.03516
1.36192 -4.59304 -1.03416
1.37392 -4.58104 -1.03216
1.39392 -4.59304 -1.03616
1.40392 -4.57604 -1.03316
1.41992 -4.57704 -1.03516
1.43792 -4.58404 -1.03716
1.44392 -4.57604 -1.03616
1.45792 -4.57104 -1.03616
1.47392 -4.57204 -1.03716
1.48792 -4.56604 -1.03716
1.50192 -4.56104 -1.03716
1.52092 -4.56904 -1.04016
1.53792 -4.57404 -1.04316
1.53992 -4.55704 -1.03916
1.55892 -4.56504 -1.04216
1.57092 -4.55204 -1.04016
1.58592 -4.55104 -1.04116
1.60692 -4.56404 -1.04616
1.61792 -4.55004 -1.04316
1.63392 -4.54904 -1.04416
1.64492 -4.55704 -1.04716
1.65492 -4.54104 -1.04416
1.68892 -4.54504 -1.04816
1.73392 -4.53404 -1.05016
1.82092 -4.52704 -1.05616
1.85992 -4.52004 -1.05716
1.87192 -4.51104 -1.05616
1.90792 -4.51704 -1.06116
1.92792 -4.50404 -1.06016
1.94992 -4.51604 -1.06516
1.99492 -4.50404 -1.06716
2.03592 -4.50104 -1.07016
2.08292 -4.49204 -1.07316
2.17092 -4.47704 -1.07816
2.18592 -4.47204 -1.07916
2.24192 -4.46304 -1.08316
2.25992 -4.46304 -1.08516
2.30792 -4.45404 -1.08816
2.40092 -4.44404 -1.09716
2.44292 -4.43904 -1.10016
2.65692 -4.40804 -1.11916
2.83492 -4.38604 -1.13816
0.636917 -4.68904 -1.40116
0.644917 -4.68804 -1.40116
0.716917 -4.67204 -1.39916
0.518917 -4.69804 -1.49716
0.919917 -4.64904 -1.55116
0.153917 -4.75304 -1.59516
7.52792 5.06096 0.507836
6.16592 4.88396 0.466836
4.64092 4.65696 0.422836
4.63492 4.66596 0.423836
4.42892 4.64296 0.417836
4.30092 4.62296 0.414836
4.21792 4.60496 0.411836
4.19292 4.60696 0.411836
4.16292 4.60296 0.410836
4.13292 4.59896 0.409836
4.03192 4.58596 0.407836
4.00292 4.58196 0.406836
3.97592 4.57996 0.405836
3.91292 4.56496 0.403836
3.89092 4.56796 0.403836
3.84692 4.55896 0.402836
3.82292 4.55996 0.401836
3.79192 4.55196 0.400836
3.76492 4.54896 0.400836
3.73892 4.54496 0.399836
3.68592 4.53896 0.398836
3.66392 4.52596 0.397836
3.61592 4.52396 0.396836
3.58892 4.51896 0.395836
3.56392 4.51596 0.395836
3.53592 4.50996 0.394836
3.51692 4.51496 0.394836
3.49992 4.50796 0.393836
3.46792 4.49496 0.392836
3.45092 4.50296 0.392836
3.42092 4.49296 0.391836
3.39592 4.48896 0.390836
3.37292 4.48696 0.390836
3.34692 4.48096 0.389836
3.32992 4.47396 0.389836
3.30892 4.47496 0.388836
3.28692 4.47396 0.388836
3.26292 4.47096 0.387836
3.24192 4.47096 0.387836
3.21292 4.45996 0.386836
3.19692 4.46696 0.386836
3.17592 4.45296 0.385836
3.15592 4.45396 0.385836
3.13292 4.45096 0.384836
3.10992 4.44796 0.384836
3.08892 4.44796 0.383836
3.06792 4.44796 0.383836
3.04092 4.43696 0.382836
3.03292 4.43996 0.382836
3.00892 4.43496 0.381836
2.98692 4.43296 0.381836
2.96692 4.43196 0.380836
2.88692 4.41696 0.379836
2.83992 4.40496 0.377836
2.75792 4.39796 0.376836
2.68392 4.38496 0.374836
2.66192 4.37996 0.373836
2.62292 4.37796 0.373836
2.61092 4.37296 0.372836
2.55192 4.36696 0.371836
2.52992 4.36096 0.371836
2.51092 4.35996 0.370836
2.49692 4.36596 0.370836
2.46092 4.35196 0.369836
2.42492 4.35096 0.369836
2.38792 4.34696 0.368836
2.36492 4.33896 0.367836
2.36092 4.34796 0.367836
2.33792 4.33696 0.367836
2.31792 4.33196 0.366836
2.30192 4.33396 0.366836
2.28492 4.33596 0.366836
2.24992 4.33396 0.365836
2.20292 4.32696 0.364836
2.11692 4.30696 0.362836
2.08092 4.30096 0.362836
2.04592 4.29696 0.361836
2.02892 4.29696 0.361836
2.01492 4.30096 0.361836
2.00392 4.29496 0.360836
1.96992 4.29296 0.360836
1.94892 4.28096 0.359836
1.93192 4.27996 0.359836
1.91592 4.27996 0.359836
1.90192 4.28496 0.359836
1.87192 4.27096 0.358836
1.86092 4.28296 0.358836
1.83792 4.26696 0.357836
1.82192 4.26496 0.357836
1.80692 4.26896 0.357836
1.79092 4.26696 0.357836
1.76892 4.26996 0.356836
1.74792 4.25896 0.356836
1.73292 4.25896 0.356836
1.72092 4.26796 0.356836
1.70292 4.26196 0.355836
1.68292 4.25096 0.355836
1.67592 4.25296 0.355836
1.65692 4.24396 0.354836
1.64492 4.25096 0.354836
1.62492 4.23896 0.354836
1.61092 4.24196 0.354836
1.57192 4.23996 0.353836
1.55692 4.23896 0.353836
1.51092 4.23796 0.352836
1.49192 4.22396 0.352836
1.46992 4.22696 0.351836
1.45492 4.22596 0.351836
1.40592 4.21096 0.350836
1.39292 4.21596 0.350836
1.37892 4.21796 0.350836
1.37092 4.21696 0.350836
1.35292 4.20596 0.350836
1.33992 4.21196 0.350836
1.29492 4.20496 0.349836
1.27592 4.19196 0.348836
1.26992 4.19596 0.348836
1.25592 4.19596 0.348836
1.24192 4.19596 0.348836
1.21092 4.18596 0.347836
1.18192 4.18596 0.347836
1.14692 4.18796 0.347836
11.4529 5.60196 0.550836
11.3239 5.58296 0.547836
11.2129 5.57296 0.544836
11.0969 5.55896 0.541836
10.9739 5.54096 0.537836
10.8749 5.53396 0.535836
10.7539 5.51496 0.532836
10.6599 5.48796 0.529836
10.5569 5.47796 0.526836
10.4479 5.46296 0.524836
10.3559 5.45696 0.521836
10.2529 5.44396 0.519836
10.1599 5.43496 0.516836
10.0559 5.42096 0.514836
9.97492 5.39796 0.511836
9.87592 5.38396 0.509836
9.78292 5.37396 0.506836
9.69792 5.36696 0.504836
9.59892 5.35196 0.502836
9.50192 5.33696 0.499836
9.34592 5.30796 0.495836
9.25992 5.29796 0.493836
9.17692 5.28996 0.491836
9.08592 5.27496 0.488836
9.00192 5.26496 0.486836
8.92692 5.25896 0.484836
8.69592 5.21596 0.478836
8.61992 5.20696 0.476836
8.53692 5.19396 0.474836
8.46192 5.18496 0.472836
8.39192 5.17796 0.471836
8.32592 5.17396 0.469836
8.05092 5.12796 0.462836
7.98092 5.11796 0.460836
7.92392 5.11796 0.459836
7.85392 5.10796 0.457836
7.47792 5.04996 0.448836
7.19292 5.00796 0.440836
7.08192 4.99696 0.438836
6.09592 4.85896 0.414836
6.05092 4.85496 0.413836
6.02592 4.84996 0.412836
5.98092 4.84496 0.411836
5.93592 4.83996 0.410836
5.89592 4.83896 0.409836
5.83892 4.82296 0.408836
5.79492 4.81696 0.407836
5.67992 4.79796 0.404836
5.63592 4.79196 0.403836
5.60592 4.79596 0.402836
5.51992 4.78296 0.400836
5.47892 4.77796 0.399836
4.60892 4.65096 0.380836
4.33092 4.61096 0.373836
4.16292 4.58896 0.370836
4.12092 4.58696 0.369836
4.05992 4.57696 0.368836
3.95292 4.56996 0.366836
3.87492 4.55196 0.364836
3.82492 4.55196 0.363836
3.79092 4.53996 0.362836
3.76992 4.54396 0.362836
3.72292 4.53096 0.361836
3.67692 4.53296 0.360836
3.64192 4.51896 0.359836
3.62792 4.53096 0.359836
3.59992 4.52496 0.359836
3.57292 4.50596 0.358836
3.56192 4.52196 0.358836
3.53492 4.51496 0.357836
3.51292 4.51696 0.357836
3.48392 4.50896 0.356836
3.45992 4.50696 0.356836
3.42992 4.49796 0.355836
3.41292 4.48996 0.355836
3.39192 4.49196 0.354836
3.36192 4.48096 0.354836
3.34192 4.48396 0.353836
3.32192 4.48596 0.353836
3.29392 4.47896 0.352836
3.27392 4.48196 0.352836
3.25792 4.47396 0.352836
3.23892 4.47796 0.351836
3.18392 4.46096 0.350836
3.16792 4.46696 0.350836
3.11792 4.45596 0.349836
3.10592 4.45396 0.349836
3.08392 4.45296 0.348836
3.05592 4.44296 0.348836
3.03692 4.44396 0.348836
3.01792 4.44696 0.347836
2.99192 4.43796 0.347836
2.97192 4.43896 0.346836
2.88492 4.41296 0.345836
2.82892 4.41796 0.344836
2.81892 4.41796 0.344836
2.77792 4.41496 0.343836
2.73292 4.40596 0.342836
2.71392 4.40596 0.342836
2.68092 4.39796 0.341836
2.54392 4.37196 0.339836
2.52792 4.37696 0.339836
2.50692 4.37296 0.338836
2.48892 4.37396 0.338836
2.46992 4.37096 0.338836
2.42092 4.36396 0.337836
2.37892 4.35296 0.336836
2.35892 4.34996 0.336836
2.30492 4.34696 0.335836
2.28592 4.32796 0.334836
2.27492 4.34096 0.334836
2.23292 4.32596 0.333836
2.17692 4.31896 0.333836
1.29392 4.20796 0.321836
1.21092 4.19496 0.320836
11.4059 5.60896 0.489836
11.2859 5.59396 0.486836
10.7479 5.51696 0.474836
10.6379 5.50296 0.472836
10.0579 5.42396 0.460836
8.35492 5.18496 0.423836
8.28592 5.17796 0.422836
7.89092 5.12196 0.414836
7.82492 5.11396 0.412836
7.46592 5.06396 0.405836
6.17392 4.88596 0.379836
2.87592 4.42596 0.319836
12.0169 5.69496 0.401836
11.8819 5.67696 0.399836
11.7499 5.65896 0.397836
11.6209 5.64196 0.395836
11.4829 5.61996 0.393836
11.3629 5.60596 0.391836
11.2519 5.57296 0.390836
11.1319 5.55796 0.388836
11.0199 5.54596 0.386836
10.9109 5.53396 0.385836
10.8029 5.52196 0.383836
