1.66593 4.37792 -0.441151
1.65493 4.36792 -0.439151
1.63793 4.36492 -0.438151
1.62193 4.36292 -0.437151
1.60693 4.36492 -0.436151
1.59093 4.36392 -0.436151
1.57193 4.35392 -0.433151
1.55593 4.35292 -0.433151
1.54593 4.34492 -0.431151
1.53293 4.35292 -0.432151
1.51593 4.34792 -0.430151
1.50093 4.34892 -0.430151
1.48393 4.34292 -0.428151
1.47093 4.34892 -0.428151
1.45593 4.34992 -0.428151
1.44493 4.34092 -0.426151
1.43093 4.34192 -0.426151
1.41493 4.34092 -0.425151
1.36593 4.32892 -0.421151
1.34393 4.32792 -0.420151
1.32793 4.32692 -0.420151
1.31293 4.32292 -0.419151
1.29693 4.31992 -0.417151
1.27993 4.31392 -0.416151
1.26693 4.31792 -0.416151
1.25193 4.31792 -0.416151
1.16693 4.29892 -0.410151
1.11493 4.29192 -0.407151
1.00193 4.26692 -0.400151
0.989927 4.27592 -0.401151
0.959927 4.27092 -0.400151
0.944927 4.26592 -0.398151
0.922927 4.26292 -0.397151
0.908927 4.26392 -0.397151
0.880927 4.26092 -0.396151
0.842927 4.24692 -0.393151
0.830927 4.25292 -0.394151
0.801927 4.24892 -0.392151
0.787927 4.24492 -0.392151
0.773927 4.24392 -0.391151
0.751927 4.23792 -0.390151
0.722927 4.22892 -0.388151
0.709927 4.23292 -0.388151
0.680927 4.21992 -0.386151
0.660927 4.22492 -0.386151
0.645927 4.21492 -0.384151
0.633927 4.22092 -0.385151
0.619927 4.21692 -0.384151
0.604927 4.21092 -0.383151
6.87993 5.18192 -1.02915
6.78593 5.16192 -1.01715
6.73193 5.15492 -1.01015
6.68093 5.14892 -1.00415
6.63293 5.14592 -0.998151
6.58593 5.14292 -0.993151
6.54793 5.12992 -0.987151
6.49593 5.12192 -0.981151
6.44993 5.11892 -0.975151
6.39793 5.11092 -0.969151
6.35593 5.10992 -0.964151
6.29993 5.09792 -0.957151
6.24693 5.08792 -0.950151
6.20793 5.07292 -0.945151
6.16593 5.07092 -0.940151
6.11793 5.06392 -0.934151
6.07493 5.05992 -0.929151
6.03393 5.05892 -0.924151
5.99093 5.05492 -0.919151
5.90193 5.02792 -0.907151
5.86693 5.02992 -0.904151
5.82393 5.02492 -0.899151
5.77493 5.01492 -0.893151
5.73993 5.01592 -0.889151
5.68393 4.99892 -0.881151
5.64693 4.99892 -0.877151
5.60493 4.97792 -0.871151
5.56393 4.97292 -0.866151
5.52993 4.97292 -0.863151
5.45693 4.97092 -0.855151
5.41193 4.96092 -0.849151
5.37293 4.95692 -0.845151
5.34893 4.94992 -0.841151
5.30293 4.93892 -0.836151
5.26893 4.93792 -0.832151
5.23193 4.93392 -0.828151
5.18593 4.92192 -0.822151
5.14593 4.91492 -0.817151
5.11793 4.91892 -0.815151
5.09493 4.91292 -0.812151
5.04993 4.89992 -0.806151
5.00893 4.89092 -0.801151
4.96793 4.88192 -0.796151
4.93393 4.87992 -0.792151
4.90393 4.87992 -0.789151
4.86693 4.87392 -0.785151
4.84093 4.86392 -0.781151
4.80793 4.86092 -0.778151
4.76193 4.84492 -0.771151
4.73693 4.84992 -0.769151
4.64093 4.84292 -0.759151
4.61193 4.82792 -0.755151
4.57693 4.82192 -0.751151
4.54993 4.82392 -0.748151
4.48793 4.81892 -0.742151
4.44793 4.80492 -0.737151
4.40593 4.80592 -0.733151
4.36793 4.79492 -0.728151
4.34093 4.79492 -0.725151
4.30493 4.78592 -0.721151
4.27893 4.78692 -0.719151
4.20693 4.76692 -0.710151
4.19293 4.76592 -0.708151
4.16993 4.76992 -0.707151
4.12493 4.74892 -0.700151
4.10993 4.76192 -0.700151
4.04593 4.74892 -0.693151
4.02093 4.74892 -0.691151
4.00293 4.74392 -0.688151
3.97193 4.73592 -0.685151
3.94393 4.73392 -0.682151
3.91693 4.73092 -0.679151
3.88793 4.72592 -0.676151
3.85493 4.71692 -0.672151
3.80893 4.70592 -0.667151
3.78593 4.70692 -0.665151
3.75793 4.70392 -0.662151
3.72493 4.69192 -0.658151
3.70093 4.69192 -0.656151
3.63693 4.68592 -0.649151
3.60193 4.67292 -0.645151
3.57393 4.66692 -0.642151
3.55293 4.66892 -0.640151
3.52293 4.66092 -0.637151
3.50593 4.66892 -0.636151
3.47693 4.66092 -0.633151
3.46393 4.65792 -0.632151
3.44093 4.65792 -0.630151
3.41193 4.64992 -0.626151
3.39093 4.65092 -0.624151
3.36193 4.64192 -0.621151
3.33393 4.63392 -0.618151
3.31393 4.63792 -0.617151
3.29793 4.62992 -0.614151
3.27693 4.63192 -0.613151
3.25093 4.62592 -0.610151
3.22493 4.61992 -0.607151
3.20293 4.61892 -0.605151
3.17393 4.60792 -0.602151
3.15493 4.61092 -0.601151
3.13593 4.59992 -0.598151
3.09093 4.59492 -0.594151
3.06993 4.59492 -0.592151
3.04293 4.58692 -0.589151
3.02593 4.59292 -0.588151
2.99193 4.57292 -0.583151
2.99193 4.58692 -0.585151
2.96493 4.57792 -0.582151
2.93793 4.56792 -0.579151
2.92193 4.57492 -0.578151
2.87793 4.56792 -0.574151
2.84193 4.55992 -0.570151
2.81893 4.55392 -0.568151
2.79993 4.55592 -0.567151
2.77493 4.54792 -0.564151
2.75193 4.54092 -0.561151
2.69793 4.53192 -0.556151
2.65793 4.53092 -0.553151
2.63893 4.52992 -0.552151
2.59893 4.52792 -0.549151
2.57793 4.52392 -0.547151
2.54193 4.50992 -0.543151
2.52493 4.51292 -0.542151
2.50493 4.51092 -0.540151
2.48593 4.50992 -0.539151
2.42293 4.49692 -0.533151
2.41493 4.49892 -0.533151
2.37293 4.48792 -0.528151
2.33493 4.48292 -0.525151
2.31193 4.47492 -0.523151
2.28093 4.46592 -0.520151
2.26193 4.46292 -0.518151
2.22693 4.46492 -0.516151
2.20693 4.45892 -0.514151
2.16093 4.45292 -0.510151
2.14493 4.45592 -0.510151
2.10793 4.45192 -0.507151
2.07093 4.44492 -0.504151
2.00593 4.43392 -0.499151
1.97093 4.42992 -0.496151
1.94993 4.41992 -0.494151
1.90593 4.41492 -0.490151
1.70793 4.38492 -0.476151
1.58993 4.36392 -0.467151
1.57293 4.36192 -0.466151
1.43493 4.33992 -0.457151
6.55093 5.12392 -1.02515
6.51093 5.12492 -1.02015
6.46793 5.12392 -1.01515
6.40893 5.10992 -1.00715
6.36293 5.10592 -1.00215
6.31993 5.10392 -0.996151
6.26993 5.09592 -0.990151
6.22693 5.07692 -0.983151
6.18293 5.07392 -0.978151
6.14293 5.07292 -0.974151
6.09393 5.06392 -0.967151
6.04393 5.05492 -0.961151
6.00393 5.05392 -0.956151
5.95993 5.04792 -0.951151
5.93093 5.03992 -0.947151
5.87693 5.02592 -0.939151
5.83793 5.02392 -0.935151
5.80093 5.02392 -0.931151
5.74693 5.00792 -0.923151
5.71293 5.00992 -0.920151
5.63193 4.98592 -0.909151
5.59093 4.98092 -0.904151
5.55893 4.98392 -0.900151
5.50793 4.96992 -0.894151
5.47693 4.97192 -0.890151
5.39293 4.95792 -0.880151
5.36493 4.94792 -0.876151
5.32593 4.94292 -0.871151
5.28293 4.93392 -0.866151
5.25293 4.93692 -0.863151
5.17193 4.92192 -0.853151
5.13393 4.91592 -0.848151
5.11793 4.91592 -0.846151
5.07693 4.90692 -0.841151
5.03993 4.90192 -0.837151
5.00793 4.90092 -0.833151
4.96593 4.89092 -0.828151
4.93593 4.89192 -0.825151
4.86693 4.86892 -0.815151
4.82793 4.85992 -0.811151
4.79993 4.86292 -0.808151
4.76593 4.85792 -0.804151
4.72393 4.84592 -0.798151
4.69893 4.85092 -0.796151
4.65793 4.83792 -0.791151
4.63993 4.83392 -0.789151
4.61193 4.83592 -0.786151
4.56993 4.82092 -0.780151
4.53693 4.81692 -0.776151
4.47893 4.81492 -0.770151
4.44593 4.80992 -0.767151
4.42693 4.80392 -0.764151
4.39393 4.79792 -0.760151
4.36593 4.79792 -0.757151
4.29893 4.78392 -0.749151
4.21393 4.76392 -0.739151
4.19393 4.77092 -0.738151
4.16193 4.76492 -0.734151
4.13093 4.75992 -0.730151
4.10093 4.75392 -0.727151
4.06893 4.74792 -0.723151
4.03693 4.73892 -0.719151
4.02493 4.74092 -0.718151
3.99993 4.74192 -0.716151
3.96893 4.73392 -0.712151
3.94493 4.73592 -0.710151
3.91393 4.72892 -0.706151
3.88293 4.72092 -0.703151
3.85593 4.71792 -0.700151
3.84093 4.71492 -0.698151
3.81093 4.70792 -0.695151
3.78993 4.71192 -0.693151
3.75793 4.70192 -0.689151
3.73093 4.69892 -0.686151
3.70193 4.69192 -0.683151
3.67693 4.69092 -0.680151
3.66193 4.68692 -0.679151
3.63993 4.68892 -0.677151
3.58093 4.67292 -0.670151
3.53093 4.66792 -0.665151
3.49293 4.66192 -0.661151
3.45593 4.64292 -0.655151
3.43793 4.64892 -0.654151
3.40693 4.63792 -0.650151
3.39093 4.64692 -0.650151
3.36393 4.63992 -0.647151
3.34093 4.63892 -0.645151
3.32693 4.63392 -0.643151
3.29893 4.62492 -0.640151
3.28293 4.63392 -0.639151
3.20193 4.61092 -0.630151
3.16093 4.59792 -0.625151
3.14793 4.60992 -0.625151
3.11793 4.59692 -0.621151
3.07093 4.58792 -0.616151
3.02193 4.57792 -0.611151
3.02293 4.59392 -0.613151
2.97093 4.57792 -0.607151
2.91893 4.55992 -0.601151
2.90293 4.56492 -0.600151
2.84893 4.55892 -0.595151
2.83193 4.56292 -0.594151
2.80793 4.55692 -0.592151
2.77993 4.54392 -0.588151
2.73793 4.53692 -0.584151
2.72193 4.54392 -0.584151
2.71293 4.54492 -0.583151
2.66693 4.53092 -0.578151
2.64793 4.53292 -0.577151
2.60893 4.52992 -0.574151
2.53593 4.51692 -0.567151
2.47193 4.50092 -0.560151
2.44193 4.49692 -0.557151
2.37593 4.47392 -0.550151
2.36493 4.48892 -0.551151
2.32293 4.47692 -0.547151
2.29593 4.47492 -0.545151
2.05593 4.44292 -0.525151
2.00093 4.43292 -0.520151
1.98293 4.43092 -0.519151
1.95493 4.42292 -0.516151
1.86693 4.41192 -0.510151
1.84093 4.40592 -0.507151
1.57293 4.36792 -0.488151
1.20293 4.31092 -0.464151
0.926927 4.26592 -0.447151
0.903927 4.25392 -0.445151
0.890927 4.25692 -0.445151
0.833927 4.25392 -0.443151
0.819927 4.24892 -0.442151
6.13893 5.06992 -1.03015
6.05993 5.05392 -1.01915
6.01993 5.05292 -1.01415
5.97893 5.04992 -1.00915
5.92293 5.03592 -1.00115
5.82693 5.01692 -0.988151
5.81193 5.01992 -0.987151
5.75793 5.00592 -0.979151
5.71893 5.00292 -0.974151
5.66893 4.99092 -0.967151
5.58093 4.97692 -0.956151
5.55793 4.98792 -0.954151
5.48193 4.96692 -0.944151
5.41193 4.96592 -0.936151
5.34993 4.94092 -0.926151
5.32693 4.95092 -0.924151
5.27793 4.93592 -0.918151
5.24593 4.92192 -0.912151
5.20893 4.91792 -0.908151
5.17893 4.92092 -0.905151
5.13493 4.90992 -0.899151
5.09693 4.90392 -0.894151
5.07093 4.90992 -0.892151
5.01593 4.88792 -0.883151
5.00393 4.89192 -0.882151
4.96993 4.88892 -0.878151
4.92393 4.87392 -0.872151
4.85893 4.87192 -0.865151
4.81993 4.86292 -0.859151
4.78393 4.85692 -0.855151
4.76493 4.85392 -0.852151
4.69093 4.83792 -0.843151
4.65893 4.83592 -0.839151
4.62293 4.82892 -0.835151
4.58693 4.82192 -0.830151
4.56893 4.83392 -0.829151
4.53293 4.81092 -0.823151
4.50593 4.81192 -0.820151
4.46793 4.80192 -0.815151
4.44493 4.80692 -0.813151
4.40693 4.79592 -0.808151
4.38093 4.79892 -0.806151
4.34393 4.78892 -0.801151
4.32593 4.78392 -0.798151
4.29593 4.78092 -0.795151
4.25893 4.76992 -0.790151
4.22893 4.76692 -0.787151
4.20693 4.77192 -0.785151
4.17193 4.76192 -0.780151
4.14093 4.75792 -0.777151
4.12093 4.74892 -0.774151
4.08793 4.74092 -0.769151
4.06193 4.74192 -0.767151
4.03293 4.73792 -0.764151
3.99993 4.72992 -0.759151
3.97293 4.72792 -0.756151
3.94693 4.72592 -0.754151
3.92793 4.71892 -0.751151
3.89793 4.71292 -0.747151
3.86893 4.70892 -0.744151
3.83893 4.70192 -0.740151
3.81193 4.69892 -0.737151
3.78593 4.69692 -0.735151
3.75993 4.69492 -0.732151
3.63693 4.67592 -0.718151
3.60793 4.66892 -0.714151
3.58393 4.66892 -0.712151
3.56993 4.66592 -0.710151
3.51593 4.65692 -0.704151
3.48693 4.64892 -0.701151
3.43993 4.64692 -0.696151
3.41593 4.64492 -0.694151
3.39593 4.63292 -0.690151
3.34593 4.62492 -0.685151
3.32193 4.62292 -0.682151
3.27193 4.61492 -0.677151
3.25293 4.61892 -0.676151
3.11593 4.59092 -0.660151
3.09393 4.58892 -0.658151
3.07293 4.58892 -0.656151
3.03293 4.57692 -0.652151
3.01093 4.57492 -0.649151
2.98693 4.56992 -0.647151
2.96393 4.56592 -0.644151
2.94493 4.56892 -0.643151
2.92193 4.56492 -0.641151
2.90793 4.55792 -0.639151
2.88593 4.55492 -0.636151
2.86293 4.55092 -0.634151
2.84393 4.55092 -0.632151
2.81893 4.54392 -0.629151
2.79693 4.54092 -0.627151
2.77693 4.53892 -0.626151
2.76393 4.53492 -0.624151
2.74393 4.53392 -0.622151
2.65993 4.52392 -0.614151
2.63893 4.51992 -0.612151
2.60793 4.51492 -0.609151
2.54393 4.50192 -0.602151
2.50193 4.49392 -0.598151
2.49293 4.49392 -0.598151
2.47493 4.49492 -0.596151
2.43093 4.48292 -0.592151
2.41393 4.48492 -0.591151
2.37193 4.47392 -0.586151
2.36193 4.47292 -0.585151
2.34393 4.47292 -0.584151
2.30293 4.46292 -0.580151
2.28593 4.46392 -0.579151
2.26593 4.45992 -0.577151
2.23593 4.45292 -0.574151
2.21793 4.45092 -0.572151
2.18293 4.45092 -0.570151
2.16193 4.44392 -0.567151
2.14993 4.45392 -0.568151
2.12693 4.44292 -0.565151
2.11693 4.44092 -0.564151
2.10093 4.44192 -0.563151
2.07793 4.43092 -0.560151
2.05993 4.42892 -0.559151
2.04493 4.43092 -0.558151
2.02393 4.42292 -0.556151
2.00893 4.42792 -0.555151
1.99793 4.42192 -0.554151
1.97893 4.41792 -0.552151
1.96193 4.41692 -0.551151
1.94693 4.41892 -0.550151
1.92593 4.41092 -0.548151
1.91293 4.41692 -0.548151
1.89093 4.40492 -0.545151
1.88493 4.40892 -0.545151
1.86593 4.40392 -0.543151
1.85093 4.40692 -0.543151
1.83093 4.39792 -0.540151
1.81493 4.39992 -0.539151
1.79893 4.39792 -0.538151
1.77893 4.38892 -0.536151
1.76393 4.39292 -0.536151
1.75493 4.38992 -0.535151
1.73693 4.38692 -0.533151
1.72093 4.38692 -0.532151
1.70593 4.38792 -0.532151
1.67193 4.38192 -0.529151
1.64193 4.36392 -0.525151
1.62793 4.36892 -0.525151
1.61093 4.36492 -0.523151
1.59393 4.36292 -0.522151
1.57793 4.35992 -0.521151
1.56193 4.35992 -0.520151
1.55493 4.35992 -0.519151
1.53493 4.34892 -0.517151
1.50693 4.35792 -0.517151
1.49093 4.35492 -0.516151
1.47493 4.35292 -0.514151
1.43993 4.33892 -0.511151
1.43493 4.34692 -0.512151
1.40293 4.34092 -0.509151
1.36993 4.33292 -0.506151
1.35293 4.32792 -0.505151
1.32793 4.31892 -0.503151
1.31493 4.32292 -0.503151
1.27993 4.30692 -0.499151
1.26893 4.31792 -0.500151
1.22993 4.31292 -0.497151
1.19893 4.30492 -0.495151
1.16893 4.30292 -0.493151
1.15393 4.30092 -0.493151
1.13093 4.29492 -0.491151
1.11393 4.28692 -0.489151
1.10093 4.29292 -0.489151
1.06993 4.28192 -0.486151
1.05493 4.28192 -0.486151
1.04193 4.28492 -0.486151
1.03293 4.27892 -0.485151
1.01693 4.27292 -0.483151
1.00493 4.28092 -0.484151
0.987927 4.26692 -0.481151
0.956927 4.25792 -0.479151
0.945927 4.27092 -0.480151
0.936927 4.26092 -0.479151
0.892927 4.25192 -0.476151
0.863927 4.24792 -0.474151
0.849927 4.24592 -0.474151
0.842927 4.24592 -0.473151
0.829927 4.25192 -0.474151
0.811927 4.23192 -0.470151
0.800927 4.24192 -0.472151
0.786927 4.24292 -0.471151
0.772927 4.23892 -0.470151
0.744927 4.23992 -0.470151
0.737927 4.23692 -0.469151
0.707927 4.22592 -0.467151
0.693927 4.22492 -0.466151
0.645927 4.21992 -0.464151
0.631927 4.21792 -0.464151
5.17593 4.91492 -1.01615
3.77393 4.71192 -0.841151
3.63793 4.69092 -0.825151
3.62293 4.68592 -0.823151
3.59493 4.67992 -0.820151
3.56893 4.67692 -0.817151
3.51993 4.67192 -0.811151
3.49193 4.66592 -0.808151
3.45493 4.66192 -0.804151
3.37993 4.65092 -0.795151
3.28993 4.63292 -0.785151
2.44393 4.50492 -0.696151
1.92793 4.42492 -0.649151
1.72893 4.39392 -0.632151
1.66993 4.38492 -0.628151
1.65293 4.38092 -0.626151
1.57793 4.36792 -0.620151
0.867927 4.25892 -0.573151
0.795927 4.24692 -0.569151
0.789927 4.24792 -0.569151
0.760927 4.24092 -0.567151
0.697927 4.22992 -0.563151
0.683927 4.22992 -0.563151
0.669927 4.22892 -0.562151
0.655927 4.22492 -0.561151
0.641927 4.22092 -0.560151
0.613927 4.21692 -0.559151
0.606927 4.21192 -0.558151
0.592927 4.20792 -0.557151
0.579927 4.21192 -0.558151
4.62793 4.82592 -1.01015
4.59893 4.82692 -1.00715
4.52793 4.81292 -0.997151
4.50593 4.81992 -0.995151
4.46593 4.80592 -0.989151
4.44493 4.79892 -0.986151
4.41493 4.79692 -0.982151
4.35093 4.78792 -0.974151
4.32193 4.78592 -0.970151
4.28893 4.77992 -0.966151
4.25993 4.77792 -0.962151
4.23793 4.76792 -0.959151
4.20993 4.76692 -0.955151
4.17893 4.76192 -0.951151
4.14993 4.75892 -0.948151
4.11893 4.75392 -0.944151
4.09293 4.75392 -0.941151
4.06493 4.75192 -0.937151
4.03793 4.73592 -0.932151
4.01693 4.74092 -0.931151
3.98593 4.73492 -0.927151
3.95393 4.72692 -0.922151
3.93093 4.72992 -0.920151
3.89893 4.72092 -0.915151
3.87093 4.71792 -0.912151
3.82293 4.70392 -0.905151
3.79593 4.70092 -0.902151
3.76493 4.69292 -0.897151
3.73693 4.68892 -0.894151
3.70993 4.68592 -0.891151
3.69093 4.69092 -0.889151
3.66993 4.67992 -0.886151
3.61593 4.67192 -0.879151
3.59193 4.67092 -0.876151
3.56093 4.66192 -0.872151
3.54293 4.66792 -0.871151
3.51393 4.66092 -0.867151
3.49493 4.64992 -0.864151
3.47093 4.64892 -0.861151
3.44693 4.64692 -0.858151
3.42493 4.64792 -0.856151
3.39393 4.63692 -0.852151
3.37193 4.63792 -0.850151
3.34593 4.63192 -0.846151
3.33293 4.62992 -0.845151
3.30593 4.62292 -0.841151
3.28393 4.62292 -0.839151
3.25793 4.61792 -0.836151
3.23793 4.61992 -0.834151
3.21193 4.61392 -0.831151
3.18893 4.61092 -0.828151
3.17093 4.60092 -0.825151
3.14693 4.59692 -0.822151
3.12493 4.59492 -0.820151
3.10593 4.59792 -0.818151
3.07993 4.59192 -0.815151
3.05893 4.59192 -0.813151
3.03893 4.59292 -0.812151
3.01893 4.59392 -0.810151
2.99593 4.57392 -0.805151
2.97493 4.57392 -0.803151
2.95093 4.56792 -0.800151
2.93493 4.57592 -0.800151
2.91193 4.57192 -0.797151
2.88493 4.56092 -0.793151
2.86693 4.56392 -0.792151
2.85593 4.56292 -0.791151
2.82793 4.54992 -0.786151
2.80593 4.54592 -0.784151
2.78493 4.54392 -0.782151
2.76593 4.54492 -0.780151
2.74093 4.53692 -0.777151
2.72293 4.53792 -0.775151
2.71093 4.53392 -0.774151
2.68793 4.52892 -0.771151
2.66793 4.52792 -0.769151
2.64793 4.52592 -0.767151
2.62793 4.52592 -0.765151
2.60993 4.52692 -0.764151
2.58893 4.52292 -0.762151
2.57493 4.51492 -0.759151
2.55693 4.51692 -0.758151
2.53693 4.51392 -0.756151
2.51293 4.50492 -0.753151
2.49293 4.50292 -0.751151
2.47493 4.50292 -0.749151
2.45493 4.50092 -0.747151
2.44093 4.49292 -0.745151
2.42293 4.49192 -0.743151
2.40493 4.49192 -0.742151
2.38893 4.49592 -0.741151
2.36593 4.48792 -0.738151
2.34793 4.48692 -0.737151
2.32793 4.48392 -0.735151
2.31693 4.47992 -0.733151
2.29893 4.47892 -0.732151
2.27593 4.46992 -0.729151
2.25893 4.46992 -0.727151
2.24093 4.46992 -0.726151
2.22293 4.46892 -0.724151
2.20093 4.45992 -0.721151
2.19193 4.45992 -0.721151
2.17193 4.45392 -0.718151
2.15393 4.45392 -0.717151
2.13393 4.44792 -0.715151
2.11793 4.44992 -0.714151
2.09693 4.44192 -0.711151
2.08193 4.44692 -0.711151
2.06993 4.43892 -0.709151
2.05093 4.43492 -0.707151
2.03193 4.43092 -0.705151
2.01593 4.43192 -0.704151
1.99393 4.42192 -0.701151
1.97993 4.42792 -0.701151
1.96193 4.42392 -0.699151
1.95093 4.41892 -0.697151
1.93493 4.41992 -0.696151
1.91593 4.41392 -0.694151
1.89693 4.40892 -0.692151
1.88193 4.41092 -0.691151
1.86093 4.40092 -0.688151
1.84493 4.40092 -0.687151
1.83693 4.40192 -0.687151
1.81793 4.39492 -0.685151
1.79893 4.38992 -0.683151
1.78593 4.39592 -0.683151
1.76893 4.39392 -0.681151
1.75193 4.39192 -0.680151
1.73393 4.38692 -0.678151
1.70493 4.37392 -0.674151
1.68993 4.37592 -0.674151
1.65993 4.38092 -0.673151
1.64393 4.37892 -0.671151
1.61493 4.36592 -0.668151
1.59793 4.35992 -0.666151
1.58593 4.37092 -0.667151
1.56593 4.35892 -0.664151
1.54993 4.35892 -0.663151
1.53693 4.36292 -0.663151
1.51593 4.34792 -0.659151
1.50793 4.34792 -0.659151
1.49493 4.35492 -0.659151
1.47693 4.34592 -0.657151
1.46293 4.35092 -0.657151
1.42793 4.33792 -0.653151
1.41393 4.33992 -0.653151
1.38793 4.32992 -0.650151
1.37293 4.32892 -0.649151
1.34293 4.32792 -0.647151
1.29293 4.31192 -0.642151
1.28693 4.31592 -0.642151
1.27393 4.32392 -0.643151
1.25593 4.31292 -0.640151
1.24093 4.30892 -0.639151
1.20993 4.30492 -0.637151
1.19593 4.30692 -0.637151
1.16993 4.29392 -0.633151
1.15693 4.29692 -0.633151
1.14193 4.29492 -0.632151
1.12493 4.28792 -0.630151
1.11093 4.28692 -0.630151
1.09793 4.29492 -0.630151
1.08793 4.28292 -0.628151
1.07093 4.27292 -0.626151
1.05993 4.28392 -0.627151
1.04293 4.27592 -0.625151
1.02993 4.27692 -0.625151
1.01593 4.27792 -0.624151
0.997927 4.26592 -0.622151
0.991927 4.26792 -0.622151
0.976927 4.26692 -0.621151
0.961927 4.26192 -0.620151
0.946927 4.25792 -0.618151
0.933927 4.26292 -0.619151
0.917927 4.25192 -0.616151
0.904927 4.25892 -0.617151
0.895927 4.25092 -0.615151
0.882927 4.25092 -0.615151
0.868927 4.25192 -0.615151
0.853927 4.24492 -0.613151
0.823927 4.23692 -0.611151
0.808927 4.23192 -0.609151
0.802927 4.23292 -0.609151
0.774927 4.23192 -0.608151
0.760927 4.23292 -0.608151
0.747927 4.23692 -0.608151
0.731927 4.22392 -0.606151
0.717927 4.22192 -0.605151
0.704927 4.22292 -0.605151
0.696927 4.21992 -0.604151
0.682927 4.21592 -0.603151
0.668927 4.21192 -0.602151
0.654927 4.20892 -0.601151
0.641927 4.21092 -0.601151
0.627927 4.21292 -0.601151
0.613927 4.20492 -0.599151
0.578927 4.20192 -0.598151
4.24293 4.76792 -1.01615
4.22893 4.78292 -1.01615
4.19893 4.77892 -1.01215
4.09393 4.76292 -0.997151
3.89993 4.72792 -0.971151
3.87493 4.72792 -0.968151
3.81893 4.71992 -0.960151
3.73593 4.70592 -0.949151
3.71993 4.70092 -0.947151
3.68993 4.69492 -0.943151
3.61093 4.68392 -0.932151
3.51693 4.66592 -0.920151
3.49693 4.66892 -0.918151
3.46793 4.66092 -0.914151
3.39093 4.64892 -0.904151
3.35593 4.64592 -0.900151
3.33193 4.64392 -0.897151
3.30493 4.63592 -0.893151
3.28193 4.63492 -0.891151
3.17293 4.61792 -0.877151
2.99893 4.58992 -0.856151
0.551927 4.19992 -0.635151
3.59093 4.66892 -1.02415
3.51093 4.65392 -1.01215
3.44693 4.64492 -1.00315
2.65093 4.51892 -0.898151
2.15893 4.44292 -0.840151
2.08593 4.43292 -0.832151
2.00393 4.42092 -0.823151
1.59293 4.35592 -0.781151
1.52893 4.35092 -0.777151
1.40093 4.32992 -0.765151
1.38293 4.32192 -0.762151
1.35293 4.31892 -0.760151
1.32493 4.32492 -0.759151
1.29793 4.31092 -0.755151
1.28293 4.30892 -0.754151
1.26993 4.31292 -0.754151
1.23793 4.30592 -0.751151
1.21493 4.30092 -0.749151
1.18493 4.29692 -0.747151
1.16993 4.29492 -0.745151
1.15593 4.29592 -0.745151
1.13793 4.28492 -0.742151
1.12593 4.29192 -0.743151
1.08793 4.28392 -0.739151
1.07193 4.27592 -0.737151
1.05893 4.28292 -0.738151
1.04193 4.27292 -0.735151
1.02893 4.27392 -0.735151
1.01393 4.27192 -0.734151
0.993927 4.27592 -0.734151
0.977927 4.26992 -0.732151
0.964927 4.27492 -0.732151
0.947927 4.25892 -0.728151
0.933927 4.26192 -0.728151
0.927927 4.26692 -0.729151
0.884927 4.25792 -0.726151
0.867927 4.24692 -0.723151
0.854927 4.24792 -0.723151
0.833927 4.24592 -0.721151
0.817927 4.23592 -0.719151
0.805927 4.24792 -0.721151
0.789927 4.23492 -0.718151
0.775927 4.23292 -0.717151
0.762927 4.23592 -0.717151
0.749927 4.23992 -0.717151
0.733927 4.22492 -0.714151
0.727927 4.23192 -0.715151
0.712927 4.22292 -0.713151
0.700927 4.23292 -0.714151
0.670927 4.21692 -0.710151
0.657927 4.22192 -0.711151
0.644927 4.22692 -0.712151
0.636927 4.21292 -0.708151
0.609927 4.21492 -0.708151
0.568927 4.21292 -0.707151
2.98493 4.58092 -1.00615
2.96293 4.57792 -1.00315
2.94293 4.57992 -1.00115
2.92993 4.57592 -0.999151
2.90793 4.57192 -0.996151
2.88593 4.56892 -0.993151
2.86493 4.56892 -0.991151
2.83793 4.55792 -0.986151
2.81893 4.55792 -0.984151
2.79993 4.55992 -0.982151
2.78393 4.54992 -0.979151
2.76593 4.55392 -0.978151
2.73893 4.53992 -0.972151
2.72593 4.55092 -0.973151
2.70293 4.54592 -0.970151
2.68093 4.54092 -0.966151
2.66193 4.54092 -0.964151
2.64593 4.53092 -0.961151
2.62793 4.53292 -0.960151
2.60193 4.52092 -0.955151
2.58493 4.52392 -0.954151
2.56493 4.52192 -0.951151
2.51593 4.51792 -0.945151
2.46993 4.50292 -0.938151
2.45393 4.50692 -0.937151
2.43493 4.50592 -0.935151
2.41293 4.49792 -0.932151
2.36393 4.49092 -0.926151
2.34593 4.49192 -0.924151
2.30693 4.48592 -0.919151
2.23793 4.47192 -0.911151
2.20093 4.46892 -0.906151
2.11393 4.44992 -0.895151
2.00693 4.43892 -0.884151
1.94293 4.42892 -0.877151
1.88093 4.41892 -0.870151
1.76793 4.40192 -0.858151
1.62293 4.37592 -0.842151
4.65593 4.83492 -1.32515
4.57093 4.82092 -1.31015
4.47393 4.80992 -1.29515
4.38293 4.80092 -1.28015
2.75693 4.53792 -1.02415
2.74693 4.55292 -1.02615
2.72393 4.54592 -1.02215
1.92093 4.41592 -1.00115
1.87193 4.41592 -0.996151
1.82693 4.40492 -0.990151
1.80393 4.38892 -0.984151
1.77793 4.40392 -0.985151
1.75293 4.38092 -0.978151
1.74793 4.38892 -0.979151
1.73293 4.39092 -0.978151
1.68493 4.38892 -0.974151
1.64593 4.36992 -0.967151
1.64093 4.37792 -0.968151
1.59393 4.37492 -0.964151
1.57093 4.35392 -0.957151
1.55393 4.35192 -0.955151
1.54193 4.35992 -0.956151
1.50193 4.35592 -0.952151
1.46693 4.34292 -0.947151
1.45093 4.33792 -0.945151
1.43493 4.33492 -0.943151
1.41493 4.34392 -0.943151
1.38193 4.33392 -0.939151
1.36493 4.32892 -0.936151
1.34993 4.32892 -0.936151
1.33293 4.32292 -0.933151
1.32893 4.33392 -0.935151
1.30893 4.31392 -0.929151
1.29293 4.31192 -0.928151
1.27993 4.31592 -0.928151
1.26493 4.31692 -0.927151
1.24793 4.30692 -0.924151
1.22393 4.30192 -0.921151
1.21093 4.30792 -0.922151
1.19593 4.30392 -0.920151
1.17993 4.29992 -0.918151
1.15093 4.29992 -0.916151
1.13293 4.28692 -0.912151
1.12193 4.29792 -0.914151
1.11393 4.29592 -0.913151
1.09893 4.29292 -0.912151
1.08393 4.28892 -0.910151
1.05193 4.27692 -0.905151
1.02493 4.28192 -0.905151
1.01793 4.28092 -0.904151
0.999927 4.26792 -0.900151
0.988927 4.27792 -0.902151
0.971927 4.26592 -0.899151
0.958927 4.27292 -0.899151
0.943927 4.26592 -0.897151
0.921927 4.26092 -0.895151
0.893927 4.26092 -0.894151
0.879927 4.26192 -0.893151
0.864927 4.25492 -0.891151
0.850927 4.25392 -0.890151
0.833927 4.24192 -0.886151
0.829927 4.25392 -0.889151
0.813927 4.24192 -0.885151
0.786927 4.24692 -0.885151
0.772927 4.24492 -0.885151
0.756927 4.23392 -0.881151
0.736927 4.23392 -0.880151
0.709927 4.23592 -0.880151
0.693927 4.22492 -0.877151
0.679927 4.21792 -0.875151
0.653927 4.22592 -0.875151
0.646927 4.22892 -0.876151
0.631927 4.21692 -0.873151
0.618927 4.21692 -0.872151
0.603927 4.20992 -0.870151
1.85293 4.40492 -1.03115
1.83293 4.39792 -1.02815
1.81693 4.39892 -1.02715
1.79093 4.39492 -1.02315
1.28493 4.30992 -1.01115
1.26993 4.30892 -1.01015
1.25793 4.31792 -1.01115
1.24193 4.31492 -1.00915
1.22493 4.30692 -1.00615
1.20893 4.29992 -1.00315
1.20393 4.30892 -1.00515
1.18693 4.29992 -1.00215
1.17293 4.30192 -1.00115
1.15793 4.30192 -1.00015
1.14393 4.30192 -1.00015
1.11293 4.29392 -0.996151
1.08993 4.28792 -0.993151
1.06293 4.29392 -0.993151
1.04793 4.29192 -0.991151
1.01693 4.28092 -0.987151
0.978927 4.26992 -0.982151
0.886927 4.26692 -0.976151
0.625927 4.22592 -0.955151
0.762927 4.22792 -1.00515
0.727927 4.22492 -1.00315
0.651927 4.21992 -0.998151
0.125927 -4.68208 0.359849
0.154927 -4.67708 0.358849
0.183927 -4.67408 0.358849
0.191927 -4.67608 0.358849
0.278927 -4.65908 0.358849
0.300927 -4.65808 0.358849
0.314927 -4.65508 0.358849
0.395927 -4.64908 0.358849
0.409927 -4.64608 0.358849
0.423927 -4.64208 0.358849
0.438927 -4.63908 0.358849
0.518927 -4.63308 0.358849
0.561927 -4.61808 0.357849
0.584927 -4.62908 0.358849
0.641927 -4.61308 0.358849
0.676927 -4.60208 0.357849
0.706927 -4.60008 0.357849
0.720927 -4.59808 0.357849
0.786927 -4.59108 0.358849
0.814927 -4.58408 0.358849
0.829927 -4.58308 0.358849
0.853927 -4.59308 0.358849
0.894927 -4.57108 0.358849
0.910927 -4.57608 0.358849
0.923927 -4.56708 0.358849
0.937927 -4.56408 0.358849
0.945927 -4.56708 0.358849
0.961927 -4.57008 0.358849
0.974927 -4.56108 0.358849
1.00393 -4.55608 0.358849
1.02493 -4.55208 0.358849
1.04193 -4.55808 0.358849
1.06993 -4.54808 0.358849
1.11293 -4.54108 0.358849
1.14893 -4.53408 0.358849
2.40593 -4.35508 0.368849
4.76393 -4.01808 0.411849
4.79493 -4.01908 0.412849
4.85293 -4.01508 0.413849
4.87993 -4.01108 0.414849
4.93293 -4.00308 0.415849
4.95293 -4.00708 0.416849
5.24393 -3.96208 0.422849
5.49193 -3.92208 0.428849
5.68493 -3.88708 0.433849
5.69693 -3.88208 0.433849
5.73393 -3.88108 0.434849
5.75993 -3.87208 0.435849
5.79993 -3.87308 0.436849
5.86493 -3.86208 0.438849
5.89393 -3.85508 0.438849
5.91993 -3.85908 0.439849
5.95393 -3.85408 0.440849
5.98293 -3.84608 0.441849
6.05193 -3.83708 0.442849
6.07793 -3.82708 0.443849
6.17093 -3.81708 0.445849
6.30793 -3.79308 0.449849
6.37393 -3.79208 0.451849
6.40293 -3.78208 0.452849
6.44693 -3.78108 0.453849
6.51393 -3.76508 0.455849
6.55593 -3.76108 0.456849
6.58993 -3.75308 0.457849
6.61893 -3.75608 0.457849
6.65993 -3.75108 0.459849
6.69993 -3.74608 0.460849
6.73993 -3.74008 0.461849
6.78493 -3.73708 0.462849
6.80893 -3.72308 0.463849
6.85693 -3.72108 0.464849
6.88093 -3.72008 0.465849
6.92593 -3.71608 0.466849
6.96093 -3.70608 0.467849
6.99193 -3.69508 0.468849
7.07893 -3.68408 0.470849
7.13093 -3.68308 0.472849
7.15593 -3.68108 0.472849
7.20193 -3.67608 0.474849
7.23293 -3.66308 0.474849
7.27993 -3.65808 0.476849
7.32893 -3.65408 0.477849
7.36793 -3.64408 0.478849
7.41093 -3.63708 0.479849
7.43893 -3.63608 0.480849
7.50193 -3.63708 0.482849
7.52593 -3.62008 0.483849
7.57593 -3.61408 0.484849
7.62493 -3.60808 0.485849
7.67293 -3.60108 0.487849
7.76393 -3.59908 0.489849
7.79693 -3.58508 0.490849
7.85393 -3.58108 0.492849
7.89793 -3.57108 0.493849
7.94893 -3.56408 0.495849
7.99893 -3.55608 0.496849
8.13493 -3.53908 0.500849
8.18793 -3.53208 0.502849
8.23593 -3.52208 0.503849
8.60093 -3.47108 0.514849
8.65993 -3.46308 0.516849
8.76593 -3.45708 0.519849
8.82093 -3.44708 0.520849
8.88393 -3.43908 0.522849
8.93793 -3.42808 0.524849
10.0229 -3.27408 0.557849
0.00592724 -4.70508 0.329849
0.0209272 -4.70508 0.329849
0.0359272 -4.70708 0.329849
0.0499272 -4.70208 0.329849
0.0579272 -4.69608 0.329849
0.0719272 -4.68808 0.328849
0.116927 -4.69108 0.329849
0.130927 -4.68908 0.329849
0.145927 -4.68608 0.328849
0.152927 -4.68808 0.329849
0.167927 -4.67808 0.328849
0.182927 -4.67508 0.328849
0.196927 -4.67708 0.328849
0.211927 -4.66808 0.328849
0.225927 -4.66908 0.328849
0.240927 -4.66608 0.328849
0.247927 -4.66808 0.328849
0.262927 -4.66708 0.328849
0.277927 -4.66808 0.328849
0.292927 -4.66808 0.328849
0.306927 -4.66108 0.328849
0.320927 -4.66008 0.328849
0.335927 -4.65708 0.328849
0.342927 -4.65808 0.328849
0.357927 -4.66308 0.328849
0.371927 -4.65208 0.328849
0.386927 -4.64708 0.328849
0.401927 -4.65508 0.328849
0.416927 -4.65608 0.328849
0.430927 -4.64908 0.328849
0.437927 -4.64808 0.328849
0.451927 -4.63708 0.328849
0.466927 -4.63508 0.328849
0.480927 -4.63408 0.328849
0.496927 -4.64408 0.328849
0.509927 -4.62508 0.327849
0.524927 -4.63108 0.328849
0.531927 -4.62608 0.328849
0.546927 -4.63208 0.328849
0.561927 -4.62908 0.328849
0.574927 -4.61908 0.328849
0.604927 -4.62308 0.328849
0.619927 -4.62108 0.328849
0.625927 -4.61208 0.328849
0.640927 -4.61208 0.328849
0.654927 -4.61208 0.328849
0.669927 -4.61408 0.328849
0.685927 -4.61808 0.328849
0.699927 -4.61408 0.328849
0.713927 -4.61008 0.328849
0.734927 -4.60008 0.328849
0.748927 -4.59608 0.328849
0.765927 -4.60708 0.328849
0.776927 -4.58708 0.327849
0.793927 -4.59708 0.328849
0.808927 -4.60008 0.328849
0.814927 -4.59308 0.328849
0.828927 -4.58408 0.328849
0.845927 -4.59608 0.328849
0.858927 -4.58708 0.328849
0.871927 -4.57408 0.328849
0.888927 -4.58708 0.328849
0.895927 -4.58808 0.328849
0.907927 -4.57108 0.328849
0.925927 -4.58408 0.328849
0.936927 -4.56708 0.328849
0.952927 -4.57208 0.328849
0.965927 -4.56308 0.328849
0.982927 -4.57208 0.328849
0.990927 -4.57308 0.328849
1.00293 -4.56208 0.328849
1.01793 -4.55808 0.328849
1.04793 -4.56008 0.328849
1.06193 -4.55308 0.328849
1.08393 -4.54908 0.328849
1.09793 -4.54608 0.328849
1.11193 -4.54108 0.328849
1.12593 -4.53908 0.328849
1.15593 -4.53808 0.328849
1.17193 -4.53808 0.328849
1.18493 -4.53008 0.328849
1.19293 -4.53208 0.328849
1.20793 -4.53208 0.329849
1.22193 -4.52708 0.328849
1.23693 -4.52708 0.329849
1.25193 -4.52508 0.329849
1.28693 -4.51308 0.329849
1.33193 -4.51008 0.329849
1.36893 -4.50508 0.329849
1.38293 -4.50108 0.329849
1.41393 -4.50208 0.329849
1.46593 -4.49208 0.329849
1.49593 -4.48808 0.330849
1.53893 -4.47708 0.330849
1.62193 -4.46508 0.330849
1.65993 -4.46008 0.330849
1.69193 -4.46108 0.331849
1.72093 -4.45408 0.331849
1.77393 -4.44608 0.331849
1.82093 -4.44208 0.332849
1.83593 -4.43808 0.332849
1.88893 -4.42808 0.332849
1.91993 -4.42208 0.332849
1.95393 -4.42408 0.333849
1.95993 -4.42008 0.332849
1.99193 -4.41608 0.333849
2.02193 -4.40908 0.333849
2.05393 -4.40508 0.333849
2.06093 -4.40408 0.333849
2.10993 -4.39908 0.334849
2.12393 -4.39408 0.334849
2.14593 -4.40408 0.334849
2.15093 -4.39708 0.334849
2.18093 -4.38708 0.334849
2.21193 -4.38208 0.335849
2.27093 -4.37708 0.335849
2.31793 -4.36708 0.335849
2.34893 -4.36008 0.336849
2.37693 -4.36308 0.336849
2.41193 -4.36208 0.337849
2.45893 -4.34908 0.337849
2.47593 -4.34708 0.337849
2.50493 -4.35108 0.338849
2.51693 -4.33908 0.337849
2.53293 -4.33508 0.338849
2.55393 -4.34108 0.338849
2.56993 -4.33608 0.338849
2.57593 -4.33008 0.338849
2.59793 -4.33808 0.339849
2.63093 -4.33008 0.339849
2.64393 -4.32208 0.339849
2.68993 -4.32008 0.339849
2.74693 -4.32108 0.340849
2.77293 -4.30208 0.340849
2.78993 -4.29808 0.340849
2.83793 -4.29808 0.341849
3.08593 -4.25508 0.344849
4.78293 -4.02108 0.371849
4.80993 -4.01908 0.372849
4.83193 -4.01108 0.372849
4.90393 -4.00608 0.374849
4.92093 -3.99408 0.374849
4.95993 -4.00008 0.375849
4.97393 -3.98608 0.375849
5.00793 -3.98808 0.376849
5.02093 -3.98508 0.376849
5.07893 -3.97908 0.377849
5.10093 -3.97108 0.377849
5.12593 -3.96508 0.378849
5.15693 -3.96308 0.378849
5.18193 -3.95708 0.379849
5.20093 -3.95808 0.379849
5.23093 -3.95508 0.380849
5.25893 -3.95108 0.380849
5.29093 -3.94908 0.381849
5.32093 -3.94508 0.382849
5.37293 -3.93208 0.383849
5.43193 -3.93608 0.384849
5.53293 -3.90508 0.386849
8.87993 -3.43508 0.461849
8.92593 -3.42008 0.462849
9.68993 -3.31908 0.481849
9.88193 -3.29908 0.486849
9.94793 -3.28608 0.487849
1.10693 -4.55608 0.306849
1.13693 -4.55308 0.306849
1.15093 -4.55108 0.306849
1.18693 -4.54008 0.306849
1.28393 -4.53208 0.307849
1.29893 -4.53008 0.307849
1.31393 -4.52808 0.307849
1.32693 -4.52008 0.307849
1.34293 -4.52208 0.307849
1.34993 -4.51908 0.307849
1.39493 -4.51608 0.307849
1.42493 -4.51108 0.307849
1.43693 -4.50108 0.307849
1.44693 -4.50808 0.307849
1.46193 -4.50308 0.307849
1.50593 -4.49508 0.307849
1.52093 -4.49208 0.307849
1.55893 -4.49008 0.308849
1.57493 -4.48808 0.308849
1.58893 -4.48408 0.308849
1.60593 -4.48608 0.308849
1.61993 -4.48108 0.308849
1.63293 -4.47408 0.308849
1.64093 -4.47508 0.308849
1.65793 -4.47708 0.308849
1.67193 -4.47008 0.308849
1.70293 -4.46708 0.308849
1.71693 -4.46408 0.308849
1.72993 -4.45508 0.308849
1.75593 -4.45908 0.308849
1.77193 -4.45808 0.309849
1.78893 -4.45908 0.309849
1.80093 -4.45008 0.309849
1.81893 -4.45408 0.309849
1.84193 -4.45008 0.309849
1.85693 -4.44708 0.309849
1.87193 -4.44408 0.309849
1.90393 -4.44208 0.309849
1.91893 -4.43708 0.309849
1.94193 -4.43408 0.310849
1.98693 -4.42108 0.310849
2.01893 -4.41708 0.310849
2.05993 -4.41608 0.310849
2.07793 -4.41808 0.310849
2.09393 -4.41508 0.311849
2.10893 -4.41208 0.311849
2.12093 -4.40008 0.311849
2.14093 -4.40808 0.311849
2.16593 -4.40508 0.311849
2.19293 -4.39108 0.311849
2.21193 -4.39308 0.311849
2.22993 -4.39508 0.312849
2.24393 -4.38808 0.312849
2.25393 -4.39208 0.312849
2.26993 -4.38808 0.312849
2.28593 -4.38508 0.312849
2.31893 -4.38108 0.312849
2.32893 -4.36608 0.312849
2.34093 -4.37308 0.312849
2.36093 -4.37608 0.313849
2.37493 -4.36908 0.313849
2.39193 -4.36808 0.313849
2.40693 -4.36308 0.313849
2.42593 -4.36408 0.313849
2.44293 -4.36308 0.313849
2.46893 -4.36008 0.313849
2.48093 -4.35108 0.313849
2.50193 -4.35508 0.314849
2.51393 -4.34408 0.314849
2.53393 -4.34808 0.314849
2.55293 -4.34808 0.314849
2.56793 -4.34208 0.314849
2.57593 -4.34008 0.314849
2.59393 -4.33908 0.314849
2.60893 -4.33408 0.314849
2.62693 -4.33208 0.315849
2.65893 -4.32408 0.315849
2.67993 -4.32808 0.315849
2.70493 -4.32208 0.315849
2.72193 -4.31808 0.316849
2.74293 -4.32208 0.316849
2.74993 -4.30308 0.316849
2.77593 -4.31308 0.316849
2.79993 -4.30608 0.316849
2.81693 -4.30208 0.316849
2.83793 -4.30508 0.317849
3.00993 -4.28008 0.318849
3.03693 -4.27608 0.319849
3.05593 -4.27508 0.319849
3.09293 -4.27008 0.319849
3.11193 -4.26608 0.320849
3.12793 -4.26108 0.320849
3.13993 -4.26308 0.320849
3.15893 -4.26108 0.320849
3.17893 -4.25908 0.320849
3.19593 -4.25408 0.320849
3.21493 -4.25208 0.321849
3.23293 -4.24808 0.321849
3.24693 -4.23808 0.321849
3.25793 -4.23908 0.321849
3.27593 -4.23508 0.321849
3.29993 -4.23708 0.322849
3.31793 -4.23308 0.322849
3.33593 -4.22908 0.322849
3.37493 -4.22408 0.322849
3.38093 -4.21708 0.322849
3.40893 -4.22508 0.323849
3.42593 -4.21908 0.323849
3.44393 -4.21408 0.323849
3.46293 -4.20908 0.323849
3.48593 -4.21108 0.324849
3.50593 -4.20708 0.324849
3.51593 -4.20608 0.324849
3.53693 -4.20408 0.324849
3.54993 -4.19308 0.324849
3.57693 -4.19708 0.325849
3.59193 -4.18908 0.325849
3.61493 -4.18808 0.325849
3.63193 -4.18108 0.325849
3.64593 -4.18508 0.326849
3.66593 -4.18108 0.326849
3.68693 -4.17808 0.326849
3.70593 -4.17308 0.326849
3.72893 -4.17308 0.327849
3.75093 -4.17008 0.327849
3.76893 -4.16408 0.327849
3.78493 -4.16808 0.328849
3.80593 -4.16508 0.328849
3.82593 -4.16108 0.328849
3.83593 -4.14608 0.328849
3.86293 -4.14808 0.328849
3.88193 -4.14208 0.329849
3.89593 -4.14408 0.329849
3.92193 -4.14508 0.329849
3.94193 -4.14008 0.329849
3.96693 -4.14108 0.330849
3.98593 -4.13408 0.330849
4.00893 -4.13108 0.330849
4.02193 -4.11908 0.330849
4.04593 -4.11708 0.331849
4.05893 -4.11808 0.331849
4.09093 -4.12408 0.332849
4.10793 -4.11508 0.332849
4.12793 -4.10908 0.332849
4.14593 -4.10208 0.332849
4.17093 -4.10008 0.332849
4.18893 -4.10408 0.333849
4.20693 -4.09708 0.333849
4.23293 -4.09608 0.333849
4.25593 -4.09208 0.334849
4.27793 -4.08708 0.334849
4.30193 -4.08508 0.334849
4.33593 -4.07808 0.335849
4.37093 -4.08508 0.336849
4.38293 -4.07108 0.336849
4.40793 -4.06808 0.336849
4.42793 -4.06108 0.336849
4.47693 -4.05408 0.337849
4.49393 -4.05708 0.337849
4.56193 -4.04108 0.338849
4.64093 -4.03308 0.339849
4.70493 -4.02308 0.340849
5.63793 -3.89808 0.355849
5.65993 -3.88708 0.356849
5.68993 -3.88208 0.356849
5.72893 -3.88208 0.357849
5.75293 -3.87108 0.357849
5.77993 -3.87708 0.358849
5.80793 -3.86908 0.358849
5.84593 -3.86808 0.359849
5.87393 -3.85908 0.359849
5.91293 -3.85808 0.360849
5.94193 -3.85008 0.361849
5.97393 -3.84508 0.361849
6.00193 -3.84908 0.362849
6.03093 -3.84108 0.362849
6.06093 -3.83408 0.363849
6.09893 -3.83108 0.363849
6.13093 -3.82408 0.364849
6.16393 -3.81708 0.364849
6.20093 -3.81308 0.365849
6.21793 -3.81008 0.365849
6.25493 -3.80608 0.366849
6.28893 -3.80008 0.367849
6.32693 -3.79508 0.367849
6.36293 -3.79008 0.368849
6.39893 -3.78408 0.369849
6.43693 -3.77908 0.369849
6.46893 -3.78408 0.370849
6.50993 -3.78008 0.371849
6.53893 -3.77008 0.371849
6.57393 -3.76208 0.372849
6.60793 -3.75408 0.372849
6.65093 -3.75108 0.373849
6.68593 -3.74308 0.374849
6.74893 -3.73608 0.375849
6.79593 -3.73408 0.376849
6.82793 -3.72408 0.376849
6.86693 -3.71708 0.377849
6.90493 -3.70908 0.378849
6.94493 -3.70208 0.379849
6.97993 -3.70708 0.379849
7.02193 -3.70108 0.380849
7.05993 -3.69308 0.381849
7.10193 -3.68608 0.382849
7.13993 -3.67808 0.382849
7.18193 -3.67108 0.383849
7.22393 -3.67708 0.384849
7.25493 -3.66408 0.384849
7.30793 -3.66208 0.385849
7.35093 -3.65508 0.386849
7.39093 -3.64608 0.387849
7.44093 -3.64108 0.388849
7.48293 -3.63208 0.389849
7.52093 -3.63608 0.390849
7.61193 -3.62108 0.391849
7.65293 -3.61108 0.392849
7.69993 -3.60408 0.393849
7.74593 -3.59508 0.394849
7.79393 -3.58808 0.395849
7.92893 -3.57508 0.397849
7.97293 -3.56408 0.398849
8.01693 -3.55408 0.399849
8.07093 -3.54708 0.400849
8.12393 -3.54008 0.401849
8.27293 -3.52708 0.404849
8.37393 -3.50808 0.406849
8.58293 -3.48408 0.410849
8.68693 -3.46308 0.412849
8.74393 -3.45408 0.413849
8.81093 -3.44808 0.415849
8.86593 -3.43808 0.416849
0.0439272 -4.69508 0.270849
0.0589272 -4.68908 0.270849
0.0739272 -4.69108 0.270849
0.0879272 -4.69208 0.270849
0.0959272 -4.69208 0.270849
0.109927 -4.68608 0.270849
0.124927 -4.68808 0.270849
0.139927 -4.68308 0.270849
0.153927 -4.67508 0.270849
0.168927 -4.68808 0.270849
0.183927 -4.67808 0.270849
0.191927 -4.68508 0.270849
0.205927 -4.67908 0.270849
0.220927 -4.68208 0.270849
0.234927 -4.67708 0.270849
0.249927 -4.67908 0.270849
0.263927 -4.66408 0.270849
0.278927 -4.66508 0.270849
0.285927 -4.66808 0.270849
0.300927 -4.66008 0.270849
0.314927 -4.65908 0.270849
0.329927 -4.66408 0.270849
0.344927 -4.65808 0.270849
0.358927 -4.64908 0.270849
0.372927 -4.64608 0.270849
0.380927 -4.65608 0.270849
0.395927 -4.65608 0.270849
0.409927 -4.64308 0.270849
0.438927 -4.64208 0.270849
0.453927 -4.64508 0.270849
0.475927 -4.64708 0.270849
0.489927 -4.63508 0.270849
0.518927 -4.62808 0.270849
0.533927 -4.63108 0.270849
0.547927 -4.62908 0.270849
0.555927 -4.63608 0.270849
0.569927 -4.62808 0.270849
0.584927 -4.63008 0.270849
0.598927 -4.62108 0.270849
0.612927 -4.61908 0.270849
0.626927 -4.61108 0.269849
0.641927 -4.61508 0.270849
0.648927 -4.60808 0.269849
0.663927 -4.61208 0.270849
0.676927 -4.60208 0.269849
0.693927 -4.61308 0.270849
0.706927 -4.60508 0.270849
0.736927 -4.60508 0.270849
0.744927 -4.60708 0.270849
0.758927 -4.60108 0.270849
0.773927 -4.60308 0.270849
0.787927 -4.60008 0.270849
0.802927 -4.60008 0.270849
0.844927 -4.58408 0.270849
0.852927 -4.58908 0.270849
0.865927 -4.57808 0.270849
0.881927 -4.58308 0.270849
0.911927 -4.58308 0.270849
0.923927 -4.56908 0.270849
0.932927 -4.57508 0.270849
0.946927 -4.57008 0.270849
0.958927 -4.55908 0.270849
0.974927 -4.56408 0.270849
0.988927 -4.55708 0.270849
1.00493 -4.56408 0.270849
1.01993 -4.56108 0.270849
1.02593 -4.55508 0.270849
1.06993 -4.54908 0.270849
1.09793 -4.54008 0.270849
1.11493 -4.54908 0.270849
1.12093 -4.54108 0.270849
1.13493 -4.53908 0.270849
1.14993 -4.53808 0.270849
1.19193 -4.52508 0.270849
1.20893 -4.53108 0.270849
1.23093 -4.52708 0.270849
1.26093 -4.52508 0.270849
1.27393 -4.51708 0.270849
1.30193 -4.50908 0.270849
1.33893 -4.50408 0.270849
1.35393 -4.50208 0.270849
1.37093 -4.50508 0.270849
1.38293 -4.49708 0.270849
1.42093 -4.49208 0.270849
1.46493 -4.48608 0.270849
1.51793 -4.48108 0.271849
1.69193 -4.45908 0.271849
1.69893 -4.45408 0.271849
1.77393 -4.44208 0.271849
1.81493 -4.44308 0.272849
1.82893 -4.43708 0.272849
1.84493 -4.43508 0.272849
1.85893 -4.43108 0.272849
1.87393 -4.42708 0.272849
1.88193 -4.42808 0.272849
1.89793 -4.42508 0.272849
1.92993 -4.42408 0.272849
1.94693 -4.42408 0.272849
1.96293 -4.42308 0.272849
1.99593 -4.42208 0.272849
2.00093 -4.41508 0.272849
2.01493 -4.40908 0.272849
2.03393 -4.41308 0.273849
2.06293 -4.40408 0.273849
2.07793 -4.40108 0.273849
2.09693 -4.40508 0.273849
2.10093 -4.39508 0.273849
2.12393 -4.40808 0.273849
2.13393 -4.39408 0.273849
2.14893 -4.38908 0.273849
2.16693 -4.39108 0.273849
2.18293 -4.38808 0.273849
2.19093 -4.38708 0.273849
2.20793 -4.38708 0.273849
2.23793 -4.37808 0.273849
2.25793 -4.38408 0.274849
2.27193 -4.37708 0.274849
2.29493 -4.37108 0.274849
2.30993 -4.36608 0.274849
2.32693 -4.36508 0.274849
2.34193 -4.36008 0.274849
2.37793 -4.36108 0.274849
2.39593 -4.36208 0.274849
2.41793 -4.35308 0.274849
2.44093 -4.36308 0.275849
2.45293 -4.35108 0.275849
2.46793 -4.34508 0.275849
2.48893 -4.35208 0.275849
2.49893 -4.33708 0.275849
2.51793 -4.33908 0.275849
2.53093 -4.34608 0.275849
2.54693 -4.34108 0.275849
2.56293 -4.33708 0.275849
2.58193 -4.33908 0.276849
2.59593 -4.33108 0.276849
2.60993 -4.32408 0.276849
2.63793 -4.32408 0.276849
2.67593 -4.32408 0.276849
2.70493 -4.31108 0.276849
2.75193 -4.31108 0.277849
2.79893 -4.29508 0.277849
2.82093 -4.29808 0.277849
2.83793 -4.29608 0.277849
2.85193 -4.30208 0.277849
3.00593 -4.28208 0.278849
3.03793 -4.27108 0.278849
3.07093 -4.26008 0.279849
3.08693 -4.26808 0.279849
3.11893 -4.25708 0.279849
3.15493 -4.25008 0.279849
3.19193 -4.24308 0.279849
3.23693 -4.23308 0.280849
3.27793 -4.23208 0.280849
3.31593 -4.22608 0.280849
3.34893 -4.22708 0.281849
3.37893 -4.21108 0.281849
3.42293 -4.21108 0.281849
3.45393 -4.20908 0.282849
3.49593 -4.20608 0.282849
3.61893 -4.17808 0.283849
3.65793 -4.17008 0.283849
3.76593 -4.17308 0.284849
3.77893 -4.16108 0.284849
3.83993 -4.14908 0.285849
3.84593 -4.14308 0.285849
4.20093 -4.09308 0.288849
4.76293 -4.01508 0.293849
4.79193 -4.01408 0.294849
4.82193 -4.01308 0.294849
4.84293 -4.00508 0.294849
4.86993 -4.00208 0.295849
4.90093 -4.00208 0.295849
4.91793 -4.00308 0.295849
4.93493 -3.99108 0.295849
4.97593 -3.99808 0.296849
4.99393 -3.98808 0.296849
5.01293 -3.97708 0.296849
5.04393 -3.97608 0.296849
5.08193 -3.98008 0.297849
5.09493 -3.97708 0.297849
5.11593 -3.96808 0.297849
5.14593 -3.96608 0.298849
5.17493 -3.96208 0.298849
5.19493 -3.95208 0.298849
5.23093 -3.95308 0.298849
5.25593 -3.94708 0.299849
5.27793 -3.95008 0.299849
5.30393 -3.94308 0.299849
5.33193 -3.93908 0.300849
5.35093 -3.92708 0.300849
5.38593 -3.92608 0.300849
5.41293 -3.92008 0.300849
5.44693 -3.91908 0.301849
5.46793 -3.92108 0.301849
5.53293 -3.91608 0.302849
5.65393 -3.88308 0.303849
7.35593 -3.63908 0.324849
7.48993 -3.61908 0.325849
7.58293 -3.60608 0.326849
7.62293 -3.61008 0.327849
7.66293 -3.60008 0.327849
7.70493 -3.59008 0.328849
7.75493 -3.58408 0.329849
7.80593 -3.57808 0.329849
7.93593 -3.56208 0.331849
7.98693 -3.55608 0.332849
8.03493 -3.54708 0.332849
8.08093 -3.53708 0.333849
8.13593 -3.53108 0.334849
8.19093 -3.52408 0.334849
8.24193 -3.51608 0.335849
8.27693 -3.51508 0.335849
8.33193 -3.50808 0.336849
8.55893 -3.47808 0.339849
8.70293 -3.45808 0.341849
8.76193 -3.44908 0.342849
8.82493 -3.44208 0.343849
8.86893 -3.42808 0.343849
8.92893 -3.41908 0.344849
9.96693 -3.27208 0.358849
2.54893 -4.32908 0.249849
2.58493 -4.32608 0.249849
2.61693 -4.31908 0.249849
2.62893 -4.32308 0.249849
2.68493 -4.32208 0.250849
2.69493 -4.30808 0.250849
2.71493 -4.31008 0.250849
2.73193 -4.30608 0.250849
2.74293 -4.30908 0.250849
2.75993 -4.30508 0.250849
2.77593 -4.30208 0.250849
2.80793 -4.29108 0.250849
2.83093 -4.29708 0.250849
3.04993 -4.26808 0.251849
3.06393 -4.26008 0.251849
3.08693 -4.26308 0.251849
3.09593 -4.26208 0.252849
3.11793 -4.26308 0.252849
3.14893 -4.25008 0.252849
3.16593 -4.24508 0.252849
3.19193 -4.25108 0.252849
3.20093 -4.23608 0.252849
3.21093 -4.23408 0.252849
3.24093 -4.24608 0.252849
3.25793 -4.24108 0.252849
3.27393 -4.23408 0.252849
3.29893 -4.23908 0.253849
3.31393 -4.23008 0.253849
3.33193 -4.22608 0.253849
3.34993 -4.22208 0.253849
3.35593 -4.21508 0.253849
3.38393 -4.22308 0.253849
3.40493 -4.22208 0.253849
3.41593 -4.20808 0.253849
3.43893 -4.21008 0.253849
3.45893 -4.20608 0.253849
3.47293 -4.19708 0.253849
3.48993 -4.20408 0.254849
3.51493 -4.20708 0.254849
3.53193 -4.20008 0.254849
3.54993 -4.19508 0.254849
3.57093 -4.19308 0.254849
3.59593 -4.18208 0.254849
3.62093 -4.18408 0.254849
3.63693 -4.17608 0.254849
3.68393 -4.17708 0.255849
3.73893 -4.17208 0.255849
3.75393 -4.16308 0.255849
3.77393 -4.15808 0.255849
3.79693 -4.15708 0.255849
3.85593 -4.14308 0.255849
3.86693 -4.14108 0.256849
3.88793 -4.13808 0.256849
3.97493 -4.12408 0.256849
3.99693 -4.12208 0.256849
4.02193 -4.13408 0.257849
4.03493 -4.12108 0.257849
4.05793 -4.11908 0.257849
4.08593 -4.12108 0.257849
4.16593 -4.11008 0.257849
4.20693 -4.09908 0.258849
4.22293 -4.08808 0.258849
4.24693 -4.08608 0.258849
4.26893 -4.08108 0.258849
4.29493 -4.08008 0.258849
4.30693 -4.07908 0.258849
4.33293 -4.07708 0.258849
4.35593 -4.07308 0.259849
4.40193 -4.06508 0.259849
4.42793 -4.06308 0.259849
4.44793 -4.05608 0.259849
4.46793 -4.06108 0.259849
4.49393 -4.05908 0.259849
4.51993 -4.05608 0.260849
4.53893 -4.04808 0.260849
4.56093 -4.04108 0.260849
4.62293 -4.03108 0.260849
4.75293 -4.01508 0.261849
5.69093 -3.88408 0.268849
5.81493 -3.87508 0.269849
5.88093 -3.86608 0.269849
5.99493 -3.84708 0.270849
6.06193 -3.83608 0.271849
6.13493 -3.82808 0.271849
6.29793 -3.80708 0.273849
6.36393 -3.79208 0.273849
6.61893 -3.76208 0.275849
6.79793 -3.73708 0.277849
6.83593 -3.73008 0.277849
7.14293 -3.68108 0.279849
7.34493 -3.65408 0.281849
7.39593 -3.65008 0.282849
7.70093 -3.60608 0.284849
7.74093 -3.59608 0.285849
8.02393 -3.55908 0.287849
8.07193 -3.54908 0.287849
8.31593 -3.51708 0.290849
8.33993 -3.49608 0.290849
10.0019 -3.25808 0.305849
10.0659 -3.26108 0.305849
10.1399 -3.24908 0.306849
10.2029 -3.23408 0.306849
10.2709 -3.22008 0.307849
10.3439 -3.20708 0.308849
10.5469 -3.17908 0.310849
0.941927 -4.56308 0.212849
1.18193 -4.52608 0.213849
4.81293 -4.01108 0.218849
4.87593 -3.99808 0.218849
4.95593 -3.98708 0.218849
5.00293 -3.97408 0.218849
5.03293 -3.98508 0.218849
5.04893 -3.97108 0.218849
5.08793 -3.97608 0.218849
5.10293 -3.96308 0.218849
5.13293 -3.96008 0.218849
5.19093 -3.95408 0.218849
5.21193 -3.95608 0.218849
5.23693 -3.95008 0.218849
5.27193 -3.95008 0.219849
5.28993 -3.93808 0.219849
5.34893 -3.93008 0.219849
5.40293 -3.93108 0.219849
5.43293 -3.92708 0.219849
5.44993 -3.91308 0.219849
5.47993 -3.90908 0.219849
5.53993 -3.90008 0.219849
8.88093 -3.42208 0.228849
9.64293 -3.32308 0.230849
9.71593 -3.31408 0.230849
9.92793 -3.26608 0.231849
4.56893 -4.05108 0.188849
10.0879 -3.25508 0.181849
10.1519 -3.24008 0.181849
10.3629 -3.21708 0.181849
10.4399 -3.20508 0.181849
10.5199 -3.19408 0.180849
10.5779 -3.17508 0.180849
10.6549 -3.16108 0.180849
10.7329 -3.16608 0.180849
10.8009 -3.14908 0.180849
10.8679 -3.13108 0.180849
10.9589 -3.12008 0.180849
11.2689 -3.07408 0.179849
11.3559 -3.05908 0.179849
11.4539 -3.04708 0.179849
11.6689 -3.02508 0.179849
2.51793 -4.33208 0.158849
3.22693 -4.22908 0.155849
4.84193 -4.01208 0.147849
