7.49202 3.07301 -1.68883
7.46402 3.08901 -1.68483
7.45002 3.13801 -1.68583
7.43502 3.16001 -1.68483
7.40302 3.24301 -1.68583
7.40002 3.26901 -1.68683
7.38602 3.29101 -1.68683
7.37902 3.31601 -1.68683
7.36502 3.33701 -1.68683
7.68202 -1.90999 -1.64883
7.74502 -1.89999 -1.66183
7.72702 1.47841e-05 -1.67483
7.73202 0.0490148 -1.67583
7.73602 0.0730148 -1.67683
7.74002 0.0980148 -1.67783
7.73502 0.122015 -1.67683
7.72202 0.134015 -1.67383
7.72302 0.158015 -1.67383
7.72802 0.183015 -1.67583
7.73002 0.207015 -1.67583
7.73102 0.231015 -1.67683
7.73402 0.256015 -1.67683
7.73202 0.316015 -1.67683
7.74102 0.366015 -1.67983
7.73802 0.390015 -1.67983
7.74302 0.414015 -1.68083
7.74002 0.439015 -1.68083
7.73902 0.451015 -1.68083
7.73902 0.475015 -1.68083
7.72702 0.548015 -1.67883
7.73502 0.573015 -1.68183
7.72102 0.596015 -1.67883
7.72602 0.609015 -1.67983
7.72402 0.633015 -1.67983
7.73202 0.658015 -1.68183
7.73002 0.682015 -1.68183
7.72202 0.706015 -1.68083
7.70802 0.729015 -1.67783
7.70902 0.754015 -1.67883
7.71402 0.766015 -1.68083
7.71902 0.791015 -1.68183
7.70902 0.815015 -1.68083
7.71602 0.840015 -1.68283
7.71502 0.865015 -1.68283
7.71302 0.889015 -1.68283
7.71002 0.913015 -1.68283
7.71202 0.926015 -1.68383
7.69702 0.998015 -1.68283
7.69602 1.02201 -1.68283
7.69902 1.04701 -1.68483
7.70102 1.07201 -1.68583
7.69602 1.08301 -1.68483
7.69302 1.13201 -1.68583
7.67502 1.15401 -1.68283
7.68502 1.18101 -1.68583
7.67802 1.20401 -1.68483
7.67802 1.22901 -1.68583
7.67202 1.24001 -1.68483
7.67002 1.26501 -1.68583
7.65602 1.28701 -1.68283
7.66902 1.31401 -1.68683
7.65002 1.33601 -1.68383
7.65302 1.36101 -1.68583
7.66202 1.38801 -1.68883
7.66002 1.40001 -1.68883
7.64202 1.42101 -1.68583
7.64502 1.47101 -1.68783
7.63602 1.49501 -1.68683
7.62502 1.54201 -1.68683
7.62602 1.55501 -1.68783
7.63002 1.60601 -1.69083
7.61502 1.62801 -1.68883
7.60902 1.70101 -1.69083
7.59402 1.81101 -1.69283
7.58802 1.83501 -1.69283
7.50202 2.16701 -1.69383
7.47102 2.19701 -1.68883
7.45802 2.21801 -1.68683
7.46602 2.24601 -1.69083
7.44202 2.26501 -1.68683
7.42602 2.28501 -1.68483
7.43402 2.31301 -1.68783
7.41102 2.31901 -1.68383
7.39802 2.34001 -1.68183
7.40602 2.36801 -1.68583
7.37602 2.38401 -1.68083
7.38002 2.41101 -1.68283
7.37802 2.43601 -1.68483
7.35502 2.45401 -1.68083
7.36802 2.47201 -1.68483
7.36002 2.49501 -1.68483
7.33202 2.53601 -1.68183
7.33302 2.56301 -1.68383
7.28502 2.68801 -1.68383
7.39002 -1.93399 -1.65383
7.41502 -1.91599 -1.65883
7.44402 -1.89799 -1.66383
7.66902 -0.821985 -1.67183
7.68502 -0.737985 -1.67283
7.69702 -0.604985 -1.67283
7.70202 -0.532985 -1.67283
7.70302 -0.495985 -1.67283
7.71202 -0.472985 -1.67483
7.70802 -0.447985 -1.67283
7.70902 -0.399985 -1.67283
7.71902 -0.350985 -1.67483
7.72002 -0.314985 -1.67483
7.72702 -0.290985 -1.67583
7.72202 -0.266985 -1.67483
7.72102 -0.241985 -1.67383
7.72602 -0.217985 -1.67483
7.71702 -0.156985 -1.67283
7.72902 -0.132985 -1.67583
7.73202 -0.108985 -1.67583
7.71802 -0.0849852 -1.67283
7.72802 -0.0599852 -1.67483
7.73102 -0.0359852 -1.67583
7.73402 -0.0239852 -1.67683
7.21302 2.28501 -1.69983
7.21302 2.31001 -1.70083
7.19402 2.31601 -1.69783
7.19102 2.34001 -1.69883
7.19102 2.36501 -1.70083
7.17602 2.38501 -1.69883
7.16502 2.40601 -1.69783
7.16102 2.43001 -1.69883
7.14602 2.45001 -1.69683
7.14902 2.46401 -1.69883
7.13002 2.48201 -1.69583
7.12102 2.50401 -1.69483
7.11702 2.52801 -1.69583
7.09902 2.54701 -1.69383
7.10602 2.57501 -1.69783
7.10002 2.59701 -1.69783
7.06102 2.59601 -1.68883
7.08602 2.63001 -1.69783
7.05402 2.64401 -1.69183
7.05802 2.67101 -1.69483
7.05502 2.69501 -1.69583
7.04602 2.71701 -1.69583
7.02302 2.73401 -1.69283
7.03402 2.75001 -1.69583
7.00902 2.76601 -1.69183
6.99602 2.78601 -1.69083
7.00602 2.81601 -1.69583
6.98602 2.83301 -1.69283
6.97702 2.85501 -1.69283
6.99002 2.88601 -1.69883
6.96202 2.88701 -1.69283
6.96502 2.91401 -1.69583
6.95802 2.93701 -1.69583
6.94102 2.95601 -1.69483
6.94302 2.98201 -1.69683
6.93502 3.00501 -1.69783
6.93402 3.03001 -1.69983
6.92802 3.04001 -1.69983
6.91802 3.06201 -1.69983
6.91202 3.08601 -1.70083
6.89902 3.10601 -1.69983
6.89502 3.13001 -1.70083
6.89002 3.15401 -1.70183
6.87102 3.17101 -1.69983
6.87002 3.18401 -1.70083
6.86102 3.20601 -1.70083
6.85502 3.22901 -1.70183
6.83602 3.24701 -1.69983
7.09302 -2.01999 -1.65383
7.12702 -2.00599 -1.66083
7.16702 -1.99299 -1.66883
7.15602 0.0220148 -1.67583
7.14202 0.0330148 -1.67283
7.16102 0.0560148 -1.67783
7.15102 0.0780148 -1.67483
7.15902 0.100015 -1.67683
7.15702 0.123015 -1.67683
7.15602 0.145015 -1.67683
7.15402 0.168015 -1.67583
7.16102 0.179015 -1.67783
7.15902 0.202015 -1.67783
7.16402 0.224015 -1.67883
7.15702 0.247015 -1.67783
7.16202 0.269015 -1.67883
7.15802 0.292015 -1.67783
7.15902 0.314015 -1.67883
7.15602 0.325015 -1.67783
7.15902 0.348015 -1.67883
7.16602 0.371015 -1.68083
7.15702 0.393015 -1.67883
7.14402 0.415015 -1.67583
7.14602 0.438015 -1.67683
7.16202 0.461015 -1.68183
7.15402 0.472015 -1.67983
7.17502 0.496015 -1.68483
7.13902 0.516015 -1.67683
7.14102 0.539015 -1.67783
7.14902 0.562015 -1.67983
7.14502 0.584015 -1.67983
7.14602 0.607015 -1.67983
7.13902 0.618015 -1.67883
7.15602 0.642015 -1.68383
7.14402 0.663015 -1.68083
7.14002 0.686015 -1.68083
7.14602 0.709015 -1.68283
7.15902 0.733015 -1.68583
7.13502 0.753015 -1.68083
7.17302 0.769015 -1.69083
7.15102 0.789015 -1.68583
7.15802 0.812015 -1.68783
7.13102 0.832015 -1.68183
7.12802 0.854015 -1.68183
7.13702 0.878015 -1.68483
7.15302 0.903015 -1.68983
7.10802 0.909015 -1.67883
7.13702 0.935015 -1.68683
7.12302 0.956015 -1.68383
7.13902 0.981015 -1.68883
7.10702 0.999015 -1.68183
7.14402 1.02801 -1.69183
7.13702 1.05001 -1.69083
7.11102 1.05701 -1.68483
7.13602 1.08401 -1.69183
7.12902 1.10601 -1.69083
7.08502 1.12101 -1.68083
7.12202 1.15001 -1.69083
7.11402 1.17201 -1.68983
7.09502 1.19201 -1.68583
7.11202 1.20601 -1.69083
7.11002 1.22901 -1.69083
7.07602 1.24601 -1.68383
7.11602 1.27601 -1.69483
7.09502 1.29501 -1.68983
7.08902 1.31701 -1.68983
7.06902 1.33601 -1.68583
7.10102 1.35401 -1.69483
7.08402 1.37401 -1.69083
7.07002 1.39401 -1.68883
7.07502 1.41801 -1.69083
7.06902 1.44001 -1.69083
7.03602 1.45601 -1.68383
7.06002 1.48501 -1.69083
7.07202 1.49901 -1.69483
7.03202 1.51301 -1.68483
7.03602 1.53701 -1.68783
7.05102 1.58701 -1.69383
7.02302 1.60401 -1.68783
7.03802 1.64301 -1.69383
7.03902 1.68901 -1.69683
6.95402 1.99601 -1.69583
6.96302 2.02301 -1.69983
6.94202 2.04001 -1.69583
6.95402 2.06701 -1.70083
6.92302 2.07001 -1.69383
6.92602 2.09401 -1.69583
6.90002 2.11001 -1.69083
6.90302 2.13501 -1.69383
6.87602 2.15001 -1.68783
6.87602 2.17401 -1.68983
6.85702 2.19201 -1.68683
6.87002 2.20801 -1.69083
6.86102 2.22901 -1.69083
6.84302 2.24701 -1.68783
6.83202 -2.00899 -1.66783
6.99802 -1.49599 -1.67583
7.00502 -1.45099 -1.67583
7.01402 -1.39599 -1.67483
7.02202 -1.37499 -1.67583
7.02702 -1.32999 -1.67483
7.03702 -1.28599 -1.67583
7.04302 -1.27599 -1.67683
7.03702 -1.25199 -1.67383
7.05702 -1.23199 -1.67783
7.04302 -1.20699 -1.67383
7.05902 -1.18699 -1.67683
7.06602 -1.16499 -1.67783
7.05102 -1.13999 -1.67283
7.06602 -1.13099 -1.67583
7.06902 -1.10899 -1.67583
7.06902 -1.08599 -1.67483
7.07202 -1.06399 -1.67483
7.07202 -1.04099 -1.67383
7.07502 -1.01899 -1.67383
7.09002 -0.997985 -1.67683
7.09302 -0.987985 -1.67783
7.08102 -0.962985 -1.67383
7.10602 -0.920985 -1.67883
7.09302 -0.896985 -1.67483
7.08702 -0.872985 -1.67183
7.10702 -0.852985 -1.67683
7.09302 -0.839985 -1.67283
7.09302 -0.817985 -1.67183
7.11702 -0.797985 -1.67783
7.10202 -0.773985 -1.67283
7.11202 -0.751985 -1.67483
7.12402 -0.730985 -1.67783
7.12102 -0.707985 -1.67583
7.11802 -0.695985 -1.67483
7.12002 -0.673985 -1.67483
7.10902 -0.649985 -1.67183
7.12402 -0.628985 -1.67483
7.13202 -0.606985 -1.67683
7.12002 -0.583985 -1.67283
7.12002 -0.560985 -1.67283
7.12902 -0.550985 -1.67483
7.12502 -0.527985 -1.67283
7.14402 -0.506985 -1.67783
7.13402 -0.482985 -1.67483
7.13902 -0.460985 -1.67583
7.15002 -0.438985 -1.67783
7.15302 -0.416985 -1.67883
7.14002 -0.404985 -1.67483
7.13602 -0.381985 -1.67383
7.13502 -0.359985 -1.67283
7.14602 -0.337985 -1.67583
7.13902 -0.314985 -1.67383
7.15202 -0.292985 -1.67683
7.13902 -0.269985 -1.67283
7.14802 -0.247985 -1.67483
7.15802 -0.236985 -1.67783
7.14302 -0.213985 -1.67383
7.14002 -0.190985 -1.67283
7.15602 -0.168985 -1.67683
7.14302 -0.146985 -1.67283
7.15102 -0.123985 -1.67483
7.15302 -0.112985 -1.67583
7.15502 -0.0909852 -1.67583
7.14602 -0.0679852 -1.67383
7.14802 -0.0459852 -1.67383
7.16002 -0.0229852 -1.67683
7.15002 -0.000985216 -1.67483
6.88002 0.0210148 -1.67783
6.87802 0.0430148 -1.67783
6.88402 0.0650148 -1.67883
6.88002 0.0860148 -1.67783
6.87802 0.0970148 -1.67783
6.88902 0.119015 -1.68083
6.88902 0.140015 -1.68083
6.87902 0.162015 -1.67783
6.87002 0.183015 -1.67583
6.88502 0.205015 -1.67983
6.88302 0.227015 -1.67983
6.90202 0.238015 -1.68483
6.88502 0.259015 -1.68083
6.88402 0.281015 -1.68083
6.88702 0.303015 -1.68183
6.89202 0.325015 -1.68283
6.88002 0.346015 -1.67983
6.89002 0.368015 -1.68283
6.88702 0.379015 -1.68283
6.87902 0.400015 -1.68083
6.88102 0.422015 -1.68183
6.87602 0.443015 -1.68083
6.86902 0.464015 -1.67883
6.88102 0.487015 -1.68283
6.87102 0.508015 -1.68083
6.86702 0.518015 -1.67983
6.86302 0.540015 -1.67883
6.87902 0.563015 -1.68383
6.87502 0.584015 -1.68283
6.86402 0.605015 -1.68083
6.87502 0.628015 -1.68383
6.87102 0.649015 -1.68383
6.86202 0.659015 -1.68183
6.86802 0.681015 -1.68383
6.85802 0.702015 -1.68183
6.86402 0.725015 -1.68383
6.85402 0.745015 -1.68183
6.86702 0.769015 -1.68583
6.84702 0.788015 -1.68083
6.86502 0.801015 -1.68583
6.84302 0.820015 -1.68083
6.86702 0.845015 -1.68783
6.86302 0.867015 -1.68783
6.85202 0.887015 -1.68583
6.84902 0.909015 -1.68583
6.85602 0.931015 -1.68783
6.83702 0.940015 -1.68383
6.84202 0.962015 -1.68583
6.83702 0.984015 -1.68483
6.82802 1.00401 -1.68383
6.83502 1.02701 -1.68583
6.83002 1.04801 -1.68583
6.81502 1.06801 -1.68283
6.82602 1.08101 -1.68583
6.84202 1.10501 -1.69083
6.82102 1.12401 -1.68683
6.82402 1.14601 -1.68783
6.81402 1.16701 -1.68683
6.81402 1.18901 -1.68783
6.81402 1.21101 -1.68883
6.81202 1.22201 -1.68883
6.80302 1.24201 -1.68683
6.80102 1.26401 -1.68783
6.78702 1.28301 -1.68483
6.80002 1.30801 -1.68983
6.80002 1.33001 -1.69083
6.79802 1.35201 -1.69083
6.78602 1.36001 -1.68883
6.78402 1.38201 -1.68883
6.78702 1.40501 -1.69083
6.78602 1.42701 -1.69183
6.79102 1.45001 -1.69483
6.79202 1.47301 -1.69583
6.77402 1.49101 -1.69283
6.77402 1.50201 -1.69283
6.77902 1.52601 -1.69583
6.77002 1.54601 -1.69483
6.77602 1.57001 -1.69783
6.77802 1.61501 -1.70083
6.69602 1.96801 -1.70383
6.69902 1.99101 -1.70583
6.68402 2.01001 -1.70383
6.66102 2.02601 -1.69883
6.65802 2.04801 -1.69983
6.64702 2.05601 -1.69783
6.64302 2.07701 -1.69883
6.62702 2.09501 -1.69583
6.61302 2.11401 -1.69383
6.59702 2.13101 -1.69183
6.59602 2.15401 -1.69283
6.59302 2.17601 -1.69383
6.49302 -2.07599 -1.66083
6.53602 -2.06699 -1.67183
6.64902 -1.76299 -1.67783
6.65602 -1.74299 -1.67783
6.66302 -1.72199 -1.67883
6.66802 -1.71199 -1.67883
6.66802 -1.68999 -1.67783
6.69002 -1.60699 -1.67783
6.69502 -1.58499 -1.67783
6.69002 -1.57299 -1.67583
6.69502 -1.55199 -1.67583
6.69902 -1.50899 -1.67483
6.72202 -1.46999 -1.67783
6.71502 -1.44599 -1.67483
6.72502 -1.43699 -1.67683
6.74102 -1.41799 -1.67983
6.72402 -1.39299 -1.67483
6.73002 -1.37199 -1.67483
6.74202 -1.35199 -1.67683
6.74602 -1.33099 -1.67683
6.74902 -1.30999 -1.67683
6.76402 -1.30199 -1.67983
6.74002 -1.27499 -1.67283
6.74702 -1.25399 -1.67383
6.76102 -1.23499 -1.67583
6.74802 -1.21099 -1.67183
6.76302 -1.19099 -1.67483
6.77402 -1.17199 -1.67683
6.75502 -1.15699 -1.67083
6.76802 -1.13799 -1.67383
6.78702 -1.11899 -1.67783
6.77302 -1.09499 -1.67283
6.79202 -1.07599 -1.67683
6.78002 -1.05199 -1.67283
6.77202 -1.02899 -1.66983
6.77702 -1.01899 -1.67083
6.79602 -0.999985 -1.67483
6.78902 -0.976985 -1.67283
6.78302 -0.954985 -1.66983
6.81402 -0.936985 -1.67783
6.80202 -0.913985 -1.67383
6.80102 -0.891985 -1.67283
6.80202 -0.880985 -1.67283
6.79502 -0.858985 -1.66983
6.81302 -0.838985 -1.67383
6.82202 -0.818985 -1.67583
6.79902 -0.793985 -1.66883
6.81002 -0.773985 -1.67083
6.82902 -0.753985 -1.67583
6.81902 -0.741985 -1.67283
6.81502 -0.719985 -1.67083
6.83102 -0.699985 -1.67483
6.82002 -0.676985 -1.67083
6.83302 -0.656985 -1.67383
6.84302 -0.635985 -1.67583
6.84102 -0.613985 -1.67483
6.84902 -0.592985 -1.67683
6.84402 -0.581985 -1.67483
6.84002 -0.559985 -1.67383
6.84002 -0.538985 -1.67283
6.85502 -0.517985 -1.67683
6.84502 -0.495985 -1.67383
6.85602 -0.474985 -1.67583
6.85102 -0.463985 -1.67483
6.85502 -0.441985 -1.67483
6.86402 -0.420985 -1.67683
6.85302 -0.398985 -1.67383
6.87602 -0.378985 -1.67983
6.85602 -0.355985 -1.67383
6.87802 -0.335985 -1.67983
6.85302 -0.322985 -1.67283
6.86802 -0.302985 -1.67683
6.86502 -0.280985 -1.67583
6.86202 -0.258985 -1.67483
6.87102 -0.237985 -1.67683
6.86502 -0.215985 -1.67483
6.87202 -0.194985 -1.67683
6.87802 -0.183985 -1.67783
6.86502 -0.161985 -1.67483
6.87702 -0.140985 -1.67783
6.88302 -0.118985 -1.67883
6.87802 -0.0979852 -1.67783
6.86802 -0.0759852 -1.67483
6.87402 -0.0539852 -1.67683
6.87602 -0.0429852 -1.67683
6.87302 -0.0219852 -1.67583
6.87302 1.47841e-05 -1.67583
6.65102 0.0390148 -1.69183
6.64302 0.363015 -1.69283
6.64302 0.425015 -1.69383
6.63902 0.540015 -1.69483
6.64102 0.562015 -1.69583
6.63802 0.656015 -1.69683
6.63002 0.697015 -1.69583
6.61602 0.854015 -1.69683
6.61302 0.885015 -1.69783
6.60902 0.906015 -1.69683
6.60602 0.969015 -1.69883
6.60302 0.990015 -1.69883
6.59002 1.00901 -1.69583
6.59002 1.02001 -1.69683
6.59302 1.04101 -1.69783
6.58702 1.06201 -1.69783
6.58602 1.08301 -1.69783
6.57402 1.14401 -1.69783
6.57902 1.15601 -1.69983
6.57002 1.17601 -1.69783
6.57202 1.19701 -1.69983
6.56802 1.21801 -1.69983
6.57202 1.24001 -1.70183
6.56402 1.26001 -1.70083
6.55102 1.28901 -1.69883
6.55802 1.31201 -1.70183
6.55202 1.33201 -1.70183
6.54402 1.35201 -1.70083
6.54002 1.37301 -1.70083
6.53302 1.41401 -1.70083
6.53402 1.42501 -1.70183
6.52002 1.44401 -1.69983
6.52902 1.46701 -1.70283
6.51902 1.48601 -1.70183
6.42902 1.93101 -1.70883
6.40002 2.02101 -1.70783
6.38002 2.03701 -1.70483
6.35702 2.05201 -1.69983
6.36402 2.07601 -1.70383
6.36002 2.08601 -1.70383
6.35402 2.10601 -1.70383
6.34202 2.12401 -1.70183
6.32802 2.14101 -1.69983
6.32502 2.16201 -1.70083
6.31402 2.18101 -1.69983
6.28902 2.19401 -1.69483
6.28902 2.20501 -1.69583
6.29002 2.22801 -1.69783
6.27502 2.24501 -1.69583
6.25402 2.28201 -1.69383
6.19702 -2.14699 -1.66683
6.22802 -2.13599 -1.67383
6.62802 -0.367985 -1.68783
6.63402 -0.315985 -1.68983
6.39402 0.0190148 -1.67883
6.39002 0.0390148 -1.67783
6.40302 0.0590148 -1.68083
6.39702 0.0790148 -1.67983
6.42402 0.0990148 -1.68683
6.39902 0.119015 -1.67983
6.40402 0.129015 -1.68183
6.41502 0.150015 -1.68483
6.41502 0.170015 -1.68483
6.39102 0.189015 -1.67883
6.39802 0.210015 -1.68083
6.39902 0.230015 -1.68083
6.39302 0.250015 -1.67983
6.39802 0.260015 -1.68083
6.40502 0.280015 -1.68383
6.40002 0.300015 -1.68283
6.39702 0.320015 -1.68183
6.39802 0.340015 -1.68283
6.41102 0.361015 -1.68583
6.39802 0.381015 -1.68283
6.40102 0.391015 -1.68383
6.39602 0.411015 -1.68283
6.39302 0.431015 -1.68283
6.39702 0.451015 -1.68383
6.39402 0.471015 -1.68383
6.39802 0.492015 -1.68483
6.40402 0.512015 -1.68683
6.39402 0.522015 -1.68483
6.39202 0.542015 -1.68483
6.39802 0.563015 -1.68683
6.38102 0.581015 -1.68283
6.39302 0.603015 -1.68583
6.38102 0.622015 -1.68383
6.38102 0.642015 -1.68383
6.38602 0.653015 -1.68583
6.39902 0.674015 -1.68983
6.38002 0.692015 -1.68483
6.37902 0.713015 -1.68583
6.38502 0.734015 -1.68783
6.37502 0.753015 -1.68583
6.37002 0.773015 -1.68483
6.37902 0.784015 -1.68783
6.36702 0.803015 -1.68483
6.37202 0.824015 -1.68683
6.37102 0.844015 -1.68783
6.37402 0.865015 -1.68983
6.36602 0.884015 -1.68783
6.35902 0.903015 -1.68683
6.36102 0.914015 -1.68783
6.35502 0.933015 -1.68683
6.35502 0.954015 -1.68783
6.34502 0.973015 -1.68583
6.34402 0.993015 -1.68583
6.34602 1.01401 -1.68783
6.32702 1.06201 -1.68483
6.32902 1.08201 -1.68583
6.32702 1.10301 -1.68683
6.32602 1.12301 -1.68683
6.31802 1.14201 -1.68583
6.32202 1.16301 -1.68883
6.31102 1.17101 -1.68583
6.31702 1.19301 -1.68883
6.31102 1.21201 -1.68783
6.30302 1.25201 -1.68783
6.29802 1.27201 -1.68683
6.29502 1.29201 -1.68783
6.29302 1.30201 -1.68783
6.29102 1.32201 -1.68883
6.29602 1.34301 -1.69083
6.27702 1.38101 -1.68783
6.27402 1.40101 -1.68883
6.28702 1.42401 -1.69283
6.26902 1.43101 -1.68883
6.27402 1.45201 -1.69183
6.26802 1.47201 -1.69083
6.27602 1.49401 -1.69483
6.26602 1.51301 -1.69283
6.27802 1.53701 -1.69783
6.26402 1.55401 -1.69583
6.26702 1.56501 -1.69683
6.26602 1.58601 -1.69783
6.29402 1.61401 -1.70783
6.27402 1.63001 -1.70383
6.27102 1.65001 -1.70383
6.28102 1.67401 -1.70783
6.21602 1.82501 -1.70283
6.21002 1.84501 -1.70283
6.18802 1.85901 -1.69783
6.18002 1.87801 -1.69683
6.16902 1.89601 -1.69583
6.15502 1.91301 -1.69283
6.14902 1.93201 -1.69283
6.00402 -2.15299 -1.67383
6.03102 -2.14099 -1.67983
6.10202 -1.98499 -1.68483
6.10702 -1.94399 -1.68283
6.11202 -1.93499 -1.68383
6.11802 -1.91599 -1.68383
6.12802 -1.89699 -1.68483
6.12802 -1.87699 -1.68283
6.13802 -1.85799 -1.68383
6.14602 -1.83999 -1.68483
6.15102 -1.81999 -1.68483
6.15602 -1.81099 -1.68483
6.15202 -1.78899 -1.68283
6.16902 -1.77299 -1.68583
6.16002 -1.74899 -1.68083
6.16502 -1.72999 -1.68083
6.18202 -1.71399 -1.68483
6.17102 -1.68999 -1.67983
6.17502 -1.68099 -1.67983
6.18202 -1.66199 -1.68083
6.18702 -1.64199 -1.68083
6.19202 -1.62299 -1.68083
6.20102 -1.60399 -1.68183
6.20302 -1.58399 -1.68083
6.21302 -1.56599 -1.68283
6.20802 -1.55399 -1.67983
6.20902 -1.53399 -1.67883
6.21602 -1.51499 -1.67983
6.22602 -1.49599 -1.68083
6.22702 -1.47599 -1.67983
6.22602 -1.45499 -1.67883
6.23602 -1.43699 -1.67983
6.23902 -1.42699 -1.67983
6.23202 -1.40499 -1.67683
6.25302 -1.38899 -1.68183
6.23902 -1.36499 -1.67683
6.23902 -1.34499 -1.67583
6.24902 -1.32599 -1.67683
6.25702 -1.30799 -1.67783
6.26302 -1.28799 -1.67883
6.25702 -1.27699 -1.67683
6.26102 -1.25699 -1.67683
6.26302 -1.23699 -1.67583
6.26502 -1.21699 -1.67583
6.27702 -1.19899 -1.67783
6.26702 -1.17699 -1.67383
6.27602 -1.16799 -1.67583
6.28402 -1.14899 -1.67683
6.28702 -1.12899 -1.67683
6.29102 -1.10999 -1.67683
6.29302 -1.08999 -1.67683
6.29802 -1.06999 -1.67683
6.30102 -1.04999 -1.67683
6.30702 -1.04099 -1.67783
6.31702 -1.02299 -1.67983
6.30702 -1.00099 -1.67683
6.31202 -0.980985 -1.67683
6.31202 -0.960985 -1.67583
6.31302 -0.939985 -1.67583
6.31602 -0.920985 -1.67583
6.31502 -0.909985 -1.67483
6.31802 -0.890985 -1.67483
6.31502 -0.869985 -1.67283
6.32002 -0.849985 -1.67383
6.33902 -0.832985 -1.67883
6.33202 -0.811985 -1.67583
6.32902 -0.790985 -1.67383
6.33202 -0.780985 -1.67483
6.33102 -0.760985 -1.67383
6.33702 -0.740985 -1.67483
6.33902 -0.721985 -1.67483
6.34202 -0.701985 -1.67483
6.33802 -0.680985 -1.67283
6.34002 -0.660985 -1.67283
6.34302 -0.650985 -1.67383
6.34502 -0.630985 -1.67383
6.36202 -0.612985 -1.67783
6.35302 -0.571985 -1.67383
6.35502 -0.551985 -1.67383
6.37402 -0.532985 -1.67883
6.35902 -0.521985 -1.67483
6.36302 -0.501985 -1.67583
6.36402 -0.481985 -1.67583
6.37502 -0.462985 -1.67783
6.36702 -0.441985 -1.67583
6.37602 -0.422985 -1.67783
6.37302 -0.402985 -1.67683
6.38002 -0.392985 -1.67783
6.37302 -0.371985 -1.67583
6.38802 -0.352985 -1.67983
6.37802 -0.331985 -1.67683
6.38402 -0.312985 -1.67783
6.37802 -0.291985 -1.67583
6.39802 -0.272985 -1.68083
6.38702 -0.262985 -1.67783
6.38702 -0.241985 -1.67783
6.39002 -0.221985 -1.67883
6.38902 -0.201985 -1.67783
6.39102 -0.181985 -1.67883
6.39402 -0.161985 -1.67883
6.38702 -0.141985 -1.67683
6.39102 -0.131985 -1.67783
6.39702 -0.111985 -1.67983
6.40102 -0.0919852 -1.68083
6.39702 -0.0719852 -1.67983
6.39402 -0.0519852 -1.67883
6.39202 -0.0319852 -1.67783
6.40502 -0.0119852 -1.68183
6.39402 -0.00198522 -1.67883
6.20902 0.0110148 -1.68783
6.19302 0.0300148 -1.68383
6.19902 0.0500148 -1.68483
6.21802 0.0700148 -1.69083
6.19502 0.0890148 -1.68383
6.20002 0.0990148 -1.68583
6.19402 0.118015 -1.68383
6.21502 0.138015 -1.68983
6.21402 0.157015 -1.68983
6.20802 0.177015 -1.68883
6.20802 0.196015 -1.68883
6.20502 0.216015 -1.68783
6.18702 0.225015 -1.68283
6.20202 0.245015 -1.68783
6.18602 0.264015 -1.68283
6.20202 0.284015 -1.68783
6.19202 0.303015 -1.68483
6.20802 0.323015 -1.68983
6.19502 0.342015 -1.68683
6.19302 0.352015 -1.68583
6.18802 0.371015 -1.68483
6.19302 0.391015 -1.68683
6.19302 0.410015 -1.68783
6.19402 0.430015 -1.68783
6.19002 0.449015 -1.68783
6.18902 0.469015 -1.68783
6.18602 0.478015 -1.68683
6.18702 0.498015 -1.68783
6.18902 0.518015 -1.68883
6.19102 0.537015 -1.68983
6.17802 0.556015 -1.68583
6.19902 0.577015 -1.69283
6.18002 0.595015 -1.68783
6.19102 0.606015 -1.69083
6.18102 0.625015 -1.68883
6.17902 0.644015 -1.68883
6.17102 0.663015 -1.68783
6.18402 0.684015 -1.69183
6.18202 0.703015 -1.69183
6.16702 0.721015 -1.68783
6.16202 0.731015 -1.68683
6.17102 0.751015 -1.68983
6.16502 0.770015 -1.68883
6.16802 0.790015 -1.69083
6.16702 0.810015 -1.69083
6.16302 0.829015 -1.69083
6.16402 0.849015 -1.69183
6.15502 0.858015 -1.68983
6.14502 0.876015 -1.68783
6.15302 0.897015 -1.69083
6.14702 0.916015 -1.68983
6.13602 0.934015 -1.68783
6.13502 0.953015 -1.68783
6.13202 0.972015 -1.68783
6.13602 0.983015 -1.68983
6.13902 1.00301 -1.69083
6.13202 1.02201 -1.68983
6.12902 1.04101 -1.68983
6.12502 1.06001 -1.68983
6.11802 1.07901 -1.68883
6.11102 1.09701 -1.68783
6.11902 1.10901 -1.69083
6.10802 1.12701 -1.68883
6.10802 1.14701 -1.68983
6.11202 1.18701 -1.69283
6.09302 1.22301 -1.68983
6.10202 1.23501 -1.69283
6.08302 1.25101 -1.68883
6.10202 1.27501 -1.69483
6.09202 1.29301 -1.69383
6.09902 1.31501 -1.69683
6.07602 1.33001 -1.69083
6.08002 1.35001 -1.69383
6.07102 1.37901 -1.69283
6.06302 1.39701 -1.69183
6.06102 1.41601 -1.69283
6.05802 1.43601 -1.69283
6.05602 1.45501 -1.69383
6.04902 1.47401 -1.69283
6.05002 1.48401 -1.69383
6.05702 1.50601 -1.69783
6.05202 1.52501 -1.69783
6.04502 1.54401 -1.69683
6.03702 1.56201 -1.69583
6.04702 1.58401 -1.69983
6.05102 1.60601 -1.70283
6.05802 1.61801 -1.70583
6.04502 1.63501 -1.70383
6.05502 1.67901 -1.70983
6.02802 1.69101 -1.70283
6.03902 1.71501 -1.70783
6.04702 1.73801 -1.71183
6.04202 1.76701 -1.71283
6.01802 1.78101 -1.70783
5.99202 1.79401 -1.70183
5.97902 1.81001 -1.69883
5.99902 1.83701 -1.70683
5.96402 1.84601 -1.69783
5.96502 1.85701 -1.69883
5.95302 1.87401 -1.69783
5.77202 -2.16999 -1.67583
5.80202 -2.15999 -1.68283
5.87702 -2.00099 -1.68783
5.89002 -1.96399 -1.68783
5.90302 -1.90599 -1.68583
5.91102 -1.89899 -1.68783
5.91902 -1.86099 -1.68683
5.95202 -1.73799 -1.68583
5.97102 -1.70299 -1.68783
5.97602 -1.68399 -1.68783
5.97502 -1.64399 -1.68483
5.97802 -1.63399 -1.68483
5.99202 -1.61799 -1.68783
5.99202 -1.59799 -1.68583
5.99902 -1.57899 -1.68583
5.99202 -1.55699 -1.68283
6.00102 -1.53999 -1.68383
6.00302 -1.52999 -1.68383
6.01702 -1.51399 -1.68683
6.00902 -1.49099 -1.68283
6.02902 -1.47599 -1.68783
6.02402 -1.45499 -1.68483
6.02802 -1.43599 -1.68483
6.03102 -1.41699 -1.68383
6.04602 -1.40999 -1.68783
6.01902 -1.38399 -1.67883
6.04202 -1.36899 -1.68383
6.04102 -1.34899 -1.68283
6.03902 -1.32899 -1.68083
6.04302 -1.30999 -1.68083
6.05902 -1.29299 -1.68383
6.04602 -1.28099 -1.67983
6.05702 -1.26299 -1.68183
6.05902 -1.24399 -1.68083
6.06102 -1.22399 -1.68083
6.05802 -1.20399 -1.67883
6.08202 -1.18899 -1.68483
6.09002 -1.16999 -1.68583
6.08202 -1.15899 -1.68283
6.07802 -1.13899 -1.68083
6.08302 -1.11999 -1.68083
6.08902 -1.10099 -1.68183
6.08702 -1.08099 -1.67983
6.08002 -1.05999 -1.67783
6.09902 -1.04399 -1.68183
6.09502 -1.03299 -1.67983
6.10402 -1.01499 -1.68183
6.10902 -0.995985 -1.68283
6.10802 -0.975985 -1.68083
6.10502 -0.955985 -1.67983
6.11602 -0.937985 -1.68183
6.10802 -0.916985 -1.67883
6.11302 -0.907985 -1.67983
6.11902 -0.888985 -1.68083
6.13002 -0.870985 -1.68283
6.11502 -0.849985 -1.67783
6.12202 -0.830985 -1.67883
6.12202 -0.810985 -1.67883
6.13102 -0.792985 -1.67983
6.12402 -0.781985 -1.67783
6.12102 -0.761985 -1.67583
6.12902 -0.743985 -1.67783
6.13502 -0.724985 -1.67883
6.13402 -0.704985 -1.67783
6.12602 -0.684985 -1.67483
6.13002 -0.665985 -1.67583
6.14902 -0.657985 -1.68083
6.13202 -0.636985 -1.67483
6.13502 -0.617985 -1.67583
6.14502 -0.598985 -1.67783
6.15102 -0.579985 -1.67883
6.15402 -0.560985 -1.67983
6.16402 -0.541985 -1.68183
6.15502 -0.531985 -1.67883
6.16002 -0.512985 -1.67983
6.15202 -0.492985 -1.67783
6.16202 -0.473985 -1.67983
6.16302 -0.454985 -1.67983
6.16602 -0.434985 -1.67983
6.16202 -0.415985 -1.67883
6.17002 -0.406985 -1.68083
6.17202 -0.386985 -1.68083
6.17902 -0.367985 -1.68283
6.16202 -0.347985 -1.67783
6.17702 -0.328985 -1.68083
6.17002 -0.308985 -1.67883
6.17302 -0.289985 -1.67983
6.17502 -0.279985 -1.67983
6.17602 -0.260985 -1.67983
6.16902 -0.240985 -1.67783
6.18202 -0.221985 -1.68083
6.17502 -0.202985 -1.67883
6.18502 -0.183985 -1.68183
6.17602 -0.163985 -1.67883
6.17602 -0.153985 -1.67883
6.18802 -0.134985 -1.68283
6.19202 -0.115985 -1.68383
6.18502 -0.0959852 -1.68083
6.19302 -0.0769852 -1.68383
6.19902 -0.0569852 -1.68483
6.19102 -0.0379852 -1.68283
6.19502 -0.0279852 -1.68383
6.20102 -0.00898522 -1.68583
6.04802 0.00401478 -1.68483
6.04602 0.0230148 -1.68383
6.05002 0.0320148 -1.68583
6.05402 0.0510148 -1.68683
6.04702 0.0890148 -1.68483
6.03902 0.108015 -1.68283
6.05202 0.127015 -1.68683
6.04002 0.146015 -1.68283
6.03602 0.156015 -1.68183
6.04202 0.175015 -1.68383
6.03702 0.194015 -1.68283
6.04202 0.213015 -1.68383
6.04502 0.232015 -1.68583
6.04302 0.251015 -1.68483
6.03602 0.269015 -1.68283
6.04302 0.298015 -1.68583
6.04902 0.318015 -1.68783
6.04102 0.336015 -1.68583
6.03402 0.355015 -1.68383
6.03302 0.374015 -1.68383
6.03902 0.393015 -1.68583
6.03702 0.422015 -1.68583
6.04702 0.441015 -1.68983
6.02702 0.459015 -1.68383
6.04602 0.480015 -1.68983
6.03102 0.498015 -1.68583
6.03202 0.517015 -1.68683
6.03502 0.546015 -1.68783
6.02702 0.564015 -1.68683
6.02802 0.602015 -1.68783
6.02602 0.621015 -1.68783
6.02402 0.640015 -1.68783
6.02102 0.649015 -1.68683
6.02302 0.669015 -1.68783
6.01802 0.687015 -1.68783
6.01602 0.706015 -1.68783
6.02202 0.726015 -1.68983
6.01202 0.744015 -1.68783
6.00902 0.792015 -1.68883
5.99702 0.828015 -1.68683
6.00002 0.848015 -1.68783
5.99502 0.867015 -1.68783
5.99702 0.896015 -1.68983
5.98802 0.952015 -1.68983
5.97702 1.01801 -1.68983
5.96902 1.05501 -1.68883
5.97302 1.07501 -1.69083
5.95502 1.17901 -1.69183
5.93802 1.26301 -1.69183
5.93002 1.30001 -1.69183
5.92802 1.31901 -1.69183
5.89902 1.45901 -1.69383
5.88302 1.52401 -1.69383
5.89102 1.54601 -1.69783
5.89002 1.56501 -1.69883
5.88602 1.58401 -1.69883
5.87402 1.60101 -1.69683
5.89502 1.62601 -1.70483
5.89602 1.63701 -1.70583
5.89102 1.65501 -1.70583
5.87802 1.67101 -1.70383
5.89102 1.69501 -1.70983
5.87502 1.71001 -1.70583
5.87902 1.73201 -1.70883
5.86602 1.74801 -1.70683
5.85002 1.75301 -1.70283
5.82502 1.78601 -1.69783
5.59102 -2.20899 -1.67383
5.62302 -2.20199 -1.68183
5.62602 -2.18299 -1.68083
5.64502 -2.16999 -1.68483
5.64302 -2.14899 -1.68183
5.65202 -2.14199 -1.68383
5.72102 -2.01499 -1.68983
5.72002 -1.99499 -1.68783
5.73002 -1.95799 -1.68683
5.75802 -1.90699 -1.68983
5.74402 -1.89199 -1.68483
5.76502 -1.87899 -1.68983
5.76902 -1.85999 -1.68883
5.76202 -1.83799 -1.68483
5.77902 -1.82399 -1.68783
5.78202 -1.80499 -1.68783
5.78502 -1.79599 -1.68783
5.79802 -1.77999 -1.68983
5.80402 -1.76199 -1.68983
5.80702 -1.74299 -1.68983
5.80002 -1.72099 -1.68583
5.80502 -1.70299 -1.68583
5.82002 -1.68699 -1.68783
5.81302 -1.67499 -1.68583
5.82002 -1.65699 -1.68583
5.82602 -1.63899 -1.68583
5.83402 -1.62199 -1.68683
5.84302 -1.60499 -1.68783
5.83302 -1.58199 -1.68383
5.84402 -1.56499 -1.68583
5.85002 -1.55699 -1.68683
5.86502 -1.52199 -1.68783
5.86802 -1.50299 -1.68783
5.87102 -1.48399 -1.68683
5.87902 -1.46599 -1.68783
5.88402 -1.44799 -1.68783
5.87102 -1.43499 -1.68383
5.88002 -1.41699 -1.68483
5.88202 -1.39899 -1.68383
5.90002 -1.38299 -1.68783
5.89502 -1.36199 -1.68583
5.90602 -1.34599 -1.68783
5.90102 -1.32499 -1.68483
5.89402 -1.31399 -1.68183
5.90002 -1.29499 -1.68283
5.91302 -1.27899 -1.68583
5.89802 -1.25599 -1.67983
5.91002 -1.23899 -1.68183
5.91702 -1.22199 -1.68283
5.92702 -1.20399 -1.68483
5.91902 -1.19299 -1.68183
5.94402 -1.17899 -1.68783
5.93102 -1.15599 -1.68283
5.92302 -1.13599 -1.67983
5.94502 -1.12099 -1.68583
5.94102 -1.10099 -1.68283
5.94102 -1.08099 -1.68183
5.93502 -1.06999 -1.67983
5.94402 -1.05299 -1.68183
5.93802 -1.03199 -1.67883
5.95602 -1.01599 -1.68283
5.95002 -0.995985 -1.67983
5.94502 -0.975985 -1.67783
5.95802 -0.958985 -1.68083
5.95902 -0.949985 -1.68083
5.96802 -0.931985 -1.68283
5.96502 -0.911985 -1.68083
5.96602 -0.892985 -1.67983
5.97302 -0.874985 -1.68183
5.96802 -0.854985 -1.67883
5.97802 -0.836985 -1.68183
5.98102 -0.827985 -1.68183
5.97802 -0.808985 -1.67983
5.98302 -0.789985 -1.68083
5.98902 -0.771985 -1.68183
5.98202 -0.751985 -1.67883
5.99702 -0.734985 -1.68283
6.00002 -0.715985 -1.68283
5.99102 -0.704985 -1.67983
6.00302 -0.687985 -1.68283
5.99602 -0.667985 -1.67983
6.00302 -0.648985 -1.68183
5.99402 -0.628985 -1.67883
6.00702 -0.611985 -1.68183
6.00402 -0.591985 -1.67983
6.00602 -0.582985 -1.68083
5.99902 -0.562985 -1.67783
6.01802 -0.545985 -1.68283
6.00802 -0.525985 -1.67983
6.01302 -0.506985 -1.68083
6.01502 -0.488985 -1.68083
6.02602 -0.469985 -1.68383
6.01902 -0.459985 -1.68183
6.02002 -0.440985 -1.68183
6.00802 -0.421985 -1.67783
6.03102 -0.403985 -1.68383
6.02202 -0.384985 -1.68083
6.02502 -0.365985 -1.68183
6.02302 -0.346985 -1.67983
6.02902 -0.336985 -1.68183
6.03002 -0.280985 -1.68183
6.02702 -0.260985 -1.67983
6.03002 -0.242985 -1.68083
6.03402 -0.223985 -1.68183
6.02902 -0.213985 -1.67983
6.03902 -0.195985 -1.68283
6.03602 -0.175985 -1.68183
6.04802 -0.157985 -1.68583
6.03302 -0.137985 -1.68083
6.06002 -0.119985 -1.68883
6.03902 -0.100985 -1.68283
6.05102 -0.0909852 -1.68583
6.04202 -0.0719852 -1.68283
6.03802 -0.0529852 -1.68183
6.03802 -0.0339852 -1.68183
6.04402 -0.0149852 -1.68383
5.86702 0.00501478 -1.70183
5.84902 0.0230148 -1.69683
5.85302 0.0320148 -1.69783
5.85102 0.0500148 -1.69683
5.84902 0.0690148 -1.69683
5.86002 0.0870148 -1.69983
5.86902 0.106015 -1.70283
5.85802 0.124015 -1.69983
5.86302 0.143015 -1.70183
5.84402 0.151015 -1.69583
5.86202 0.170015 -1.70183
5.84802 0.188015 -1.69683
5.86502 0.207015 -1.70283
5.85802 0.225015 -1.70083
5.84602 0.243015 -1.69683
5.84302 0.271015 -1.69683
5.85402 0.290015 -1.69983
5.85702 0.308015 -1.70183
5.85402 0.327015 -1.70083
5.85102 0.345015 -1.69983
5.85102 0.363015 -1.70083
5.85202 0.382015 -1.70183
5.83802 0.390015 -1.69683
5.85202 0.410015 -1.70183
5.84702 0.428015 -1.70083
5.84602 0.446015 -1.70083
5.85002 0.465015 -1.70283
5.84302 0.483015 -1.70083
5.83402 0.501015 -1.69883
5.83502 0.510015 -1.69883
5.83302 0.528015 -1.69883
5.84502 0.548015 -1.70283
5.83202 0.565015 -1.69983
5.84702 0.585015 -1.70483
5.83602 0.602015 -1.70183
5.83702 0.621015 -1.70283
5.83102 0.630015 -1.70183
5.83402 0.649015 -1.70283
5.84002 0.668015 -1.70583
5.83402 0.686015 -1.70483
5.82202 0.703015 -1.70183
5.83502 0.723015 -1.70583
5.82202 0.740015 -1.70283
5.82202 0.749015 -1.70283
5.81802 0.767015 -1.70283
5.81402 0.785015 -1.70183
5.81102 0.804015 -1.70183
5.81102 0.822015 -1.70283
5.81002 0.841015 -1.70283
5.80502 0.859015 -1.70283
5.80402 0.868015 -1.70283
5.80102 0.886015 -1.70283
5.79702 0.904015 -1.70183
5.79902 0.923015 -1.70383
5.79102 0.940015 -1.70183
5.78802 0.959015 -1.70183
5.78302 0.976015 -1.70183
5.78102 0.986015 -1.70183
5.77202 1.00301 -1.69983
5.78402 1.02401 -1.70483
5.78102 1.04201 -1.70483
5.76302 1.05701 -1.69983
5.76702 1.07701 -1.70183
5.77102 1.09601 -1.70483
5.75802 1.10301 -1.70083
5.77702 1.12601 -1.70783
5.75102 1.13901 -1.70083
5.75902 1.16001 -1.70483
5.75902 1.17801 -1.70583
5.74602 1.19501 -1.70283
5.74002 1.21201 -1.70183
5.74202 1.22201 -1.70283
5.74002 1.24001 -1.70383
5.73202 1.25801 -1.70283
5.72802 1.27601 -1.70283
5.72202 1.29301 -1.70183
5.71602 1.31101 -1.70183
5.71602 1.33001 -1.70283
5.71402 1.33901 -1.70283
5.71002 1.35601 -1.70283
5.71802 1.37801 -1.70683
5.70602 1.39401 -1.70483
5.70002 1.41101 -1.70383
5.70102 1.43001 -1.70583
5.69102 1.44701 -1.70383
5.69602 1.45801 -1.70583
5.70102 1.47801 -1.70883
5.70602 1.49901 -1.71183
5.67902 1.51001 -1.70483
5.67602 1.54801 -1.70783
5.67702 1.56701 -1.70883
5.68202 1.57801 -1.71183
5.67302 1.59501 -1.71083
5.67602 1.63501 -1.71483
5.66002 1.66901 -1.71283
5.63802 1.74901 -1.71283
5.63002 1.76601 -1.71283
5.61002 1.77901 -1.70783
5.61002 1.79901 -1.70983
5.59102 1.80201 -1.70483
5.60302 1.82601 -1.71083
5.57602 1.85501 -1.70483
5.56202 1.89001 -1.70483
5.55102 1.91501 -1.70383
5.31402 -2.26499 -1.67383
5.37202 -2.26999 -1.69183
5.73002 -1.13499 -1.69483
5.76102 -0.981985 -1.69483
5.76702 -0.945985 -1.69483
5.77102 -0.927985 -1.69583
5.77202 -0.899985 -1.69483
5.78302 -0.827985 -1.69483
5.78702 -0.809985 -1.69483
5.79402 -0.801985 -1.69683
5.78902 -0.781985 -1.69483
5.79202 -0.745985 -1.69383
5.80402 -0.691985 -1.69583
5.80402 -0.645985 -1.69383
5.80802 -0.608985 -1.69383
5.81902 -0.591985 -1.69683
5.81502 -0.572985 -1.69483
5.81402 -0.526985 -1.69283
5.81202 -0.489985 -1.69183
5.82802 -0.472985 -1.69583
5.83002 -0.453985 -1.69583
5.83402 -0.444985 -1.69683
5.81102 -0.424985 -1.68983
5.82702 -0.407985 -1.69483
5.82502 -0.389985 -1.69283
5.82802 -0.370985 -1.69383
5.82402 -0.334985 -1.69183
5.83302 -0.316985 -1.69483
5.83602 -0.307985 -1.69483
5.84202 -0.288985 -1.69683
5.83002 -0.270985 -1.69283
5.84402 -0.252985 -1.69683
5.83102 -0.233985 -1.69283
5.84002 -0.215985 -1.69483
5.83202 -0.205985 -1.69283
5.85002 -0.188985 -1.69783
5.83702 -0.169985 -1.69383
5.84902 -0.151985 -1.69683
5.85402 -0.132985 -1.69883
5.85602 -0.0969852 -1.69883
5.85802 -0.0879852 -1.69983
5.84302 -0.0689852 -1.69483
5.85102 -0.0509852 -1.69683
5.85502 -0.0319852 -1.69883
5.84002 -0.0139852 -1.69383
5.65702 0.682015 -1.70983
5.58702 1.17901 -1.71383
5.58102 1.21401 -1.71383
5.57502 1.23201 -1.71383
5.57102 1.25801 -1.71383
5.56702 1.27601 -1.71383
5.55702 1.31001 -1.71383
5.55702 1.32901 -1.71483
5.55302 1.35501 -1.71483
5.53502 1.38801 -1.71183
5.53702 1.42501 -1.71583
5.53202 1.44301 -1.71583
5.53202 1.46101 -1.71683
5.52402 1.46801 -1.71483
5.45202 1.74701 -1.71783
5.44502 1.78201 -1.71983
5.42602 1.79501 -1.71483
5.42202 1.80301 -1.71483
5.42102 1.82201 -1.71683
5.40102 1.83401 -1.71183
5.39202 1.85001 -1.71083
5.39502 1.87001 -1.71383
5.38502 1.88601 -1.71183
5.37402 1.90101 -1.71083
5.36802 1.90801 -1.70883
5.35302 1.92101 -1.70583
5.35502 1.94101 -1.70883
5.36002 1.96201 -1.71283
5.34102 1.97401 -1.70883
5.32602 1.98801 -1.70583
5.32702 2.00701 -1.70783
5.32402 2.01601 -1.70783
5.31602 2.05101 -1.70983
5.29902 2.06401 -1.70583
5.30202 2.08401 -1.70883
5.29302 2.10001 -1.70883
5.28702 2.11601 -1.70883
5.27502 2.12101 -1.70583
5.27302 2.14001 -1.70783
5.25302 2.18901 -1.70783
5.09602 -2.32499 -1.67883
5.12202 -2.31799 -1.68583
5.15202 -2.31199 -1.69283
5.46402 0.0100148 -1.69783
5.47902 0.0280148 -1.70283
5.46902 0.0450148 -1.69983
5.46902 0.0530148 -1.69983
5.46502 0.0700148 -1.69783
5.46302 0.0880148 -1.69783
5.47202 0.105015 -1.70083
5.47802 0.122015 -1.70283
5.47502 0.139015 -1.70183
5.47502 0.157015 -1.70183
5.47802 0.165015 -1.70283
5.45502 0.182015 -1.69583
5.46202 0.199015 -1.69783
5.47702 0.217015 -1.70283
5.46102 0.233015 -1.69783
5.45602 0.250015 -1.69683
5.47202 0.268015 -1.70283
5.45702 0.276015 -1.69783
5.46702 0.294015 -1.70183
5.46302 0.311015 -1.69983
5.47302 0.329015 -1.70383
5.47002 0.346015 -1.70283
5.47602 0.364015 -1.70583
5.45802 0.380015 -1.69983
5.47102 0.389015 -1.70483
5.46602 0.406015 -1.70283
5.46502 0.423015 -1.70283
5.45002 0.439015 -1.69883
5.46602 0.458015 -1.70483
5.45802 0.475015 -1.70283
5.47002 0.493015 -1.70683
5.46702 0.501015 -1.70683
5.46202 0.518015 -1.70483
5.46402 0.536015 -1.70683
5.46302 0.553015 -1.70683
5.44402 0.568015 -1.70083
5.44402 0.585015 -1.70183
5.46102 0.605015 -1.70783
5.44102 0.611015 -1.70183
5.44702 0.629015 -1.70383
5.45202 0.647015 -1.70683
5.43502 0.662015 -1.70183
5.44602 0.681015 -1.70583
5.44402 0.698015 -1.70583
5.43402 0.714015 -1.70283
5.43702 0.723015 -1.70483
5.43302 0.740015 -1.70383
5.43002 0.757015 -1.70383
5.43402 0.775015 -1.70583
5.42902 0.792015 -1.70483
5.41202 0.807015 -1.69983
5.41702 0.825015 -1.70283
5.41902 0.834015 -1.70383
5.42602 0.853015 -1.70683
5.41602 0.868015 -1.70483
5.40902 0.885015 -1.70283
5.41202 0.903015 -1.70483
5.40502 0.919015 -1.70383
5.39502 0.935015 -1.70183
5.38402 0.941015 -1.69783
5.39802 0.961015 -1.70383
5.41202 0.981015 -1.70983
5.39502 0.996015 -1.70483
5.39602 1.01401 -1.70683
5.38502 1.02901 -1.70383
5.38602 1.04701 -1.70483
5.38602 1.05601 -1.70583
5.39802 1.07601 -1.71083
5.38302 1.09001 -1.70683
5.35502 1.10201 -1.69883
5.37602 1.12401 -1.70683
5.36902 1.14001 -1.70583
5.35402 1.15501 -1.70183
5.36902 1.16701 -1.70783
5.36202 1.18301 -1.70683
5.36102 1.20001 -1.70783
5.35602 1.21701 -1.70683
5.34302 1.23101 -1.70383
5.34602 1.25001 -1.70683
5.34602 1.26801 -1.70783
5.34402 1.27601 -1.70783
5.32202 1.28801 -1.70183
5.32702 1.30701 -1.70483
5.32102 1.32401 -1.70383
5.31702 1.34001 -1.70383
5.32302 1.36001 -1.70783
5.30102 1.37201 -1.70183
5.30402 1.38101 -1.70283
5.31402 1.40201 -1.70883
5.29902 1.41601 -1.70483
5.29602 1.43301 -1.70483
5.29402 1.45001 -1.70583
5.28302 1.46501 -1.70383
5.28102 1.48201 -1.70483
5.28702 1.49301 -1.70783
5.28802 1.51101 -1.70983
5.28702 1.52901 -1.71083
5.28802 1.54701 -1.71283
5.27702 1.56201 -1.71083
5.28502 1.58301 -1.71483
5.28902 1.60201 -1.71883
5.27602 1.60701 -1.71483
5.28902 1.62901 -1.72083
5.27102 1.64201 -1.71683
5.25902 1.65601 -1.71383
5.25302 1.67301 -1.71383
5.22602 1.68201 -1.70683
4.89402 -2.32999 -1.68283
4.91502 -2.32099 -1.68783
5.14702 -1.83299 -1.69783
5.20902 -1.65499 -1.69783
5.21602 -1.63899 -1.69883
5.24602 -1.51299 -1.69683
5.27202 -1.45799 -1.69983
5.28202 -1.42499 -1.69983
5.27802 -1.40599 -1.69683
5.29402 -1.38399 -1.69983
5.29402 -1.36599 -1.69883
5.30202 -1.35099 -1.69983
5.29502 -1.33099 -1.69683
5.30102 -1.31499 -1.69683
5.31902 -1.28399 -1.69983
5.31502 -1.27399 -1.69783
5.31902 -1.25799 -1.69783
5.31902 -1.23999 -1.69683
5.32702 -1.22399 -1.69783
5.33602 -1.20899 -1.69983
5.32702 -1.18899 -1.69583
5.33402 -1.17299 -1.69683
5.33802 -1.14799 -1.69683
5.33802 -1.12999 -1.69483
5.35602 -1.11599 -1.69983
5.34502 -1.09599 -1.69483
5.34702 -1.07899 -1.69483
5.35502 -1.06399 -1.69683
5.35302 -1.05399 -1.69483
5.35302 -1.03699 -1.69383
5.37702 -1.02399 -1.70083
5.36902 -1.00499 -1.69683
5.37702 -0.988985 -1.69883
5.38102 -0.971985 -1.69883
5.36902 -0.952985 -1.69383
5.37002 -0.934985 -1.69283
5.37702 -0.927985 -1.69483
5.37002 -0.909985 -1.69183
5.38402 -0.893985 -1.69583
5.38502 -0.876985 -1.69483
5.38202 -0.858985 -1.69283
5.39402 -0.843985 -1.69683
5.39002 -0.834985 -1.69483
5.39102 -0.816985 -1.69383
5.39102 -0.799985 -1.69283
5.41102 -0.785985 -1.69883
5.39802 -0.766985 -1.69383
5.39902 -0.748985 -1.69283
5.41202 -0.733985 -1.69683
5.40602 -0.723985 -1.69483
5.40802 -0.706985 -1.69483
5.41202 -0.690985 -1.69483
5.42402 -0.674985 -1.69783
5.42202 -0.656985 -1.69683
5.42202 -0.639985 -1.69683
5.39802 -0.619985 -1.68783
5.42302 -0.613985 -1.69583
5.41802 -0.595985 -1.69283
5.41402 -0.578985 -1.69183
5.42002 -0.561985 -1.69283
5.42502 -0.545985 -1.69383
5.41502 -0.526985 -1.68983
5.43802 -0.511985 -1.69683
5.43502 -0.502985 -1.69583
5.43502 -0.485985 -1.69483
5.42502 -0.467985 -1.69183
5.43902 -0.451985 -1.69583
5.43902 -0.434985 -1.69483
5.43802 -0.417985 -1.69483
5.45902 -0.401985 -1.70083
5.44202 -0.391985 -1.69483
5.44302 -0.374985 -1.69483
5.44102 -0.357985 -1.69383
5.44902 -0.340985 -1.69683
5.43502 -0.322985 -1.69183
5.45302 -0.306985 -1.69683
5.45002 -0.289985 -1.69583
5.45702 -0.280985 -1.69783
5.45702 -0.263985 -1.69783
5.45602 -0.246985 -1.69683
5.45502 -0.229985 -1.69683
5.45402 -0.212985 -1.69583
5.45502 -0.194985 -1.69583
5.47002 -0.178985 -1.70083
5.46702 -0.169985 -1.69983
5.45802 -0.152985 -1.69683
5.46602 -0.135985 -1.69883
5.47002 -0.118985 -1.69983
5.46302 -0.100985 -1.69783
5.45202 -0.0839852 -1.69383
5.46202 -0.0669852 -1.69683
5.46002 -0.0579852 -1.69683
5.46402 -0.0409852 -1.69783
5.46802 -0.0239852 -1.69883
5.47102 -0.00698522 -1.69983
5.31902 0.0140148 -1.69883
5.31902 0.0470148 -1.69883
5.32102 0.0640148 -1.69983
5.34702 0.0810148 -1.70883
5.33202 0.0980148 -1.70383
5.34302 0.106015 -1.70783
5.30702 0.122015 -1.69483
5.34002 0.140015 -1.70683
5.34902 0.157015 -1.70983
5.31802 0.173015 -1.69983
5.34302 0.190015 -1.70783
5.31702 0.206015 -1.69983
5.31902 0.215015 -1.69983
5.29902 0.230015 -1.69383
5.31202 0.248015 -1.69883
5.30902 0.264015 -1.69783
5.31202 0.281015 -1.69883
5.30902 0.298015 -1.69883
5.31002 0.315015 -1.69883
5.30002 0.322015 -1.69583
5.31602 0.340015 -1.70183
5.31902 0.357015 -1.70283
5.32002 0.374015 -1.70383
5.31102 0.390015 -1.70083
5.30202 0.406015 -1.69883
5.30402 0.423015 -1.69983
5.30002 0.431015 -1.69883
5.31002 0.449015 -1.70183
5.30902 0.465015 -1.70183
5.29902 0.481015 -1.69983
5.29602 0.498015 -1.69883
5.30602 0.515015 -1.70283
5.30002 0.532015 -1.70183
5.29402 0.540015 -1.69983
5.29602 0.557015 -1.70083
5.30002 0.574015 -1.70283
5.31902 0.593015 -1.70983
5.31102 0.609015 -1.70783
5.29402 0.624015 -1.70283
5.29602 0.641015 -1.70383
5.27602 0.647015 -1.69783
5.29702 0.666015 -1.70583
5.28902 0.682015 -1.70383
5.26602 0.696015 -1.69683
5.27902 0.715015 -1.70183
5.27702 0.731015 -1.70183
5.27402 0.748015 -1.70183
5.27902 0.757015 -1.70383
5.26502 0.772015 -1.69983
5.27202 0.790015 -1.70283
5.26802 0.806015 -1.70183
5.26102 0.822015 -1.70083
5.26402 0.839015 -1.70283
5.24902 0.854015 -1.69883
5.25502 0.863015 -1.70083
5.26102 0.881015 -1.70383
5.27002 0.900015 -1.70783
5.25402 0.914015 -1.70383
5.24502 0.930015 -1.70183
5.23602 0.962015 -1.69983
5.23602 0.970015 -1.70083
5.23702 0.987015 -1.70183
5.23702 1.00501 -1.70383
5.22502 1.01901 -1.69983
5.23302 1.03801 -1.70383
5.24002 1.05701 -1.70783
5.21502 1.06901 -1.69983
5.21902 1.07801 -1.70183
5.21902 1.09501 -1.70383
5.21402 1.11101 -1.70283
5.20102 1.12501 -1.69983
5.20502 1.14301 -1.70183
5.19902 1.15901 -1.70183
5.19602 1.17601 -1.70183
5.20302 1.18601 -1.70483
5.19002 1.20001 -1.70183
5.18602 1.21601 -1.70183
5.18102 1.23201 -1.70083
5.17802 1.26601 -1.70283
5.17102 1.28101 -1.70183
5.16402 1.32301 -1.70283
5.14702 1.38801 -1.70283
5.14202 1.41201 -1.70383
5.14002 1.42901 -1.70383
5.13102 1.44401 -1.70283
5.13802 1.46301 -1.70683
5.13002 1.49601 -1.70783
5.11902 1.50201 -1.70383
5.11402 1.51801 -1.70383
5.11702 1.53601 -1.70683
5.13002 1.55701 -1.71283
5.13902 1.57801 -1.71883
5.13802 1.59501 -1.71983
5.13702 1.61201 -1.72083
5.10302 1.61101 -1.70983
5.10002 1.62701 -1.71083
5.09502 1.64301 -1.71083
5.07902 1.65601 -1.70683
4.69302 -2.38499 -1.68083
4.70902 -2.37399 -1.68383
4.74402 -2.37299 -1.69383
4.76602 -2.36599 -1.69983
4.94502 -1.96999 -1.69983
4.95102 -1.95399 -1.69983
4.97702 -1.88399 -1.69983
4.98402 -1.86899 -1.69983
5.04002 -1.71999 -1.70083
5.04102 -1.71099 -1.69983
5.04402 -1.67699 -1.69783
5.04802 -1.66099 -1.69683
5.05102 -1.64399 -1.69683
5.06002 -1.62899 -1.69783
5.07402 -1.61599 -1.70083
5.06402 -1.60399 -1.69683
5.08102 -1.57499 -1.69883
5.08802 -1.55899 -1.69983
5.09602 -1.52699 -1.69883
5.10102 -1.46799 -1.69483
5.12202 -1.45599 -1.70083
5.12302 -1.43899 -1.69983
5.12202 -1.42099 -1.69783
5.12602 -1.40499 -1.69783
5.13102 -1.39799 -1.69883
5.14602 -1.36799 -1.70083
5.13402 -1.34699 -1.69483
5.13702 -1.31299 -1.69283
5.15202 -1.29999 -1.69683
5.14502 -1.28899 -1.69383
5.14902 -1.27299 -1.69383
5.15702 -1.24099 -1.69383
5.16802 -1.22599 -1.69683
5.16302 -1.19099 -1.69183
5.19602 -1.17299 -1.70183
5.16902 -1.14999 -1.69083
5.18102 -1.08399 -1.68983
5.19502 -1.07899 -1.69483
5.22402 -1.05099 -1.70183
5.20502 -1.02999 -1.69483
5.20102 -1.01199 -1.69183
5.19302 -0.992985 -1.68783
5.20902 -0.970985 -1.69183
5.21602 -0.954985 -1.69283
5.21802 -0.921985 -1.69183
5.25402 -0.910985 -1.70383
5.25002 -0.893985 -1.70083
5.22202 -0.871985 -1.69083
5.23302 -0.864985 -1.69383
5.26602 -0.853985 -1.70383
5.25302 -0.834985 -1.69883
5.25802 -0.818985 -1.69983
5.23802 -0.798985 -1.69183
5.23902 -0.781985 -1.69083
5.24702 -0.765985 -1.69283
5.28002 -0.762985 -1.70383
5.24702 -0.740985 -1.69183
5.24702 -0.723985 -1.69083
5.28902 -0.695985 -1.70383
5.28002 -0.677985 -1.69983
5.28602 -0.661985 -1.70183
5.26002 -0.649985 -1.69283
5.27902 -0.635985 -1.69883
5.28502 -0.619985 -1.69983
5.29102 -0.603985 -1.70083
5.30202 -0.587985 -1.70383
5.29402 -0.570985 -1.70083
5.30702 -0.554985 -1.70483
5.27302 -0.542985 -1.69283
5.30602 -0.529985 -1.70383
5.27202 -0.508985 -1.69083
5.31002 -0.495985 -1.70383
5.26802 -0.475985 -1.68883
5.31102 -0.462985 -1.70283
5.28402 -0.443985 -1.69283
5.31502 -0.437985 -1.70383
5.32202 -0.421985 -1.70583
5.32102 -0.404985 -1.70483
5.32002 -0.387985 -1.70383
5.29102 -0.368985 -1.69383
5.31702 -0.353985 -1.70183
5.33102 -0.337985 -1.70683
5.29402 -0.326985 -1.69383
5.32302 -0.312985 -1.70383
5.30602 -0.294985 -1.69683
5.32102 -0.261985 -1.70183
5.28702 -0.243985 -1.68983
5.33202 -0.228985 -1.70483
5.30702 -0.219985 -1.69683
5.30602 -0.202985 -1.69583
5.29502 -0.185985 -1.69183
5.30702 -0.169985 -1.69583
5.30602 -0.152985 -1.69483
5.31802 -0.135985 -1.69883
5.31402 -0.119985 -1.69783
5.32002 -0.110985 -1.69983
5.30502 -0.0939852 -1.69483
5.32102 -0.0779852 -1.69983
5.31702 -0.0609852 -1.69883
5.30602 -0.0439852 -1.69483
5.30802 -0.0279852 -1.69483
5.33502 -0.0109852 -1.70383
5.30802 -0.00298522 -1.69483
5.17902 0.0130148 -1.70483
5.18702 0.0290148 -1.70683
5.17902 0.0460148 -1.70483
5.18802 0.0620148 -1.70783
5.18202 0.0700148 -1.70583
5.18802 0.0860148 -1.70783
5.19502 0.103015 -1.71083
5.18302 0.119015 -1.70683
5.17902 0.135015 -1.70483
5.19602 0.152015 -1.71083
5.17502 0.167015 -1.70383
5.18202 0.176015 -1.70683
5.19102 0.193015 -1.70983
5.18402 0.209015 -1.70783
5.18902 0.225015 -1.70983
5.18302 0.241015 -1.70783
5.18002 0.257015 -1.70683
5.17602 0.273015 -1.70583
5.18302 0.282015 -1.70883
5.18402 0.298015 -1.70883
5.19402 0.315015 -1.71283
5.17602 0.331015 -1.70683
5.18602 0.348015 -1.71083
5.18002 0.364015 -1.70883
5.16202 0.378015 -1.70283
5.16502 0.387015 -1.70483
5.15602 0.402015 -1.70183
5.16802 0.420015 -1.70683
5.18202 0.437015 -1.71183
5.16702 0.452015 -1.70683
5.17302 0.469015 -1.70983
5.18702 0.487015 -1.71483
5.17302 0.494015 -1.71083
5.16402 0.509015 -1.70783
5.16802 0.526015 -1.70983
5.16802 0.543015 -1.71083
5.15302 0.557015 -1.70583
5.17702 0.577015 -1.71483
5.16402 0.592015 -1.71083
5.15002 0.598015 -1.70683
5.16502 0.616015 -1.71283
5.16702 0.633015 -1.71383
5.15402 0.648015 -1.70983
5.13102 0.661015 -1.70283
5.15502 0.681015 -1.71183
5.15502 0.697015 -1.71283
5.14302 0.704015 -1.70883
5.13702 0.720015 -1.70683
5.13802 0.736015 -1.70883
5.13402 0.752015 -1.70783
5.12602 0.767015 -1.70583
5.12502 0.784015 -1.70683
5.12802 0.801015 -1.70883
5.13302 0.810015 -1.71083
5.11902 0.824015 -1.70683
5.12402 0.841015 -1.70883
5.12902 0.859015 -1.71183
5.13002 0.875015 -1.71283
5.12502 0.891015 -1.71283
5.11302 0.906015 -1.70883
5.11002 0.913015 -1.70883
5.10702 0.929015 -1.70883
5.09402 0.944015 -1.70483
5.09902 0.961015 -1.70783
5.09602 0.977015 -1.70783
5.10202 0.995015 -1.71083
5.10402 1.01201 -1.71283
5.09302 1.01801 -1.70983
5.09402 1.03501 -1.71083
5.07602 1.04801 -1.70583
5.07602 1.06501 -1.70683
5.06902 1.08001 -1.70583
5.07102 1.09701 -1.70783
5.06602 1.11201 -1.70683
5.05502 1.11801 -1.70383
5.06302 1.13701 -1.70783
5.06302 1.15301 -1.70883
5.06502 1.17101 -1.71083
5.05902 1.18601 -1.71083
5.04102 1.19801 -1.70483
5.05302 1.21801 -1.71083
5.06402 1.22901 -1.71583
5.02202 1.25201 -1.70283
5.03602 1.27301 -1.70983
5.01902 1.28501 -1.70483
5.01702 1.30201 -1.70583
5.02602 1.32101 -1.71083
5.01102 1.32501 -1.70583
5.01502 1.36001 -1.71083
4.99402 1.38801 -1.70583
4.98902 1.40401 -1.70583
4.99202 1.42101 -1.70883
4.97902 1.42601 -1.70483
4.99102 1.44701 -1.71083
4.97302 1.45801 -1.70583
4.97002 1.49101 -1.70783
4.97802 1.51101 -1.71283
4.97502 1.52701 -1.71283
4.97902 1.53701 -1.71583
4.96702 1.55001 -1.71283
4.96102 1.56601 -1.71283
