7.86774 2.00503 -1.69414
7.86874 2.03103 -1.69614
7.81274 2.28103 -1.69814
7.78874 2.32703 -1.69614
7.76774 2.34703 -1.69314
7.77574 2.36303 -1.69614
7.75474 2.38303 -1.69314
7.74174 2.40603 -1.69114
7.75174 2.43603 -1.69514
7.72674 2.45503 -1.69114
7.71674 2.47803 -1.69114
7.71674 2.50503 -1.69314
7.69574 2.51203 -1.68914
7.68974 2.53603 -1.68914
7.69874 2.56603 -1.69314
7.67574 2.58503 -1.69014
7.67374 2.61103 -1.69114
7.68374 2.64203 -1.69514
7.65874 2.66003 -1.69114
7.66574 2.67603 -1.69414
7.66074 2.70103 -1.69514
7.64674 2.72303 -1.69414
7.64574 2.75003 -1.69514
7.64374 2.77703 -1.69714
7.62574 2.79703 -1.69514
7.60674 2.81703 -1.69214
7.62174 2.83703 -1.69714
7.60774 2.85903 -1.69614
7.59874 2.88203 -1.69614
7.59874 2.91003 -1.69814
7.58174 2.93103 -1.69614
7.56874 2.95303 -1.69514
7.57474 2.98303 -1.69914
7.54274 2.98403 -1.69214
7.54374 3.01203 -1.69514
7.54674 3.04103 -1.69814
7.52874 3.06103 -1.69614
7.52974 3.08903 -1.69814
7.52574 3.11503 -1.70014
7.50674 3.13403 -1.69714
7.50474 3.14803 -1.69814
7.49674 3.17203 -1.69914
7.49274 3.19803 -1.70014
7.46674 3.21503 -1.69614
7.46474 3.24203 -1.69814
7.45674 3.26603 -1.69914
7.44274 3.28803 -1.69814
7.44874 3.30403 -1.70114
7.43274 3.32503 -1.69914
7.41674 3.34603 -1.69814
7.42774 3.37903 -1.70314
7.39374 3.39203 -1.69714
7.38674 3.41703 -1.69814
7.38974 3.44703 -1.70214
7.37974 3.45603 -1.70114
7.35474 3.47203 -1.69714
7.33474 3.49103 -1.69514
7.31974 3.51303 -1.69414
7.30874 3.53503 -1.69414
7.29374 3.55703 -1.69314
7.28274 3.58003 -1.69314
7.28574 3.59503 -1.69514
7.25574 3.60903 -1.69114
7.80674 -1.72097 -1.66614
7.82474 -1.71197 -1.67014
7.82574 -1.68697 -1.66914
7.82574 -1.66097 -1.66714
7.82874 -1.63597 -1.66714
7.82874 -1.60997 -1.66614
7.83174 -1.58497 -1.66514
7.84774 -1.56297 -1.66814
7.86374 -1.55297 -1.67114
7.85474 -1.52597 -1.66814
7.85974 -1.50097 -1.66814
7.86474 -1.47697 -1.66814
7.86574 -1.45097 -1.66714
7.87574 -1.42797 -1.66814
7.85674 -1.41097 -1.66414
7.87674 -1.38897 -1.66714
7.88074 -1.36497 -1.66714
7.87574 -1.33797 -1.66514
7.88374 -1.31397 -1.66614
7.89174 -1.28997 -1.66714
7.88974 -1.26397 -1.66514
7.89374 -1.25197 -1.66614
7.88974 -1.22597 -1.66414
7.90674 -1.20297 -1.66714
7.90474 -1.17797 -1.66614
7.89474 -1.15097 -1.66314
7.91774 -1.12897 -1.66714
7.91174 -1.10297 -1.66514
7.91874 -1.07797 -1.66614
7.92274 -1.06597 -1.66614
7.91974 -1.03997 -1.66514
7.92974 -1.01597 -1.66614
7.92074 -0.989974 -1.66414
7.93174 -0.965974 -1.66514
7.93274 -0.940974 -1.66514
7.93574 -0.915974 -1.66514
7.94474 -0.903974 -1.66714
7.93774 -0.877974 -1.66414
7.93674 -0.852974 -1.66414
7.94174 -0.802974 -1.66414
7.96074 -0.753974 -1.66714
7.95374 -0.740974 -1.66514
7.96574 -0.716974 -1.66714
7.95674 -0.690974 -1.66414
7.96474 -0.666974 -1.66614
7.96674 -0.641974 -1.66614
7.97274 -0.616974 -1.66714
7.96774 -0.603974 -1.66514
7.97674 -0.578974 -1.66714
7.98874 -0.554974 -1.66914
7.97474 -0.528974 -1.66614
7.98374 -0.503974 -1.66714
7.97574 -0.478974 -1.66514
7.99474 -0.454974 -1.66914
7.98674 -0.428974 -1.66714
7.97974 -0.415974 -1.66514
7.98274 -0.390974 -1.66614
7.98774 -0.365974 -1.66714
7.99874 -0.340974 -1.66914
7.98774 -0.315974 -1.66614
7.99174 -0.265974 -1.66714
8.00374 -0.253974 -1.66914
7.99074 -0.227974 -1.66614
7.98974 -0.177974 -1.66614
8.00274 -0.127974 -1.66814
7.99974 -0.101974 -1.66714
8.00874 -0.089974 -1.67014
8.01174 -0.064974 -1.67014
8.00774 -0.039974 -1.66914
8.00374 -0.014974 -1.66814
7.70674 0.025026 -1.67014
7.70874 0.049026 -1.67114
7.71274 0.085026 -1.67214
7.71774 0.109026 -1.67314
7.71674 0.182026 -1.67314
7.71974 0.207026 -1.67414
7.71174 0.218026 -1.67214
7.70674 0.243026 -1.67114
7.70774 0.267026 -1.67214
7.71074 0.315026 -1.67214
7.72274 0.340026 -1.67614
7.70374 0.364026 -1.67214
7.72074 0.377026 -1.67614
7.70074 0.424026 -1.67214
7.70174 0.448026 -1.67214
7.70074 0.473026 -1.67214
7.69874 0.521026 -1.67214
7.70274 0.558026 -1.67414
7.70274 0.582026 -1.67414
7.69474 0.606026 -1.67314
7.69474 0.630026 -1.67314
7.70274 0.655026 -1.67614
7.68874 0.678026 -1.67314
7.68774 0.691026 -1.67314
7.69174 0.715026 -1.67414
7.69474 0.740026 -1.67614
7.70174 0.765026 -1.67814
7.69374 0.789026 -1.67714
7.68174 0.812026 -1.67414
7.68474 0.837026 -1.67614
7.68774 0.849026 -1.67714
7.68474 0.873026 -1.67714
7.67974 0.897026 -1.67614
7.69874 0.924026 -1.68114
7.67574 0.946026 -1.67714
7.67474 0.970026 -1.67714
7.68574 0.996026 -1.68014
7.67274 1.00603 -1.67714
7.67674 1.03203 -1.67914
7.68474 1.05703 -1.68214
7.66874 1.08003 -1.67914
7.67074 1.10503 -1.68014
7.67074 1.12903 -1.68114
7.65974 1.15203 -1.67914
7.67374 1.16703 -1.68314
7.67574 1.19203 -1.68414
7.65674 1.21303 -1.68114
7.65674 1.23803 -1.68214
7.65374 1.26203 -1.68214
7.64274 1.28503 -1.68014
7.65374 1.31203 -1.68414
7.64774 1.32303 -1.68314
7.63074 1.34503 -1.68014
7.63974 1.37103 -1.68314
7.64674 1.39703 -1.68614
7.63874 1.42003 -1.68514
7.63174 1.44403 -1.68414
7.64074 1.47103 -1.68714
7.62074 1.47903 -1.68314
7.62574 1.50503 -1.68614
7.62474 1.53003 -1.68614
7.62574 1.55503 -1.68814
7.62074 1.57903 -1.68814
7.61574 1.60303 -1.68814
7.61474 1.62803 -1.68914
7.59874 1.63703 -1.68614
7.60674 1.66303 -1.68914
7.59274 1.68503 -1.68614
7.59474 1.71103 -1.68814
7.60474 1.73803 -1.69214
7.59174 1.76003 -1.69014
7.59374 1.78603 -1.69214
7.59074 1.79803 -1.69214
7.58074 1.82103 -1.69114
7.57874 1.84503 -1.69214
7.58874 1.87303 -1.69614
7.55774 1.89103 -1.69014
7.56474 1.91803 -1.69314
7.56674 1.94403 -1.69514
7.55174 1.95203 -1.69214
7.54374 1.97603 -1.69114
7.56774 2.00703 -1.69914
7.55574 2.03003 -1.69714
7.54574 2.05203 -1.69614
7.55474 2.08003 -1.70014
7.54974 2.10503 -1.70014
7.53174 2.11203 -1.69714
7.52174 2.16003 -1.69814
7.52274 2.21203 -1.70114
7.49574 2.23003 -1.69614
7.49374 2.25503 -1.69814
7.49274 2.26703 -1.69814
7.46874 2.28603 -1.69414
7.45574 2.30703 -1.69314
7.46274 2.33503 -1.69614
7.43674 2.35303 -1.69214
7.42574 2.37503 -1.69114
7.42774 2.40103 -1.69314
7.40774 2.40803 -1.68914
7.39374 2.42903 -1.68814
7.39574 2.45503 -1.69014
7.38574 2.47803 -1.69014
7.36174 2.49503 -1.68614
7.37074 2.52403 -1.69014
7.34774 2.54203 -1.68614
7.34774 2.55503 -1.68714
7.35074 2.58203 -1.69014
7.34274 2.60503 -1.69014
7.32874 2.62603 -1.68814
7.33274 2.65403 -1.69114
7.30974 2.67103 -1.68814
7.30374 2.69503 -1.68814
7.30074 2.70703 -1.68914
7.29074 2.73003 -1.68814
7.28574 2.75403 -1.68914
7.28074 2.77803 -1.69014
7.26874 2.80003 -1.68914
7.25574 2.82103 -1.68814
7.25974 2.84903 -1.69114
7.24474 2.88203 -1.69114
7.23174 2.90303 -1.69014
7.20174 2.97103 -1.69014
7.19074 2.99303 -1.68914
7.18774 3.00503 -1.69014
7.18074 3.02803 -1.69014
7.02974 3.39003 -1.69314
7.02574 3.41603 -1.69514
7.49874 -1.76297 -1.66914
7.51374 -1.74097 -1.67214
7.52274 -1.71897 -1.67214
7.53574 -1.69697 -1.67414
7.52674 -1.68197 -1.67214
7.52874 -1.65797 -1.67114
7.52974 -1.63297 -1.67014
7.52174 -1.60697 -1.66714
7.55374 -1.58897 -1.67314
7.54674 -1.56297 -1.67014
7.54374 -1.53697 -1.66814
7.54874 -1.51397 -1.66814
7.57074 -1.50597 -1.67314
7.55974 -1.47897 -1.66914
7.55274 -1.45297 -1.66714
7.57274 -1.43197 -1.67014
7.57374 -1.40697 -1.66914
7.57974 -1.38397 -1.67014
7.59574 -1.36197 -1.67214
7.58274 -1.34797 -1.66914
7.57274 -1.32097 -1.66614
7.58074 -1.29797 -1.66714
7.59074 -1.27497 -1.66814
7.59274 -1.25097 -1.66814
7.60074 -1.22797 -1.66814
7.60074 -1.20397 -1.66814
7.60974 -1.16797 -1.66814
7.60774 -1.11897 -1.66614
7.61574 -1.05897 -1.66614
7.62374 -1.03597 -1.66714
7.62974 -0.987974 -1.66714
7.63674 -0.963974 -1.66814
7.63974 -0.891974 -1.66714
7.64874 -0.880974 -1.66814
7.65174 -0.831974 -1.66814
7.66574 -0.760974 -1.66914
7.65574 -0.735974 -1.66714
7.67774 -0.627974 -1.66914
7.70374 -0.156974 -1.67014
7.70474 -0.023974 -1.67014
7.48774 0.015026 -1.68114
7.48974 0.039026 -1.68114
7.49874 0.062026 -1.68414
7.48874 0.086026 -1.68114
7.51374 0.110026 -1.68814
7.49674 0.121026 -1.68314
7.50774 0.145026 -1.68614
7.50874 0.169026 -1.68714
7.51474 0.192026 -1.68814
7.49274 0.215026 -1.68314
7.51074 0.240026 -1.68814
7.50274 0.263026 -1.68614
7.50174 0.275026 -1.68614
7.50674 0.298026 -1.68714
7.50574 0.322026 -1.68714
7.49774 0.345026 -1.68514
7.50974 0.369026 -1.68814
7.49474 0.392026 -1.68514
7.50874 0.417026 -1.68914
7.50674 0.428026 -1.68814
7.50474 0.452026 -1.68814
7.48874 0.475026 -1.68514
7.50074 0.499026 -1.68814
7.50074 0.523026 -1.68814
7.50474 0.547026 -1.69014
7.50074 0.570026 -1.68914
7.50374 0.582026 -1.69014
7.49474 0.605026 -1.68814
7.50774 0.630026 -1.69214
7.49274 0.652026 -1.68914
7.49074 0.676026 -1.68914
7.48974 0.700026 -1.68914
7.50174 0.724026 -1.69314
7.49474 0.736026 -1.69114
7.50374 0.760026 -1.69414
7.49174 0.783026 -1.69214
7.49474 0.807026 -1.69314
7.48474 0.830026 -1.69114
7.48174 0.853026 -1.69114
7.47974 0.877026 -1.69114
7.47574 0.888026 -1.69114
7.47874 0.913026 -1.69214
7.47374 0.936026 -1.69214
7.47674 0.960026 -1.69314
7.47574 0.984026 -1.69414
7.48074 1.00803 -1.69514
7.47374 1.03103 -1.69514
7.47374 1.04303 -1.69514
7.47574 1.06703 -1.69614
7.47274 1.11503 -1.69714
7.46574 1.13803 -1.69614
7.46374 1.16203 -1.69714
7.45274 1.19603 -1.69514
7.44474 1.24303 -1.69514
7.44274 1.26603 -1.69614
7.42874 1.33603 -1.69514
7.42374 1.39503 -1.69714
7.41574 1.46703 -1.69814
7.40574 1.52503 -1.69914
7.19774 2.40503 -1.70514
7.18974 2.42703 -1.70514
7.18074 2.44903 -1.70514
7.16374 2.46903 -1.70214
7.14874 2.48903 -1.70114
7.14274 2.51203 -1.70114
7.12574 2.53103 -1.69914
7.13474 2.54703 -1.70214
7.12674 2.56903 -1.70214
7.11474 2.59003 -1.70114
7.11374 2.61503 -1.70314
7.09274 2.63303 -1.70014
7.09874 2.66103 -1.70314
7.08874 2.68203 -1.70314
7.08674 2.69403 -1.70314
7.07374 2.71503 -1.70214
7.05974 2.73503 -1.70114
7.05174 2.75703 -1.70114
7.04974 2.78203 -1.70314
7.03374 2.80103 -1.70114
7.01774 2.82103 -1.69914
7.03474 2.84003 -1.70514
7.01674 2.85903 -1.70214
7.00074 2.87803 -1.70114
7.00074 2.90403 -1.70314
6.97774 2.92003 -1.69914
6.96774 2.94103 -1.69914
6.96974 2.96803 -1.70214
6.95074 2.97303 -1.69814
6.94974 2.99803 -1.70114
6.94074 3.02003 -1.70114
6.92774 3.04003 -1.70014
6.92474 3.06503 -1.70114
6.92774 3.09303 -1.70514
6.90774 3.11003 -1.70214
6.89874 3.11903 -1.70114
6.90674 3.14903 -1.70614
6.89874 3.17103 -1.70614
6.88174 3.18903 -1.70414
6.85374 3.20303 -1.70014
6.86874 3.23603 -1.70614
6.86874 3.26203 -1.70914
6.85474 3.26903 -1.70714
6.84874 3.29203 -1.70814
6.83074 3.31003 -1.70614
6.83074 3.33703 -1.70814
6.81374 3.35503 -1.70714
6.82074 3.38503 -1.71114
6.78174 3.39303 -1.70414
6.77974 3.40503 -1.70514
6.76974 3.42603 -1.70514
6.75974 3.44803 -1.70514
6.73874 3.46403 -1.70214
6.73474 3.48903 -1.70414
6.72174 3.50903 -1.70414
6.70574 3.52803 -1.70214
6.69874 3.53703 -1.70214
7.22974 -1.84097 -1.67414
7.25474 -1.82297 -1.67914
7.26174 -1.79997 -1.68014
7.28274 -1.75697 -1.68214
7.28674 -1.73397 -1.68114
7.30274 -1.71297 -1.68414
7.30374 -1.70097 -1.68414
7.31474 -1.67997 -1.68514
7.31474 -1.65597 -1.68414
7.31174 -1.63097 -1.68214
7.30574 -1.60497 -1.67914
7.33174 -1.58697 -1.68414
7.32174 -1.56097 -1.68114
7.32374 -1.54897 -1.68114
7.33074 -1.52597 -1.68114
7.32374 -1.50097 -1.67814
7.34574 -1.48197 -1.68214
7.34274 -1.45697 -1.68114
7.32474 -1.42897 -1.67514
7.36074 -1.42497 -1.68314
7.35774 -1.39997 -1.68114
7.36174 -1.37697 -1.68114
7.34674 -1.34997 -1.67714
7.37774 -1.33197 -1.68314
7.36674 -1.30597 -1.68014
7.35574 -1.27997 -1.67614
7.38874 -1.26197 -1.68314
7.38874 -1.24997 -1.68214
7.35974 -1.22097 -1.67414
7.39474 -1.20297 -1.68214
7.37674 -1.17697 -1.67714
7.37274 -1.15197 -1.67514
7.40174 -1.13297 -1.68114
7.38574 -1.10697 -1.67614
7.37974 -1.09397 -1.67414
7.40274 -1.07397 -1.67914
7.39974 -1.04997 -1.67814
7.41474 -1.02797 -1.68114
7.41274 -1.00397 -1.67914
7.38674 -0.976974 -1.67214
7.42774 -0.958974 -1.68114
7.41774 -0.944974 -1.67914
7.42274 -0.921974 -1.67914
7.42574 -0.898974 -1.67914
7.42074 -0.874974 -1.67714
7.40974 -0.849974 -1.67414
7.43574 -0.828974 -1.68014
7.43474 -0.804974 -1.67914
7.42974 -0.792974 -1.67714
7.44974 -0.771974 -1.68114
7.43274 -0.745974 -1.67714
7.44074 -0.722974 -1.67814
7.44474 -0.699974 -1.67914
7.44374 -0.675974 -1.67814
7.44574 -0.652974 -1.67814
7.44274 -0.640974 -1.67714
7.45974 -0.618974 -1.68114
7.43874 -0.593974 -1.67514
7.46774 -0.571974 -1.68114
7.45374 -0.547974 -1.67814
7.46974 -0.524974 -1.68114
7.45974 -0.500974 -1.67814
7.47774 -0.489974 -1.68214
7.45574 -0.464974 -1.67714
7.47274 -0.442974 -1.68114
7.46474 -0.418974 -1.67814
7.47174 -0.395974 -1.68014
7.46674 -0.371974 -1.67814
7.46774 -0.348974 -1.67814
7.47974 -0.336974 -1.68114
7.48074 -0.313974 -1.68114
7.46674 -0.289974 -1.67714
7.49474 -0.266974 -1.68414
7.48574 -0.242974 -1.68114
7.47274 -0.218974 -1.67814
7.50074 -0.196974 -1.68514
7.47374 -0.183974 -1.67814
7.49774 -0.160974 -1.68414
7.47874 -0.136974 -1.67914
7.47674 -0.113974 -1.67914
7.50074 -0.090974 -1.68414
7.48174 -0.066974 -1.68014
7.48974 -0.042974 -1.68114
7.47974 -0.031974 -1.67914
7.49974 -0.00797402 -1.68414
7.12874 0.866026 -1.68314
7.13074 0.912026 -1.68514
7.12174 0.933026 -1.68314
7.12574 0.979026 -1.68514
7.10674 1.01103 -1.68214
7.12174 1.05903 -1.68714
7.11074 1.10303 -1.68614
7.10774 1.16003 -1.68814
7.09274 1.24903 -1.68814
7.10774 1.28603 -1.69314
7.08074 1.30403 -1.68714
7.08074 1.35003 -1.68914
7.06674 1.37003 -1.68714
7.06574 1.39303 -1.68814
7.05374 1.41403 -1.68614
7.06874 1.42903 -1.69014
7.07274 1.47603 -1.69414
7.04974 1.49403 -1.68914
7.04874 1.51703 -1.69014
7.05474 1.54203 -1.69314
7.03274 1.56003 -1.68814
7.04074 1.59703 -1.69214
7.02774 1.61703 -1.69014
7.02374 1.66203 -1.69214
7.02374 1.68603 -1.69314
7.00374 1.70403 -1.68914
7.01974 1.72003 -1.69414
6.98374 1.73403 -1.68614
7.01274 1.76503 -1.69514
6.98974 1.78303 -1.69114
6.98074 1.80303 -1.69014
6.98574 1.82803 -1.69314
6.98174 1.85103 -1.69314
6.96774 1.85903 -1.69014
6.97174 1.88303 -1.69314
6.98474 1.91003 -1.69814
6.96674 1.92903 -1.69514
6.97974 1.95603 -1.70014
6.96574 1.97603 -1.69814
6.96174 1.99803 -1.69814
6.98374 2.04103 -1.70614
6.96074 2.05803 -1.70214
6.96674 2.08303 -1.70514
6.94774 2.10103 -1.70214
6.94274 2.12403 -1.70214
6.91374 2.13803 -1.69714
6.91774 2.15203 -1.69914
6.90174 2.17003 -1.69614
6.89874 2.19303 -1.69714
6.87674 2.21003 -1.69314
6.87374 2.23303 -1.69414
6.85574 2.25103 -1.69114
6.86274 2.27703 -1.69514
6.83374 2.30303 -1.69014
6.82874 2.32503 -1.69114
6.81774 2.37003 -1.69214
6.91874 -1.80097 -1.67514
6.91874 -1.77697 -1.67314
6.93374 -1.76897 -1.67614
6.92774 -1.72197 -1.67214
6.94174 -1.70197 -1.67414
6.94174 -1.67897 -1.67314
6.96874 -1.60497 -1.67514
6.98174 -1.51497 -1.67314
6.98874 -1.48197 -1.67314
7.00074 -1.39297 -1.67214
6.86574 0.681026 -1.68314
6.83874 0.940026 -1.68414
6.82074 1.12403 -1.68714
6.81174 1.17703 -1.68714
6.81074 1.22103 -1.68814
6.79674 1.24103 -1.68614
6.79874 1.26303 -1.68714
6.78274 1.33803 -1.68714
6.77974 1.35903 -1.68714
6.78574 1.38303 -1.69014
6.79574 1.40703 -1.69414
6.77474 1.42503 -1.68914
6.76674 1.43403 -1.68814
6.77174 1.45703 -1.69014
6.77274 1.48003 -1.69214
6.77174 1.50203 -1.69314
6.77074 1.52403 -1.69414
6.76974 1.54603 -1.69514
6.75374 1.56503 -1.69214
6.76474 1.57903 -1.69514
6.75974 1.60003 -1.69514
6.74574 1.64103 -1.69414
6.73974 1.66303 -1.69414
6.74974 1.68703 -1.69814
6.75174 1.71003 -1.70014
6.74574 1.72003 -1.69914
6.74574 1.74303 -1.70114
6.73874 1.76303 -1.70014
6.73274 1.78503 -1.70014
6.75174 1.81203 -1.70714
6.73474 1.83003 -1.70414
6.74574 1.85603 -1.70814
6.72374 1.86203 -1.70314
6.72874 1.90803 -1.70814
6.67874 2.11103 -1.71014
6.66074 2.12903 -1.70714
6.65574 2.13903 -1.70714
6.64674 2.15903 -1.70614
6.63774 2.17903 -1.70614
6.60374 2.19103 -1.69814
6.60974 2.21603 -1.70214
6.59674 2.23503 -1.70014
6.58474 2.25403 -1.69914
6.56474 2.25903 -1.69414
6.55874 2.28003 -1.69514
6.54974 2.30003 -1.69414
6.54274 2.32003 -1.69414
6.52774 2.36103 -1.69414
6.59674 -1.90597 -1.67514
6.60674 -1.88597 -1.67614
6.61574 -1.86597 -1.67714
6.62174 -1.84597 -1.67714
6.62974 -1.80297 -1.67614
6.63474 -1.77097 -1.67514
6.63774 0.00702598 -1.68814
6.63574 0.028026 -1.68814
6.64274 0.049026 -1.69014
6.64074 0.070026 -1.69014
6.63874 0.091026 -1.68914
6.63674 0.112026 -1.68814
6.65374 0.133026 -1.69314
6.64774 0.143026 -1.69214
6.62574 0.163026 -1.68614
6.63074 0.184026 -1.68714
6.63574 0.206026 -1.68914
6.64674 0.227026 -1.69214
6.63274 0.247026 -1.68814
6.63974 0.268026 -1.69114
6.63774 0.279026 -1.69014
6.65174 0.300026 -1.69414
6.64274 0.321026 -1.69214
6.64774 0.342026 -1.69414
6.64674 0.363026 -1.69414
6.63774 0.383026 -1.69214
6.63674 0.404026 -1.69214
6.64174 0.415026 -1.69314
6.64674 0.436026 -1.69514
6.63874 0.457026 -1.69314
6.63774 0.477026 -1.69314
6.62874 0.498026 -1.69114
6.63674 0.519026 -1.69414
6.63274 0.540026 -1.69314
6.63374 0.551026 -1.69414
6.63174 0.571026 -1.69414
6.62874 0.592026 -1.69314
6.63374 0.614026 -1.69514
6.63574 0.635026 -1.69614
6.62874 0.655026 -1.69514
6.62574 0.676026 -1.69514
6.62174 0.686026 -1.69414
6.62674 0.708026 -1.69614
6.62074 0.728026 -1.69514
6.61874 0.749026 -1.69514
6.60674 0.768026 -1.69214
6.60774 0.790026 -1.69314
6.62274 0.813026 -1.69814
6.61174 0.822026 -1.69514
6.61274 0.843026 -1.69614
6.60874 0.864026 -1.69614
6.60774 0.885026 -1.69614
6.60674 0.906026 -1.69714
6.61674 0.928026 -1.70114
6.60474 0.948026 -1.69814
6.60674 0.959026 -1.69914
6.60574 0.980026 -1.70014
6.60874 1.00103 -1.70114
6.60474 1.02203 -1.70114
6.59574 1.04203 -1.70014
6.59674 1.06303 -1.70114
6.58374 1.08203 -1.69814
6.58374 1.09303 -1.69814
6.58274 1.11403 -1.69914
6.58674 1.13603 -1.70114
6.57574 1.15503 -1.69914
6.56974 1.17603 -1.69814
6.56574 1.19603 -1.69814
6.56374 1.21703 -1.69914
6.56974 1.22903 -1.70114
6.56574 1.25003 -1.70114
6.56774 1.27103 -1.70314
6.55574 1.29003 -1.70114
6.55174 1.31103 -1.70114
6.54974 1.33203 -1.70114
6.55474 1.35503 -1.70414
6.55074 1.36403 -1.70314
6.54074 1.38403 -1.70214
6.54574 1.40603 -1.70414
6.52674 1.42403 -1.70014
6.52774 1.44503 -1.70214
6.51574 1.46403 -1.70014
6.52774 1.48903 -1.70414
6.52774 1.49903 -1.70514
6.52474 1.52003 -1.70514
6.52574 1.54203 -1.70714
6.51474 1.56103 -1.70514
6.51874 1.58403 -1.70814
6.50674 1.60303 -1.70614
6.51674 1.62703 -1.71014
6.50174 1.67703 -1.70914
6.36174 2.20903 -1.71514
6.34874 2.22703 -1.71314
6.33974 2.24603 -1.71314
6.32374 2.26303 -1.71014
6.31474 2.28203 -1.70914
6.31174 2.29203 -1.70914
6.29874 2.31003 -1.70814
6.28274 2.32603 -1.70514
6.26974 2.34403 -1.70414
6.27174 2.36703 -1.70614
6.25674 2.38403 -1.70414
6.25474 2.40503 -1.70614
6.24674 2.41403 -1.70514
6.23974 2.43303 -1.70514
6.22674 2.45103 -1.70314
6.21874 2.47003 -1.70314
6.20574 2.48803 -1.70214
6.19774 2.50703 -1.70214
6.20274 2.53203 -1.70514
6.18074 2.53403 -1.70014
6.17274 2.55403 -1.70014
6.17674 2.57803 -1.70414
6.15674 2.61603 -1.70314
6.13974 2.63103 -1.70014
6.14874 2.66903 -1.70614
6.12774 2.68303 -1.70314
6.11574 2.70103 -1.70214
6.10774 2.72003 -1.70214
6.11674 2.74703 -1.70714
6.09174 2.75903 -1.70214
6.07674 2.78703 -1.70214
6.06874 2.80603 -1.70214
6.05374 2.84603 -1.70314
5.97474 3.03003 -1.70514
5.96874 3.03803 -1.70514
5.93674 3.11603 -1.70714
6.30074 -1.98497 -1.68014
6.30974 -1.96597 -1.68114
6.35574 -1.95897 -1.69214
6.36174 -1.93897 -1.69214
6.35874 -1.91597 -1.69014
6.36674 -1.89597 -1.69014
6.38574 -1.87997 -1.69414
6.38474 -1.86897 -1.69314
6.38174 -1.84597 -1.69014
6.39874 -1.82897 -1.69314
6.37974 -1.80297 -1.68614
6.37774 -1.78097 -1.68414
6.39074 -1.76197 -1.68614
6.39274 -1.74097 -1.68514
6.39774 -1.73197 -1.68614
6.40074 -1.71097 -1.68514
6.40874 -1.69197 -1.68614
6.40574 -1.66997 -1.68414
6.42074 -1.65197 -1.68614
6.41474 -1.62897 -1.68314
6.43474 -1.61197 -1.68714
6.43674 -1.60197 -1.68714
6.42374 -1.57697 -1.68214
6.43574 -1.55897 -1.68414
6.45374 -1.54197 -1.68814
6.44974 -1.51897 -1.68514
6.46174 -1.50097 -1.68714
6.46674 -1.48097 -1.68714
6.45374 -1.46697 -1.68314
6.45774 -1.44697 -1.68314
6.47974 -1.42997 -1.68814
6.45774 -1.40397 -1.68114
6.47174 -1.38597 -1.68314
6.48474 -1.36797 -1.68614
6.47574 -1.34397 -1.68214
6.48174 -1.33497 -1.68314
6.48274 -1.31397 -1.68214
6.49574 -1.29497 -1.68514
6.49674 -1.27397 -1.68414
6.49674 -1.25297 -1.68314
6.49474 -1.23197 -1.68114
6.49874 -1.21097 -1.68114
6.50774 -1.20197 -1.68314
6.50574 -1.18097 -1.68214
6.50574 -1.15997 -1.68114
6.52274 -1.14197 -1.68414
6.51274 -1.11897 -1.68114
6.52074 -1.09897 -1.68214
6.51574 -1.07697 -1.68014
6.53674 -1.06997 -1.68514
6.52274 -1.04697 -1.68014
6.52974 -1.02697 -1.68114
6.53174 -1.00597 -1.68114
6.53274 -0.984974 -1.68014
6.54874 -0.966974 -1.68414
6.53974 -0.933974 -1.68014
6.55674 -0.914974 -1.68414
6.55174 -0.893974 -1.68214
6.56274 -0.852974 -1.68314
6.55774 -0.831974 -1.68114
6.57174 -0.811974 -1.68414
6.57674 -0.802974 -1.68514
6.57774 -0.781974 -1.68514
6.57474 -0.759974 -1.68314
6.57674 -0.739974 -1.68314
6.58074 -0.718974 -1.68414
6.57974 -0.697974 -1.68314
6.58274 -0.687974 -1.68314
6.58474 -0.666974 -1.68314
6.57874 -0.645974 -1.68114
6.58674 -0.625974 -1.68314
6.59074 -0.604974 -1.68314
6.59974 -0.584974 -1.68514
6.60374 -0.564974 -1.68614
6.59674 -0.532974 -1.68314
6.60374 -0.511974 -1.68514
6.59374 -0.490974 -1.68214
6.60874 -0.470974 -1.68514
6.60674 -0.449974 -1.68414
6.60974 -0.428974 -1.68514
6.60974 -0.408974 -1.68414
6.60774 -0.397974 -1.68414
6.61674 -0.377974 -1.68614
6.61474 -0.356974 -1.68514
6.61374 -0.335974 -1.68414
6.63374 -0.315974 -1.69014
6.61374 -0.293974 -1.68414
6.61974 -0.273974 -1.68514
6.62674 -0.262974 -1.68714
6.62574 -0.242974 -1.68614
6.63374 -0.221974 -1.68814
6.61674 -0.200974 -1.68414
6.62874 -0.179974 -1.68714
6.63374 -0.158974 -1.68814
6.62074 -0.137974 -1.68414
6.63574 -0.127974 -1.68814
6.63074 -0.106974 -1.68714
6.62374 -0.085974 -1.68514
6.63474 -0.065974 -1.68814
6.63874 -0.044974 -1.68914
6.62574 -0.023974 -1.68514
6.63374 -0.012974 -1.68714
6.29074 1.41503 -1.69414
6.27774 1.45303 -1.69314
6.26474 1.52303 -1.69414
6.26574 1.54403 -1.69614
6.26874 1.56603 -1.69814
6.25374 1.58303 -1.69514
6.25674 1.60503 -1.69714
6.25674 1.62603 -1.69914
6.25974 1.63703 -1.70014
6.26774 1.66003 -1.70414
6.25674 1.67803 -1.70314
6.27074 1.70303 -1.70814
6.26374 1.72203 -1.70714
6.27674 1.74703 -1.71314
6.25774 1.76303 -1.70914
6.26274 1.79603 -1.71314
6.21374 1.96303 -1.71314
6.17374 1.99303 -1.70514
6.16774 2.01303 -1.70514
6.17574 2.02603 -1.70814
6.16374 2.04403 -1.70714
6.14774 2.06003 -1.70414
6.14374 2.08003 -1.70514
6.13174 2.09703 -1.70314
6.11974 2.11503 -1.70114
6.11274 2.13403 -1.70114
6.09874 2.14003 -1.69814
6.18074 0.713026 -1.69214
6.17174 0.791026 -1.69214
6.17374 0.821026 -1.69414
6.16574 0.859026 -1.69314
6.15874 0.898026 -1.69314
6.15274 0.966026 -1.69414
6.14374 1.00403 -1.69314
6.13774 1.05303 -1.69414
6.13774 1.11203 -1.69614
6.13574 1.15203 -1.69814
6.11874 1.16903 -1.69414
6.10774 1.21603 -1.69414
6.08274 1.38103 -1.69614
6.08974 1.43303 -1.70214
6.08474 1.47203 -1.70314
6.06374 1.50803 -1.70014
6.05374 1.52503 -1.69814
6.05874 1.54703 -1.70114
6.04474 1.55303 -1.69814
6.06174 1.57803 -1.70414
6.04374 1.59403 -1.70014
6.04274 1.61403 -1.70214
6.04274 1.63403 -1.70314
6.02674 1.65003 -1.70014
6.03074 1.67203 -1.70314
6.04274 1.68503 -1.70714
6.04174 1.70603 -1.70814
6.04374 1.72703 -1.71014
6.05074 1.74903 -1.71414
6.02874 1.76303 -1.70914
6.04374 1.78903 -1.71514
6.02574 1.81403 -1.71314
6.02174 1.83403 -1.71314
6.00274 1.86903 -1.71114
6.00074 1.88903 -1.71214
5.99574 1.92903 -1.71414
5.97474 1.93303 -1.70914
5.96174 1.94903 -1.70714
5.94074 1.96303 -1.70214
5.95274 1.98803 -1.70814
5.94974 2.00803 -1.70914
5.92874 2.02103 -1.70414
5.91874 2.03903 -1.70314
5.91974 2.04903 -1.70414
5.90374 2.06503 -1.70214
5.89274 2.10203 -1.70214
5.85674 -2.01397 -1.68414
5.85874 -1.99497 -1.68314
5.87674 -1.95997 -1.68414
5.87774 -1.94997 -1.68414
5.91374 -1.85897 -1.68514
5.89574 1.54703 -1.69914
5.89274 1.56603 -1.70014
5.89474 1.57603 -1.70114
5.89274 1.59603 -1.70214
5.88474 1.63303 -1.70314
5.87974 1.65203 -1.70314
5.87274 1.67003 -1.70214
5.88774 1.69403 -1.70814
5.89774 1.70703 -1.71214
5.89574 1.72703 -1.71414
5.89274 1.74603 -1.71414
5.89274 1.76603 -1.71614
5.88174 1.78303 -1.71414
5.87974 1.80203 -1.71514
5.87174 1.82003 -1.71514
5.86674 1.82903 -1.71414
5.85574 1.84603 -1.71214
5.84374 1.88203 -1.71214
5.81774 1.89403 -1.70614
5.80874 1.91103 -1.70514
5.78974 1.95603 -1.70414
5.69174 -2.06597 -1.68714
5.70074 -2.04797 -1.68814
5.70374 -2.00897 -1.68514
5.71974 -1.96397 -1.68514
5.85274 0.014026 -1.69814
5.83374 0.032026 -1.69214
5.84874 0.050026 -1.69714
5.83874 0.069026 -1.69414
5.84674 0.078026 -1.69614
5.83674 0.096026 -1.69314
5.85574 0.115026 -1.69914
5.84974 0.133026 -1.69714
5.84874 0.152026 -1.69714
5.85274 0.170026 -1.69914
5.85174 0.188026 -1.69914
5.85674 0.207026 -1.70014
5.87174 0.217026 -1.70514
5.84674 0.234026 -1.69714
5.84374 0.252026 -1.69714
5.84474 0.271026 -1.69714
5.85874 0.290026 -1.70214
5.83874 0.307026 -1.69614
5.85874 0.327026 -1.70314
5.84374 0.335026 -1.69814
5.85774 0.355026 -1.70314
5.85274 0.373026 -1.70214
5.85174 0.391026 -1.70214
5.84474 0.409026 -1.70014
5.84874 0.428026 -1.70214
5.84774 0.446026 -1.70214
5.85574 0.456026 -1.70514
5.84374 0.474026 -1.70114
5.83774 0.492026 -1.70014
5.84174 0.511026 -1.70214
5.84574 0.529026 -1.70314
5.87274 0.551026 -1.71214
5.83274 0.556026 -1.70014
5.85674 0.577026 -1.70814
5.84174 0.594026 -1.70414
5.83274 0.611026 -1.70214
5.83974 0.631026 -1.70514
5.81474 0.647026 -1.69714
5.83374 0.667026 -1.70414
5.82974 0.685026 -1.70314
5.82474 0.694026 -1.70214
5.81874 0.712026 -1.70114
5.83574 0.733026 -1.70714
5.82774 0.750026 -1.70514
5.81374 0.767026 -1.70214
5.82274 0.787026 -1.70514
5.81874 0.805026 -1.70514
5.81174 0.813026 -1.70314
5.81274 0.832026 -1.70414
5.81574 0.851026 -1.70614
5.81174 0.869026 -1.70514
5.80274 0.886026 -1.70314
5.79774 0.904026 -1.70314
5.80274 0.924026 -1.70514
5.81074 0.934026 -1.70814
5.79674 0.951026 -1.70514
5.79574 0.969026 -1.70514
5.80174 0.989026 -1.70814
5.78874 1.00603 -1.70514
5.77874 1.02303 -1.70314
5.76774 1.03903 -1.70014
5.76074 1.04703 -1.69914
5.76474 1.06703 -1.70114
5.77474 1.08703 -1.70514
5.77274 1.10603 -1.70614
5.76174 1.12303 -1.70314
5.77274 1.14403 -1.70814
5.75874 1.16003 -1.70514
5.75274 1.16803 -1.70314
5.76574 1.18903 -1.70914
5.75474 1.20603 -1.70614
5.74574 1.22303 -1.70514
5.73774 1.24003 -1.70314
5.74674 1.26103 -1.70814
5.73174 1.27603 -1.70414
5.74074 1.28803 -1.70814
5.73074 1.30503 -1.70614
5.72874 1.32303 -1.70614
5.73374 1.34303 -1.70914
5.72374 1.36003 -1.70814
5.71774 1.37803 -1.70714
5.72274 1.39803 -1.71014
5.70374 1.40303 -1.70514
5.70474 1.42203 -1.70614
5.70274 1.44003 -1.70714
5.69774 1.45803 -1.70714
5.69474 1.47703 -1.70814
5.69774 1.49703 -1.71014
5.68074 1.51103 -1.70614
5.71274 1.52903 -1.71714
5.69174 1.54303 -1.71214
5.68674 1.56103 -1.71214
5.69074 1.58103 -1.71514
5.68374 1.59803 -1.71414
5.68674 1.61803 -1.71614
5.68174 1.63603 -1.71614
5.68974 1.64803 -1.72014
5.68274 1.66603 -1.71914
5.61174 1.87803 -1.71814
5.59674 1.91203 -1.71714
5.59574 1.93103 -1.71914
5.57774 1.94403 -1.71514
5.57074 1.96203 -1.71514
5.55574 1.97603 -1.71214
5.56574 1.98903 -1.71614
5.54474 2.00103 -1.71114
5.53674 2.01803 -1.71114
5.52274 2.03303 -1.70814
5.52974 2.05503 -1.71214
5.49974 2.06303 -1.70514
5.50074 2.08303 -1.70714
5.47474 2.14303 -1.70614
5.46874 2.18003 -1.70914
5.45174 -2.12397 -1.69714
5.46774 -2.10997 -1.70014
5.46874 -2.09097 -1.69914
5.48074 -2.07597 -1.70014
5.48374 -2.05697 -1.69914
5.48674 -2.03897 -1.69814
5.49774 -2.02397 -1.70014
5.49374 -2.01197 -1.69714
5.49674 -1.99397 -1.69614
5.50274 -1.97697 -1.69614
5.51274 -1.96097 -1.69714
5.51674 -1.94297 -1.69714
5.51274 -1.92197 -1.69314
5.51874 -1.90397 -1.69314
5.52274 -1.89597 -1.69414
5.52574 -1.87797 -1.69314
5.54374 -1.86397 -1.69714
5.54274 -1.84497 -1.69514
5.54674 -1.82697 -1.69414
5.55074 -1.80897 -1.69314
5.56674 -1.79497 -1.69714
5.56274 -1.78397 -1.69514
5.58274 -1.77097 -1.69914
5.56674 -1.74597 -1.69214
5.57574 -1.72997 -1.69314
5.57674 -1.71097 -1.69214
5.58574 -1.69497 -1.69314
5.58474 -1.68497 -1.69214
5.60174 -1.67097 -1.69614
5.59974 -1.65097 -1.69314
5.60474 -1.63297 -1.69314
5.60574 -1.61497 -1.69214
5.60774 -1.59597 -1.69114
5.61374 -1.57897 -1.69214
5.62874 -1.56397 -1.69514
5.62474 -1.55297 -1.69314
5.62474 -1.53397 -1.69114
5.63474 -1.51797 -1.69314
5.64674 -1.50197 -1.69514
5.65174 -1.48497 -1.69514
5.65074 -1.46497 -1.69314
5.66974 -1.46097 -1.69914
5.65774 -1.43897 -1.69314
5.65074 -1.41797 -1.69014
5.65574 -1.39997 -1.69014
5.66374 -1.38397 -1.69114
5.69274 -1.35297 -1.69714
5.66874 -1.33797 -1.68914
5.67474 -1.31997 -1.69014
5.69974 -1.30697 -1.69614
5.67874 -1.28397 -1.68914
5.70374 -1.26997 -1.69514
5.70374 -1.25197 -1.69414
5.69674 -1.23097 -1.69014
5.71874 -1.22697 -1.69714
5.70574 -1.20497 -1.69214
5.71174 -1.18797 -1.69214
5.70574 -1.16797 -1.68914
5.72274 -1.15297 -1.69314
5.71874 -1.11397 -1.69014
5.73474 -1.09897 -1.69414
5.72374 -1.08797 -1.69014
5.72374 -1.06897 -1.68914
5.74574 -1.05397 -1.69514
5.73574 -1.03397 -1.69014
5.74374 -0.997974 -1.69114
5.75674 -0.981974 -1.69414
5.75374 -0.952974 -1.69214
5.76174 -0.935974 -1.69314
5.76174 -0.898974 -1.69214
5.76774 -0.862974 -1.69214
5.76574 -0.852974 -1.69014
5.76574 -0.834974 -1.69014
5.78174 -0.817974 -1.69414
5.78074 -0.799974 -1.69314
5.77374 -0.779974 -1.69014
5.78774 -0.763974 -1.69314
5.78974 -0.698974 -1.69214
5.80174 -0.681974 -1.69514
5.80574 -0.645974 -1.69514
5.80874 -0.599974 -1.69414
5.82374 -0.545974 -1.69714
5.80774 -0.507974 -1.69114
5.81074 -0.498974 -1.69214
5.82874 -0.463974 -1.69614
5.81674 -0.425974 -1.69214
5.82074 -0.388974 -1.69214
5.83474 -0.380974 -1.69614
5.82774 -0.306974 -1.69314
5.84174 -0.288974 -1.69714
5.82374 -0.269974 -1.69114
5.82374 -0.260974 -1.69114
5.84374 -0.243974 -1.69714
5.83374 -0.224974 -1.69314
5.84974 -0.206974 -1.69814
5.84374 -0.151974 -1.69614
5.82974 -0.141974 -1.69214
5.84774 -0.123974 -1.69714
5.83274 -0.105974 -1.69214
5.85274 -0.086974 -1.69814
5.83574 -0.068974 -1.69314
5.83974 -0.050974 -1.69414
5.84174 -0.040974 -1.69514
5.84674 -0.022974 -1.69614
5.84374 -0.00497402 -1.69514
5.70574 0.00402598 -1.71214
5.70574 0.022026 -1.71214
5.69574 0.030026 -1.70914
5.69574 0.084026 -1.70914
5.69174 0.102026 -1.70814
5.70674 0.120026 -1.71314
5.69874 0.138026 -1.71114
5.69974 0.147026 -1.71114
5.70574 0.165026 -1.71314
5.70274 0.183026 -1.71214
5.70574 0.201026 -1.71414
5.70574 0.219026 -1.71414
5.69674 0.236026 -1.71114
5.70274 0.246026 -1.71314
5.69574 0.263026 -1.71114
5.70274 0.282026 -1.71414
5.70374 0.300026 -1.71414
5.69474 0.317026 -1.71214
5.70074 0.353026 -1.71414
5.69474 0.380026 -1.71314
5.69374 0.398026 -1.71314
5.69674 0.434026 -1.71514
5.67874 0.469026 -1.71014
5.69074 0.487026 -1.71414
5.68374 0.496026 -1.71214
5.68074 0.532026 -1.71214
5.68674 0.550026 -1.71514
5.67774 0.567026 -1.71214
5.68474 0.586026 -1.71514
5.66574 0.602026 -1.71014
5.67674 0.630026 -1.71414
5.67274 0.648026 -1.71414
5.67374 0.684026 -1.71514
5.65074 0.700026 -1.70914
5.66674 0.729026 -1.71514
5.66074 0.746026 -1.71414
5.66174 0.782026 -1.71514
5.64174 0.798026 -1.71014
5.65174 0.835026 -1.71514
5.65674 0.845026 -1.71714
5.64174 0.879026 -1.71414
5.64574 0.916026 -1.71714
5.64474 0.934026 -1.71714
5.62574 1.04903 -1.71814
5.62274 1.06703 -1.71814
5.61174 1.09203 -1.71614
5.61574 1.11203 -1.71814
5.57974 1.27903 -1.71814
5.57774 1.29703 -1.71914
5.57174 1.32303 -1.71914
5.54474 1.41803 -1.71814
5.51174 1.56803 -1.72014
5.40174 1.95803 -1.72514
5.37774 1.99703 -1.72214
5.37974 2.01703 -1.72514
5.37174 2.03403 -1.72514
5.35674 2.04703 -1.72214
5.35174 2.06503 -1.72214
5.35374 2.08503 -1.72514
5.33874 2.08803 -1.72114
5.32174 2.10103 -1.71714
5.32874 2.12303 -1.72214
5.31174 2.13603 -1.71814
5.31174 2.15503 -1.72114
5.31374 2.17603 -1.72414
5.29674 2.18803 -1.72014
5.29274 2.19603 -1.72014
5.28974 2.21403 -1.72214
5.26474 2.22403 -1.71514
5.25574 2.23903 -1.71514
5.26174 2.26103 -1.71914
5.25074 2.27603 -1.71814
5.23974 2.29103 -1.71714
5.23974 2.30103 -1.71814
5.22074 2.31203 -1.71414
5.22374 2.33303 -1.71714
5.22174 2.35203 -1.71914
5.19674 2.36003 -1.71314
5.19074 2.37703 -1.71414
5.19074 2.39703 -1.71614
5.17974 2.40203 -1.71414
5.18474 2.42403 -1.71814
5.17874 2.44103 -1.71814
5.15874 2.45103 -1.71414
5.14874 2.46703 -1.71414
5.15374 2.48903 -1.71814
5.13174 2.49803 -1.71314
5.13474 2.51003 -1.71514
5.11974 2.52203 -1.71314
5.07574 2.61103 -1.71314
5.05574 2.66103 -1.71514
5.04374 2.67503 -1.71414
5.03774 2.69203 -1.71414
5.03274 2.70903 -1.71514
5.01474 2.73003 -1.71414
4.86374 3.01603 -1.71814
4.84474 3.05703 -1.72014
4.83374 3.07203 -1.71914
4.79774 3.12403 -1.71814
4.76974 3.17003 -1.71914
5.21274 -2.16497 -1.69314
5.21474 -2.14597 -1.69114
5.23374 -2.13497 -1.69514
5.23374 -2.11597 -1.69314
5.24774 -2.11197 -1.69714
5.27374 -2.10297 -1.70314
5.28374 -2.08797 -1.70414
5.29874 -2.07497 -1.70814
5.29774 -2.05497 -1.70514
5.31174 -2.04197 -1.70814
5.31474 -2.02297 -1.70614
5.31574 -2.01397 -1.70614
5.32074 -1.99697 -1.70514
5.32974 -1.96197 -1.70414
5.34974 -1.95097 -1.70914
5.35374 -1.93297 -1.70814
5.35374 -1.92397 -1.70714
5.36274 -1.90797 -1.70814
5.36174 -1.88897 -1.70614
5.36574 -1.87097 -1.70514
5.36874 -1.85297 -1.70414
5.38274 -1.83897 -1.70714
5.38674 -1.82197 -1.70614
5.38874 -1.80397 -1.70514
5.40074 -1.77897 -1.70614
5.41174 -1.76397 -1.70814
5.41274 -1.74497 -1.70614
5.42274 -1.72997 -1.70814
5.43174 -1.70497 -1.70814
5.43274 -1.66797 -1.70514
5.44874 -1.65397 -1.70914
5.44274 -1.63297 -1.70514
5.45874 -1.61997 -1.70914
5.46574 -1.60297 -1.70914
5.45374 -1.58997 -1.70414
5.47874 -1.55997 -1.70914
5.47974 -1.54197 -1.70814
5.48474 -1.52397 -1.70814
5.48974 -1.50697 -1.70814
5.47974 -1.48597 -1.70314
5.49774 -1.48197 -1.70914
5.49874 -1.46397 -1.70814
5.49474 -1.44397 -1.70414
5.50074 -1.42697 -1.70514
5.51474 -1.41197 -1.70814
5.50574 -1.39197 -1.70414
5.52174 -1.37697 -1.70814
5.51274 -1.35597 -1.70314
5.50174 -1.34497 -1.69914
5.51374 -1.32897 -1.70114
5.53274 -1.31497 -1.70614
5.53074 -1.29697 -1.70414
5.54274 -1.28097 -1.70714
5.52974 -1.25997 -1.70114
5.54274 -1.24397 -1.70414
5.53574 -1.23397 -1.70114
5.55074 -1.21897 -1.70514
5.53974 -1.19797 -1.70014
5.54474 -1.18097 -1.70114
5.56374 -1.16697 -1.70614
5.55474 -1.14597 -1.70114
5.55974 -1.12897 -1.70214
5.56174 -1.12097 -1.70214
5.55574 -1.10097 -1.69914
5.56474 -1.08497 -1.70114
5.58274 -1.06997 -1.70614
5.55674 -1.04697 -1.69614
5.57874 -1.03297 -1.70214
5.59674 -1.01797 -1.70714
5.58174 -1.00697 -1.70114
5.57674 -0.987974 -1.69914
5.60474 -0.973974 -1.70714
5.59274 -0.953974 -1.70214
5.58574 -0.934974 -1.69914
5.61174 -0.920974 -1.70614
5.58674 -0.898974 -1.69714
5.61374 -0.894974 -1.70614
5.61674 -0.876974 -1.70614
5.60674 -0.856974 -1.70114
5.61474 -0.839974 -1.70314
5.62874 -0.823974 -1.70714
5.61774 -0.804974 -1.70314
5.62574 -0.787974 -1.70414
5.63274 -0.779974 -1.70614
5.62174 -0.759974 -1.70214
5.61874 -0.741974 -1.70014
5.62674 -0.724974 -1.70214
5.62574 -0.706974 -1.70114
5.62574 -0.688974 -1.70014
5.63874 -0.672974 -1.70414
5.62674 -0.661974 -1.70014
5.62474 -0.643974 -1.69814
5.63274 -0.626974 -1.70014
5.63074 -0.608974 -1.69914
5.63874 -0.591974 -1.70114
5.64074 -0.573974 -1.70114
5.63674 -0.555974 -1.69914
5.63974 -0.546974 -1.70014
5.64674 -0.529974 -1.70114
5.65374 -0.512974 -1.70314
5.63274 -0.492974 -1.69614
5.65874 -0.476974 -1.70414
5.65274 -0.458974 -1.70114
5.65974 -0.441974 -1.70314
5.64974 -0.431974 -1.70014
5.64674 -0.413974 -1.69814
5.65974 -0.396974 -1.70214
5.65674 -0.378974 -1.70114
5.67374 -0.361974 -1.70614
5.66074 -0.343974 -1.70114
5.66774 -0.334974 -1.70314
5.66674 -0.316974 -1.70314
5.67874 -0.299974 -1.70614
5.67974 -0.281974 -1.70614
5.66774 -0.263974 -1.70214
5.65874 -0.244974 -1.69914
5.68174 -0.228974 -1.70614
5.66874 -0.218974 -1.70214
5.67174 -0.200974 -1.70314
5.68974 -0.183974 -1.70814
5.68474 -0.165974 -1.70614
5.68674 -0.147974 -1.70714
5.69274 -0.130974 -1.70914
5.68974 -0.112974 -1.70814
5.69374 -0.094974 -1.70914
5.69974 -0.085974 -1.71114
5.69374 -0.067974 -1.70914
5.69374 -0.049974 -1.70914
5.70174 -0.031974 -1.71114
5.68074 -0.013974 -1.70414
5.46774 0.00202598 -1.69914
5.45974 0.019026 -1.69714
5.45974 0.036026 -1.69714
5.45974 0.070026 -1.69714
5.46674 0.088026 -1.69914
5.47174 0.114026 -1.70114
5.46574 0.131026 -1.69914
5.46574 0.148026 -1.69914
5.46474 0.165026 -1.69914
5.47374 0.182026 -1.70214
5.46574 0.199026 -1.70014
5.47074 0.225026 -1.70214
5.46274 0.277026 -1.70014
5.45974 0.294026 -1.69914
5.45474 0.311026 -1.69814
5.47074 0.329026 -1.70314
5.46874 0.337026 -1.70314
5.47274 0.355026 -1.70514
5.47974 0.373026 -1.70714
5.46274 0.389026 -1.70214
5.45974 0.406026 -1.70214
5.46574 0.423026 -1.70414
5.45374 0.440026 -1.70014
5.46074 0.449026 -1.70314
5.45874 0.466026 -1.70314
5.44574 0.482026 -1.69914
5.46574 0.501026 -1.70614
5.45574 0.518026 -1.70314
5.45974 0.535026 -1.70514
5.46574 0.553026 -1.70814
5.45574 0.561026 -1.70514
5.45174 0.578026 -1.70414
5.44874 0.612026 -1.70414
5.44474 0.629026 -1.70314
5.44074 0.646026 -1.70314
5.44074 0.663026 -1.70314
5.43774 0.671026 -1.70314
5.45374 0.691026 -1.70914
5.44674 0.707026 -1.70714
5.45174 0.725026 -1.71014
5.43574 0.741026 -1.70514
5.43974 0.759026 -1.70714
5.42774 0.774026 -1.70414
5.42274 0.782026 -1.70314
5.41874 0.799026 -1.70214
5.42174 0.817026 -1.70414
5.42474 0.835026 -1.70614
5.42374 0.852026 -1.70714
5.42274 0.870026 -1.70714
5.42974 0.888026 -1.71014
5.42474 0.896026 -1.70914
5.42074 0.930026 -1.71014
5.40474 0.945026 -1.70514
5.41074 0.964026 -1.70914
5.40374 0.980026 -1.70714
5.41374 1.00003 -1.71214
5.39774 1.00503 -1.70714
5.40174 1.02403 -1.70914
5.40174 1.04103 -1.71014
5.37974 1.05503 -1.70414
5.37674 1.07103 -1.70414
5.38274 1.09003 -1.70714
5.37774 1.10703 -1.70714
5.37174 1.11403 -1.70514
5.37774 1.13303 -1.70914
5.38574 1.15303 -1.71214
5.38374 1.17003 -1.71314
5.37074 1.18503 -1.71014
5.36074 1.20003 -1.70814
5.36674 1.21903 -1.71114
5.36874 1.22903 -1.71214
5.35174 1.24203 -1.70814
5.35674 1.26103 -1.71114
5.35074 1.27803 -1.71014
5.34474 1.29403 -1.71014
5.34074 1.31103 -1.71014
5.33374 1.32703 -1.70914
5.34574 1.33903 -1.71414
5.33774 1.35503 -1.71214
5.32974 1.37103 -1.71114
5.31674 1.38503 -1.70814
5.32474 1.40503 -1.71214
5.32774 1.42403 -1.71514
5.30674 1.43603 -1.70914
5.32874 1.45103 -1.71714
5.31874 1.46603 -1.71514
5.31174 1.48203 -1.71514
5.30174 1.49703 -1.71314
5.30574 1.51703 -1.71614
5.28874 1.53003 -1.71214
5.28574 1.54703 -1.71214
5.29974 1.56003 -1.71814
5.28574 1.57403 -1.71514
5.29474 1.59503 -1.72014
5.28774 1.61103 -1.71914
5.27974 1.62603 -1.71814
5.29474 1.64903 -1.72514
5.28774 1.66503 -1.72414
5.28474 1.67403 -1.72414
5.25074 1.77203 -1.72414
5.23674 1.79503 -1.72214
5.22174 1.80803 -1.71914
5.20174 1.82003 -1.71414
5.19074 1.83403 -1.71214
5.18874 1.85203 -1.71314
5.17574 1.86503 -1.71014
5.17474 1.87403 -1.71114
5.16474 1.88903 -1.71014
5.15574 1.90403 -1.70914
5.15174 1.92103 -1.70914
4.99774 -2.17997 -1.69414
5.01674 -2.16897 -1.69814
5.03574 -2.15897 -1.70314
5.02974 -2.13797 -1.69814
5.03874 -2.12197 -1.69914
5.04574 -2.10697 -1.69914
5.05574 -2.09197 -1.70014
5.05874 -2.07497 -1.69914
5.05474 -2.06397 -1.69714
5.06474 -2.04997 -1.69814
5.06074 -2.02997 -1.69414
5.07174 -2.01597 -1.69614
5.07674 -1.99897 -1.69514
5.07974 -1.98197 -1.69414
5.08774 -1.97597 -1.69614
5.08874 -1.95797 -1.69414
5.11074 -1.94797 -1.70014
5.11374 -1.92997 -1.69814
5.11574 -1.91297 -1.69714
5.12674 -1.89897 -1.69914
5.13074 -1.88197 -1.69814
5.12474 -1.87097 -1.69514
5.13274 -1.85497 -1.69614
5.12974 -1.83597 -1.69314
5.14674 -1.80597 -1.69514
5.15974 -1.79197 -1.69714
5.15374 -1.77197 -1.69314
5.16374 -1.76597 -1.69614
5.17474 -1.75197 -1.69814
5.17474 -1.73397 -1.69614
5.17374 -1.71497 -1.69314
5.18774 -1.70197 -1.69714
5.18174 -1.68197 -1.69314
5.21474 -1.65597 -1.70014
5.20074 -1.62497 -1.69314
5.21674 -1.61197 -1.69714
5.22574 -1.56097 -1.69514
5.22874 -1.54397 -1.69414
5.24074 -1.53897 -1.69714
5.24874 -1.52297 -1.69814
5.24074 -1.50297 -1.69414
5.24674 -1.46897 -1.69314
5.26374 -1.42897 -1.69514
5.27374 -1.39697 -1.69514
5.27874 -1.37997 -1.69514
5.28374 -1.34597 -1.69414
5.28574 -1.32897 -1.69314
5.30574 -1.28997 -1.69714
5.30774 -1.23697 -1.69314
5.31174 -1.21197 -1.69314
5.32874 -1.19797 -1.69714
5.32874 -1.14597 -1.69314
5.33374 -1.11197 -1.69314
5.33774 -1.10397 -1.69314
5.35874 -1.00297 -1.69414
5.36074 -0.994974 -1.69414
5.42774 -0.536974 -1.69514
5.44974 -0.392974 -1.69814
5.45174 -0.263974 -1.69614
5.45374 -0.203974 -1.69614
5.46574 -0.00697402 -1.69814
5.31974 0.123026 -1.70014
5.31574 0.139026 -1.69914
5.31874 0.156026 -1.70014
5.31774 0.181026 -1.70014
5.31974 0.198026 -1.70014
5.31474 0.214026 -1.69914
5.31374 0.231026 -1.69914
5.31874 0.248026 -1.70114
5.31274 0.290026 -1.70014
5.32374 0.307026 -1.70414
5.32774 0.324026 -1.70614
5.33474 0.341026 -1.70814
5.30974 0.373026 -1.70014
5.31074 0.382026 -1.70114
5.30074 0.507026 -1.70114
5.30274 0.524026 -1.70214
5.29974 0.540026 -1.70214
5.30374 0.591026 -1.70514
5.30074 0.599026 -1.70414
5.28874 0.615026 -1.70114
5.29474 0.632026 -1.70414
5.29674 0.649026 -1.70514
5.29974 0.667026 -1.70714
5.29574 0.683026 -1.70614
5.28474 0.698026 -1.70314
5.29074 0.708026 -1.70614
5.28274 0.724026 -1.70414
5.28874 0.741026 -1.70614
5.27274 0.756026 -1.70214
5.27574 0.790026 -1.70414
5.27274 0.807026 -1.70414
5.28074 0.816026 -1.70814
5.26574 0.831026 -1.70314
5.26274 0.848026 -1.70314
5.27874 0.867026 -1.71014
5.25374 0.914026 -1.70414
5.25774 0.923026 -1.70614
5.25174 0.956026 -1.70614
5.24674 0.972026 -1.70514
5.24574 1.00603 -1.70714
5.24274 1.02303 -1.70714
5.23474 1.04703 -1.70614
5.22774 1.06303 -1.70414
5.22574 1.07903 -1.70514
5.22974 1.11403 -1.70914
5.22274 1.13003 -1.70814
5.22074 1.13803 -1.70814
5.22674 1.15703 -1.71114
5.20674 1.16903 -1.70514
5.19874 1.20203 -1.70514
5.20674 1.22103 -1.70914
5.20474 1.23803 -1.71014
5.19474 1.24403 -1.70714
5.19474 1.26103 -1.70814
5.19774 1.28003 -1.71114
5.18474 1.29403 -1.70814
5.18274 1.31003 -1.70814
5.17474 1.32603 -1.70714
5.16874 1.34103 -1.70614
5.17174 1.35103 -1.70814
5.16774 1.36703 -1.70814
5.16174 1.38303 -1.70814
5.16474 1.40103 -1.71014
5.16574 1.41903 -1.71214
5.15774 1.43403 -1.71114
5.14474 1.49203 -1.71214
5.12974 1.50503 -1.70814
5.13974 1.52503 -1.71314
5.13274 1.54103 -1.71314
5.12774 1.55703 -1.71314
5.13074 1.56703 -1.71514
5.12574 1.58303 -1.71514
5.11674 1.59803 -1.71314
5.11574 1.61503 -1.71514
5.11774 1.63303 -1.71714
5.10574 1.64703 -1.71514
5.12574 1.67103 -1.72414
5.10274 1.67303 -1.71714
5.09974 1.68903 -1.71714
5.11074 1.71103 -1.72314
5.10374 1.72603 -1.72214
5.10174 1.74303 -1.72414
5.10474 1.76203 -1.72714
5.06374 1.76603 -1.71414
5.05674 1.77303 -1.71314
5.05874 1.79103 -1.71514
5.04774 1.80503 -1.71314
5.03274 1.83603 -1.71214
5.01574 1.86503 -1.71014
4.82474 -2.20897 -1.69514
4.84374 -2.19897 -1.69914
4.84474 -2.18197 -1.69714
4.84474 -2.17197 -1.69614
4.86374 -2.16297 -1.70014
4.88074 -2.15197 -1.70414
4.88574 -2.13597 -1.70414
4.89774 -2.12297 -1.70614
4.88574 -2.09897 -1.69914
4.89574 -2.08497 -1.70014
4.89574 -2.07597 -1.69914
4.91574 -2.06697 -1.70414
4.91874 -2.04997 -1.70214
4.90774 -2.02697 -1.69614
4.94674 -2.02497 -1.70814
4.94874 -2.00797 -1.70614
4.92974 -1.97297 -1.69614
4.96574 -1.96897 -1.70714
4.96574 -1.93297 -1.70214
4.96874 -1.86297 -1.69514
4.99274 -1.84497 -1.70014
5.01174 -1.79897 -1.70114
5.03174 -1.72597 -1.69914
5.05874 -1.69997 -1.70514
5.04774 -1.65197 -1.69714
5.06774 -1.64097 -1.70214
5.07174 -1.57197 -1.69614
5.12274 -1.44797 -1.70014
5.17174 -1.26197 -1.70014
5.17474 -1.24497 -1.70014
5.16574 -1.23497 -1.69714
5.18274 -1.20397 -1.70014
5.18074 -1.18697 -1.69814
5.17774 -1.16897 -1.69514
5.19174 -1.13797 -1.69814
5.19574 -1.12997 -1.69914
5.20274 -1.11497 -1.70014
5.19574 -1.09597 -1.69614
5.20574 -1.08097 -1.69914
5.21474 -1.06597 -1.70014
5.20674 -1.02997 -1.69514
5.20974 -1.00497 -1.69514
5.21474 -0.988974 -1.69514
5.23274 -0.975974 -1.70014
5.22974 -0.940974 -1.69714
5.24674 -0.884974 -1.70014
5.23874 -0.865974 -1.69614
5.26474 -0.810974 -1.70214
5.25574 -0.792974 -1.69814
5.26074 -0.742974 -1.69714
5.27074 -0.685974 -1.69814
5.28274 -0.619974 -1.69914
5.27974 -0.593974 -1.69714
5.28774 -0.560974 -1.69914
5.28374 -0.543974 -1.69714
5.29274 -0.511974 -1.69914
5.29074 -0.494974 -1.69714
5.29074 -0.485974 -1.69714
5.30374 -0.470974 -1.70114
5.29774 -0.452974 -1.69914
5.29974 -0.436974 -1.69914
5.30174 -0.327974 -1.69714
5.31374 -0.311974 -1.70014
5.30574 -0.294974 -1.69714
5.31374 -0.278974 -1.70014
5.32474 -0.253974 -1.70314
5.32874 -0.144974 -1.70314
5.33074 -0.128974 -1.70414
5.32574 -0.111974 -1.70214
5.32974 -0.094974 -1.70314
5.33574 -0.077974 -1.70514
5.32674 -0.060974 -1.70214
5.32874 -0.052974 -1.70214
5.32274 -0.019974 -1.70014
5.17474 0.013026 -1.70314
5.18874 0.021026 -1.70814
5.18674 0.037026 -1.70714
5.18974 0.054026 -1.70914
5.18774 0.070026 -1.70814
5.19174 0.086026 -1.70914
5.19874 0.103026 -1.71214
5.17774 0.119026 -1.70514
5.18874 0.127026 -1.70914
5.18974 0.144026 -1.70914
5.18574 0.160026 -1.70814
5.17974 0.176026 -1.70614
5.18074 0.192026 -1.70714
5.18774 0.209026 -1.70914
5.17774 0.225026 -1.70614
5.17974 0.233026 -1.70714
5.18374 0.249026 -1.70914
5.19674 0.266026 -1.71314
5.18674 0.282026 -1.71014
5.18374 0.298026 -1.70914
5.18274 0.315026 -1.70914
5.18574 0.331026 -1.71114
5.18874 0.340026 -1.71214
5.17974 0.355026 -1.70914
5.18274 0.372026 -1.71114
5.16774 0.387026 -1.70614
5.18574 0.405026 -1.71314
5.17674 0.421026 -1.71014
5.17774 0.437026 -1.71114
5.18474 0.446026 -1.71314
5.17774 0.462026 -1.71114
5.17174 0.478026 -1.71014
5.15874 0.493026 -1.70614
5.17674 0.511026 -1.71314
5.16874 0.526026 -1.71114
5.17074 0.543026 -1.71214
5.15774 0.550026 -1.70714
5.18174 0.569026 -1.71714
5.17774 0.585026 -1.71614
5.17474 0.601026 -1.71514
5.16274 0.616026 -1.71214
5.16474 0.633026 -1.71314
5.17074 0.650026 -1.71614
5.16774 0.658026 -1.71514
5.15774 0.673026 -1.71314
5.16174 0.690026 -1.71514
5.16074 0.707026 -1.71514
5.16274 0.723026 -1.71714
5.15874 0.739026 -1.71614
5.14274 0.753026 -1.71114
5.14774 0.762026 -1.71314
5.14274 0.778026 -1.71314
5.14074 0.794026 -1.71314
5.15074 0.813026 -1.71714
5.13874 0.827026 -1.71414
5.12674 0.842026 -1.71114
5.12874 0.859026 -1.71214
5.12874 0.867026 -1.71314
5.13174 0.884026 -1.71514
5.11574 0.898026 -1.71014
5.11474 0.914026 -1.71114
5.11774 0.931026 -1.71314
5.12374 0.949026 -1.71614
5.11674 0.965026 -1.71514
5.10474 0.971026 -1.71114
5.11074 0.988026 -1.71414
5.10974 1.00503 -1.71514
5.10974 1.02203 -1.71614
5.10074 1.03703 -1.71414
5.09574 1.05203 -1.71314
5.10174 1.07003 -1.71714
5.08774 1.07503 -1.71214
5.09674 1.09403 -1.71714
5.08574 1.10903 -1.71414
5.08474 1.12503 -1.71514
5.07474 1.14003 -1.71314
5.06574 1.15403 -1.71114
5.06974 1.17203 -1.71314
5.06274 1.17903 -1.71114
5.07174 1.19803 -1.71614
5.06974 1.21403 -1.71714
5.05474 1.22703 -1.71314
5.07074 1.24803 -1.72014
5.05574 1.26103 -1.71614
5.04074 1.27403 -1.71214
5.06074 1.28803 -1.72014
5.04374 1.30003 -1.71514
5.03474 1.31503 -1.71314
5.03774 1.33303 -1.71614
5.02774 1.34703 -1.71414
5.01974 1.36203 -1.71314
5.03774 1.38403 -1.72114
5.03174 1.39003 -1.71914
5.02374 1.40503 -1.71814
5.02274 1.42203 -1.71914
5.01474 1.43703 -1.71814
4.99574 1.44803 -1.71314
5.00974 1.46903 -1.71914
4.98674 1.48003 -1.71314
4.99374 1.49003 -1.71614
4.99774 1.50903 -1.71914
4.99274 1.52403 -1.71914
4.99874 1.54303 -1.72314
4.99774 1.56003 -1.72514
4.98574 1.57403 -1.72214
4.98574 1.59103 -1.72414
4.97674 1.61403 -1.72314
4.97874 1.63203 -1.72614
4.96274 1.66103 -1.72414
4.96974 1.68103 -1.72914
4.93174 1.74603 -1.72314
4.91074 1.75603 -1.71714
4.91174 1.77403 -1.72014
4.89574 1.78503 -1.71614
4.88574 1.79003 -1.71314
4.89274 1.81003 -1.71814
4.87474 1.82103 -1.71314
4.86674 1.83603 -1.71314
4.86274 1.85203 -1.71314
4.34574 2.92003 -1.72514
4.64474 -2.26097 -1.70014
4.68274 -2.26097 -1.71214
4.67374 -2.24797 -1.70714
4.67774 -2.23197 -1.70614
4.68974 -2.21897 -1.70814
4.68474 -2.19897 -1.70314
4.70574 -2.19097 -1.70914
4.72974 -2.18397 -1.71514
4.73274 -2.14897 -1.71114
4.74674 -2.14697 -1.71514
4.73574 -2.12397 -1.70914
4.74974 -2.11197 -1.71114
4.76674 -2.10197 -1.71514
4.75874 -2.08097 -1.71014
