5.27103 5.33898 -0.0438129
5.22603 5.32798 -0.0418129
5.18503 5.31998 -0.0408129
5.14803 5.31398 -0.0398129
5.10303 5.30198 -0.0388129
5.08003 5.29398 -0.0378129
5.05203 5.29898 -0.0378129
5.00903 5.28698 -0.0368129
4.97303 5.28198 -0.0358129
4.94303 5.28298 -0.0348129
4.89503 5.26498 -0.0338129
4.86303 5.26498 -0.0328129
4.84003 5.25598 -0.0318129
3.96603 5.08798 -0.00981286
3.93703 5.08298 -0.00881286
3.91603 5.08898 -0.00881286
3.87703 5.07098 -0.00781286
3.85303 5.07398 -0.00781286
3.82803 5.07298 -0.00681286
3.79403 5.06098 -0.00581286
3.78303 5.06398 -0.00581286
3.75103 5.05398 -0.00481286
3.72303 5.04898 -0.00381286
3.68903 5.03698 -0.00281286
3.66603 5.03898 -0.00281286
3.63903 5.03398 -0.00181286
3.61003 5.02798 -0.00181286
3.57903 5.01798 -0.000812857
3.54003 5.01398 0.000187143
3.51303 5.00798 0.00118714
3.46103 5.00098 0.00218714
3.43103 4.99198 0.00218714
3.41003 4.99498 0.00318714
3.37203 4.98898 0.00418714
3.32103 4.98198 0.00518714
3.29203 4.97198 0.00618714
2.45303 4.81298 0.0231871
2.43103 4.80798 0.0241871
2.41303 4.80998 0.0241871
2.39003 4.80198 0.0251871
2.36903 4.79698 0.0251871
2.34903 4.79498 0.0251871
2.32903 4.79198 0.0261871
2.31803 4.78798 0.0261871
2.29703 4.78498 0.0261871
2.26003 4.78498 0.0271871
2.23703 4.77398 0.0281871
2.22003 4.77698 0.0281871
2.19903 4.77198 0.0281871
2.16903 4.76498 0.0291871
2.12803 4.75398 0.0301871
2.09403 4.75798 0.0301871
2.07203 4.74998 0.0311871
2.06003 4.74198 0.0311871
2.04403 4.74598 0.0311871
2.02103 4.73498 0.0321871
1.98903 4.74198 0.0321871
1.96603 4.72798 0.0331871
1.94503 4.72098 0.0331871
1.93703 4.72198 0.0331871
1.91803 4.71698 0.0331871
1.86403 4.71098 0.0341871
1.84403 4.70498 0.0351871
1.82603 4.70198 0.0351871
1.81603 4.69698 0.0351871
1.79603 4.69198 0.0361871
1.77903 4.68998 0.0361871
1.76103 4.68798 0.0361871
1.72503 4.67998 0.0371871
1.70803 4.67998 0.0371871
1.69803 4.67498 0.0371871
1.66203 4.66898 0.0381871
1.64903 4.67798 0.0381871
1.62803 4.66398 0.0381871
1.61403 4.67098 0.0381871
1.59403 4.66298 0.0391871
1.57503 4.65498 0.0391871
1.56603 4.65198 0.0391871
1.55203 4.65998 0.0391871
1.53503 4.65798 0.0391871
1.51903 4.65698 0.0401871
1.49803 4.64198 0.0401871
1.48103 4.63998 0.0401871
1.46603 4.64198 0.0411871
1.45603 4.63698 0.0411871
1.44003 4.63798 0.0411871
1.40603 4.62898 0.0421871
1.38603 4.61898 0.0421871
1.37103 4.61898 0.0421871
1.35703 4.62698 0.0421871
1.33003 4.61598 0.0431871
1.31503 4.61798 0.0431871
1.29703 4.60898 0.0431871
1.27903 4.60198 0.0441871
1.26503 4.60598 0.0441871
1.23903 4.59598 0.0441871
1.22203 4.58998 0.0441871
1.19103 4.58998 0.0451871
1.17603 4.59398 0.0451871
1.15803 4.58398 0.0451871
1.14103 4.57598 0.0451871
1.13603 4.58798 0.0451871
1.11703 4.56998 0.0461871
1.10103 4.56698 0.0461871
1.08803 4.57698 0.0461871
1.06903 4.56298 0.0461871
1.05603 4.57198 0.0461871
1.04003 4.56498 0.0471871
1.02203 4.55498 0.0471871
0.999034 4.55198 0.0471871
0.983034 4.54698 0.0471871
0.954034 4.54898 0.0481871
0.913034 4.53298 0.0481871
0.897034 4.52998 0.0491871
0.716034 4.50198 0.0501871
0.702034 4.50198 0.0511871
0.642034 4.48698 0.0511871
0.604034 4.47598 0.0521871
0.590034 4.47598 0.0521871
0.576034 4.47498 0.0521871
0.546034 4.46898 0.0521871
0.531034 4.46298 0.0531871
0.524034 4.46598 0.0521871
0.480034 4.45398 0.0531871
0.415034 4.44098 0.0541871
0.372034 4.43298 0.0541871
0.359034 4.43598 0.0541871
0.345034 4.44298 0.0541871
0.331034 4.43598 0.0541871
0.280034 4.41698 0.0551871
0.252034 4.41698 0.0551871
0.232034 4.41798 0.0551871
0.218034 4.41698 0.0551871
0.189034 4.40798 0.0551871
0.161034 4.39498 0.0561871
0.141034 4.40998 0.0551871
3.66303 5.04998 -0.0448129
2.52903 4.83398 -0.0138129
2.26703 4.79698 -0.00881286
1.59403 4.67598 0.00618714
1.53903 4.65398 0.00718714
1.12503 4.57998 0.0141871
0.994034 4.56498 0.0161871
0.978034 4.56298 0.0161871
0.861034 4.53498 0.0181871
0.840034 4.53898 0.0181871
0.793034 4.52298 0.0191871
0.779034 4.52598 0.0191871
0.519034 4.47598 0.0221871
0.447034 4.46598 0.0231871
0.440034 4.46498 0.0231871
0.411034 4.45698 0.0231871
0.354034 4.43998 0.0241871
0.276034 4.42598 0.0251871
0.255034 4.42298 0.0251871
0.226034 4.41298 0.0261871
0.199034 4.41198 0.0261871
0.108034 4.39498 0.0261871
0.0180344 4.37198 0.0271871
8.53703 5.94298 -0.266813
8.12503 5.86798 -0.249813
5.28403 5.34598 -0.138813
5.14703 5.32398 -0.133813
4.96103 5.27998 -0.126813
4.92203 5.27198 -0.124813
4.03703 5.10598 -0.0938129
4.01803 5.11398 -0.0938129
3.69403 5.05398 -0.0828129
3.61003 5.03798 -0.0798129
3.46003 5.01098 -0.0748129
3.43803 5.01198 -0.0748129
2.52403 4.83298 -0.0468129
2.50803 4.83898 -0.0468129
1.36803 4.62498 -0.0188129
1.08503 4.58298 -0.0138129
0.803034 4.52498 -0.00881286
0.787034 4.51498 -0.00781286
0.771034 4.50998 -0.00781286
0.751034 4.51998 -0.00781286
0.720034 4.50798 -0.00681286
0.690034 4.50498 -0.00681286
0.675034 4.50098 -0.00681286
0.668034 4.50198 -0.00681286
0.638034 4.49398 -0.00581286
0.624034 4.49398 -0.00581286
0.609034 4.49398 -0.00581286
0.595034 4.49398 -0.00581286
0.579034 4.48198 -0.00481286
0.572034 4.47898 -0.00481286
0.556034 4.46898 -0.00481286
0.485034 4.46898 -0.00381286
0.463034 4.46398 -0.00381286
0.448034 4.45498 -0.00381286
0.434034 4.45898 -0.00381286
0.404034 4.44298 -0.00281286
0.383034 4.44498 -0.00281286
0.369034 4.43798 -0.00281286
0.355034 4.44198 -0.00281286
0.341034 4.44498 -0.00281286
0.327034 4.43998 -0.00181286
0.298034 4.42998 -0.00181286
0.263034 4.43398 -0.00181286
0.235034 4.42698 -0.00181286
0.206034 4.41498 -0.000812857
0.185034 4.40998 -0.000812857
0.157034 4.40498 0.000187143
0.144034 4.41298 -0.000812857
8.85403 5.99398 -0.340813
8.77403 5.97998 -0.337813
8.69603 5.96598 -0.333813
8.61803 5.95298 -0.330813
8.55603 5.92998 -0.326813
8.49203 5.92398 -0.324813
8.41403 5.90898 -0.320813
8.34203 5.89798 -0.317813
8.26303 5.88098 -0.313813
8.19903 5.87398 -0.310813
8.12403 5.85898 -0.307813
8.06703 5.85598 -0.304813
8.00203 5.82698 -0.301813
7.94503 5.82398 -0.298813
7.88103 5.81598 -0.295813
7.81203 5.80198 -0.292813
7.74703 5.79198 -0.289813
7.62303 5.77398 -0.284813
7.57303 5.75398 -0.281813
7.50703 5.74098 -0.278813
7.45003 5.73398 -0.276813
7.39103 5.72598 -0.273813
7.34303 5.72598 -0.271813
7.21903 5.70198 -0.266813
7.16603 5.67898 -0.263813
7.11003 5.66998 -0.260813
7.04503 5.65398 -0.257813
7.00703 5.65998 -0.256813
6.94903 5.64898 -0.253813
6.88503 5.63298 -0.250813
6.84003 5.63198 -0.249813
6.78903 5.60798 -0.246813
6.73303 5.59698 -0.243813
6.69903 5.60398 -0.242813
6.63103 5.58298 -0.239813
6.58503 5.57898 -0.237813
6.54303 5.57898 -0.235813
6.47703 5.55698 -0.232813
6.44103 5.54398 -0.230813
6.40203 5.54598 -0.229813
6.33503 5.52298 -0.226813
6.29903 5.52498 -0.224813
6.24803 5.51598 -0.222813
6.19503 5.50298 -0.220813
6.15703 5.50398 -0.218813
6.13403 5.49998 -0.217813
6.07503 5.48198 -0.215813
6.02703 5.47298 -0.212813
5.98203 5.46598 -0.211813
5.92903 5.45198 -0.208813
5.89603 5.45598 -0.207813
5.81203 5.42898 -0.203813
5.76703 5.42098 -0.201813
5.72703 5.41698 -0.200813
5.68803 5.41398 -0.198813
5.64103 5.40298 -0.196813
5.61003 5.40698 -0.195813
5.55003 5.38298 -0.192813
5.32103 5.34098 -0.182813
5.27603 5.32998 -0.180813
5.09803 5.29698 -0.173813
5.02803 5.28898 -0.170813
4.93303 5.27198 -0.166813
4.85403 5.25298 -0.163813
4.82103 5.24998 -0.162813
3.99503 5.09798 -0.129813
3.96703 5.09498 -0.128813
3.94403 5.09798 -0.127813
3.89003 5.07798 -0.125813
3.84103 5.07798 -0.123813
3.80403 5.06298 -0.122813
3.74803 5.05298 -0.120813
3.72003 5.04898 -0.119813
3.70603 5.04698 -0.118813
3.68903 5.05698 -0.118813
3.65003 5.03598 -0.116813
3.60303 5.03698 -0.115813
3.56503 5.01798 -0.113813
3.54303 5.01898 -0.112813
3.52803 5.01498 -0.112813
3.47103 5.00098 -0.109813
3.42103 4.99398 -0.108813
3.40303 5.00198 -0.107813
3.37503 4.99398 -0.106813
3.30503 4.97398 -0.104813
2.50403 4.82698 -0.0778129
2.48303 4.82298 -0.0768129
2.46303 4.82198 -0.0768129
2.44303 4.81998 -0.0758129
2.43003 4.81298 -0.0748129
2.41603 4.82298 -0.0758129
2.39603 4.81998 -0.0748129
2.36903 4.80398 -0.0738129
2.31203 4.80098 -0.0718129
2.28803 4.78998 -0.0708129
2.28003 4.79198 -0.0708129
2.23503 4.77498 -0.0688129
2.20403 4.78498 -0.0688129
2.18103 4.77398 -0.0678129
2.16303 4.77498 -0.0678129
2.13603 4.77498 -0.0668129
2.06903 4.74498 -0.0648129
2.03903 4.75598 -0.0648129
2.02903 4.75398 -0.0638129
1.98403 4.73098 -0.0618129
1.94803 4.72698 -0.0608129
1.93003 4.72598 -0.0608129
1.91303 4.72598 -0.0608129
1.84803 4.71298 -0.0588129
1.82703 4.70198 -0.0578129
1.79103 4.69698 -0.0568129
1.72703 4.68398 -0.0548129
1.66103 4.68498 -0.0538129
1.59803 4.66698 -0.0518129
1.58003 4.66298 -0.0518129
1.52103 4.65698 -0.0508129
1.48303 4.63998 -0.0488129
1.46903 4.64398 -0.0488129
1.42503 4.63298 -0.0478129
1.29903 4.60498 -0.0448129
1.28603 4.61298 -0.0448129
1.26603 4.59798 -0.0438129
1.23703 4.60598 -0.0438129
1.14603 4.57998 -0.0418129
1.11503 4.57898 -0.0408129
1.07503 4.56998 -0.0398129
1.05803 4.55998 -0.0398129
1.02803 4.56098 -0.0388129
1.01103 4.55198 -0.0388129
0.974034 4.55198 -0.0378129
0.911034 4.53498 -0.0368129
0.890034 4.54098 -0.0368129
0.873034 4.53198 -0.0358129
0.231034 4.41298 -0.0268129
0.141034 4.40298 -0.0258129
0.0160344 4.37598 -0.0238129
8.78403 5.99098 -0.405813
8.34903 5.90998 -0.382813
8.20503 5.88498 -0.375813
7.04403 5.66798 -0.315813
6.93703 5.65398 -0.310813
6.62003 5.58898 -0.294813
6.57003 5.58298 -0.292813
6.45903 5.55898 -0.286813
6.41603 5.55698 -0.284813
6.33103 5.53698 -0.280813
6.28503 5.53098 -0.278813
6.18103 5.50998 -0.272813
6.13203 5.50098 -0.270813
6.09103 5.49898 -0.268813
6.03403 5.48198 -0.265813
6.00603 5.47398 -0.264813
5.96803 5.47398 -0.262813
5.90503 5.45098 -0.259813
5.87603 5.45898 -0.258813
5.77903 5.43698 -0.253813
5.73603 5.43098 -0.251813
5.70003 5.41398 -0.249813
5.66303 5.41198 -0.247813
5.61803 5.40398 -0.245813
5.57803 5.39898 -0.243813
5.51803 5.37498 -0.240813
5.37303 5.35098 -0.233813
5.33503 5.34698 -0.231813
5.29203 5.33698 -0.229813
5.26103 5.33898 -0.228813
5.17803 5.32198 -0.224813
5.11103 5.30398 -0.221813
4.99403 5.28098 -0.215813
4.07803 5.12398 -0.174813
4.02003 5.11698 -0.172813
3.91103 5.09298 -0.167813
3.45203 4.99798 -0.148813
3.33603 4.97998 -0.143813
3.31503 4.98198 -0.142813
2.51003 4.84298 -0.113813
2.49003 4.83998 -0.112813
2.47403 4.82798 -0.111813
2.45503 4.82898 -0.110813
2.43303 4.82198 -0.110813
2.39103 4.81398 -0.108813
2.34203 4.81098 -0.107813
2.31903 4.80198 -0.106813
2.29903 4.79898 -0.105813
2.28003 4.79898 -0.105813
2.22103 4.79098 -0.103813
2.21003 4.78698 -0.102813
2.17003 4.77998 -0.101813
2.11003 4.76498 -0.0998129
2.08303 4.76598 -0.0988129
2.06403 4.76298 -0.0988129
2.04303 4.75698 -0.0978129
2.02303 4.74998 -0.0968129
2.00403 4.74798 -0.0968129
1.98603 4.74698 -0.0958129
1.96703 4.74398 -0.0958129
1.95603 4.73698 -0.0948129
1.93803 4.73598 -0.0938129
1.91703 4.72698 -0.0938129
1.89803 4.72198 -0.0928129
1.88203 4.72598 -0.0928129
1.86303 4.72298 -0.0918129
1.84403 4.71798 -0.0918129
1.82403 4.70898 -0.0908129
1.81703 4.71298 -0.0908129
1.79303 4.69498 -0.0888129
1.77703 4.69898 -0.0888129
1.75903 4.69498 -0.0888129
1.74303 4.69798 -0.0888129
1.72703 4.69998 -0.0878129
1.70603 4.68898 -0.0868129
1.69503 4.68198 -0.0868129
1.13803 4.58298 -0.0718129
1.08403 4.57698 -0.0708129
1.05203 4.57098 -0.0698129
1.02703 4.56398 -0.0698129
0.981034 4.55998 -0.0688129
0.965034 4.55298 -0.0678129
0.935034 4.55298 -0.0678129
0.927034 4.55098 -0.0678129
0.911034 4.54398 -0.0668129
0.894034 4.53698 -0.0668129
0.878034 4.52998 -0.0658129
0.848034 4.52498 -0.0648129
0.832034 4.52198 -0.0648129
0.824034 4.51798 -0.0648129
0.795034 4.51698 -0.0638129
0.780034 4.51298 -0.0638129
0.765034 4.51598 -0.0638129
0.749034 4.50798 -0.0638129
0.734034 4.50498 -0.0628129
0.682034 4.49698 -0.0618129
0.667034 4.49098 -0.0618129
0.653034 4.49298 -0.0618129
0.639034 4.49498 -0.0618129
0.600034 4.47798 -0.0608129
0.586034 4.47598 -0.0598129
0.572034 4.48398 -0.0608129
0.557034 4.47198 -0.0598129
0.542034 4.47398 -0.0598129
0.527034 4.46498 -0.0588129
0.520034 4.46598 -0.0588129
0.506034 4.46398 -0.0588129
0.492034 4.46498 -0.0588129
0.477034 4.45698 -0.0588129
0.448034 4.45398 -0.0578129
0.426034 4.44798 -0.0578129
0.412034 4.44698 -0.0578129
0.384034 4.44998 -0.0578129
0.370034 4.44698 -0.0568129
0.355034 4.44198 -0.0568129
0.341034 4.43698 -0.0568129
0.333034 4.43198 -0.0558129
0.319034 4.43098 -0.0558129
0.305034 4.43398 -0.0558129
0.291034 4.42898 -0.0558129
0.277034 4.42598 -0.0558129
0.263034 4.42898 -0.0558129
0.249034 4.42098 -0.0558129
0.234034 4.41598 -0.0548129
0.227034 4.41498 -0.0548129
0.214034 4.41898 -0.0548129
0.199034 4.40598 -0.0548129
0.171034 4.40698 -0.0548129
0.158034 4.41198 -0.0548129
0.143034 4.39998 -0.0538129
0.0950344 4.38698 -0.0528129
0.0810344 4.39398 -0.0538129
0.0670344 4.38198 -0.0528129
0.0530344 4.38998 -0.0528129
0.0460344 4.38198 -0.0528129
0.0330344 4.39198 -0.0538129
5.22203 5.34098 -0.267813
5.18103 5.33198 -0.264813
5.11003 5.30898 -0.260813
5.07703 5.30698 -0.259813
5.04503 5.30698 -0.257813
5.00803 5.30098 -0.256813
4.78503 5.24398 -0.244813
4.76403 5.25298 -0.243813
4.72203 5.23898 -0.241813
4.00003 5.10398 -0.206813
3.97103 5.09998 -0.204813
3.90603 5.08198 -0.201813
3.85803 5.08498 -0.199813
3.81903 5.06598 -0.197813
3.80903 5.06898 -0.197813
3.74803 5.05398 -0.194813
3.67303 5.05098 -0.191813
3.52803 5.03098 -0.185813
3.47303 5.01998 -0.182813
3.42803 5.00498 -0.180813
3.34503 4.98298 -0.176813
3.31903 4.97798 -0.175813
3.27403 4.97698 -0.173813
2.53603 4.83298 -0.142813
2.51103 4.83998 -0.142813
2.48703 4.83198 -0.141813
2.44303 4.81998 -0.139813
2.33303 4.80598 -0.135813
2.12403 4.76898 -0.127813
2.01503 4.74198 -0.123813
1.81603 4.71898 -0.117813
1.74203 4.70098 -0.115813
1.71303 4.68998 -0.113813
1.68003 4.69098 -0.113813
1.66303 4.68898 -0.112813
1.62303 4.67098 -0.110813
1.61903 4.68098 -0.111813
1.60003 4.67498 -0.110813
1.54703 4.66298 -0.108813
1.53003 4.65998 -0.108813
1.47203 4.65398 -0.106813
1.45403 4.64898 -0.106813
1.43903 4.64998 -0.106813
1.42203 4.64698 -0.105813
1.29703 4.62498 -0.102813
1.27203 4.61898 -0.101813
1.23803 4.60998 -0.100813
1.22203 4.60598 -0.0998129
1.07103 4.58198 -0.0968129
0.983034 4.56298 -0.0938129
0.952034 4.55298 -0.0928129
0.869034 4.54698 -0.0918129
0.814034 4.53098 -0.0898129
0.782034 4.51298 -0.0888129
0.0510344 4.39798 -0.0778129
0.0100344 4.38398 -0.0768129
8.53803 5.94198 -0.521813
8.47503 5.93798 -0.517813
8.38403 5.91498 -0.511813
8.05603 5.85598 -0.490813
7.98703 5.84498 -0.486813
7.92403 5.83698 -0.482813
7.61103 5.77498 -0.462813
7.42503 5.74598 -0.451813
7.36103 5.73398 -0.447813
7.19403 5.69498 -0.436813
7.14603 5.69398 -0.434813
7.08303 5.67998 -0.430813
7.02603 5.67098 -0.426813
6.96603 5.65998 -0.422813
6.87103 5.63698 -0.416813
6.81103 5.62298 -0.413813
6.76103 5.61798 -0.410813
6.70603 5.60798 -0.406813
6.65803 5.60398 -0.404813
6.60503 5.59498 -0.400813
6.51003 5.56798 -0.394813
6.46103 5.56098 -0.391813
6.41303 5.55498 -0.389813
6.36503 5.54898 -0.386813
6.31203 5.53798 -0.383813
6.26703 5.53398 -0.380813
6.21703 5.52498 -0.377813
6.16503 5.51398 -0.374813
6.13003 5.49898 -0.372813
6.08603 5.49498 -0.369813
6.03803 5.48598 -0.366813
5.99203 5.47898 -0.364813
5.85003 5.45098 -0.355813
5.82203 5.44298 -0.353813
5.77103 5.42998 -0.350813
5.73103 5.42598 -0.348813
5.69203 5.42298 -0.346813
5.64503 5.41198 -0.343813
5.60003 5.40398 -0.340813
5.27903 5.34098 -0.322813
5.26203 5.33998 -0.321813
5.23103 5.34298 -0.319813
5.18203 5.32598 -0.316813
5.14703 5.32398 -0.314813
5.06803 5.30898 -0.310813
5.03103 5.30298 -0.308813
5.00703 5.29498 -0.306813
4.97503 5.29498 -0.305813
4.92903 5.27798 -0.302813
4.89803 5.27898 -0.300813
4.85303 5.26398 -0.298813
4.82603 5.26698 -0.296813
4.76303 5.24898 -0.293813
4.73503 5.24998 -0.291813
4.65803 5.23098 -0.287813
4.53703 5.20998 -0.280813
4.50103 5.20198 -0.278813
4.36303 5.17298 -0.270813
4.33503 5.17298 -0.269813
4.24303 5.14498 -0.264813
4.01303 5.10798 -0.252813
3.97703 5.09498 -0.250813
3.95503 5.09998 -0.249813
3.92503 5.09498 -0.247813
3.88203 5.08798 -0.245813
3.84803 5.07598 -0.243813
3.81803 5.07098 -0.242813
3.79903 5.07798 -0.241813
3.76503 5.06598 -0.239813
3.73303 5.05698 -0.237813
3.60403 5.02998 -0.231813
3.55603 5.02998 -0.229813
3.52303 5.01698 -0.227813
3.51103 5.01598 -0.226813
3.48503 5.01198 -0.225813
3.42903 4.99898 -0.222813
3.40703 4.99998 -0.221813
3.37803 4.99098 -0.220813
3.34803 4.98198 -0.218813
3.34303 4.98998 -0.218813
2.57703 4.85898 -0.183813
2.46703 4.83298 -0.178813
2.44503 4.82798 -0.177813
2.41303 4.82198 -0.176813
2.38703 4.80798 -0.174813
2.34903 4.80698 -0.173813
2.32603 4.79798 -0.172813
2.29203 4.80398 -0.171813
2.27503 4.78698 -0.170813
2.23603 4.78398 -0.168813
2.21703 4.78298 -0.168813
2.18003 4.78098 -0.166813
2.15403 4.76398 -0.165813
2.12403 4.75798 -0.163813
2.10703 4.75898 -0.163813
2.07103 4.75898 -0.162813
2.05003 4.75098 -0.161813
2.01903 4.74298 -0.160813
1.99903 4.73598 -0.159813
1.96503 4.73698 -0.158813
1.94703 4.73598 -0.157813
1.91103 4.73398 -0.156813
1.86203 4.72098 -0.154813
1.80703 4.70998 -0.152813
1.78403 4.69498 -0.150813
1.76103 4.70198 -0.150813
1.70603 4.68798 -0.148813
1.65503 4.68498 -0.147813
1.64303 4.67498 -0.146813
1.63003 4.68598 -0.146813
1.59303 4.67298 -0.145813
1.57103 4.65698 -0.143813
1.55303 4.65298 -0.142813
1.53403 4.66798 -0.143813
1.51003 4.64598 -0.141813
1.46203 4.64498 -0.140813
1.43103 4.64998 -0.140813
1.40303 4.63598 -0.138813
1.38503 4.63098 -0.137813
1.37103 4.63498 -0.137813
1.35103 4.62198 -0.136813
1.31603 4.61098 -0.135813
1.31103 4.62098 -0.135813
1.29403 4.61298 -0.135813
1.27603 4.60598 -0.134813
1.24503 4.60598 -0.133813
1.22703 4.59898 -0.132813
1.21203 4.59998 -0.132813
1.20403 4.59898 -0.132813
1.18503 4.58698 -0.131813
1.16903 4.58498 -0.130813
1.15703 4.59598 -0.131813
1.13703 4.57798 -0.129813
1.12303 4.58198 -0.129813
1.11003 4.59098 -0.130813
1.09103 4.57698 -0.129813
1.08203 4.56898 -0.128813
1.06903 4.57898 -0.128813
1.03503 4.56398 -0.127813
1.02203 4.57498 -0.127813
1.00403 4.55898 -0.126813
0.989034 4.55998 -0.126813
0.979034 4.54998 -0.125813
0.963034 4.54698 -0.125813
0.948034 4.54198 -0.124813
0.878034 4.52998 -0.122813
0.850034 4.53698 -0.122813
0.667034 4.49098 -0.117813
0.595034 4.49098 -0.117813
0.556034 4.47198 -0.115813
0.513034 4.46698 -0.114813
0.477034 4.46298 -0.114813
0.433034 4.44898 -0.112813
0.391034 4.45098 -0.112813
0.355034 4.43598 -0.111813
0.312034 4.43298 -0.111813
0.277034 4.42798 -0.110813
0.235034 4.42398 -0.110813
0.199034 4.40798 -0.108813
0.157034 4.39798 -0.108813
0.129034 4.39798 -0.108813
0.0390344 4.37998 -0.106813
0.0250344 4.37398 -0.106813
0.0120344 4.38398 -0.107813
0.00503439 4.37598 -0.106813
3.31603 4.98898 -0.247813
3.29303 4.98798 -0.246813
0.777034 4.52598 -0.144813
0.0790344 4.40398 -0.130813
0.0370344 4.37898 -0.128813
8.78303 5.98598 -0.658813
8.71903 5.98298 -0.654813
8.64103 5.96998 -0.648813
8.55903 5.95198 -0.642813
8.43603 5.92598 -0.633813
8.35203 5.90698 -0.626813
8.29103 5.90298 -0.622813
8.15003 5.88098 -0.612813
7.96203 5.84098 -0.598813
7.90003 5.83398 -0.594813
7.83203 5.82198 -0.589813
6.94703 5.65798 -0.525813
6.68303 5.60298 -0.505813
6.48303 5.57598 -0.492813
6.30303 5.54298 -0.479813
6.25103 5.53298 -0.475813
6.13803 5.50298 -0.467813
6.04203 5.48498 -0.460813
5.97103 5.47398 -0.456813
5.93203 5.47198 -0.453813
5.88603 5.46398 -0.450813
5.75103 5.44098 -0.441813
5.72203 5.43098 -0.439813
5.67503 5.41998 -0.435813
5.62603 5.40798 -0.432813
5.58503 5.40198 -0.429813
5.53303 5.38598 -0.425813
5.32003 5.36098 -0.412813
5.27203 5.34698 -0.408813
5.22603 5.33298 -0.405813
5.19603 5.33698 -0.403813
5.15703 5.31398 -0.400813
5.12403 5.31298 -0.398813
5.09303 5.31398 -0.396813
5.04303 5.29598 -0.392813
5.01403 5.29898 -0.391813
4.96903 5.28398 -0.388813
4.93003 5.27598 -0.385813
4.91503 5.27698 -0.384813
4.80003 5.25198 -0.377813
4.76403 5.24498 -0.374813
4.68803 5.22798 -0.369813
4.68003 5.23498 -0.369813
4.53303 5.20198 -0.359813
4.51303 5.21198 -0.359813
4.48103 5.20798 -0.357813
4.42503 5.19298 -0.353813
4.39703 5.19298 -0.352813
4.32603 5.17498 -0.347813
4.29203 5.16698 -0.345813
4.26503 5.16798 -0.343813
4.23103 5.15998 -0.341813
4.21003 5.15098 -0.339813
4.18003 5.14798 -0.338813
4.14803 5.14098 -0.336813
4.12303 5.14298 -0.335813
4.08903 5.13398 -0.332813
4.05903 5.12998 -0.331813
4.01703 5.10998 -0.327813
4.01203 5.11898 -0.327813
3.98503 5.11698 -0.326813
3.94803 5.10298 -0.323813
3.92203 5.10298 -0.322813
3.88903 5.09298 -0.320813
3.86503 5.09598 -0.319813
3.81403 5.07698 -0.315813
3.78603 5.07298 -0.314813
3.75303 5.06298 -0.311813
3.73003 5.06498 -0.310813
3.70303 5.06198 -0.309813
3.67503 5.05598 -0.307813
3.64903 5.05498 -0.306813
3.62703 5.04098 -0.304813
3.60403 5.04298 -0.303813
3.57603 5.03598 -0.301813
3.54803 5.03098 -0.300813
3.52403 5.03098 -0.299813
3.49603 5.02398 -0.297813
3.46903 5.01898 -0.295813
3.43203 5.01498 -0.293813
3.37503 5.00098 -0.290813
3.34103 4.98298 -0.287813
3.29003 4.97598 -0.284813
3.22403 4.95998 -0.280813
3.20203 4.95998 -0.279813
3.18303 4.96498 -0.279813
2.67803 4.87598 -0.252813
2.63503 4.85198 -0.249813
2.61903 4.85798 -0.248813
2.50903 4.83498 -0.243813
2.50003 4.83698 -0.243813
2.43703 4.82698 -0.239813
2.41703 4.82598 -0.239813
2.39203 4.81398 -0.237813
2.36403 4.81398 -0.236813
2.34603 4.81398 -0.235813
2.32403 4.80898 -0.234813
2.27903 4.79298 -0.231813
2.26603 4.80398 -0.232813
2.24503 4.79798 -0.231813
2.20903 4.77998 -0.228813
2.19203 4.78298 -0.228813
2.17403 4.78298 -0.227813
2.15603 4.78398 -0.227813
2.13203 4.77098 -0.225813
2.11603 4.77398 -0.225813
2.09603 4.76998 -0.224813
2.06603 4.76298 -0.222813
2.02703 4.75598 -0.220813
1.97203 4.74898 -0.218813
1.92403 4.73998 -0.216813
1.88503 4.72998 -0.214813
1.76403 4.70398 -0.209813
1.73103 4.70598 -0.208813
1.72003 4.69898 -0.207813
1.66903 4.69498 -0.205813
1.61503 4.68398 -0.203813
1.60603 4.68098 -0.203813
1.58803 4.67698 -0.202813
1.56603 4.66098 -0.200813
1.53303 4.65898 -0.199813
1.50203 4.66298 -0.199813
1.48403 4.65798 -0.198813
1.47303 4.64898 -0.197813
1.45903 4.65598 -0.197813
1.43703 4.63498 -0.195813
1.42303 4.64198 -0.195813
1.40703 4.64298 -0.195813
1.39003 4.63898 -0.194813
1.37203 4.63198 -0.193813
1.34703 4.62698 -0.192813
1.33103 4.62798 -0.192813
1.26603 4.61898 -0.190813
1.25703 4.61698 -0.190813
1.22403 4.60798 -0.188813
1.19103 4.59998 -0.187813
1.11703 4.58298 -0.184813
1.08703 4.58398 -0.184813
1.00003 4.56898 -0.181813
0.984034 4.56298 -0.180813
0.946034 4.56098 -0.179813
0.0830344 4.40398 -0.159813
0.0690344 4.38798 -0.158813
0.0620344 4.39798 -0.159813
0.0480344 4.39798 -0.159813
8.84203 5.99798 -0.724813
8.77003 5.98998 -0.719813
8.69403 5.97798 -0.713813
8.61803 5.96498 -0.707813
8.54703 5.95598 -0.701813
8.33403 5.90498 -0.684813
8.26203 5.89298 -0.678813
8.19503 5.88398 -0.673813
8.12203 5.86898 -0.667813
8.06203 5.86398 -0.663813
7.87303 5.82198 -0.648813
7.82003 5.81998 -0.644813
7.74403 5.80098 -0.638813
7.68003 5.79098 -0.633813
7.46103 5.75498 -0.616813
7.39603 5.74198 -0.611813
7.32603 5.72398 -0.605813
7.20803 5.70498 -0.596813
7.04503 5.66598 -0.583813
6.99803 5.66398 -0.580813
6.94603 5.65798 -0.576813
6.88203 5.64198 -0.571813
6.82703 5.63298 -0.567813
6.72503 5.61898 -0.559813
6.67903 5.59898 -0.555813
6.63403 5.59698 -0.552813
6.57903 5.58498 -0.548813
6.52403 5.57298 -0.544813
6.47903 5.56998 -0.540813
6.41503 5.54998 -0.535813
6.37903 5.55498 -0.533813
6.34503 5.54198 -0.530813
6.28903 5.52798 -0.526813
6.24203 5.52098 -0.522813
6.19503 5.51398 -0.519813
6.15703 5.51498 -0.516813
6.09603 5.49498 -0.511813
6.05003 5.48698 -0.508813
6.01303 5.47098 -0.505813
5.96703 5.46298 -0.501813
5.93003 5.46398 -0.499813
5.88103 5.45298 -0.495813
5.83803 5.44698 -0.492813
5.80103 5.44598 -0.490813
5.75303 5.43498 -0.486813
5.67603 5.41298 -0.480813
5.59003 5.39798 -0.474813
5.55003 5.39398 -0.471813
5.32203 5.35298 -0.455813
5.27903 5.34198 -0.452813
5.24203 5.33898 -0.449813
5.19503 5.32398 -0.445813
5.14103 5.31798 -0.442813
5.09703 5.30498 -0.438813
5.05903 5.29998 -0.436813
4.98403 5.28598 -0.430813
4.91103 5.27498 -0.425813
4.88803 5.26698 -0.424813
4.85803 5.26698 -0.422813
4.78303 5.25198 -0.417813
4.74403 5.24198 -0.414813
4.71303 5.23998 -0.412813
4.68303 5.23998 -0.410813
4.65703 5.22598 -0.408813
4.62103 5.21898 -0.405813
4.58703 5.21398 -0.403813
4.55603 5.21098 -0.401813
4.49403 5.20498 -0.397813
4.45103 5.18898 -0.394813
4.40403 5.18198 -0.391813
4.37003 5.17498 -0.388813
4.33703 5.16898 -0.386813
4.30503 5.16398 -0.384813
4.27403 5.15898 -0.382813
4.24003 5.15098 -0.379813
4.22603 5.14998 -0.379813
4.20403 5.15698 -0.378813
4.15903 5.13398 -0.374813
4.13303 5.13498 -0.373813
4.10103 5.12698 -0.370813
4.07503 5.12798 -0.369813
4.03903 5.11498 -0.366813
3.96103 5.09798 -0.361813
3.93403 5.09598 -0.359813
3.91603 5.10498 -0.359813
3.88303 5.09498 -0.357813
3.84903 5.08398 -0.354813
3.82803 5.07198 -0.352813
3.80103 5.06998 -0.351813
3.77903 5.07398 -0.350813
3.75003 5.06798 -0.348813
3.71503 5.05198 -0.345813
3.69803 5.06198 -0.345813
3.65703 5.03998 -0.341813
3.64303 5.03698 -0.340813
3.62203 5.04098 -0.339813
3.59603 5.03698 -0.338813
3.56803 5.03198 -0.336813
3.54303 5.03098 -0.335813
3.51703 5.02698 -0.333813
3.49003 5.02098 -0.332813
3.44703 5.00998 -0.329813
3.39103 4.99498 -0.325813
3.36703 4.99198 -0.324813
3.34103 4.98798 -0.322813
3.32103 4.99198 -0.321813
3.29103 4.98098 -0.319813
3.25103 4.97098 -0.317813
3.23003 4.97298 -0.316813
3.20203 4.96298 -0.314813
3.17903 4.96098 -0.312813
3.15803 4.96298 -0.312813
3.12403 4.94398 -0.309813
3.11703 4.94898 -0.309813
3.09003 4.93998 -0.307813
3.06603 4.93598 -0.305813
3.04803 4.94198 -0.305813
3.02403 4.93798 -0.304813
3.00403 4.93898 -0.303813
2.97103 4.91898 -0.300813
2.96003 4.91898 -0.299813
2.93203 4.90698 -0.297813
2.91403 4.91198 -0.297813
2.89003 4.90698 -0.295813
2.86703 4.90198 -0.294813
2.84803 4.90598 -0.294813
2.80803 4.88798 -0.291813
2.78603 4.88698 -0.289813
2.76803 4.88998 -0.289813
2.74103 4.87798 -0.287813
2.72103 4.87798 -0.286813
2.69903 4.87398 -0.285813
2.67903 4.87398 -0.284813
2.64703 4.86998 -0.282813
2.61903 4.85398 -0.280813
2.59903 4.85298 -0.279813
2.58103 4.85598 -0.279813
2.55403 4.84098 -0.276813
2.52303 4.83698 -0.275813
2.50603 4.84198 -0.275813
2.46103 4.82898 -0.272813
2.41803 4.81898 -0.269813
2.40203 4.82498 -0.269813
2.38003 4.81798 -0.268813
2.36703 4.81098 -0.267813
2.34703 4.80798 -0.266813
2.33003 4.81198 -0.265813
2.31003 4.80798 -0.264813
2.28503 4.79598 -0.263813
2.26803 4.79898 -0.262813
2.24503 4.78798 -0.261813
2.23403 4.78398 -0.260813
2.19703 4.78198 -0.258813
2.17903 4.78398 -0.258813
2.13903 4.77498 -0.256813
2.11803 4.76698 -0.254813
2.10903 4.76698 -0.254813
2.08703 4.75898 -0.253813
2.07103 4.76198 -0.252813
2.05403 4.76298 -0.252813
2.03203 4.75498 -0.250813
2.01403 4.75198 -0.250813
1.99203 4.74098 -0.248813
1.98503 4.74598 -0.248813
1.96003 4.72898 -0.246813
1.94903 4.74398 -0.247813
1.90803 4.72698 -0.244813
1.89003 4.72498 -0.243813
1.87103 4.71998 -0.242813
1.86503 4.72698 -0.243813
1.82203 4.70498 -0.240813
1.78803 4.70298 -0.238813
1.77303 4.70898 -0.238813
1.73403 4.69298 -0.236813
1.72303 4.68698 -0.235813
1.70703 4.68798 -0.235813
1.69103 4.68998 -0.234813
1.67203 4.68398 -0.233813
1.64003 4.68498 -0.233813
1.62003 4.67498 -0.231813
1.60803 4.66598 -0.230813
1.57703 4.67098 -0.230813
1.55703 4.65798 -0.228813
1.54003 4.65798 -0.228813
1.52203 4.65098 -0.227813
1.50603 4.65198 -0.226813
1.49603 4.64498 -0.225813
1.48103 4.64798 -0.225813
1.46603 4.65198 -0.225813
1.44903 4.64898 -0.225813
1.41203 4.63198 -0.222813
1.39603 4.63198 -0.222813
1.38703 4.62898 -0.221813
1.35403 4.62198 -0.220813
1.33703 4.61798 -0.219813
1.32303 4.62298 -0.219813
1.30603 4.61898 -0.219813
1.27903 4.60598 -0.217813
1.26503 4.60998 -0.217813
1.23203 4.60198 -0.215813
1.21503 4.59698 -0.215813
1.19803 4.59098 -0.214813
1.18103 4.58698 -0.213813
1.17403 4.58898 -0.213813
1.14103 4.57998 -0.212813
1.11003 4.57598 -0.211813
1.09503 4.57498 -0.210813
1.07803 4.56898 -0.209813
1.06403 4.57398 -0.210813
1.05403 4.56398 -0.209813
1.03903 4.56198 -0.208813
0.992034 4.55398 -0.207813
0.978034 4.55898 -0.207813
0.954034 4.54998 -0.206813
0.937034 4.54298 -0.205813
0.924034 4.54998 -0.205813
0.908034 4.54698 -0.205813
0.878034 4.54298 -0.204813
8.68503 5.97298 -0.775813
8.61703 5.96598 -0.769813
8.52403 5.94198 -0.761813
8.45003 5.92998 -0.755813
8.38603 5.92498 -0.750813
8.30803 5.90998 -0.743813
8.23303 5.89498 -0.737813
8.20303 5.89298 -0.734813
8.12903 5.87898 -0.728813
8.03303 5.84898 -0.719813
7.83703 5.81998 -0.703813
7.73703 5.80298 -0.695813
7.65203 5.77698 -0.687813
7.53803 5.76598 -0.678813
7.30903 5.71998 -0.659813
7.26003 5.71898 -0.656813
7.18703 5.69798 -0.649813
7.14103 5.69898 -0.646813
7.07303 5.68098 -0.640813
7.02103 5.67598 -0.636813
6.95503 5.65898 -0.630813
6.93603 5.66098 -0.629813
6.80803 5.62898 -0.618813
6.75503 5.62098 -0.614813
6.63503 5.59298 -0.604813
6.50503 5.57198 -0.593813
6.45203 5.56198 -0.589813
6.39703 5.54998 -0.585813
6.34203 5.53698 -0.580813
6.29903 5.53498 -0.577813
6.23703 5.51498 -0.571813
6.21203 5.51098 -0.569813
6.02503 5.48298 -0.555813
5.96703 5.46398 -0.550813
5.93203 5.46698 -0.548813
5.90403 5.45798 -0.545813
5.80403 5.43398 -0.537813
5.67203 5.41198 -0.527813
5.60503 5.39898 -0.521813
5.55903 5.38898 -0.518813
5.35303 5.35598 -0.502813
5.26203 5.34798 -0.496813
5.20803 5.32698 -0.491813
5.18003 5.33198 -0.489813
5.08803 5.30398 -0.482813
3.20503 4.95998 -0.349813
3.09303 4.93898 -0.342813
3.04303 4.92798 -0.339813
3.00703 4.92198 -0.336813
2.98503 4.91998 -0.335813
2.96203 4.91698 -0.334813
2.91603 4.90998 -0.331813
2.88903 4.90098 -0.329813
2.87603 4.89698 -0.328813
2.83003 4.88898 -0.325813
2.80903 4.88698 -0.324813
2.76703 4.88598 -0.322813
2.74703 4.88598 -0.321813
2.70803 4.87098 -0.318813
2.66203 4.85998 -0.315813
2.64103 4.85798 -0.314813
2.62203 4.85898 -0.314813
2.59503 4.84598 -0.311813
2.58203 4.85798 -0.312813
2.56503 4.84398 -0.310813
2.54603 4.84498 -0.309813
2.52503 4.84298 -0.308813
2.50103 4.83298 -0.306813
2.47903 4.82898 -0.305813
2.43903 4.82498 -0.303813
2.43003 4.82698 -0.303813
2.11103 4.77698 -0.286813
1.82203 4.71598 -0.271813
1.78903 4.71798 -0.270813
1.77903 4.71298 -0.269813
1.67103 4.69498 -0.264813
1.64403 4.68998 -0.263813
1.57203 4.67198 -0.259813
8.85903 5.99698 -0.857813
8.79203 5.99198 -0.852813
8.70903 5.97498 -0.844813
8.65603 5.97898 -0.840813
8.55403 5.94798 -0.830813
8.49603 5.94698 -0.825813
8.35603 5.90798 -0.812813
8.28403 5.89598 -0.805813
8.22803 5.89498 -0.801813
8.13603 5.86698 -0.792813
8.08803 5.87098 -0.788813
8.00703 5.85098 -0.781813
7.96103 5.83598 -0.776813
7.88703 5.81998 -0.769813
7.84603 5.82798 -0.767813
7.75203 5.79498 -0.757813
7.70303 5.79598 -0.754813
7.62503 5.77498 -0.746813
7.51703 5.76798 -0.737813
7.48003 5.75798 -0.734813
7.39303 5.72698 -0.725813
7.35803 5.73698 -0.723813
7.28203 5.71498 -0.716813
7.23603 5.71498 -0.712813
7.17303 5.70198 -0.707813
7.06003 5.66698 -0.696813
7.02303 5.67298 -0.693813
6.94603 5.64698 -0.686813
6.91503 5.65698 -0.684813
6.84903 5.63898 -0.678813
6.73903 5.61998 -0.669813
6.71503 5.61698 -0.667813
6.64303 5.59198 -0.660813
6.60503 5.59598 -0.657813
6.54103 5.57698 -0.651813
6.50203 5.57898 -0.648813
6.44703 5.56698 -0.643813
6.39103 5.55298 -0.638813
6.35803 5.54198 -0.635813
6.26203 5.52798 -0.627813
6.20303 5.50998 -0.622813
6.15503 5.50198 -0.617813
6.11703 5.50198 -0.615813
5.93703 5.45998 -0.599813
5.89503 5.45498 -0.596813
5.85403 5.45098 -0.592813
5.80703 5.44198 -0.588813
5.68803 5.41398 -0.578813
5.64603 5.40698 -0.574813
5.60103 5.39898 -0.571813
5.57203 5.40398 -0.569813
5.32803 5.34798 -0.548813
5.29403 5.34698 -0.546813
5.26303 5.34998 -0.544813
5.21603 5.33498 -0.539813
5.19503 5.32998 -0.538813
5.15503 5.32198 -0.534813
5.10903 5.30798 -0.530813
5.03903 5.30098 -0.525813
4.96203 5.28598 -0.519813
4.90203 5.27098 -0.514813
4.83703 5.26698 -0.509813
4.79703 5.25698 -0.506813
4.72003 5.23798 -0.499813
4.52803 5.20098 -0.484813
4.07903 5.12198 -0.450813
3.35303 4.99498 -0.398813
3.02403 4.92698 -0.374813
2.75103 4.88398 -0.357813
1.20403 4.59698 -0.273813
0.798034 4.51898 -0.257813
0.762034 4.52298 -0.257813
0.745034 4.51198 -0.256813
0.730034 4.50598 -0.255813
8.69203 5.96798 -0.907813
8.61603 5.95598 -0.900813
8.54003 5.94298 -0.893813
8.47103 5.93498 -0.886813
8.40103 5.92598 -0.880813
8.32803 5.91398 -0.873813
8.26003 5.90498 -0.867813
8.20103 5.88198 -0.860813
8.12703 5.86898 -0.853813
8.06203 5.85998 -0.847813
7.99503 5.84998 -0.841813
7.92903 5.83998 -0.835813
7.86403 5.83098 -0.829813
7.79903 5.82098 -0.823813
7.74703 5.80098 -0.817813
7.68303 5.79098 -0.811813
7.61503 5.77798 -0.805813
7.55603 5.77098 -0.799813
7.49803 5.76398 -0.794813
7.43403 5.75198 -0.788813
7.37503 5.74398 -0.783813
7.31603 5.71698 -0.776813
7.26803 5.71598 -0.772813
7.19403 5.69498 -0.764813
7.14803 5.69498 -0.761813
7.08503 5.68198 -0.755813
7.03503 5.67798 -0.750813
6.97303 5.66498 -0.745813
6.93303 5.65098 -0.740813
6.86803 5.63398 -0.734813
6.82903 5.63698 -0.731813
6.76503 5.62098 -0.725813
6.72403 5.62298 -0.722813
6.65903 5.60498 -0.715813
6.62303 5.59198 -0.712813
6.52303 5.57798 -0.703813
6.45503 5.55598 -0.696813
6.41403 5.55498 -0.692813
6.36103 5.54598 -0.688813
6.32003 5.54498 -0.684813
6.23903 5.52598 -0.677813
6.14303 5.50998 -0.668813
6.04803 5.49398 -0.660813
5.98603 5.47298 -0.653813
5.95403 5.47898 -0.651813
5.91303 5.45798 -0.647813
5.82203 5.44298 -0.639813
5.77603 5.43398 -0.635813
5.73903 5.43298 -0.632813
5.69503 5.42598 -0.628813
5.65103 5.41798 -0.624813
5.59503 5.41498 -0.620813
5.50003 5.39098 -0.611813
5.34403 5.35598 -0.597813
5.25903 5.33698 -0.589813
5.22903 5.34098 -0.587813
5.14203 5.31798 -0.579813
5.11003 5.31798 -0.577813
4.96503 5.28298 -0.564813
4.88803 5.26798 -0.557813
4.69003 5.23298 -0.540813
2.10803 4.76098 -0.350813
1.11403 4.57798 -0.299813
0.477034 4.46098 -0.275813
8.74303 5.99398 -0.983813
8.59403 5.95098 -0.967813
8.52203 5.93998 -0.959813
8.45303 5.93198 -0.952813
8.38203 5.92098 -0.945813
8.31303 5.91198 -0.939813
8.24503 5.90198 -0.932813
8.18403 5.87798 -0.925813
8.11603 5.86698 -0.918813
8.04703 5.85598 -0.911813
7.98403 5.84798 -0.905813
7.91503 5.83598 -0.898813
7.85303 5.82798 -0.892813
7.79703 5.82398 -0.887813
7.73703 5.79798 -0.880813
7.67903 5.79198 -0.874813
7.61503 5.78198 -0.868813
7.55703 5.77498 -0.862813
7.49003 5.76098 -0.855813
7.43603 5.75698 -0.850813
7.38203 5.73298 -0.844813
7.33103 5.72998 -0.839813
7.26903 5.71898 -0.833813
7.14903 5.69698 -0.821813
7.09703 5.69198 -0.816813
6.99603 5.66498 -0.806813
6.93703 5.65298 -0.800813
6.89603 5.65598 -0.796813
6.78303 5.63398 -0.785813
6.59503 5.60098 -0.767813
6.48603 5.57898 -0.756813
6.38403 5.55998 -0.746813
5.81003 5.45698 -0.691813
5.65503 5.42898 -0.677813
5.37603 5.37598 -0.650813
5.28803 5.35398 -0.642813
5.07003 5.31298 -0.622813
5.00303 5.30898 -0.616813
4.92903 5.29598 -0.610813
4.86703 5.27898 -0.603813
4.79603 5.26798 -0.597813
4.72803 5.25898 -0.592813
4.64903 5.23698 -0.584813
4.63403 5.23598 -0.583813
4.59803 5.22898 -0.579813
4.53203 5.21798 -0.574813
4.49603 5.20998 -0.570813
4.43203 5.20098 -0.565813
4.40603 5.18698 -0.562813
4.27003 5.15598 -0.550813
4.21203 5.15198 -0.545813
4.17203 5.15198 -0.542813
4.13103 5.13398 -0.538813
4.11303 5.14498 -0.538813
4.07803 5.13298 -0.534813
4.03803 5.11598 -0.530813
3.97803 5.10498 -0.525813
3.88803 5.10398 -0.519813
3.85203 5.08898 -0.515813
3.82503 5.08698 -0.513813
3.80203 5.08898 -0.512813
3.74703 5.06598 -0.506813
3.72203 5.06398 -0.504813
3.70003 5.06798 -0.503813
3.63703 5.04798 -0.497813
3.59603 5.03998 -0.494813
3.56203 5.02598 -0.490813
3.54503 5.03498 -0.490813
3.51303 5.02298 -0.487813
3.48503 5.01598 -0.485813
3.42603 5.01398 -0.481813
3.40103 5.01098 -0.479813
3.36903 4.99698 -0.476813
3.32103 4.99298 -0.472813
3.30003 4.99598 -0.471813
3.27403 4.99098 -0.469813
3.25203 4.97398 -0.466813
3.23203 4.97798 -0.465813
3.20503 4.96998 -0.463813
3.15503 4.95898 -0.459813
3.12703 4.95098 -0.457813
3.09203 4.94698 -0.454813
3.06303 4.93398 -0.451813
3.01703 4.92798 -0.448813
3.00303 4.94098 -0.448813
2.97503 4.92798 -0.446813
2.93703 4.91798 -0.443813
2.86503 4.90098 -0.437813
2.82303 4.89998 -0.434813
2.80603 4.90498 -0.434813
2.78603 4.88898 -0.431813
2.77003 4.89598 -0.431813
2.74403 4.88498 -0.429813
2.70103 4.87998 -0.426813
2.68103 4.87998 -0.425813
2.65203 4.86298 -0.422813
2.61803 4.85498 -0.419813
2.60703 4.86998 -0.420813
2.57903 4.85498 -0.417813
2.56203 4.85998 -0.417813
2.51903 4.85098 -0.413813
2.49403 4.83998 -0.411813
2.48703 4.84498 -0.411813
2.45703 4.82498 -0.408813
2.44503 4.83798 -0.408813
2.42203 4.82898 -0.406813
2.37903 4.81898 -0.403813
2.34703 4.81098 -0.401813
2.33103 4.81598 -0.401813
2.30603 4.80198 -0.398813
2.29203 4.81298 -0.398813
2.21803 4.79098 -0.393813
2.19803 4.78698 -0.391813
2.17503 4.77798 -0.389813
2.14203 4.78398 -0.389813
2.10003 4.76998 -0.385813
2.09303 4.77298 -0.385813
2.06603 4.75198 -0.382813
1.99403 4.74998 -0.379813
1.96403 4.73898 -0.376813
1.94903 4.74598 -0.376813
1.93203 4.74598 -0.376813
1.90903 4.73398 -0.373813
1.88703 4.72098 -0.371813
1.87303 4.72898 -0.371813
1.83903 4.72898 -0.370813
1.82503 4.71398 -0.368813
1.81203 4.72498 -0.368813
1.79203 4.71798 -0.367813
1.77103 4.70698 -0.365813
1.75603 4.70998 -0.365813
1.71303 4.70698 -0.363813
1.65803 4.69298 -0.359813
1.62103 4.68298 -0.357813
1.60503 4.68198 -0.356813
1.59503 4.67698 -0.355813
1.57703 4.67198 -0.354813
1.56003 4.67198 -0.353813
1.52503 4.66298 -0.351813
1.51003 4.66698 -0.351813
1.49303 4.66398 -0.350813
1.48003 4.64798 -0.348813
1.46703 4.65798 -0.349813
1.45103 4.65698 -0.348813
1.43103 4.64598 -0.346813
1.41503 4.64298 -0.346813
1.39903 4.64398 -0.345813
1.38203 4.64098 -0.344813
1.37303 4.63698 -0.344813
1.35503 4.62798 -0.342813
1.33703 4.62098 -0.341813
1.32403 4.63098 -0.341813
1.30803 4.63098 -0.341813
1.29203 4.62898 -0.340813
1.27303 4.61798 -0.338813
1.25903 4.62198 -0.338813
1.24803 4.60998 -0.337813
1.23103 4.60498 -0.336813
1.21603 4.60698 -0.336813
1.19803 4.59498 -0.334813
1.18503 4.60398 -0.335813
1.16603 4.58898 -0.332813
1.14903 4.58498 -0.331813
1.14303 4.58998 -0.332813
1.12803 4.59198 -0.332813
1.11203 4.58998 -0.331813
1.08103 4.58498 -0.330813
1.05003 4.58398 -0.329813
1.03803 4.56398 -0.326813
1.02603 4.57898 -0.328813
0.962034 4.55898 -0.324813
0.946034 4.55398 -0.323813
0.938034 4.55098 -0.323813
0.908034 4.54898 -0.322813
0.878034 4.54498 -0.321813
0.823034 4.53098 -0.318813
0.795034 4.53798 -0.318813
0.777034 4.51698 -0.316813
0.764034 4.52298 -0.316813
0.748034 4.51798 -0.315813
0.741034 4.52098 -0.315813
0.725034 4.50798 -0.314813
0.712034 4.52198 -0.315813
0.695034 4.50598 -0.313813
0.681034 4.50698 -0.313813
0.666034 4.50098 -0.312813
0.653034 4.51298 -0.313813
0.636034 4.49498 -0.311813
0.630034 4.49998 -0.311813
0.614034 4.49398 -0.310813
0.584034 4.48398 -0.309813
0.556034 4.48398 -0.308813
0.534034 4.47598 -0.307813
0.504034 4.46598 -0.306813
0.492034 4.48298 -0.307813
0.462034 4.46798 -0.305813
0.446034 4.45798 -0.304813
0.441034 4.46998 -0.305813
0.383034 4.45598 -0.303813
0.354034 4.44598 -0.302813
0.346034 4.43898 -0.301813
0.332034 4.43998 -0.301813
0.319034 4.44498 -0.301813
0.304034 4.43998 -0.301813
0.276034 4.43198 -0.300813
0.262034 4.43098 -0.299813
0.255034 4.43698 -0.300813
0.241034 4.42598 -0.299813
0.227034 4.43298 -0.299813
0.185034 4.41698 -0.297813
0.171034 4.41898 -0.298813
0.157034 4.41398 -0.297813
0.150034 4.41398 -0.297813
0.136034 4.41398 -0.297813
0.108034 4.40898 -0.296813
0.0940344 4.40798 -0.296813
0.0800344 4.39398 -0.295813
0.0460344 4.38798 -0.294813
8.14003 5.86898 -0.982813
7.89103 5.82298 -0.955813
7.82503 5.81298 -0.948813
7.75903 5.80198 -0.941813
7.69903 5.79498 -0.935813
7.46303 5.74798 -0.910813
7.39903 5.73598 -0.903813
7.33903 5.72598 -0.897813
7.27503 5.71398 -0.890813
7.21503 5.70398 -0.884813
7.11803 5.68198 -0.874813
7.00803 5.66698 -0.862813
6.95303 5.65898 -0.857813
6.89503 5.64798 -0.851813
6.83603 5.63598 -0.844813
6.74503 5.61498 -0.835813
6.59203 5.59298 -0.819813
6.53203 5.57798 -0.813813
6.48103 5.56998 -0.808813
6.29503 5.53298 -0.788813
6.19003 5.50998 -0.777813
6.15203 5.51098 -0.774813
6.02003 5.47898 -0.760813
5.97503 5.47298 -0.756813
5.92403 5.46098 -0.751813
5.63003 5.40798 -0.721813
5.28203 5.35298 -0.688813
5.21103 5.33098 -0.680813
5.16903 5.32198 -0.676813
4.81003 5.25898 -0.642813
4.58103 5.21998 -0.620813
4.54103 5.20698 -0.616813
4.08503 5.12398 -0.575813
3.91803 5.09398 -0.560813
3.89803 5.10098 -0.559813
3.78403 5.06798 -0.548813
3.75503 5.06198 -0.545813
3.70303 5.05798 -0.541813
3.65703 5.04498 -0.537813
3.63003 5.04098 -0.535813
3.52103 5.02298 -0.525813
3.45203 5.00798 -0.519813
3.42703 5.00598 -0.518813
3.39903 4.99798 -0.515813
3.37603 4.99698 -0.513813
3.35003 4.99298 -0.511813
3.30803 4.98098 -0.507813
3.26003 4.97698 -0.504813
3.23303 4.96998 -0.502813
3.21203 4.97198 -0.500813
3.18703 4.96698 -0.498813
3.17303 4.96198 -0.497813
3.14703 4.95698 -0.495813
3.12403 4.95498 -0.493813
3.10003 4.95198 -0.491813
3.07203 4.94098 -0.488813
3.02303 4.93198 -0.485813
2.91503 4.91098 -0.476813
2.89403 4.90998 -0.475813
2.86803 4.90198 -0.472813
2.84603 4.89898 -0.471813
2.81003 4.88998 -0.468813
2.78903 4.88998 -0.466813
2.74703 4.88698 -0.464813
2.70003 4.87398 -0.460813
2.57503 4.84698 -0.450813
2.54403 4.84298 -0.448813
2.52403 4.84198 -0.447813
2.50003 4.83298 -0.444813
2.45903 4.82898 -0.442813
2.43903 4.82598 -0.440813
2.41903 4.82498 -0.439813
2.40803 4.82098 -0.438813
2.38503 4.81298 -0.436813
2.36603 4.81298 -0.435813
2.34703 4.81198 -0.434813
2.32403 4.80498 -0.432813
2.30303 4.79998 -0.431813
2.28603 4.80298 -0.430813
2.25403 4.79198 -0.427813
2.23603 4.79398 -0.427813
2.21703 4.79198 -0.425813
2.19203 4.77698 -0.423813
2.17303 4.77698 -0.422813
2.15403 4.77498 -0.421813
2.12703 4.77398 -0.419813
2.10603 4.76798 -0.418813
2.08503 4.75998 -0.416813
2.06603 4.75798 -0.415813
2.04803 4.75898 -0.414813
2.02903 4.75398 -0.412813
2.01103 4.75498 -0.412813
1.99803 4.74298 -0.410813
1.98003 4.74198 -0.409813
1.96403 4.74698 -0.409813
1.94403 4.74198 -0.407813
1.92803 4.74398 -0.407813
1.89103 4.73798 -0.405813
1.88003 4.73298 -0.404813
1.86203 4.73198 -0.403813
1.84203 4.72298 -0.401813
1.82503 4.72298 -0.400813
1.80803 4.72298 -0.399813
1.78703 4.71398 -0.398813
1.77203 4.71798 -0.397813
1.76103 4.71298 -0.396813
1.74203 4.70598 -0.395813
1.72403 4.70398 -0.394813
1.70703 4.70398 -0.393813
1.68803 4.69798 -0.392813
1.66703 4.68598 -0.390813
1.65303 4.69298 -0.390813
1.63903 4.67698 -0.388813
1.62703 4.68798 -0.388813
1.61103 4.68898 -0.388813
1.58903 4.67398 -0.385813
1.57403 4.67898 -0.385813
1.55703 4.67798 -0.385813
1.53603 4.66398 -0.382813
1.52503 4.65498 -0.381813
1.51203 4.66398 -0.381813
1.49303 4.65498 -0.380813
1.47603 4.65198 -0.379813
1.46203 4.65898 -0.379813
1.44403 4.65398 -0.378813
1.42503 4.64498 -0.376813
1.39803 4.63298 -0.374813
1.38103 4.63098 -0.373813
1.36703 4.63798 -0.373813
1.34903 4.62998 -0.372813
1.33403 4.63098 -0.372813
1.31803 4.63098 -0.371813
1.29903 4.61798 -0.369813
1.29203 4.62198 -0.369813
1.27503 4.61698 -0.368813
1.25703 4.61098 -0.367813
1.24203 4.61298 -0.367813
1.22803 4.61898 -0.367813
1.21003 4.60698 -0.365813
1.19403 4.60698 -0.365813
1.18603 4.60498 -0.364813
1.17003 4.60298 -0.363813
1.15203 4.59298 -0.362813
1.13603 4.59098 -0.361813
1.12003 4.58698 -0.360813
1.10503 4.58898 -0.360813
1.09103 4.59198 -0.360813
1.08103 4.58198 -0.359813
1.06403 4.57798 -0.358813
1.05103 4.58498 -0.358813
1.03303 4.57298 -0.356813
1.01703 4.56998 -0.355813
1.00003 4.55998 -0.354813
0.985034 4.55898 -0.353813
0.978034 4.56398 -0.354813
0.964034 4.56598 -0.354813
0.948034 4.56298 -0.353813
0.932034 4.55998 -0.352813
0.917034 4.55898 -0.352813
0.900034 4.54598 -0.350813
0.883034 4.53698 -0.349813
0.878034 4.54998 -0.350813
0.862034 4.54098 -0.349813
0.847034 4.54198 -0.348813
0.831034 4.53298 -0.347813
0.814034 4.52398 -0.345813
0.800034 4.52798 -0.346813
0.786034 4.53098 -0.346813
0.770034 4.52398 -0.345813
0.763034 4.52498 -0.345813
0.747034 4.51898 -0.344813
0.734034 4.52598 -0.344813
0.718034 4.51798 -0.343813
0.703034 4.51598 -0.342813
0.667034 4.51598 -0.342813
0.651034 4.50798 -0.341813
0.635034 4.49798 -0.339813
0.621034 4.49998 -0.339813
0.607034 4.49998 -0.339813
0.590034 4.48598 -0.337813
0.578034 4.49998 -0.339813
0.570034 4.49498 -0.338813
0.555034 4.49098 -0.337813
0.540034 4.48098 -0.336813
0.525034 4.47698 -0.335813
0.510034 4.47198 -0.334813
0.497034 4.47998 -0.335813
0.481034 4.46898 -0.334813
0.474034 4.46598 -0.333813
0.459034 4.46598 -0.333813
0.446034 4.47098 -0.333813
0.431034 4.46898 -0.333813
0.417034 4.46398 -0.332813
0.402034 4.45698 -0.331813
0.387034 4.45298 -0.331813
0.381034 4.45698 -0.331813
0.366034 4.44998 -0.330813
0.351034 4.44398 -0.329813
0.338034 4.44898 -0.330813
0.323034 4.44398 -0.329813
0.310034 4.44698 -0.329813
0.296034 4.44798 -0.329813
0.280034 4.43098 -0.327813
0.273034 4.42898 -0.327813
0.259034 4.42798 -0.327813
0.245034 4.42898 -0.327813
0.231034 4.42798 -0.326813
0.217034 4.42198 -0.326813
0.203034 4.42298 -0.326813
0.189034 4.42598 -0.326813
0.182034 4.41998 -0.325813
0.168034 4.41898 -0.325813
0.154034 4.41298 -0.324813
0.140034 4.40798 -0.324813
0.126034 4.41198 -0.324813
0.112034 4.41198 -0.324813
0.0980344 4.40298 -0.323813
0.0910344 4.39298 -0.322813
0.0770344 4.39698 -0.322813
0.0630344 4.38998 -0.321813
0.0500344 4.39998 -0.322813
0.0360344 4.39598 -0.322813
0.0220344 4.38998 -0.321813
0.0080344 4.38598 -0.321813
0.00103439 4.38398 -0.321813
8.34403 5.91198 -1.06381
8.28003 5.90598 -1.05681
8.21203 5.89598 -1.04981
8.15203 5.89198 -1.04381
8.08503 5.86198 -1.03481
8.02303 5.85598 -1.02781
7.96603 5.85298 -1.02181
7.89703 5.83998 -1.01481
7.77103 5.82198 -1.00081
7.70203 5.80798 -0.992813
7.65503 5.79198 -0.986813
7.60103 5.78798 -0.981813
7.53203 5.77298 -0.973813
7.41303 5.75598 -0.960813
7.25403 5.72298 -0.942813
7.18903 5.70898 -0.935813
7.12603 5.69598 -0.928813
7.02103 5.68398 -0.917813
6.86603 5.64798 -0.899813
6.81303 5.63998 -0.894813
6.76203 5.63298 -0.888813
6.71003 5.62498 -0.883813
6.65603 5.61498 -0.877813
6.51503 5.58398 -0.861813
6.46103 5.57398 -0.855813
6.41103 5.56498 -0.850813
6.36703 5.56198 -0.846813
6.31803 5.55398 -0.841813
6.26503 5.54198 -0.835813
6.21603 5.53398 -0.830813
6.18003 5.51898 -0.825813
6.13003 5.50898 -0.820813
6.08603 5.50398 -0.815813
6.04503 5.50198 -0.811813
5.99903 5.49398 -0.806813
5.95403 5.48698 -0.802813
5.90303 5.47398 -0.796813
5.88003 5.46998 -0.794813
5.82103 5.44898 -0.787813
5.77903 5.44398 -0.783813
5.73803 5.43898 -0.778813
5.69503 5.43198 -0.774813
5.65203 5.42498 -0.770813
5.61703 5.42498 -0.766813
5.58103 5.40698 -0.762813
5.37703 5.37498 -0.741813
5.34003 5.37198 -0.738813
5.31103 5.35898 -0.734813
5.27203 5.35298 -0.730813
5.23103 5.34498 -0.726813
5.19103 5.33698 -0.722813
5.15603 5.33498 -0.719813
5.11803 5.32798 -0.715813
5.08303 5.32498 -0.712813
5.05403 5.31198 -0.708813
5.01603 5.30398 -0.704813
4.97603 5.29598 -0.700813
4.94703 5.29798 -0.698813
4.90803 5.28898 -0.694813
4.87203 5.28398 -0.690813
4.83703 5.27798 -0.687813
4.80503 5.27598 -0.684813
4.77103 5.25498 -0.679813
4.73903 5.25298 -0.676813
4.70603 5.24998 -0.673813
4.67303 5.24498 -0.670813
4.63803 5.23898 -0.667813
4.60603 5.23498 -0.664813
4.56703 5.22398 -0.660813
4.54203 5.21198 -0.657813
4.51103 5.20998 -0.654813
4.48103 5.20698 -0.651813
4.44903 5.20298 -0.648813
4.41103 5.19098 -0.644813
4.38103 5.18798 -0.641813
4.35103 5.18698 -0.639813
4.32703 5.17398 -0.636813
4.29703 5.17098 -0.633813
4.26303 5.16298 -0.630813
4.23303 5.15898 -0.627813
4.20003 5.15198 -0.624813
4.17903 5.15898 -0.623813
4.14303 5.14698 -0.619813
4.11903 5.13398 -0.616813
4.08903 5.12998 -0.613813
4.05503 5.11898 -0.609813
4.00203 5.11798 -0.605813
3.97603 5.11798 -0.603813
3.94403 5.10998 -0.600813
3.93003 5.10798 -0.599813
3.89403 5.09298 -0.595813
3.86503 5.08798 -0.592813
3.83903 5.08798 -0.590813
3.81103 5.08398 -0.588813
3.78503 5.08098 -0.586813
