3.3661 -3.80399 -0.739085
3.3841 -3.80099 -0.741085
3.4191 -3.79199 -0.744085
3.4731 -3.77999 -0.748085
3.4881 -3.78399 -0.751085
3.5041 -3.77799 -0.752085
3.5251 -3.77699 -0.754085
3.5451 -3.77399 -0.756085
3.5601 -3.76599 -0.757085
3.5781 -3.76199 -0.758085
3.6011 -3.76199 -0.761085
3.6111 -3.76099 -0.762085
3.6271 -3.75399 -0.763085
3.6471 -3.75099 -0.765085
3.6691 -3.75099 -0.768085
3.6871 -3.74499 -0.769085
3.7121 -3.74699 -0.772085
3.7371 -3.73699 -0.774085
3.7581 -3.73499 -0.776085
3.7771 -3.72999 -0.778085
3.7971 -3.72699 -0.780085
3.8161 -3.72199 -0.782085
3.8851 -3.70699 -0.788085
3.9081 -3.70499 -0.791085
3.9251 -3.69899 -0.792085
3.9671 -3.69099 -0.797085
3.9901 -3.68999 -0.799085
4.0051 -3.69099 -0.801085
4.0231 -3.68599 -0.803085
4.0451 -3.68199 -0.805085
4.0631 -3.67499 -0.807085
4.0861 -3.67299 -0.809085
4.1051 -3.66599 -0.811085
4.1391 -3.66299 -0.815085
4.1731 -3.66899 -0.820085
4.1861 -3.65799 -0.820085
4.2091 -3.65499 -0.823085
4.2391 -3.65699 -0.827085
4.2471 -3.64099 -0.826085
4.2741 -3.64099 -0.829085
4.2881 -3.64199 -0.831085
4.3041 -3.63199 -0.832085
4.3251 -3.62599 -0.834085
4.3621 -3.63399 -0.840085
4.3721 -3.61899 -0.840085
4.4251 -3.61699 -0.846085
4.4551 -3.60699 -0.849085
4.4821 -3.60499 -0.853085
4.5481 -3.58899 -0.860085
4.6101 -3.57999 -0.867085
4.6811 -3.56499 -0.875085
1.1501 -4.20599 -0.657085
1.1581 -4.20999 -0.658085
1.1731 -4.21399 -0.659085
1.1881 -4.21399 -0.660085
1.2001 -4.20699 -0.659085
1.2131 -4.20499 -0.660085
1.2341 -4.20099 -0.660085
1.2491 -4.20299 -0.661085
1.2761 -4.19599 -0.661085
1.2891 -4.19399 -0.662085
1.3171 -4.18999 -0.662085
1.3511 -4.18299 -0.663085
1.3921 -4.17599 -0.664085
1.4061 -4.17299 -0.664085
1.4271 -4.16999 -0.665085
1.4411 -4.16799 -0.665085
1.4681 -4.16199 -0.666085
1.6631 -4.12599 -0.672085
1.7551 -4.10999 -0.676085
1.7831 -4.10399 -0.677085
1.8981 -4.08299 -0.682085
1.9411 -4.07499 -0.684085
2.0361 -4.05999 -0.689085
2.0661 -4.05399 -0.690085
2.1031 -4.04799 -0.692085
2.1471 -4.03999 -0.695085
2.1841 -4.03199 -0.697085
2.2271 -4.01899 -0.698085
2.2431 -4.01899 -0.700085
2.2651 -4.01399 -0.701085
2.3121 -4.00699 -0.704085
2.3281 -4.00699 -0.705085
2.3571 -3.99899 -0.707085
2.3641 -3.99499 -0.707085
2.3951 -3.99099 -0.709085
2.4101 -3.98799 -0.710085
2.4281 -3.98899 -0.712085
2.4401 -3.97899 -0.711085
2.4561 -3.97799 -0.713085
2.4801 -3.97499 -0.714085
2.4981 -3.97599 -0.716085
2.5251 -3.96299 -0.717085
2.5621 -3.96499 -0.721085
2.5681 -3.96099 -0.721085
2.5841 -3.95799 -0.722085
2.6121 -3.94699 -0.723085
2.6441 -3.94199 -0.725085
2.6581 -3.93499 -0.726085
2.6671 -3.93599 -0.727085
2.6891 -3.93999 -0.729085
2.7021 -3.93299 -0.730085
2.7221 -3.93599 -0.732085
2.7361 -3.92899 -0.733085
2.7491 -3.92199 -0.733085
2.7681 -3.92299 -0.735085
2.7761 -3.91999 -0.735085
2.7911 -3.91699 -0.736085
2.8041 -3.90799 -0.736085
2.8251 -3.91199 -0.739085
2.8401 -3.90599 -0.740085
2.8591 -3.90599 -0.742085
2.8751 -3.90199 -0.743085
2.8831 -3.90099 -0.744085
2.9171 -3.89499 -0.747085
2.9321 -3.88899 -0.747085
2.9491 -3.88599 -0.749085
2.9651 -3.88199 -0.750085
2.9821 -3.87799 -0.751085
3.0131 -3.88099 -0.755085
3.0241 -3.86999 -0.755085
3.0451 -3.87199 -0.757085
3.0661 -3.87299 -0.759085
3.0821 -3.86799 -0.761085
3.0951 -3.85999 -0.761085
3.1101 -3.86499 -0.763085
3.1261 -3.85999 -0.764085
3.1421 -3.85499 -0.765085
3.1781 -3.84999 -0.769085
3.1961 -3.84599 -0.770085
3.2231 -3.84199 -0.773085
3.2611 -3.83799 -0.777085
3.2771 -3.83199 -0.778085
3.3151 -3.82799 -0.781085
3.3281 -3.81899 -0.782085
3.3421 -3.82199 -0.784085
3.3731 -3.80899 -0.786085
3.4141 -3.80599 -0.790085
3.4321 -3.80299 -0.792085
3.4521 -3.80099 -0.794085
3.4711 -3.79699 -0.796085
3.4791 -3.79399 -0.797085
3.4981 -3.79099 -0.798085
3.5381 -3.78599 -0.802085
3.5581 -3.78299 -0.805085
3.6051 -3.77399 -0.809085
3.6441 -3.76599 -0.813085
3.7521 -3.74599 -0.824085
3.7751 -3.74499 -0.827085
3.8111 -3.73399 -0.830085
3.8331 -3.73099 -0.832085
3.8651 -3.72699 -0.836085
3.8861 -3.72399 -0.838085
3.9241 -3.71299 -0.842085
3.9411 -3.70599 -0.843085
3.9851 -3.69999 -0.848085
3.9921 -3.69499 -0.848085
4.0401 -3.69199 -0.854085
4.0631 -3.68999 -0.857085
4.1011 -3.67699 -0.860085
4.1251 -3.67499 -0.863085
4.1601 -3.67099 -0.867085
4.1831 -3.66799 -0.870085
4.2231 -3.65599 -0.874085
4.2431 -3.64999 -0.876085
4.2801 -3.64699 -0.881085
4.3471 -3.63399 -0.888085
4.3691 -3.62899 -0.891085
4.4001 -3.63199 -0.895085
4.4091 -3.61499 -0.895085
4.4271 -3.61799 -0.898085
4.4531 -3.61699 -0.901085
4.4681 -3.60499 -0.902085
4.4931 -3.60199 -0.905085
4.5231 -3.60299 -0.909085
4.5401 -3.59299 -0.910085
4.5611 -3.58599 -0.913085
4.5761 -3.58599 -0.915085
4.5961 -3.57899 -0.917085
3.3791 -3.80099 -0.823085
3.4781 -3.77999 -0.833085
3.5851 -3.76299 -0.844085
3.7981 -3.72199 -0.866085
1.1401 -4.21699 -0.781085
1.1481 -4.21999 -0.782085
1.1601 -4.21099 -0.781085
1.2001 -4.20199 -0.781085
1.2141 -4.19999 -0.781085
1.2281 -4.19999 -0.782085
1.2341 -4.19399 -0.781085
1.2471 -4.19199 -0.782085
1.2621 -4.19399 -0.783085
1.2771 -4.19399 -0.784085
1.2901 -4.19199 -0.784085
1.3031 -4.18699 -0.784085
1.3161 -4.18099 -0.784085
1.3251 -4.18699 -0.785085
1.3381 -4.18299 -0.785085
1.3511 -4.17799 -0.785085
1.3641 -4.17199 -0.785085
1.3801 -4.17699 -0.787085
1.3901 -4.16399 -0.785085
1.4051 -4.16699 -0.787085
1.4241 -4.15799 -0.786085
1.4401 -4.16099 -0.788085
1.4551 -4.16199 -0.789085
1.4681 -4.15799 -0.789085
1.4811 -4.15299 -0.789085
1.5001 -4.14399 -0.789085
1.5161 -4.14699 -0.790085
1.5311 -4.14699 -0.791085
1.5411 -4.13499 -0.790085
1.5581 -4.14099 -0.792085
1.5721 -4.13999 -0.793085
1.5871 -4.13899 -0.794085
1.5921 -4.13299 -0.793085
1.6081 -4.13499 -0.795085
1.6201 -4.12799 -0.794085
1.6341 -4.12499 -0.795085
1.6491 -4.12499 -0.796085
1.6621 -4.11999 -0.796085
1.6751 -4.11699 -0.796085
1.6831 -4.11599 -0.797085
1.6961 -4.11199 -0.797085
1.7111 -4.11199 -0.798085
1.7361 -4.09999 -0.798085
1.7501 -4.09599 -0.798085
1.7681 -4.10099 -0.801085
1.7761 -4.10399 -0.802085
1.7891 -4.09799 -0.802085
1.8061 -4.10199 -0.804085
1.8161 -4.09099 -0.803085
1.8301 -4.08699 -0.803085
1.8471 -4.08999 -0.805085
1.8591 -4.08199 -0.805085
1.8741 -4.08199 -0.806085
1.8821 -4.08199 -0.807085
1.8961 -4.07799 -0.807085
1.9091 -4.07399 -0.808085
1.9251 -4.07299 -0.809085
1.9371 -4.06699 -0.809085
1.9501 -4.06099 -0.809085
1.9571 -4.05799 -0.809085
1.9741 -4.06099 -0.811085
1.9911 -4.06299 -0.813085
2.0041 -4.05899 -0.813085
2.0171 -4.05299 -0.813085
2.0311 -4.04999 -0.814085
2.0491 -4.05199 -0.816085
2.0511 -4.04199 -0.814085
2.0691 -4.04599 -0.817085
2.0861 -4.04799 -0.819085
2.0981 -4.03999 -0.818085
2.1101 -4.03099 -0.818085
2.1311 -4.03999 -0.822085
2.1431 -4.03199 -0.821085
2.1571 -4.02899 -0.822085
2.1691 -4.03599 -0.824085
2.1791 -4.02399 -0.823085
2.1961 -4.02499 -0.825085
2.2071 -4.01499 -0.824085
2.2241 -4.01699 -0.826085
2.2381 -4.01099 -0.827085
2.2551 -4.01299 -0.829085
2.2611 -4.00899 -0.829085
2.2791 -4.01099 -0.831085
2.2901 -4.00199 -0.830085
2.3071 -4.00099 -0.832085
2.3201 -3.99599 -0.832085
2.3401 -3.99999 -0.835085
2.3501 -3.98999 -0.835085
2.3571 -3.98599 -0.835085
2.3781 -3.99399 -0.838085
2.3861 -3.97799 -0.836085
2.4071 -3.98599 -0.840085
2.4201 -3.97799 -0.840085
2.4361 -3.97699 -0.841085
2.4441 -3.97699 -0.842085
2.4621 -3.97699 -0.844085
2.4761 -3.97099 -0.845085
2.4911 -3.96799 -0.846085
2.5081 -3.96699 -0.847085
2.5181 -3.95599 -0.847085
2.5361 -3.95599 -0.849085
2.5511 -3.95299 -0.850085
2.5631 -3.95699 -0.852085
2.5741 -3.94799 -0.851085
2.5931 -3.94899 -0.854085
2.6091 -3.94599 -0.855085
2.6251 -3.94499 -0.857085
2.6381 -3.93599 -0.857085
2.6541 -3.93499 -0.858085
2.6631 -3.93399 -0.859085
2.6871 -3.94299 -0.863085
2.6981 -3.93299 -0.863085
2.7121 -3.92599 -0.863085
2.7351 -3.93399 -0.867085
2.7721 -3.91999 -0.869085
2.7841 -3.91099 -0.869085
2.8011 -3.90899 -0.871085
2.8231 -3.91499 -0.875085
2.8701 -3.90199 -0.878085
2.8731 -3.89299 -0.877085
2.8911 -3.89199 -0.879085
2.9071 -3.88699 -0.880085
2.9271 -3.88899 -0.883085
2.9391 -3.87999 -0.883085
2.9611 -3.88299 -0.886085
2.9741 -3.87499 -0.887085
2.9801 -3.87099 -0.887085
3.0031 -3.87499 -0.890085
3.0201 -3.87199 -0.892085
3.0371 -3.86899 -0.894085
3.0571 -3.86799 -0.896085
3.0661 -3.85599 -0.895085
3.1041 -3.86599 -0.902085
3.1121 -3.85099 -0.900085
3.1551 -3.85499 -0.906085
3.1631 -3.83999 -0.905085
3.1801 -3.83599 -0.907085
3.2051 -3.84099 -0.911085
3.2071 -3.83199 -0.910085
3.2251 -3.82899 -0.912085
3.2461 -3.82999 -0.915085
3.2841 -3.82599 -0.919085
3.2991 -3.81799 -0.920085
3.3151 -3.81199 -0.921085
3.3241 -3.81199 -0.922085
3.3481 -3.81399 -0.926085
3.3591 -3.80199 -0.925085
3.3781 -3.80099 -0.928085
3.3951 -3.79599 -0.929085
3.4141 -3.79199 -0.931085
0.555096 -4.30999 -0.853085
0.569096 -4.30799 -0.853085
0.597096 -4.31399 -0.855085
0.612096 -4.31799 -0.857085
0.644096 -4.30599 -0.855085
0.686096 -4.30299 -0.856085
0.699096 -4.30099 -0.856085
0.799096 -4.27799 -0.854085
2.7621 -3.92699 -0.954085
2.7741 -3.91799 -0.954085
2.7931 -3.91899 -0.957085
2.7961 -3.90999 -0.956085
2.8131 -3.90699 -0.958085
2.8281 -3.90299 -0.959085
2.8441 -3.89899 -0.960085
2.8821 -3.89999 -0.965085
1.2081 -4.19899 -0.897085
1.2201 -4.18999 -0.896085
1.2431 -4.19499 -0.899085
1.2691 -4.18699 -0.899085
1.2831 -4.18299 -0.899085
1.3301 -4.17299 -0.899085
1.3431 -4.16799 -0.899085
1.3861 -4.16699 -0.902085
1.3981 -4.15899 -0.901085
1.4201 -4.15899 -0.903085
1.4331 -4.15499 -0.903085
1.4461 -4.15199 -0.903085
1.4791 -4.15899 -0.908085
1.4871 -4.14199 -0.904085
1.5051 -4.14999 -0.908085
1.5141 -4.15499 -0.909085
1.5391 -4.14399 -0.909085
1.5541 -4.14399 -0.910085
1.5631 -4.12799 -0.908085
1.5801 -4.13399 -0.910085
1.5851 -4.12599 -0.909085
1.6021 -4.13199 -0.912085
1.6441 -4.12599 -0.914085
1.6731 -4.12299 -0.916085
1.6871 -4.11899 -0.916085
1.7091 -4.11899 -0.918085
1.7201 -4.10799 -0.917085
1.7631 -4.09999 -0.919085
1.7761 -4.09499 -0.919085
1.8131 -4.09299 -0.922085
1.8311 -4.09799 -0.925085
1.8391 -4.08199 -0.922085
1.8531 -4.07799 -0.922085
1.8691 -4.07899 -0.924085
1.8731 -4.07199 -0.923085
1.8891 -4.07299 -0.925085
1.9171 -4.06499 -0.926085
1.9671 -4.05599 -0.929085
1.9851 -4.05999 -0.932085
1.9971 -4.05199 -0.931085
2.0121 -4.05099 -0.933085
2.0641 -4.04299 -0.936085
2.0911 -4.03299 -0.937085
2.1081 -4.03299 -0.939085
2.1201 -4.02699 -0.939085
2.1561 -4.03199 -0.944085
2.1721 -4.01699 -0.943085
2.1871 -4.01499 -0.944085
2.2351 -4.01099 -0.949085
2.2751 -4.00899 -0.953085
2.3201 -4.00099 -0.956085
2.0651 -4.05599 -0.977085
2.0791 -4.05299 -0.978085
2.1081 -4.04699 -0.980085
2.1211 -4.03999 -0.980085
2.1421 -4.03499 -0.981085
2.1541 -4.02699 -0.980085
2.1981 -4.01699 -0.983085
2.2161 -4.01999 -0.986085
2.2181 -4.00999 -0.984085
2.2511 -4.00899 -0.988085
3.5301 5.10601 0.410915
3.5011 5.09801 0.409915
3.0401 5.02701 0.399915
2.9941 5.02201 0.398915
2.9091 5.00301 0.396915
2.0371 4.84001 0.378915
2.0121 4.82301 0.377915
1.9981 4.83301 0.377915
1.9781 4.82801 0.377915
1.9571 4.81901 0.376915
1.9411 4.82301 0.376915
1.9311 4.82101 0.376915
1.8751 4.81101 0.375915
1.8361 4.79801 0.374915
1.8211 4.80601 0.374915
1.8011 4.79801 0.373915
1.7761 4.79901 0.373915
1.7561 4.79201 0.373915
1.7211 4.78801 0.372915
1.6721 4.76901 0.371915
1.6551 4.76801 0.371915
1.6401 4.77401 0.371915
1.6211 4.76701 0.370915
1.6031 4.76101 0.370915
1.5851 4.75801 0.370915
1.5681 4.75801 0.370915
1.5571 4.74701 0.369915
1.5421 4.75401 0.369915
1.5251 4.75101 0.369915
1.5071 4.74601 0.369915
1.4561 4.73901 0.368915
1.4471 4.73501 0.368915
1.4301 4.73401 0.367915
1.4121 4.72701 0.367915
1.3961 4.72801 0.367915
1.3741 4.70901 0.366915
1.3431 4.71001 0.366915
1.3361 4.71601 0.366915
1.3201 4.71401 0.366915
1.3011 4.70501 0.365915
1.2671 4.69601 0.365915
1.2521 4.70001 0.365915
1.2361 4.69801 0.364915
1.2191 4.69401 0.364915
1.2111 4.69001 0.364915
1.1921 4.67801 0.363915
1.1451 4.67601 0.363915
1.1041 4.66701 0.362915
1.0901 4.67201 0.362915
1.0721 4.66201 0.362915
1.0571 4.66301 0.362915
1.0401 4.65501 0.361915
1.0251 4.65801 0.361915
1.0081 4.65201 0.361915
0.983096 4.64301 0.361915
0.968096 4.64001 0.360915
0.952096 4.63901 0.360915
0.938096 4.64401 0.360915
0.920096 4.62701 0.360915
0.905096 4.62801 0.360915
0.891096 4.63501 0.360915
0.883096 4.63001 0.360915
0.866096 4.62301 0.359915
0.851096 4.62001 0.359915
0.834096 4.61101 0.359915
0.819096 4.61001 0.358915
0.802096 4.60001 0.358915
0.797096 4.60901 0.358915
0.782096 4.61401 0.358915
0.766096 4.60601 0.358915
0.750096 4.59901 0.358915
0.736096 4.60301 0.358915
0.719096 4.59001 0.357915
0.705096 4.59001 0.357915
0.698096 4.59501 0.357915
0.682096 4.58701 0.357915
0.667096 4.58101 0.357915
0.653096 4.59101 0.357915
0.636096 4.57201 0.356915
0.622096 4.58001 0.356915
0.592096 4.56801 0.356915
0.584096 4.56901 0.356915
0.570096 4.56601 0.356915
0.554096 4.55801 0.355915
0.539096 4.55601 0.355915
0.510096 4.55101 0.355915
0.496096 4.55301 0.355915
0.487096 4.54201 0.355915
0.473096 4.54501 0.355915
0.459096 4.54901 0.355915
0.444096 4.54401 0.355915
0.429096 4.53601 0.354915
0.415096 4.53501 0.354915
0.400096 4.53001 0.354915
0.364096 4.53101 0.354915
0.349096 4.51601 0.353915
0.335096 4.51701 0.353915
0.256096 4.51701 0.353915
0.241096 4.50501 0.353915
0.227096 4.50001 0.352915
0.213096 4.49701 0.352915
0.192096 4.50201 0.352915
0.177096 4.49801 0.352915
0.163096 4.48301 0.352915
0.149096 4.48901 0.352915
0.135096 4.48401 0.352915
0.106096 4.47701 0.352915
0.0990959 4.48101 0.352915
0.0710959 4.48101 0.352915
0.0570959 4.47501 0.351915
8.0991 5.96201 0.476915
8.0271 5.94801 0.474915
7.9601 5.93701 0.473915
7.8871 5.92201 0.471915
7.8291 5.91601 0.469915
7.7571 5.90101 0.467915
7.6521 5.87801 0.465915
7.5891 5.86801 0.463915
7.5281 5.85901 0.462915
7.4651 5.84801 0.460915
7.1821 5.79301 0.453915
7.0601 5.76801 0.450915
6.8061 5.72401 0.444915
6.7451 5.70901 0.442915
6.6951 5.70301 0.441915
6.6451 5.69701 0.440915
6.5891 5.68601 0.439915
6.5351 5.67501 0.437915
6.4471 5.65201 0.435915
6.3961 5.64301 0.434915
6.3521 5.64101 0.433915
6.3021 5.63101 0.432915
6.2481 5.61901 0.431915
6.1481 5.59901 0.428915
6.1081 5.58101 0.427915
6.0711 5.58201 0.426915
6.0151 5.56601 0.425915
5.9761 5.56501 0.424915
5.9351 5.56201 0.423915
5.8791 5.54501 0.422915
5.8391 5.54101 0.421915
5.8051 5.52701 0.420915
5.6661 5.49801 0.417915
5.6291 5.49601 0.416915
5.5801 5.48301 0.415915
5.5491 5.48701 0.414915
5.4731 5.46401 0.412915
5.4351 5.46001 0.411915
5.3501 5.44301 0.409915
5.3101 5.43701 0.408915
5.2671 5.42601 0.407915
5.0891 5.39401 0.403915
5.0531 5.39001 0.403915
5.0231 5.39201 0.402915
4.8071 5.34401 0.397915
4.7661 5.33201 0.396915
4.5391 5.29201 0.391915
3.3471 5.07801 0.367915
3.2841 5.06901 0.366915
3.2361 5.06501 0.365915
3.1991 5.04301 0.364915
3.1811 5.05001 0.364915
3.1501 5.03401 0.363915
3.1411 5.03701 0.363915
3.0901 5.02601 0.362915
3.0211 5.01901 0.361915
2.9901 5.00501 0.360915
2.9821 5.01001 0.360915
2.9391 5.00801 0.359915
2.8881 4.99301 0.358915
2.8431 4.98701 0.357915
2.0711 4.83601 0.344915
2.0381 4.84301 0.344915
1.9991 4.83601 0.343915
1.9711 4.83201 0.343915
1.9481 4.82001 0.342915
1.9331 4.82801 0.343915
1.8761 4.81601 0.342915
1.7281 4.79001 0.340915
1.6891 4.77501 0.339915
1.4791 4.74501 0.336915
1.3751 4.72301 0.335915
1.1501 4.68501 0.332915
1.1171 4.67501 0.332915
0.909096 4.64001 0.330915
0.862096 4.63101 0.329915
0.777096 4.61401 0.328915
0.692096 4.59901 0.327915
0.646096 4.58701 0.327915
0.534096 4.56801 0.326915
0.327096 4.51701 0.324915
0.263096 4.50901 0.324915
0.249096 4.51801 0.324915
0.234096 4.51501 0.324915
0.184096 4.49501 0.323915
0.170096 4.49401 0.323915
0.155096 4.49201 0.323915
0.141096 4.49301 0.323915
0.120096 4.48301 0.323915
0.106096 4.48601 0.323915
0.0920959 4.48401 0.323915
0.0630959 4.48201 0.323915
4.8741 5.37301 0.364915
6.3311 5.64301 0.328915
6.2301 5.62401 0.326915
6.0071 5.57901 0.323915
5.9531 5.56401 0.323915
5.9111 5.56001 0.322915
5.8631 5.55001 0.322915
5.8131 5.53801 0.321915
5.7741 5.53501 0.320915
5.7291 5.52701 0.320915
5.6951 5.51101 0.319915
5.6561 5.50801 0.319915
5.6101 5.49801 0.318915
5.5681 5.49201 0.318915
5.5281 5.48701 0.317915
5.4901 5.48301 0.317915
5.4401 5.46801 0.316915
5.4061 5.46801 0.316915
5.3721 5.45101 0.315915
5.3381 5.45001 0.315915
5.2951 5.44101 0.314915
5.2591 5.43801 0.314915
5.2181 5.43001 0.313915
5.1791 5.42301 0.313915
5.1421 5.41901 0.312915
5.1091 5.40101 0.312915
5.0341 5.39001 0.311915
4.9951 5.38201 0.310915
4.8691 5.36401 0.309915
4.7211 5.33401 0.307915
4.6831 5.32501 0.307915
4.6501 5.32201 0.306915
4.6281 5.31401 0.306915
4.5931 5.30701 0.305915
4.5561 5.29801 0.305915
4.5301 5.30101 0.305915
4.4911 5.29001 0.304915
4.4521 5.27801 0.304915
4.4221 5.27501 0.303915
4.3371 5.25701 0.302915
4.3031 5.25101 0.302915
3.5111 5.11601 0.293915
3.4791 5.10401 0.293915
3.4511 5.09901 0.292915
3.4231 5.09101 0.292915
3.4091 5.08801 0.292915
3.3851 5.08601 0.292915
3.3591 5.08101 0.291915
3.3331 5.07701 0.291915
3.3081 5.07401 0.291915
3.2821 5.06901 0.291915
3.2571 5.06601 0.290915
3.2321 5.06101 0.290915
3.1881 5.04601 0.289915
3.1651 5.04401 0.289915
3.1441 5.04601 0.289915
3.1171 5.03901 0.289915
3.0931 5.03501 0.289915
3.0681 5.02901 0.288915
3.0291 5.01801 0.288915
3.0031 5.01201 0.288915
2.9861 5.01801 0.288915
2.9611 5.01201 0.287915
2.9371 5.00701 0.287915
2.9151 5.00601 0.287915
2.8981 4.99501 0.287915
2.8771 4.99601 0.286915
2.8521 4.98901 0.286915
2.8321 4.98901 0.286915
2.8031 4.97601 0.286915
2.7841 4.97801 0.285915
2.0561 4.84701 0.279915
2.0261 4.84001 0.279915
2.0091 4.84301 0.278915
1.9221 4.82401 0.278915
1.7821 4.80101 0.277915
1.7071 4.78201 0.276915
1.6281 4.77301 0.275915
1.5921 4.76601 0.275915
1.5531 4.75001 0.275915
1.5291 4.75101 0.275915
1.4951 4.74901 0.274915
1.4581 4.73401 0.274915
1.4251 4.73301 0.274915
1.3991 4.72701 0.274915
1.3631 4.71601 0.273915
1.3461 4.71301 0.273915
1.3311 4.71501 0.273915
1.3211 4.70901 0.273915
1.3041 4.70401 0.273915
1.2881 4.70401 0.273915
1.2701 4.69801 0.273915
1.2531 4.69301 0.273915
1.2391 4.69901 0.273915
1.2211 4.69101 0.272915
1.2121 4.68701 0.272915
1.1961 4.68701 0.272915
1.1801 4.68501 0.272915
1.1641 4.68301 0.272915
1.1481 4.68101 0.272915
1.1301 4.67201 0.272915
1.1121 4.66001 0.272915
1.0981 4.67001 0.272915
1.0891 4.66201 0.272915
1.0731 4.66101 0.271915
1.0581 4.66101 0.271915
1.0251 4.65401 0.271915
1.0111 4.65701 0.271915
0.994096 4.65201 0.271915
0.985096 4.64601 0.271915
0.971096 4.65101 0.271915
0.954096 4.64001 0.271915
0.937096 4.63501 0.271915
0.923096 4.64001 0.271915
0.907096 4.63501 0.271915
0.891096 4.63001 0.270915
0.866096 4.62101 0.270915
0.852096 4.62301 0.270915
0.836096 4.62001 0.270915
0.821096 4.61901 0.270915
0.806096 4.61901 0.270915
0.791096 4.61601 0.270915
0.774096 4.60901 0.270915
0.767096 4.61201 0.270915
0.752096 4.60601 0.270915
0.736096 4.59901 0.270915
0.720096 4.59701 0.269915
0.706096 4.59701 0.269915
0.690096 4.59201 0.269915
0.676096 4.59401 0.269915
0.667096 4.58901 0.269915
0.652096 4.58701 0.269915
0.638096 4.58901 0.269915
0.608096 4.58301 0.269915
0.592096 4.57501 0.269915
0.577096 4.57101 0.269915
0.569096 4.56801 0.269915
0.556096 4.57601 0.269915
0.540096 4.56901 0.269915
0.525096 4.56701 0.269915
0.511096 4.56501 0.269915
0.495096 4.55601 0.268915
0.481096 4.56001 0.268915
0.473096 4.55501 0.268915
0.444096 4.55201 0.268915
0.415096 4.54801 0.268915
3.5101 5.12001 0.261915
3.0991 5.04601 0.258915
3.0861 5.04201 0.258915
3.0621 5.03801 0.258915
3.0361 5.03101 0.258915
3.0101 5.02301 0.257915
2.9311 5.01401 0.257915
2.9061 5.00801 0.257915
2.8601 5.00001 0.256915
2.8371 4.99601 0.256915
2.8151 4.99501 0.256915
2.7931 4.99101 0.256915
1.9931 4.83101 0.251915
1.9741 4.83001 0.251915
1.9571 4.83001 0.251915
1.9391 4.82901 0.251915
1.9281 4.82301 0.251915
1.9081 4.81801 0.251915
1.8901 4.81601 0.251915
1.8681 4.80301 0.250915
1.8501 4.80201 0.250915
1.8341 4.80601 0.250915
1.8131 4.79501 0.250915
1.8061 4.79901 0.250915
1.7861 4.79201 0.250915
1.7671 4.78601 0.250915
1.7481 4.78001 0.250915
1.7121 4.77601 0.250915
1.6931 4.76801 0.249915
1.6841 4.76901 0.249915
1.6711 4.78001 0.249915
1.6501 4.76601 0.249915
1.6341 4.76801 0.249915
1.5781 4.75101 0.249915
1.5711 4.75301 0.249915
1.5361 4.74701 0.249915
1.5191 4.74501 0.249915
1.5011 4.74001 0.249915
1.4831 4.73501 0.248915
1.4651 4.73001 0.248915
1.4501 4.73501 0.248915
1.4251 4.73201 0.248915
1.4061 4.72101 0.248915
1.3891 4.71801 0.248915
1.3371 4.70501 0.248915
1.3311 4.71301 0.248915
1.2811 4.70201 0.248915
1.2451 4.68701 0.247915
1.2311 4.69301 0.247915
1.1871 4.67501 0.247915
1.1571 4.67901 0.247915
1.1391 4.66901 0.247915
1.1221 4.66301 0.247915
1.0991 4.66201 0.247915
1.0521 4.66101 0.247915
1.0341 4.64801 0.246915
1.0191 4.64701 0.246915
0.963096 4.63501 0.246915
0.948096 4.63801 0.246915
0.915096 4.62401 0.246915
0.876096 4.61701 0.246915
0.831096 4.61401 0.246915
0.602096 4.56801 0.245915
8.2471 5.98701 0.230915
8.1701 5.97001 0.230915
8.1021 5.95901 0.230915
8.0441 5.95601 0.229915
7.7821 5.89601 0.229915
7.7171 5.88601 0.228915
7.6571 5.87801 0.228915
7.5931 5.86701 0.228915
7.4231 5.83101 0.228915
7.3081 5.81501 0.227915
7.2481 5.80401 0.227915
7.0341 5.76201 0.226915
6.9681 5.74501 0.226915
6.9161 5.73901 0.226915
6.8631 5.73101 0.226915
6.7181 5.70101 0.226915
6.6091 5.68101 0.225915
6.5611 5.67601 0.225915
6.5141 5.67101 0.225915
6.3261 5.63101 0.224915
6.2711 5.61801 0.224915
6.2261 5.61401 0.224915
6.1721 5.60001 0.224915
6.1331 5.60001 0.224915
6.0491 5.57601 0.224915
6.0021 5.56801 0.224915
5.9151 5.55701 0.223915
5.8781 5.55701 0.223915
5.8141 5.53201 0.223915
5.7461 5.51901 0.223915
5.6221 5.50301 0.223915
5.5691 5.48601 0.222915
5.5291 5.48101 0.222915
5.4211 5.45901 0.222915
5.2991 5.43901 0.222915
5.2591 5.43201 0.222915
5.2381 5.42801 0.222915
5.1571 5.41201 0.221915
5.0051 5.38701 0.221915
4.3111 5.25301 0.219915
2.8181 4.97701 0.216915
1.6261 4.75901 0.214915
1.0591 4.65201 0.213915
0.971096 4.63701 0.213915
0.884096 4.62101 0.213915
4.9041 5.36501 0.186915
8.2011 5.98801 0.117915
8.1381 5.98201 0.117915
8.0711 5.97101 0.118915
7.9991 5.95801 0.118915
7.9511 5.94101 0.119915
7.8811 5.92801 0.119915
7.8181 5.91901 0.120915
7.7481 5.90501 0.120915
7.6851 5.89501 0.121915
7.4591 5.85401 0.122915
7.3331 5.83001 0.123915
7.1561 5.80101 0.124915
7.0651 5.78301 0.125915
7.0031 5.77001 0.125915
6.6801 5.70101 0.128915
6.6261 5.69101 0.128915
6.5321 5.68201 0.129915
6.4781 5.67101 0.129915
6.3451 5.64401 0.130915
6.2501 5.63001 0.131915
6.1951 5.61701 0.131915
6.1051 5.60501 0.132915
6.0581 5.59801 0.132915
6.0281 5.58801 0.132915
5.9841 5.58301 0.132915
5.9391 5.57501 0.133915
5.8361 5.54801 0.134915
5.7951 5.54401 0.134915
5.7311 5.53601 0.134915
5.6811 5.52201 0.135915
5.6391 5.51601 0.135915
5.6001 5.51201 0.135915
5.5561 5.50301 0.135915
5.4431 5.47801 0.136915
5.4101 5.47901 0.136915
5.3641 5.46601 0.137915
5.3171 5.45301 0.137915
5.1781 5.42901 0.138915
5.1361 5.41901 0.138915
5.0911 5.40601 0.138915
5.0581 5.40501 0.139915
5.0171 5.39601 0.139915
4.8491 5.36501 0.140915
4.8161 5.36301 0.140915
4.7491 5.35601 0.141915
4.6411 5.31801 0.141915
4.6171 5.32501 0.141915
4.5821 5.31801 0.142915
4.5531 5.31701 0.142915
4.5031 5.29401 0.142915
4.4471 5.29401 0.142915
4.4281 5.28901 0.143915
4.3881 5.27501 0.143915
4.3271 5.26901 0.143915
4.2851 5.25201 0.144915
3.4581 5.09801 0.148915
3.4341 5.09701 0.149915
3.4281 5.10601 0.149915
3.3971 5.09301 0.149915
3.3721 5.09101 0.149915
3.3511 5.09501 0.149915
3.3001 5.08501 0.149915
3.2681 5.07201 0.149915
3.2551 5.06901 0.150915
3.2301 5.06601 0.150915
3.2081 5.06601 0.150915
3.1761 5.05101 0.150915
3.1561 5.05401 0.150915
3.0991 5.03301 0.150915
3.0901 5.03601 0.150915
3.0611 5.02501 0.151915
3.0211 5.03101 0.151915
2.9701 5.01701 0.151915
2.9441 5.00901 0.151915
2.9311 5.00501 0.151915
2.8881 5.00301 0.151915
2.8391 4.99101 0.152915
2.8121 4.97901 0.152915
2.7881 4.97401 0.152915
2.7741 4.98601 0.152915
1.9961 4.84101 0.156915
1.8531 4.81401 0.156915
1.8311 4.80101 0.156915
1.8011 4.79101 0.157915
1.7861 4.79601 0.157915
1.7511 4.79401 0.157915
1.7291 4.78101 0.157915
1.6941 4.77901 0.157915
1.6831 4.77201 0.157915
1.6491 4.77101 0.157915
1.5481 4.74401 0.158915
1.4981 4.74101 0.158915
1.4791 4.73201 0.158915
1.4471 4.73401 0.158915
1.3841 4.71501 0.158915
1.3501 4.71001 0.158915
1.3331 4.70701 0.158915
0.367096 4.53101 0.161915
8.1771 5.98601 0.0559148
8.1161 5.98001 0.0559148
7.8621 5.92701 0.0599148
7.7871 5.90901 0.0609148
7.7231 5.89801 0.0609148
7.6661 5.89301 0.0619148
7.6081 5.88601 0.0629148
7.5351 5.86701 0.0639147
7.4251 5.83801 0.0649147
7.3801 5.84001 0.0659148
7.3211 5.83101 0.0659148
7.2661 5.82401 0.0669148
7.1901 5.80001 0.0679147
7.0701 5.77601 0.0699148
7.0311 5.76301 0.0699148
6.9791 5.75701 0.0709148
6.9291 5.75201 0.0709148
6.8631 5.73401 0.0719147
6.7571 5.71701 0.0739148
6.7181 5.72001 0.0739148
6.6681 5.69601 0.0749147
6.6231 5.69301 0.0749147
6.5301 5.68401 0.0759147
6.4191 5.65901 0.0779148
6.3601 5.64201 0.0779148
6.3331 5.63601 0.0789147
6.2371 5.62001 0.0799147
6.1001 5.60201 0.0809148
6.0441 5.58501 0.0819148
5.9681 5.56701 0.0829147
5.8261 5.53801 0.0849148
1.7331 4.78201 0.125915
1.6341 4.76301 0.126915
0.427096 4.54001 0.133915
0.282096 4.51501 0.133915
6.1861 5.62601 0.0219148
5.9131 5.56801 0.0269148
5.8751 5.56801 0.0269148
5.8281 5.55901 0.0279148
5.7731 5.54101 0.0289148
5.5791 5.50901 0.0329148
5.5301 5.49501 0.0339148
5.3721 5.47501 0.0359148
5.3021 5.45401 0.0379148
5.2621 5.44801 0.0379148
5.1851 5.43601 0.0399148
5.1461 5.42901 0.0399148
5.0671 5.41501 0.0419148
5.0301 5.39201 0.0419148
4.8491 5.36601 0.0449148
4.8011 5.36301 0.0459148
4.7641 5.35601 0.0469148
4.7161 5.33501 0.0479148
4.6601 5.33901 0.0489148
4.6271 5.33601 0.0489148
4.4891 5.29301 0.0519148
4.4601 5.29401 0.0519148
4.3591 5.27401 0.0539148
4.3511 5.28101 0.0539148
4.3081 5.26201 0.0549148
3.5111 5.12301 0.0669148
3.4871 5.12201 0.0669148
3.2121 5.07301 0.0709148
1.9831 4.83201 0.0879147
1.9481 4.83101 0.0879147
1.9281 4.82601 0.0879147
1.8921 4.82301 0.0879147
1.8731 4.82201 0.0889148
1.8661 4.82401 0.0889148
1.8441 4.81401 0.0889148
1.8261 4.81001 0.0889148
1.7901 4.80801 0.0899147
1.7701 4.79901 0.0899147
1.7521 4.79701 0.0899147
1.7421 4.79401 0.0899147
1.7241 4.79201 0.0899147
1.7081 4.79401 0.0899147
1.6871 4.78401 0.0909147
1.6711 4.78501 0.0909147
1.6531 4.78301 0.0909147
1.6331 4.77301 0.0909147
1.6211 4.76201 0.0919148
1.6061 4.76801 0.0919148
1.5861 4.75901 0.0919148
1.5701 4.76001 0.0919148
1.5541 4.76201 0.0919148
1.5351 4.75301 0.0919148
1.5151 4.74501 0.0929148
1.4991 4.74601 0.0929148
1.4901 4.74201 0.0929148
1.4711 4.73401 0.0929148
1.4581 4.74401 0.0929148
1.4361 4.72701 0.0939147
1.4201 4.72801 0.0939147
1.4041 4.72901 0.0939147
1.3951 4.72301 0.0939147
1.3761 4.71401 0.0939147
1.3621 4.72001 0.0939147
1.3431 4.71301 0.0939147
1.3251 4.70601 0.0949147
1.3091 4.70401 0.0949147
1.2921 4.70201 0.0949147
1.2841 4.70301 0.0949147
1.2691 4.70501 0.0949147
1.2521 4.69901 0.0949147
1.2361 4.70101 0.0949147
1.2181 4.69101 0.0949147
1.2031 4.69301 0.0959148
1.1851 4.68501 0.0959148
1.1721 4.69501 0.0959148
1.1451 4.68301 0.0959148
1.1281 4.67501 0.0959148
1.1131 4.67801 0.0959148
1.0951 4.66801 0.0969147
1.0811 4.67301 0.0969147
1.0541 4.65901 0.0969147
1.0391 4.66001 0.0969147
1.0241 4.66001 0.0969147
1.0061 4.64901 0.0969147
0.992096 4.65601 0.0969147
0.974096 4.64201 0.0979147
0.960096 4.64901 0.0979147
0.949096 4.63501 0.0979147
0.938096 4.65101 0.0979147
0.919096 4.63501 0.0979147
0.906096 4.64301 0.0979147
0.887096 4.62501 0.0979147
0.874096 4.63701 0.0979147
0.857096 4.62601 0.0979147
0.841096 4.62301 0.0989147
0.833096 4.61601 0.0989147
0.820096 4.63101 0.0979147
0.803096 4.61801 0.0989147
0.788096 4.61801 0.0989147
0.771096 4.60501 0.0989147
0.757096 4.61101 0.0989147
0.741096 4.60201 0.0989147
0.734096 4.60901 0.0989147
0.718096 4.59701 0.0999148
0.689096 4.60601 0.0989147
0.657096 4.59001 0.0999148
0.644096 4.59801 0.0999148
0.635096 4.58501 0.0999148
0.620096 4.58501 0.0999148
0.605096 4.58301 0.0999148
0.591096 4.58501 0.0999148
0.575096 4.57701 0.0999148
0.537096 4.56301 0.100915
0.524096 4.57501 0.100915
0.508096 4.56701 0.100915
0.493096 4.56601 0.100915
0.449096 4.56101 0.100915
0.412096 4.55201 0.100915
0.398096 4.55201 0.100915
0.383096 4.54901 0.100915
0.369096 4.54601 0.100915
0.354096 4.53901 0.101915
0.316096 4.52201 0.101915
0.288096 4.52401 0.101915
0.259096 4.51301 0.101915
0.245096 4.52401 0.101915
0.238096 4.51501 0.101915
0.224096 4.51901 0.101915
0.209096 4.50401 0.102915
0.195096 4.51101 0.101915
0.180096 4.50101 0.102915
0.152096 4.49601 0.102915
0.145096 4.50101 0.102915
0.130096 4.49501 0.102915
0.116096 4.48901 0.102915
0.102096 4.49601 0.102915
0.0880959 4.48601 0.102915
0.0600959 4.48501 0.102915
0.0240959 4.48301 0.102915
0.0100959 4.48101 0.102915
4.8511 5.37501 0.00791475
4.7241 5.35101 0.0109148
4.6581 5.34301 0.0119148
4.4691 5.30801 0.0159148
1.9181 4.81501 0.0619148
1.9011 4.81501 0.0619148
1.8621 4.80701 0.0619148
1.8391 4.81301 0.0619148
1.8151 4.79701 0.0629148
1.8001 4.80101 0.0629148
1.7451 4.79101 0.0639147
1.7351 4.78801 0.0639147
1.7181 4.78601 0.0639147
1.6821 4.78001 0.0649147
1.6621 4.77201 0.0649147
1.6431 4.76401 0.0649147
1.6251 4.76101 0.0659148
1.6201 4.77101 0.0649147
1.5671 4.76201 0.0659148
1.5021 4.73801 0.0669148
1.4861 4.73701 0.0669148
1.4691 4.73601 0.0669148
1.4531 4.73701 0.0679147
1.4351 4.73201 0.0679147
1.3871 4.73401 0.0679147
1.3751 4.71901 0.0689147
1.3581 4.71701 0.0689147
1.3421 4.71801 0.0689147
1.3091 4.71001 0.0689147
1.2941 4.71601 0.0689147
1.2761 4.70901 0.0699148
1.2661 4.69901 0.0699148
1.2191 4.70101 0.0699148
1.1861 4.69301 0.0709148
1.1681 4.68501 0.0709148
1.1271 4.67501 0.0709148
1.0951 4.67201 0.0719147
1.0791 4.66801 0.0719147
1.0641 4.67301 0.0719147
1.0371 4.65501 0.0719147
1.0241 4.66601 0.0719147
1.0061 4.65301 0.0729147
0.989096 4.64501 0.0729147
0.974096 4.64601 0.0729147
0.960096 4.65101 0.0729147
0.950096 4.64101 0.0729147
0.935096 4.63801 0.0729147
0.920096 4.64101 0.0729147
0.905096 4.64001 0.0729147
0.873096 4.63101 0.0739148
0.857096 4.62601 0.0739148
0.842096 4.62301 0.0739148
0.819096 4.62301 0.0739148
0.803096 4.61401 0.0749147
0.773096 4.61501 0.0749147
0.757096 4.60901 0.0749147
0.734096 4.60301 0.0749147
0.720096 4.60701 0.0749147
0.689096 4.59601 0.0759147
0.674096 4.59801 0.0759147
0.644096 4.59601 0.0759147
0.637096 4.59701 0.0759147
0.605096 4.57701 0.0759147
0.591096 4.57901 0.0759147
0.561096 4.57101 0.0769148
0.546096 4.57001 0.0769148
0.532096 4.57401 0.0769148
0.523096 4.56101 0.0769148
0.510096 4.57301 0.0769148
0.495096 4.56401 0.0769148
0.480096 4.56201 0.0769148
0.464096 4.55101 0.0769148
0.450096 4.55701 0.0769148
0.443096 4.55301 0.0769148
0.429096 4.55901 0.0769148
0.414096 4.55601 0.0769148
0.399096 4.54701 0.0779148
0.385096 4.54901 0.0779148
0.370096 4.54801 0.0779148
0.355096 4.53501 0.0779148
0.348096 4.54001 0.0779148
0.334096 4.53501 0.0779148
0.318096 4.52001 0.0789147
0.304096 4.51901 0.0789147
0.247096 4.50801 0.0789147
0.211096 4.50201 0.0789147
0.197096 4.50501 0.0789147
0.182096 4.50101 0.0789147
0.168096 4.50401 0.0789147
0.154096 4.49401 0.0789147
0.147096 4.48901 0.0799147
0.104096 4.48801 0.0799147
0.0760959 4.47801 0.0799147
0.0620959 4.48501 0.0799147
0.0550959 4.48101 0.0799147
0.0410959 4.47301 0.0799147
0.0270959 4.47901 0.0799147
0.0130959 4.47501 0.0799147
7.7721 5.92301 -0.116085
7.0141 5.77901 -0.0950852
6.6471 5.70901 -0.0840852
6.5441 5.69301 -0.0810852
6.3901 5.66601 -0.0770852
6.3111 5.65001 -0.0750853
6.2591 5.63901 -0.0730852
5.9431 5.58001 -0.0650852
5.8501 5.56301 -0.0620852
5.8011 5.55101 -0.0610852
5.6461 5.52301 -0.0560852
5.5931 5.50601 -0.0550852
5.5591 5.50701 -0.0540852
5.5201 5.50301 -0.0530852
5.4731 5.49101 -0.0520852
5.4361 5.48801 -0.0510852
5.3681 5.47101 -0.0490852
5.3301 5.46701 -0.0480852
5.2391 5.44301 -0.0450852
5.2061 5.44201 -0.0450852
5.1651 5.43401 -0.0440852
5.1261 5.42701 -0.0430852
5.0971 5.41301 -0.0420852
5.0591 5.40701 -0.0410852
5.0201 5.40001 -0.0400852
4.8511 5.36801 -0.0350852
4.8081 5.35501 -0.0340852
4.7741 5.35101 -0.0330852
4.7441 5.35101 -0.0330852
4.6981 5.33301 -0.0310852
4.6671 5.33101 -0.0300852
4.6331 5.32601 -0.0300852
4.6101 5.31701 -0.0290852
4.5791 5.31501 -0.0280852
4.5481 5.31201 -0.0270852
4.5071 5.29901 -0.0260852
4.4751 5.29501 -0.0260852
4.4441 5.29201 -0.0250852
4.4061 5.28001 -0.0240852
4.3551 5.27001 -0.0220852
4.2901 5.25901 -0.0210852
1.9921 4.83301 0.0289148
1.9731 4.83001 0.0289148
1.9181 4.82501 0.0299148
1.9101 4.82601 0.0299148
1.8741 4.82301 0.0309148
1.8511 4.81001 0.0309148
1.8321 4.80501 0.0319148
1.8161 4.80901 0.0319148
1.7831 4.79101 0.0329148
1.7661 4.79101 0.0329148
1.7491 4.79101 0.0329148
1.7331 4.79401 0.0329148
1.7131 4.78701 0.0339148
1.6931 4.77701 0.0339148
1.6811 4.79001 0.0339148
1.6661 4.77401 0.0349148
1.6321 4.77301 0.0349148
1.6171 4.77601 0.0349148
1.5981 4.76901 0.0349148
1.5811 4.76901 0.0359148
1.5631 4.76601 0.0359148
1.5451 4.76201 0.0359148
1.5331 4.75101 0.0369148
1.5181 4.75401 0.0369148
1.4991 4.74701 0.0369148
1.4851 4.75301 0.0369148
1.4631 4.73701 0.0379148
1.4471 4.73601 0.0379148
1.4331 4.74401 0.0379148
1.4201 4.72901 0.0379148
1.4031 4.72601 0.0389148
1.3891 4.73201 0.0389148
1.3681 4.71801 0.0389148
1.3541 4.72201 0.0389148
1.3381 4.72201 0.0389148
1.3171 4.70501 0.0399148
1.3111 4.71301 0.0399148
1.2961 4.71501 0.0399148
1.2761 4.70201 0.0399148
1.2611 4.70601 0.0399148
1.2451 4.70401 0.0409148
1.2291 4.70401 0.0409148
1.2111 4.69501 0.0409148
1.2031 4.69401 0.0409148
1.1671 4.67701 0.0419148
1.1551 4.69001 0.0419148
1.1351 4.67401 0.0419148
1.1191 4.67201 0.0429148
1.1051 4.67701 0.0429148
1.0941 4.66401 0.0429148
1.0791 4.66901 0.0429148
1.0641 4.67001 0.0429148
1.0471 4.66401 0.0429148
1.0301 4.65601 0.0439148
1.0161 4.66301 0.0439148
0.998096 4.64801 0.0439148
0.981096 4.64401 0.0439148
0.975096 4.65101 0.0439148
0.957096 4.63801 0.0449148
0.944096 4.64501 0.0449148
0.927096 4.64001 0.0449148
0.895096 4.62801 0.0449148
0.879096 4.62701 0.0459148
0.856096 4.62201 0.0459148
0.842096 4.62801 0.0459148
0.811096 4.62401 0.0459148
0.797096 4.62801 0.0459148
0.756096 4.60501 0.0469148
0.725096 4.59901 0.0469148
0.710096 4.59801 0.0469148
0.679096 4.59001 0.0479148
0.665096 4.59601 0.0479148
0.626096 4.58001 0.0479148
0.558096 4.56401 0.0489148
0.514096 4.55701 0.0499148
0.500096 4.56301 0.0489148
0.463096 4.55301 0.0499148
0.433096 4.54201 0.0499148
0.418096 4.53901 0.0499148
0.404096 4.54001 0.0499148
0.375096 4.53701 0.0509148
0.352096 4.52701 0.0509148
0.244096 4.50601 0.0519148
0.230096 4.50601 0.0519148
0.216096 4.51101 0.0519148
0.137096 4.49001 0.0529148
0.123096 4.48501 0.0529148
0.0730959 4.48001 0.0529148
0.0590959 4.47601 0.0529148
0.0170959 4.46801 0.0529148
5.1161 5.42901 -0.0920852
5.0721 5.41601 -0.0900853
4.9941 5.40101 -0.0880852
4.9231 5.39101 -0.0850853
4.8651 5.37801 -0.0840852
4.7631 5.36501 -0.0810852
4.6341 5.33701 -0.0770852
4.6051 5.33601 -0.0760853
4.4601 5.30201 -0.0710853
4.4051 5.28601 -0.0690852
4.3781 5.28701 -0.0690852
4.3491 5.28501 -0.0680852
4.3151 5.27701 -0.0670853
3.5391 5.12801 -0.0440852
3.4921 5.12901 -0.0430852
3.4641 5.12201 -0.0420852
3.4241 5.11501 -0.0410852
3.3981 5.11001 -0.0410852
3.2311 5.08101 -0.0360852
3.1801 5.07001 -0.0350852
1.4291 4.74501 0.00491475
1.3741 4.72401 0.00591475
1.0231 4.66901 0.0119148
1.0001 4.66601 0.0119148
0.901096 4.62901 0.0139148
0.748096 4.60601 0.0159148
0.666096 4.60401 0.0169148
0.552096 4.57701 0.0179148
0.470096 4.55201 0.0199148
0.426096 4.54401 0.0199148
0.390096 4.54201 0.0199148
0.346096 4.53701 0.0209148
0.302096 4.52001 0.0209148
0.288096 4.52501 0.0209148
0.174096 4.50901 0.0219148
0.0670959 4.48601 0.0229148
0.0390959 4.48801 0.0229148
8.1211 5.98201 -0.253085
8.0661 5.98101 -0.251085
7.6901 5.91201 -0.236085
5.8431 5.56701 -0.163085
5.5541 5.51401 -0.153085
5.4931 5.48701 -0.150085
5.3031 5.46701 -0.143085
5.1121 5.42301 -0.136085
5.0181 5.40701 -0.133085
4.8701 5.38301 -0.127085
4.7951 5.36701 -0.125085
4.7731 5.36001 -0.124085
4.7411 5.35901 -0.123085
4.5921 5.32401 -0.117085
3.5201 5.13101 -0.0810852
3.3881 5.10901 -0.0770852
3.3611 5.10301 -0.0760853
3.3291 5.09001 -0.0750853
3.2671 5.08301 -0.0730852
3.2181 5.07601 -0.0720853
3.1951 5.07401 -0.0710853
3.1281 5.05701 -0.0690852
3.0081 5.03901 -0.0650852
2.9001 5.01901 -0.0620852
2.8541 5.01101 -0.0610852
1.6131 4.78001 -0.0290852
1.4791 4.75201 -0.0260852
1.0521 4.67001 -0.0170852
0.940096 4.65101 -0.0150852
0.862096 4.64001 -0.0140852
0.792096 4.62601 -0.0130852
0.592096 4.58101 -0.0100852
0.512096 4.57701 -0.00908525
0.371096 4.55001 -0.00708525
0.341096 4.53301 -0.00708525
0.327096 4.53601 -0.00708525
0.277096 4.53101 -0.00608525
0.262096 4.52401 -0.00608525
0.247096 4.52301 -0.00608525
0.233096 4.51601 -0.00608525
0.225096 4.50801 -0.00508525
0.197096 4.51501 -0.00508525
0.169096 4.51001 -0.00508525
0.133096 4.50201 -0.00508525
0.104096 4.48801 -0.00408525
0.0760959 4.48501 -0.00408525
0.0120959 4.48001 -0.00408525
8.2001 5.99201 -0.315085
8.1431 5.99001 -0.312085
8.0791 5.98201 -0.309085
8.0231 5.96001 -0.307085
7.9481 5.94301 -0.303085
7.8871 5.93501 -0.300085
7.8121 5.91801 -0.297085
7.7571 5.91401 -0.294085
7.6401 5.90101 -0.289085
7.5861 5.87801 -0.287085
7.5251 5.86901 -0.284085
7.4601 5.85501 -0.281085
7.4041 5.84901 -0.278085
7.3491 5.84301 -0.276085
7.2721 5.81901 -0.272085
7.2231 5.81601 -0.270085
7.1761 5.79801 -0.268085
7.0661 5.78201 -0.263085
7.0201 5.78101 -0.261085
6.9461 5.75701 -0.258085
6.9011 5.75501 -0.256085
6.8501 5.75001 -0.254085
6.7491 5.71901 -0.249085
6.7051 5.71801 -0.247085
6.6461 5.70401 -0.244085
6.5911 5.69201 -0.242085
6.5551 5.69701 -0.241085
6.4931 5.67901 -0.238085
6.4591 5.66701 -0.236085
6.4171 5.66601 -0.235085
6.3601 5.65101 -0.232085
6.3091 5.64001 -0.230085
6.2551 5.62801 -0.227085
6.2111 5.62301 -0.225085
6.1671 5.61901 -0.224085
6.1431 5.61501 -0.223085
6.0831 5.59501 -0.220085
6.0411 5.59101 -0.218085
5.9951 5.58401 -0.216085
5.9441 5.57101 -0.214085
5.8991 5.56301 -0.212085
5.8661 5.56701 -0.211085
5.6941 5.52401 -0.203085
5.6481 5.51301 -0.201085
5.6201 5.52001 -0.200085
5.5681 5.50401 -0.198085
5.5401 5.49301 -0.196085
5.5031 5.49001 -0.195085
5.3801 5.46901 -0.190085
5.3371 5.46001 -0.188085
5.0761 5.40901 -0.177085
4.5331 5.30801 -0.155085
4.3481 5.27301 -0.148085
3.5161 5.11801 -0.116085
3.3811 5.10701 -0.112085
3.3061 5.07801 -0.109085
3.2541 5.06901 -0.107085
3.2301 5.06501 -0.106085
3.2031 5.05901 -0.105085
3.0461 5.03401 -0.100085
3.0211 5.02801 -0.0990852
2.9941 5.01901 -0.0980853
2.9351 5.00901 -0.0960853
2.9131 5.00601 -0.0960853
2.8931 5.00801 -0.0950852
2.8431 4.99301 -0.0930853
2.8381 5.00301 -0.0940853
2.8131 4.99601 -0.0930853
2.0041 4.84401 -0.0680852
1.9531 4.82601 -0.0660852
1.8991 4.82201 -0.0650852
1.8831 4.82601 -0.0650852
1.8721 4.82201 -0.0640853
1.8561 4.82401 -0.0640853
1.8331 4.80901 -0.0630853
1.8141 4.80401 -0.0630853
1.7961 4.80201 -0.0620852
1.7591 4.79401 -0.0610852
1.7491 4.78901 -0.0610852
1.6991 4.79401 -0.0600852
1.6241 4.77201 -0.0580852
1.5991 4.77001 -0.0570852
1.5431 4.75101 -0.0560852
1.5011 4.74901 -0.0550852
1.4821 4.73901 -0.0540852
1.4011 4.74001 -0.0530852
1.2721 4.70801 -0.0500852
0.947096 4.64301 -0.0430852
7.8901 5.94701 -0.364085
7.8301 5.94001 -0.361085
7.7631 5.92801 -0.357085
7.6311 5.90401 -0.351085
7.4651 5.87001 -0.342085
7.3961 5.85401 -0.338085
7.0551 5.78701 -0.321085
7.0121 5.78901 -0.319085
6.9451 5.77001 -0.316085
6.8951 5.76501 -0.313085
6.7291 5.73501 -0.305085
6.6921 5.72301 -0.303085
6.6381 5.71301 -0.300085
6.5821 5.70101 -0.297085
6.5401 5.70101 -0.296085
6.4841 5.68801 -0.293085
6.4301 5.67701 -0.290085
6.3391 5.65001 -0.285085
6.2921 5.64401 -0.283085
6.2501 5.64201 -0.281085
6.2031 5.63501 -0.279085
6.1451 5.61801 -0.276085
6.1071 5.61801 -0.274085
6.0521 5.60401 -0.272085
6.0161 5.58801 -0.269085
5.9761 5.58601 -0.268085
5.9281 5.57601 -0.265085
5.8801 5.56601 -0.263085
5.8391 5.56301 -0.261085
5.7971 5.55701 -0.259085
5.7521 5.54901 -0.257085
5.6701 5.52201 -0.253085
5.6341 5.52201 -0.251085
5.5841 5.50701 -0.249085
5.5481 5.50701 -0.247085
5.5071 5.50001 -0.245085
5.4711 5.49901 -0.244085
5.4271 5.48901 -0.242085
5.3481 5.46101 -0.237085
5.3041 5.45101 -0.235085
5.2311 5.44401 -0.232085
5.1891 5.43401 -0.230085
5.0911 5.41701 -0.225085
4.8031 5.35901 -0.212085
3.5141 5.12201 -0.156085
3.4941 5.12601 -0.156085
2.9881 5.02301 -0.136085
2.9201 5.01601 -0.133085
2.9041 5.00701 -0.132085
2.8821 5.00401 -0.132085
2.8551 4.99401 -0.130085
2.8151 4.99601 -0.129085
2.0311 4.85101 -0.103085
2.0111 4.84701 -0.102085
1.9891 4.83801 -0.101085
1.9731 4.84301 -0.101085
1.9561 4.84301 -0.100085
1.9381 4.84201 -0.100085
1.9261 4.83601 -0.0990852
1.9031 4.82101 -0.0980853
1.8911 4.83501 -0.0990852
1.8531 4.82801 -0.0980853
1.8321 4.81901 -0.0970853
1.8141 4.81701 -0.0960853
1.7961 4.81501 -0.0960853
1.7861 4.81101 -0.0950852
1.7681 4.80901 -0.0950852
1.7301 4.79901 -0.0940853
1.7131 4.79901 -0.0930853
1.6771 4.79301 -0.0920852
1.6651 4.78401 -0.0920852
1.6291 4.77701 -0.0910852
1.6131 4.78101 -0.0900853
1.5941 4.77201 -0.0900853
1.5731 4.75801 -0.0890853
1.5491 4.76201 -0.0880852
1.5281 4.74801 -0.0870853
1.5131 4.75301 -0.0870853
1.4951 4.74801 -0.0870853
1.4771 4.74501 -0.0860853
1.4611 4.74601 -0.0860853
1.0781 4.68301 -0.0770852
1.0461 4.67601 -0.0760853
0.854096 4.63601 -0.0720853
0.767096 4.60901 -0.0690852
0.736096 4.60201 -0.0690852
0.721096 4.60401 -0.0690852
0.668096 4.59201 -0.0680852
0.653096 4.59201 -0.0670853
0.623096 4.58601 -0.0670853
0.593096 4.58201 -0.0660852
0.571096 4.58301 -0.0660852
0.555096 4.57301 -0.0660852
0.495096 4.55701 -0.0640853
0.481096 4.56301 -0.0650852
0.474096 4.56801 -0.0650852
0.460096 4.56501 -0.0650852
0.444096 4.55101 -0.0640853
0.414096 4.54501 -0.0630853
0.400096 4.55101 -0.0630853
0.386096 4.54801 -0.0630853
0.379096 4.54801 -0.0630853
0.350096 4.54501 -0.0630853
0.290096 4.52101 -0.0610852
0.255096 4.51701 -0.0610852
0.240096 4.52001 -0.0610852
0.226096 4.51301 -0.0610852
0.211096 4.50901 -0.0600852
0.197096 4.50801 -0.0600852
0.183096 4.50501 -0.0600852
0.175096 4.49701 -0.0600852
0.161096 4.49901 -0.0600852
0.147096 4.49201 -0.0590852
0.133096 4.50001 -0.0600852
0.119096 4.49101 -0.0590852
0.105096 4.49301 -0.0590852
0.0900959 4.48701 -0.0590852
0.0830959 4.48401 -0.0590852
0.0690959 4.48001 -0.0580852
0.0550959 4.48001 -0.0580852
0.0410959 4.47601 -0.0580852
0.0130959 4.47601 -0.0580852
5.1291 5.43101 -0.268085
4.8091 5.37001 -0.251085
4.7331 5.35301 -0.247085
4.6641 5.34101 -0.244085
4.6091 5.32901 -0.241085
4.5441 5.32101 -0.238085
4.4671 5.29701 -0.234085
4.3671 5.29501 -0.230085
3.4991 5.12601 -0.189085
3.4381 5.10501 -0.186085
3.3071 5.09801 -0.181085
3.2661 5.08701 -0.179085
3.2121 5.07201 -0.177085
3.1911 5.07501 -0.176085
3.1441 5.06901 -0.174085
3.1141 5.05701 -0.173085
3.0551 5.04901 -0.170085
3.0091 5.04401 -0.169085
2.9611 5.03501 -0.167085
2.9151 5.01101 -0.164085
2.8041 4.99901 -0.160085
2.7861 4.98401 -0.159085
2.0041 4.84401 -0.130085
1.9671 4.83801 -0.129085
1.9501 4.84101 -0.128085
1.9201 4.83301 -0.127085
1.8841 4.82801 -0.126085
1.8481 4.82701 -0.125085
1.8181 4.81501 -0.124085
1.7831 4.81301 -0.123085
1.7461 4.80501 -0.122085
1.6261 4.77601 -0.118085
1.4961 4.75901 -0.114085
1.4591 4.74401 -0.112085
1.4511 4.74601 -0.112085
1.3251 4.72901 -0.109085
1.2921 4.72201 -0.108085
1.2411 4.71001 -0.107085
1.2331 4.70901 -0.107085
1.1841 4.70401 -0.106085
1.1091 4.68201 -0.103085
1.0931 4.67901 -0.103085
1.0291 4.67101 -0.101085
1.0201 4.66301 -0.101085
0.871096 4.64201 -0.0980853
0.840096 4.63801 -0.0970853
0.802096 4.63301 -0.0960853
0.785096 4.61901 -0.0950852
0.754096 4.61201 -0.0950852
0.739096 4.61101 -0.0940853
0.725096 4.61901 -0.0950852
0.702096 4.61401 -0.0940853
0.672096 4.60701 -0.0930853
0.641096 4.59901 -0.0930853
0.611096 4.59501 -0.0920852
0.596096 4.59301 -0.0920852
0.544096 4.58201 -0.0910852
0.507096 4.57801 -0.0900853
0.447096 4.56401 -0.0890853
0.418096 4.56101 -0.0890853
0.410096 4.55301 -0.0880852
0.396096 4.55501 -0.0880852
0.353096 4.55001 -0.0880852
0.323096 4.53801 -0.0870853
0.0160959 4.48001 -0.0830853
8.0661 5.98001 -0.497085
8.0011 5.97101 -0.493085
7.9231 5.95201 -0.488085
7.8701 5.95201 -0.485085
7.8041 5.94001 -0.481085
7.7311 5.92401 -0.476085
7.6681 5.91401 -0.472085
7.6101 5.88801 -0.468085
7.5551 5.88401 -0.465085
7.4971 5.87701 -0.461085
7.4351 5.86601 -0.457085
7.3771 5.85801 -0.454085
7.3151 5.84701 -0.450085
7.2671 5.82701 -0.447085
7.2101 5.81901 -0.443085
7.1531 5.81001 -0.440085
7.0851 5.79201 -0.436085
7.0391 5.79201 -0.433085
6.9881 5.78701 -0.430085
6.9311 5.77701 -0.427085
6.8831 5.75501 -0.423085
6.8321 5.75001 -0.420085
6.7681 5.73301 -0.416085
6.7211 5.72901 -0.414085
6.6731 5.72401 -0.411085
6.6161 5.71201 -0.407085
6.5671 5.70601 -0.404085
6.5251 5.68801 -0.401085
6.4701 5.67601 -0.398085
6.4291 5.67601 -0.396085
6.3771 5.66601 -0.393085
6.3211 5.65101 -0.389085
6.2801 5.65101 -0.387085
6.2211 5.63401 -0.383085
6.1811 5.63301 -0.381085
6.1501 5.62301 -0.379085
6.1051 5.61601 -0.377085
6.0471 5.59901 -0.373085
6.0081 5.59801 -0.371085
5.9671 5.59501 -0.369085
5.9171 5.58301 -0.366085
5.8751 5.57901 -0.363085
5.8391 5.56201 -0.361085
5.7891 5.55001 -0.358085
5.7461 5.54301 -0.355085
5.7131 5.54601 -0.354085
5.6611 5.53101 -0.350085
5.6151 5.52001 -0.348085
5.5781 5.51901 -0.346085
5.5391 5.49801 -0.343085
5.5061 5.50001 -0.341085
5.4651 5.49301 -0.339085
5.4251 5.48801 -0.337085
5.3831 5.47901 -0.334085
5.3471 5.47701 -0.333085
5.3021 5.46601 -0.330085
5.2711 5.45101 -0.328085
5.2301 5.44301 -0.325085
5.1951 5.44101 -0.323085
5.1591 5.43701 -0.322085
5.1251 5.43601 -0.320085
5.0771 5.41901 -0.317085
5.0421 5.41601 -0.315085
4.8231 5.36401 -0.302085
4.8031 5.37701 -0.302085
4.7451 5.36201 -0.299085
4.7121 5.35901 -0.297085
4.6661 5.34101 -0.294085
4.6381 5.34201 -0.293085
4.5661 5.32701 -0.289085
4.5381 5.31101 -0.287085
4.5091 5.31101 -0.285085
4.4741 5.30301 -0.283085
4.4361 5.29301 -0.281085
4.4121 5.29801 -0.280085
4.3721 5.28401 -0.278085
4.3441 5.28401 -0.277085
4.3311 5.28501 -0.276085
4.2261 5.25701 -0.270085
4.1611 5.24401 -0.267085
4.1251 5.23301 -0.264085
4.0821 5.22801 -0.262085
4.0491 5.22101 -0.260085
3.9561 5.20201 -0.256085
3.9291 5.20001 -0.254085
3.9021 5.19801 -0.253085
3.8821 5.18801 -0.252085
3.8611 5.19401 -0.251085
3.7971 5.17601 -0.248085
3.7421 5.16901 -0.245085
3.6961 5.15601 -0.242085
3.6111 5.14001 -0.238085
3.4851 5.11401 -0.232085
3.4311 5.10401 -0.229085
3.2871 5.07701 -0.222085
3.2131 5.06801 -0.219085
3.0981 5.04301 -0.213085
3.0531 5.04001 -0.211085
3.0231 5.02801 -0.210085
2.9431 5.01801 -0.206085
2.9191 5.01301 -0.205085
2.8951 5.00901 -0.204085
2.8711 5.00401 -0.203085
2.8451 4.99601 -0.201085
2.0581 4.85201 -0.169085
1.9491 4.82801 -0.164085
1.9321 4.82801 -0.164085
1.9121 4.82301 -0.163085
1.8961 4.82701 -0.163085
1.8661 4.81801 -0.161085
1.8091 4.80501 -0.159085
1.7551 4.79801 -0.157085
1.7451 4.79301 -0.157085
1.7111 4.79501 -0.156085
1.6901 4.78301 -0.155085
1.6591 4.79001 -0.155085
1.6361 4.77201 -0.153085
1.6141 4.78201 -0.153085
1.5591 4.76701 -0.151085
1.5371 4.75201 -0.150085
1.5211 4.75301 -0.149085
1.4651 4.75701 -0.148085
1.4121 4.74501 -0.147085
1.3931 4.73401 -0.145085
1.3681 4.73101 -0.145085
1.2971 4.70801 -0.142085
1.2721 4.70601 -0.141085
1.2551 4.70101 -0.141085
1.2261 4.71001 -0.141085
1.1901 4.69501 -0.139085
1.1491 4.68501 -0.138085
1.1311 4.67901 -0.137085
1.0991 4.67201 -0.136085
1.0821 4.66801 -0.136085
1.0101 4.65501 -0.134085
0.994096 4.65201 -0.133085
0.962096 4.64701 -0.132085
0.948096 4.65001 -0.132085
0.907096 4.63801 -0.131085
0.860096 4.62801 -0.130085
0.822096 4.62301 -0.129085
0.790096 4.61301 -0.128085
0.729096 4.60801 -0.127085
0.562096 4.57301 -0.123085
0.525096 4.56401 -0.122085
0.466096 4.55201 -0.121085
0.436096 4.54901 -0.120085
0.414096 4.54501 -0.120085
0.400096 4.54201 -0.120085
0.356096 4.53601 -0.119085
0.319096 4.52501 -0.118085
0.197096 4.50401 -0.116085
0.154096 4.50301 -0.116085
0.0760959 4.48001 -0.114085
4.8161 5.37801 -0.338085
4.5721 5.33501 -0.324085
4.5321 5.32201 -0.321085
