4.73506 -1.226 -1.69089
4.73706 -1.21 -1.68989
4.73306 -1.194 -1.68789
4.74406 -1.181 -1.68989
4.74206 -1.133 -1.68589
4.74606 -1.126 -1.68589
4.77306 -1.116 -1.69489
4.75506 -1.096 -1.68689
4.78206 -1.087 -1.69589
4.75806 -1.066 -1.68589
4.77606 -1.054 -1.69089
4.76306 -1.035 -1.68489
4.77506 -1.03 -1.68889
4.77106 -1.014 -1.68589
4.77606 -0.983001 -1.68589
4.80606 -0.974001 -1.69589
4.78706 -0.954001 -1.68789
4.80306 -0.942001 -1.69189
4.79206 -0.932001 -1.68789
4.80206 -0.918001 -1.68989
4.80406 -0.887001 -1.68889
4.80706 -0.872001 -1.68889
4.80406 -0.856001 -1.68689
4.82106 -0.836001 -1.69189
4.83306 -0.807001 -1.69489
4.81606 -0.788001 -1.68689
4.82206 -0.774001 -1.68789
4.81706 -0.757001 -1.68589
4.83206 -0.744001 -1.68989
4.82206 -0.735001 -1.68589
4.84506 -0.723001 -1.69389
4.86206 -0.709001 -1.69889
4.84006 -0.660001 -1.68889
4.85506 -0.646001 -1.69389
4.84406 -0.630001 -1.68889
4.84506 -0.622001 -1.68889
4.86406 -0.609001 -1.69489
4.84706 -0.591001 -1.68789
4.86806 -0.563001 -1.69489
4.85506 -0.546001 -1.68889
4.86606 -0.508001 -1.69189
4.86406 -0.477001 -1.68989
4.88406 -0.464001 -1.69689
4.86706 -0.447001 -1.68989
4.86906 -0.424001 -1.68989
4.89006 -0.395001 -1.69689
4.88406 -0.379001 -1.69389
4.87206 -0.362001 -1.68889
4.87706 -0.347001 -1.68989
4.87406 -0.332001 -1.68889
4.88606 -0.294001 -1.69189
4.88706 -0.279001 -1.69189
4.90506 -0.249001 -1.69889
4.89706 -0.225001 -1.69489
4.89306 -0.194001 -1.69289
4.88606 -0.179001 -1.68989
4.88406 -0.163001 -1.68989
4.88606 -0.0940005 -1.68989
4.91906 -0.0640005 -1.70089
4.90006 -0.0330005 -1.69489
4.89506 -0.0250005 -1.69189
4.75606 0.0119995 -1.69489
4.76106 0.0269995 -1.69689
4.75606 0.0349995 -1.69489
4.76306 0.0499995 -1.69789
4.76706 0.0649995 -1.69889
4.75306 0.0799995 -1.69389
4.76606 0.0949995 -1.69889
4.75806 0.109999 -1.69689
4.75806 0.124999 -1.69689
4.76006 0.131999 -1.69689
4.77006 0.146999 -1.70189
4.76606 0.176999 -1.69989
4.76306 0.191999 -1.69889
4.76206 0.221999 -1.69889
4.76206 0.228999 -1.69889
4.75106 0.243999 -1.69589
4.77106 0.259999 -1.70389
4.76106 0.273999 -1.69989
4.76606 0.289999 -1.70189
4.75506 0.303999 -1.69889
4.76906 0.319999 -1.70389
4.76906 0.326999 -1.70389
4.75106 0.340999 -1.69789
4.76306 0.356999 -1.70289
4.76206 0.371999 -1.70289
4.75006 0.385999 -1.69889
4.77106 0.402999 -1.70689
4.74706 0.415999 -1.69889
4.75906 0.424999 -1.70389
4.75606 0.438999 -1.70289
4.75506 0.453999 -1.70289
4.74606 0.468999 -1.69989
4.75606 0.484999 -1.70389
4.73706 0.497999 -1.69789
4.75206 0.513999 -1.70389
4.73806 0.527999 -1.69889
4.75206 0.536999 -1.70489
4.75906 0.567999 -1.70889
4.73306 0.579999 -1.69989
4.73906 0.595999 -1.70289
4.73506 0.610999 -1.70189
4.73506 0.625999 -1.70289
4.72706 0.631999 -1.69989
4.74506 0.649999 -1.70789
4.72606 0.661999 -1.70189
4.73206 0.677999 -1.70389
4.72206 0.691999 -1.70189
4.73906 0.709999 -1.70889
4.72006 0.721999 -1.70189
4.72606 0.730999 -1.70489
4.72206 0.744999 -1.70389
4.71406 0.758999 -1.70189
4.71706 0.774999 -1.70389
4.70506 0.802999 -1.70189
4.70406 0.817999 -1.70189
4.70606 0.825999 -1.70389
4.71706 0.842999 -1.70889
4.70306 0.855999 -1.70389
4.70006 0.870999 -1.70389
4.69206 0.884999 -1.70189
4.70406 0.901999 -1.70789
4.68406 0.936999 -1.70289
4.69006 0.952999 -1.70689
4.68106 0.966999 -1.70389
4.68406 0.982999 -1.70689
4.67506 0.995999 -1.70389
4.67206 1.019 -1.70489
4.68206 1.036 -1.70989
4.66806 1.064 -1.70689
4.65906 1.077 -1.70489
4.66306 1.094 -1.70789
4.66006 1.108 -1.70789
4.65106 1.114 -1.70489
4.64906 1.129 -1.70589
4.64506 1.174 -1.70889
4.62806 1.224 -1.70689
4.62906 1.271 -1.71189
4.61406 1.283 -1.70789
4.61706 1.307 -1.71089
4.61106 1.337 -1.71189
4.58706 1.392 -1.70889
4.58306 1.399 -1.70889
4.58506 1.416 -1.71089
4.58106 1.43 -1.71089
4.57106 1.443 -1.70889
4.55706 1.51 -1.71189
4.54306 1.552 -1.71189
4.53506 1.582 -1.71289
4.52806 1.595 -1.71189
4.53106 1.604 -1.71389
4.52206 1.617 -1.71289
4.52106 1.633 -1.71389
4.51506 1.647 -1.71389
4.52406 1.666 -1.71989
4.50806 1.676 -1.71589
4.51906 1.696 -1.72189
4.50906 1.701 -1.71889
4.52306 1.722 -1.72689
4.51106 1.734 -1.72389
4.50406 1.747 -1.72389
4.49506 1.76 -1.72189
4.49606 1.777 -1.72489
4.49006 1.791 -1.72489
4.50506 1.805 -1.73189
4.48706 1.83 -1.72889
4.48806 1.847 -1.73189
4.47706 1.859 -1.72989
4.47006 1.89 -1.73189
4.45706 1.892 -1.72789
4.44706 1.905 -1.72589
4.45506 1.925 -1.73189
4.44806 1.955 -1.73389
4.42506 1.961 -1.72689
4.42006 1.976 -1.72789
4.39606 1.99 -1.72089
4.38506 2.035 -1.72489
4.36206 2.066 -1.72189
4.33606 2.104 -1.71889
4.29406 -2.015 -1.68989
4.31206 -2.007 -1.69489
4.33106 -2 -1.70089
4.34606 -1.99 -1.70389
4.38006 -1.915 -1.70389
4.38106 -1.899 -1.70189
4.39406 -1.888 -1.70489
4.39306 -1.879 -1.70389
4.40106 -1.866 -1.70389
4.40106 -1.85 -1.70189
4.41606 -1.824 -1.70389
4.41206 -1.806 -1.69889
4.42606 -1.796 -1.70289
4.40606 -1.779 -1.69389
4.41506 -1.767 -1.69489
4.42306 -1.754 -1.69589
4.44206 -1.745 -1.70189
4.43906 -1.728 -1.69789
4.44106 -1.713 -1.69689
4.46006 -1.704 -1.70189
4.45706 -1.695 -1.69989
4.46806 -1.683 -1.70189
4.46606 -1.666 -1.69889
4.47206 -1.652 -1.69889
4.47106 -1.636 -1.69689
4.49106 -1.627 -1.70289
4.48206 -1.608 -1.69689
4.48906 -1.603 -1.69889
4.48606 -1.586 -1.69589
4.49906 -1.575 -1.69889
4.50606 -1.561 -1.69989
4.50006 -1.543 -1.69589
4.51106 -1.531 -1.69789
4.50106 -1.512 -1.69189
4.50706 -1.506 -1.69389
4.50606 -1.49 -1.69189
4.52406 -1.48 -1.69689
4.52306 -1.464 -1.69389
4.52906 -1.451 -1.69489
4.54106 -1.439 -1.69789
4.53806 -1.422 -1.69489
4.54606 -1.417 -1.69689
4.55606 -1.404 -1.69889
4.54206 -1.384 -1.69189
4.55506 -1.373 -1.69589
4.55606 -1.357 -1.69389
4.56406 -1.344 -1.69589
4.56306 -1.328 -1.69389
4.56706 -1.322 -1.69389
4.57806 -1.309 -1.69689
4.57706 -1.293 -1.69489
4.57906 -1.278 -1.69389
4.59406 -1.267 -1.69889
4.59206 -1.251 -1.69689
4.58906 -1.235 -1.69389
4.58506 -1.226 -1.69189
4.59106 -1.212 -1.69189
4.59506 -1.198 -1.69189
4.61306 -1.187 -1.69789
4.62006 -1.173 -1.69889
4.60606 -1.154 -1.69189
4.62406 -1.144 -1.69789
4.61906 -1.134 -1.69489
4.62906 -1.122 -1.69789
4.61806 -1.104 -1.69189
4.63806 -1.093 -1.69889
4.63106 -1.076 -1.69389
4.62906 -1.06 -1.69189
4.64306 -1.048 -1.69689
4.62406 -1.036 -1.68889
4.62906 -1.022 -1.68889
4.64906 -1.011 -1.69589
4.64506 -0.995001 -1.69289
4.64806 -0.980001 -1.69289
4.65806 -0.967001 -1.69589
4.66906 -0.954001 -1.69889
4.64606 -0.942001 -1.68889
4.66606 -0.931001 -1.69589
4.66506 -0.915001 -1.69389
4.67406 -0.887001 -1.69589
4.67706 -0.842001 -1.69389
4.66906 -0.832001 -1.68989
4.67506 -0.818001 -1.69189
4.69606 -0.807001 -1.69889
4.67306 -0.788001 -1.68889
4.67606 -0.773001 -1.68889
4.69506 -0.761001 -1.69489
4.68406 -0.744001 -1.68989
4.69106 -0.738001 -1.69189
4.70806 -0.725001 -1.69789
4.68606 -0.707001 -1.68889
4.70906 -0.695001 -1.69689
4.70106 -0.679001 -1.69289
4.70006 -0.649001 -1.69089
4.69906 -0.641001 -1.68989
4.71406 -0.613001 -1.69389
4.71206 -0.598001 -1.69289
4.71606 -0.568001 -1.69289
4.71806 -0.553001 -1.69289
4.71706 -0.546001 -1.69189
4.72806 -0.532001 -1.69589
4.71806 -0.516001 -1.69189
4.72006 -0.501001 -1.69189
4.72006 -0.486001 -1.69089
4.72506 -0.472001 -1.69189
4.72306 -0.456001 -1.69089
4.72906 -0.449001 -1.69289
4.72806 -0.434001 -1.69189
4.73406 -0.420001 -1.69389
4.74006 -0.406001 -1.69589
4.73406 -0.390001 -1.69289
4.73006 -0.375001 -1.69089
4.74006 -0.361001 -1.69389
4.74606 -0.354001 -1.69689
4.74206 -0.338001 -1.69389
4.74106 -0.323001 -1.69389
4.74206 -0.308001 -1.69389
4.75406 -0.294001 -1.69789
4.75006 -0.279001 -1.69589
4.74506 -0.264001 -1.69389
4.76206 -0.257001 -1.69989
4.74906 -0.226001 -1.69389
4.75506 -0.212001 -1.69689
4.74806 -0.196001 -1.69389
4.75606 -0.182001 -1.69689
4.75106 -0.167001 -1.69389
4.75406 -0.144001 -1.69489
4.76306 -0.130001 -1.69889
4.75106 -0.114001 -1.69389
4.76806 -0.100001 -1.69989
4.76306 -0.0850005 -1.69789
4.75506 -0.0700005 -1.69489
4.75706 -0.0620005 -1.69589
4.75606 -0.0470005 -1.69489
4.75906 -0.0320005 -1.69689
4.76006 -0.0170005 -1.69689
4.76506 -0.00300052 -1.69889
4.65306 0.00899948 -1.70589
4.64206 0.0229995 -1.70189
4.63606 0.0379995 -1.69889
4.63406 0.0519995 -1.69889
4.65406 0.0669995 -1.70689
4.64906 0.0819995 -1.70389
4.64706 0.0889995 -1.70389
4.64306 0.102999 -1.70189
4.63506 0.117999 -1.69889
4.63406 0.131999 -1.69889
4.66206 0.147999 -1.70989
4.63506 0.161999 -1.69989
4.65006 0.176999 -1.70589
4.63806 0.190999 -1.70189
4.65306 0.198999 -1.70689
4.65606 0.213999 -1.70889
4.65706 0.227999 -1.70989
4.63906 0.241999 -1.70289
4.64606 0.256999 -1.70589
4.63806 0.270999 -1.70289
4.63106 0.284999 -1.70089
4.64406 0.293999 -1.70589
4.65206 0.308999 -1.70989
4.66806 0.324999 -1.71589
4.64306 0.336999 -1.70689
4.65306 0.352999 -1.71089
4.63106 0.365999 -1.70289
4.63406 0.380999 -1.70389
4.62206 0.386999 -1.69989
4.62406 0.401999 -1.70189
4.62706 0.416999 -1.70289
4.62606 0.430999 -1.70289
4.62806 0.445999 -1.70389
4.62506 0.460999 -1.70389
4.63206 0.475999 -1.70689
4.62106 0.481999 -1.70289
4.62306 0.496999 -1.70389
4.62906 0.511999 -1.70689
4.62106 0.525999 -1.70489
4.63106 0.541999 -1.70989
4.60706 0.553999 -1.70089
4.61206 0.568999 -1.70389
4.61206 0.576999 -1.70389
4.63206 0.593999 -1.71189
4.61106 0.620999 -1.70589
4.60406 0.633999 -1.70389
4.60406 0.648999 -1.70389
4.61306 0.664999 -1.70889
4.59906 0.670999 -1.70389
4.60806 0.686999 -1.70789
4.60706 0.701999 -1.70889
4.60906 0.716999 -1.70989
4.59506 0.743999 -1.70689
4.58706 0.756999 -1.70389
4.59006 0.764999 -1.70589
4.59806 0.781999 -1.70989
4.58006 0.807999 -1.70489
4.60206 0.826999 -1.71489
4.57906 0.837999 -1.70689
4.58706 0.853999 -1.71089
4.58206 0.860999 -1.70989
4.57006 0.872999 -1.70589
4.56806 0.887999 -1.70589
4.57206 0.902999 -1.70889
4.57506 0.918999 -1.71089
4.57206 0.932999 -1.71089
4.57506 0.955999 -1.71389
4.57306 0.970999 -1.71489
4.55806 0.982999 -1.70989
4.55306 0.996999 -1.70889
4.54206 1.009 -1.70589
4.54506 1.025 -1.70789
4.54306 1.039 -1.70889
4.55206 1.049 -1.71289
4.54506 1.063 -1.71189
4.54706 1.078 -1.71389
4.53506 1.09 -1.70989
4.53206 1.104 -1.70989
4.52306 1.117 -1.70789
4.53406 1.15 -1.71489
4.52306 1.17 -1.71289
4.51706 1.184 -1.71189
4.52406 1.201 -1.71689
4.49706 1.224 -1.70889
4.50006 1.24 -1.71189
4.50006 1.248 -1.71189
4.49606 1.262 -1.71189
4.51206 1.282 -1.71989
4.49306 1.292 -1.71489
4.48906 1.321 -1.71589
4.48106 1.334 -1.71489
4.47506 1.34 -1.71289
4.48206 1.357 -1.71789
4.47006 1.369 -1.71489
4.47306 1.385 -1.71789
4.46906 1.4 -1.71789
4.45906 1.412 -1.71489
4.45106 1.425 -1.71389
4.45206 1.433 -1.71489
4.44306 1.445 -1.71289
4.43406 1.458 -1.71189
4.44006 1.475 -1.71589
4.42706 1.486 -1.71189
4.43306 1.504 -1.71689
4.42806 1.518 -1.71689
4.41706 1.522 -1.71289
4.43706 1.544 -1.72289
4.43006 1.557 -1.72289
4.41306 1.567 -1.71789
4.40306 1.595 -1.71789
4.40806 1.612 -1.72189
4.39206 1.614 -1.71589
4.39206 1.63 -1.71789
4.39606 1.647 -1.72189
4.38006 1.657 -1.71789
4.39206 1.693 -1.72689
4.37806 1.703 -1.72289
4.37406 1.71 -1.72289
4.37306 1.725 -1.72489
4.37306 1.741 -1.72689
4.37806 1.759 -1.73089
4.36406 1.769 -1.72789
4.37606 1.79 -1.73489
4.35806 1.823 -1.73389
4.35106 1.853 -1.73589
4.34106 1.881 -1.73589
4.33406 1.902 -1.73689
4.32706 1.915 -1.73589
4.30606 1.938 -1.73289
4.28606 1.945 -1.72689
4.28406 1.96 -1.72789
4.27906 1.975 -1.72889
4.27806 1.982 -1.72989
4.25106 1.986 -1.72089
4.25506 2.004 -1.72589
4.24206 2.014 -1.72289
4.23606 2.028 -1.72289
4.21906 2.052 -1.72089
4.21606 2.076 -1.72389
4.15706 -2.035 -1.69589
4.17206 -2.034 -1.70189
4.21106 -1.988 -1.70689
4.21406 -1.973 -1.70589
4.23906 -1.928 -1.70689
4.26406 -1.836 -1.70189
4.28906 -1.799 -1.70489
4.28606 -1.782 -1.70189
4.30006 -1.764 -1.70389
4.32306 -1.71 -1.70389
4.33406 -1.699 -1.70689
4.34406 -1.648 -1.70289
4.34506 -1.633 -1.70189
4.35706 -1.622 -1.70389
4.36206 -1.608 -1.70389
4.37706 -1.59 -1.70689
4.38206 -1.576 -1.70689
4.38206 -1.56 -1.70489
4.37506 -1.527 -1.69889
4.40006 -1.513 -1.70589
4.41306 -1.471 -1.70489
4.41906 -1.457 -1.70589
4.40906 -1.439 -1.69989
4.42806 -1.43 -1.70589
4.42806 -1.422 -1.70489
4.42606 -1.406 -1.70189
4.43706 -1.394 -1.70489
4.43506 -1.378 -1.70189
4.43906 -1.364 -1.70189
4.45006 -1.352 -1.70489
4.45506 -1.331 -1.70389
4.45906 -1.317 -1.70389
4.45806 -1.301 -1.70189
4.45606 -1.286 -1.69989
4.47706 -1.261 -1.70489
4.45906 -1.241 -1.69589
4.47006 -1.237 -1.69989
4.48506 -1.226 -1.70389
4.47406 -1.208 -1.69889
4.48406 -1.195 -1.70089
4.48706 -1.181 -1.70089
4.48706 -1.166 -1.69889
4.49306 -1.152 -1.69989
4.50406 -1.14 -1.70289
4.48906 -1.129 -1.69589
4.48406 -1.113 -1.69289
4.49806 -1.101 -1.69689
4.50906 -1.089 -1.69989
4.51006 -1.074 -1.69889
4.52306 -1.062 -1.70289
4.51706 -1.046 -1.69889
4.50806 -1.036 -1.69489
4.51306 -1.022 -1.69589
4.51206 -1.007 -1.69389
4.52306 -0.995001 -1.69689
4.52906 -0.981001 -1.69889
4.53606 -0.968001 -1.69989
4.54106 -0.954001 -1.70089
4.54206 -0.947001 -1.70089
4.52706 -0.929001 -1.69389
4.54506 -0.918001 -1.69889
4.53606 -0.901001 -1.69489
4.55206 -0.889001 -1.69989
4.53706 -0.872001 -1.69289
4.56506 -0.862001 -1.70289
4.54106 -0.850001 -1.69289
4.54506 -0.836001 -1.69389
4.57006 -0.826001 -1.70189
4.55806 -0.809001 -1.69589
4.55506 -0.794001 -1.69389
4.57506 -0.782001 -1.70189
4.56306 -0.766001 -1.69589
4.57406 -0.760001 -1.69889
4.56506 -0.744001 -1.69489
4.56506 -0.729001 -1.69389
4.56806 -0.715001 -1.69389
4.56606 -0.700001 -1.69289
4.56806 -0.686001 -1.69289
4.57106 -0.671001 -1.69289
4.57706 -0.665001 -1.69489
4.59806 -0.653001 -1.70189
4.58506 -0.637001 -1.69589
4.60506 -0.625001 -1.70389
4.58106 -0.592001 -1.69289
4.60906 -0.581001 -1.70289
4.59906 -0.572001 -1.69889
4.59106 -0.557001 -1.69489
4.60106 -0.543001 -1.69789
4.59906 -0.528001 -1.69589
4.60806 -0.515001 -1.69889
4.61306 -0.501001 -1.70089
4.60706 -0.485001 -1.69789
4.59906 -0.477001 -1.69389
4.61706 -0.464001 -1.70089
4.59806 -0.448001 -1.69289
4.60506 -0.434001 -1.69489
4.61206 -0.420001 -1.69689
4.62006 -0.406001 -1.69989
4.61806 -0.391001 -1.69889
4.60706 -0.383001 -1.69389
4.61606 -0.369001 -1.69689
4.63006 -0.356001 -1.70189
4.63306 -0.341001 -1.70289
4.62506 -0.326001 -1.69889
4.62606 -0.312001 -1.69889
4.62506 -0.297001 -1.69889
4.62206 -0.290001 -1.69689
4.64106 -0.276001 -1.70389
4.62306 -0.260001 -1.69689
4.64306 -0.247001 -1.70389
4.62306 -0.231001 -1.69589
4.63906 -0.217001 -1.70189
4.62606 -0.202001 -1.69689
4.65106 -0.196001 -1.70689
4.64606 -0.181001 -1.70389
4.63906 -0.166001 -1.70189
4.64106 -0.152001 -1.70189
4.65806 -0.138001 -1.70889
4.64406 -0.123001 -1.70289
4.64106 -0.108001 -1.70189
4.65206 -0.101001 -1.70589
4.64706 -0.0860005 -1.70389
4.63806 -0.0720005 -1.69989
4.63006 -0.0570005 -1.69689
4.64006 -0.0420005 -1.70089
4.63806 -0.0280005 -1.69989
4.63306 -0.0130005 -1.69789
4.66206 -0.00600052 -1.70989
4.46906 0.822999 -1.72089
4.45806 0.835999 -1.71689
4.46406 0.850999 -1.72089
4.45206 0.863999 -1.71689
4.45306 0.877999 -1.71789
4.45206 0.892999 -1.71889
4.44506 0.898999 -1.71689
4.44406 0.912999 -1.71789
4.43206 0.924999 -1.71389
4.44606 0.941999 -1.72089
4.44106 0.955999 -1.71989
4.43406 0.968999 -1.71789
4.44606 0.985999 -1.72389
4.44206 0.992999 -1.72389
4.43806 1.006 -1.72289
4.42906 1.019 -1.72089
4.42706 1.033 -1.72089
4.42606 1.048 -1.72189
4.41006 1.059 -1.71689
4.42506 1.077 -1.72389
4.41806 1.082 -1.72189
4.41206 1.096 -1.72089
4.41106 1.11 -1.72189
4.40706 1.124 -1.72189
4.41506 1.141 -1.72689
4.40206 1.152 -1.72289
4.39306 1.165 -1.72089
4.40006 1.174 -1.72389
4.39806 1.188 -1.72489
4.37506 1.197 -1.71689
4.38006 1.213 -1.72089
4.37406 1.226 -1.71989
4.37406 1.241 -1.72089
4.37506 1.256 -1.72389
4.36406 1.26 -1.71989
4.37706 1.279 -1.72689
4.37106 1.292 -1.72589
4.35106 1.301 -1.71889
4.37006 1.321 -1.72889
4.35706 1.333 -1.72489
4.34906 1.345 -1.72389
4.35206 1.354 -1.72589
4.35506 1.369 -1.72889
4.34506 1.381 -1.72689
4.34406 1.396 -1.72789
4.32906 1.406 -1.72389
4.32806 1.421 -1.72489
4.32206 1.434 -1.72389
4.33006 1.444 -1.72889
4.31406 1.454 -1.72389
4.30906 1.468 -1.72389
4.31306 1.484 -1.72689
4.29406 1.493 -1.72089
4.29806 1.509 -1.72489
4.30806 1.528 -1.73089
4.29606 1.539 -1.72789
4.28706 1.543 -1.72489
4.28706 1.558 -1.72689
4.27106 1.568 -1.72289
4.26706 1.581 -1.72289
4.28106 1.602 -1.73089
4.26006 1.609 -1.72389
4.27006 1.621 -1.72989
4.27006 1.636 -1.73189
4.25806 1.647 -1.72889
4.26106 1.664 -1.73289
4.26306 1.68 -1.73589
4.25206 1.691 -1.73289
4.24406 1.703 -1.73189
4.23906 1.74 -1.73589
4.23306 1.753 -1.73589
4.22906 1.767 -1.73589
4.21506 1.8 -1.73589
4.20506 1.843 -1.73889
4.18706 1.882 -1.73889
4.18006 1.903 -1.73989
4.15906 1.909 -1.73289
4.15806 1.924 -1.73589
4.13806 1.931 -1.72989
4.12406 1.94 -1.72589
4.11306 1.951 -1.72389
4.11306 1.967 -1.72689
4.09606 1.982 -1.72289
4.08906 1.995 -1.72289
3.95306 -2.1 -1.69289
3.96906 -2.093 -1.69689
3.98406 -2.093 -1.70289
4.00206 -2.087 -1.70789
4.31606 -1.343 -1.71089
4.32806 -1.28 -1.70789
4.34506 -1.24 -1.70989
4.34706 -1.233 -1.70989
4.34906 -1.205 -1.70789
4.35906 -1.192 -1.70989
4.36606 -1.165 -1.70989
4.37306 -1.13 -1.70889
4.38406 -1.104 -1.71089
4.38406 -1.089 -1.70889
4.39106 -1.076 -1.71089
4.39406 -1.062 -1.71089
4.39706 -1.041 -1.70989
4.40206 -1.028 -1.71089
4.40906 -0.964001 -1.70789
4.41206 -0.877001 -1.70189
4.44006 -0.847001 -1.71089
4.44506 -0.833001 -1.71189
4.27706 1.153 -1.71989
4.27406 1.167 -1.71989
4.26106 1.178 -1.71589
4.25606 1.198 -1.71589
4.26106 1.214 -1.71989
4.24606 1.224 -1.71489
4.24806 1.239 -1.71789
4.25106 1.254 -1.72089
4.24506 1.267 -1.71989
4.24106 1.273 -1.71889
4.23906 1.287 -1.71989
4.23006 1.299 -1.71789
4.22006 1.325 -1.71689
4.21506 1.352 -1.71789
4.20706 1.357 -1.71589
4.20506 1.371 -1.71689
4.20406 1.385 -1.71789
4.19806 1.398 -1.71789
4.19906 1.413 -1.71989
4.19106 1.425 -1.71789
4.18806 1.439 -1.71889
4.18406 1.445 -1.71789
4.18406 1.474 -1.72189
4.17406 1.485 -1.71989
4.16406 1.511 -1.71989
4.15606 1.538 -1.72089
4.15206 1.544 -1.71989
4.14706 1.557 -1.71989
4.13606 1.583 -1.71889
4.13806 1.598 -1.72189
4.12606 1.623 -1.72189
4.12006 1.629 -1.71989
4.12506 1.646 -1.72489
4.11106 1.655 -1.72089
4.10906 1.669 -1.72189
4.10606 1.683 -1.72289
4.11406 1.702 -1.72889
4.10206 1.712 -1.72589
4.10606 1.721 -1.72889
4.09906 1.733 -1.72789
4.10006 1.749 -1.73089
4.10306 1.766 -1.73489
4.09106 1.775 -1.73189
4.08006 1.786 -1.72989
4.07806 1.8 -1.73089
4.07706 1.808 -1.73189
4.07606 1.823 -1.73389
4.07706 1.839 -1.73789
4.06506 1.848 -1.73389
4.06906 1.866 -1.73889
4.03706 1.882 -1.72989
4.04406 1.893 -1.73389
4.02806 1.901 -1.72989
4.01606 1.91 -1.72689
4.00806 1.922 -1.72589
4.00506 1.936 -1.72789
3.99106 1.96 -1.72689
3.97406 1.991 -1.72589
3.82706 -2.115 -1.69589
3.83206 -2.102 -1.69589
3.84406 -2.093 -1.69789
3.87006 -2.091 -1.70689
3.88006 -2.088 -1.70989
4.20106 -1.353 -1.71289
4.21306 -1.291 -1.70989
4.22806 -1.253 -1.71189
4.23806 -1.234 -1.71289
4.26006 -1.132 -1.71089
4.26206 -1.118 -1.70989
4.27206 -1.107 -1.71289
4.27006 -1.078 -1.70889
4.16406 1.181 -1.71489
3.97506 1.772 -1.72489
3.96206 1.796 -1.72489
3.96206 1.81 -1.72689
3.95606 1.831 -1.72789
3.95206 1.844 -1.72889
3.72206 -2.162 -1.70489
3.71406 -2.142 -1.69789
3.71606 -2.135 -1.69689
3.73806 -2.133 -1.70489
3.75306 -2.126 -1.70889
3.79106 -2.085 -1.71389
3.78306 -2.073 -1.70889
3.79706 -2.065 -1.71289
3.80906 -2.056 -1.71489
3.92606 -1.818 -1.71389
3.97806 -1.7 -1.71389
3.98506 -1.674 -1.71289
4.00406 -1.63 -1.71289
4.06606 -1.479 -1.71389
4.07006 -1.466 -1.71389
4.07906 -1.426 -1.71189
4.08306 -1.42 -1.71289
4.09606 -1.381 -1.71289
4.10506 -1.37 -1.71489
4.10506 -1.342 -1.71089
4.11306 -1.337 -1.71389
4.10106 -1.319 -1.70689
4.12106 -1.311 -1.71389
4.11606 -1.295 -1.70989
4.12606 -1.284 -1.71189
4.13706 -1.273 -1.71489
4.13506 -1.259 -1.71289
4.13006 -1.25 -1.70989
4.13106 -1.236 -1.70789
4.13406 -1.223 -1.70789
4.13706 -1.209 -1.70689
4.13906 -1.196 -1.70689
4.14606 -1.184 -1.70789
3.89406 1.711 -1.72489
3.90206 1.743 -1.73389
3.88806 1.752 -1.72989
3.88406 1.765 -1.72989
3.88406 1.779 -1.73289
3.87606 1.783 -1.72989
3.87506 1.798 -1.73289
3.87306 1.811 -1.73389
3.85206 1.816 -1.72689
3.84806 1.829 -1.72789
3.87706 1.858 -1.74489
3.83706 1.853 -1.72789
3.83206 1.859 -1.72689
3.79606 1.938 -1.72889
3.70706 2.149 -1.73789
3.60406 2.307 -1.73589
3.59306 -2.168 -1.69989
3.60806 -2.153 -1.70289
3.63706 -2.155 -1.71389
3.64406 -2.144 -1.71389
3.65406 -2.134 -1.71489
3.86106 -1.718 -1.71289
3.85606 -1.701 -1.70789
3.86806 -1.692 -1.71089
3.87206 -1.679 -1.71089
3.87406 -1.666 -1.70889
3.88406 -1.656 -1.71089
3.89106 -1.644 -1.71189
3.88806 -1.628 -1.70789
3.90006 -1.627 -1.71289
3.91206 -1.617 -1.71589
3.91606 -1.604 -1.71489
3.92006 -1.577 -1.71289
3.92906 -1.552 -1.71189
3.92606 -1.544 -1.70989
3.94106 -1.535 -1.71489
3.93906 -1.521 -1.71089
3.94006 -1.507 -1.70989
3.94506 -1.494 -1.70989
3.95306 -1.483 -1.71089
3.95906 -1.472 -1.71189
3.95306 -1.462 -1.70789
3.96306 -1.452 -1.71089
3.96606 -1.439 -1.70989
3.97906 -1.429 -1.71389
3.97406 -1.399 -1.70689
3.97606 -1.386 -1.70689
3.98406 -1.382 -1.70889
3.99706 -1.372 -1.71289
3.99606 -1.358 -1.71089
4.01106 -1.349 -1.71489
4.00806 -1.334 -1.71189
4.00906 -1.32 -1.71089
4.01406 -1.308 -1.71089
4.01306 -1.301 -1.70989
4.00806 -1.285 -1.70589
4.01206 -1.273 -1.70589
4.02506 -1.263 -1.70989
4.03106 -1.251 -1.71089
4.02806 -1.236 -1.70689
4.03006 -1.223 -1.70689
4.04106 -1.219 -1.71089
4.03706 -1.204 -1.70689
3.91206 1.323 -1.72689
3.91606 1.338 -1.73089
3.91206 1.351 -1.73089
3.89606 1.359 -1.72589
3.90006 1.374 -1.72989
3.88406 1.375 -1.72289
3.88106 1.388 -1.72389
3.88606 1.403 -1.72789
3.89106 1.419 -1.73289
3.88406 1.43 -1.73089
3.87406 1.44 -1.72889
3.86106 1.449 -1.72489
3.86506 1.458 -1.72789
3.86406 1.471 -1.72989
3.85806 1.483 -1.72889
3.85806 1.497 -1.73089
3.84206 1.505 -1.72589
3.84006 1.518 -1.72689
3.85406 1.537 -1.73589
3.85006 1.543 -1.73589
3.84506 1.555 -1.73589
3.84406 1.568 -1.73689
3.82706 1.576 -1.73089
3.83006 1.591 -1.73589
3.82006 1.601 -1.73289
3.82706 1.618 -1.73889
3.82306 1.623 -1.73789
3.81306 1.633 -1.73589
3.81106 1.646 -1.73689
3.79606 1.654 -1.73189
3.81706 1.678 -1.74489
3.79006 1.68 -1.73489
3.79706 1.697 -1.73989
3.80406 1.707 -1.74489
3.79406 1.717 -1.74289
3.78206 1.755 -1.74489
3.76806 1.777 -1.74389
3.74606 1.781 -1.73589
3.43706 -2.191 -1.70389
3.78006 1.433 -1.73489
3.78106 1.447 -1.73689
3.78706 1.463 -1.74189
3.77906 1.473 -1.74089
3.77606 1.479 -1.74089
3.76406 1.502 -1.73889
3.75906 1.513 -1.73889
3.76606 1.53 -1.74489
3.75106 1.538 -1.73989
3.74806 1.544 -1.73989
3.74906 1.558 -1.74189
3.72706 1.562 -1.73389
3.72706 1.576 -1.73589
3.74006 1.596 -1.74589
3.71906 1.6 -1.73689
3.72006 1.615 -1.74089
3.72906 1.626 -1.74589
3.71106 1.632 -1.73989
3.71906 1.649 -1.74589
3.70706 1.658 -1.74289
3.70506 1.671 -1.74489
3.69006 1.678 -1.73989
3.70006 1.697 -1.74689
3.69106 1.699 -1.74389
3.68906 1.712 -1.74589
3.67906 1.736 -1.74589
3.67506 1.749 -1.74689
3.66106 1.77 -1.74589
3.66206 1.785 -1.74889
3.62806 1.832 -1.74489
3.61906 1.842 -1.74289
3.62006 1.857 -1.74589
3.59906 1.853 -1.73689
3.59006 1.863 -1.73589
3.59306 1.878 -1.73989
3.56906 1.895 -1.73389
3.57006 1.909 -1.73689
3.43306 2.214 -1.75389
3.68906 1.486 -1.74589
3.67606 1.521 -1.74689
3.45306 1.968 -1.74489
3.44406 1.977 -1.74389
3.44506 1.993 -1.74789
3.43806 2.003 -1.74689
3.41706 1.998 -1.73789
3.42306 2.016 -1.74489
3.41206 2.024 -1.74189
3.40906 2.037 -1.74389
3.40306 2.047 -1.74389
3.40706 2.064 -1.74989
3.39906 2.074 -1.74889
3.13906 2.441 -1.74589
3.03906 -3.779 0.365111
3.40706 -3.694 0.371111
3.47506 -3.685 0.372111
3.49406 -3.682 0.373111
3.53806 -3.67 0.373111
3.56806 -3.677 0.374111
3.59806 -3.662 0.375111
3.61806 -3.659 0.375111
3.64506 -3.663 0.376111
3.67506 -3.647 0.376111
3.68606 -3.647 0.376111
3.70306 -3.641 0.377111
3.72306 -3.638 0.377111
3.78706 -3.63 0.378111
3.80706 -3.626 0.379111
3.81506 -3.623 0.379111
3.83806 -3.622 0.380111
3.85506 -3.615 0.380111
3.87406 -3.61 0.380111
3.90006 -3.611 0.381111
3.91906 -3.606 0.381111
3.94106 -3.603 0.382111
3.95806 -3.607 0.382111
3.97206 -3.597 0.382111
3.99706 -3.597 0.383111
4.01606 -3.591 0.383111
4.03806 -3.588 0.384111
4.05306 -3.579 0.384111
4.08106 -3.581 0.385111
4.10206 -3.587 0.385111
4.11006 -3.572 0.385111
4.13406 -3.569 0.386111
4.15506 -3.565 0.386111
4.17906 -3.562 0.387111
4.19906 -3.557 0.387111
4.22306 -3.554 0.388111
4.23706 -3.555 0.388111
4.27806 -3.544 0.389111
4.30206 -3.54 0.390111
4.32706 -3.538 0.390111
4.35006 -3.534 0.391111
4.37906 -3.534 0.391111
4.39406 -3.535 0.392111
4.41206 -3.527 0.392111
4.46106 -3.521 0.393111
4.48306 -3.515 0.394111
4.50906 -3.512 0.394111
4.52906 -3.505 0.395111
4.54406 -3.505 0.395111
4.57306 -3.504 0.396111
4.66806 -3.485 0.398111
4.69306 -3.481 0.399111
4.73206 -3.475 0.400111
4.83406 -3.457 0.402111
4.86106 -3.453 0.403111
4.89706 -3.444 0.404111
4.94806 -3.433 0.405111
5.02506 -3.417 0.407111
5.18306 -3.394 0.411111
5.25506 -3.382 0.412111
5.53506 -3.332 0.420111
8.28006 -2.839 0.497111
8.59106 -2.78 0.506111
8.65506 -2.77 0.508111
8.70306 -2.756 0.510111
8.86806 -2.731 0.515111
9.00206 -2.71 0.519111
9.05106 -2.694 0.520111
9.11906 -2.683 0.523111
9.23106 -2.668 0.526111
9.27406 -2.649 0.527111
10.6931 -2.389 0.572111
10.7761 -2.372 0.574111
2.41606 -3.875 0.326111
2.43706 -3.881 0.327111
2.46306 -3.869 0.327111
2.84606 -3.806 0.331111
2.95306 -3.785 0.333111
3.15406 -3.756 0.335111
3.36806 -3.718 0.338111
3.45306 -3.705 0.340111
3.46906 -3.699 0.340111
3.48606 -3.694 0.340111
3.51806 -3.693 0.341111
3.57506 -3.683 0.342111
3.61206 -3.675 0.342111
3.63006 -3.67 0.342111
3.64206 -3.67 0.343111
3.65606 -3.662 0.343111
3.68006 -3.663 0.343111
3.69906 -3.658 0.344111
3.73306 -3.646 0.344111
3.75706 -3.647 0.345111
3.78506 -3.639 0.345111
3.81006 -3.641 0.345111
3.82906 -3.636 0.346111
3.84806 -3.631 0.346111
3.86506 -3.624 0.346111
3.89106 -3.626 0.347111
3.92006 -3.618 0.347111
3.93406 -3.609 0.347111
3.97406 -3.6 0.348111
4.00506 -3.605 0.349111
4.02006 -3.597 0.349111
4.03206 -3.596 0.349111
4.05806 -3.596 0.350111
4.07806 -3.592 0.350111
4.10206 -3.589 0.350111
4.17406 -3.573 0.352111
4.19706 -3.57 0.352111
4.21206 -3.559 0.352111
4.26306 -3.557 0.353111
4.28606 -3.554 0.354111
4.29106 -3.536 0.353111
4.34406 -3.545 0.355111
4.38906 -3.536 0.356111
4.39506 -3.519 0.355111
4.43606 -3.529 0.356111
4.47906 -3.506 0.357111
4.51106 -3.508 0.358111
4.53006 -3.5 0.358111
4.58206 -3.495 0.359111
4.61106 -3.483 0.359111
4.66006 -3.474 0.360111
4.69006 -3.474 0.361111
4.71206 -3.467 0.361111
4.74706 -3.47 0.362111
4.75906 -3.457 0.362111
4.77606 -3.457 0.363111
4.79806 -3.451 0.363111
4.82706 -3.448 0.364111
4.85206 -3.444 0.364111
4.87106 -3.434 0.364111
4.89506 -3.428 0.365111
4.95206 -3.434 0.366111
4.97106 -3.424 0.366111
4.99506 -3.417 0.367111
5.02906 -3.417 0.368111
5.05106 -3.409 0.368111
5.07706 -3.404 0.369111
5.11906 -3.397 0.369111
5.14706 -3.392 0.370111
5.17206 -3.386 0.370111
5.19506 -3.378 0.371111
5.26306 -3.375 0.372111
5.27306 -3.359 0.372111
5.29006 -3.358 0.373111
5.33106 -3.361 0.374111
5.35006 -3.349 0.374111
5.37906 -3.344 0.375111
5.41406 -3.342 0.375111
5.43806 -3.333 0.376111
5.46306 -3.326 0.376111
5.49306 -3.32 0.377111
5.51806 -3.324 0.378111
5.54806 -3.318 0.378111
5.58506 -3.317 0.379111
5.61006 -3.307 0.380111
5.64406 -3.304 0.380111
5.66606 -3.293 0.381111
5.70306 -3.291 0.382111
5.72706 -3.293 0.382111
5.76306 -3.29 0.383111
5.78406 -3.277 0.383111
6.19706 -3.211 0.392111
6.23406 -3.205 0.393111
6.26406 -3.196 0.394111
6.37006 -3.175 0.396111
6.43506 -3.17 0.398111
7.61406 -2.955 0.425111
7.65706 -2.944 0.426111
7.71106 -2.937 0.427111
7.75706 -2.927 0.428111
7.78806 -2.925 0.429111
7.83306 -2.914 0.430111
7.93006 -2.893 0.433111
7.98606 -2.886 0.434111
8.03806 -2.876 0.435111
8.08706 -2.865 0.436111
8.12706 -2.865 0.437111
8.18306 -2.856 0.439111
8.23406 -2.845 0.440111
8.27806 -2.831 0.441111
8.33806 -2.823 0.443111
8.38506 -2.809 0.444111
8.43006 -2.795 0.445111
8.48506 -2.799 0.446111
8.53606 -2.786 0.447111
8.59006 -2.774 0.449111
8.64606 -2.762 0.450111
8.69906 -2.749 0.451111
8.76506 -2.74 0.453111
8.82306 -2.728 0.454111
8.87906 -2.715 0.456111
8.92206 -2.713 0.457111
8.98906 -2.703 0.459111
9.04806 -2.689 0.460111
9.10606 -2.676 0.461111
9.18306 -2.667 0.463111
9.25706 -2.657 0.465111
2.38106 -3.89 0.304111
2.41006 -3.882 0.304111
2.42806 -3.884 0.305111
8.52906 -2.795 0.405111
8.80106 -2.746 0.410111
8.92506 -2.723 0.413111
9.15306 -2.682 0.417111
9.27906 -2.655 0.420111
10.4591 -2.446 0.445111
10.5291 -2.427 0.446111
10.6051 -2.41 0.448111
10.6831 -2.392 0.450111
10.7641 -2.375 0.451111
10.9321 -2.357 0.455111
11.0121 -2.338 0.457111
11.0891 -2.318 0.458111
11.1851 -2.301 0.460111
2.39006 -3.885 0.269111
2.40206 -3.877 0.269111
2.42006 -3.878 0.269111
7.64506 -2.951 0.324111
7.74806 -2.935 0.326111
7.79006 -2.923 0.326111
7.84406 -2.916 0.327111
7.88706 -2.903 0.328111
7.94106 -2.895 0.328111
8.03006 -2.885 0.329111
8.07706 -2.873 0.330111
8.12906 -2.863 0.331111
8.17006 -2.849 0.331111
8.23206 -2.842 0.332111
8.27906 -2.829 0.333111
8.38306 -2.821 0.334111
8.43006 -2.807 0.335111
8.47806 -2.794 0.335111
8.53806 -2.784 0.336111
8.59106 -2.772 0.337111
8.65506 -2.762 0.338111
8.81106 -2.737 0.340111
8.87206 -2.725 0.341111
8.93906 -2.716 0.342111
8.99406 -2.701 0.343111
9.05206 -2.688 0.343111
9.11206 -2.69 0.344111
9.16006 -2.674 0.345111
9.23406 -2.664 0.346111
10.5221 -2.421 0.364111
2.42606 -3.87 0.245111
2.44406 -3.871 0.246111
2.48006 -3.874 0.246111
2.48906 -3.861 0.246111
2.52306 -3.86 0.246111
2.54206 -3.862 0.246111
2.55406 -3.867 0.246111
2.58406 -3.861 0.246111
2.62806 -3.846 0.246111
2.64406 -3.844 0.246111
2.66806 -3.84 0.247111
2.68506 -3.838 0.247111
2.72006 -3.837 0.247111
2.74906 -3.827 0.247111
2.85506 -3.806 0.247111
2.94206 -3.785 0.248111
2.96606 -3.791 0.248111
2.99306 -3.788 0.248111
3.01006 -3.785 0.248111
3.05606 -3.769 0.248111
3.35906 -3.706 0.250111
3.42006 -3.702 0.250111
3.42306 -3.693 0.250111
3.49806 -3.68 0.251111
3.52006 -3.679 0.251111
3.54806 -3.674 0.251111
3.57506 -3.679 0.251111
3.58706 -3.667 0.251111
3.61206 -3.67 0.251111
3.63106 -3.666 0.251111
3.64806 -3.66 0.252111
3.67106 -3.66 0.252111
3.68706 -3.653 0.252111
3.70406 -3.658 0.252111
3.72106 -3.652 0.252111
3.73506 -3.643 0.252111
3.75306 -3.637 0.252111
3.78106 -3.642 0.252111
3.79606 -3.632 0.252111
3.81406 -3.627 0.252111
3.83606 -3.636 0.253111
3.87506 -3.627 0.253111
3.89506 -3.623 0.253111
3.91806 -3.622 0.253111
3.93106 -3.611 0.253111
3.99106 -3.608 0.254111
4.05506 -3.596 0.254111
4.07606 -3.593 0.254111
4.14906 -3.576 0.255111
4.17406 -3.575 0.255111
4.21506 -3.564 0.255111
4.23406 -3.557 0.255111
4.38706 -3.535 0.256111
4.49306 -3.517 0.257111
10.4491 -2.446 0.308111
10.5271 -2.43 0.308111
10.6011 -2.411 0.309111
10.7531 -2.392 0.311111
10.8321 -2.374 0.311111
10.9181 -2.357 0.312111
11.0041 -2.339 0.313111
11.3251 -2.277 0.316111
11.4201 -2.258 0.317111
2.50106 -3.864 0.213111
2.52406 -3.859 0.213111
2.55506 -3.853 0.213111
2.58706 -3.849 0.213111
2.67306 -3.833 0.214111
2.70706 -3.831 0.214111
2.76206 -3.819 0.214111
2.84806 -3.798 0.214111
2.86306 -3.794 0.214111
2.88906 -3.803 0.214111
2.92206 -3.797 0.214111
2.94706 -3.793 0.214111
2.95706 -3.78 0.214111
2.97606 -3.781 0.214111
3.01006 -3.774 0.214111
3.03406 -3.768 0.214111
3.07206 -3.767 0.214111
3.09406 -3.77 0.214111
3.12206 -3.755 0.214111
3.13306 -3.746 0.214111
3.15306 -3.758 0.214111
3.16406 -3.746 0.214111
3.18606 -3.748 0.214111
3.22406 -3.745 0.214111
3.93506 -3.6 0.216111
4.09206 -3.572 0.216111
4.31506 -3.534 0.216111
4.33806 -3.531 0.216111
4.36506 -3.53 0.216111
4.42906 -3.514 0.217111
4.51306 -3.5 0.217111
4.56306 -3.494 0.217111
4.60706 -3.482 0.217111
4.61906 -3.48 0.217111
4.64806 -3.479 0.217111
4.76606 -3.452 0.217111
4.98606 -3.425 0.218111
5.05506 -3.403 0.218111
5.22006 -3.385 0.218111
5.28706 -3.358 0.219111
5.30606 -3.358 0.219111
5.33106 -3.351 0.219111
5.36606 -3.35 0.219111
5.44806 -3.33 0.219111
5.49306 -3.322 0.219111
5.52906 -3.321 0.219111
5.58406 -3.306 0.219111
5.62006 -3.304 0.219111
5.69406 -3.288 0.220111
5.75506 -3.275 0.220111
6.19706 -3.201 0.221111
6.23406 -3.195 0.221111
6.27106 -3.189 0.221111
6.29906 -3.179 0.221111
6.33206 -3.171 0.221111
6.37206 -3.166 0.221111
6.39506 -3.165 0.221111
6.44606 -3.165 0.221111
6.48706 -3.16 0.222111
6.52306 -3.153 0.222111
6.56006 -3.145 0.222111
7.58806 -2.961 0.224111
7.61806 -2.945 0.225111
7.66606 -2.936 0.225111
7.70906 -2.925 0.225111
7.75906 -2.917 0.225111
7.79606 -2.916 0.225111
7.84406 -2.907 0.225111
7.89106 -2.896 0.225111
7.94306 -2.887 0.225111
7.99106 -2.876 0.226111
8.13406 -2.856 0.226111
8.18306 -2.845 0.226111
8.23906 -2.835 0.226111
8.33606 -2.811 0.227111
8.39806 -2.802 0.227111
8.49106 -2.789 0.227111
8.55306 -2.78 0.227111
8.60206 -2.766 0.227111
8.65606 -2.754 0.227111
8.72206 -2.744 0.228111
8.88406 -2.72 0.228111
8.93506 -2.705 0.228111
9.00306 -2.694 0.228111
9.06706 -2.683 0.229111
10.6161 -2.419 0.182111
10.6981 -2.402 0.181111
10.7801 -2.385 0.181111
10.8601 -2.367 0.181111
10.9361 -2.365 0.181111
11.1091 -2.329 0.181111
11.1911 -2.31 0.181111
11.2801 -2.291 0.181111
11.5301 -2.247 0.180111
11.6231 -2.227 0.180111
11.7191 -2.207 0.180111
12.0381 -2.149 0.180111
2.53206 -3.862 0.162111
2.53506 -3.853 0.162111
2.56006 -3.865 0.161111
2.56806 -3.85 0.162111
2.58806 -3.854 0.161111
2.60006 -3.846 0.161111
2.61906 -3.848 0.161111
2.63006 -3.838 0.161111
2.64506 -3.847 0.161111
2.65406 -3.835 0.161111
2.67306 -3.837 0.161111
2.69006 -3.835 0.161111
2.70106 -3.825 0.161111
2.71706 -3.823 0.161111
2.73906 -3.827 0.161111
2.74706 -3.826 0.161111
2.76006 -3.819 0.161111
2.79506 -3.816 0.161111
2.84106 -3.804 0.161111
2.85306 -3.808 0.160111
2.87306 -3.81 0.160111
2.88506 -3.801 0.160111
2.89806 -3.794 0.160111
2.93206 -3.788 0.160111
2.95006 -3.787 0.160111
2.95806 -3.785 0.160111
2.98106 -3.79 0.160111
2.99406 -3.782 0.160111
3.01006 -3.778 0.160111
3.01906 -3.765 0.160111
3.04506 -3.773 0.160111
3.05806 -3.765 0.160111
3.08206 -3.771 0.160111
3.08706 -3.764 0.160111
3.10906 -3.767 0.159111
3.14006 -3.757 0.159111
3.62906 -3.663 0.157111
3.68306 -3.659 0.157111
3.69006 -3.644 0.157111
3.73906 -3.646 0.157111
3.79606 -3.633 0.157111
3.82806 -3.628 0.156111
3.88906 -3.618 0.156111
3.94106 -3.609 0.156111
3.95406 -3.598 0.156111
3.99906 -3.593 0.156111
4.01606 -3.586 0.156111
4.07406 -3.593 0.155111
4.07206 -3.58 0.155111
4.09906 -3.58 0.155111
4.12906 -3.584 0.155111
4.13506 -3.566 0.155111
4.18706 -3.566 0.155111
4.20006 -3.554 0.155111
4.21806 -3.558 0.154111
4.24306 -3.557 0.154111
4.28806 -3.549 0.154111
4.31306 -3.547 0.154111
4.35406 -3.535 0.154111
4.37306 -3.54 0.154111
4.38706 -3.528 0.154111
4.41406 -3.527 0.153111
4.44206 -3.527 0.153111
4.45806 -3.517 0.153111
4.50306 -3.507 0.153111
4.52006 -3.509 0.153111
4.55006 -3.509 0.153111
4.59106 -3.495 0.153111
4.61306 -3.489 0.152111
4.64606 -3.492 0.152111
4.66006 -3.48 0.152111
4.67906 -3.482 0.152111
4.70206 -3.477 0.152111
4.72506 -3.47 0.152111
4.75206 -3.467 0.152111
4.78006 -3.465 0.151111
4.79106 -3.45 0.151111
4.82006 -3.448 0.151111
4.83506 -3.448 0.151111
4.86806 -3.449 0.151111
4.88106 -3.434 0.151111
4.91906 -3.439 0.151111
4.94806 -3.436 0.151111
4.96606 -3.425 0.150111
4.98906 -3.418 0.150111
5.00806 -3.42 0.150111
5.04206 -3.42 0.150111
5.08506 -3.402 0.150111
5.11406 -3.399 0.150111
5.14806 -3.398 0.149111
5.17006 -3.39 0.149111
5.19206 -3.393 0.149111
5.24806 -3.383 0.149111
5.35506 -3.357 0.148111
5.39106 -3.356 0.148111
5.39806 -3.349 0.148111
5.51806 -3.329 0.147111
5.55606 -3.328 0.147111
5.69406 -3.303 0.146111
5.75206 -3.289 0.146111
5.78206 -3.282 0.146111
6.21606 -3.201 0.143111
6.31106 -3.188 0.142111
7.72506 -2.935 0.133111
7.75906 -2.92 0.133111
7.80706 -2.91 0.132111
7.86706 -2.905 0.132111
7.90506 -2.905 0.132111
7.94406 -2.891 0.131111
8.00406 -2.884 0.131111
8.03406 -2.867 0.131111
8.11306 -2.866 0.130111
8.14206 -2.848 0.130111
8.19506 -2.838 0.130111
8.23706 -2.838 0.129111
8.28506 -2.826 0.129111
8.35106 -2.819 0.129111
8.39606 -2.805 0.128111
8.44806 -2.793 0.128111
8.56406 -2.772 0.127111
8.66106 -2.759 0.126111
8.71906 -2.747 0.126111
9.07006 -2.687 0.123111
0.74806 -4.171 0.138111
0.79406 -4.163 0.138111
2.53606 -3.869 0.133111
2.54706 -3.859 0.133111
2.56406 -3.86 0.133111
2.58206 -3.86 0.132111
2.59506 -3.853 0.132111
2.66706 -3.841 0.132111
2.68506 -3.841 0.132111
2.69206 -3.826 0.132111
2.71006 -3.825 0.132111
2.72306 -3.831 0.132111
2.73706 -3.825 0.132111
2.75306 -3.822 0.132111
2.76606 -3.815 0.132111
2.78406 -3.814 0.131111
2.79806 -3.808 0.131111
2.83406 -3.807 0.131111
2.84906 -3.813 0.131111
2.85906 -3.803 0.131111
2.87506 -3.799 0.131111
2.88906 -3.793 0.131111
2.90906 -3.793 0.131111
2.97406 -3.791 0.130111
2.98306 -3.778 0.130111
3.00606 -3.783 0.130111
3.01706 -3.772 0.130111
3.04106 -3.778 0.130111
3.06206 -3.766 0.130111
3.07506 -3.758 0.130111
3.10206 -3.767 0.129111
3.11506 -3.759 0.129111
3.12806 -3.751 0.129111
3.15006 -3.753 0.129111
3.16506 -3.746 0.129111
6.21606 -3.197 0.100111
6.24706 -3.188 0.0991114
6.35906 -3.17 0.0981114
6.39106 -3.161 0.0981114
6.45406 -3.154 0.0971114
6.49106 -3.147 0.0961114
6.53006 -3.14 0.0961114
6.56506 -3.132 0.0961114
7.62106 -2.95 0.0831114
7.65406 -2.935 0.0831114
7.73306 -2.937 0.0821114
7.80306 -2.908 0.0811114
8.00806 -2.883 0.0781114
8.09206 -2.856 0.0771114
8.15006 -2.848 0.0771114
8.20806 -2.839 0.0761114
8.30506 -2.828 0.0751114
8.39906 -2.801 0.0731114
8.66406 -2.754 0.0701114
8.73006 -2.744 0.0691114
9.13806 -2.668 0.0641114
12.1271 -2.144 0.0251114
0.13906 -4.281 0.107111
0.15306 -4.278 0.107111
0.16606 -4.276 0.107111
0.18006 -4.277 0.107111
0.20706 -4.278 0.107111
0.22006 -4.275 0.107111
0.22606 -4.267 0.108111
0.25306 -4.263 0.108111
0.26706 -4.265 0.108111
0.28006 -4.268 0.107111
0.29306 -4.257 0.108111
0.33906 -4.247 0.108111
0.35306 -4.254 0.108111
0.39306 -4.243 0.108111
0.39906 -4.234 0.108111
0.41306 -4.243 0.108111
0.42606 -4.238 0.108111
0.43906 -4.234 0.108111
0.45206 -4.235 0.108111
0.47906 -4.23 0.108111
0.48606 -4.233 0.108111
0.49806 -4.226 0.108111
0.52506 -4.222 0.108111
0.53906 -4.225 0.108111
0.55006 -4.209 0.108111
0.56506 -4.221 0.108111
0.68306 -4.198 0.108111
0.69706 -4.197 0.108111
0.70906 -4.185 0.108111
0.72306 -4.189 0.108111
0.73506 -4.185 0.108111
0.76806 -4.175 0.108111
0.78206 -4.178 0.108111
0.79506 -4.176 0.108111
0.80806 -4.173 0.108111
0.83506 -4.172 0.108111
0.84006 -4.163 0.108111
0.85206 -4.156 0.108111
0.86706 -4.164 0.108111
0.87806 -4.149 0.108111
0.89206 -4.152 0.108111
0.90606 -4.153 0.108111
0.91806 -4.146 0.108111
0.95106 -4.139 0.108111
0.96306 -4.134 0.108111
0.99006 -4.13 0.108111
1.00306 -4.127 0.108111
1.01206 -4.137 0.108111
1.02406 -4.13 0.108111
1.05206 -4.131 0.108111
1.06406 -4.122 0.108111
1.07506 -4.115 0.108111
1.09006 -4.119 0.108111
1.09506 -4.112 0.108111
1.10906 -4.112 0.108111
1.13506 -4.105 0.108111
1.16106 -4.098 0.108111
1.19506 -4.094 0.108111
1.26106 -4.081 0.108111
1.26906 -4.086 0.107111
1.28206 -4.082 0.107111
1.29606 -4.082 0.107111
1.30806 -4.076 0.107111
1.34906 -4.071 0.107111
1.36906 -4.067 0.107111
1.38206 -4.062 0.107111
1.39606 -4.062 0.107111
1.43706 -4.056 0.107111
1.45606 -4.051 0.107111
1.48306 -4.046 0.107111
1.49906 -4.05 0.107111
1.50906 -4.038 0.107111
1.52306 -4.037 0.107111
1.53306 -4.044 0.106111
1.57406 -4.037 0.106111
1.58406 -4.024 0.106111
1.61206 -4.022 0.106111
1.61806 -4.019 0.106111
1.63406 -4.022 0.106111
1.64706 -4.017 0.106111
1.66106 -4.017 0.106111
1.67306 -4.01 0.106111
1.68906 -4.012 0.106111
1.69906 -4.001 0.106111
1.71406 -4.001 0.106111
1.72106 -4 0.106111
1.73506 -3.999 0.106111
1.76606 -4 0.105111
1.79006 -3.987 0.105111
1.80506 -3.987 0.105111
1.81106 -3.983 0.105111
1.82606 -3.982 0.105111
1.84106 -3.984 0.105111
1.85306 -3.976 0.105111
1.86806 -3.976 0.105111
1.88706 -3.983 0.105111
1.89606 -3.97 0.105111
1.90506 -3.974 0.105111
1.91906 -3.97 0.105111
1.93306 -3.967 0.105111
1.94506 -3.961 0.105111
1.96006 -3.96 0.104111
1.97406 -3.956 0.104111
1.98606 -3.95 0.104111
2.00206 -3.966 0.104111
2.00706 -3.946 0.104111
2.02306 -3.946 0.104111
2.03806 -3.944 0.104111
2.05106 -3.939 0.104111
2.08306 -3.94 0.104111
2.08706 -3.933 0.104111
2.11806 -3.931 0.103111
2.18206 -3.916 0.103111
2.19906 -3.918 0.103111
2.21206 -3.913 0.103111
2.23906 -3.904 0.103111
2.27706 -3.899 0.102111
2.30806 -3.895 0.102111
2.32406 -3.894 0.102111
2.33706 -3.889 0.102111
3.41406 -3.703 0.0911114
3.45606 -3.702 0.0911114
3.46806 -3.691 0.0911114
3.50206 -3.692 0.0901114
3.56006 -3.684 0.0901114
3.58006 -3.681 0.0891114
3.59806 -3.677 0.0891114
3.60906 -3.677 0.0891114
3.66506 -3.664 0.0881114
3.68806 -3.664 0.0881114
3.77706 -3.648 0.0871114
3.94706 -3.615 0.0851114
3.99106 -3.609 0.0841114
4.02306 -3.604 0.0841114
4.04106 -3.598 0.0841114
4.06006 -3.592 0.0831114
4.39706 -3.536 0.0791114
4.41606 -3.529 0.0791114
4.45006 -3.522 0.0781114
4.50206 -3.517 0.0771114
4.51906 -3.508 0.0771114
4.55006 -3.51 0.0771114
4.57106 -3.503 0.0761114
4.61106 -3.499 0.0761114
4.63306 -3.493 0.0751114
4.70606 -3.479 0.0741114
4.75406 -3.469 0.0741114
4.79106 -3.462 0.0731114
4.82106 -3.461 0.0731114
4.86906 -3.449 0.0721114
4.91806 -3.438 0.0711114
4.95606 -3.43 0.0711114
5.01506 -3.424 0.0701114
5.06306 -3.411 0.0691114
5.09706 -3.411 0.0691114
5.11006 -3.408 0.0681114
5.19206 -3.393 0.0671114
5.26906 -3.373 0.0661114
5.43406 -3.348 0.0631114
5.65906 -3.306 0.0601115
6.32006 -3.193 0.0491114
7.68406 -2.947 0.0251114
7.73706 -2.939 0.0241114
8.74806 -2.757 0.00511145
8.80606 -2.745 0.00411145
9.08506 -2.692 -0.00188855
9.15706 -2.682 -0.00288855
9.21106 -2.667 -0.00388855
9.29306 -2.643 -0.00488855
9.36706 -2.633 -0.00688855
10.1411 -2.495 -0.0218886
10.1921 -2.49 -0.0228886
10.4191 -2.442 -0.0268886
10.7321 -2.392 -0.0328886
10.8041 -2.373 -0.0348886
10.8971 -2.358 -0.0368886
10.9751 -2.339 -0.0378886
11.3121 -2.281 -0.0448886
5.98311e-05 -4.309 0.0841114
0.14806 -4.284 0.0851114
0.23506 -4.265 0.0851114
0.36106 -4.244 0.0861114
0.50506 -4.215 0.0861114
0.52006 -4.227 0.0861114
0.53206 -4.214 0.0861114
0.54706 -4.226 0.0861114
0.69106 -4.193 0.0861114
0.70306 -4.186 0.0861114
0.72906 -4.18 0.0861114
0.74206 -4.174 0.0861114
0.75506 -4.171 0.0861114
0.77506 -4.168 0.0861114
0.82806 -4.162 0.0861114
0.84006 -4.155 0.0861114
0.90106 -4.153 0.0861114
0.91306 -4.148 0.0861114
0.92906 -4.157 0.0861114
0.93306 -4.143 0.0861114
0.94806 -4.148 0.0861114
0.95906 -4.137 0.0861114
0.97106 -4.132 0.0861114
0.98406 -4.129 0.0861114
0.99906 -4.134 0.0861114
1.01106 -4.127 0.0861114
1.02006 -4.133 0.0861114
1.03206 -4.128 0.0861114
1.04406 -4.119 0.0861114
1.05806 -4.121 0.0861114
1.07106 -4.118 0.0861114
1.09606 -4.109 0.0861114
1.11706 -4.11 0.0861114
1.13006 -4.104 0.0861114
1.14306 -4.103 0.0861114
1.18406 -4.1 0.0851114
1.19106 -4.1 0.0851114
1.22006 -4.102 0.0851114
1.25706 -4.086 0.0851114
1.26906 -4.078 0.0851114
1.29006 -4.08 0.0851114
1.31706 -4.075 0.0851114
1.33006 -4.071 0.0851114
1.40306 -4.055 0.0851114
1.44506 -4.053 0.0851114
1.46306 -4.044 0.0851114
1.51806 -4.035 0.0841114
1.59306 -4.023 0.0841114
1.67006 -4.013 0.0831114
1.98306 -3.951 0.0811114
2.22506 -3.912 0.0791114
2.35006 -3.886 0.0781114
2.36506 -3.883 0.0781114
2.43706 -3.877 0.0771114
3.36706 -3.705 0.0661114
3.39706 -3.703 0.0661114
3.41406 -3.698 0.0661114
3.43106 -3.693 0.0651114
3.46906 -3.687 0.0651114
3.50206 -3.687 0.0641114
3.53606 -3.676 0.0641114
3.57906 -3.674 0.0631114
3.61306 -3.663 0.0631114
3.62306 -3.661 0.0621114
3.66406 -3.657 0.0621114
3.68406 -3.653 0.0611114
3.72206 -3.644 0.0611114
3.75906 -3.635 0.0601115
3.77006 -3.634 0.0601115
3.80206 -3.642 0.0591114
3.83106 -3.623 0.0591114
3.87306 -3.617 0.0591114
3.91206 -3.619 0.0581114
3.94906 -3.607 0.0571114
3.97506 -3.608 0.0571114
3.99006 -3.598 0.0571114
4.00506 -3.59 0.0561115
4.03106 -3.601 0.0561115
4.04006 -3.587 0.0561115
4.07406 -3.594 0.0551114
4.09006 -3.585 0.0551114
4.10406 -3.575 0.0551114
4.13406 -3.577 0.0541114
4.15706 -3.575 0.0541114
4.17606 -3.568 0.0541114
4.18806 -3.567 0.0531114
4.22806 -3.556 0.0531114
4.25606 -3.556 0.0521114
4.32606 -3.545 0.0511114
4.33606 -3.542 0.0511114
4.36406 -3.542 0.0501114
4.41406 -3.515 0.0501114
4.46806 -3.511 0.0491114
4.50506 -3.506 0.0481114
4.56206 -3.504 0.0471114
4.58306 -3.497 0.0461114
4.62206 -3.481 0.0461114
4.69806 -3.481 0.0441114
4.74506 -3.47 0.0431114
4.84006 -3.458 0.0421114
4.89106 -3.448 0.0411114
4.93806 -3.434 0.0401114
4.98406 -3.431 0.0391114
5.08806 -3.409 0.0371114
5.14106 -3.398 0.0361114
5.37606 -3.361 0.0311114
6.95306 -3.078 -0.00188855
6.94906 -3.063 -0.000888552
9.33406 -2.645 -0.0558886
9.66006 -2.59 -0.0638886
9.70506 -2.569 -0.0648886
9.80206 -2.562 -0.0668886
9.87806 -2.548 -0.0688886
10.1521 -2.5 -0.0758886
10.2451 -2.488 -0.0778886
10.3231 -2.473 -0.0798886
10.3951 -2.455 -0.0818886
10.6051 -2.417 -0.0868886
10.7041 -2.404 -0.0888886
10.7841 -2.386 -0.0908886
10.8601 -2.367 -0.0928886
10.9341 -2.347 -0.0948886
11.1011 -2.328 -0.0988886
11.2031 -2.312 -0.101889
11.2741 -2.29 -0.102889
11.3621 -2.27 -0.104889
11.7161 -2.207 -0.113889
0.80006 -4.164 0.0611114
0.88506 -4.149 0.0611114
0.91806 -4.144 0.0611114
0.94506 -4.14 0.0601115
0.99706 -4.13 0.0601115
1.02906 -4.122 0.0601115
3.64406 -3.654 0.0311114
3.68206 -3.646 0.0311114
3.70306 -3.645 0.0301114
3.71506 -3.644 0.0301114
3.73206 -3.638 0.0301114
3.75606 -3.639 0.0291114
3.77806 -3.637 0.0291114
3.82306 -3.624 0.0281114
3.84606 -3.623 0.0271114
3.86806 -3.62 0.0271114
3.91206 -3.616 0.0261115
3.92506 -3.605 0.0261115
3.95106 -3.607 0.0251114
3.97906 -3.597 0.0251114
4.02006 -3.59 0.0241114
4.04106 -3.585 0.0231114
4.06806 -3.587 0.0231114
4.10706 -3.576 0.0221114
4.12006 -3.576 0.0221114
4.16206 -3.567 0.0211114
4.18306 -3.562 0.0211114
4.20906 -3.562 0.0201114
4.22806 -3.555 0.0201114
4.25306 -3.553 0.0191114
4.26606 -3.553 0.0191114
4.28006 -3.542 0.0191114
4.30806 -3.543 0.0181114
4.33206 -3.539 0.0171114
4.35706 -3.537 0.0171114
4.37706 -3.531 0.0161114
4.39606 -3.523 0.0161114
4.42006 -3.532 0.0151114
4.43406 -3.52 0.0151114
4.46406 -3.521 0.0141114
4.48006 -3.511 0.0141114
4.50506 -3.508 0.0141114
4.53006 -3.505 0.0131114
4.54906 -3.497 0.0131114
4.56606 -3.498 0.0121114
4.59406 -3.497 0.0121114
4.61906 -3.494 0.0111114
4.64506 -3.49 0.0101114
4.66506 -3.483 0.0101114
4.68706 -3.476 0.0101114
4.71906 -3.477 0.00911145
4.73406 -3.477 0.00811145
4.75506 -3.469 0.00811145
4.78006 -3.465 0.00711145
4.79706 -3.454 0.00711145
4.82106 -3.449 0.00711145
4.85306 -3.449 0.00611145
4.87906 -3.444 0.00511145
4.89006 -3.441 0.00511145
4.94106 -3.431 0.00411145
4.97006 -3.428 0.00311145
4.99706 -3.423 0.00211145
5.02306 -3.418 0.00211145
5.04006 -3.406 0.00211145
5.08906 -3.405 0.000111448
5.11506 -3.399 0.000111448
5.14206 -3.394 -0.000888552
5.16506 -3.386 -0.000888552
5.19506 -3.383 -0.00188855
5.22406 -3.378 -0.00288855
5.24106 -3.378 -0.00288855
5.26906 -3.372 -0.00388855
5.29906 -3.368 -0.00488855
5.32006 -3.358 -0.00488855
5.35806 -3.359 -0.00588855
5.38306 -3.351 -0.00688855
5.40606 -3.342 -0.00688855
5.43506 -3.348 -0.00788855
5.46406 -3.342 -0.00888855
5.49206 -3.336 -0.00888855
5.51706 -3.328 -0.00988855
5.55206 -3.325 -0.0108886
5.57406 -3.315 -0.0108886
5.59806 -3.305 -0.0118886
5.64806 -3.299 -0.0128886
5.69306 -3.302 -0.0138886
5.71906 -3.293 -0.0148886
5.75006 -3.287 -0.0158886
5.77906 -3.28 -0.0158886
5.81106 -3.273 -0.0168886
5.83106 -3.273 -0.0178886
5.87106 -3.271 -0.0188886
6.19106 -3.213 -0.0268886
6.22406 -3.205 -0.0278886
6.26606 -3.202 -0.0288886
6.29106 -3.19 -0.0288886
6.43106 -3.173 -0.0328886
6.50506 -3.159 -0.0348886
6.53406 -3.148 -0.0358886
6.59906 -3.141 -0.0378886
6.64006 -3.135 -0.0388886
6.67706 -3.127 -0.0398886
7.00306 -3.056 -0.0478886
7.05506 -3.052 -0.0498886
7.08706 -3.053 -0.0508886
7.12206 -3.042 -0.0518886
7.17006 -3.036 -0.0528886
7.20606 -3.024 -0.0538886
7.25606 -3.019 -0.0548886
7.29306 -3.007 -0.0558886
7.33906 -3 -0.0568886
7.37906 -3.002 -0.0588886
7.41306 -2.989 -0.0588886
7.45206 -2.978 -0.0598886
7.50006 -2.97 -0.0618886
7.54806 -2.962 -0.0628886
7.59706 -2.953 -0.0638886
7.64306 -2.944 -0.0658886
7.67606 -2.943 -0.0668886
7.73106 -2.937 -0.0678886
