9.29805 0.104014 -1.60186
9.31105 0.134014 -1.60386
9.31505 0.163014 -1.60486
9.30805 0.192014 -1.60386
9.32105 0.222014 -1.60586
9.30405 0.265014 -1.60286
9.29905 0.324014 -1.60286
9.29705 0.411014 -1.60286
9.29705 0.455014 -1.60286
9.26205 1.20201 -1.60886
9.24405 1.22901 -1.60686
9.24305 1.24301 -1.60686
9.22705 1.40401 -1.60786
9.23305 1.43501 -1.60986
9.21605 1.49101 -1.60886
9.21905 1.52201 -1.60986
9.21605 1.55101 -1.60986
9.20305 1.57801 -1.60886
9.21005 1.60901 -1.61086
9.20905 1.62401 -1.61086
9.20405 1.65301 -1.61086
9.20305 1.68301 -1.61186
9.20505 1.71301 -1.61386
9.19805 1.74201 -1.61286
9.20805 1.77301 -1.61586
9.18905 1.80001 -1.61386
9.19305 1.81601 -1.61486
9.20105 1.84701 -1.61786
9.19705 1.87601 -1.61786
9.19305 1.90601 -1.61786
9.18705 1.93501 -1.61786
9.18305 1.96401 -1.61886
9.20405 1.99801 -1.62386
9.19505 2.01201 -1.62286
9.19605 2.04201 -1.62386
9.20305 2.07401 -1.62686
9.17505 2.09801 -1.62286
9.18805 2.13101 -1.62586
9.18705 2.16201 -1.62686
9.19005 2.19301 -1.62886
9.17305 2.20401 -1.62686
9.16805 2.23301 -1.62686
9.18205 2.26701 -1.63086
9.16505 2.29401 -1.62886
9.16005 2.32301 -1.62986
9.16205 2.35401 -1.63086
9.14905 2.38101 -1.62986
9.14905 2.39701 -1.63086
9.14305 2.42601 -1.63086
9.13705 2.45501 -1.63186
9.12205 2.48201 -1.62986
9.10705 2.61601 -1.63386
9.07505 2.66901 -1.63086
9.06805 2.76001 -1.63486
9.04805 2.80101 -1.63386
9.04505 2.83101 -1.63486
9.03605 2.85901 -1.63486
9.03005 2.88901 -1.63486
9.02105 2.94901 -1.63686
8.99005 2.97001 -1.63286
8.97905 3.01301 -1.63386
8.98105 3.04501 -1.63586
8.96005 3.06901 -1.63386
8.96205 3.10101 -1.63586
8.94805 3.12801 -1.63486
8.93505 3.15501 -1.63386
8.90005 3.15901 -1.62886
8.91205 3.19501 -1.63286
8.89305 3.21901 -1.63086
8.89005 3.25001 -1.63286
8.87105 3.27401 -1.63086
8.87705 3.30801 -1.63386
8.86105 3.33401 -1.63286
8.86905 3.35301 -1.63486
8.83805 3.37301 -1.63086
8.85105 3.41001 -1.63586
8.82205 3.43101 -1.63286
8.82805 3.46501 -1.63586
8.82205 3.49501 -1.63686
8.82205 3.51101 -1.63786
8.80005 3.53401 -1.63586
8.81405 3.57201 -1.64086
8.80705 3.60101 -1.64186
8.80505 3.63201 -1.64286
8.75605 3.75801 -1.64386
8.50405 4.28401 -1.64286
9.24705 -1.03299 -1.60286
9.27105 -1.00699 -1.60686
9.29205 -0.979986 -1.60986
9.27705 -0.948986 -1.60686
9.29405 -0.920986 -1.60886
9.31105 -0.892986 -1.61186
9.29605 -0.876986 -1.60886
9.32105 -0.849986 -1.61286
9.31305 -0.818986 -1.61086
9.30205 -0.788986 -1.60886
9.31805 -0.760986 -1.61086
9.30905 -0.730986 -1.60886
9.31205 -0.715986 -1.60886
9.32405 -0.687986 -1.61086
9.32005 -0.657986 -1.60986
9.32405 -0.628986 -1.60986
9.33605 -0.599986 -1.61186
9.33005 -0.569986 -1.61086
9.33205 -0.540986 -1.61086
9.33705 -0.526986 -1.61086
9.33005 -0.496986 -1.60986
9.34605 -0.467986 -1.61286
9.34105 -0.438986 -1.61086
9.33505 -0.408986 -1.60986
9.34205 -0.379986 -1.61086
9.33905 -0.349986 -1.60986
9.33205 -0.320986 -1.60886
9.31505 -0.304986 -1.60586
9.31805 -0.275986 -1.60586
9.31905 -0.246986 -1.60586
9.32105 -0.217986 -1.60586
9.31605 -0.187986 -1.60486
9.30705 -0.158986 -1.60286
9.31705 -0.129986 -1.60486
9.32105 -0.114986 -1.60586
9.32105 -0.085986 -1.60586
9.31605 -0.056986 -1.60486
9.32405 -0.026986 -1.60586
8.94405 0.00801395 -1.61486
8.97105 0.0360139 -1.61986
8.94005 0.064014 -1.61386
8.92605 0.092014 -1.61186
8.93105 0.120014 -1.61286
8.95205 0.149014 -1.61686
8.92705 0.162014 -1.61186
8.95905 0.191014 -1.61886
8.92905 0.218014 -1.61286
8.91705 0.246014 -1.61086
8.92205 0.274014 -1.61186
8.92305 0.302014 -1.61186
8.91605 0.330014 -1.61086
8.92305 0.359014 -1.61186
8.92605 0.373014 -1.61286
8.92705 0.401014 -1.61386
8.92405 0.429014 -1.61286
8.94405 0.458014 -1.61686
8.90905 0.512014 -1.61086
8.91605 0.541014 -1.61286
8.91105 0.555014 -1.61186
8.91705 0.583014 -1.61386
8.90905 0.611014 -1.61186
8.91105 0.639014 -1.61286
8.93405 0.669014 -1.61786
8.90905 0.695014 -1.61386
8.92805 0.725014 -1.61786
8.89305 0.764014 -1.61186
8.91005 0.794014 -1.61586
8.89605 0.849014 -1.61386
8.89305 0.877014 -1.61386
8.88805 0.905014 -1.61286
8.89205 0.919014 -1.61386
8.91505 0.950014 -1.61886
8.88105 0.974014 -1.61286
8.91305 1.00601 -1.61986
8.91105 1.03501 -1.61986
8.89805 1.06101 -1.61886
8.90305 1.09001 -1.61986
8.89105 1.10301 -1.61786
8.87605 1.12901 -1.61586
8.89205 1.16001 -1.61986
8.89605 1.18901 -1.62086
8.90005 1.21801 -1.62286
8.89805 1.24601 -1.62286
8.85705 1.26901 -1.61586
8.88805 1.28801 -1.62186
8.85305 1.31101 -1.61586
8.87405 1.34201 -1.62086
8.85105 1.36701 -1.61686
8.86405 1.39801 -1.62086
8.86505 1.42701 -1.62186
8.83105 1.45001 -1.61586
8.86805 1.48401 -1.62386
8.83205 1.49301 -1.61786
8.84505 1.52301 -1.62086
8.82905 1.54901 -1.61886
8.82205 1.57601 -1.61886
8.82205 1.60501 -1.61986
8.82105 1.63401 -1.61986
8.82305 1.64801 -1.62086
8.82305 1.67701 -1.62186
8.82405 1.70601 -1.62286
8.81205 1.73201 -1.62186
8.81805 1.76201 -1.62486
8.83005 1.79401 -1.62786
8.80905 1.81801 -1.62486
8.81005 1.83301 -1.62586
8.80605 1.86101 -1.62586
8.80405 1.88901 -1.62686
8.80205 1.91801 -1.62786
8.79405 1.94501 -1.62686
8.79005 1.97301 -1.62786
8.78705 2.00201 -1.62786
8.78105 2.02901 -1.62786
8.77005 2.04101 -1.62686
8.76605 2.06901 -1.62686
8.76105 2.09701 -1.62786
8.74905 2.12301 -1.62686
8.75105 2.15301 -1.62786
8.76205 2.18501 -1.63186
8.74705 2.21101 -1.62986
8.74005 2.22301 -1.62986
8.73905 2.25201 -1.63086
8.73705 2.28101 -1.63186
8.73805 2.31101 -1.63286
8.74205 2.34101 -1.63586
8.72305 2.36601 -1.63286
8.72505 2.39601 -1.63486
8.72305 2.41001 -1.63586
8.69805 2.43201 -1.63186
8.71505 2.46701 -1.63686
8.70905 2.49501 -1.63786
8.70505 2.52301 -1.63786
8.69905 2.55101 -1.63886
8.69105 2.57801 -1.63886
8.69105 2.59301 -1.63886
8.68305 2.62001 -1.63886
8.68205 2.65001 -1.64086
8.66805 2.67601 -1.63986
8.58905 2.98001 -1.64386
8.57905 3.00701 -1.64386
8.56805 3.03301 -1.64286
8.54705 3.05601 -1.64086
8.54305 3.08501 -1.64186
8.54105 3.11401 -1.64386
8.52705 3.12401 -1.64186
8.51505 3.15101 -1.64086
8.50005 3.17501 -1.63986
8.49005 3.20201 -1.63986
8.48005 3.22901 -1.63986
8.47105 3.25601 -1.64086
8.44605 3.27701 -1.63786
8.44305 3.30601 -1.63886
8.44905 3.32401 -1.64086
8.43905 3.35001 -1.64086
8.42405 3.37501 -1.64086
8.41705 3.40301 -1.64086
8.40105 3.42701 -1.63986
8.39405 3.45501 -1.64086
8.39205 3.48501 -1.64286
8.37905 3.49601 -1.64086
8.37705 3.52601 -1.64286
8.37705 3.55701 -1.64586
8.36205 3.58101 -1.64486
8.36505 3.61401 -1.64786
8.35405 3.64001 -1.64786
8.34805 3.65301 -1.64786
8.33905 3.68001 -1.64786
8.34705 3.71501 -1.65186
8.09305 4.21401 -1.64986
8.82605 -1.12099 -1.60586
8.86605 -1.11199 -1.61386
8.89105 -1.08699 -1.61786
8.89105 -1.05799 -1.61686
8.92505 -1.03399 -1.62286
8.89905 -1.00299 -1.61686
8.90605 -0.974986 -1.61786
8.90905 -0.946986 -1.61786
8.92205 -0.933986 -1.61986
8.92005 -0.905986 -1.61886
8.92205 -0.877986 -1.61886
8.92105 -0.848986 -1.61886
8.92005 -0.820986 -1.61786
8.92605 -0.792986 -1.61886
8.92905 -0.764986 -1.61886
8.94005 -0.751986 -1.61986
8.94405 -0.723986 -1.62086
8.93805 -0.694986 -1.61886
8.94605 -0.667986 -1.61986
8.94105 -0.638986 -1.61886
8.95405 -0.611986 -1.62086
8.94405 -0.582986 -1.61886
8.95405 -0.554986 -1.61986
8.93705 -0.539986 -1.61686
8.94305 -0.511986 -1.61786
8.94105 -0.483986 -1.61686
8.93605 -0.455986 -1.61586
8.94305 -0.427986 -1.61686
8.97605 -0.400986 -1.62286
8.94005 -0.370986 -1.61586
8.93705 -0.356986 -1.61486
8.96705 -0.329986 -1.62086
8.93505 -0.300986 -1.61386
8.96105 -0.272986 -1.61886
8.93305 -0.244986 -1.61386
8.97105 -0.216986 -1.62086
8.94005 -0.202986 -1.61486
8.97205 -0.174986 -1.62086
8.93505 -0.145986 -1.61386
8.96705 -0.118986 -1.61986
8.93705 -0.089986 -1.61386
8.96905 -0.061986 -1.61986
8.94805 -0.0339861 -1.61586
8.97305 -0.019986 -1.62086
8.32805 1.63301 -1.62586
8.32405 1.66001 -1.62586
8.32505 1.67401 -1.62686
8.31305 1.72501 -1.62686
8.31505 1.75301 -1.62786
8.31705 1.78101 -1.62986
8.30405 1.80501 -1.62786
8.30205 1.83201 -1.62886
8.29205 1.84401 -1.62686
8.28205 1.86901 -1.62686
8.28205 1.89601 -1.62786
8.28305 1.92401 -1.62886
8.27505 1.94901 -1.62886
8.27105 1.97601 -1.62886
8.27405 2.00401 -1.63186
8.27105 2.01701 -1.63186
8.26905 2.04401 -1.63186
8.26205 2.07001 -1.63186
8.26905 2.09901 -1.63486
8.25305 2.12301 -1.63286
8.25605 2.15101 -1.63486
8.24905 2.17701 -1.63486
8.24205 2.18901 -1.63386
8.23805 2.21601 -1.63486
8.23305 2.24201 -1.63586
8.23205 2.27001 -1.63686
8.22305 2.29501 -1.63586
8.21005 2.31901 -1.63486
8.20805 2.34701 -1.63586
8.21405 2.36201 -1.63786
8.20505 2.38801 -1.63786
8.19905 2.41401 -1.63786
8.21005 2.44501 -1.64186
8.20205 2.47101 -1.64186
8.20005 2.49801 -1.64386
8.20905 2.52901 -1.64686
8.19805 2.54001 -1.64586
8.19505 2.56701 -1.64686
8.18905 2.59401 -1.64686
8.17705 2.61801 -1.64586
8.18205 2.64801 -1.64886
8.17405 2.70201 -1.65086
8.15705 2.76801 -1.65186
8.14605 2.79301 -1.65186
8.12505 2.84301 -1.65086
8.11605 2.86801 -1.65086
8.10905 2.89401 -1.65086
8.10005 2.90601 -1.64986
8.08205 2.92801 -1.64786
8.06705 2.95101 -1.64686
8.04505 2.97201 -1.64386
8.03905 2.99801 -1.64486
8.04305 3.02801 -1.64786
8.02105 3.03501 -1.64386
8.01405 3.06101 -1.64486
8.00805 3.08701 -1.64586
7.99105 3.11001 -1.64386
7.97505 3.13301 -1.64286
7.98505 3.16601 -1.64686
7.94805 3.18001 -1.64086
7.94205 3.20601 -1.64186
7.94405 3.22201 -1.64386
7.92705 3.24401 -1.64186
7.92205 3.27101 -1.64286
7.92605 3.30201 -1.64586
7.90305 3.32101 -1.64386
7.89405 3.34701 -1.64386
7.89605 3.37701 -1.64686
7.88005 3.38501 -1.64386
7.88205 3.41501 -1.64686
7.87705 3.44201 -1.64786
7.85705 3.46301 -1.64586
7.85305 3.49101 -1.64786
7.84605 3.51701 -1.64886
7.82605 3.53701 -1.64686
7.82905 3.55401 -1.64886
7.82905 3.58301 -1.65086
7.81705 3.60801 -1.65086
7.80605 3.63201 -1.65086
7.81805 3.66801 -1.65586
7.79005 3.68501 -1.65286
7.79105 3.71501 -1.65586
7.79905 3.73401 -1.65886
7.78405 3.75701 -1.65786
7.78305 3.78601 -1.65986
7.63205 4.10601 -1.66286
7.57205 4.10501 -1.65186
8.41105 -0.590986 -1.61486
8.16305 0.00601395 -1.63686
8.17405 0.032014 -1.63886
8.16605 0.057014 -1.63686
8.17005 0.070014 -1.63786
8.16005 0.096014 -1.63586
8.16405 0.121014 -1.63686
8.16105 0.147014 -1.63686
8.16105 0.173014 -1.63686
8.16405 0.198014 -1.63686
8.16005 0.224014 -1.63686
8.15905 0.237014 -1.63686
8.15305 0.262014 -1.63486
8.14805 0.288014 -1.63486
8.15505 0.313014 -1.63586
8.14805 0.339014 -1.63486
8.15705 0.365014 -1.63686
8.16505 0.391014 -1.63886
8.15605 0.416014 -1.63686
8.15305 0.429014 -1.63686
8.15405 0.455014 -1.63686
8.14505 0.480014 -1.63586
8.13705 0.505014 -1.63486
8.14205 0.531014 -1.63586
8.14005 0.556014 -1.63586
8.14505 0.570014 -1.63686
8.14305 0.595014 -1.63686
8.13905 0.621014 -1.63686
8.14905 0.647014 -1.63886
8.14905 0.673014 -1.63986
8.14105 0.698014 -1.63786
8.13705 0.723014 -1.63786
8.13705 0.736014 -1.63786
8.14905 0.763014 -1.64086
8.15005 0.789014 -1.64186
8.14005 0.814014 -1.63986
8.13705 0.840014 -1.63986
8.14005 0.866014 -1.64186
8.13605 0.891014 -1.64086
8.14805 0.919014 -1.64486
8.14505 0.931014 -1.64386
8.14805 0.957014 -1.64486
8.14105 0.983014 -1.64486
8.14205 1.00901 -1.64486
8.13605 1.03401 -1.64486
8.13705 1.06001 -1.64586
8.13405 1.08601 -1.64586
8.13205 1.09801 -1.64586
8.12305 1.12301 -1.64486
8.12705 1.15001 -1.64586
8.12305 1.17501 -1.64586
8.11905 1.22701 -1.64686
8.09805 1.25001 -1.64286
8.11205 1.26501 -1.64686
8.09405 1.41901 -1.64786
8.07805 1.45501 -1.64586
8.08105 1.48201 -1.64786
8.07105 1.53301 -1.64786
8.06805 1.55801 -1.64786
8.06705 1.58501 -1.64886
7.25205 4.06901 -1.66886
7.20805 4.07401 -1.66186
8.03005 -1.26599 -1.62886
8.05205 -1.25599 -1.63386
8.05705 -1.23099 -1.63386
8.06505 -1.20699 -1.63486
8.07305 -1.18199 -1.63586
8.07105 -1.15599 -1.63486
8.07805 -1.13099 -1.63486
8.08405 -1.11899 -1.63586
8.08905 -1.06799 -1.63586
8.08605 -1.01599 -1.63386
8.08905 -0.989986 -1.63386
8.10005 -0.965986 -1.63486
8.11505 -0.953986 -1.63786
8.11205 -0.927986 -1.63686
8.11105 -0.901986 -1.63586
8.11605 -0.876986 -1.63686
8.11605 -0.850986 -1.63586
8.11705 -0.825986 -1.63586
8.13105 -0.800986 -1.63786
8.12705 -0.787986 -1.63686
8.12505 -0.761986 -1.63586
8.12705 -0.736986 -1.63586
8.13605 -0.711986 -1.63686
8.12805 -0.684986 -1.63486
8.13005 -0.659986 -1.63486
8.12605 -0.633986 -1.63386
8.14005 -0.608986 -1.63686
8.13505 -0.595986 -1.63486
8.15105 -0.570986 -1.63786
8.14505 -0.544986 -1.63686
8.15205 -0.519986 -1.63786
8.14605 -0.493986 -1.63586
8.15105 -0.467986 -1.63686
8.15505 -0.442986 -1.63686
8.14905 -0.429986 -1.63586
8.15305 -0.403986 -1.63686
8.15005 -0.377986 -1.63586
8.15105 -0.352986 -1.63586
8.15005 -0.326986 -1.63486
8.15105 -0.301986 -1.63486
8.15805 -0.275986 -1.63686
8.15105 -0.262986 -1.63486
8.17705 -0.237986 -1.63986
8.17205 -0.211986 -1.63886
8.17805 -0.186986 -1.63986
8.17705 -0.160986 -1.63986
8.16905 -0.134986 -1.63786
8.17405 -0.109986 -1.63886
8.16405 -0.096986 -1.63686
8.16205 -0.070986 -1.63686
8.16505 -0.0449861 -1.63686
8.16105 -0.019986 -1.63586
7.85405 0.023014 -1.63486
7.86505 0.048014 -1.63686
7.86705 0.073014 -1.63786
7.85505 0.097014 -1.63486
7.86905 0.122014 -1.63786
7.85705 0.134014 -1.63586
7.85005 0.159014 -1.63386
7.85405 0.184014 -1.63486
7.86105 0.208014 -1.63686
7.86005 0.233014 -1.63686
7.84405 0.257014 -1.63386
7.85505 0.282014 -1.63586
7.86205 0.295014 -1.63786
7.85505 0.320014 -1.63686
7.85005 0.344014 -1.63586
7.85105 0.369014 -1.63586
7.85605 0.394014 -1.63686
7.86605 0.419014 -1.63986
7.85705 0.443014 -1.63786
7.85205 0.468014 -1.63686
7.84905 0.480014 -1.63686
7.84205 0.504014 -1.63586
7.85205 0.530014 -1.63786
7.84605 0.554014 -1.63686
7.84405 0.579014 -1.63686
7.85005 0.604014 -1.63886
7.84005 0.628014 -1.63686
7.85105 0.641014 -1.63986
7.83205 0.664014 -1.63586
7.83705 0.690014 -1.63786
7.84505 0.715014 -1.63986
7.83305 0.739014 -1.63786
7.83805 0.764014 -1.63986
7.84205 0.789014 -1.64086
7.84605 0.802014 -1.64186
7.84405 0.827014 -1.64186
7.84505 0.852014 -1.64286
7.83405 0.876014 -1.64086
7.83905 0.901014 -1.64286
7.84005 0.926014 -1.64386
7.83905 0.951014 -1.64386
7.82205 0.962014 -1.64086
7.81505 0.986014 -1.63986
7.81805 1.01101 -1.64086
7.81305 1.03501 -1.64086
7.81905 1.06101 -1.64286
7.82005 1.08601 -1.64386
7.81805 1.11101 -1.64386
7.81505 1.12301 -1.64386
7.82105 1.14901 -1.64586
7.81305 1.17301 -1.64486
7.81505 1.19801 -1.64686
7.80905 1.22301 -1.64586
7.80405 1.24701 -1.64586
7.80205 1.27201 -1.64586
7.79405 1.28301 -1.64486
7.79905 1.30901 -1.64686
7.80105 1.33501 -1.64786
7.79305 1.35801 -1.64686
7.77105 1.38001 -1.64386
7.76505 1.40401 -1.64286
7.76805 1.43001 -1.64486
7.74105 1.43701 -1.63886
7.77305 1.46801 -1.64686
7.75905 1.49101 -1.64486
7.77305 1.51901 -1.64986
7.75305 1.54101 -1.64586
7.77305 1.57001 -1.65186
7.75305 1.59101 -1.64786
7.75705 1.61701 -1.64986
7.76405 1.63201 -1.65286
7.75505 1.65501 -1.65186
7.76205 1.68201 -1.65386
7.72405 1.69901 -1.64686
7.75105 1.73101 -1.65386
7.74205 1.75401 -1.65386
7.70905 1.77201 -1.64686
7.73705 1.79201 -1.65386
7.72005 1.81301 -1.65186
7.69105 1.83201 -1.64686
7.71605 1.88901 -1.65486
7.70405 1.91201 -1.65386
7.71605 1.92801 -1.65686
7.70105 1.95001 -1.65486
7.68305 1.97101 -1.65186
7.68405 2.02301 -1.65486
7.66005 2.04201 -1.65086
7.67605 2.09801 -1.65786
7.66705 2.10901 -1.65686
7.64705 2.18101 -1.65686
7.62605 2.25301 -1.65686
7.41505 2.98801 -1.66586
7.38805 3.04401 -1.66486
7.38205 3.06901 -1.66586
7.35405 3.13901 -1.66686
7.34005 3.18801 -1.66786
7.32805 3.21001 -1.66686
7.32505 3.22201 -1.66786
7.31305 3.24501 -1.66686
7.30605 3.26901 -1.66786
7.29905 3.29401 -1.66886
7.25605 3.39801 -1.66986
7.25005 3.42301 -1.67086
7.23805 3.44501 -1.67086
7.22705 3.46801 -1.67086
7.21605 3.49101 -1.67086
7.17705 3.57001 -1.67086
6.95905 4.01001 -1.67386
7.71205 -1.33499 -1.62886
7.73705 -1.32699 -1.63386
7.74105 -1.30199 -1.63386
7.75105 -1.27899 -1.63486
7.74505 -1.25299 -1.63286
7.74905 -1.22899 -1.63286
7.74505 -1.20299 -1.63086
7.75305 -1.17899 -1.63186
7.76805 -1.16899 -1.63486
7.77005 -1.14499 -1.63486
7.76205 -1.11899 -1.63186
7.78305 -1.09699 -1.63586
7.79005 -1.07299 -1.63686
7.78605 -1.04699 -1.63486
7.78905 -1.02299 -1.63486
7.80205 -0.999986 -1.63686
7.79605 -0.985986 -1.63586
7.79705 -0.961986 -1.63486
7.81105 -0.937986 -1.63786
7.80505 -0.912986 -1.63586
7.81305 -0.888986 -1.63686
7.80205 -0.862986 -1.63386
7.81305 -0.838986 -1.63586
7.81205 -0.826986 -1.63486
7.81505 -0.801986 -1.63486
7.82105 -0.777986 -1.63586
7.82205 -0.752986 -1.63586
7.80605 -0.726986 -1.63186
7.82005 -0.703986 -1.63386
7.82405 -0.678986 -1.63486
7.82005 -0.665986 -1.63386
7.82405 -0.641986 -1.63386
7.83105 -0.617986 -1.63486
7.83105 -0.592986 -1.63486
7.83305 -0.567986 -1.63486
7.85305 -0.544986 -1.63886
7.84205 -0.519986 -1.63586
7.83605 -0.506986 -1.63386
7.83705 -0.481986 -1.63386
7.83905 -0.457986 -1.63386
7.83605 -0.432986 -1.63386
7.85105 -0.408986 -1.63686
7.86005 -0.384986 -1.63786
7.85005 -0.358986 -1.63586
7.85005 -0.346986 -1.63586
7.85305 -0.321986 -1.63586
7.85005 -0.297986 -1.63486
7.86505 -0.272986 -1.63786
7.85205 -0.247986 -1.63486
7.84905 -0.222986 -1.63386
7.86305 -0.198986 -1.63686
7.85605 -0.186986 -1.63586
7.86005 -0.161986 -1.63686
7.87405 -0.137986 -1.63986
7.85705 -0.112986 -1.63586
7.86105 -0.087986 -1.63686
7.87105 -0.062986 -1.63886
7.86005 -0.037986 -1.63586
7.86705 -0.013986 -1.63786
7.86205 -0.000986049 -1.63686
7.56105 0.012014 -1.63586
7.56105 0.035014 -1.63586
7.56505 0.059014 -1.63686
7.56305 0.083014 -1.63686
7.55305 0.107014 -1.63486
7.55605 0.130014 -1.63486
7.56205 0.142014 -1.63686
7.57105 0.166014 -1.63886
7.54705 0.190014 -1.63386
7.56605 0.214014 -1.63786
7.54605 0.237014 -1.63386
7.55305 0.261014 -1.63486
7.56905 0.285014 -1.63986
7.55905 0.297014 -1.63686
7.55005 0.320014 -1.63486
7.55905 0.344014 -1.63786
7.55205 0.368014 -1.63586
7.54505 0.391014 -1.63486
7.55005 0.415014 -1.63586
7.55005 0.439014 -1.63686
7.55005 0.451014 -1.63686
7.55605 0.475014 -1.63886
7.54105 0.498014 -1.63486
7.55105 0.523014 -1.63786
7.55905 0.547014 -1.63986
7.54905 0.570014 -1.63886
7.53605 0.593014 -1.63586
7.55205 0.606014 -1.63986
7.53905 0.653014 -1.63786
7.54205 0.677014 -1.63886
7.54405 0.701014 -1.63986
7.53205 0.724014 -1.63786
7.54205 0.749014 -1.63986
7.54605 0.761014 -1.64186
7.52605 0.783014 -1.63786
7.54305 0.809014 -1.64186
7.52905 0.831014 -1.63986
7.53805 0.856014 -1.64186
7.52905 0.879014 -1.64086
7.53805 0.904014 -1.64386
7.52105 0.914014 -1.63986
7.53205 0.939014 -1.64286
7.52105 0.962014 -1.64086
7.51605 0.985014 -1.64086
7.51905 1.01001 -1.64186
7.51405 1.03301 -1.64186
7.51405 1.05701 -1.64286
7.50305 1.08001 -1.64086
7.51905 1.09401 -1.64486
7.50605 1.11601 -1.64286
7.50805 1.14101 -1.64386
7.50205 1.16401 -1.64386
7.49905 1.18801 -1.64386
7.50305 1.21201 -1.64486
7.49105 1.23501 -1.64386
7.49305 1.24701 -1.64486
7.49505 1.27201 -1.64586
7.48705 1.29501 -1.64486
7.47905 1.31701 -1.64386
7.48305 1.34201 -1.64586
7.47105 1.36401 -1.64386
7.46705 1.37601 -1.64386
7.47205 1.40101 -1.64586
7.47305 1.42601 -1.64686
7.46105 1.44801 -1.64486
7.46605 1.47301 -1.64786
7.45905 1.49601 -1.64686
7.47205 1.52301 -1.65086
7.46905 1.54701 -1.65186
7.45105 1.55501 -1.64786
7.45405 1.58001 -1.64986
7.45505 1.60501 -1.65086
7.44605 1.62801 -1.64986
7.42705 1.64801 -1.64686
7.45205 1.67801 -1.65386
7.43405 1.69901 -1.65086
7.42705 1.70901 -1.64986
7.44105 1.73701 -1.65486
7.42405 1.75801 -1.65186
7.42805 1.78301 -1.65386
7.42005 1.80601 -1.65386
7.40105 1.82601 -1.65086
7.39205 1.84901 -1.64986
7.41505 1.86701 -1.65586
7.38305 1.88301 -1.64986
7.39205 1.91001 -1.65386
7.39705 1.93701 -1.65586
7.38905 1.95901 -1.65586
7.38705 1.98401 -1.65686
7.40105 2.01301 -1.66186
7.37805 2.01801 -1.65686
7.37305 2.04201 -1.65686
7.37005 2.06601 -1.65786
7.35805 2.08801 -1.65686
7.35505 2.11201 -1.65786
7.36405 2.14001 -1.66086
7.34805 2.16001 -1.65886
7.32605 2.16601 -1.65386
7.32305 2.21501 -1.65686
7.33605 2.24501 -1.66186
7.33905 2.27101 -1.66386
7.32205 2.29101 -1.66186
7.31505 2.31401 -1.66186
7.31105 2.32501 -1.66186
7.30405 2.34801 -1.66186
7.30405 2.37301 -1.66386
7.30605 2.39901 -1.66586
7.28705 2.41901 -1.66286
7.28105 2.48001 -1.66686
7.23505 2.61801 -1.66686
7.21605 2.67501 -1.66786
7.20305 2.69601 -1.66686
7.19505 2.71901 -1.66686
7.17905 2.73901 -1.66486
7.17205 2.76201 -1.66486
7.18005 2.79101 -1.66886
7.15205 2.79301 -1.66286
7.14705 2.81701 -1.66386
7.13605 2.83901 -1.66386
7.10905 2.85401 -1.65886
7.10705 2.87901 -1.66086
7.09805 2.90101 -1.66086
7.09105 2.92401 -1.66186
7.08305 2.93401 -1.66086
7.07005 2.95501 -1.65986
7.07805 2.98401 -1.66386
7.05805 3.00201 -1.66186
7.04305 3.02201 -1.65986
7.03405 3.04401 -1.65986
7.03405 3.05701 -1.66186
7.02805 3.08101 -1.66286
7.01305 3.10101 -1.66086
7.00205 3.12201 -1.66086
6.99405 3.14501 -1.66086
6.98905 3.16901 -1.66286
6.97205 3.18801 -1.66086
6.97205 3.20101 -1.66186
6.94805 3.21701 -1.65786
6.94705 3.24301 -1.66086
6.94505 3.26801 -1.66286
6.93305 3.28901 -1.66286
6.91405 3.30701 -1.65986
6.91105 3.33201 -1.66186
6.90405 3.35601 -1.66286
6.89105 3.36301 -1.66086
6.89305 3.39101 -1.66386
6.87005 3.40601 -1.66086
6.87005 3.43301 -1.66386
6.85905 3.45501 -1.66386
6.85205 3.47801 -1.66486
6.83605 3.49701 -1.66286
6.83205 3.50801 -1.66386
6.82405 3.53201 -1.66486
6.83205 3.56301 -1.66986
6.81405 3.58101 -1.66786
6.79605 3.59801 -1.66586
6.79505 3.62501 -1.66886
6.77805 3.64401 -1.66786
6.78305 3.66001 -1.66986
6.76905 3.68001 -1.66986
6.77505 3.71101 -1.67386
6.77505 3.73901 -1.67686
6.76805 3.76301 -1.67886
6.76005 3.78601 -1.67986
6.74305 3.80501 -1.67786
6.74405 3.81901 -1.67986
6.71505 3.83101 -1.67586
6.71305 3.85701 -1.67786
6.70105 3.87901 -1.67786
6.67805 3.89401 -1.67586
6.66405 3.91401 -1.67486
6.64405 3.93001 -1.67286
7.44505 -1.37199 -1.63886
7.46905 -1.35199 -1.64286
7.48305 -1.32999 -1.64486
7.48505 -1.30599 -1.64486
7.47405 -1.27999 -1.64086
7.48305 -1.26999 -1.64286
7.47405 -1.24399 -1.63986
7.46405 -1.21799 -1.63686
7.47805 -1.19699 -1.63886
7.48305 -1.17299 -1.63986
7.47505 -1.14799 -1.63686
7.48105 -1.12499 -1.63686
7.49405 -1.11499 -1.63986
7.48805 -1.08999 -1.63786
7.47805 -1.06399 -1.63486
7.48905 -1.04199 -1.63586
7.48605 -1.01799 -1.63486
7.48405 -0.992986 -1.63386
7.50805 -0.972986 -1.63886
7.49605 -0.958986 -1.63486
7.50905 -0.936986 -1.63786
7.51505 -0.913986 -1.63886
7.50905 -0.888986 -1.63586
7.50805 -0.864986 -1.63486
7.51005 -0.840986 -1.63486
7.50105 -0.815986 -1.63286
7.50605 -0.804986 -1.63386
7.50505 -0.780986 -1.63286
7.50305 -0.756986 -1.63186
7.51005 -0.733986 -1.63286
7.52605 -0.711986 -1.63586
7.52005 -0.686986 -1.63386
7.53605 -0.664986 -1.63686
7.52705 -0.651986 -1.63486
7.53305 -0.604986 -1.63486
7.54105 -0.581986 -1.63686
7.53305 -0.556986 -1.63486
7.52905 -0.532986 -1.63286
7.54005 -0.509986 -1.63486
7.54505 -0.486986 -1.63586
7.53605 -0.473986 -1.63386
7.54605 -0.450986 -1.63586
7.54305 -0.426986 -1.63486
7.55005 -0.403986 -1.63586
7.55705 -0.379986 -1.63786
7.55705 -0.356986 -1.63686
7.55905 -0.344986 -1.63786
7.55405 -0.320986 -1.63586
7.55105 -0.296986 -1.63486
7.56005 -0.272986 -1.63686
7.56305 -0.249986 -1.63786
7.55005 -0.225986 -1.63486
7.56605 -0.201986 -1.63786
7.56105 -0.189986 -1.63686
7.56105 -0.165986 -1.63686
7.54805 -0.142986 -1.63386
7.55605 -0.118986 -1.63486
7.56805 -0.094986 -1.63786
7.56505 -0.070986 -1.63686
7.56305 -0.047986 -1.63686
7.55305 -0.023986 -1.63486
7.57905 -0.011986 -1.63986
7.34205 0.016014 -1.64586
7.35205 0.039014 -1.64786
7.34205 0.050014 -1.64586
7.35105 0.073014 -1.64786
7.35905 0.096014 -1.64986
7.34705 0.119014 -1.64686
7.36805 0.143014 -1.65286
7.35405 0.166014 -1.64886
7.34705 0.189014 -1.64786
7.35105 0.200014 -1.64886
7.34105 0.223014 -1.64586
7.35705 0.247014 -1.65086
7.34905 0.270014 -1.64886
7.35005 0.293014 -1.64886
7.34105 0.316014 -1.64686
7.35405 0.339014 -1.65086
7.33605 0.350014 -1.64586
7.34605 0.374014 -1.64886
7.35705 0.397014 -1.65186
7.34805 0.420014 -1.64986
7.35605 0.444014 -1.65286
7.34705 0.466014 -1.65086
7.35705 0.490014 -1.65286
7.34305 0.501014 -1.64986
7.36405 0.525014 -1.65586
7.33905 0.547014 -1.64986
7.34105 0.570014 -1.65086
7.34205 0.593014 -1.65186
7.34905 0.617014 -1.65386
7.32605 0.638014 -1.64886
7.35105 0.664014 -1.65486
7.33105 0.674014 -1.65086
7.34405 0.698014 -1.65386
7.34205 0.721014 -1.65386
7.34305 0.745014 -1.65486
7.33105 0.767014 -1.65286
7.35405 0.792014 -1.65886
7.33005 0.813014 -1.65386
7.33605 0.849014 -1.65586
7.34305 0.873014 -1.65886
7.33705 0.919014 -1.65886
7.32905 0.941014 -1.65686
7.32705 0.953014 -1.65686
7.33805 0.978014 -1.65986
7.32105 0.999014 -1.65686
7.31805 1.02201 -1.65686
7.32805 1.04701 -1.65986
7.31105 1.06801 -1.65686
7.30805 1.09101 -1.65686
7.30405 1.11401 -1.65686
7.30305 1.12501 -1.65686
7.28605 1.14601 -1.65386
7.31105 1.17401 -1.66086
7.29705 1.19501 -1.65886
7.29405 1.21801 -1.65886
7.29605 1.24201 -1.65986
7.30105 1.26601 -1.66186
7.29305 1.27701 -1.66086
7.29505 1.30101 -1.66186
7.28705 1.32301 -1.66086
7.27705 1.34501 -1.65986
7.27605 1.39201 -1.66186
7.27405 1.41501 -1.66186
7.19305 1.83901 -1.66586
6.86305 2.93601 -1.67486
6.83905 3.00201 -1.67586
6.82005 3.01901 -1.67386
6.81305 3.04101 -1.67386
6.81005 3.05301 -1.67486
6.80505 3.07701 -1.67586
6.77805 3.09001 -1.67186
6.78205 3.11801 -1.67486
6.77805 3.14201 -1.67686
6.75405 3.15601 -1.67286
6.74205 3.17701 -1.67286
6.75305 3.19501 -1.67686
6.72205 3.20601 -1.67086
6.71005 3.22601 -1.67086
6.71905 3.25601 -1.67586
6.69805 3.27201 -1.67286
6.69105 3.29501 -1.67386
6.68305 3.31701 -1.67386
6.66905 3.32301 -1.67186
6.66205 3.34601 -1.67286
6.67605 3.37901 -1.67986
6.64405 3.38901 -1.67386
6.64205 3.41501 -1.67586
6.63505 3.43701 -1.67686
6.62405 3.45801 -1.67686
6.61905 3.46901 -1.67686
6.62705 3.49901 -1.68186
6.60905 3.51601 -1.68086
6.59605 3.53601 -1.67986
6.59705 3.56301 -1.68286
6.43205 3.87601 -1.68586
6.40605 3.88801 -1.68186
6.37305 3.88201 -1.67486
7.16505 -1.43299 -1.63786
7.20605 -1.41799 -1.64586
7.23905 -1.40099 -1.65286
7.24105 -1.37699 -1.65286
7.24805 -1.35499 -1.65286
7.24605 -1.33099 -1.65186
7.24405 -1.31899 -1.65086
7.25005 -1.29699 -1.65186
7.24905 -1.27299 -1.64986
7.25505 -1.24999 -1.65086
7.26205 -1.22799 -1.65186
7.26805 -1.20599 -1.65186
7.24905 -1.17899 -1.64586
7.26005 -1.16899 -1.64886
7.25605 -1.14499 -1.64686
7.27305 -1.12499 -1.64986
7.26305 -1.09999 -1.64686
7.27605 -1.07799 -1.64886
7.27005 -1.05399 -1.64686
7.27105 -1.03099 -1.64586
7.29005 -1.02199 -1.65086
7.27405 -0.995986 -1.64586
7.25805 -0.970986 -1.64086
7.29205 -0.951986 -1.64886
7.27705 -0.926986 -1.64486
7.27105 -0.902986 -1.64186
7.29905 -0.882986 -1.64786
7.27805 -0.856986 -1.64286
7.27405 -0.844986 -1.64086
7.30105 -0.824986 -1.64686
7.28905 -0.800986 -1.64386
7.28905 -0.776986 -1.64286
7.30705 -0.755986 -1.64686
7.30005 -0.731986 -1.64486
7.29105 -0.719986 -1.64186
7.30705 -0.697986 -1.64586
7.29205 -0.673986 -1.64086
7.31505 -0.652986 -1.64586
7.33105 -0.630986 -1.64986
7.31905 -0.606986 -1.64586
7.31705 -0.582986 -1.64586
7.32205 -0.571986 -1.64586
7.32905 -0.549986 -1.64786
7.31205 -0.524986 -1.64286
7.33705 -0.503986 -1.64886
7.32405 -0.479986 -1.64586
7.31805 -0.455986 -1.64386
7.34505 -0.434986 -1.64986
7.33105 -0.410986 -1.64586
7.33505 -0.399986 -1.64686
7.35405 -0.377986 -1.65086
7.33405 -0.352986 -1.64586
7.32905 -0.329986 -1.64486
7.35105 -0.307986 -1.64986
7.33905 -0.283986 -1.64586
7.35105 -0.261986 -1.64886
7.34005 -0.249986 -1.64586
7.34105 -0.226986 -1.64586
7.35505 -0.203986 -1.64986
7.35505 -0.180986 -1.64986
7.35605 -0.157986 -1.64986
7.34705 -0.134986 -1.64686
7.34705 -0.110986 -1.64686
7.35105 -0.099986 -1.64786
7.34805 -0.076986 -1.64686
7.35905 -0.0539861 -1.64986
7.35805 -0.030986 -1.64986
7.34205 -0.00798605 -1.64586
6.98405 0.926014 -1.64886
6.97505 0.992014 -1.64886
6.95605 1.21301 -1.65186
6.94005 1.23301 -1.64986
6.94805 1.27901 -1.65286
6.95305 1.32501 -1.65686
6.91405 1.37401 -1.64986
6.93205 1.42301 -1.65586
6.90205 1.44001 -1.64986
6.93605 1.45801 -1.65886
6.90105 1.47301 -1.65186
6.91905 1.50001 -1.65686
6.89005 1.51601 -1.65086
6.92305 1.54601 -1.66086
6.92405 1.59301 -1.66386
6.89705 1.59801 -1.65686
6.89005 1.61901 -1.65686
6.89105 1.64201 -1.65786
6.89105 1.66501 -1.65986
6.88405 1.68601 -1.65886
6.89805 1.71201 -1.66386
6.87705 1.73001 -1.65986
6.86105 1.74901 -1.65686
6.86505 1.76201 -1.65886
6.87505 1.78701 -1.66286
6.86005 1.80601 -1.66086
6.86705 1.83101 -1.66386
6.86105 1.85301 -1.66386
6.84105 1.87001 -1.65986
6.84205 1.89401 -1.66186
6.83005 1.90201 -1.65986
6.84805 1.93001 -1.66586
6.82905 1.94801 -1.66286
6.83405 1.97301 -1.66586
6.82005 1.99201 -1.66386
6.81005 2.01201 -1.66286
6.81705 2.03801 -1.66586
6.80805 2.04701 -1.66486
6.80705 2.07001 -1.66586
6.79305 2.08901 -1.66386
6.76805 2.10401 -1.65886
6.76505 2.12701 -1.65986
6.76405 2.15001 -1.66186
6.79005 2.18201 -1.66986
6.78005 2.19001 -1.66886
6.77305 2.21101 -1.66886
6.74205 2.22501 -1.66186
6.72905 2.24401 -1.66086
6.73505 2.27001 -1.66386
6.75405 2.30001 -1.67086
6.70605 2.30701 -1.65986
6.71305 2.34501 -1.66486
6.70805 2.36701 -1.66586
6.70905 2.39101 -1.66786
6.69505 2.40901 -1.66586
6.70305 2.43601 -1.66986
6.70105 2.45901 -1.67186
6.68505 2.46501 -1.66886
6.68805 2.49001 -1.67086
6.66705 2.50601 -1.66786
6.65705 2.52701 -1.66786
6.65305 2.54901 -1.66886
6.65205 2.57301 -1.66986
6.62105 2.58401 -1.66386
6.61805 2.59501 -1.66486
6.60505 2.61401 -1.66286
6.59305 2.63301 -1.66186
6.58505 2.65401 -1.66186
6.58505 2.67801 -1.66486
6.56405 2.69401 -1.66086
6.55905 2.71601 -1.66186
6.55105 2.73701 -1.66186
6.54705 2.74701 -1.66186
6.51905 2.80801 -1.66186
6.15205 3.62401 -1.67186
6.14705 3.64801 -1.67386
6.88805 -1.46099 -1.64786
6.87505 -1.44799 -1.64386
6.88005 -1.42599 -1.64386
6.89505 -1.40699 -1.64686
6.89205 -1.38299 -1.64486
6.89505 -1.33899 -1.64286
6.89605 -1.29399 -1.64086
6.90505 -1.28499 -1.64286
6.93205 -1.15499 -1.64386
6.73305 0.776014 -1.65086
6.68505 1.17801 -1.65386
6.67905 1.18701 -1.65286
6.65905 1.31401 -1.65386
6.65505 1.34601 -1.65386
6.65205 1.36701 -1.65486
6.65405 1.38901 -1.65586
6.64405 1.40901 -1.65486
6.64505 1.43101 -1.65586
6.63405 1.47201 -1.65586
6.63205 1.48201 -1.65586
6.63805 1.50601 -1.65886
6.62705 1.54701 -1.65786
6.61505 1.58801 -1.65786
6.60605 1.60801 -1.65686
6.61705 1.62201 -1.65986
6.61205 1.66401 -1.66186
6.59805 1.68301 -1.65886
6.59605 1.70501 -1.65986
6.60005 1.72801 -1.66286
6.58305 1.74501 -1.65986
6.59705 1.76001 -1.66386
6.58105 1.77801 -1.66086
6.57705 1.79901 -1.66186
6.57105 1.82001 -1.66186
6.57505 1.84301 -1.66386
6.55005 1.85801 -1.65886
6.55605 1.88201 -1.66186
6.55605 1.89401 -1.66286
6.55005 1.91401 -1.66286
6.52905 1.93001 -1.65886
6.54205 1.95601 -1.66386
6.53805 1.97701 -1.66486
6.53105 1.99801 -1.66486
6.53605 2.02201 -1.66786
6.52905 2.03101 -1.66686
6.54305 2.05801 -1.67286
6.51605 2.07201 -1.66686
6.50805 2.09201 -1.66586
6.50305 2.11301 -1.66686
6.51905 2.14001 -1.67286
6.49205 2.15401 -1.66686
6.49005 2.16501 -1.66786
6.50005 2.19101 -1.67286
6.49105 2.21101 -1.67186
6.49905 2.23601 -1.67586
6.47905 2.25201 -1.67286
6.47505 2.27401 -1.67386
6.46605 2.29301 -1.67286
6.48105 2.32201 -1.67886
6.46305 2.32601 -1.67486
6.47705 2.35501 -1.68086
6.46105 2.37201 -1.67886
6.45005 2.39101 -1.67786
6.42905 2.45201 -1.67786
6.43805 2.46701 -1.68186
6.42605 2.48601 -1.68086
6.40905 2.50201 -1.67786
6.39805 2.52101 -1.67686
6.39205 2.54201 -1.67786
6.36005 2.55301 -1.67086
6.36305 2.56601 -1.67286
6.35905 2.58701 -1.67386
6.32905 2.59801 -1.66786
6.32105 2.61801 -1.66786
6.31105 2.63701 -1.66686
6.30605 2.65801 -1.66786
6.30105 2.68001 -1.66986
6.27305 2.72601 -1.66686
5.88005 3.56501 -1.67686
5.85905 3.61501 -1.67886
6.60005 -1.45299 -1.64586
6.51205 0.00701395 -1.65386
6.51805 0.027014 -1.65586
6.52605 0.048014 -1.65786
6.52505 0.0580139 -1.65786
6.51805 0.078014 -1.65586
6.53105 0.099014 -1.65986
6.52505 0.120014 -1.65786
6.52405 0.140014 -1.65786
6.51805 0.160014 -1.65686
6.52105 0.181014 -1.65786
6.52505 0.191014 -1.65886
6.54205 0.212014 -1.66286
6.52005 0.232014 -1.65786
6.53405 0.253014 -1.66186
6.52805 0.274014 -1.65986
6.52505 0.294014 -1.65986
6.52205 0.314014 -1.65886
6.52005 0.325014 -1.65886
6.52205 0.345014 -1.65986
6.51705 0.365014 -1.65886
6.52405 0.386014 -1.66086
6.53205 0.408014 -1.66286
6.51905 0.427014 -1.65986
6.52205 0.448014 -1.66086
6.51505 0.468014 -1.65986
6.51805 0.479014 -1.66086
6.51205 0.499014 -1.65986
6.51105 0.519014 -1.65986
6.53005 0.542014 -1.66486
6.51305 0.561014 -1.66086
6.51005 0.581014 -1.66086
6.50905 0.591014 -1.66086
6.51605 0.613014 -1.66286
6.52205 0.634014 -1.66486
6.51405 0.654014 -1.66386
6.51605 0.675014 -1.66486
6.52005 0.696014 -1.66586
6.50405 0.715014 -1.66286
6.51105 0.726014 -1.66486
6.50605 0.746014 -1.66386
6.50405 0.766014 -1.66386
6.50705 0.788014 -1.66586
6.50705 0.808014 -1.66586
6.50605 0.829014 -1.66686
6.50505 0.850014 -1.66786
6.50105 0.870014 -1.66686
6.49505 0.879014 -1.66586
6.50205 0.901014 -1.66886
6.49205 0.921014 -1.66586
6.49305 0.941014 -1.66786
6.49005 0.962014 -1.66786
6.48805 0.983014 -1.66786
6.48505 1.00301 -1.66786
6.47405 1.01201 -1.66486
6.47105 1.03201 -1.66486
6.47205 1.05301 -1.66586
6.47405 1.07401 -1.66786
6.47405 1.09501 -1.66886
6.47505 1.11601 -1.66986
6.46705 1.13601 -1.66886
6.45205 1.14401 -1.66486
6.45205 1.16501 -1.66586
6.45205 1.18601 -1.66786
6.44105 1.20401 -1.66486
6.44705 1.22601 -1.66786
6.43905 1.24601 -1.66686
6.44805 1.26901 -1.67086
6.44805 1.27901 -1.67086
6.43905 1.29801 -1.66986
6.42705 1.31701 -1.66786
6.43405 1.34001 -1.67086
6.43005 1.36001 -1.67086
6.42005 1.37901 -1.66886
6.41905 1.40001 -1.66986
6.41705 1.41001 -1.66986
6.42405 1.43301 -1.67286
6.41005 1.45101 -1.67086
6.41705 1.47301 -1.67386
6.40305 1.49101 -1.67086
6.39805 1.51101 -1.67086
6.39705 1.53201 -1.67186
6.39405 1.54201 -1.67186
6.38405 1.56101 -1.67086
6.38705 1.58301 -1.67286
6.39105 1.60501 -1.67486
6.38805 1.62601 -1.67586
6.38405 1.64701 -1.67586
6.36805 1.66401 -1.67286
6.36905 1.67501 -1.67386
6.36805 1.69601 -1.67486
6.35305 1.71301 -1.67286
6.35705 1.73601 -1.67486
6.35505 1.75701 -1.67586
6.35305 1.77801 -1.67686
6.34605 1.79701 -1.67686
6.34905 1.82001 -1.67986
6.33005 1.82501 -1.67486
6.34105 1.85001 -1.67986
6.33505 1.87001 -1.67986
6.32705 1.88901 -1.67886
6.31605 1.90701 -1.67686
6.31505 1.92901 -1.67886
6.30905 1.94801 -1.67886
6.31105 1.96001 -1.68086
6.30305 1.97901 -1.67986
6.30105 2.00001 -1.68086
6.28505 2.01701 -1.67886
6.27905 2.03701 -1.67886
6.27805 2.05801 -1.67986
6.27605 2.09001 -1.68186
6.26905 2.11001 -1.68186
6.26305 2.15201 -1.68386
6.25105 2.17001 -1.68286
6.23805 2.18701 -1.68086
6.23505 2.21901 -1.68286
6.13105 2.51401 -1.68486
6.12105 2.53201 -1.68486
6.11705 2.55301 -1.68586
6.10005 2.56801 -1.68286
6.10205 2.59201 -1.68586
6.08905 2.59801 -1.68386
6.07905 2.61601 -1.68286
6.05705 2.62901 -1.67886
6.04505 2.64601 -1.67786
6.04705 2.67001 -1.68086
6.05505 2.69601 -1.68586
6.01805 2.70201 -1.67686
6.02105 2.71501 -1.67986
6.01405 2.73501 -1.67986
5.99705 2.75001 -1.67686
5.99305 2.77101 -1.67886
5.98105 2.78801 -1.67786
5.96005 2.80101 -1.67386
5.95805 2.82301 -1.67586
5.96105 2.83601 -1.67886
5.94805 2.85301 -1.67686
5.93305 2.86801 -1.67486
5.94105 2.89501 -1.68086
5.92305 2.91001 -1.67786
5.90705 2.92501 -1.67586
5.90305 2.94601 -1.67686
5.90705 2.96001 -1.67986
5.88605 2.97201 -1.67586
5.87805 2.99101 -1.67686
5.87905 3.01501 -1.67986
5.86105 3.02901 -1.67686
5.85105 3.04701 -1.67686
5.84805 3.06901 -1.67986
5.83405 3.08501 -1.67786
5.83605 3.09801 -1.67986
5.81905 3.11301 -1.67786
5.82905 3.14201 -1.68386
5.80405 3.15201 -1.67986
5.79405 3.17001 -1.67986
5.79105 3.19201 -1.68186
5.78805 3.21401 -1.68386
5.77805 3.22001 -1.68186
5.76405 3.23601 -1.68086
5.76205 3.25901 -1.68386
5.75205 3.27701 -1.68386
5.74405 3.29601 -1.68386
5.73305 3.31401 -1.68386
5.72605 3.33401 -1.68486
5.71205 3.33801 -1.68286
5.71005 3.36101 -1.68486
5.71105 3.38601 -1.68886
5.69605 3.40101 -1.68686
5.68005 3.41601 -1.68586
5.68205 3.44201 -1.68986
5.66905 3.44601 -1.68686
5.65005 3.45801 -1.68486
5.65005 3.48301 -1.68786
5.63905 3.50101 -1.68786
5.62205 3.51501 -1.68586
5.62705 3.54301 -1.69186
5.60305 3.55201 -1.68686
5.59905 3.56201 -1.68786
5.57805 3.57301 -1.68486
5.57105 3.59401 -1.68586
5.54905 3.60401 -1.68286
5.54205 3.62401 -1.68386
5.52905 3.64101 -1.68386
5.51105 3.67901 -1.68486
6.33405 -1.57699 -1.65886
6.33405 -1.55599 -1.65686
6.35905 -1.55099 -1.66286
6.35405 -1.52899 -1.66086
6.36405 -1.50999 -1.66186
6.37105 -1.49099 -1.66286
6.37805 -1.47099 -1.66286
6.37105 -1.44899 -1.65986
6.37705 -1.42899 -1.66086
6.36605 -1.41599 -1.65686
6.37805 -1.39799 -1.65886
6.39805 -1.38099 -1.66286
6.39105 -1.35799 -1.65986
6.40605 -1.34099 -1.66286
6.41005 -1.31999 -1.66286
6.40305 -1.29799 -1.65986
6.42205 -1.29099 -1.66486
6.41505 -1.26899 -1.66186
6.40805 -1.24699 -1.65886
6.41505 -1.22699 -1.65986
6.41905 -1.20699 -1.65986
6.42305 -1.18699 -1.65986
6.43205 -1.16799 -1.66086
6.43005 -1.15699 -1.65986
6.44505 -1.13899 -1.66286
6.42205 -1.11399 -1.65586
6.44305 -1.09699 -1.66086
6.43305 -1.07399 -1.65686
6.43405 -1.05399 -1.65686
6.43905 -1.03399 -1.65686
6.45605 -1.01599 -1.66086
6.45205 -1.00499 -1.65886
6.45105 -0.983986 -1.65786
6.44905 -0.962986 -1.65686
6.45505 -0.942986 -1.65786
6.46405 -0.922986 -1.65886
6.45305 -0.900986 -1.65486
6.47205 -0.882986 -1.65986
6.46105 -0.870986 -1.65686
6.47005 -0.851986 -1.65786
6.46905 -0.830986 -1.65686
6.46705 -0.809986 -1.65586
6.47805 -0.790986 -1.65786
6.47805 -0.769986 -1.65786
6.47905 -0.759986 -1.65786
6.49305 -0.740986 -1.66086
6.48205 -0.718986 -1.65686
6.49205 -0.699986 -1.65886
6.49605 -0.678986 -1.65986
6.47705 -0.656986 -1.65386
6.48305 -0.636986 -1.65486
6.48805 -0.626986 -1.65586
6.48605 -0.605986 -1.65486
6.50105 -0.586986 -1.65886
6.48805 -0.564986 -1.65386
6.49905 -0.545986 -1.65686
6.50105 -0.524986 -1.65686
6.50405 -0.504986 -1.65786
6.50105 -0.494986 -1.65686
6.50805 -0.474986 -1.65786
6.49605 -0.452986 -1.65386
6.50405 -0.432986 -1.65586
6.50705 -0.412986 -1.65686
6.51005 -0.392986 -1.65686
6.50905 -0.371986 -1.65686
6.51205 -0.351986 -1.65686
6.50705 -0.340986 -1.65486
6.51005 -0.320986 -1.65586
6.51705 -0.300986 -1.65786
6.50805 -0.279986 -1.65486
6.51505 -0.258986 -1.65686
6.51605 -0.238986 -1.65686
6.51605 -0.218986 -1.65686
6.50305 -0.207986 -1.65286
6.52105 -0.187986 -1.65786
6.52405 -0.166986 -1.65786
6.52205 -0.146986 -1.65786
6.52305 -0.125986 -1.65786
6.52105 -0.105986 -1.65686
6.52305 -0.084986 -1.65786
6.51605 -0.074986 -1.65486
6.52205 -0.054986 -1.65686
6.52605 -0.0339861 -1.65786
6.52005 -0.013986 -1.65686
6.07005 1.87601 -1.66686
6.06605 1.89601 -1.66786
6.03705 2.02301 -1.67086
6.02305 2.04001 -1.66886
6.01505 2.06901 -1.66986
6.00905 2.08701 -1.66986
6.00205 2.10601 -1.66986
6.00705 2.12901 -1.67286
6.00705 2.15001 -1.67486
5.98905 2.16501 -1.67186
6.00305 2.19101 -1.67786
5.99205 2.19801 -1.67586
5.99605 2.22101 -1.67886
5.98205 2.23701 -1.67686
5.97305 2.25501 -1.67586
5.96905 2.27501 -1.67686
5.96605 2.29501 -1.67786
5.97305 2.32001 -1.68286
5.94905 2.32101 -1.67686
5.95305 2.34401 -1.67986
5.94405 2.36201 -1.67886
5.92905 2.37801 -1.67686
5.91805 2.39501 -1.67586
5.91605 2.41601 -1.67786
5.89905 2.43101 -1.67486
5.88205 2.45701 -1.67286
6.06105 0.854014 -1.66286
6.06605 0.893014 -1.66586
6.02705 1.14101 -1.66586
6.01705 1.15901 -1.66486
6.01405 1.17701 -1.66486
6.01205 1.21601 -1.66586
6.01005 1.22601 -1.66586
6.00805 1.24501 -1.66686
6.00605 1.28401 -1.66886
5.99405 1.32101 -1.66786
5.98805 1.38901 -1.66986
5.97205 1.42501 -1.66786
5.95405 1.49001 -1.66786
5.96405 1.51201 -1.67186
5.95505 1.55001 -1.67186
5.93905 1.56601 -1.66886
5.93705 1.58501 -1.66986
5.93005 1.61301 -1.66986
5.92805 1.63301 -1.67086
5.91605 1.64901 -1.66886
5.92205 1.69101 -1.67386
5.91505 1.73001 -1.67486
5.91605 1.74001 -1.67586
5.89205 1.75301 -1.66986
5.88605 1.77101 -1.66986
5.89405 1.79401 -1.67386
5.88305 1.81101 -1.67286
5.87305 1.84801 -1.67286
5.85905 1.87401 -1.67086
5.87505 1.90001 -1.67786
5.86105 1.93601 -1.67786
5.84005 1.94901 -1.67286
5.83605 1.96801 -1.67386
5.83405 1.97801 -1.67386
5.83905 2.00001 -1.67786
5.82605 2.03701 -1.67786
5.82405 2.05701 -1.67886
5.81205 2.07301 -1.67686
5.80205 2.09001 -1.67586
5.81305 2.10401 -1.67986
5.79305 2.11801 -1.67586
5.79005 2.13701 -1.67786
5.79805 2.16101 -1.68186
5.78405 2.17601 -1.67986
5.77405 2.19301 -1.67886
5.77005 2.21301 -1.67986
5.76705 2.23201 -1.68086
5.76105 2.24101 -1.67986
5.78105 2.26901 -1.68886
5.75105 2.27801 -1.68086
5.74405 2.29601 -1.68086
5.74505 2.31801 -1.68386
5.72605 2.33101 -1.67986
5.70605 2.34401 -1.67586
5.71305 2.35701 -1.67986
5.70205 2.37301 -1.67886
5.69305 2.39101 -1.67786
5.68905 2.41001 -1.67886
5.67405 2.42501 -1.67686
5.66605 2.44301 -1.67686
5.63105 2.52201 -1.67686
5.88105 -1.63799 -1.65786
5.89905 -1.62299 -1.66186
5.89905 -1.60299 -1.65986
5.90905 -1.58599 -1.66186
5.90105 -1.56399 -1.65786
5.92105 -1.54899 -1.66286
5.91705 -1.52799 -1.65986
5.91305 -1.51699 -1.65786
5.92405 -1.49999 -1.65986
5.94205 -1.46499 -1.66286
5.94505 -1.44599 -1.66186
5.94105 -1.39599 -1.65686
5.95105 -1.37899 -1.65886
5.95605 -1.33999 -1.65786
5.95605 -1.32099 -1.65686
5.98005 -1.23799 -1.65886
5.98205 -1.19899 -1.65686
6.01005 -1.13599 -1.66086
5.80005 1.55201 -1.67186
5.75605 1.70601 -1.67186
5.74305 1.75101 -1.67186
5.69305 1.94301 -1.67486
5.68105 1.95901 -1.67386
5.67105 2.00601 -1.67486
5.66305 2.02301 -1.67486
5.66405 2.04301 -1.67686
5.67405 2.06701 -1.68186
5.65605 2.08101 -1.67886
5.64605 2.09701 -1.67786
5.64705 2.11801 -1.67986
5.64005 2.12501 -1.67886
5.63905 2.14501 -1.67986
5.63505 2.16401 -1.68186
5.64105 2.18601 -1.68586
5.63605 2.20501 -1.68586
5.61505 2.21701 -1.68186
5.63105 2.23301 -1.68786
5.61305 2.24701 -1.68386
5.60605 2.26401 -1.68386
5.60105 2.28301 -1.68486
5.58105 2.29501 -1.68086
5.58105 2.31601 -1.68286
5.56805 2.33101 -1.68186
5.55705 2.33701 -1.67886
5.55505 2.35701 -1.68086
5.54305 2.37201 -1.67886
5.53505 2.41001 -1.68186
5.50305 2.45801 -1.67886
4.99805 3.44701 -1.69186
5.75005 -1.64699 -1.66486
5.75305 -1.62799 -1.66486
5.76205 -1.61099 -1.66586
5.75905 -1.59099 -1.66286
5.76605 -1.57299 -1.66386
5.77105 -1.56499 -1.66486
5.77405 -1.54599 -1.66386
5.77105 -1.52599 -1.66186
5.77005 -1.50599 -1.65986
5.78105 -1.47099 -1.66086
5.79705 -1.45499 -1.66386
5.80705 -1.40899 -1.66286
5.80205 -1.38899 -1.66086
5.80805 -1.37099 -1.66086
5.82405 -1.30699 -1.66186
5.78605 0.00401395 -1.67686
5.75805 0.022014 -1.66886
5.77305 0.040014 -1.67286
5.75905 0.0580139 -1.66886
5.77405 0.077014 -1.67386
5.77205 0.095014 -1.67286
5.76405 0.113014 -1.67086
5.78705 0.122014 -1.67786
5.76405 0.140014 -1.67086
5.77105 0.158014 -1.67286
5.75905 0.176014 -1.66986
5.77705 0.195014 -1.67586
5.77105 0.213014 -1.67386
5.76805 0.231014 -1.67286
5.76205 0.249014 -1.67086
5.77305 0.258014 -1.67486
5.74905 0.275014 -1.66786
5.77505 0.295014 -1.67586
5.76105 0.312014 -1.67186
5.76305 0.330014 -1.67286
5.77405 0.349014 -1.67686
5.78005 0.368014 -1.67886
5.74405 0.374014 -1.66786
5.76305 0.394014 -1.67386
5.75405 0.411014 -1.67186
5.76105 0.430014 -1.67386
5.75205 0.448014 -1.67186
5.75205 0.466014 -1.67286
5.75305 0.484014 -1.67286
5.75005 0.493014 -1.67286
5.75805 0.512014 -1.67586
5.74505 0.529014 -1.67186
5.76405 0.549014 -1.67886
5.75905 0.567014 -1.67686
5.74505 0.584014 -1.67386
5.74705 0.602014 -1.67486
5.77105 0.614014 -1.68286
5.73905 0.629014 -1.67286
5.75405 0.649014 -1.67886
5.73105 0.664014 -1.67186
5.74005 0.684014 -1.67586
5.74005 0.702014 -1.67586
5.73905 0.720014 -1.67686
5.74205 0.730014 -1.67786
5.74905 0.749014 -1.68086
5.73705 0.766014 -1.67786
5.73105 0.783014 -1.67686
5.73105 0.801014 -1.67686
5.72605 0.819014 -1.67686
5.72205 0.837014 -1.67586
5.72405 0.846014 -1.67686
5.72005 0.864014 -1.67686
5.72405 0.883014 -1.67886
5.72205 0.901014 -1.67886
5.71505 0.919014 -1.67786
5.71805 0.937014 -1.67986
5.72005 0.956014 -1.68186
5.71505 0.974014 -1.68086
5.70405 0.981014 -1.67786
5.69905 0.999014 -1.67686
5.70605 1.01901 -1.67986
5.69905 1.03601 -1.67886
5.69005 1.05301 -1.67686
5.69005 1.07101 -1.67886
5.69405 1.08101 -1.67986
5.69105 1.09901 -1.67986
5.68505 1.11701 -1.67986
5.68405 1.13501 -1.67986
5.68605 1.15401 -1.68186
5.67605 1.17101 -1.67986
5.66505 1.18701 -1.67786
5.66905 1.19701 -1.67986
5.66005 1.21301 -1.67786
5.67605 1.23601 -1.68386
5.66305 1.25101 -1.68186
5.66805 1.27101 -1.68386
5.65905 1.28801 -1.68286
5.64505 1.30301 -1.67986
5.64505 1.32201 -1.68086
5.64505 1.33101 -1.68186
5.64405 1.35001 -1.68286
5.63805 1.36701 -1.68186
5.63605 1.38501 -1.68286
5.62405 1.40101 -1.67986
5.62505 1.42001 -1.68186
5.63205 1.44101 -1.68586
5.61805 1.44701 -1.68186
5.62105 1.46601 -1.68386
5.62205 1.48601 -1.68586
5.61205 1.50201 -1.68386
5.60305 1.51801 -1.68286
5.59105 1.53401 -1.68086
5.59905 1.55501 -1.68486
5.60005 1.56501 -1.68586
5.59205 1.58101 -1.68486
5.58105 1.59701 -1.68286
5.57805 1.61601 -1.68386
5.57105 1.63201 -1.68286
5.57305 1.65201 -1.68586
5.56305 1.66801 -1.68386
5.57505 1.68101 -1.68886
5.57105 1.69901 -1.68886
5.54605 1.71001 -1.68286
5.55105 1.73101 -1.68586
5.54905 1.75001 -1.68686
5.54005 1.76601 -1.68586
5.53705 1.78401 -1.68686
5.54305 1.79601 -1.68986
5.53705 1.81301 -1.68986
5.52405 1.82801 -1.68686
5.52605 1.84801 -1.68986
5.51405 1.86401 -1.68786
5.50705 1.88001 -1.68686
5.51505 1.90301 -1.69186
5.50105 1.90701 -1.68886
5.50105 1.92701 -1.68986
5.50205 1.94601 -1.69286
5.49905 1.96501 -1.69386
5.47505 1.97601 -1.68786
5.48505 1.99901 -1.69286
5.46105 2.00901 -1.68686
5.47705 2.02501 -1.69386
5.46205 2.03901 -1.69086
5.46805 2.06101 -1.69486
5.45305 2.07501 -1.69186
5.44505 2.11101 -1.69386
5.43705 2.17701 -1.69886
5.39505 2.27001 -1.69786
5.38805 2.28601 -1.69786
5.38405 2.30501 -1.69886
5.36705 2.31701 -1.69586
5.36505 2.33601 -1.69686
5.35505 2.35201 -1.69686
5.33605 2.35401 -1.69186
5.34305 2.37701 -1.69586
5.31905 2.38701 -1.69086
5.32205 2.40801 -1.69486
5.30405 2.42001 -1.69086
5.30205 2.43901 -1.69286
5.29605 2.45601 -1.69286
5.28505 2.47101 -1.69186
5.27105 2.47501 -1.68886
5.26305 2.49101 -1.68886
5.26505 2.51301 -1.69186
5.25605 2.52901 -1.69186
5.24405 2.54301 -1.68986
5.25505 2.56901 -1.69686
5.23005 2.57701 -1.69086
5.22405 2.58401 -1.68986
5.21605 2.60101 -1.68986
5.22605 2.62701 -1.69686
5.19305 2.63001 -1.68786
5.19505 2.65201 -1.69186
5.17305 2.66101 -1.68686
5.17405 2.68201 -1.68986
5.18205 2.69701 -1.69486
5.17205 2.71201 -1.69386
5.14505 2.71901 -1.68686
5.15105 2.74301 -1.69286
5.10905 2.79301 -1.68886
5.09905 2.80801 -1.68786
5.11305 2.83701 -1.69586
5.08205 2.86201 -1.69186
4.84105 3.27301 -1.69486
4.76405 3.41001 -1.69986
5.48205 -1.72999 -1.66586
5.51505 -1.72099 -1.67386
5.53805 -1.70899 -1.67986
5.54205 -1.69099 -1.67986
5.55405 -1.67599 -1.68186
5.58505 -1.53299 -1.67886
5.59405 -1.51699 -1.67986
5.60405 -1.49999 -1.68186
5.60205 -1.48099 -1.67986
5.60605 -1.46299 -1.67986
5.61605 -1.44699 -1.68186
5.61305 -1.42799 -1.67886
5.61705 -1.41899 -1.67986
5.61805 -1.40099 -1.67886
5.62805 -1.38399 -1.67986
5.62705 -1.36499 -1.67886
5.64005 -1.34999 -1.68186
5.63705 -1.32999 -1.67886
5.64205 -1.30299 -1.67886
5.64705 -1.28599 -1.67886
5.66105 -1.26999 -1.68186
5.66305 -1.25199 -1.68186
5.65405 -1.23199 -1.67686
5.66305 -1.21499 -1.67886
5.67605 -1.19899 -1.68186
5.65205 -1.17599 -1.67286
5.66705 -1.16899 -1.67686
5.66905 -1.15099 -1.67686
5.66105 -1.13099 -1.67286
5.68305 -1.11699 -1.67886
5.67405 -1.09699 -1.67486
5.67005 -1.07699 -1.67286
5.68805 -1.05299 -1.67686
5.68205 -1.03399 -1.67386
5.70905 -1.01999 -1.68186
5.68805 -0.997986 -1.67386
5.68705 -0.978986 -1.67286
5.69405 -0.961986 -1.67386
5.69305 -0.943986 -1.67286
5.68905 -0.933986 -1.67086
5.69305 -0.897986 -1.66986
5.70505 -0.880986 -1.67286
5.69705 -0.842986 -1.66886
5.71705 -0.827986 -1.67386
5.72205 -0.818986 -1.67586
5.69805 -0.797986 -1.66686
5.71205 -0.780986 -1.67086
5.72405 -0.764986 -1.67386
5.71305 -0.744986 -1.66986
5.73105 -0.728986 -1.67386
5.72905 -0.710986 -1.67286
5.73205 -0.701986 -1.67386
5.72505 -0.682986 -1.67086
5.72705 -0.664986 -1.67086
5.75005 -0.648986 -1.67686
5.72905 -0.627986 -1.66986
5.74205 -0.611986 -1.67386
5.75205 -0.593986 -1.67586
5.74305 -0.583986 -1.67286
5.74305 -0.565986 -1.67286
5.75805 -0.548986 -1.67686
5.73005 -0.528986 -1.66686
5.75605 -0.512986 -1.67486
5.73805 -0.492986 -1.66886
