5.74808 5.791 -0.608793
5.70808 5.786 -0.605793
5.68308 5.78 -0.603793
5.63908 5.77 -0.599793
5.59708 5.764 -0.596793
5.55808 5.76 -0.593793
5.51008 5.745 -0.589793
5.47608 5.745 -0.586793
5.44008 5.744 -0.584793
5.36408 5.717 -0.577793
5.32708 5.713 -0.574793
5.24408 5.695 -0.567793
5.21908 5.704 -0.566793
5.17108 5.687 -0.562793
5.11308 5.677 -0.557793
4.99808 5.654 -0.548793
4.95508 5.642 -0.544793
4.91908 5.636 -0.541793
4.79308 5.614 -0.532793
6.82808 5.988 -0.755793
6.78408 5.987 -0.751793
6.72508 5.973 -0.746793
6.68508 5.975 -0.743793
6.62208 5.956 -0.736793
6.57708 5.953 -0.733793
6.52108 5.94 -0.728793
6.48808 5.929 -0.724793
6.43008 5.913 -0.719793
6.38908 5.913 -0.715793
6.33108 5.897 -0.710793
6.29808 5.903 -0.708793
6.23908 5.885 -0.702793
6.20208 5.887 -0.699793
6.15908 5.865 -0.695793
6.11908 5.864 -0.691793
6.06208 5.846 -0.686793
6.03208 5.854 -0.684793
5.97508 5.835 -0.679793
5.94008 5.837 -0.676793
5.88408 5.82 -0.671793
5.85708 5.811 -0.668793
5.77508 5.802 -0.661793
5.72008 5.784 -0.656793
5.68808 5.788 -0.654793
5.63708 5.772 -0.649793
5.60308 5.774 -0.647793
5.52908 5.751 -0.639793
5.44308 5.734 -0.632793
5.40408 5.73 -0.629793
5.36208 5.72 -0.625793
5.32108 5.713 -0.622793
5.29808 5.706 -0.620793
5.22408 5.699 -0.614793
5.09708 5.667 -0.602793
5.07108 5.674 -0.601793
4.85808 5.628 -0.583793
4.55108 5.569 -0.557793
3.55008 5.387 -0.480793
6.78708 5.99 -0.811793
6.73908 5.985 -0.807793
6.63408 5.967 -0.797793
6.50508 5.943 -0.784793
6.30208 5.903 -0.765793
5.33008 5.73 -0.675793
5.27808 5.71 -0.670793
5.24008 5.705 -0.666793
5.03208 5.671 -0.648793
4.95508 5.656 -0.641793
4.84908 5.64 -0.632793
4.75208 5.616 -0.623793
4.68108 5.603 -0.617793
4.61608 5.595 -0.612793
4.55708 5.576 -0.606793
4.48708 5.562 -0.600793
4.46608 5.571 -0.599793
4.42608 5.557 -0.595793
4.39708 5.557 -0.593793
4.35308 5.536 -0.588793
4.30108 5.523 -0.584793
4.24208 5.519 -0.579793
4.17508 5.502 -0.573793
4.11708 5.497 -0.569793
4.04608 5.49 -0.564793
4.00808 5.476 -0.560793
3.97608 5.467 -0.557793
3.91108 5.467 -0.553793
3.84908 5.453 -0.547793
3.79408 5.446 -0.543793
3.65608 5.41 -0.531793
3.62708 5.403 -0.529793
3.40008 5.368 -0.512793
3.36708 5.352 -0.508793
3.35308 5.349 -0.507793
3.32808 5.346 -0.506793
3.31208 5.358 -0.506793
3.27908 5.341 -0.502793
3.25108 5.333 -0.500793
3.22908 5.334 -0.499793
3.20008 5.324 -0.496793
3.18808 5.324 -0.495793
3.16508 5.322 -0.494793
3.13908 5.316 -0.492793
3.11408 5.312 -0.490793
3.09008 5.31 -0.489793
3.06708 5.308 -0.487793
3.04108 5.302 -0.485793
3.02808 5.298 -0.484793
2.99908 5.285 -0.481793
2.97308 5.279 -0.479793
2.95108 5.277 -0.478793
2.93108 5.28 -0.477793
2.90208 5.266 -0.474793
2.87808 5.261 -0.472793
2.85308 5.256 -0.471793
2.84308 5.257 -0.470793
2.74908 5.238 -0.463793
2.70308 5.23 -0.460793
2.50408 5.199 -0.447793
2.45608 5.182 -0.443793
2.41508 5.179 -0.441793
2.27608 5.153 -0.432793
2.25308 5.145 -0.430793
2.20108 5.135 -0.427793
2.12108 5.124 -0.422793
2.11108 5.122 -0.422793
2.07208 5.118 -0.420793
1.96408 5.103 -0.414793
1.88108 5.077 -0.408793
1.86408 5.079 -0.407793
1.83508 5.073 -0.405793
1.81508 5.067 -0.404793
1.79408 5.06 -0.403793
1.77908 5.067 -0.403793
1.76208 5.071 -0.403793
1.73908 5.056 -0.400793
1.71108 5.049 -0.398793
1.69108 5.043 -0.397793
1.65408 5.037 -0.395793
1.60108 5.035 -0.393793
1.57108 5.021 -0.391793
1.55308 5.019 -0.390793
1.53308 5.012 -0.389793
1.51808 5.017 -0.389793
1.49908 5.01 -0.387793
1.48108 5.007 -0.386793
1.47208 5.006 -0.386793
1.40108 4.995 -0.383793
1.38108 4.984 -0.381793
1.25008 4.961 -0.375793
1.20708 4.957 -0.373793
1.15508 4.943 -0.370793
1.11308 4.937 -0.368793
1.01208 4.918 -0.364793
0.830075 4.885 -0.357793
6.84208 5.991 -0.872793
6.80008 5.993 -0.868793
6.73808 5.976 -0.862793
6.65208 5.956 -0.853793
6.60108 5.948 -0.847793
6.55008 5.939 -0.842793
6.50008 5.932 -0.837793
6.39808 5.914 -0.827793
6.22108 5.879 -0.809793
6.12708 5.863 -0.800793
6.08408 5.859 -0.796793
6.00108 5.834 -0.787793
5.96108 5.832 -0.784793
5.86308 5.809 -0.774793
5.82508 5.808 -0.770793
5.78208 5.801 -0.766793
5.70708 5.78 -0.758793
5.57608 5.756 -0.745793
5.45708 5.74 -0.734793
5.22708 5.694 -0.712793
4.93908 5.642 -0.685793
4.70208 5.6 -0.663793
1.94108 5.091 -0.445793
1.77708 5.063 -0.435793
1.62508 5.032 -0.426793
1.58708 5.023 -0.424793
6.77308 5.995 -0.918793
6.43108 5.93 -0.882793
6.28608 5.905 -0.867793
5.72808 5.801 -0.809793
5.68608 5.795 -0.804793
5.49008 5.755 -0.784793
5.44808 5.746 -0.780793
5.41008 5.743 -0.776793
5.18908 5.701 -0.754793
5.15308 5.697 -0.751793
5.11108 5.687 -0.746793
5.03708 5.675 -0.739793
4.90608 5.651 -0.726793
4.87008 5.645 -0.723793
4.83208 5.636 -0.719793
4.79508 5.628 -0.715793
4.74108 5.619 -0.710793
4.70708 5.614 -0.707793
4.66908 5.604 -0.703793
4.63408 5.598 -0.700793
4.60208 5.595 -0.697793
4.56408 5.583 -0.693793
4.53208 5.581 -0.690793
4.50008 5.576 -0.687793
4.47808 5.566 -0.685793
4.44508 5.562 -0.682793
4.41708 5.562 -0.680793
4.38108 5.552 -0.676793
4.35108 5.55 -0.674793
4.31808 5.543 -0.670793
4.25908 5.521 -0.664793
4.23008 5.519 -0.661793
4.19808 5.513 -0.658793
4.13508 5.501 -0.653793
4.10608 5.498 -0.650793
4.07008 5.485 -0.646793
4.05208 5.479 -0.644793
4.02908 5.483 -0.643793
3.99508 5.474 -0.640793
3.96308 5.465 -0.637793
3.93708 5.466 -0.635793
3.90408 5.456 -0.631793
3.87908 5.457 -0.630793
3.86208 5.452 -0.628793
3.82908 5.441 -0.625793
3.80708 5.445 -0.623793
3.77508 5.435 -0.620793
3.74408 5.428 -0.617793
3.72308 5.433 -0.616793
3.69108 5.423 -0.613793
3.67308 5.414 -0.611793
3.64608 5.411 -0.609793
3.61908 5.407 -0.607793
3.46608 5.377 -0.593793
3.43808 5.369 -0.590793
3.41008 5.363 -0.588793
3.38608 5.362 -0.586793
3.36108 5.359 -0.584793
3.33308 5.353 -0.582793
3.31008 5.353 -0.580793
3.29208 5.342 -0.578793
3.26508 5.337 -0.576793
3.24308 5.337 -0.574793
3.21608 5.33 -0.572793
3.19408 5.331 -0.571793
3.16708 5.324 -0.568793
3.13808 5.314 -0.565793
3.12708 5.313 -0.565793
3.10208 5.309 -0.563793
3.07308 5.297 -0.560793
3.05608 5.306 -0.560793
3.03008 5.3 -0.557793
2.99808 5.282 -0.553793
2.98308 5.293 -0.554793
2.95808 5.289 -0.552793
2.94008 5.276 -0.549793
2.91808 5.275 -0.548793
2.89508 5.272 -0.546793
2.86608 5.258 -0.543793
2.84808 5.263 -0.542793
2.82108 5.253 -0.540793
2.80108 5.255 -0.539793
2.78808 5.251 -0.538793
2.76508 5.247 -0.536793
2.73708 5.234 -0.533793
2.71808 5.238 -0.532793
2.69508 5.234 -0.531793
2.67308 5.23 -0.529793
2.65008 5.226 -0.527793
2.63608 5.219 -0.526793
2.61208 5.212 -0.523793
2.59408 5.216 -0.523793
2.57108 5.212 -0.521793
2.55008 5.209 -0.520793
2.52808 5.206 -0.518793
2.50408 5.198 -0.516793
2.48908 5.188 -0.514793
2.47108 5.192 -0.514793
2.42808 5.184 -0.511793
2.40608 5.179 -0.509793
2.38408 5.176 -0.507793
2.36208 5.169 -0.505793
2.35208 5.169 -0.505793
2.33108 5.165 -0.503793
2.31108 5.165 -0.502793
2.28808 5.156 -0.500793
2.27008 5.16 -0.500793
2.24808 5.154 -0.498793
2.22408 5.141 -0.495793
2.19308 5.137 -0.493793
2.17208 5.131 -0.492793
2.15308 5.132 -0.491793
2.13108 5.124 -0.489793
2.11208 5.123 -0.488793
2.09208 5.121 -0.487793
2.07508 5.124 -0.486793
2.02008 5.103 -0.482793
2.00208 5.105 -0.481793
1.98008 5.095 -0.479793
1.96608 5.107 -0.480793
1.94708 5.104 -0.478793
1.91308 5.087 -0.475793
1.89108 5.078 -0.473793
1.87308 5.076 -0.472793
1.85908 5.088 -0.473793
1.83508 5.073 -0.470793
1.81608 5.069 -0.469793
1.79608 5.062 -0.467793
1.78708 5.063 -0.467793
1.77008 5.065 -0.466793
1.75208 5.065 -0.466793
1.73008 5.051 -0.463793
1.71308 5.053 -0.463793
1.69608 5.054 -0.462793
1.68408 5.048 -0.461793
1.66508 5.042 -0.460793
1.64908 5.047 -0.460793
1.62808 5.035 -0.457793
1.61008 5.033 -0.456793
1.57208 5.024 -0.454793
1.55608 5.027 -0.454793
1.54708 5.025 -0.453793
1.52608 5.013 -0.451793
1.51108 5.02 -0.451793
1.49108 5.011 -0.450793
1.47208 5.004 -0.448793
1.45508 5.005 -0.448793
1.43808 5.004 -0.447793
1.42808 4.998 -0.446793
1.41008 4.995 -0.445793
1.39108 4.988 -0.444793
1.35608 4.983 -0.442793
1.34008 4.986 -0.442793
1.32208 4.98 -0.440793
1.31308 4.978 -0.440793
1.29408 4.971 -0.438793
1.27808 4.971 -0.438793
1.25908 4.962 -0.436793
1.22508 4.96 -0.435793
1.20808 4.958 -0.434793
1.19908 4.952 -0.433793
1.18408 4.96 -0.434793
1.15108 4.961 -0.433793
1.13108 4.942 -0.430793
1.11508 4.943 -0.430793
1.07908 4.929 -0.427793
1.07308 4.936 -0.428793
1.05508 4.928 -0.426793
1.03808 4.923 -0.425793
1.02208 4.927 -0.425793
0.988075 4.915 -0.423793
0.973075 4.92 -0.424793
0.946075 4.907 -0.421793
0.898075 4.908 -0.420793
0.881075 4.899 -0.419793
0.865075 4.898 -0.418793
0.848075 4.889 -0.417793
0.840075 4.892 -0.417793
0.808075 4.886 -0.416793
0.791075 4.879 -0.415793
0.774075 4.875 -0.414793
0.758075 4.87 -0.413793
0.743075 4.872 -0.413793
0.718075 4.866 -0.412793
0.686075 4.858 -0.410793
0.656075 4.864 -0.410793
0.615075 4.846 -0.407793
0.599075 4.848 -0.407793
0.584075 4.846 -0.407793
0.568075 4.844 -0.406793
0.537075 4.845 -0.406793
0.513075 4.83 -0.404793
0.482075 4.823 -0.403793
0.466075 4.819 -0.402793
0.450075 4.816 -0.402793
0.435075 4.813 -0.401793
0.427075 4.81 -0.401793
0.412075 4.808 -0.400793
0.396075 4.807 -0.400793
0.335075 4.796 -0.398793
0.320075 4.799 -0.398793
0.312075 4.795 -0.398793
0.297075 4.79 -0.397793
0.281075 4.785 -0.396793
0.236075 4.778 -0.395793
0.221075 4.772 -0.394793
0.198075 4.773 -0.394793
0.183075 4.768 -0.394793
0.168075 4.763 -0.393793
0.153075 4.763 -0.393793
0.138075 4.76 -0.392793
0.108075 4.758 -0.392793
0.100075 4.753 -0.391793
0.0850754 4.757 -0.392793
0.0700754 4.747 -0.391793
0.0550754 4.757 -0.392793
0.0400754 4.74 -0.390793
0.0260754 4.748 -0.391793
0.00307544 4.738 -0.389793
6.72108 5.972 -0.958793
6.61208 5.95 -0.946793
6.55608 5.938 -0.939793
6.33108 5.899 -0.915793
6.28008 5.889 -0.909793
6.24608 5.894 -0.906793
6.06508 5.851 -0.886793
6.01208 5.837 -0.880793
5.96408 5.827 -0.874793
5.92308 5.823 -0.870793
5.76108 5.791 -0.853793
5.71808 5.784 -0.848793
5.67608 5.778 -0.844793
5.63408 5.772 -0.839793
5.39608 5.723 -0.814793
5.36108 5.723 -0.811793
4.99908 5.65 -0.773793
4.88708 5.629 -0.761793
3.94408 5.475 -0.718793
3.91108 5.465 -0.714793
3.82708 5.454 -0.707793
2.65408 5.233 -0.599793
2.58808 5.224 -0.594793
2.57608 5.219 -0.593793
2.55108 5.211 -0.591793
2.53108 5.21 -0.589793
2.51008 5.209 -0.588793
2.48608 5.201 -0.586793
2.46608 5.202 -0.585793
2.44108 5.19 -0.582793
2.42108 5.19 -0.581793
2.41208 5.192 -0.580793
2.38608 5.178 -0.577793
2.37008 5.185 -0.577793
2.34008 5.162 -0.572793
2.28108 5.16 -0.569793
2.26908 5.155 -0.568793
2.25208 5.16 -0.567793
2.20808 5.147 -0.563793
2.18808 5.146 -0.562793
2.16508 5.135 -0.560793
2.14908 5.144 -0.560793
2.13908 5.141 -0.559793
2.11108 5.119 -0.555793
2.09308 5.122 -0.554793
2.07608 5.125 -0.554793
2.05208 5.113 -0.551793
2.03408 5.113 -0.550793
2.01708 5.118 -0.550793
1.99408 5.106 -0.547793
1.98708 5.113 -0.548793
1.96308 5.097 -0.545793
1.94808 5.106 -0.545793
1.90608 5.091 -0.541793
1.89008 5.097 -0.541793
1.86708 5.084 -0.539793
1.83608 5.072 -0.536793
1.82008 5.08 -0.536793
1.79908 5.069 -0.533793
1.76008 5.061 -0.531793
1.73108 5.052 -0.528793
1.69308 5.046 -0.526793
1.67608 5.046 -0.525793
1.65708 5.042 -0.524793
1.62108 5.041 -0.522793
1.61408 5.045 -0.523793
1.59208 5.031 -0.520793
1.57808 5.04 -0.520793
1.55708 5.028 -0.518793
1.54008 5.031 -0.518793
1.52108 5.024 -0.516793
1.49208 5.014 -0.514793
1.45408 4.999 -0.510793
1.44108 5.015 -0.512793
1.42108 5.004 -0.510793
1.38508 4.994 -0.507793
1.37608 4.994 -0.507793
1.36108 4.998 -0.507793
1.34008 4.983 -0.504793
1.32308 4.984 -0.504793
1.28908 4.98 -0.502793
1.24608 4.975 -0.500793
1.22608 4.961 -0.497793
1.19208 4.956 -0.496793
1.13508 4.959 -0.494793
1.03108 4.927 -0.487793
1.00708 4.928 -0.486793
0.955075 4.912 -0.483793
0.940075 4.917 -0.483793
0.915075 4.909 -0.482793
0.899075 4.908 -0.481793
0.884075 4.913 -0.481793
0.815075 4.883 -0.476793
0.801075 4.889 -0.476793
0.792075 4.882 -0.475793
0.775075 4.879 -0.474793
0.760075 4.881 -0.474793
0.743075 4.874 -0.473793
0.711075 4.867 -0.471793
0.688075 4.87 -0.471793
0.672075 4.866 -0.471793
0.609075 4.857 -0.468793
0.592075 4.849 -0.467793
0.568075 4.836 -0.465793
0.554075 4.851 -0.467793
0.490075 4.828 -0.463793
0.482075 4.823 -0.462793
0.467075 4.828 -0.462793
0.451075 4.816 -0.461793
0.436075 4.823 -0.461793
0.405075 4.81 -0.459793
0.389075 4.802 -0.458793
0.352075 4.812 -0.459793
0.335075 4.798 -0.457793
0.305075 4.794 -0.456793
0.290075 4.795 -0.456793
0.274075 4.786 -0.455793
0.267075 4.786 -0.455793
0.221075 4.784 -0.454793
0.191075 4.768 -0.452793
0.176075 4.767 -0.451793
0.161075 4.773 -0.452793
0.108075 4.757 -0.450793
0.0780754 4.747 -0.449793
0.0560754 4.756 -0.450793
0.0410754 4.742 -0.448793
0.0260754 4.75 -0.449793
0.0110754 4.74 -0.447793
6.44808 5.923 -1.04879
6.38308 5.918 -1.04179
6.33208 5.909 -1.03579
6.27408 5.892 -1.02779
6.24108 5.898 -1.02479
6.05908 5.854 -1.00179
6.02108 5.854 -0.997793
5.93108 5.84 -0.987793
5.76908 5.807 -0.967793
5.45008 5.752 -0.930793
5.18408 5.702 -0.900793
4.96708 5.657 -0.874793
4.93508 5.656 -0.871793
4.89808 5.649 -0.867793
4.69308 5.607 -0.844793
4.66308 5.607 -0.841793
4.62208 5.594 -0.836793
4.59008 5.59 -0.833793
4.55808 5.588 -0.830793
4.48708 5.572 -0.821793
4.45808 5.554 -0.817793
4.43208 5.557 -0.815793
4.40108 5.554 -0.812793
4.36508 5.545 -0.808793
4.33408 5.541 -0.805793
4.30308 5.538 -0.802793
4.24708 5.519 -0.795793
4.21408 5.512 -0.791793
4.17808 5.501 -0.787793
4.15508 5.506 -0.785793
4.12208 5.499 -0.782793
4.09208 5.494 -0.779793
4.06308 5.491 -0.776793
4.04908 5.491 -0.775793
4.01208 5.477 -0.770793
3.98108 5.47 -0.766793
3.95708 5.473 -0.765793
3.92108 5.46 -0.760793
3.88908 5.451 -0.757793
3.85908 5.446 -0.754793
3.83508 5.448 -0.752793
3.81408 5.437 -0.749793
3.78508 5.432 -0.746793
3.75208 5.421 -0.742793
3.70708 5.429 -0.739793
3.66708 5.408 -0.734793
3.65408 5.407 -0.733793
3.63008 5.407 -0.731793
3.60508 5.407 -0.729793
3.37208 5.364 -0.706793
3.34508 5.358 -0.703793
3.31508 5.348 -0.699793
3.29208 5.348 -0.698793
3.27908 5.345 -0.696793
3.24708 5.332 -0.692793
3.23208 5.344 -0.693793
3.19808 5.327 -0.688793
3.17408 5.323 -0.686793
3.14908 5.319 -0.684793
3.12608 5.319 -0.682793
3.10908 5.31 -0.680793
3.08108 5.3 -0.676793
3.06208 5.306 -0.676793
3.00608 5.285 -0.669793
2.99108 5.298 -0.670793
2.95908 5.28 -0.666793
2.92008 5.268 -0.661793
2.89808 5.269 -0.660793
2.88008 5.274 -0.659793
2.85208 5.262 -0.656793
2.82708 5.256 -0.653793
2.80508 5.256 -0.652793
2.79108 5.248 -0.650793
2.76608 5.241 -0.648793
2.74608 5.243 -0.646793
2.72108 5.235 -0.644793
2.67208 5.223 -0.639793
2.65908 5.236 -0.640793
2.63508 5.23 -0.638793
2.61508 5.212 -0.634793
2.59608 5.214 -0.633793
2.57008 5.203 -0.630793
2.55408 5.211 -0.630793
2.53108 5.207 -0.628793
2.50708 5.199 -0.626793
2.47008 5.185 -0.622793
2.45208 5.19 -0.621793
2.42808 5.179 -0.618793
2.40808 5.18 -0.617793
2.38408 5.171 -0.615793
2.36808 5.179 -0.615793
2.34708 5.175 -0.613793
2.33408 5.17 -0.612793
2.31008 5.159 -0.609793
2.24808 5.152 -0.604793
2.22808 5.15 -0.603793
2.20708 5.144 -0.601793
2.18808 5.145 -0.600793
2.17208 5.131 -0.597793
2.15408 5.134 -0.597793
2.13308 5.128 -0.595793
2.09208 5.121 -0.592793
2.07508 5.126 -0.592793
2.05508 5.121 -0.590793
2.04308 5.115 -0.588793
2.02008 5.103 -0.586793
2.00308 5.108 -0.585793
1.98408 5.107 -0.584793
1.96608 5.107 -0.583793
1.94608 5.104 -0.582793
1.92408 5.094 -0.579793
1.91008 5.082 -0.577793
1.89508 5.09 -0.578793
1.87608 5.088 -0.576793
1.83808 5.083 -0.574793
1.81708 5.076 -0.572793
1.79908 5.076 -0.571793
1.78808 5.071 -0.570793
1.76708 5.06 -0.567793
1.75008 5.064 -0.567793
1.73008 5.058 -0.565793
1.71208 5.056 -0.564793
1.68908 5.043 -0.562793
1.67308 5.046 -0.561793
1.66408 5.045 -0.561793
1.64708 5.046 -0.560793
1.62408 5.031 -0.557793
1.61108 5.043 -0.558793
1.59108 5.035 -0.556793
1.55208 5.022 -0.553793
1.54108 5.015 -0.551793
1.50908 5.025 -0.551793
1.47308 5.019 -0.549793
1.45108 5.003 -0.546793
1.43408 5.002 -0.545793
1.41808 5.004 -0.545793
1.40808 5.001 -0.544793
1.38808 4.988 -0.542793
1.37208 4.992 -0.542793
1.35508 4.993 -0.541793
1.33808 4.991 -0.540793
1.30408 4.99 -0.539793
1.29408 4.983 -0.537793
1.27408 4.971 -0.535793
1.25708 4.969 -0.534793
1.24208 4.977 -0.535793
1.22208 4.962 -0.532793
1.20608 4.964 -0.532793
1.16408 4.962 -0.530793
1.14508 4.95 -0.528793
1.10908 4.938 -0.525793
1.07608 4.935 -0.524793
1.06908 4.94 -0.524793
1.05008 4.93 -0.522793
1.03508 4.935 -0.523793
1.01708 4.927 -0.521793
1.00208 4.932 -0.521793
0.985075 4.925 -0.520793
0.967075 4.917 -0.518793
0.952075 4.922 -0.518793
0.942075 4.914 -0.517793
0.925075 4.909 -0.516793
0.909075 4.906 -0.515793
0.877075 4.906 -0.514793
0.860075 4.902 -0.513793
0.845075 4.905 -0.513793
0.835075 4.891 -0.511793
0.802075 4.888 -0.510793
0.785075 4.877 -0.508793
0.771075 4.889 -0.509793
0.753075 4.874 -0.507793
0.739075 4.886 -0.508793
0.713075 4.872 -0.506793
0.698075 4.874 -0.506793
0.681075 4.865 -0.504793
0.650075 4.865 -0.504793
0.627075 4.866 -0.503793
0.610075 4.854 -0.501793
0.563075 4.854 -0.500793
0.546075 4.836 -0.498793
0.532075 4.847 -0.499793
0.515075 4.839 -0.498793
0.508075 4.844 -0.498793
0.491075 4.828 -0.496793
0.476075 4.835 -0.496793
0.460075 4.825 -0.495793
0.445075 4.832 -0.496793
0.430075 4.828 -0.495793
0.413075 4.815 -0.493793
0.391075 4.821 -0.493793
0.375075 4.816 -0.493793
0.360075 4.812 -0.492793
0.329075 4.806 -0.491793
0.298075 4.8 -0.489793
0.275075 4.801 -0.489793
0.245075 4.791 -0.488793
0.229075 4.788 -0.487793
0.214075 4.781 -0.486793
0.176075 4.78 -0.486793
0.161075 4.779 -0.486793
0.0930754 4.755 -0.482793
0.0780754 4.761 -0.483793
0.0480754 4.751 -0.481793
0.0330754 4.754 -0.482793
6.18108 5.871 -1.05479
6.13608 5.864 -1.04979
6.09008 5.857 -1.04379
6.06708 5.853 -1.04079
6.02508 5.848 -1.03579
5.42308 5.747 -0.963793
5.19708 5.7 -0.936793
5.16308 5.699 -0.932793
4.95308 5.66 -0.908793
4.84208 5.639 -0.895793
4.64608 5.603 -0.872793
4.57708 5.59 -0.864793
4.48208 5.563 -0.852793
4.45708 5.567 -0.851793
4.39208 5.556 -0.843793
4.35708 5.548 -0.839793
4.24408 5.528 -0.827793
4.21108 5.521 -0.823793
4.17608 5.51 -0.819793
4.14908 5.511 -0.816793
4.11208 5.497 -0.812793
4.07308 5.499 -0.808793
4.03708 5.486 -0.804793
4.00808 5.482 -0.801793
3.97808 5.477 -0.798793
3.93708 5.456 -0.792793
3.92008 5.468 -0.792793
3.86108 5.459 -0.786793
3.84008 5.447 -0.782793
3.81408 5.446 -0.780793
3.78908 5.447 -0.778793
3.69508 5.418 -0.767793
3.67208 5.421 -0.765793
3.65508 5.414 -0.763793
3.61908 5.398 -0.758793
3.45108 5.38 -0.742793
3.37008 5.364 -0.734793
3.31908 5.358 -0.729793
3.30308 5.349 -0.727793
3.28008 5.35 -0.725793
3.25108 5.341 -0.722793
3.23008 5.343 -0.721793
3.20208 5.334 -0.718793
3.17108 5.321 -0.714793
3.14208 5.31 -0.710793
3.10808 5.309 -0.708793
3.08908 5.316 -0.707793
3.05908 5.301 -0.703793
3.04008 5.307 -0.702793
2.99108 5.299 -0.698793
2.96408 5.289 -0.694793
2.94608 5.276 -0.692793
2.93208 5.289 -0.692793
2.90708 5.284 -0.690793
2.88108 5.276 -0.687793
2.83408 5.268 -0.683793
2.81008 5.263 -0.680793
2.80108 5.265 -0.680793
2.75208 5.251 -0.675793
2.72708 5.244 -0.672793
2.70108 5.233 -0.669793
2.68408 5.242 -0.669793
2.66108 5.238 -0.667793
2.64408 5.224 -0.664793
2.62008 5.217 -0.662793
2.59808 5.214 -0.660793
2.57808 5.213 -0.658793
2.55308 5.205 -0.656793
2.51108 5.202 -0.653793
2.49208 5.204 -0.652793
2.48308 5.206 -0.651793
2.45308 5.184 -0.647793
2.43708 5.193 -0.647793
2.41308 5.185 -0.644793
2.39608 5.19 -0.644793
2.37308 5.182 -0.641793
2.33908 5.171 -0.638793
2.32108 5.175 -0.637793
2.30008 5.173 -0.636793
2.25208 5.151 -0.630793
2.20308 5.148 -0.627793
2.15908 5.133 -0.622793
2.14008 5.134 -0.621793
2.11808 5.126 -0.619793
2.09708 5.12 -0.617793
2.06708 5.115 -0.615793
2.05008 5.12 -0.614793
2.01208 5.118 -0.612793
1.98808 5.102 -0.609793
1.94408 5.108 -0.607793
1.88108 5.087 -0.601793
1.86208 5.084 -0.600793
1.82208 5.073 -0.596793
1.77508 5.066 -0.593793
1.71708 5.053 -0.588793
1.68108 5.05 -0.586793
1.67108 5.047 -0.586793
1.65608 5.055 -0.586793
1.63808 5.052 -0.585793
1.57808 5.028 -0.579793
1.51808 5.028 -0.576793
1.30108 4.982 -0.561793
1.26808 4.98 -0.559793
1.21608 4.971 -0.556793
1.19608 4.957 -0.554793
1.12108 4.952 -0.551793
1.06108 4.939 -0.547793
0.995075 4.931 -0.544793
0.971075 4.929 -0.543793
0.952075 4.917 -0.540793
0.920075 4.915 -0.539793
0.846075 4.902 -0.536793
0.829075 4.895 -0.534793
0.798075 4.896 -0.533793
0.780075 4.881 -0.531793
0.676075 4.869 -0.527793
0.660075 4.869 -0.527793
0.644075 4.863 -0.525793
0.557075 4.842 -0.521793
0.425075 4.827 -0.517793
0.355075 4.811 -0.514793
0.324075 4.794 -0.511793
0.302075 4.805 -0.512793
0.217075 4.772 -0.507793
0.187075 4.783 -0.508793
0.104075 4.77 -0.506793
0.0440754 4.757 -0.504793
0.0150754 4.743 -0.502793
5.59108 5.777 -1.04179
5.46308 5.754 -1.02579
5.38008 5.738 -1.01479
5.36108 5.736 -1.01279
5.31308 5.721 -1.00679
5.23408 5.708 -0.996793
5.09308 5.679 -0.978793
5.01908 5.668 -0.969793
4.94308 5.653 -0.960793
4.85608 5.643 -0.950793
4.81008 5.625 -0.943793
4.74008 5.614 -0.935793
4.60608 5.597 -0.920793
4.58408 5.589 -0.917793
4.54308 5.575 -0.911793
4.51408 5.575 -0.908793
4.44808 5.565 -0.901793
4.39608 5.553 -0.894793
4.35708 5.541 -0.889793
4.32508 5.536 -0.886793
4.29808 5.537 -0.883793
4.26108 5.525 -0.878793
4.23408 5.526 -0.876793
4.19908 5.516 -0.871793
4.16808 5.512 -0.868793
4.14808 5.503 -0.865793
4.11908 5.5 -0.862793
4.08508 5.491 -0.858793
4.05808 5.491 -0.855793
4.02408 5.481 -0.851793
3.99508 5.478 -0.848793
3.96508 5.473 -0.845793
3.95008 5.47 -0.843793
3.91408 5.456 -0.838793
3.88508 5.453 -0.835793
3.86108 5.455 -0.833793
3.83108 5.449 -0.830793
3.80208 5.444 -0.827793
3.77308 5.439 -0.824793
3.75908 5.437 -0.822793
3.71808 5.415 -0.816793
3.69308 5.415 -0.814793
3.66508 5.41 -0.810793
3.61008 5.402 -0.805793
3.30908 5.344 -0.772793
3.28108 5.336 -0.769793
3.26008 5.34 -0.768793
3.23208 5.331 -0.764793
3.20308 5.321 -0.761793
3.19008 5.32 -0.760793
3.17008 5.323 -0.758793
3.14208 5.314 -0.755793
3.11408 5.305 -0.752793
3.09108 5.305 -0.750793
3.06608 5.299 -0.747793
3.04208 5.297 -0.745793
3.02608 5.288 -0.743793
2.97808 5.281 -0.738793
2.95308 5.276 -0.736793
2.93208 5.277 -0.734793
2.90608 5.269 -0.731793
2.88408 5.269 -0.730793
2.84508 5.257 -0.725793
2.79808 5.249 -0.721793
2.77708 5.249 -0.719793
2.75108 5.24 -0.716793
2.73008 5.24 -0.714793
2.70708 5.236 -0.712793
2.66908 5.222 -0.708793
2.64508 5.217 -0.705793
2.60108 5.21 -0.701793
2.58208 5.213 -0.701793
2.55608 5.202 -0.697793
2.54408 5.199 -0.696793
2.52308 5.196 -0.694793
2.47808 5.187 -0.690793
2.43608 5.183 -0.687793
2.41408 5.178 -0.684793
2.22008 5.139 -0.667793
2.20308 5.142 -0.666793
2.13908 5.126 -0.660793
2.03108 5.115 -0.652793
1.97708 5.097 -0.647793
1.91608 5.083 -0.641793
1.85908 5.074 -0.637793
1.81208 5.07 -0.634793
1.75308 5.055 -0.629793
1.70608 5.047 -0.625793
1.66808 5.039 -0.622793
1.64908 5.036 -0.621793
1.59408 5.027 -0.617793
1.34908 4.98 -0.600793
1.05608 4.929 -0.581793
0.913075 4.901 -0.573793
0.783075 4.879 -0.566793
0.734075 4.869 -0.564793
0.686075 4.862 -0.561793
0.614075 4.848 -0.558793
0.559075 4.84 -0.556793
0.465075 4.822 -0.551793
0.211075 4.771 -0.541793
0.196075 4.768 -0.540793
0.181075 4.766 -0.540793
0.113075 4.752 -0.538793
0.0980754 4.751 -0.537793
0.0530754 4.742 -0.536793
0.0310754 4.738 -0.535793
4.69708 5.598 -1.04279
4.67208 5.603 -1.04079
4.65808 5.605 -1.03979
3.82808 5.452 -0.939793
3.77108 5.444 -0.933793
3.74108 5.437 -0.930793
3.00108 5.302 -0.849793
2.91608 5.286 -0.840793
2.86908 5.278 -0.835793
2.82108 5.268 -0.830793
2.79808 5.265 -0.828793
2.75908 5.252 -0.824793
2.73908 5.254 -0.822793
2.71608 5.25 -0.820793
2.69308 5.244 -0.818793
2.66908 5.239 -0.815793
2.61008 5.224 -0.809793
2.59008 5.223 -0.807793
2.56608 5.217 -0.805793
2.52308 5.212 -0.801793
2.50208 5.209 -0.799793
2.47908 5.202 -0.797793
2.44608 5.196 -0.793793
2.42608 5.197 -0.792793
2.38008 5.183 -0.787793
2.36208 5.185 -0.786793
2.31908 5.176 -0.782793
2.30808 5.175 -0.781793
2.28608 5.169 -0.779793
2.26508 5.165 -0.777793
2.22208 5.154 -0.773793
2.20308 5.156 -0.772793
2.18308 5.152 -0.770793
2.17108 5.146 -0.768793
2.15108 5.144 -0.767793
2.13208 5.143 -0.766793
2.11008 5.135 -0.763793
2.09008 5.132 -0.761793
2.05008 5.127 -0.758793
2.03908 5.123 -0.757793
2.02008 5.12 -0.755793
1.97808 5.107 -0.751793
1.95908 5.106 -0.750793
1.93908 5.103 -0.748793
1.91008 5.097 -0.746793
1.83208 5.083 -0.739793
1.81408 5.081 -0.738793
1.79608 5.081 -0.737793
1.78608 5.079 -0.736793
1.76508 5.069 -0.734793
1.74708 5.069 -0.733793
1.72708 5.062 -0.731793
1.69008 5.059 -0.728793
1.67208 5.057 -0.727793
1.64408 5.052 -0.725793
1.62508 5.045 -0.723793
1.58808 5.039 -0.720793
1.53108 5.023 -0.715793
1.52208 5.022 -0.715793
1.48708 5.02 -0.713793
1.45208 5.018 -0.711793
1.43308 5.011 -0.709793
1.41508 5.006 -0.707793
1.38808 5.001 -0.706793
1.36908 4.994 -0.704793
1.33608 4.995 -0.702793
1.31608 4.984 -0.700793
1.28208 4.982 -0.698793
1.27308 4.976 -0.697793
1.25808 4.982 -0.697793
1.24008 4.979 -0.696793
1.22308 4.975 -0.695793
1.18708 4.965 -0.692793
1.16208 4.963 -0.691793
1.14408 4.955 -0.689793
1.12608 4.947 -0.687793
1.09308 4.944 -0.686793
1.06008 4.945 -0.685793
1.05208 4.943 -0.684793
1.03308 4.929 -0.681793
1.01708 4.934 -0.681793
1.00008 4.928 -0.680793
0.983075 4.923 -0.679793
0.968075 4.926 -0.679793
0.951075 4.921 -0.677793
0.941075 4.915 -0.676793
0.926075 4.92 -0.676793
0.909075 4.911 -0.675793
0.892075 4.906 -0.673793
0.876075 4.905 -0.673793
0.860075 4.904 -0.672793
0.843075 4.897 -0.670793
0.835075 4.896 -0.670793
0.818075 4.893 -0.669793
0.803075 4.897 -0.670793
0.786075 4.884 -0.667793
0.770075 4.885 -0.667793
0.754075 4.883 -0.666793
0.738075 4.88 -0.665793
0.729075 4.873 -0.664793
0.697075 4.866 -0.662793
0.681075 4.864 -0.661793
0.665075 4.864 -0.661793
0.650075 4.862 -0.660793
0.634075 4.862 -0.660793
0.617075 4.849 -0.658793
0.610075 4.852 -0.658793
0.594075 4.848 -0.657793
0.578075 4.847 -0.657793
0.562075 4.843 -0.656793
0.546075 4.835 -0.654793
0.530075 4.831 -0.653793
0.515075 4.833 -0.653793
0.508075 4.835 -0.654793
0.492075 4.831 -0.653793
0.476075 4.827 -0.652793
0.461075 4.824 -0.651793
0.446075 4.828 -0.651793
0.430075 4.819 -0.650793
0.414075 4.811 -0.648793
0.399075 4.814 -0.648793
0.391075 4.809 -0.648793
0.375075 4.806 -0.647793
0.361075 4.817 -0.648793
0.345075 4.802 -0.646793
0.330075 4.803 -0.646793
0.314075 4.802 -0.646793
0.298075 4.788 -0.643793
0.291075 4.786 -0.643793
0.276075 4.783 -0.642793
0.260075 4.78 -0.642793
0.245075 4.781 -0.642793
0.230075 4.783 -0.642793
0.215075 4.776 -0.641793
0.200075 4.779 -0.641793
0.192075 4.773 -0.640793
0.177075 4.768 -0.639793
0.162075 4.774 -0.640793
0.147075 4.765 -0.638793
0.132075 4.759 -0.637793
0.117075 4.758 -0.637793
0.102075 4.762 -0.638793
0.0950754 4.751 -0.636793
0.0800754 4.757 -0.637793
0.0650754 4.753 -0.636793
0.0350754 4.745 -0.635793
0.0200754 4.749 -0.636793
0.00507544 4.734 -0.633793
4.16508 5.498 -1.04579
4.13508 5.494 -1.04179
4.10908 5.496 -1.03979
4.08108 5.495 -1.03679
4.06108 5.485 -1.03379
4.03408 5.485 -1.03079
4.00308 5.479 -1.02679
3.97508 5.477 -1.02379
3.94308 5.469 -1.01979
3.91308 5.464 -1.01579
3.88208 5.457 -1.01179
3.86208 5.447 -1.00879
3.83508 5.444 -1.00579
3.80508 5.439 -1.00179
3.77908 5.438 -0.998793
3.74908 5.432 -0.995793
3.71808 5.422 -0.990793
3.68808 5.416 -0.987793
3.67208 5.411 -0.984793
3.64208 5.402 -0.980793
3.61708 5.402 -0.978793
3.24308 5.339 -0.935793
3.21608 5.333 -0.932793
3.18908 5.326 -0.929793
3.16508 5.324 -0.926793
3.14408 5.327 -0.925793
3.12608 5.315 -0.922793
3.09808 5.306 -0.918793
3.07508 5.304 -0.916793
3.04908 5.298 -0.913793
3.02508 5.294 -0.910793
2.99808 5.287 -0.907793
2.97608 5.286 -0.905793
2.96008 5.278 -0.902793
2.93708 5.276 -0.900793
2.86408 5.262 -0.892793
2.84208 5.26 -0.890793
2.81908 5.257 -0.888793
2.80608 5.253 -0.886793
2.78108 5.246 -0.883793
2.76108 5.248 -0.882793
2.73708 5.242 -0.879793
2.71208 5.233 -0.876793
2.69208 5.237 -0.875793
2.66708 5.228 -0.871793
2.64608 5.227 -0.870793
2.63108 5.217 -0.867793
2.61208 5.22 -0.866793
2.59008 5.218 -0.864793
2.56508 5.21 -0.861793
2.54608 5.211 -0.860793
2.52208 5.205 -0.857793
2.49608 5.193 -0.853793
2.48508 5.19 -0.852793
2.46408 5.189 -0.850793
2.44408 5.188 -0.849793
2.42208 5.185 -0.847793
2.40208 5.183 -0.845793
2.38108 5.18 -0.843793
2.35908 5.177 -0.841793
2.34608 5.17 -0.839793
2.32508 5.166 -0.837793
2.30508 5.165 -0.835793
2.28108 5.156 -0.832793
2.26108 5.154 -0.831793
2.24108 5.152 -0.829793
2.22208 5.153 -0.828793
2.20908 5.146 -0.826793
2.18908 5.142 -0.824793
2.16508 5.133 -0.821793
2.14808 5.136 -0.820793
2.12608 5.13 -0.818793
2.10308 5.12 -0.815793
2.08408 5.117 -0.813793
2.05408 5.114 -0.811793
2.03708 5.117 -0.811793
2.01308 5.105 -0.807793
1.99908 5.115 -0.808793
1.97408 5.099 -0.804793
1.95608 5.1 -0.803793
1.94708 5.101 -0.803793
1.88708 5.088 -0.797793
1.86308 5.074 -0.793793
1.83008 5.08 -0.792793
1.80708 5.067 -0.789793
1.79808 5.068 -0.789793
1.78308 5.075 -0.789793
1.76008 5.06 -0.785793
1.73908 5.051 -0.783793
1.72508 5.062 -0.784793
1.68208 5.041 -0.778793
1.67608 5.049 -0.779793
1.65508 5.04 -0.776793
1.63708 5.037 -0.775793
1.62208 5.044 -0.775793
1.59908 5.027 -0.771793
1.58008 5.024 -0.770793
1.56608 5.035 -0.771793
1.54308 5.017 -0.767793
1.51708 5.017 -0.766793
1.49808 5.008 -0.763793
1.48108 5.011 -0.763793
1.46708 5.02 -0.764793
1.44508 5.005 -0.760793
1.42008 5.006 -0.759793
1.39908 4.992 -0.756793
1.38108 4.989 -0.755793
1.36608 4.995 -0.755793
1.34508 4.98 -0.752793
1.32808 4.98 -0.751793
1.31408 4.988 -0.752793
1.28408 4.97 -0.747793
1.26808 4.972 -0.747793
1.24908 4.964 -0.745793
1.23108 4.961 -0.744793
1.21608 4.966 -0.744793
1.19708 4.957 -0.742793
1.18908 4.955 -0.741793
1.17208 4.955 -0.740793
1.15508 4.953 -0.739793
1.13708 4.947 -0.738793
1.12108 4.944 -0.737793
1.10208 4.936 -0.735793
1.08608 4.938 -0.734793
1.07708 4.934 -0.733793
1.06108 4.931 -0.732793
1.04408 4.931 -0.732793
1.02808 4.928 -0.731793
1.01108 4.926 -0.730793
0.994075 4.921 -0.728793
0.977075 4.92 -0.728793
0.968075 4.914 -0.726793
0.951075 4.909 -0.725793
0.936075 4.914 -0.725793
0.917075 4.9 -0.722793
0.902075 4.905 -0.723793
0.887075 4.906 -0.722793
0.869075 4.895 -0.720793
0.853075 4.895 -0.720793
0.843075 4.887 -0.718793
0.795075 4.883 -0.716793
0.779075 4.878 -0.715793
0.763075 4.88 -0.715793
0.747075 4.875 -0.713793
0.738075 4.868 -0.712793
0.722075 4.867 -0.711793
0.706075 4.861 -0.710793
0.674075 4.856 -0.708793
0.642075 4.852 -0.707793
0.626075 4.85 -0.706793
0.618075 4.845 -0.705793
0.602075 4.845 -0.705793
0.586075 4.839 -0.704793
0.571075 4.837 -0.703793
0.516075 4.827 -0.700793
0.500075 4.827 -0.700793
0.485075 4.825 -0.699793
0.469075 4.82 -0.698793
0.453075 4.816 -0.697793
0.438075 4.813 -0.697793
0.423075 4.817 -0.697793
0.399075 4.805 -0.695793
0.337075 4.794 -0.692793
0.155075 4.76 -0.685793
0.0420754 4.74 -0.681793
0.0270754 4.738 -0.681793
3.68808 5.411 -1.04479
3.68208 5.42 -1.04579
3.65608 5.418 -1.04279
3.63008 5.417 -1.03979
2.97808 5.296 -0.960793
2.36208 5.183 -0.893793
2.07208 5.132 -0.864793
1.94208 5.106 -0.851793
1.90308 5.098 -0.848793
1.88408 5.097 -0.846793
1.84308 5.084 -0.842793
1.83508 5.087 -0.842793
1.79508 5.075 -0.837793
1.77608 5.073 -0.836793
1.74008 5.071 -0.833793
1.68908 5.051 -0.827793
1.67308 5.056 -0.827793
1.65508 5.055 -0.826793
1.63508 5.046 -0.823793
1.61808 5.047 -0.822793
1.58008 5.038 -0.819793
1.57108 5.037 -0.818793
1.55308 5.034 -0.817793
1.53308 5.026 -0.814793
1.51608 5.025 -0.813793
1.49908 5.026 -0.813793
1.48008 5.019 -0.811793
1.46308 5.02 -0.810793
1.43308 5.006 -0.806793
1.38208 5.004 -0.803793
1.36308 4.997 -0.801793
1.33708 4.992 -0.799793
1.31908 4.991 -0.798793
1.30308 4.991 -0.797793
1.28508 4.985 -0.796793
1.26608 4.978 -0.793793
1.25008 4.98 -0.793793
1.23208 4.974 -0.791793
1.21408 4.967 -0.789793
1.20608 4.97 -0.790793
1.18808 4.963 -0.787793
1.17208 4.963 -0.787793
1.12008 4.952 -0.783793
1.09308 4.94 -0.780793
1.07808 4.945 -0.780793
1.04408 4.941 -0.778793
0.953075 4.925 -0.772793
0.920075 4.919 -0.770793
0.886075 4.911 -0.768793
0.862075 4.908 -0.766793
0.812075 4.896 -0.763793
0.797075 4.897 -0.762793
0.780075 4.889 -0.761793
0.764075 4.888 -0.760793
0.756075 4.885 -0.759793
0.739075 4.882 -0.758793
0.724075 4.884 -0.758793
0.652075 4.868 -0.754793
0.635075 4.863 -0.752793
0.620075 4.861 -0.751793
0.604075 4.861 -0.751793
0.588075 4.855 -0.750793
0.573075 4.855 -0.749793
0.533075 4.845 -0.747793
0.517075 4.843 -0.746793
0.502075 4.839 -0.745793
0.486075 4.832 -0.744793
0.471075 4.836 -0.744793
0.439075 4.831 -0.743793
0.400075 4.82 -0.740793
0.385075 4.818 -0.740793
0.354075 4.812 -0.738793
0.339075 4.811 -0.738793
0.331075 4.808 -0.737793
0.316075 4.809 -0.737793
0.300075 4.8 -0.735793
0.285075 4.801 -0.735793
0.270075 4.798 -0.735793
0.255075 4.795 -0.734793
0.239075 4.79 -0.733793
0.217075 4.787 -0.732793
0.202075 4.786 -0.732793
0.186075 4.782 -0.731793
0.171075 4.779 -0.731793
0.156075 4.779 -0.731793
0.141075 4.774 -0.729793
0.126075 4.774 -0.729793
0.103075 4.765 -0.728793
0.0880754 4.759 -0.727793
0.0730754 4.758 -0.726793
0.0580754 4.756 -0.726793
0.0440754 4.756 -0.726793
0.0290754 4.752 -0.725793
2.33008 5.166 -1.04679
2.31008 5.164 -1.04479
2.27708 5.157 -1.04079
2.24108 5.162 -1.03879
2.21808 5.153 -1.03579
2.17808 5.151 -1.03179
2.15608 5.143 -1.02879
2.14508 5.139 -1.02679
2.12408 5.135 -1.02479
2.10508 5.135 -1.02279
2.08408 5.129 -1.01979
2.06208 5.122 -1.01679
2.04508 5.125 -1.01679
2.01908 5.108 -1.01079
2.00408 5.118 -1.01179
1.98908 5.103 -1.00779
1.97408 5.111 -1.00879
1.95408 5.106 -1.00579
1.93508 5.105 -1.00479
1.91108 5.091 -0.999793
1.89508 5.097 -0.999793
1.87508 5.092 -0.997793
1.86608 5.091 -0.996793
1.84208 5.077 -0.992793
1.82508 5.079 -0.991793
1.78808 5.077 -0.988793
1.77008 5.075 -0.986793
1.72008 5.061 -0.980793
1.70408 5.065 -0.980793
1.68408 5.059 -0.977793
4.21508 5.507 -1.37279
2.02808 5.11 -1.06479
2.01108 5.114 -1.06379
1.99208 5.113 -1.06179
0.535075 4.831 -1.01079
0.0890754 -4.196 -0.784793
0.102075 -4.194 -0.784793
0.116075 -4.197 -0.785793
0.129075 -4.191 -0.784793
0.142075 -4.189 -0.783793
0.148075 -4.187 -0.783793
0.161075 -4.184 -0.782793
0.174075 -4.182 -0.782793
0.188075 -4.185 -0.783793
0.201075 -4.179 -0.781793
0.226075 -4.171 -0.780793
0.233075 -4.167 -0.779793
0.246075 -4.164 -0.779793
0.259075 -4.162 -0.778793
0.272075 -4.159 -0.778793
0.285075 -4.168 -0.780793
0.298075 -4.165 -0.780793
0.311075 -4.16 -0.779793
0.318075 -4.16 -0.779793
0.330075 -4.155 -0.778793
0.343075 -4.148 -0.777793
0.356075 -4.147 -0.777793
0.368075 -4.14 -0.776793
0.381075 -4.139 -0.776793
0.395075 -4.139 -0.776793
0.401075 -4.139 -0.776793
0.414075 -4.133 -0.775793
0.427075 -4.134 -0.776793
0.440075 -4.135 -0.776793
0.453075 -4.133 -0.776793
0.465075 -4.126 -0.775793
0.479075 -4.128 -0.776793
0.485075 -4.126 -0.775793
0.498075 -4.122 -0.775793
0.510075 -4.119 -0.774793
0.523075 -4.113 -0.773793
0.536075 -4.11 -0.773793
0.549075 -4.11 -0.773793
0.561075 -4.102 -0.772793
0.569075 -4.115 -0.775793
0.582075 -4.109 -0.774793
0.593075 -4.1 -0.773793
0.607075 -4.102 -0.773793
0.621075 -4.105 -0.775793
0.632075 -4.096 -0.773793
0.646075 -4.102 -0.775793
0.653075 -4.104 -0.776793
0.666075 -4.098 -0.775793
0.678075 -4.092 -0.774793
0.691075 -4.092 -0.774793
0.703075 -4.084 -0.773793
0.717075 -4.088 -0.774793
0.729075 -4.084 -0.774793
0.736075 -4.084 -0.774793
0.748075 -4.078 -0.773793
0.773075 -4.07 -0.773793
0.786075 -4.069 -0.773793
0.801075 -4.076 -0.775793
0.811075 -4.06 -0.772793
0.818075 -4.065 -0.773793
0.833075 -4.072 -0.776793
0.843075 -4.054 -0.772793
0.858075 -4.064 -0.775793
0.872075 -4.064 -0.776793
0.882075 -4.051 -0.773793
0.894075 -4.045 -0.773793
0.903075 -4.057 -0.776793
0.914075 -4.044 -0.773793
0.928075 -4.047 -0.775793
0.943075 -4.052 -0.776793
0.952075 -4.034 -0.773793
0.966075 -4.038 -0.775793
0.981075 -4.045 -0.777793
0.985075 -4.032 -0.774793
0.999075 -4.036 -0.776793
1.01308 -4.039 -0.777793
1.02408 -4.026 -0.775793
1.03508 -4.017 -0.774793
1.05108 -4.029 -0.777793
1.06308 -4.02 -0.776793
1.07708 -4.022 -0.777793
1.08408 -4.024 -0.778793
1.09208 -4.006 -0.775793
1.10608 -4.006 -0.776793
1.12208 -4.014 -0.778793
1.13208 -4.001 -0.776793
1.14508 -4.001 -0.777793
1.15308 -4.005 -0.778793
1.16408 -3.996 -0.777793
1.17708 -3.994 -0.777793
1.19408 -4.003 -0.780793
1.20508 -3.996 -0.779793
1.21808 -3.992 -0.779793
1.23308 -3.996 -0.781793
1.23708 -3.986 -0.779793
1.24908 -3.98 -0.779793
1.26408 -3.986 -0.781793
1.28908 -3.976 -0.781793
1.30408 -3.981 -0.783793
1.31508 -3.973 -0.782793
1.32008 -3.968 -0.781793
1.34708 -3.963 -0.782793
1.35808 -3.957 -0.781793
1.37608 -3.967 -0.785793
1.38508 -3.952 -0.782793
1.39808 -3.949 -0.783793
1.41408 -3.956 -0.785793
1.41908 -3.95 -0.784793
1.43508 -3.955 -0.786793
1.44608 -3.946 -0.786793
1.45908 -3.946 -0.786793
1.47308 -3.943 -0.787793
1.48608 -3.94 -0.787793
1.49808 -3.935 -0.787793
1.50408 -3.933 -0.787793
1.51608 -3.926 -0.787793
1.53008 -3.927 -0.788793
1.54308 -3.924 -0.789793
1.55608 -3.919 -0.789793
1.56908 -3.916 -0.789793
1.58008 -3.926 -0.792793
1.59208 -3.919 -0.792793
1.60608 -3.92 -0.793793
1.61908 -3.917 -0.793793
1.63208 -3.912 -0.793793
1.64608 -3.912 -0.794793
1.66008 -3.91 -0.795793
1.66908 -3.898 -0.794793
1.67608 -3.897 -0.794793
1.69008 -3.895 -0.795793
1.70408 -3.893 -0.796793
1.71708 -3.89 -0.796793
1.73508 -3.897 -0.799793
1.74608 -3.89 -0.799793
1.75908 -3.886 -0.799793
1.76808 -3.889 -0.800793
1.78108 -3.885 -0.801793
1.79408 -3.881 -0.801793
1.80808 -3.879 -0.802793
1.82008 -3.873 -0.802793
1.83608 -3.876 -0.804793
1.84808 -3.87 -0.804793
1.85608 -3.871 -0.805793
1.86708 -3.863 -0.805793
1.89608 -3.86 -0.807793
1.91308 -3.865 -0.809793
1.92508 -3.859 -0.809793
1.93808 -3.854 -0.810793
1.94308 -3.848 -0.809793
1.95908 -3.85 -0.811793
1.97108 -3.844 -0.811793
1.98708 -3.845 -0.812793
2.00108 -3.842 -0.813793
2.01708 -3.843 -0.815793
2.02708 -3.833 -0.814793
2.03708 -3.837 -0.816793
2.05108 -3.834 -0.817793
2.06108 -3.824 -0.816793
2.08008 -3.831 -0.819793
2.09308 -3.826 -0.820793
2.10608 -3.821 -0.820793
2.12108 -3.82 -0.821793
2.13008 -3.822 -0.823793
2.17108 -3.81 -0.825793
2.18308 -3.803 -0.825793
2.20008 -3.805 -0.827793
2.21408 -3.801 -0.828793
2.26608 -3.795 -0.832793
2.30908 -3.785 -0.835793
2.31308 -3.778 -0.834793
2.34008 -3.768 -0.836793
2.39008 -3.769 -0.841793
2.40408 -3.765 -0.842793
2.47108 -3.752 -0.848793
3.57008 -3.513 -0.959793
3.58008 -3.5 -0.958793
3.61108 -3.497 -0.962793
3.63308 -3.496 -0.966793
3.66208 -3.48 -0.968793
3.67808 -3.474 -0.969793
0.0770754 -4.181 -0.816793
0.0900754 -4.181 -0.816793
0.103075 -4.175 -0.814793
0.117075 -4.182 -0.816793
0.123075 -4.176 -0.815793
0.136075 -4.18 -0.816793
0.162075 -4.163 -0.812793
0.175075 -4.165 -0.813793
0.188075 -4.164 -0.813793
0.201075 -4.158 -0.811793
0.207075 -4.155 -0.811793
0.220075 -4.149 -0.810793
0.234075 -4.156 -0.811793
0.247075 -4.155 -0.811793
0.260075 -4.158 -0.812793
0.273075 -4.15 -0.810793
0.285075 -4.145 -0.810793
0.292075 -4.142 -0.809793
0.305075 -4.149 -0.811793
0.317075 -4.135 -0.808793
0.331075 -4.143 -0.810793
0.343075 -4.129 -0.807793
0.356075 -4.131 -0.808793
0.369075 -4.124 -0.806793
0.376075 -4.13 -0.808793
0.388075 -4.121 -0.806793
0.402075 -4.127 -0.808793
0.427075 -4.123 -0.807793
0.439075 -4.112 -0.805793
0.454075 -4.122 -0.808793
0.459075 -4.11 -0.805793
0.473075 -4.118 -0.807793
0.485075 -4.114 -0.807793
0.498075 -4.113 -0.807793
0.511075 -4.107 -0.806793
0.523075 -4.098 -0.804793
0.536075 -4.096 -0.804793
0.544075 -4.107 -0.807793
0.555075 -4.094 -0.804793
0.569075 -4.102 -0.806793
0.594075 -4.09 -0.805793
0.608075 -4.098 -0.807793
0.619075 -4.086 -0.805793
0.626075 -4.085 -0.805793
0.651075 -4.079 -0.804793
0.664075 -4.077 -0.804793
0.676075 -4.071 -0.803793
0.691075 -4.079 -0.806793
0.702075 -4.071 -0.804793
0.710075 -4.078 -0.806793
0.721075 -4.062 -0.803793
0.735075 -4.071 -0.806793
0.748075 -4.069 -0.806793
0.760075 -4.063 -0.805793
0.774075 -4.068 -0.806793
0.788075 -4.067 -0.807793
0.793075 -4.058 -0.805793
0.805075 -4.056 -0.805793
0.818075 -4.055 -0.806793
0.830075 -4.049 -0.805793
0.842075 -4.042 -0.804793
0.857075 -4.047 -0.806793
0.882075 -4.042 -0.806793
0.888075 -4.039 -0.805793
0.902075 -4.041 -0.806793
0.914075 -4.037 -0.806793
0.929075 -4.041 -0.808793
0.939075 -4.027 -0.805793
0.952075 -4.026 -0.806793
0.959075 -4.028 -0.806793
0.971075 -4.023 -0.806793
0.982075 -4.015 -0.805793
0.998075 -4.023 -0.807793
1.00908 -4.014 -0.806793
1.02308 -4.018 -0.808793
1.03608 -4.015 -0.808793
1.04108 -4.008 -0.806793
1.05508 -4.01 -0.808793
1.07008 -4.015 -0.810793
1.09308 -4 -0.808793
1.10808 -4.008 -0.810793
1.12008 -4.001 -0.810793
1.12508 -3.995 -0.809793
1.14008 -4.001 -0.811793
1.15008 -3.986 -0.808793
1.16208 -3.983 -0.808793
1.17608 -3.985 -0.810793
1.18908 -3.983 -0.810793
1.20108 -3.975 -0.809793
1.21608 -3.981 -0.811793
1.23408 -3.973 -0.811793
1.24708 -3.971 -0.811793
1.26208 -3.975 -0.813793
1.27208 -3.963 -0.811793
1.28508 -3.961 -0.812793
1.29808 -3.959 -0.812793
1.30508 -3.959 -0.813793
1.31808 -3.956 -0.813793
1.33008 -3.95 -0.813793
1.35808 -3.951 -0.815793
1.37008 -3.945 -0.814793
1.37808 -3.948 -0.816793
1.39008 -3.944 -0.816793
1.40408 -3.943 -0.816793
1.41608 -3.937 -0.816793
1.42808 -3.933 -0.816793
1.44108 -3.93 -0.816793
1.45408 -3.927 -0.817793
1.46608 -3.923 -0.817793
1.47408 -3.924 -0.818793
1.48708 -3.921 -0.818793
1.50508 -3.931 -0.822793
1.51808 -3.928 -0.822793
1.52608 -3.914 -0.820793
1.54408 -3.922 -0.823793
1.56108 -3.913 -0.823793
1.57408 -3.91 -0.823793
1.58808 -3.909 -0.824793
1.60008 -3.904 -0.824793
1.61608 -3.908 -0.826793
1.62608 -3.897 -0.825793
1.64308 -3.903 -0.827793
1.64908 -3.9 -0.827793
1.67408 -3.89 -0.827793
1.68808 -3.89 -0.829793
1.70008 -3.883 -0.828793
1.71408 -3.883 -0.830793
1.72908 -3.883 -0.831793
1.73708 -3.885 -0.832793
1.74908 -3.878 -0.832793
1.77708 -3.876 -0.834793
1.79108 -3.874 -0.835793
1.80508 -3.874 -0.836793
1.81708 -3.868 -0.836793
1.82408 -3.865 -0.836793
1.84808 -3.854 -0.836793
1.86708 -3.862 -0.840793
1.90608 -3.849 -0.841793
1.92508 -3.844 -0.842793
1.97008 -3.843 -0.846793
1.98108 -3.835 -0.846793
1.99708 -3.836 -0.847793
2.00408 -3.834 -0.848793
2.05808 -3.821 -0.851793
2.08708 -3.816 -0.853793
2.16408 -3.8 -0.858793
2.46108 -3.74 -0.881793
3.19208 -3.583 -0.953793
3.24808 -3.567 -0.959793
3.26208 -3.56 -0.960793
3.29208 -3.548 -0.962793
3.30308 -3.548 -0.964793
3.32208 -3.547 -0.967793
3.33308 -3.536 -0.967793
3.35108 -3.533 -0.969793
1.65108 -3.877 -0.860793
1.68908 -3.867 -0.861793
1.79908 -3.851 -0.869793
1.84108 -3.844 -0.871793
1.95508 -3.818 -0.878793
1.99308 -3.816 -0.881793
2.03108 -3.803 -0.883793
2.04708 -3.803 -0.884793
2.08108 -3.795 -0.887793
2.15708 -3.776 -0.891793
2.23508 -3.773 -0.900793
2.25108 -3.761 -0.899793
2.26408 -3.755 -0.900793
2.27908 -3.753 -0.901793
2.29208 -3.748 -0.902793
2.31508 -3.759 -0.907793
2.32908 -3.743 -0.905793
2.34508 -3.742 -0.907793
2.36008 -3.74 -0.908793
2.41808 -3.726 -0.913793
2.42708 -3.727 -0.914793
2.44408 -3.727 -0.916793
2.45108 -3.713 -0.915793
2.47308 -3.72 -0.919793
2.49708 -3.706 -0.919793
2.51408 -3.706 -0.921793
2.53308 -3.696 -0.922793
2.55508 -3.702 -0.926793
2.58208 -3.693 -0.928793
2.59608 -3.688 -0.929793
2.61508 -3.689 -0.931793
2.62808 -3.684 -0.932793
2.64008 -3.688 -0.935793
2.64908 -3.676 -0.934793
2.66808 -3.677 -0.936793
2.67908 -3.669 -0.936793
2.69908 -3.671 -0.939793
2.73308 -3.658 -0.942793
2.74608 -3.651 -0.942793
2.76608 -3.653 -0.945793
2.77808 -3.646 -0.946793
2.72508 -3.657 -0.978793
2.75308 -3.646 -0.980793
2.76808 -3.642 -0.981793
2.79108 -3.637 -0.984793
2.80408 -3.63 -0.984793
2.82408 -3.633 -0.988793
2.83508 -3.623 -0.987793
2.85008 -3.618 -0.989793
2.86508 -3.614 -0.990793
2.88108 -3.611 -0.992793
2.88808 -3.608 -0.993793
2.90408 -3.605 -0.994793
2.91908 -3.6 -0.996793
2.95808 -3.603 -1.00279
2.96708 -3.591 -1.00179
2.99308 -3.587 -1.00579
3.05408 -3.569 -1.01179
3.08808 -3.563 -1.01579
3.13008 -3.555 -1.02079
3.22208 -3.535 -1.03179
3.32008 -3.518 -1.04479
3.36608 -3.501 -1.04979
3.51608 -3.467 -1.06979
3.56108 -3.457 -1.07579
3.61808 -3.447 -1.08379
3.66608 -3.438 -1.09079
3.67808 -3.428 -1.09079
3.70308 -3.43 -1.09579
3.72608 -3.43 -1.09979
1.84808 -3.813 -0.945793
1.86108 -3.809 -0.946793
0.0690754 -4.13 -0.961793
0.0820754 -4.133 -0.962793
0.0880754 -4.133 -0.962793
0.101075 -4.129 -0.961793
0.114075 -4.129 -0.961793
0.139075 -4.11 -0.956793
0.153075 -4.116 -0.958793
0.165075 -4.115 -0.958793
0.172075 -4.113 -0.957793
0.185075 -4.109 -0.956793
0.210075 -4.1 -0.954793
0.224075 -4.111 -0.957793
0.236075 -4.1 -0.955793
0.249075 -4.107 -0.957793
0.268075 -4.098 -0.955793
0.280075 -4.088 -0.952793
0.294075 -4.096 -0.955793
0.307075 -4.092 -0.954793
0.320075 -4.095 -0.955793
0.331075 -4.08 -0.951793
0.339075 -4.091 -0.954793
0.351075 -4.08 -0.952793
0.364075 -4.077 -0.951793
0.390075 -4.081 -0.953793
0.415075 -4.07 -0.951793
0.421075 -4.066 -0.950793
0.459075 -4.066 -0.951793
0.484075 -4.053 -0.948793
0.509075 -4.052 -0.949793
0.529075 -4.051 -0.949793
0.554075 -4.05 -0.950793
0.580075 -4.046 -0.950793
0.598075 -4.04 -0.949793
0.610075 -4.03 -0.947793
0.623075 -4.032 -0.948793
0.649075 -4.03 -0.948793
0.660075 -4.02 -0.946793
0.674075 -4.024 -0.948793
0.693075 -4.023 -0.948793
0.719075 -4.022 -0.949793
0.730075 -4.01 -0.947793
0.744075 -4.017 -0.949793
0.755075 -4.004 -0.946793
0.762075 -4.008 -0.948793
0.774075 -4.004 -0.947793
0.788075 -4.009 -0.949793
0.799075 -3.997 -0.947793
0.814075 -4.004 -0.949793
0.824075 -3.992 -0.947793
0.839075 -4.002 -0.950793
0.844075 -3.992 -0.948793
0.868075 -3.984 -0.947793
0.882075 -3.987 -0.949793
0.893075 -3.979 -0.947793
0.909075 -3.989 -0.951793
0.919075 -3.977 -0.948793
0.928075 -3.987 -0.951793
0.938075 -3.974 -0.949793
0.953075 -3.979 -0.951793
0.963075 -3.968 -0.949793
0.978075 -3.975 -0.951793
1.00308 -3.967 -0.951793
1.00708 -3.96 -0.949793
1.02208 -3.964 -0.951793
1.03208 -3.953 -0.949793
1.04908 -3.965 -0.953793
1.05908 -3.952 -0.951793
1.07408 -3.962 -0.954793
1.08308 -3.945 -0.951793
1.09108 -3.949 -0.952793
1.10308 -3.944 -0.952793
1.14408 -3.946 -0.955793
1.15708 -3.947 -0.956793
1.16908 -3.939 -0.955793
1.17408 -3.934 -0.954793
1.19708 -3.923 -0.953793
1.21208 -3.926 -0.955793
1.23608 -3.918 -0.955793
1.25808 -3.924 -0.958793
1.26708 -3.909 -0.955793
1.28208 -3.912 -0.957793
1.29408 -3.908 -0.957793
1.33608 -3.912 -0.962793
1.35408 -3.902 -0.961793
1.36408 -3.892 -0.959793
1.37708 -3.892 -0.960793
1.39008 -3.887 -0.960793
1.43108 -3.887 -0.964793
1.43508 -3.879 -0.962793
1.44808 -3.876 -0.963793
1.50808 -3.87 -0.967793
1.53208 -3.859 -0.966793
1.54708 -3.861 -0.968793
1.27008 -3.906 -1.00179
1.31608 -3.901 -1.00379
1.34108 -3.893 -1.00379
1.36408 -3.88 -1.00279
1.37508 -3.874 -1.00279
1.38408 -3.879 -1.00479
1.39708 -3.877 -1.00479
1.41108 -3.876 -1.00579
1.43608 -3.871 -1.00679
1.45808 -3.856 -1.00579
1.47808 -3.853 -1.00679
1.50508 -3.851 -1.00879
1.53408 -3.854 -1.01279
1.55608 -3.839 -1.01079
1.57608 -3.835 -1.01179
1.60108 -3.828 -1.01279
1.70008 -3.809 -1.01879
2.92208 -3.547 -1.13379
3.17408 -3.492 -1.16779
3.19308 -3.49 -1.17079
3.26108 -3.475 -1.17979
3.27608 -3.469 -1.18179
3.29308 -3.477 -1.18679
3.29908 -3.461 -1.18379
3.32308 -3.464 -1.18979
3.34908 -3.469 -1.19479
3.36608 -3.465 -1.19779
3.56808 -3.386 -1.26479
3.58708 -3.383 -1.26879
3.60608 -3.379 -1.27179
3.62008 -3.372 -1.27279
3.64208 -3.371 -1.27779
3.67808 -3.361 -1.28279
3.69308 -3.365 -1.28679
2.09608 -3.716 -1.12479
2.10308 -3.702 -1.12179
3.26708 -3.443 -1.26379
3.28008 -3.435 -1.26479
3.29308 -3.438 -1.26779
3.32408 -3.427 -1.27179
3.35908 -3.419 -1.27679
3.37608 -3.415 -1.27979
3.39508 -3.413 -1.28379
3.40608 -3.413 -1.28579
3.41808 -3.404 -1.28579
3.44008 -3.404 -1.29079
3.46608 -3.408 -1.29679
3.49108 -3.39 -1.29879
3.51708 -3.393 -1.30479
3.52408 -3.389 -1.30479
3.54108 -3.385 -1.30779
3.57008 -3.369 -1.31079
3.59608 -3.372 -1.31679
3.61908 -3.372 -1.32179
3.63208 -3.364 -1.32279
3.64608 -3.366 -1.32679
2.78408 -3.539 -1.22579
2.85408 -3.525 -1.23479
2.87408 -3.526 -1.23879
