5.42821 1.80488 -1.78172
5.42621 1.82288 -1.78272
5.41821 1.83888 -1.78172
5.41621 1.85788 -1.78372
5.40421 1.86288 -1.77972
5.42521 1.88888 -1.78972
5.41021 1.90288 -1.78672
5.40421 1.91988 -1.78672
5.40221 1.93888 -1.78772
5.39421 1.95488 -1.78672
5.38421 1.96988 -1.78572
5.37921 1.97788 -1.78472
5.35921 1.98988 -1.77972
5.37021 2.01288 -1.78672
5.38321 2.03788 -1.79372
5.35621 2.04588 -1.78572
5.36521 2.06888 -1.79172
5.36421 2.08788 -1.79372
5.33821 2.09688 -1.78672
5.32321 2.11988 -1.78472
2.63121 -3.91412 -1.44872
2.63521 -3.89512 -1.44472
2.65321 -3.89412 -1.44772
2.66521 -3.88612 -1.44772
2.68621 -3.86412 -1.44572
2.69621 -3.86512 -1.44772
2.78321 -3.83312 -1.45572
2.78021 -3.81712 -1.45072
2.80121 -3.82012 -1.45572
2.81121 -3.81012 -1.45472
2.81921 -3.79512 -1.45272
2.83121 -3.78612 -1.45272
2.86621 -3.80712 -1.46472
2.99121 -3.72412 -1.46872
3.00721 -3.72112 -1.47172
3.01221 -3.70212 -1.46772
3.03721 -3.70912 -1.47472
3.04721 -3.69812 -1.47372
3.06021 -3.70212 -1.47772
3.07121 -3.69112 -1.47672
3.07521 -3.67212 -1.47372
3.13321 -3.64812 -1.47972
3.18321 -3.55612 -1.46772
3.35221 -3.49312 -1.49072
3.34521 -3.46512 -1.48172
3.40521 -3.42812 -1.48672
3.44121 -3.42112 -1.49372
3.46021 -3.41912 -1.49772
5.34821 0.493879 -1.71572
5.35021 0.510879 -1.71672
5.35121 0.519879 -1.71772
5.35321 0.536879 -1.71872
5.34321 0.645879 -1.71872
5.35521 0.715879 -1.72672
5.33221 0.755879 -1.72072
5.36121 0.793879 -1.73172
5.34921 0.809879 -1.72872
5.36721 0.828879 -1.73572
5.35721 0.844879 -1.73372
5.35821 0.853879 -1.73372
5.36421 0.871879 -1.73772
5.32421 0.882879 -1.72472
5.36321 0.905879 -1.73872
5.35821 0.922879 -1.73772
5.35721 0.939879 -1.73872
5.33121 0.952879 -1.73072
5.36721 0.967879 -1.74372
5.36221 0.983879 -1.74272
5.33921 0.997879 -1.73572
5.33421 1.01388 -1.73572
5.32721 1.02988 -1.73372
5.35121 1.05188 -1.74372
5.35421 1.06988 -1.74572
5.35621 1.08788 -1.74772
5.34521 1.11188 -1.74572
5.33821 1.12788 -1.74472
5.31821 1.14088 -1.73872
5.35321 1.16588 -1.75172
5.33121 1.17888 -1.74572
5.33121 1.18788 -1.74672
5.30521 1.19988 -1.73872
5.33021 1.22288 -1.74872
5.29921 1.23288 -1.73872
5.30421 1.25188 -1.74272
5.28521 1.28288 -1.73872
5.31121 1.29788 -1.74772
5.29921 1.31288 -1.74572
5.31021 1.33288 -1.75072
5.29821 1.34788 -1.74772
5.27921 1.37788 -1.74472
5.27621 1.39488 -1.74472
5.28021 1.40488 -1.74672
5.28021 1.44088 -1.74972
5.29721 1.49888 -1.76072
5.26921 1.50888 -1.75272
5.26421 1.51688 -1.75172
5.26921 1.53588 -1.75572
5.29321 1.56088 -1.76572
5.25221 1.58488 -1.75472
5.24921 1.60188 -1.75572
5.24721 1.61888 -1.75672
5.27821 1.63788 -1.76772
5.24021 1.64388 -1.75672
5.26021 1.66888 -1.76572
5.26721 1.68888 -1.76972
5.25321 1.70288 -1.76672
5.25821 1.72288 -1.77072
5.24621 1.73688 -1.76772
5.23821 1.75288 -1.76772
5.23921 1.76188 -1.76872
5.24321 1.78188 -1.77172
5.23521 1.79688 -1.77172
5.22821 1.81288 -1.77072
5.22421 1.82988 -1.77172
5.22221 1.84788 -1.77272
5.22421 1.85788 -1.77472
5.21621 1.87388 -1.77372
5.21221 1.89088 -1.77472
2.56221 -3.80712 -1.44872
2.57521 -3.80012 -1.44972
2.60321 -3.80212 -1.45572
2.60321 -3.77712 -1.44872
2.62421 -3.78212 -1.45472
2.63721 -3.77612 -1.45472
2.68221 -3.75112 -1.45672
2.69821 -3.74912 -1.45972
2.70921 -3.73912 -1.45872
2.72921 -3.74312 -1.46372
2.74421 -3.73912 -1.46572
2.74821 -3.71912 -1.46172
2.76821 -3.72112 -1.46572
2.89921 -3.65212 -1.47472
2.91221 -3.64612 -1.47572
2.93021 -3.64412 -1.47872
3.11621 -3.51112 -1.48572
3.21421 -3.43212 -1.48772
5.16321 1.37488 -1.76072
5.15021 1.46688 -1.76472
5.11621 1.70388 -1.77772
5.02721 2.02388 -1.78772
2.46621 -3.72812 -1.45472
2.50821 -3.70212 -1.45572
2.51921 -3.69212 -1.45472
2.53821 -3.69512 -1.45972
2.55021 -3.68912 -1.45972
2.56021 -3.67812 -1.45872
2.58021 -3.68212 -1.46372
2.59421 -3.67712 -1.46472
2.59121 -3.66112 -1.45972
2.64721 -3.66612 -1.47272
2.65921 -3.65812 -1.47272
2.66921 -3.64812 -1.47272
2.68421 -3.64412 -1.47472
3.12921 -3.32012 -1.48672
5.05521 1.12488 -1.74572
5.04121 1.14588 -1.74272
5.05421 1.18288 -1.74972
5.04221 1.21388 -1.74872
5.04421 1.25588 -1.75272
5.03221 1.28688 -1.75172
5.03321 1.30388 -1.75372
5.01621 1.33288 -1.74972
5.01421 1.34888 -1.75072
5.01321 1.35788 -1.75172
5.01621 1.37488 -1.75372
4.99821 1.40388 -1.75072
5.01221 1.42488 -1.75772
5.00621 1.43988 -1.75672
4.98421 1.46788 -1.75172
5.00721 1.48288 -1.76172
5.00621 1.49988 -1.76272
5.00721 1.51688 -1.76472
4.97821 1.52588 -1.75572
4.99321 1.54788 -1.76372
4.98121 1.56088 -1.76072
4.97521 1.57588 -1.75972
4.96921 1.59988 -1.76072
4.97821 1.61988 -1.76572
4.98721 1.64088 -1.77172
4.97321 1.65288 -1.76772
4.97721 1.67188 -1.77172
4.94921 1.67988 -1.76272
4.96421 1.69388 -1.76972
4.97121 1.71288 -1.77472
4.96221 1.72788 -1.77272
4.96721 1.74688 -1.77672
4.93721 1.75388 -1.76772
4.94721 1.77488 -1.77372
4.93521 1.77988 -1.76972
4.94421 1.79988 -1.77572
4.93821 1.81588 -1.77572
4.93421 1.83188 -1.77672
4.94621 1.85388 -1.78272
4.91621 1.85988 -1.77372
4.92621 1.88188 -1.77972
4.92521 1.88988 -1.78072
4.92221 1.90688 -1.78172
4.91221 1.93888 -1.78272
4.89321 1.94888 -1.77772
4.88721 1.96388 -1.77772
2.05921 -3.81512 -1.44372
2.08321 -3.80412 -1.44372
2.08921 -3.80112 -1.44372
2.11621 -3.82112 -1.45472
2.16921 -3.77612 -1.44972
2.18921 -3.79712 -1.45972
2.19721 -3.78312 -1.45772
2.21021 -3.77812 -1.45772
2.22821 -3.78212 -1.46272
2.22821 -3.75412 -1.45372
2.24121 -3.74912 -1.45472
2.26121 -3.75612 -1.46072
2.26121 -3.74312 -1.45672
2.29721 -3.69712 -1.44972
2.33121 -3.72512 -1.46472
2.34021 -3.71412 -1.46272
2.34821 -3.70012 -1.45972
2.34521 -3.68212 -1.45372
2.46421 -3.65112 -1.46872
2.49521 -3.64812 -1.47372
2.50021 -3.63012 -1.46872
2.52621 -3.63212 -1.47472
2.51021 -3.58412 -1.45772
2.55821 -3.58012 -1.46672
2.65121 -3.55612 -1.47872
2.83921 -3.42212 -1.48272
2.96721 -3.33512 -1.48972
3.05021 -3.24912 -1.48672
4.93121 0.502879 -1.71372
4.93221 0.565879 -1.71672
4.92521 0.619879 -1.71672
4.92921 0.636879 -1.71872
4.92921 0.651879 -1.71972
4.92521 0.667879 -1.71872
4.92821 0.683879 -1.72072
4.92621 0.698879 -1.72072
4.91921 0.705879 -1.71872
4.93321 0.739879 -1.72572
4.91421 0.752879 -1.71972
4.92121 0.769879 -1.72272
4.91921 0.784879 -1.72272
4.91421 0.799879 -1.72272
4.93021 0.810879 -1.72872
4.90121 0.821879 -1.71872
4.91021 0.838879 -1.72272
4.90721 0.854879 -1.72272
4.91421 0.871879 -1.72672
4.90221 0.885879 -1.72272
4.91521 0.903879 -1.72872
4.90121 0.916879 -1.72472
4.90921 0.926879 -1.72872
4.91721 0.944879 -1.73272
4.90521 0.957879 -1.72872
4.90021 0.972879 -1.72872
4.90321 0.989879 -1.73072
4.91821 1.00888 -1.73772
4.90421 1.02188 -1.73372
4.90221 1.02988 -1.73372
4.89321 1.04388 -1.73172
4.89721 1.06088 -1.73372
4.90321 1.07788 -1.73772
4.88521 1.08988 -1.73172
4.88221 1.10588 -1.73172
4.88421 1.11388 -1.73372
4.88521 1.13088 -1.73572
4.87521 1.14488 -1.73272
4.85521 1.15588 -1.72672
4.87821 1.17788 -1.73672
4.86521 1.19088 -1.73372
4.85621 1.20488 -1.73172
4.86521 1.22288 -1.73572
4.85421 1.24488 -1.73372
4.85421 1.26088 -1.73572
4.84421 1.27488 -1.73372
4.84921 1.30888 -1.73772
4.83221 1.36088 -1.73772
4.83521 1.37888 -1.74072
4.83721 1.41188 -1.74472
4.82421 1.44988 -1.74372
4.82021 1.48188 -1.74572
4.81421 1.51288 -1.74672
4.81421 1.53788 -1.74972
4.79921 1.56588 -1.74772
4.80721 1.60288 -1.75472
4.78821 1.61288 -1.74972
4.79021 1.62988 -1.75172
4.79121 1.63888 -1.75372
4.79821 1.65788 -1.75872
4.78621 1.68788 -1.75772
4.77021 1.69888 -1.75372
4.77321 1.71688 -1.75672
4.77021 1.73288 -1.75772
4.77421 1.74288 -1.76072
4.75621 1.75288 -1.75572
4.75621 1.76988 -1.75772
4.74821 1.80188 -1.75872
4.75421 1.83788 -1.76572
4.74121 1.84188 -1.76172
4.74621 1.86088 -1.76572
4.73421 1.87288 -1.76372
4.72521 1.88688 -1.76272
2.53321 -3.49512 -1.47872
2.55021 -3.49512 -1.48172
2.56421 -3.46812 -1.47672
2.58521 -3.47312 -1.48272
2.80621 -3.32412 -1.49072
2.85421 -3.28612 -1.49172
2.90621 -3.26212 -1.49772
2.94521 -3.23312 -1.49872
4.74721 1.17588 -1.74472
4.74721 1.20688 -1.74772
4.73621 1.27588 -1.75072
4.72921 1.28988 -1.74972
4.72121 1.30388 -1.74772
4.72621 1.32088 -1.75172
4.72121 1.35188 -1.75272
4.71721 1.37488 -1.75372
4.71021 1.38888 -1.75272
4.71021 1.40488 -1.75372
4.70521 1.41988 -1.75372
4.71021 1.43688 -1.75772
4.70821 1.46088 -1.75972
4.69421 1.50488 -1.75972
4.61621 1.87388 -1.77972
2.09721 -3.56812 -1.45972
2.12021 -3.54412 -1.45572
2.13621 -3.54512 -1.45972
2.20321 -3.51712 -1.46372
2.22221 -3.52312 -1.46972
2.22721 -3.50712 -1.46572
2.23821 -3.50012 -1.46572
2.25121 -3.49612 -1.46672
2.25621 -3.47912 -1.46272
2.33421 -3.46812 -1.47572
2.35021 -3.46812 -1.47872
2.35821 -3.45612 -1.47672
2.36921 -3.46212 -1.48072
2.36421 -3.42912 -1.46972
2.74421 -3.22212 -1.49472
4.59421 1.24288 -1.74572
4.57621 1.30788 -1.74572
2.44521 -3.28112 -1.48572
2.45321 -3.27112 -1.48472
2.54221 -3.19712 -1.48272
1.81221 -3.48212 -1.46972
1.86021 -3.46712 -1.47372
1.86021 -3.27912 -1.47872
2.20421 -3.10112 -1.49372
4.08821 1.35388 -1.74672
4.07421 1.36288 -1.74172
4.07321 1.37688 -1.74372
4.07421 1.39188 -1.74572
4.06321 1.39488 -1.74172
4.07221 1.41288 -1.74772
4.06421 1.42388 -1.74672
4.05621 1.43588 -1.74472
4.05221 1.44788 -1.74472
4.05321 1.46288 -1.74772
4.04621 1.47488 -1.74672
4.05221 1.48488 -1.75072
4.04321 1.49488 -1.74772
4.04321 1.50988 -1.75072
4.03321 1.52088 -1.74772
4.03221 1.53488 -1.74972
4.02921 1.54788 -1.75072
4.02721 1.56188 -1.75172
4.02021 1.58088 -1.75172
4.02321 1.59688 -1.75572
4.02221 1.61088 -1.75772
4.01021 1.62088 -1.75472
4.00521 1.63388 -1.75472
4.00421 1.65488 -1.75772
4.00021 1.66888 -1.75872
3.92521 1.88888 -1.76772
1.73821 -3.22312 -1.46872
1.77321 -3.23812 -1.48172
2.04421 -3.10212 -1.49172
13.0312 -2.94812 0.654279
13.6012 -2.96412 0.673279
13.8292 -2.96812 0.680279
14.0402 -2.96612 0.687279
17.7622 -3.05212 0.812279
18.1282 -3.05612 0.824279
18.5162 -3.06112 0.837279
18.9032 -3.06312 0.850279
19.3352 -3.07012 0.864279
12.9992 -2.95812 0.568279
13.1972 -2.96012 0.573279
13.3862 -2.95912 0.578279
14.2142 -2.98012 0.601279
14.4442 -2.98112 0.607279
14.6872 -2.98412 0.613279
14.9352 -2.98612 0.620279
15.7102 -3.01412 0.641279
15.9862 -3.01512 0.649279
16.3002 -3.02212 0.657279
16.6242 -3.02812 0.666279
16.9292 -3.02912 0.674279
17.2712 -3.03512 0.683279
17.6452 -3.04412 0.694279
20.7602 -3.11812 0.778279
13.2022 -2.97212 0.509279
13.3992 -2.97112 0.514279
13.5962 -2.97012 0.518279
13.8042 -2.97012 0.523279
14.2352 -2.99112 0.533279
14.4682 -2.99212 0.538279
14.7182 -2.99612 0.543279
14.9632 -2.99612 0.549279
15.2272 -2.99912 0.555279
15.4982 -3.00112 0.561279
16.3672 -3.03512 0.580279
16.6852 -3.03912 0.588279
17.0002 -3.04112 0.595279
17.3502 -3.04712 0.602279
17.7202 -3.05412 0.611279
18.1042 -3.06112 0.619279
13.1772 -2.97412 0.406279
13.3732 -2.97412 0.409279
13.5742 -2.97412 0.412279
13.7852 -2.97612 0.415279
13.9822 -2.97312 0.418279
14.6882 -3.00412 0.429279
14.9332 -3.00512 0.432279
15.1772 -3.00512 0.436279
15.4442 -3.00812 0.440279
15.7302 -3.01312 0.444279
16.0242 -3.01812 0.449279
16.3192 -3.02112 0.453279
18.7422 -3.07912 0.490279
20.8152 -3.12112 0.521279
13.4242 -2.98012 0.339279
13.6272 -2.98012 0.341279
14.7582 -3.00712 0.352279
15.0072 -3.00812 0.355279
15.2832 -3.01312 0.358279
20.3242 -3.11012 0.408279
13.5852 -2.98512 0.244279
13.7902 -2.98512 0.244279
14.0082 -2.98712 0.245279
15.4772 -3.02412 0.250279
20.2632 -3.11412 0.264279
13.8772 -2.99412 0.177279
14.0922 -2.99412 0.177279
14.3052 -2.99212 0.177279
15.5652 -3.02412 0.175279
15.8662 -3.03012 0.174279
16.1702 -3.03512 0.174279
12.9662 -2.96012 0.0942792
13.3622 -2.98512 0.0912792
13.5572 -2.98412 0.0902792
13.7802 -2.98812 0.0882792
13.9772 -2.98612 0.0862792
14.2152 -2.99012 0.0842792
14.4432 -2.99112 0.0832792
15.1902 -3.02312 0.0772792
15.4452 -3.02412 0.0752792
15.7332 -3.02912 0.0732792
16.0352 -3.03612 0.0702792
16.3452 -3.04212 0.0682792
18.7162 -3.09312 0.0492792
20.2902 -3.12612 0.0372792
12.9612 -2.96812 0.0122792
13.1522 -2.96812 0.0102792
13.5652 -2.99312 0.00427923
13.7692 -2.99312 0.00127923
13.9982 -2.99612 -0.00172077
14.2242 -2.99712 -0.00472077
14.4792 -3.00312 -0.00872077
14.7122 -3.00312 -0.0117208
16.3992 -3.05012 -0.0347208
16.7282 -3.05612 -0.0397208
13.1712 -2.98612 -0.0847208
13.3792 -2.98912 -0.0887208
13.5912 -2.99212 -0.0937208
20.3032 -3.14012 -0.594721
20.3162 -3.14112 -0.717721
23.9792 -3.23212 -1.30072
24.5282 -3.22712 -1.33472
15.8032 -3.05212 -0.911721
16.9382 -3.08112 -0.988721
17.2742 -3.08612 -1.01172
17.9932 -3.09912 -1.06072
18.3622 -3.10412 -1.08572
12.3792 -2.97112 -0.743721
14.2792 -3.02312 -0.880721
14.6722 -3.03312 -0.908721
14.9082 -3.03312 -0.926721
15.1782 -3.03712 -0.945721
15.4482 -3.04112 -0.965721
15.7322 -3.04512 -0.985721
16.0432 -3.05212 -1.00872
16.3562 -3.05812 -1.03172
13.4452 -2.99512 -0.910721
14.7792 -3.02712 -1.01572
15.0352 -3.03112 -1.03572
15.3122 -3.03712 -1.05772
15.5952 -3.04312 -1.08072
15.8932 -3.05012 -1.10372
16.2252 -3.06112 -1.13072
23.8402 -3.24112 -1.73572
5.25221 -2.82112 -0.317721
14.9982 -3.03412 -1.12072
15.2792 -3.04012 -1.14472
15.5762 -3.04812 -1.16972
15.8892 -3.05712 -1.19672
21.8052 -3.19912 -1.70072
14.0062 -3.01212 -1.12272
14.2432 -3.01712 -1.14372
20.1142 -3.16012 -1.67672
11.9702 -2.97212 -1.01772
12.0732 -2.97812 -1.02772
13.3442 -3.00112 -1.14972
13.5752 -3.00712 -1.17172
13.7982 -3.01112 -1.19372
14.0292 -3.01512 -1.21572
14.2732 -3.02012 -1.23972
14.5242 -3.02512 -1.26372
11.3162 -2.96412 -1.02772
12.4122 -2.98412 -1.13872
13.7992 -3.02412 -1.28072
14.0262 -3.02812 -1.30372
14.2732 -3.03512 -1.32972
14.5162 -3.03912 -1.35472
14.7572 -3.04212 -1.37872
10.3282 -2.93712 -0.997721
10.3922 -2.93812 -1.00472
11.2712 -2.95612 -1.09972
11.5822 -2.97812 -1.13272
11.7372 -2.97912 -1.14972
11.8802 -2.97512 -1.16472
12.0652 -2.98012 -1.18572
12.2502 -2.98512 -1.20572
12.4242 -2.98612 -1.22372
12.5232 -2.98912 -1.23472
12.7222 -2.99312 -1.25672
12.9102 -2.99412 -1.27672
13.1322 -3.00212 -1.30072
13.3392 -3.00512 -1.32372
13.5622 -3.01012 -1.34772
13.7892 -3.01512 -1.37272
9.44721 -2.92712 -0.964721
10.3422 -2.94212 -1.06572
10.4912 -2.94912 -1.08272
10.6152 -2.94812 -1.09672
10.8822 -2.96712 -1.12772
11.0172 -2.96812 -1.14272
11.1652 -2.97012 -1.15972
11.2932 -2.96712 -1.17372
11.4582 -2.97212 -1.19272
11.5982 -2.97012 -1.20872
11.7392 -2.98612 -1.22472
12.2682 -2.99912 -1.28572
13.3252 -3.01712 -1.40672
13.5382 -3.02112 -1.43072
4.89121 -2.81912 -0.500721
4.95821 -2.82612 -0.507721
4.98221 -2.81912 -0.510721
5.01521 -2.81712 -0.513721
5.07121 -2.82712 -0.520721
5.11121 -2.82812 -0.524721
5.15021 -2.82812 -0.528721
5.17121 -2.81912 -0.530721
8.85721 -2.90412 -0.951721
9.59121 -2.92712 -1.03872
9.71421 -2.93112 -1.05372
10.0592 -2.94912 -1.09472
10.2972 -2.94812 -1.12272
10.4212 -2.94712 -1.13672
10.5642 -2.95212 -1.15372
10.6962 -2.95212 -1.16972
11.1202 -2.97412 -1.22072
11.2772 -2.97812 -1.23972
11.4332 -2.98012 -1.25772
11.5552 -2.97312 -1.27272
11.7612 -2.98612 -1.29672
12.0372 -2.99612 -1.33072
12.8752 -3.01012 -1.43072
13.5332 -3.02812 -1.50972
8.21421 -2.90612 -0.921721
9.18221 -2.91412 -1.03972
9.28521 -2.91512 -1.05272
9.48821 -2.93012 -1.07772
9.60621 -2.93412 -1.09172
9.72121 -2.93612 -1.10672
9.82521 -2.93412 -1.11872
9.93921 -2.93512 -1.13272
10.0622 -2.93712 -1.14772
10.1822 -2.93712 -1.16272
10.2882 -2.95112 -1.17672
10.4212 -2.95412 -1.19272
10.5262 -2.94812 -1.20572
10.6882 -2.95812 -1.22572
10.8292 -2.96012 -1.24372
10.9642 -2.96112 -1.25972
11.5382 -2.98112 -1.33172
11.7222 -2.99012 -1.35472
12.6322 -2.99312 -1.46772
5.03421 -2.81812 -0.585721
5.11821 -2.82212 -0.595721
7.66721 -2.88312 -0.912721
7.69921 -2.88212 -0.916721
8.26221 -2.90012 -0.988721
8.37021 -2.90812 -1.00272
8.64921 -2.91312 -1.03872
8.72421 -2.90712 -1.04772
8.83721 -2.91412 -1.06272
9.13121 -2.93112 -1.10072
9.23121 -2.93112 -1.11372
9.33721 -2.93212 -1.12772
9.44821 -2.93412 -1.14172
9.57921 -2.94112 -1.15872
10.0102 -2.95212 -1.21472
10.1222 -2.95112 -1.22972
10.2532 -2.95412 -1.24672
10.3832 -2.95512 -1.26372
11.2072 -2.97912 -1.37172
4.89921 -2.82512 -0.608721
4.97821 -2.82912 -0.618721
5.02621 -2.83612 -0.625721
5.08621 -2.83912 -0.632721
5.12621 -2.84012 -0.637721
7.03421 -2.87112 -0.883721
7.08521 -2.86712 -0.890721
7.55821 -2.88112 -0.953721
7.65021 -2.88912 -0.965721
7.71721 -2.88712 -0.974721
8.02521 -2.90312 -1.01672
8.12021 -2.90912 -1.02972
8.20121 -2.90912 -1.04072
8.29621 -2.91412 -1.05372
8.44721 -2.90812 -1.07272
8.61521 -2.92112 -1.09572
8.70121 -2.92012 -1.10772
8.80021 -2.92312 -1.12072
8.90321 -2.92612 -1.13472
8.98421 -2.92212 -1.14572
9.07921 -2.92212 -1.15872
9.27621 -2.93712 -1.18572
9.35721 -2.93112 -1.19672
9.60821 -2.94412 -1.23072
9.71821 -2.94412 -1.24572
9.83921 -2.94812 -1.26272
10.6902 -2.96812 -1.37872
4.90621 -2.83312 -0.635721
4.93421 -2.82812 -0.639721
5.06721 -2.83112 -0.656721
5.11921 -2.83812 -0.663721
5.15621 -2.83712 -0.667721
6.72321 -2.86912 -0.876721
7.42721 -2.89412 -0.972721
7.49921 -2.89512 -0.982721
7.71921 -2.89612 -1.01272
7.77221 -2.88812 -1.01972
8.16721 -2.90212 -1.07472
8.24721 -2.90212 -1.08572
8.33721 -2.90312 -1.09772
8.43921 -2.90912 -1.11272
8.60921 -2.92212 -1.13672
8.70421 -2.92312 -1.14972
8.77221 -2.91512 -1.15872
8.86721 -2.91612 -1.17172
8.99721 -2.92712 -1.19072
9.08921 -2.92512 -1.20372
9.27621 -2.93712 -1.22972
9.38021 -2.93712 -1.24472
9.48221 -2.93612 -1.25872
9.59921 -2.93912 -1.27472
9.70321 -2.93712 -1.28972
9.81121 -2.93612 -1.30472
10.1742 -2.95612 -1.35572
10.7112 -2.96612 -1.43172
4.90621 -2.82512 -0.676721
4.95921 -2.83612 -0.683721
4.98021 -2.82712 -0.686721
5.01821 -2.82812 -0.691721
5.07021 -2.83712 -0.698721
5.09821 -2.83112 -0.702721
6.68521 -2.85912 -0.922721
6.90121 -2.87612 -0.954721
7.03721 -2.88212 -0.973721
7.10721 -2.88412 -0.983721
7.21221 -2.88812 -0.999721
7.36021 -2.89412 -1.02072
7.43021 -2.89512 -1.03072
7.55721 -2.89012 -1.04872
7.69621 -2.90212 -1.06872
7.92521 -2.90412 -1.10272
7.99721 -2.90312 -1.11272
8.08121 -2.90512 -1.12472
8.40321 -2.91812 -1.17172
8.57721 -2.91812 -1.19672
8.66121 -2.91612 -1.20872
9.34421 -2.93712 -1.30972
9.75621 -2.95112 -1.37072
10.8722 -2.97612 -1.53572
8.63721 -2.91212 -1.32872
8.92521 -2.91512 -1.37272
9.31021 -2.92612 -1.43072
5.04721 -2.82912 -0.856721
5.07621 -2.82512 -0.860721
5.12321 -2.83012 -0.868721
5.49521 -2.83712 -0.924721
5.76421 -2.84212 -0.965721
5.81321 -2.85412 -0.973721
5.84721 -2.84812 -0.977721
6.12721 -2.85612 -1.02172
6.18421 -2.85912 -1.03072
6.23621 -2.86012 -1.03872
6.28421 -2.85812 -1.04572
6.33121 -2.85612 -1.05272
6.47221 -2.85912 -1.07472
6.53921 -2.86412 -1.08572
6.59121 -2.86312 -1.09372
6.65621 -2.86612 -1.10372
6.71421 -2.86612 -1.11272
6.77721 -2.86912 -1.12272
6.83421 -2.86712 -1.13072
6.88521 -2.87612 -1.13972
6.94221 -2.87512 -1.14872
7.01421 -2.87912 -1.15972
7.07821 -2.88012 -1.16972
7.14621 -2.88112 -1.18072
7.21121 -2.88212 -1.19072
7.27221 -2.87912 -1.20072
7.32721 -2.88812 -1.20972
7.40121 -2.89112 -1.22172
7.49121 -2.89912 -1.23572
7.53621 -2.89012 -1.24272
7.60821 -2.89012 -1.25372
7.68521 -2.89212 -1.26672
7.82621 -2.90312 -1.28872
7.91521 -2.90812 -1.30372
7.98121 -2.90512 -1.31372
8.06521 -2.90612 -1.32672
8.15021 -2.90912 -1.34072
8.22421 -2.90612 -1.35272
8.30221 -2.90512 -1.36472
8.39721 -2.92412 -1.38072
8.47421 -2.92012 -1.39272
8.55221 -2.91812 -1.40572
8.65021 -2.92112 -1.42172
4.91921 -2.82912 -0.888721
4.95821 -2.83112 -0.894721
5.00221 -2.83412 -0.901721
5.03321 -2.83112 -0.906721
5.06921 -2.83112 -0.911721
5.11121 -2.83312 -0.918721
5.15321 -2.83412 -0.925721
5.17421 -2.83612 -0.928721
5.21421 -2.83612 -0.934721
5.24421 -2.83112 -0.938721
5.29021 -2.83412 -0.946721
5.33521 -2.83612 -0.953721
5.41421 -2.83512 -0.965721
5.43921 -2.83712 -0.970721
5.48221 -2.83712 -0.976721
5.52621 -2.83712 -0.983721
5.58021 -2.84312 -0.992721
5.62421 -2.84312 -0.999721
5.66921 -2.84312 -1.00672
5.74921 -2.84912 -1.02072
5.79321 -2.84812 -1.02772
5.83421 -2.84612 -1.03372
5.88821 -2.84912 -1.04272
5.98521 -2.84912 -1.05772
6.08521 -2.86112 -1.07472
6.12421 -2.85612 -1.08072
6.17821 -2.85712 -1.08972
6.22421 -2.85512 -1.09672
6.33721 -2.85812 -1.11572
6.43021 -2.86312 -1.13072
6.49121 -2.86612 -1.14072
6.78421 -2.86812 -1.18872
6.84721 -2.88112 -1.19972
6.89121 -2.87412 -1.20672
6.97821 -2.88412 -1.22172
7.04521 -2.88612 -1.23272
7.09621 -2.88112 -1.24072
7.15721 -2.87912 -1.25072
7.22621 -2.88012 -1.26172
7.27721 -2.88712 -1.27072
7.35221 -2.89012 -1.28372
7.42521 -2.89212 -1.29572
7.48721 -2.88912 -1.30572
7.57021 -2.89312 -1.31972
7.65721 -2.89812 -1.33472
7.72121 -2.89512 -1.34472
7.79221 -2.90712 -1.35772
7.86821 -2.90712 -1.36972
7.93121 -2.90212 -1.37972
8.01921 -2.90512 -1.39572
8.10421 -2.90712 -1.40972
8.18021 -2.90512 -1.42172
4.90321 -2.83512 -0.928721
4.94321 -2.83712 -0.935721
4.97921 -2.83712 -0.940721
5.01721 -2.83812 -0.947721
5.05121 -2.83712 -0.952721
5.07621 -2.84112 -0.956721
5.11421 -2.84112 -0.963721
5.15321 -2.84112 -0.969721
5.19121 -2.84112 -0.975721
5.21921 -2.83512 -0.979721
5.25521 -2.83412 -0.985721
5.30721 -2.84112 -0.994721
5.33921 -2.84812 -1.00072
5.36721 -2.84112 -1.00472
5.41821 -2.84612 -1.01272
5.45021 -2.84112 -1.01772
5.49021 -2.84012 -1.02472
5.53421 -2.84112 -1.03172
5.59821 -2.84112 -1.04172
5.64921 -2.84512 -1.05072
5.78821 -2.84812 -1.07372
5.94121 -2.86612 -1.10072
5.98921 -2.86612 -1.10872
6.04621 -2.87012 -1.11872
6.09421 -2.87012 -1.12672
6.12221 -2.86012 -1.13072
6.16321 -2.85512 -1.13772
6.25421 -2.86212 -1.15272
6.31421 -2.86612 -1.16372
6.37321 -2.86912 -1.17372
6.42921 -2.87012 -1.18272
6.47221 -2.86512 -1.18972
6.52621 -2.86512 -1.19872
6.63521 -2.87612 -1.21872
6.70521 -2.88112 -1.23072
6.76721 -2.88312 -1.24172
6.82621 -2.88312 -1.25172
6.88621 -2.88312 -1.26172
6.93021 -2.87612 -1.26872
6.99321 -2.87712 -1.27972
7.06521 -2.89412 -1.29272
7.19421 -2.89412 -1.31472
7.26521 -2.89712 -1.32772
7.33321 -2.89712 -1.33872
7.39121 -2.89412 -1.34872
7.46121 -2.89412 -1.36072
7.51621 -2.90212 -1.37072
7.66921 -2.90612 -1.39772
7.72621 -2.90012 -1.40672
7.80821 -2.90412 -1.42172
4.89721 -2.83912 -0.978721
4.92121 -2.83312 -0.981721
4.96421 -2.83712 -0.989721
4.98621 -2.83812 -0.992721
5.03421 -2.84512 -1.00172
5.11121 -2.84512 -1.01472
5.15021 -2.84612 -1.02172
5.22521 -2.84412 -1.03372
5.34321 -2.85412 -1.05472
5.38121 -2.85312 -1.06172
5.42921 -2.85612 -1.06972
5.45321 -2.84712 -1.07372
5.49921 -2.84812 -1.08172
5.52821 -2.85212 -1.08672
5.56721 -2.85012 -1.09272
5.61121 -2.85012 -1.10072
5.65121 -2.84812 -1.10772
5.69721 -2.84912 -1.11572
5.73621 -2.84512 -1.12172
5.78721 -2.84812 -1.13072
5.81821 -2.85212 -1.13672
5.88921 -2.86312 -1.14972
5.94221 -2.86612 -1.15972
6.03821 -2.86512 -1.17672
6.09021 -2.86612 -1.18572
6.13121 -2.86212 -1.19272
6.17721 -2.87112 -1.20072
6.28621 -2.87412 -1.22072
6.34021 -2.87412 -1.22972
6.38821 -2.87212 -1.23872
6.43321 -2.86712 -1.24572
6.48321 -2.86512 -1.25472
6.53321 -2.87512 -1.26372
6.67421 -2.88612 -1.28972
6.72621 -2.88412 -1.29872
6.78721 -2.88412 -1.30972
6.85321 -2.88712 -1.32172
6.89821 -2.88012 -1.32972
7.71621 -2.91012 -1.47872
7.77121 -2.90312 -1.48872
4.90321 -2.83512 -1.04472
4.93221 -2.83112 -1.04972
4.97621 -2.83612 -1.05872
5.00921 -2.83412 -1.06372
5.04321 -2.83312 -1.06972
5.08121 -2.83312 -1.07672
5.12121 -2.83412 -1.08372
5.14121 -2.83512 -1.08772
5.18121 -2.83612 -1.09472
5.22921 -2.84112 -1.10472
5.34021 -2.83712 -1.12372
5.41021 -2.84212 -1.13772
5.44721 -2.84012 -1.14372
6.01821 -2.85712 -1.25072
6.11621 -2.85712 -1.26872
6.27821 -2.86112 -1.29872
6.37221 -2.86812 -1.31672
6.42521 -2.86812 -1.32672
6.49121 -2.87412 -1.33972
6.53621 -2.86912 -1.34772
6.59221 -2.86912 -1.35872
6.76721 -2.88312 -1.39272
6.82121 -2.88112 -1.40272
6.88821 -2.88412 -1.41572
6.94221 -2.88112 -1.42572
4.93021 -2.84712 -1.10472
4.96621 -2.84712 -1.11172
5.00421 -2.84812 -1.11872
5.04521 -2.85012 -1.12672
5.08021 -2.84912 -1.13372
5.18521 -2.85412 -1.15372
5.22321 -2.85312 -1.16072
5.26821 -2.85612 -1.16972
5.29921 -2.85112 -1.17472
5.33821 -2.85012 -1.18172
5.36621 -2.85512 -1.18772
5.40621 -2.85412 -1.19572
5.44721 -2.85312 -1.20272
5.49521 -2.85712 -1.21272
5.53621 -2.85512 -1.21972
5.57821 -2.85512 -1.22772
5.61521 -2.85112 -1.23472
5.65621 -2.86112 -1.24372
5.69821 -2.86012 -1.25172
5.73321 -2.85512 -1.25772
5.79221 -2.86112 -1.26972
5.84521 -2.86412 -1.28072
5.88021 -2.85812 -1.28672
5.92621 -2.85712 -1.29572
5.97621 -2.87012 -1.30672
6.02121 -2.86812 -1.31472
6.07721 -2.87112 -1.32572
6.13421 -2.87412 -1.33772
6.17021 -2.86712 -1.34372
6.21821 -2.86612 -1.35272
6.27521 -2.86812 -1.36372
6.32421 -2.87812 -1.37472
6.37421 -2.87712 -1.38472
6.43521 -2.88012 -1.39672
6.48221 -2.87612 -1.40572
6.54821 -2.88112 -1.41872
6.60221 -2.87912 -1.42972
4.97121 -2.84912 -1.16072
5.44621 -2.85712 -1.25372
5.49121 -2.85812 -1.26272
5.65321 -2.86512 -1.29572
5.69621 -2.86512 -1.30472
5.74921 -2.86912 -1.31472
5.79521 -2.86912 -1.32472
6.07021 -2.87712 -1.38072
6.11321 -2.87412 -1.38872
4.87021 -2.83712 -1.18972
4.90121 -2.83412 -1.19472
4.94121 -2.84612 -1.20472
4.97421 -2.84412 -1.21072
5.01121 -2.84512 -1.21872
5.05621 -2.84912 -1.22772
5.09621 -2.85012 -1.23572
5.14221 -2.85512 -1.24572
5.17221 -2.85012 -1.25172
5.32521 -2.85812 -1.28372
5.36121 -2.85512 -1.29072
5.39321 -2.85012 -1.29672
5.43821 -2.85212 -1.30572
5.47021 -2.85812 -1.31372
5.50921 -2.85612 -1.32072
5.55621 -2.85812 -1.33072
5.60021 -2.85812 -1.33972
5.63821 -2.85512 -1.34772
5.68721 -2.85812 -1.35772
5.73121 -2.85712 -1.36672
5.76021 -2.86012 -1.37372
5.80921 -2.86212 -1.38372
5.86421 -2.86512 -1.39572
5.91121 -2.86512 -1.40572
5.95621 -2.86412 -1.41472
6.02121 -2.87212 -1.42872
6.11021 -2.87912 -1.44872
6.19621 -2.87112 -1.46572
5.46721 -2.86412 -1.36372
5.55221 -2.86512 -1.38172
5.81321 -2.87412 -1.43872
4.87221 -2.84712 -1.29672
4.90721 -2.84712 -1.30372
4.98421 -2.85012 -1.32072
5.03021 -2.85512 -1.33172
5.05221 -2.85612 -1.33672
5.07621 -2.84912 -1.34072
5.14321 -2.84412 -1.35472
5.18321 -2.84512 -1.36372
5.22821 -2.84812 -1.37372
5.26421 -2.84612 -1.38172
5.30821 -2.85812 -1.39272
5.34221 -2.85512 -1.39972
5.36321 -2.84512 -1.40372
5.41021 -2.84812 -1.41472
5.46421 -2.85412 -1.42672
5.58621 -2.86212 -1.45472
5.62121 -2.85712 -1.46272
4.83521 -2.84412 -1.34572
4.87021 -2.84412 -1.35372
4.88921 -2.83512 -1.35672
4.94221 -2.85512 -1.37172
4.97321 -2.85212 -1.37772
4.99821 -2.84612 -1.38272
5.04821 -2.85412 -1.39472
5.07021 -2.84612 -1.39872
5.14421 -2.84512 -1.41572
5.16721 -2.84712 -1.42172
5.20421 -2.84712 -1.42972
5.24621 -2.84812 -1.43972
5.28221 -2.84612 -1.44772
5.32321 -2.84712 -1.45672
5.41621 -2.85412 -1.47872
5.44621 -2.85912 -1.48672
5.50021 -2.86512 -1.49972
5.21621 -2.86312 -1.50072
18.7902 5.57888 0.865279
18.5892 5.58288 0.858279
18.0902 5.58788 0.842279
17.9142 5.59488 0.837279
17.7402 5.60188 0.831279
17.5702 5.60788 0.826279
18.5262 5.57688 0.733279
15.9362 5.63188 0.666279
15.4052 5.63688 0.652279
15.2672 5.64088 0.649279
15.1282 5.64388 0.645279
15.0052 5.65188 0.642279
14.8752 5.65688 0.639279
14.6452 5.64888 0.633279
14.5192 5.65288 0.630279
14.4022 5.65988 0.627279
14.2882 5.66688 0.624279
11.7152 5.70688 0.560279
11.6442 5.71688 0.558279
11.5542 5.71888 0.556279
11.4822 5.72788 0.554279
11.2912 5.72188 0.549279
11.0782 5.72388 0.544279
10.9982 5.72688 0.542279
18.9732 5.55888 0.652279
14.6832 5.65988 0.560279
19.0662 5.54888 0.503279
18.5532 5.55888 0.495279
15.9602 5.61788 0.458279
15.8332 5.62888 0.456279
15.1682 5.63688 0.447279
15.0332 5.63988 0.445279
14.9102 5.64788 0.443279
14.3062 5.65188 0.435279
14.1992 5.66188 0.433279
13.9642 5.67088 0.430279
15.9272 5.62488 0.371279
15.6632 5.61488 0.368279
15.5292 5.62188 0.367279
15.3892 5.62588 0.366279
15.2572 5.63188 0.365279
15.1322 5.63988 0.363279
14.9992 5.64288 0.362279
14.7682 5.63588 0.360279
14.6372 5.63788 0.359279
14.5242 5.64688 0.358279
14.4022 5.65088 0.357279
14.2882 5.65788 0.356279
14.0732 5.64988 0.354279
13.9592 5.65488 0.352279
11.3622 5.71788 0.329279
11.4692 5.69488 0.240279
11.3012 5.69988 0.240279
18.9752 5.54588 0.169279
15.8182 5.60688 0.0672792
15.6852 5.61488 0.0682792
15.5472 5.62088 0.0692792
15.3992 5.62288 0.0702792
15.1622 5.61788 0.0712792
15.0192 5.61888 0.0732792
14.8952 5.62588 0.0732792
14.7782 5.63488 0.0742792
14.6442 5.63688 0.0752792
14.5242 5.64288 0.0762792
14.4262 5.63088 0.0772792
14.2942 5.63188 0.0782792
14.1722 5.63588 0.0792792
14.0752 5.64788 0.0792792
13.9572 5.65188 0.0802792
11.7212 5.69988 0.0962792
11.5712 5.69388 0.0972792
11.4882 5.69888 0.0982792
11.3972 5.69788 0.0992792
11.3272 5.70788 0.0992792
11.2432 5.70988 0.100279
11.1612 5.71288 0.100279
11.0952 5.70088 0.101279
15.9332 5.59388 -0.0377208
15.7892 5.59888 -0.0357208
15.5082 5.60788 -0.0327208
15.1452 5.61088 -0.0277208
15.0002 5.61088 -0.0257208
14.8942 5.62488 -0.0247208
14.7382 5.61888 -0.0227208
14.6442 5.63488 -0.0207208
14.1822 5.63688 -0.0147208
14.0472 5.63388 -0.0137208
13.9522 5.64588 -0.0117208
11.5982 5.69588 0.0172792
11.5122 5.69888 0.0192792
11.4242 5.69988 0.0202792
11.2652 5.70888 0.0222792
18.5372 5.53488 -0.207721
15.7152 5.59788 -0.151721
15.5732 5.60288 -0.148721
15.4372 5.60888 -0.145721
14.8062 5.61888 -0.133721
14.6822 5.62488 -0.131721
14.5602 5.63088 -0.128721
13.9902 5.63988 -0.117721
15.8652 5.59588 -0.240721
15.7252 5.60188 -0.237721
15.2082 5.60688 -0.224721
15.0882 5.61588 -0.221721
14.9472 5.61688 -0.218721
14.3672 5.63088 -0.204721
14.2432 5.63388 -0.201721
14.1272 5.63888 -0.198721
15.5942 5.58388 -0.332721
15.4642 5.59288 -0.328721
15.3262 5.59688 -0.324721
15.1982 5.60488 -0.320721
15.0662 5.60988 -0.316721
14.7072 5.60888 -0.305721
14.5682 5.60888 -0.301721
14.4722 5.62388 -0.299721
14.3412 5.62588 -0.295721
14.0272 5.62988 -0.285721
11.4612 5.68588 -0.211721
11.3802 5.69088 -0.209721
11.2932 5.69188 -0.206721
11.2212 5.69988 -0.204721
18.5372 5.51988 -0.548721
15.7352 5.58488 -0.446721
15.4692 5.59988 -0.436721
14.7152 5.61488 -0.409721
18.5312 5.52288 -0.662721
15.8962 5.56888 -0.552721
15.7692 5.58088 -0.546721
15.6352 5.58888 -0.541721
15.4862 5.58988 -0.535721
15.2382 5.58188 -0.524721
15.1092 5.58988 -0.519721
14.9762 5.59388 -0.513721
14.8642 5.60588 -0.509721
14.7142 5.60188 -0.503721
14.3852 5.60688 -0.489721
14.2612 5.61088 -0.484721
14.1582 5.62188 -0.480721
14.0422 5.62688 -0.475721
13.8242 5.61588 -0.466721
13.7142 5.62188 -0.462721
13.6042 5.62688 -0.457721
13.5072 5.63588 -0.453721
13.4012 5.64188 -0.449721
13.2872 5.64288 -0.444721
13.0912 5.63388 -0.436721
13.0042 5.64488 -0.433721
12.8932 5.64488 -0.428721
12.8112 5.65688 -0.425721
12.7002 5.65588 -0.421721
12.3302 5.65488 -0.406721
12.2482 5.66488 -0.403721
12.1432 5.66288 -0.398721
11.9742 5.67588 -0.392721
11.7382 5.67788 -0.382721
11.6462 5.67888 -0.379721
11.4692 5.68188 -0.372721
11.1722 5.68988 -0.360721
18.5012 5.51788 -0.772721
15.7412 5.56688 -0.641721
15.6072 5.57388 -0.635721
15.4562 5.57488 -0.628721
14.5842 5.59788 -0.587721
14.1342 5.60388 -0.566721
14.0142 5.60688 -0.561721
13.9092 5.61588 -0.556721
13.8082 5.62488 -0.551721
13.6852 5.62488 -0.546721
13.2722 5.62588 -0.526721
13.1842 5.63788 -0.523721
13.0642 5.63488 -0.517721
12.9692 5.64188 -0.513721
12.6952 5.64088 -0.500721
12.6042 5.64788 -0.496721
12.5102 5.65288 -0.492721
12.4102 5.65488 -0.487721
12.3222 5.66088 -0.483721
12.1502 5.65088 -0.475721
12.0642 5.65688 -0.472721
11.9722 5.65988 -0.468721
11.8822 5.66288 -0.464721
11.8052 5.67188 -0.460721
11.5572 5.66388 -0.449721
11.3952 5.67288 -0.442721
11.3092 5.67488 -0.438721
11.2452 5.68688 -0.435721
11.0922 5.67488 -0.428721
18.4872 5.50888 -0.894721
15.2232 5.57588 -0.720721
15.0962 5.58388 -0.713721
14.4812 5.59088 -0.681721
14.3632 5.59688 -0.675721
14.2412 5.60188 -0.668721
13.9222 5.60388 -0.652721
13.6962 5.61288 -0.640721
13.5842 5.61788 -0.634721
13.4712 5.61988 -0.628721
13.0742 5.62488 -0.608721
12.9682 5.62788 -0.602721
12.8762 5.63588 -0.598721
12.4112 5.64388 -0.574721
12.3182 5.64888 -0.569721
12.2232 5.65188 -0.564721
11.8852 5.65588 -0.547721
11.8012 5.66088 -0.543721
11.7092 5.66288 -0.539721
11.6232 5.66688 -0.534721
11.5442 5.67288 -0.530721
11.3902 5.66488 -0.522721
11.3082 5.66788 -0.518721
11.2372 5.67688 -0.515721
11.1492 5.67688 -0.511721
11.0752 5.68288 -0.507721
18.5242 5.49388 -0.999721
15.7282 5.56188 -0.835721
15.5982 5.57088 -0.828721
15.4662 5.57888 -0.820721
15.3232 5.58088 -0.812721
14.8312 5.58688 -0.784721
14.7132 5.59488 -0.777721
14.5812 5.59688 -0.770721
14.0212 5.60988 -0.738721
13.8032 5.62288 -0.725721
13.2792 5.62888 -0.696721
15.8472 5.55088 -0.959721
15.7072 5.55788 -0.950721
15.5752 5.56588 -0.942721
14.9282 5.57488 -0.900721
14.8042 5.58188 -0.892721
14.6802 5.58788 -0.885721
14.3342 5.58588 -0.862721
14.2142 5.59088 -0.855721
14.1132 5.60288 -0.849721
13.9812 5.60188 -0.840721
13.8802 5.61188 -0.834721
13.7862 5.59888 -0.828721
13.6722 5.60388 -0.821721
13.5572 5.60588 -0.813721
13.4562 5.61388 -0.807721
13.3412 5.61588 -0.800721
13.2462 5.62488 -0.794721
13.1472 5.63188 -0.788721
12.9502 5.61988 -0.775721
12.8592 5.62888 -0.770721
12.7492 5.62888 -0.763721
12.6602 5.63688 -0.757721
12.5712 5.64488 -0.752721
12.4682 5.64588 -0.746721
12.3032 5.64188 -0.735721
12.2052 5.64388 -0.729721
12.1222 5.65188 -0.724721
12.0322 5.65588 -0.719721
11.9442 5.66088 -0.713721
11.8492 5.66088 -0.707721
11.7882 5.65488 -0.703721
11.6892 5.65288 -0.697721
11.6212 5.66488 -0.693721
11.5312 5.66688 -0.688721
11.4522 5.67288 -0.683721
11.3602 5.67188 -0.677721
11.2042 5.66088 -0.668721
11.1422 5.67288 -0.664721
11.0532 5.67188 -0.659721
18.8952 5.47288 -1.25472
18.7172 5.48488 -1.24272
15.3732 5.56988 -1.00972
15.2412 5.57688 -1.00072
15.7702 5.54588 -1.14672
15.6342 5.55288 -1.13672
15.4952 5.55888 -1.12672
15.3632 5.56588 -1.11672
15.2312 5.57288 -1.10672
14.9862 5.56388 -1.08772
14.8582 5.56988 -1.07872
14.7382 5.57788 -1.06972
14.6162 5.58388 -1.06072
14.5002 5.59188 -1.05272
14.3722 5.59488 -1.04272
14.2722 5.58188 -1.03472
14.1562 5.58888 -1.02672
14.0442 5.59588 -1.01872
13.9412 5.60588 -1.01072
13.5012 5.60288 -0.978721
13.3972 5.60888 -0.970721
13.2952 5.61588 -0.963721
13.1962 5.62288 -0.956721
13.0912 5.62688 -0.948721
12.7112 5.63088 -0.920721
12.6112 5.63388 -0.913721
12.5132 5.63788 -0.906721
12.4232 5.64388 -0.900721
12.0672 5.64388 -0.874721
11.9822 5.65088 -0.868721
11.8982 5.65688 -0.862721
11.4892 5.66388 -0.832721
11.4072 5.66788 -0.827721
15.3572 5.55688 -1.20972
15.2162 5.55888 -1.19872
15.0892 5.56588 -1.18872
14.6132 5.57388 -1.14972
14.4882 5.57788 -1.14072
14.3742 5.58588 -1.13172
14.2652 5.59488 -1.12272
14.1372 5.59488 -1.11272
14.0522 5.58688 -1.10572
13.9442 5.59488 -1.09772
13.8232 5.59688 -1.08772
13.7132 5.60188 -1.07872
13.3042 5.60588 -1.04672
13.2072 5.61388 -1.03972
13.0942 5.61388 -1.03072
12.9002 5.62688 -1.01572
12.6302 5.62688 -0.994721
12.5322 5.63088 -0.986721
12.3452 5.63888 -0.972721
12.2512 5.64288 -0.964721
12.1542 5.64388 -0.957721
12.0922 5.63888 -0.952721
11.9922 5.63788 -0.944721
11.9242 5.65088 -0.939721
11.8362 5.65488 -0.933721
11.6532 5.65788 -0.919721
11.5012 5.65088 -0.907721
11.3412 5.66088 -0.895721
11.2702 5.66888 -0.889721
11.1792 5.66688 -0.882721
15.7672 5.53588 -1.34172
14.8612 5.56288 -1.26372
14.7352 5.56888 -1.25372
14.3942 5.56988 -1.22472
14.2892 5.58088 -1.21572
14.1582 5.58088 -1.20472
14.0462 5.58888 -1.19472
13.9382 5.59588 -1.18572
13.7362 5.59088 -1.16872
13.6212 5.59388 -1.15872
13.5152 5.60088 -1.15072
13.4052 5.60488 -1.14072
13.3052 5.61188 -1.13272
13.2172 5.59988 -1.12472
13.1092 5.60288 -1.11572
13.0062 5.60688 -1.10772
12.9222 5.61988 -1.10072
12.8212 5.62388 -1.09272
12.7232 5.62888 -1.08472
12.5542 5.62488 -1.06972
12.4622 5.63088 -1.06272
12.3632 5.63288 -1.05472
11.8402 5.64488 -1.01172
11.7512 5.64788 -1.00372
13.4762 5.58788 -1.23972
13.0902 5.59688 -1.20472
12.9922 5.60288 -1.19572
12.8852 5.60488 -1.18672
12.8052 5.61788 -1.17972
12.4422 5.62188 -1.14772
12.3322 5.61888 -1.13772
12.2622 5.63288 -1.13172
12.1632 5.63388 -1.12272
12.0872 5.62188 -1.11572
11.9132 5.63188 -1.10072
11.8172 5.63088 -1.09172
11.7432 5.64188 -1.08572
11.6572 5.64588 -1.07872
11.5752 5.65088 -1.07172
11.4842 5.65088 -1.06372
11.4342 5.64788 -1.05872
12.5982 5.60888 -1.24572
12.5172 5.61988 -1.23872
12.3562 5.61888 -1.22372
12.2692 5.62588 -1.21572
12.1792 5.63088 -1.20672
12.0842 5.63388 -1.19772
11.9172 5.62488 -1.18172
11.8312 5.62988 -1.17372
11.7572 5.63988 -1.16772
14.7572 5.55188 -1.55572
14.2972 5.55888 -1.50872
14.1892 5.56788 -1.49772
14.0752 5.57388 -1.48572
13.9582 5.57788 -1.47372
13.6472 5.57788 -1.44172
13.5432 5.58488 -1.43172
13.4142 5.58088 -1.41872
13.3162 5.58888 -1.40872
13.2252 5.59988 -1.39972
13.0342 5.59088 -1.37972
12.9492 5.60288 -1.37172
12.8442 5.60488 -1.36072
12.7482 5.61088 -1.35172
12.4792 5.60888 -1.32472
12.3982 5.61988 -1.31672
12.2882 5.61588 -1.30572
12.2022 5.62288 -1.29672
12.1212 5.63188 -1.28972
12.0302 5.63488 -1.28072
11.7752 5.62888 -1.25472
14.5442 5.55088 -1.62972
13.8562 5.56588 -1.55472
13.7452 5.57088 -1.54272
13.2342 5.58388 -1.48872
13.1342 5.59088 -1.47772
13.0382 5.59888 -1.46772
12.7512 5.59488 -1.43672
12.6502 5.59788 -1.42672
12.5562 5.60388 -1.41672
12.4732 5.61388 -1.40772
12.3802 5.61888 -1.39872
12.2752 5.61888 -1.38772
12.1102 5.61188 -1.36972
15.4152 5.52388 -1.81772
14.5502 5.54988 -1.71972
14.1002 5.55588 -1.66772
13.9872 5.56188 -1.65572
13.8742 5.56788 -1.64272
13.7682 5.57488 -1.63072
13.6512 5.57788 -1.61772
13.4602 5.57288 -1.59572
13.3492 5.57588 -1.58372
13.2452 5.58188 -1.57172
13.1462 5.58788 -1.56072
12.8792 5.59488 -1.53172
12.7692 5.59388 -1.51872
12.6812 5.60288 -1.50972
12.5892 5.60888 -1.49972
12.4972 5.61488 -1.48972
12.3982 5.61788 -1.47872
12.2162 5.60488 -1.45772
12.0662 5.62688 -1.44172
14.4142 5.54888 -1.89072
14.3042 5.55788 -1.87672
12.4812 5.60688 -1.65272
12.3862 5.61088 -1.64172
12.2822 5.60988 -1.62872
13.0322 5.57588 -1.87872
5.56821 5.86588 0.476279
5.34821 5.86788 0.471279
5.22221 5.87688 0.468279
5.10621 5.87488 0.465279
5.04621 5.87888 0.464279
2.75621 5.93088 0.423279
2.73221 5.92688 0.423279
2.71221 5.93388 0.423279
2.68621 5.92588 0.422279
2.67821 5.93188 0.422279
2.65621 5.93288 0.422279
2.63221 5.92888 0.421279
2.58821 5.93088 0.421279
2.56421 5.92588 0.420279
2.54521 5.93188 0.420279
2.53421 5.93388 0.420279
2.51221 5.93288 0.420279
2.48921 5.93088 0.420279
2.44821 5.93588 0.419279
2.42721 5.93788 0.419279
2.40421 5.93588 0.419279
2.39621 5.94188 0.419279
2.37221 5.93588 0.418279
2.35021 5.93588 0.418279
2.33221 5.94388 0.418279
2.30721 5.93388 0.417279
2.28621 5.93788 0.417279
2.26621 5.93888 0.417279
2.25521 5.93888 0.417279
2.23621 5.94388 0.417279
2.21021 5.93188 0.416279
2.18921 5.93388 0.416279
2.17021 5.93888 0.416279
2.14721 5.93388 0.416279
2.12521 5.93188 0.415279
2.10721 5.93788 0.415279
2.07721 5.94388 0.415279
2.05521 5.94088 0.415279
2.03521 5.94188 0.415279
2.01421 5.94288 0.414279
1.99121 5.93588 0.414279
1.97221 5.93988 0.414279
1.96421 5.94888 0.414279
1.94021 5.93588 0.413279
1.92021 5.93788 0.413279
1.90121 5.94388 0.413279
1.87921 5.93888 0.413279
1.86321 5.95388 0.413279
1.83821 5.93888 0.412279
1.82721 5.93788 0.412279
1.80821 5.93988 0.412279
1.79121 5.95288 0.412279
1.76921 5.94488 0.412279
1.72721 5.94088 0.411279
1.70721 5.94088 0.411279
1.67821 5.94688 0.411279
1.65721 5.94188 0.411279
1.61821 5.94688 0.411279
1.59821 5.94788 0.410279
1.56821 5.94988 0.410279
1.54721 5.94488 0.410279
1.53021 5.95388 0.410279
1.42321 5.96288 0.409279
1.38121 5.95488 0.409279
9.62921 5.75188 0.510279
9.49721 5.75388 0.507279
9.43821 5.75888 0.505279
9.38721 5.76888 0.504279
9.28221 5.76488 0.502279
9.21921 5.76588 0.500279
8.97321 5.77088 0.495279
8.93521 5.76688 0.494279
8.87721 5.76888 0.493279
8.82321 5.77388 0.491279
8.76321 5.77388 0.490279
8.70521 5.77488 0.489279
8.65421 5.77988 0.488279
8.59721 5.78188 0.486279
1.34221 5.95888 0.369279
1.23621 5.96988 0.369279
1.21521 5.96388 0.369279
1.19521 5.95988 0.369279
1.17421 5.95288 0.368279
1.15521 5.95488 0.368279
1.13621 5.95888 0.368279
1.11621 5.95388 0.368279
1.10721 5.95788 0.368279
1.08821 5.95788 0.368279
1.06921 5.96088 0.368279
1.05021 5.95988 0.368279
1.02921 5.95588 0.368279
1.01121 5.95888 0.368279
0.992212 5.96188 0.368279
6.14221 5.84688 0.394279
5.90121 5.85088 0.391279
5.82621 5.84888 0.389279
5.79621 5.85588 0.389279
5.72521 5.85688 0.388279
5.69221 5.85988 0.387279
5.67321 5.85888 0.387279
5.63721 5.85788 0.386279
5.60621 5.86288 0.386279
5.50321 5.86388 0.384279
5.45221 5.86488 0.384279
5.41621 5.86288 0.383279
5.38321 5.86388 0.383279
5.35221 5.86688 0.382279
5.23721 5.86888 0.380279
5.20721 5.87188 0.380279
5.16921 5.86588 0.379279
5.10921 5.87188 0.379279
5.04621 5.87388 0.378279
5.02921 5.87288 0.377279
4.99921 5.87488 0.377279
4.96721 5.87288 0.376279
4.93421 5.87188 0.376279
4.90321 5.87188 0.376279
4.87821 5.87988 0.375279
2.23821 5.94288 0.346279
2.19721 5.94488 0.346279
2.14421 5.94488 0.345279
2.12121 5.94088 0.345279
2.08021 5.94288 0.345279
2.06021 5.94488 0.345279
2.04821 5.94088 0.344279
2.03021 5.94788 0.344279
1.96721 5.94688 0.344279
1.94421 5.93988 0.344279
1.91521 5.94588 0.344279
1.85321 5.94388 0.343279
1.83321 5.94588 0.343279
1.81321 5.94788 0.343279
1.79221 5.94388 0.343279
1.77121 5.94388 0.343279
1.76421 5.95288 0.343279
1.74321 5.94988 0.342279
1.72221 5.94788 0.342279
1.70221 5.94988 0.342279
1.68121 5.94488 0.342279
1.65921 5.94088 0.342279
1.63221 5.95088 0.342279
1.61221 5.95188 0.342279
1.59221 5.95288 0.342279
1.57121 5.94588 0.341279
1.55421 5.95688 0.341279
1.53321 5.95388 0.341279
1.51221 5.94888 0.341279
1.50221 5.95188 0.341279
1.48221 5.94988 0.341279
1.46221 5.94688 0.341279
1.44521 5.95988 0.341279
1.42521 5.95788 0.341279
1.38621 5.95888 0.341279
1.37421 5.95388 0.340279
1.35721 5.96188 0.341279
9.53421 5.75988 0.370279
9.00721 5.77588 0.363279
8.80321 5.78288 0.361279
8.74421 5.78488 0.360279
6.38121 5.83188 0.332279
6.34521 5.83588 0.332279
6.30321 5.83388 0.331279
6.28821 5.83888 0.331279
6.23921 5.82988 0.331279
6.20321 5.83288 0.330279
6.16721 5.83588 0.330279
6.12621 5.83288 0.329279
6.05121 5.83588 0.329279
5.88021 5.83388 0.327279
5.81221 5.83888 0.326279
5.72021 5.83788 0.325279
5.68621 5.83988 0.325279
2.56021 5.91688 0.299279
1.29821 5.94688 0.293279
1.04021 5.97088 0.293279
1.00221 5.97188 0.293279
9.19321 5.76588 0.310279
8.98821 5.77488 0.308279
6.39221 5.83888 0.288279
6.25321 5.83888 0.287279
5.90121 5.84788 0.284279
5.08821 5.86388 0.279279
4.92021 5.87088 0.278279
2.69121 5.92488 0.266279
2.55921 5.92888 0.266279
2.52721 5.92988 0.265279
2.50421 5.92788 0.265279
2.41921 5.93288 0.265279
2.39821 5.93488 0.265279
2.38621 5.93188 0.265279
2.36521 5.93388 0.265279
2.34121 5.92588 0.265279
2.32121 5.92988 0.265279
2.30121 5.93488 0.265279
2.25721 5.93088 0.264279
2.24821 5.93588 0.264279
2.22721 5.93588 0.264279
2.20521 5.93288 0.264279
2.18421 5.93488 0.264279
2.16221 5.93188 0.264279
2.12121 5.93588 0.264279
2.10921 5.93188 0.264279
2.08921 5.93288 0.264279
2.06721 5.93188 0.264279
2.05021 5.94188 0.264279
2.02921 5.94088 0.264279
1.98621 5.93788 0.264279
1.97821 5.94288 0.264279
1.95821 5.94588 0.264279
1.93621 5.94188 0.263279
1.91621 5.94388 0.263279
1.89521 5.94088 0.263279
1.87421 5.94088 0.263279
1.85521 5.94488 0.263279
1.84221 5.93588 0.263279
1.82521 5.94788 0.263279
1.80121 5.93488 0.263279
1.78121 5.93788 0.263279
1.76421 5.94788 0.263279
1.74121 5.93988 0.263279
1.71921 5.93388 0.263279
1.70321 5.94888 0.263279
1.69121 5.93988 0.263279
1.67321 5.94888 0.263279
1.65321 5.94988 0.263279
1.63021 5.93788 0.263279
1.61221 5.94688 0.263279
1.59321 5.94988 0.263279
1.57221 5.94288 0.262279
1.56321 5.94988 0.262279
1.54321 5.95088 0.262279
1.52321 5.94788 0.262279
1.50421 5.95288 0.262279
1.48521 5.95488 0.262279
1.46321 5.94588 0.262279
1.44421 5.94888 0.262279
1.41321 5.94188 0.262279
1.39321 5.94288 0.262279
1.33421 5.94388 0.262279
1.05921 5.94788 0.219279
9.44921 5.73688 0.112279
9.39721 5.74488 0.112279
9.33221 5.74688 0.113279
9.27021 5.74888 0.113279
9.22321 5.75988 0.113279
8.94021 5.76088 0.115279
8.88521 5.76488 0.115279
8.82721 5.76688 0.116279
8.77621 5.75388 0.116279
8.72321 5.75788 0.117279
8.66621 5.75988 0.117279
8.61021 5.76188 0.117279
8.55721 5.76588 0.118279
8.50421 5.76888 0.118279
6.33421 5.81388 0.131279
6.12821 5.82388 0.132279
6.08921 5.82388 0.133279
5.91921 5.82388 0.134279
5.88221 5.82488 0.134279
5.72221 5.82888 0.135279
5.69121 5.83388 0.135279
5.65221 5.82988 0.135279
5.61921 5.83388 0.135279
5.58321 5.83288 0.135279
5.57021 5.83688 0.135279
5.46621 5.83788 0.136279
5.43821 5.84488 0.136279
5.40421 5.84488 0.136279
5.37321 5.84888 0.136279
5.31721 5.84288 0.137279
5.22821 5.85488 0.137279
5.18921 5.84788 0.137279
5.07321 5.84588 0.138279
4.95021 5.85088 0.139279
4.93421 5.85188 0.139279
2.68021 5.92188 0.148279
2.65121 5.90588 0.148279
2.63121 5.91088 0.148279
2.59021 5.91988 0.148279
2.55821 5.92088 0.148279
2.53121 5.91088 0.148279
2.51621 5.92588 0.148279
2.48821 5.91188 0.148279
2.46921 5.91988 0.148279
2.40021 5.91088 0.149279
2.39621 5.92788 0.149279
2.37221 5.92288 0.149279
2.32621 5.91488 0.149279
2.31121 5.93188 0.149279
2.28521 5.91788 0.149279
2.26621 5.92588 0.149279
2.23221 5.91888 0.149279
2.19221 5.92588 0.149279
2.14721 5.92088 0.149279
2.12721 5.92388 0.149279
2.01421 5.92688 0.150279
1.99321 5.92788 0.150279
1.96021 5.92188 0.150279
1.45121 5.94388 0.151279
1.23621 5.94688 0.151279
1.21521 5.94088 0.151279
1.18821 5.95488 0.151279
9.48121 5.73688 0.0432792
9.43221 5.74788 0.0442792
8.76721 5.76588 0.0512792
8.71121 5.76788 0.0522792
8.65321 5.76788 0.0532792
8.59321 5.76788 0.0542792
1.32721 5.94488 0.113279
1.21121 5.95188 0.113279
6.18621 5.82388 0.0202792
6.15021 5.82688 0.0202792
5.96921 5.83588 0.0232792
5.94721 5.83288 0.0232792
5.90921 5.83188 0.0242792
5.87521 5.83488 0.0242792
5.83621 5.83388 0.0252792
5.80221 5.83688 0.0262792
5.72921 5.83588 0.0272792
5.70421 5.82888 0.0272792
5.67421 5.83388 0.0272792
5.61321 5.84488 0.0282792
5.57021 5.83688 0.0292792
5.53421 5.83588 0.0292792
5.45221 5.84088 0.0312792
5.42121 5.84488 0.0312792
5.38021 5.83688 0.0322792
5.31521 5.83988 0.0332792
5.26621 5.84088 0.0332792
5.23921 5.84888 0.0332792
5.20121 5.84288 0.0342792
5.13521 5.84188 0.0352792
5.07621 5.84888 0.0362792
5.05721 5.84588 0.0362792
5.02821 5.84988 0.0362792
5.00321 5.85788 0.0372792
4.96321 5.84788 0.0372792
4.90221 5.84988 0.0382792
4.87721 5.85788 0.0382792
4.84421 5.85588 0.0392792
2.62721 5.90188 0.0632792
2.55321 5.91088 0.0632792
2.47521 5.90888 0.0642792
2.43221 5.90988 0.0642792
2.39221 5.91688 0.0642792
2.36621 5.90788 0.0652792
2.34721 5.91388 0.0652792
2.34021 5.92288 0.0652792
2.29321 5.91088 0.0652792
2.27221 5.91288 0.0652792
2.25121 5.91488 0.0652792
2.23121 5.91788 0.0652792
2.20021 5.91888 0.0662792
2.17621 5.91288 0.0662792
2.13621 5.91688 0.0662792
2.11521 5.91788 0.0662792
2.07221 5.91588 0.0672792
2.05321 5.92088 0.0672792
2.02121 5.91888 0.0672792
2.00121 5.92088 0.0672792
1.96021 5.92088 0.0672792
1.94021 5.92288 0.0672792
1.90821 5.92088 0.0682792
1.88821 5.92088 0.0682792
1.82621 5.92088 0.0682792
1.78921 5.93088 0.0682792
1.77621 5.92388 0.0682792
1.73621 5.92488 0.0692792
1.49921 5.93588 0.0702792
1.45821 5.93188 0.0702792
1.43821 5.93088 0.0702792
1.39921 5.93188 0.0702792
1.38021 5.93588 0.0702792
1.29321 5.94288 0.0712792
8.98221 5.74588 -0.0797208
5.34321 5.84888 -0.00872077
5.16321 5.85188 -0.00572077
5.06521 5.84988 -0.00372077
4.99021 5.85588 -0.00272077
4.95721 5.85488 -0.00172077
4.93021 5.85988 -0.00172077
4.89621 5.85688 -0.000720765
4.86921 5.86088 -0.000720765
2.57921 5.91688 0.0292792
2.51321 5.91688 0.0302792
2.41321 5.91088 0.0312792
2.39321 5.91688 0.0312792
2.34721 5.90688 0.0322792
2.33221 5.92388 0.0322792
2.29521 5.91288 0.0322792
2.16821 5.91088 0.0342792
2.12121 5.92788 0.0342792
2.03321 5.91488 0.0352792
2.02921 5.93288 0.0342792
2.00321 5.91888 0.0352792
1.81021 5.92188 0.0362792
1.77121 5.92788 0.0362792
1.69921 5.92588 0.0372792
1.59221 5.93488 0.0382792
1.36521 5.93988 0.0392792
1.23821 5.93688 0.0402792
1.23121 5.95188 0.0392792
9.43721 5.73088 -0.155721
9.32121 5.74088 -0.152721
9.18321 5.73588 -0.148721
8.96421 5.73788 -0.142721
8.86421 5.75288 -0.140721
8.71721 5.75488 -0.136721
8.66421 5.75888 -0.135721
