3.19715 5.37994 -0.38178
3.16815 5.36894 -0.37978
3.15915 5.37294 -0.37978
3.12815 5.35894 -0.37678
3.10315 5.35494 -0.37578
6.47415 5.99394 -0.67378
6.42315 5.98394 -0.66978
6.38115 5.98294 -0.66678
6.34115 5.96394 -0.66278
6.29215 5.95494 -0.65878
6.19315 5.93494 -0.64978
6.15615 5.93594 -0.64778
6.10715 5.92594 -0.64378
6.06915 5.92594 -0.64078
6.02515 5.90194 -0.63578
5.98715 5.90094 -0.63278
5.93415 5.88594 -0.62878
5.89915 5.88794 -0.62578
5.85015 5.87494 -0.62178
5.82015 5.88194 -0.61978
5.76815 5.86694 -0.61578
5.73015 5.84594 -0.61178
5.69915 5.85094 -0.60978
5.65415 5.84094 -0.60578
5.56815 5.82494 -0.59878
5.53515 5.82594 -0.59678
5.48115 5.80594 -0.59178
5.44915 5.80894 -0.58978
5.42115 5.79694 -0.58678
5.37615 5.78394 -0.58278
5.33815 5.77894 -0.57978
5.30615 5.78094 -0.57778
5.26515 5.77294 -0.57478
5.21615 5.75494 -0.57078
5.15115 5.73694 -0.56478
5.12215 5.74094 -0.56278
5.08215 5.73194 -0.55978
5.04515 5.72694 -0.55678
5.00515 5.71694 -0.55378
4.94915 5.70694 -0.54978
4.90715 5.69394 -0.54578
4.87015 5.68694 -0.54278
4.83215 5.67894 -0.53978
4.80115 5.67794 -0.53778
4.76915 5.67594 -0.53578
4.73015 5.66594 -0.53278
4.70515 5.65394 -0.52978
4.67815 5.65794 -0.52878
4.63015 5.63494 -0.52378
4.60315 5.63794 -0.52178
4.57015 5.63294 -0.51978
4.52915 5.61794 -0.51578
4.49915 5.61694 -0.51378
4.46715 5.61394 -0.51178
4.41115 5.59694 -0.50778
4.38315 5.59694 -0.50578
4.34315 5.58194 -0.50178
4.31615 5.58294 -0.50078
4.28415 5.57794 -0.49778
4.24415 5.56094 -0.49478
4.19815 5.55494 -0.49178
4.10215 5.53494 -0.48378
4.04215 5.52594 -0.47978
4.02615 5.52194 -0.47878
3.84315 5.48394 -0.46478
3.77315 5.47494 -0.46078
3.74215 5.46694 -0.45778
3.27715 5.38094 -0.42578
3.16115 5.35794 -0.41878
3.13315 5.34894 -0.41678
6.45315 5.99094 -0.72678
6.41215 5.99094 -0.72378
6.35915 5.97794 -0.71878
6.26615 5.96594 -0.71078
6.23115 5.95094 -0.70678
6.17915 5.93894 -0.70178
6.14415 5.94294 -0.69978
6.08315 5.92094 -0.69378
6.04715 5.92394 -0.69078
5.99315 5.90794 -0.68578
5.95515 5.90694 -0.68278
5.90315 5.89394 -0.67778
5.88615 5.89394 -0.67678
5.82615 5.87194 -0.67078
5.74515 5.86294 -0.66478
5.65115 5.84094 -0.65578
5.57215 5.81394 -0.64778
5.54815 5.82594 -0.64778
5.50415 5.81594 -0.64378
5.42215 5.80294 -0.63678
5.35415 5.78494 -0.63078
5.31015 5.77394 -0.62678
5.28015 5.77694 -0.62478
5.23415 5.76294 -0.61978
5.19815 5.75994 -0.61778
5.09215 5.73294 -0.60778
5.06115 5.73394 -0.60578
5.01515 5.71794 -0.60178
4.98015 5.71494 -0.59878
4.89715 5.69194 -0.59078
4.87115 5.69794 -0.58978
4.80215 5.67094 -0.58278
4.76515 5.66294 -0.57978
4.73815 5.66694 -0.57878
4.70115 5.65894 -0.57578
4.66415 5.65094 -0.57278
4.63415 5.64994 -0.57078
4.59215 5.63594 -0.56678
4.57415 5.63194 -0.56478
4.54015 5.62694 -0.56178
4.50115 5.61394 -0.55878
4.47115 5.61294 -0.55678
4.44415 5.61494 -0.55478
4.41115 5.60994 -0.55278
4.37415 5.59894 -0.54878
4.35315 5.58994 -0.54678
4.31515 5.57794 -0.54378
4.28715 5.57794 -0.54178
4.25515 5.57194 -0.53978
4.21815 5.55994 -0.53578
4.18715 5.55594 -0.53378
4.16415 5.56094 -0.53278
4.14015 5.54694 -0.52978
4.11015 5.54394 -0.52778
4.08115 5.54094 -0.52578
4.04515 5.52794 -0.52278
4.01515 5.52494 -0.52078
3.98215 5.51494 -0.51778
3.94815 5.50494 -0.51478
3.87615 5.49494 -0.50978
3.84415 5.48594 -0.50678
3.81915 5.48894 -0.50578
3.76115 5.47794 -0.50078
3.73215 5.47194 -0.49878
3.71215 5.46094 -0.49678
3.68115 5.45294 -0.49478
3.65315 5.44794 -0.49178
3.59915 5.44094 -0.48878
3.57215 5.43794 -0.48678
3.54115 5.42894 -0.48378
3.52715 5.42594 -0.48278
3.49815 5.41894 -0.48078
3.44715 5.41394 -0.47778
3.41615 5.40294 -0.47478
3.39215 5.40194 -0.47378
3.36515 5.39694 -0.47178
3.35115 5.39394 -0.47078
3.27215 5.37994 -0.46478
3.24715 5.37694 -0.46278
3.22315 5.37494 -0.46178
3.19415 5.36394 -0.45878
3.15215 5.35194 -0.45578
3.13015 5.35294 -0.45478
6.14715 5.94194 -0.75578
5.09215 5.73894 -0.65878
5.07415 5.73694 -0.65778
3.84415 5.49994 -0.55178
3.73915 5.47594 -0.54378
3.60015 5.45494 -0.53278
3.55515 5.44194 -0.52878
3.50215 5.43494 -0.52478
3.44715 5.42394 -0.52078
3.35215 5.40394 -0.51278
3.29815 5.39194 -0.50878
3.08315 5.35594 -0.49378
6.42915 5.97894 -0.83578
6.38415 5.97494 -0.83178
6.33715 5.96794 -0.82678
6.28215 5.95394 -0.82078
6.23815 5.94994 -0.81778
6.19515 5.94694 -0.81378
6.14615 5.93694 -0.80878
6.10615 5.91694 -0.80378
6.06715 5.91594 -0.79978
6.01015 5.89794 -0.79378
5.97315 5.89894 -0.79078
5.92915 5.89194 -0.78678
5.88215 5.88294 -0.78178
5.84315 5.87994 -0.77878
5.76315 5.85594 -0.76978
5.71815 5.84694 -0.76578
5.68315 5.84794 -0.76278
5.63615 5.83494 -0.75778
5.59315 5.82694 -0.75378
5.55515 5.82494 -0.75078
5.51215 5.81594 -0.74578
5.48015 5.80094 -0.74178
5.44615 5.80194 -0.73978
5.40215 5.79194 -0.73478
5.36215 5.78494 -0.73178
5.32015 5.77594 -0.72778
5.28415 5.77394 -0.72478
5.24015 5.76194 -0.71978
5.21415 5.75094 -0.71678
5.17615 5.74594 -0.71378
5.13715 5.73794 -0.70978
5.10515 5.73994 -0.70778
5.06915 5.73494 -0.70378
5.03115 5.72794 -0.70078
4.98915 5.71694 -0.69678
4.96115 5.70294 -0.69278
4.92315 5.69594 -0.68978
4.88415 5.68694 -0.68578
4.84815 5.68094 -0.68278
4.81515 5.67894 -0.67978
4.78015 5.67394 -0.67678
4.75115 5.67494 -0.67478
4.72415 5.66094 -0.67178
4.68915 5.65494 -0.66778
4.65315 5.64794 -0.66478
4.61815 5.64094 -0.66178
4.58415 5.63594 -0.65878
4.55115 5.63194 -0.65578
4.51615 5.62394 -0.65278
4.48515 5.62294 -0.64978
4.46215 5.61094 -0.64778
4.43015 5.60794 -0.64478
4.40215 5.60794 -0.64278
4.36615 5.59894 -0.63878
4.33315 5.59394 -0.63678
4.26915 5.58294 -0.63078
4.25315 5.57994 -0.62978
4.21615 5.56794 -0.62578
4.18315 5.56094 -0.62278
4.15215 5.55594 -0.61978
4.09315 5.54894 -0.61578
4.06115 5.54294 -0.61278
4.04015 5.53294 -0.60978
4.00715 5.52294 -0.60678
3.97915 5.52094 -0.60478
3.95215 5.52094 -0.60278
3.91415 5.50394 -0.59878
3.84115 5.49294 -0.59278
3.81215 5.48794 -0.59078
3.78215 5.48194 -0.58778
3.75715 5.48294 -0.58578
3.72215 5.46794 -0.58278
3.65015 5.45494 -0.57678
3.62615 5.45594 -0.57478
3.60015 5.45394 -0.57278
3.54515 5.44494 -0.56878
3.51015 5.42794 -0.56478
3.47215 5.42594 -0.56178
3.44715 5.42394 -0.56078
3.39215 5.41294 -0.55578
3.36115 5.40194 -0.55278
3.27415 5.39294 -0.54678
3.24315 5.38094 -0.54378
3.22015 5.38094 -0.54178
3.19515 5.37794 -0.54078
3.16615 5.36694 -0.53778
3.14115 5.36294 -0.53578
6.53715 5.99494 -0.94278
6.44015 5.98194 -0.93278
6.40715 5.98894 -0.93078
6.35215 5.97494 -0.92378
6.30115 5.96494 -0.91878
6.25915 5.94394 -0.91278
6.21915 5.94294 -0.90878
6.12315 5.92494 -0.89878
6.06515 5.90694 -0.89178
6.03315 5.91194 -0.88878
5.98615 5.90394 -0.88378
5.95115 5.88794 -0.87978
5.90315 5.87694 -0.87378
5.87315 5.88494 -0.87178
5.82215 5.87094 -0.86578
5.77615 5.86094 -0.86078
5.73915 5.86094 -0.85778
5.69515 5.85194 -0.85278
5.66015 5.83494 -0.84878
5.62415 5.83394 -0.84478
5.57815 5.82294 -0.83978
5.53915 5.81894 -0.83578
5.45515 5.80394 -0.82778
5.34615 5.77794 -0.81578
5.31115 5.77694 -0.81278
5.26815 5.76594 -0.80778
5.22915 5.76094 -0.80378
5.18715 5.75094 -0.79878
5.15315 5.74894 -0.79578
5.11415 5.74194 -0.79178
5.09615 5.73894 -0.78978
5.05115 5.72594 -0.78478
5.00815 5.71294 -0.78078
4.93315 5.69994 -0.77278
4.90515 5.70294 -0.77078
4.86515 5.69294 -0.76678
4.84215 5.68394 -0.76378
4.77115 5.67394 -0.75678
4.70015 5.66094 -0.74978
4.65915 5.64794 -0.74478
4.63015 5.64894 -0.74278
4.60415 5.63494 -0.73878
4.57115 5.63094 -0.73578
4.53615 5.62394 -0.73278
4.50015 5.61594 -0.72878
4.47015 5.61494 -0.72678
4.44215 5.61494 -0.72478
4.40515 5.60594 -0.72078
4.38415 5.59694 -0.71778
4.35215 5.59194 -0.71478
4.32215 5.58994 -0.71278
4.28815 5.58094 -0.70878
4.21515 5.55894 -0.70078
4.18915 5.56194 -0.69878
4.17515 5.55994 -0.69778
4.13215 5.53994 -0.69278
4.10515 5.53994 -0.69078
4.07215 5.53194 -0.68678
4.04415 5.53094 -0.68478
4.01815 5.53094 -0.68278
3.98415 5.52094 -0.67978
3.95515 5.51694 -0.67678
3.93115 5.50294 -0.67378
3.90115 5.49694 -0.67078
3.87215 5.49294 -0.66778
3.84515 5.49094 -0.66578
3.81615 5.48694 -0.66378
3.78615 5.48094 -0.66078
3.75615 5.47294 -0.65778
3.73615 5.46194 -0.65478
3.70715 5.45794 -0.65278
3.67715 5.44994 -0.64978
3.65015 5.44594 -0.64678
3.62315 5.44294 -0.64478
3.59815 5.44294 -0.64278
3.57515 5.44594 -0.64178
3.55315 5.43194 -0.63878
3.52815 5.42894 -0.63678
3.50015 5.42394 -0.63378
3.47115 5.41694 -0.63178
3.44115 5.40694 -0.62878
3.41315 5.40094 -0.62578
3.39115 5.40394 -0.62478
3.36915 5.40594 -0.62378
3.34815 5.39094 -0.62078
3.32415 5.39094 -0.61878
3.29715 5.38494 -0.61578
3.26915 5.37694 -0.61378
3.24715 5.37894 -0.61178
3.22015 5.37294 -0.60978
3.19515 5.36994 -0.60778
3.18015 5.36294 -0.60578
3.15615 5.36094 -0.60478
3.12715 5.34994 -0.60078
6.33615 5.96794 -1.04178
6.02915 5.90894 -1.04278
5.98015 5.89694 -1.03678
5.53015 5.80494 -1.03878
5.49415 5.80394 -1.03478
4.04615 5.51894 -1.03678
4.02015 5.51994 -1.03378
3.58515 5.44194 -1.03878
3.13515 5.33994 -1.02778
5.23215 5.73894 -1.55078
4.85815 5.67494 -1.48778
4.78615 5.66194 -1.47578
4.75415 5.66094 -1.47078
3.99515 5.51694 -1.34678
4.79615 5.65194 -1.53678
4.30015 5.56394 -1.45178
4.27115 5.56194 -1.44678
4.23815 5.55494 -1.44178
4.20115 5.54394 -1.43478
4.17715 5.54794 -1.43178
4.14015 5.53594 -1.42478
4.11015 5.53194 -1.41978
4.08715 5.51894 -1.41478
4.06015 5.51794 -1.41078
4.03115 5.51494 -1.40678
3.99715 5.50594 -1.40078
3.97015 5.50394 -1.39678
3.93915 5.49694 -1.39178
3.90615 5.48894 -1.38578
3.89115 5.48594 -1.38278
3.85715 5.47394 -1.37678
3.82815 5.46994 -1.37278
3.80215 5.46894 -1.36878
3.77315 5.46394 -1.36378
3.74215 5.45594 -1.35878
3.71715 5.45694 -1.35578
3.70015 5.44994 -1.35278
3.67315 5.44694 -1.34878
3.64815 5.44694 -1.34578
3.61915 5.43994 -1.34078
3.58815 5.43094 -1.33478
3.56215 5.42894 -1.33178
3.53315 5.42194 -1.32678
3.50715 5.41794 -1.32278
3.49115 5.41294 -1.31978
3.46615 5.41194 -1.31678
3.43915 5.40594 -1.31178
3.38715 5.39994 -1.30478
3.29215 5.37994 -1.28978
4.10815 5.53494 -1.53778
4.07615 5.52694 -1.53178
4.04215 5.51794 -1.52578
0.258151 -4.05006 0.33822
0.321151 -4.03706 0.33822
0.352151 -4.02906 0.33822
0.415151 -4.01706 0.33822
0.433151 -4.01306 0.33822
0.471151 -4.00806 0.33822
0.509151 -4.00806 0.33822
0.541151 -4.00206 0.33822
0.577151 -3.99006 0.33722
0.611151 -3.99806 0.33822
0.646151 -3.97606 0.33722
0.672151 -3.98006 0.33822
0.690151 -3.97106 0.33722
0.714151 -3.96206 0.33722
0.740151 -3.96206 0.33722
0.759151 -3.96206 0.33822
0.820151 -3.94406 0.33722
0.834151 -3.94906 0.33822
0.876151 -3.93606 0.33722
0.902151 -3.93206 0.33822
2.01415 -3.73806 0.34522
2.01915 -3.73306 0.34522
2.06015 -3.72406 0.34522
2.11115 -3.71806 0.34622
2.12415 -3.71406 0.34622
2.15515 -3.71406 0.34622
2.19515 -3.70206 0.34722
2.29115 -3.68906 0.34822
2.34415 -3.68306 0.34922
2.40615 -3.66506 0.34922
2.70915 -3.62106 0.35422
2.73515 -3.60806 0.35422
2.81015 -3.59906 0.35622
3.07015 -3.54806 0.36022
3.90015 -3.40206 0.37622
1.24615 -3.86706 0.31222
1.28415 -3.86106 0.31222
1.32915 -3.85606 0.31322
1.41115 -3.83806 0.31322
1.42415 -3.83506 0.31322
1.48215 -3.82606 0.31322
1.52115 -3.81906 0.31422
1.64315 -3.80806 0.31522
1.66515 -3.79406 0.31422
1.67915 -3.79406 0.31522
1.75515 -3.78806 0.31522
1.76715 -3.78206 0.31522
1.77915 -3.77706 0.31522
1.79115 -3.77106 0.31522
2.25515 -3.69106 0.31922
2.35115 -3.67806 0.32122
2.37415 -3.67506 0.32122
2.46615 -3.65206 0.32222
2.61315 -3.63206 0.32422
2.62715 -3.62806 0.32422
2.71215 -3.61206 0.32522
2.75915 -3.60406 0.32522
2.78815 -3.60706 0.32622
2.79815 -3.59606 0.32622
2.84415 -3.58606 0.32622
2.86315 -3.58606 0.32722
2.86915 -3.58206 0.32722
2.94015 -3.57806 0.32822
2.95115 -3.56906 0.32822
2.98215 -3.57206 0.32822
2.99615 -3.56506 0.32922
3.01215 -3.56206 0.32922
3.05015 -3.56106 0.32922
3.08015 -3.55106 0.33022
3.09115 -3.55206 0.33022
3.10415 -3.54606 0.33022
3.12215 -3.54306 0.33022
3.13715 -3.53806 0.33122
3.15615 -3.53706 0.33122
3.16915 -3.52906 0.33122
3.18615 -3.52606 0.33122
3.20315 -3.53306 0.33222
3.21815 -3.52806 0.33222
3.24115 -3.53106 0.33222
3.25715 -3.52606 0.33322
3.26615 -3.51306 0.33222
3.28615 -3.51306 0.33322
3.30515 -3.51206 0.33322
3.31815 -3.51406 0.33322
3.33015 -3.50506 0.33322
3.34915 -3.50306 0.33422
3.36915 -3.50106 0.33422
3.38515 -3.49606 0.33422
3.40215 -3.49106 0.33522
3.42115 -3.48906 0.33522
3.42615 -3.48406 0.33522
3.45015 -3.48606 0.33522
3.46415 -3.47806 0.33622
3.48915 -3.48106 0.33622
3.50715 -3.47706 0.33622
3.51915 -3.46806 0.33622
3.55715 -3.47206 0.33722
3.57815 -3.47106 0.33822
3.59015 -3.46106 0.33822
3.61515 -3.46406 0.33822
3.63915 -3.46506 0.33922
3.65115 -3.45506 0.33922
3.66915 -3.45006 0.33922
3.67615 -3.44606 0.33922
3.70015 -3.44606 0.34022
3.72015 -3.44306 0.34022
3.73215 -3.43306 0.34022
3.76015 -3.43706 0.34122
3.77415 -3.42806 0.34122
3.79815 -3.42806 0.34122
3.83215 -3.42606 0.34222
3.85015 -3.42106 0.34222
3.86415 -3.41206 0.34222
3.89115 -3.41406 0.34322
3.90615 -3.40606 0.34322
3.93615 -3.41106 0.34422
3.93715 -3.40106 0.34422
3.99715 -3.38706 0.34522
4.01915 -3.38406 0.34522
4.04715 -3.38606 0.34622
4.07915 -3.38106 0.34622
4.12115 -3.37206 0.34722
4.14415 -3.36906 0.34722
4.20215 -3.35106 0.34822
4.23315 -3.34406 0.34922
4.25615 -3.34006 0.34922
4.28115 -3.33806 0.35022
4.30415 -3.33506 0.35022
4.32215 -3.32706 0.35122
4.34815 -3.32606 0.35122
4.37015 -3.32106 0.35122
4.38815 -3.32306 0.35222
4.40915 -3.31806 0.35222
0.091151 -4.07806 0.29322
0.129151 -4.06506 0.29322
0.135151 -4.06306 0.29322
0.148151 -4.06006 0.29322
0.161151 -4.06206 0.29322
0.199151 -4.05006 0.29322
0.230151 -4.04606 0.29322
0.243151 -4.04806 0.29322
0.268151 -4.04006 0.29222
0.287151 -4.03706 0.29222
0.299151 -4.03206 0.29222
0.313151 -4.03706 0.29222
0.337151 -4.02706 0.29222
0.362151 -4.02306 0.29222
0.394151 -4.01806 0.29222
0.406151 -4.01606 0.29222
0.419151 -4.01306 0.29222
0.431151 -4.01206 0.29222
0.444151 -4.01006 0.29222
0.463151 -4.01206 0.29222
0.475151 -4.00306 0.29222
0.487151 -3.99906 0.29222
0.500151 -4.00006 0.29222
0.525151 -3.99906 0.29222
0.538151 -3.99706 0.29222
0.556151 -3.98806 0.29222
0.569151 -3.99206 0.29222
0.674151 -3.96606 0.29222
0.780151 -3.94906 0.29222
1.11715 -3.90806 0.29322
1.94115 -3.74606 0.29622
1.95715 -3.74906 0.29722
1.97515 -3.75306 0.29722
1.98115 -3.75006 0.29722
1.99315 -3.74406 0.29722
2.01015 -3.74806 0.29722
2.02015 -3.73806 0.29722
2.03415 -3.73506 0.29722
2.04815 -3.73406 0.29722
2.05215 -3.72706 0.29722
2.07315 -3.73606 0.29822
2.08215 -3.72606 0.29722
2.09415 -3.72006 0.29722
2.11115 -3.72206 0.29822
2.12515 -3.72106 0.29822
2.13615 -3.71206 0.29822
2.15315 -3.71406 0.29822
2.16415 -3.71906 0.29822
2.17315 -3.70906 0.29822
2.18815 -3.70706 0.29822
2.20515 -3.70906 0.29922
2.21815 -3.70406 0.29922
2.23015 -3.69806 0.29922
2.24815 -3.70206 0.29922
2.25015 -3.69106 0.29922
2.26815 -3.69406 0.29922
2.28515 -3.69606 0.29922
2.29615 -3.68906 0.29922
2.31215 -3.68806 0.29922
2.32915 -3.68906 0.30022
2.33815 -3.67806 0.30022
2.36715 -3.68406 0.30022
2.37715 -3.67506 0.30022
2.39315 -3.67406 0.30022
2.40715 -3.67006 0.30022
2.42015 -3.66606 0.30022
2.43215 -3.65806 0.30022
2.44815 -3.66906 0.30122
2.45615 -3.65706 0.30122
2.47015 -3.65206 0.30122
2.49215 -3.66106 0.30122
2.50315 -3.65106 0.30122
2.51515 -3.64506 0.30122
2.54015 -3.65506 0.30222
2.53915 -3.64306 0.30122
2.55415 -3.64006 0.30222
2.57415 -3.64306 0.30222
2.58915 -3.64006 0.30222
2.60515 -3.63806 0.30222
2.61615 -3.63006 0.30222
2.63315 -3.62806 0.30222
2.64415 -3.63206 0.30322
2.65915 -3.62906 0.30322
2.67315 -3.62406 0.30322
2.69015 -3.62306 0.30322
2.70515 -3.61906 0.30322
2.72315 -3.61906 0.30322
2.73615 -3.61406 0.30422
2.74615 -3.61406 0.30422
2.76215 -3.61206 0.30422
2.77515 -3.60506 0.30422
2.79815 -3.61206 0.30422
2.81115 -3.60406 0.30422
2.82215 -3.59506 0.30422
2.84015 -3.59406 0.30522
2.84915 -3.59506 0.30522
2.86415 -3.59006 0.30522
2.88415 -3.59206 0.30522
2.89715 -3.58506 0.30522
2.91215 -3.58006 0.30522
2.93515 -3.58506 0.30622
2.95115 -3.58206 0.30622
2.95815 -3.57906 0.30622
2.97715 -3.57806 0.30622
2.98815 -3.56906 0.30622
3.01115 -3.57306 0.30722
3.02215 -3.56406 0.30722
3.04115 -3.56306 0.30722
3.06015 -3.56306 0.30722
3.08715 -3.56106 0.30822
3.10415 -3.55706 0.30822
3.11615 -3.54906 0.30822
3.13715 -3.54906 0.30822
3.15215 -3.54406 0.30822
3.17115 -3.54306 0.30922
3.18115 -3.54206 0.30922
3.21515 -3.53506 0.30922
3.24815 -3.52706 0.30922
3.27015 -3.52806 0.31022
3.28415 -3.52106 0.31022
3.33115 -3.51506 0.31122
3.35015 -3.51306 0.31122
3.36815 -3.51006 0.31122
3.38115 -3.50106 0.31122
3.40015 -3.49906 0.31122
3.41515 -3.50306 0.31222
3.42815 -3.49406 0.31222
3.45115 -3.49606 0.31222
3.48315 -3.48406 0.31222
3.50115 -3.48006 0.31322
3.52215 -3.47906 0.31322
3.53215 -3.47806 0.31322
3.55715 -3.48006 0.31422
3.57515 -3.47606 0.31422
3.58915 -3.46806 0.31422
3.61015 -3.46606 0.31422
3.65115 -3.46106 0.31522
3.65815 -3.45706 0.31522
3.69815 -3.45106 0.31522
3.71815 -3.44806 0.31622
3.73915 -3.44506 0.31622
3.75615 -3.43906 0.31622
3.77715 -3.43706 0.31722
3.79015 -3.43706 0.31722
3.80815 -3.43206 0.31722
3.82715 -3.42706 0.31722
3.85115 -3.42706 0.31822
3.86615 -3.41806 0.31822
3.91215 -3.41506 0.31922
3.92215 -3.40306 0.31922
3.93715 -3.40406 0.31922
3.98015 -3.39806 0.31922
4.00415 -3.39706 0.32022
4.02515 -3.39306 0.32022
4.04215 -3.38506 0.32022
4.06215 -3.38006 0.32122
4.09615 -3.37606 0.32122
4.11615 -3.37106 0.32122
4.17015 -3.37106 0.32222
4.18415 -3.36106 0.32222
4.21015 -3.36006 0.32322
4.21515 -3.35306 0.32322
4.24315 -3.35406 0.32322
4.27115 -3.35406 0.32422
4.28815 -3.34506 0.32422
4.31615 -3.34506 0.32522
4.33815 -3.34006 0.32522
4.35915 -3.33506 0.32522
4.37415 -3.33506 0.32622
4.39715 -3.33106 0.32622
4.41415 -3.32206 0.32622
4.43915 -3.31906 0.32722
4.57715 -3.30006 0.32922
1.03515 -3.91506 0.26122
1.04815 -3.91306 0.26122
1.07415 -3.91106 0.26122
1.08615 -3.90706 0.26122
1.09415 -3.91106 0.26122
1.10515 -3.90406 0.26122
1.11615 -3.89906 0.26122
1.14415 -3.90106 0.26222
1.15415 -3.89006 0.26122
1.17415 -3.89006 0.26222
1.18715 -3.89006 0.26222
1.19915 -3.88506 0.26222
1.21015 -3.87906 0.26222
1.22515 -3.88506 0.26222
1.23915 -3.88506 0.26222
1.24915 -3.87306 0.26222
1.25715 -3.87706 0.26222
1.28315 -3.87406 0.26222
1.29415 -3.86706 0.26222
1.31915 -3.86206 0.26222
1.33315 -3.86406 0.26222
1.34115 -3.86706 0.26222
1.35315 -3.86306 0.26222
1.36715 -3.86306 0.26222
1.38015 -3.86006 0.26222
1.39115 -3.85406 0.26222
1.43515 -3.84406 0.26222
1.46315 -3.84406 0.26222
1.48915 -3.84106 0.26222
1.50815 -3.83506 0.26222
1.53515 -3.83306 0.26322
1.56115 -3.82906 0.26322
1.57315 -3.82206 0.26322
1.58315 -3.81406 0.26322
1.59315 -3.82106 0.26322
1.60615 -3.81906 0.26322
1.62015 -3.81806 0.26322
1.63115 -3.81106 0.26322
1.64515 -3.80906 0.26322
1.67915 -3.80706 0.26322
1.69015 -3.80006 0.26322
1.71915 -3.80106 0.26322
1.75815 -3.79106 0.26322
1.77315 -3.79106 0.26322
1.96315 -3.74406 0.26422
2.06415 -3.72106 0.26422
2.09315 -3.71906 0.26522
2.17015 -3.70506 0.26522
2.20015 -3.70306 0.26522
2.27615 -3.68506 0.26622
2.32715 -3.67706 0.26622
2.35715 -3.67206 0.26622
2.38515 -3.66506 0.26622
2.43615 -3.65606 0.26722
2.49715 -3.64606 0.26722
2.52115 -3.64406 0.26722
2.53415 -3.64006 0.26722
2.55015 -3.63806 0.26722
2.61015 -3.63806 0.26822
2.63715 -3.62806 0.26822
2.65115 -3.62306 0.26822
2.70315 -3.61006 0.26822
2.75015 -3.60206 0.26922
2.76715 -3.60106 0.26922
2.78215 -3.59706 0.26922
2.79715 -3.59306 0.26922
2.80615 -3.59306 0.26922
2.82115 -3.58906 0.26922
2.88615 -3.57806 0.27022
2.91715 -3.58206 0.27022
2.93215 -3.57706 0.27022
2.94515 -3.57106 0.27022
2.96315 -3.57006 0.27022
2.99215 -3.55906 0.27022
3.01215 -3.56006 0.27122
3.02315 -3.56106 0.27122
3.03915 -3.55806 0.27122
3.05715 -3.55606 0.27122
3.07315 -3.55306 0.27122
3.10815 -3.54806 0.27122
3.11915 -3.53806 0.27122
3.12915 -3.53806 0.27222
3.14815 -3.53706 0.27222
3.20015 -3.52806 0.27222
3.21815 -3.52606 0.27222
3.23015 -3.51706 0.27222
3.25015 -3.52806 0.27322
3.26315 -3.51906 0.27322
3.28215 -3.51806 0.27322
3.29715 -3.51206 0.27322
3.35315 -3.50506 0.27322
3.36215 -3.50306 0.27422
3.38115 -3.50106 0.27422
3.39515 -3.49306 0.27422
3.41515 -3.49306 0.27422
3.43515 -3.49106 0.27422
3.45815 -3.49306 0.27422
3.49815 -3.47806 0.27522
3.53015 -3.46606 0.27522
3.57515 -3.46606 0.27522
3.60715 -3.46506 0.27622
3.64015 -3.45306 0.27622
3.67315 -3.44106 0.27622
3.72015 -3.44106 0.27722
3.74215 -3.42906 0.27722
3.78815 -3.42806 0.27722
3.84415 -3.41406 0.27822
1.12415 -3.89106 0.24022
3.88415 -3.40306 0.25122
3.94915 -3.39506 0.25222
3.99915 -3.38306 0.25222
4.06315 -3.37206 0.25322
4.13015 -3.36206 0.25322
4.14215 -3.36106 0.25322
4.16015 -3.35406 0.25322
4.18815 -3.35506 0.25422
4.20315 -3.34506 0.25422
4.23215 -3.34706 0.25422
4.25215 -3.34106 0.25422
4.27715 -3.33806 0.25422
4.28915 -3.33706 0.25422
4.32015 -3.33906 0.25422
4.33315 -3.32806 0.25522
4.38315 -3.32206 0.25522
4.44315 -3.31206 0.25522
4.46915 -3.31006 0.25522
4.49315 -3.30606 0.25622
4.51315 -3.29906 0.25622
4.21515 -3.34206 0.21622
0.089151 -4.08606 0.19222
0.159151 -4.07306 0.19222
0.254151 -4.05506 0.19222
3.16915 -3.54506 0.19122
3.86215 -3.40406 0.15722
3.92915 -3.39806 0.15722
4.10315 -3.36206 0.15622
4.13415 -3.35506 0.15622
4.22415 -3.34206 0.15622
4.30815 -3.33206 0.15522
4.35115 -3.32206 0.15522
4.39415 -3.31106 0.15522
4.43215 -3.30706 0.15422
4.48515 -3.30306 0.15422
1.07315 -3.90106 0.14122
1.08315 -3.89206 0.14122
1.11015 -3.89306 0.14122
1.17815 -3.87506 0.14122
1.21615 -3.86906 0.14122
1.22115 -3.86606 0.14122
1.23415 -3.86406 0.14122
1.24815 -3.86506 0.14122
1.26015 -3.86106 0.14122
1.27515 -3.86506 0.14122
1.30515 -3.85506 0.14122
1.33215 -3.85406 0.14022
1.35615 -3.84406 0.14022
1.37115 -3.84706 0.14022
1.41315 -3.83406 0.14022
1.44215 -3.83806 0.14022
1.49915 -3.82306 0.14022
1.51515 -3.82906 0.14022
1.52315 -3.81306 0.14022
1.59915 -3.81006 0.14022
1.61115 -3.80706 0.14022
1.62615 -3.80706 0.14022
1.65615 -3.79406 0.14022
1.67215 -3.79806 0.13922
1.68415 -3.79306 0.13922
1.70715 -3.78206 0.13922
1.72915 -3.78206 0.13922
0.990151 -3.90906 0.11322
1.01815 -3.91706 0.11222
1.02915 -3.90606 0.11222
1.05015 -3.91106 0.11222
1.06215 -3.90706 0.11222
1.08815 -3.90406 0.11222
1.63215 -3.80606 0.11022
1.66015 -3.80706 0.11022
1.95415 -3.73706 0.10922
1.97515 -3.73306 0.10922
2.03215 -3.72706 0.10822
2.05715 -3.71806 0.10822
2.06615 -3.72006 0.10822
2.09515 -3.71706 0.10822
2.12015 -3.70706 0.10822
2.13515 -3.70606 0.10722
2.15515 -3.70106 0.10722
2.17615 -3.71006 0.10722
2.18515 -3.69806 0.10722
2.21515 -3.69606 0.10722
2.24215 -3.68906 0.10722
2.25215 -3.69206 0.10622
2.26315 -3.68306 0.10622
2.29315 -3.68106 0.10622
2.33515 -3.67106 0.10622
2.34815 -3.67906 0.10622
2.36015 -3.67206 0.10622
2.37515 -3.67006 0.10522
2.43715 -3.65206 0.10522
2.46115 -3.66306 0.10522
2.46915 -3.65006 0.10522
2.52815 -3.63906 0.10422
2.54215 -3.64606 0.10422
2.54915 -3.63206 0.10422
2.56415 -3.62906 0.10422
2.58315 -3.63206 0.10422
2.59915 -3.63006 0.10322
2.61615 -3.63006 0.10322
2.62915 -3.62406 0.10322
2.65415 -3.62306 0.10322
2.66615 -3.61406 0.10322
2.68015 -3.61106 0.10322
2.71615 -3.61106 0.10222
2.72815 -3.60306 0.10222
2.74015 -3.60806 0.10222
2.75715 -3.60606 0.10222
2.76915 -3.59906 0.10222
2.78615 -3.59806 0.10222
2.80015 -3.59306 0.10222
2.81815 -3.59206 0.10122
2.82915 -3.58306 0.10122
2.84615 -3.59206 0.10122
2.85415 -3.58006 0.10122
2.88115 -3.59006 0.10122
2.88915 -3.57806 0.10122
2.90415 -3.57406 0.10122
2.94115 -3.57206 0.10022
2.94515 -3.56606 0.10022
2.96615 -3.56906 0.10022
2.97715 -3.56006 0.10022
3.00315 -3.56706 0.09922
3.01015 -3.55306 0.09922
3.03815 -3.56406 0.09922
3.04615 -3.55106 0.09922
3.06415 -3.56006 0.09922
3.07115 -3.54606 0.09922
3.09015 -3.54506 0.09822
3.12715 -3.54206 0.09822
3.13615 -3.53106 0.09822
3.15915 -3.53506 0.09822
3.17315 -3.53906 0.09722
3.19215 -3.53806 0.09722
3.20015 -3.52506 0.09722
3.22615 -3.53106 0.09722
3.23215 -3.51506 0.09722
3.25415 -3.51606 0.09722
3.27315 -3.51506 0.09622
3.28715 -3.51906 0.09622
3.29415 -3.50406 0.09622
3.32415 -3.51406 0.09622
3.33215 -3.50106 0.09622
3.35515 -3.50306 0.09522
3.37215 -3.49806 0.09522
3.38715 -3.49206 0.09522
3.39515 -3.49006 0.09522
3.42015 -3.49306 0.09522
3.43215 -3.48406 0.09522
3.45615 -3.48606 0.09422
3.47415 -3.48206 0.09422
3.48815 -3.47406 0.09422
3.50315 -3.46806 0.09422
3.52515 -3.47906 0.09322
3.54015 -3.47206 0.09322
3.55615 -3.46506 0.09322
3.59615 -3.46106 0.09222
3.60515 -3.44806 0.09322
3.63115 -3.45106 0.09222
3.64615 -3.44306 0.09222
3.65815 -3.44506 0.09222
3.70015 -3.44106 0.09122
3.71715 -3.43406 0.09122
3.74415 -3.43806 0.09122
3.75215 -3.42306 0.09122
3.77615 -3.42406 0.09022
3.79015 -3.42606 0.09022
3.80815 -3.42106 0.09022
3.83215 -3.42106 0.08922
3.85015 -3.41506 0.08922
3.87215 -3.41206 0.08922
3.88415 -3.40206 0.08922
3.90815 -3.40106 0.08822
3.92415 -3.40406 0.08822
3.94315 -3.40006 0.08822
3.96515 -3.39706 0.08822
3.98115 -3.38906 0.08722
4.00415 -3.38706 0.08722
4.04515 -3.37906 0.08722
4.06015 -3.38006 0.08622
4.08615 -3.38006 0.08622
4.09615 -3.36706 0.08622
4.12515 -3.37006 0.08522
4.14515 -3.36406 0.08522
4.16215 -3.35606 0.08522
4.17315 -3.35506 0.08522
4.20015 -3.35406 0.08422
4.22115 -3.35006 0.08422
4.24615 -3.34806 0.08422
4.26515 -3.34206 0.08322
4.28515 -3.33606 0.08322
4.31215 -3.33506 0.08322
4.32515 -3.32406 0.08322
4.34815 -3.33006 0.08222
4.36515 -3.32106 0.08222
4.39115 -3.32006 0.08222
4.41115 -3.31306 0.08122
4.43615 -3.31006 0.08122
4.52815 -3.30306 0.08022
4.56215 -3.28406 0.07922
1.00915 -3.91106 0.09122
1.05615 -3.91306 0.09122
1.06615 -3.90006 0.09122
1.08115 -3.90606 0.09122
1.13115 -3.89806 0.09122
1.13715 -3.89706 0.09122
1.14915 -3.89106 0.09122
1.17515 -3.88906 0.09122
1.21115 -3.87606 0.09122
1.24615 -3.88006 0.09022
1.25815 -3.87606 0.09022
1.28315 -3.87006 0.09022
1.35215 -3.85306 0.09022
1.36715 -3.85806 0.09022
1.39815 -3.84706 0.09022
1.44915 -3.83906 0.09022
1.46115 -3.83206 0.09022
1.47015 -3.83906 0.09022
1.49315 -3.82606 0.09022
1.50815 -3.82906 0.08922
1.53515 -3.82706 0.08922
1.54815 -3.82406 0.08922
1.60815 -3.81606 0.08922
1.62015 -3.81106 0.08922
1.65315 -3.80606 0.08922
1.67815 -3.79706 0.08922
1.79215 -3.77806 0.08822
2.35215 -3.66706 0.08322
2.36615 -3.66306 0.08322
2.38615 -3.66906 0.08322
2.39715 -3.66006 0.08322
2.42515 -3.65306 0.08222
2.49315 -3.64206 0.08222
2.56315 -3.63206 0.08122
2.59315 -3.62706 0.08022
2.61315 -3.63006 0.08022
2.64115 -3.62006 0.08022
2.65615 -3.61706 0.08022
2.67615 -3.60906 0.08022
2.69615 -3.61206 0.07922
2.72315 -3.60106 0.07922
2.76315 -3.59406 0.07922
2.78415 -3.59806 0.07822
2.81315 -3.58806 0.07822
2.82615 -3.58206 0.07822
2.84415 -3.58106 0.07822
2.86115 -3.58006 0.07722
2.88015 -3.59106 0.07722
2.92115 -3.57306 0.07622
2.93615 -3.56806 0.07622
2.96915 -3.56206 0.07622
2.99615 -3.56006 0.07522
3.01515 -3.56006 0.07522
3.02615 -3.55006 0.07522
3.06115 -3.54606 0.07522
3.10115 -3.53606 0.07422
3.15215 -3.52606 0.07322
3.17115 -3.52506 0.07322
3.19715 -3.52006 0.07322
3.23015 -3.51106 0.07222
3.30515 -3.50406 0.07122
3.33015 -3.49706 0.07122
3.34515 -3.49106 0.07122
3.50915 -3.47006 0.06822
3.61215 -3.45006 0.06722
3.71515 -3.42806 0.06522
3.82615 -3.40906 0.06322
3.94415 -3.39306 0.06122
3.98415 -3.38406 0.06022
4.02215 -3.37306 0.06022
4.07415 -3.37306 0.05922
4.10715 -3.36706 0.05822
4.14015 -3.35206 0.05822
4.19315 -3.35006 0.05722
4.22415 -3.34306 0.05622
4.26415 -3.33106 0.05622
4.28915 -3.32806 0.05522
4.32115 -3.33206 0.05422
4.35715 -3.31606 0.05422
4.37015 -3.31506 0.05422
4.39815 -3.31406 0.05322
4.42715 -3.31506 0.05322
1.04215 -3.90606 0.06722
1.06715 -3.90106 0.06722
1.08115 -3.90206 0.06722
1.10615 -3.89706 0.06722
1.11215 -3.89706 0.06722
1.13715 -3.89006 0.06722
1.14815 -3.88206 0.06722
1.16315 -3.89006 0.06622
1.17215 -3.87506 0.06722
1.18815 -3.88306 0.06622
1.19615 -3.88706 0.06622
1.20615 -3.87706 0.06622
1.21815 -3.87306 0.06622
1.23215 -3.87306 0.06622
1.24215 -3.86406 0.06622
1.25915 -3.87506 0.06622
1.27015 -3.86906 0.06622
1.27515 -3.86206 0.06622
1.28615 -3.85406 0.06622
1.31415 -3.85706 0.06622
1.32815 -3.86006 0.06622
1.34115 -3.85806 0.06622
1.35115 -3.84606 0.06622
1.38115 -3.83706 0.06622
1.39815 -3.84606 0.06522
1.40915 -3.83806 0.06622
1.42215 -3.83606 0.06522
1.44515 -3.84406 0.06522
1.45615 -3.83506 0.06522
1.46915 -3.83506 0.06522
1.48015 -3.82606 0.06522
1.49615 -3.83306 0.06522
1.52715 -3.82306 0.06522
1.53915 -3.81806 0.06522
1.56715 -3.81906 0.06422
1.57715 -3.80906 0.06422
1.59315 -3.81306 0.06422
1.60415 -3.80606 0.06422
1.61015 -3.80406 0.06422
1.62315 -3.80006 0.06422
1.63915 -3.80506 0.06422
1.65015 -3.79806 0.06422
1.66315 -3.79606 0.06422
1.67815 -3.79606 0.06422
1.69015 -3.79106 0.06422
1.70015 -3.79906 0.06322
1.71115 -3.79006 0.06322
1.72015 -3.77906 0.06322
1.73715 -3.78506 0.06322
1.74715 -3.77606 0.06322
1.76615 -3.78506 0.06322
1.77815 -3.77906 0.06322
1.78315 -3.77706 0.06322
3.38015 -3.48406 0.04122
3.43515 -3.47506 0.04022
3.64115 -3.43806 0.03622
4.01615 -3.37506 0.02822
4.04015 -3.37406 0.02822
4.07815 -3.36306 0.02722
4.10415 -3.36306 0.02722
4.15815 -3.35306 0.02522
4.17515 -3.34506 0.02522
4.20315 -3.34606 0.02422
4.26715 -3.33206 0.02322
4.29915 -3.32406 0.02222
4.32615 -3.32406 0.02222
4.34515 -3.31606 0.02122
4.42515 -3.31306 0.01922
0.013151 -4.08306 0.03922
0.039151 -4.08606 0.03822
0.052151 -4.07206 0.03922
0.077151 -4.07406 0.03922
0.090151 -4.07006 0.03922
0.096151 -4.06806 0.03922
0.134151 -4.05806 0.03922
0.147151 -4.06006 0.03922
0.172151 -4.05706 0.03922
0.179151 -4.05106 0.04022
0.204151 -4.04206 0.04022
0.242151 -4.04906 0.04022
0.255151 -4.04706 0.04022
0.273151 -4.03306 0.04022
0.298151 -4.03006 0.04022
0.355151 -4.01906 0.04022
0.368151 -4.02206 0.04022
0.380151 -4.02106 0.04022
0.405151 -4.01406 0.04022
0.417151 -4.00706 0.04122
0.436151 -4.00706 0.04122
0.462151 -4.00606 0.04022
0.486151 -4.00106 0.04122
0.498151 -3.99406 0.04122
0.567151 -3.98606 0.04122
0.579151 -3.97906 0.04122
0.612151 -3.98406 0.04122
0.624151 -3.97806 0.04122
0.636151 -3.97606 0.04122
0.662151 -3.97606 0.04122
0.693151 -3.97306 0.04022
0.705151 -3.96606 0.04122
0.729151 -3.95406 0.04122
0.760151 -3.95206 0.04122
0.811151 -3.94606 0.04122
0.855151 -3.94306 0.04022
0.867151 -3.93606 0.04122
0.879151 -3.93206 0.04122
0.902151 -3.92006 0.04122
0.925151 -3.93306 0.04022
0.959151 -3.91306 0.04122
0.986151 -3.91406 0.04022
0.996151 -3.90406 0.04122
1.93115 -3.75706 0.03322
1.93815 -3.75606 0.03322
2.08015 -3.72506 0.03122
2.11515 -3.71906 0.03122
2.15515 -3.70706 0.03122
2.19915 -3.70106 0.03022
2.23215 -3.69006 0.03022
2.37015 -3.66706 0.02822
2.45815 -3.66206 0.02622
2.50315 -3.65306 0.02522
2.74515 -3.61406 0.02122
2.87915 -3.58806 0.01922
2.91615 -3.57606 0.01822
3.02215 -3.56606 0.01622
3.11415 -3.54706 0.01422
3.14715 -3.52906 0.01422
3.30315 -3.51006 0.01022
3.34715 -3.49006 0.01022
3.46115 -3.48606 0.00721997
3.50415 -3.47406 0.00621997
3.67215 -3.45006 0.00221997
3.73215 -3.44006 0.000219967
4.12915 -3.36106 -0.00878003
4.18315 -3.35106 -0.01078
0.283151 -4.03006 0.01622
0.352151 -4.01506 0.01622
0.390151 -4.01106 0.01622
0.633151 -3.96806 0.01722
0.726151 -3.95006 0.01722
0.826151 -3.93406 0.01722
1.16615 -3.88506 0.01522
1.19315 -3.88506 0.01522
1.20515 -3.88306 0.01522
1.25015 -3.87706 0.01422
1.27515 -3.87106 0.01422
1.37215 -3.85506 0.01422
1.38415 -3.85106 0.01422
1.50115 -3.83306 0.01322
1.64315 -3.80406 0.01122
1.65515 -3.79906 0.01122
1.66715 -3.79406 0.01122
1.69615 -3.79606 0.01122
1.92815 -3.74706 0.00821997
1.93815 -3.73806 0.00821997
1.95315 -3.73906 0.00821997
1.96615 -3.73406 0.00821997
1.97915 -3.73106 0.00821997
2.00715 -3.74206 0.00721997
2.01515 -3.72806 0.00721997
2.02715 -3.72206 0.00721997
2.05915 -3.72506 0.00621997
2.07215 -3.72206 0.00621997
2.08715 -3.72106 0.00621997
2.09315 -3.71706 0.00621997
2.13515 -3.71006 0.00521997
2.14515 -3.70106 0.00521997
2.16615 -3.71006 0.00521997
2.17315 -3.69606 0.00521997
2.18015 -3.69406 0.00521997
2.19715 -3.69606 0.00421997
2.21415 -3.69806 0.00421997
2.22415 -3.68906 0.00421997
2.24115 -3.69106 0.00421997
2.25515 -3.68706 0.00321997
2.26415 -3.69006 0.00321997
2.27715 -3.68506 0.00321997
2.31915 -3.67506 0.00221997
2.33115 -3.66806 0.00221997
2.34715 -3.66906 0.00221997
2.36215 -3.66706 0.00221997
2.38415 -3.66206 0.00121997
2.41515 -3.66106 0.00121997
2.43215 -3.66106 0.000219967
2.44315 -3.65206 0.000219967
2.45615 -3.64806 0.000219967
2.46215 -3.64406 0.000219967
2.48615 -3.65406 -0.000780033
2.50015 -3.65006 -0.000780033
2.52615 -3.63906 -0.000780033
2.54315 -3.63906 -0.00178003
2.56515 -3.63406 -0.00178003
2.58015 -3.63106 -0.00278003
2.59115 -3.62206 -0.00278003
2.60915 -3.62406 -0.00278003
2.62115 -3.61606 -0.00278003
2.64115 -3.62106 -0.00378003
2.65615 -3.61706 -0.00378003
2.66715 -3.61906 -0.00378003
2.69415 -3.60906 -0.00478003
2.71015 -3.60706 -0.00478003
2.72415 -3.60206 -0.00478003
2.74515 -3.60606 -0.00578003
2.76015 -3.60206 -0.00578003
2.77115 -3.60606 -0.00678003
2.77815 -3.59006 -0.00578003
2.80015 -3.59606 -0.00678003
2.81115 -3.58706 -0.00678003
2.84915 -3.58806 -0.00778003
2.87315 -3.58406 -0.00878003
2.88515 -3.57706 -0.00878003
2.91915 -3.57306 -0.00978003
2.93415 -3.56806 -0.00978003
2.96815 -3.56306 -0.01078
2.99015 -3.55606 -0.01078
3.02215 -3.54906 -0.01178
3.04515 -3.55306 -0.01278
3.06015 -3.54806 -0.01278
3.07915 -3.53706 -0.01278
3.12415 -3.54306 -0.01478
3.19115 -3.52906 -0.01578
3.19915 -3.52706 -0.01578
3.22815 -3.51406 -0.01678
3.25515 -3.52106 -0.01778
3.26915 -3.51406 -0.01778
3.29915 -3.50206 -0.01778
3.31715 -3.51006 -0.01878
3.33215 -3.50406 -0.01878
3.35215 -3.50406 -0.01978
3.37915 -3.48706 -0.01978
3.42015 -3.48606 -0.02178
3.43715 -3.49206 -0.02178
3.46515 -3.47706 -0.02278
3.48915 -3.47906 -0.02378
3.51015 -3.47806 -0.02378
3.58715 -3.45606 -0.02578
3.67815 -3.44506 -0.02878
3.72015 -3.44106 -0.02978
3.77415 -3.42606 -0.03078
3.80015 -3.42706 -0.03178
3.86015 -3.40506 -0.03278
3.88415 -3.40506 -0.03378
3.93115 -3.40306 -0.03578
3.95715 -3.39306 -0.03578
4.00315 -3.38906 -0.03778
4.06415 -3.37606 -0.03878
4.15715 -3.35606 -0.04178
4.18315 -3.35506 -0.04278
4.20015 -3.34706 -0.04278
4.21815 -3.34006 -0.04378
4.26515 -3.34506 -0.04578
4.28215 -3.33706 -0.04578
4.36715 -3.31606 -0.04778
4.40615 -3.31306 -0.04978
4.46015 -3.31006 -0.05078
3.65815 -3.43406 -0.05678
3.91915 -3.38806 -0.06478
4.02615 -3.37106 -0.06778
4.05915 -3.36606 -0.06878
4.09815 -3.35506 -0.07078
4.19715 -3.33806 -0.07378
4.21915 -3.33306 -0.07478
4.26615 -3.32706 -0.07578
4.37215 -3.31106 -0.07978
4.44015 -3.29706 -0.08178
1.93015 -3.73806 -0.04278
1.97315 -3.73606 -0.04378
2.00115 -3.73006 -0.04378
2.01615 -3.73106 -0.04478
2.04615 -3.71706 -0.04478
2.11615 -3.70506 -0.04578
2.12515 -3.70706 -0.04678
2.23015 -3.68706 -0.04878
2.24515 -3.68506 -0.04878
2.30715 -3.67006 -0.04978
2.32215 -3.66706 -0.05078
2.36815 -3.66406 -0.05178
2.39715 -3.65706 -0.05178
2.49915 -3.63706 -0.05478
2.51615 -3.63706 -0.05478
2.56015 -3.62806 -0.05578
2.57615 -3.62606 -0.05678
2.59815 -3.62106 -0.05678
2.61215 -3.61606 -0.05678
2.62815 -3.61406 -0.05778
2.64515 -3.61406 -0.05778
2.66015 -3.61006 -0.05878
2.70115 -3.61906 -0.06078
2.70215 -3.60906 -0.05978
2.74715 -3.59706 -0.06078
2.82215 -3.59006 -0.06278
2.84915 -3.57806 -0.06378
2.91015 -3.57306 -0.06578
2.93615 -3.55906 -0.06578
3.10015 -3.53806 -0.07078
3.12215 -3.53006 -0.07178
3.21315 -3.52006 -0.07478
3.22315 -3.50906 -0.07478
3.23315 -3.50906 -0.07478
3.25415 -3.50906 -0.07578
3.27215 -3.50706 -0.07578
3.28515 -3.49906 -0.07678
3.30615 -3.49906 -0.07678
3.34215 -3.49306 -0.07778
3.36615 -3.48606 -0.07878
3.38815 -3.48706 -0.07978
3.40515 -3.48206 -0.07978
3.42715 -3.48206 -0.08078
3.44815 -3.48206 -0.08178
3.46315 -3.47506 -0.08278
3.47515 -3.47706 -0.08278
3.48915 -3.46906 -0.08278
3.50415 -3.46206 -0.08378
3.52515 -3.46106 -0.08378
3.54115 -3.45506 -0.08478
3.56615 -3.45806 -0.08578
3.57915 -3.44806 -0.08578
3.60115 -3.45906 -0.08678
3.61915 -3.45506 -0.08778
3.63015 -3.44306 -0.08778
3.65315 -3.44306 -0.08878
3.67515 -3.44206 -0.08978
3.68715 -3.43206 -0.08978
3.70815 -3.43006 -0.09078
3.72515 -3.42406 -0.09078
3.73615 -3.42406 -0.09178
3.75415 -3.41906 -0.09178
3.77815 -3.41906 -0.09278
3.79915 -3.41606 -0.09378
3.81715 -3.41106 -0.09478
3.83115 -3.40206 -0.09478
3.86515 -3.40006 -0.09578
3.89115 -3.40106 -0.09678
3.90915 -3.39506 -0.09778
3.92715 -3.38906 -0.09778
3.94415 -3.38206 -0.09878
3.96515 -3.37906 -0.09978
3.99715 -3.37406 -0.10078
4.01715 -3.37006 -0.10178
4.05815 -3.36106 -0.10278
4.07915 -3.35706 -0.10378
4.15515 -3.34406 -0.10678
4.18215 -3.34406 -0.10778
4.27615 -3.32206 -0.11078
4.37015 -3.30806 -0.11478
4.42615 -3.29606 -0.11678
0.168151 -4.05706 -0.05678
0.224151 -4.03906 -0.05578
0.331151 -4.02106 -0.05478
0.350151 -4.01806 -0.05478
0.443151 -3.99806 -0.05378
0.456151 -4.00106 -0.05478
0.469151 -4.00106 -0.05478
0.562151 -3.97906 -0.05378
0.574151 -3.97606 -0.05378
0.580151 -3.97506 -0.05378
0.593151 -3.97306 -0.05378
0.674151 -3.96206 -0.05378
0.711151 -3.95306 -0.05378
0.737151 -3.95306 -0.05378
0.754151 -3.94506 -0.05378
0.767151 -3.94306 -0.05378
0.804151 -3.93806 -0.05378
0.836151 -3.93306 -0.05378
0.899151 -3.92706 -0.05478
0.910151 -3.91906 -0.05378
0.929151 -3.91406 -0.05378
0.941151 -3.91106 -0.05378
0.992151 -3.90906 -0.05478
1.07915 -3.89006 -0.05478
1.10615 -3.89106 -0.05578
1.14615 -3.89206 -0.05578
1.15415 -3.87306 -0.05478
1.16215 -3.87806 -0.05578
1.18615 -3.87106 -0.05578
1.19815 -3.86506 -0.05578
1.21215 -3.86706 -0.05578
1.22615 -3.86906 -0.05678
1.24515 -3.86706 -0.05678
1.25815 -3.86506 -0.05678
1.26915 -3.85706 -0.05678
1.29615 -3.85706 -0.05678
1.30715 -3.85106 -0.05678
1.32515 -3.86206 -0.05778
1.32715 -3.84906 -0.05678
1.35315 -3.84806 -0.05778
1.36615 -3.84306 -0.05778
1.37615 -3.83506 -0.05778
1.39215 -3.84006 -0.05778
1.40515 -3.83806 -0.05778
1.40915 -3.83206 -0.05778
1.42715 -3.84206 -0.05878
1.43815 -3.83606 -0.05878
1.44915 -3.82806 -0.05878
1.46215 -3.82706 -0.05878
1.47715 -3.83006 -0.05878
1.48615 -3.81806 -0.05878
1.49715 -3.82606 -0.05978
1.50815 -3.82006 -0.05878
1.52415 -3.82406 -0.05978
1.53615 -3.82106 -0.05978
1.54815 -3.81606 -0.05978
1.56415 -3.81906 -0.06078
1.58115 -3.81006 -0.06078
1.62115 -3.80406 -0.06078
1.64415 -3.79406 -0.06078
1.69315 -3.79206 -0.06178
1.70815 -3.79206 -0.06278
1.72015 -3.78606 -0.06278
1.73015 -3.77706 -0.06178
1.74815 -3.78406 -0.06278
1.75415 -3.78206 -0.06278
1.76615 -3.77606 -0.06278
1.77915 -3.77406 -0.06378
1.80715 -3.77206 -0.06378
1.83415 -3.76806 -0.06478
1.85215 -3.75906 -0.06478
1.86915 -3.76406 -0.06478
1.87715 -3.75106 -0.06478
1.90715 -3.75106 -0.06578
1.91715 -3.74206 -0.06578
1.92315 -3.73906 -0.06578
1.93815 -3.73806 -0.06578
2.01815 -3.73406 -0.06778
2.04115 -3.71906 -0.06778
2.05715 -3.72206 -0.06878
2.07015 -3.71706 -0.06878
2.08315 -3.71206 -0.06878
2.09515 -3.70706 -0.06878
2.11415 -3.71306 -0.06978
2.12115 -3.71106 -0.06978
2.14515 -3.69906 -0.06978
2.16315 -3.70306 -0.07078
2.17415 -3.69606 -0.07078
2.19115 -3.69806 -0.07078
2.19415 -3.68906 -0.07078
2.21815 -3.70306 -0.07178
2.22615 -3.69106 -0.07178
2.25315 -3.68206 -0.07178
2.27015 -3.68306 -0.07278
2.28115 -3.67606 -0.07278
2.29215 -3.68106 -0.07378
2.30615 -3.67706 -0.07378
2.32515 -3.68206 -0.07478
2.33815 -3.67606 -0.07478
2.34715 -3.66506 -0.07478
2.36615 -3.66906 -0.07578
2.38215 -3.66906 -0.07578
2.38915 -3.66706 -0.07578
2.40115 -3.66106 -0.07578
2.42315 -3.66806 -0.07678
2.43715 -3.66406 -0.07778
2.46115 -3.65006 -0.07778
2.48015 -3.65406 -0.07878
2.48915 -3.64306 -0.07778
2.51215 -3.63906 -0.07878
2.53215 -3.64306 -0.07978
2.56115 -3.63606 -0.08078
2.57215 -3.62706 -0.07978
2.59515 -3.63506 -0.08178
2.59915 -3.62906 -0.08178
2.61115 -3.62106 -0.08178
2.62915 -3.62206 -0.08178
2.64515 -3.62106 -0.08278
2.66515 -3.62306 -0.08378
2.68315 -3.61206 -0.08378
2.70115 -3.61206 -0.08378
2.71715 -3.61006 -0.08478
2.72915 -3.60306 -0.08478
2.74615 -3.60106 -0.08578
2.76415 -3.60106 -0.08578
2.77515 -3.59306 -0.08578
2.78915 -3.58706 -0.08678
2.80115 -3.59006 -0.08678
2.81215 -3.58206 -0.08678
2.83115 -3.58206 -0.08778
2.85515 -3.58906 -0.08878
2.87215 -3.58806 -0.08978
2.87615 -3.56906 -0.08878
2.89915 -3.57406 -0.08978
2.92415 -3.57106 -0.09078
2.93815 -3.56506 -0.09078
2.95215 -3.55906 -0.09078
2.99515 -3.56506 -0.09278
3.00215 -3.55106 -0.09278
3.03615 -3.55606 -0.09478
3.04415 -3.54306 -0.09378
3.05915 -3.53806 -0.09478
3.08215 -3.54206 -0.09578
3.09715 -3.53706 -0.09578
3.11415 -3.53306 -0.09678
3.12515 -3.53406 -0.09678
3.14115 -3.53006 -0.09778
3.17515 -3.52406 -0.09878
3.21815 -3.52606 -0.10078
3.22915 -3.51606 -0.10078
3.23415 -3.51106 -0.10078
3.25315 -3.50906 -0.10078
3.27415 -3.50906 -0.10178
3.28515 -3.49906 -0.10178
3.30415 -3.49706 -0.10278
3.32415 -3.49506 -0.10378
3.34315 -3.49406 -0.10478
3.35315 -3.49306 -0.10478
3.42415 -3.47906 -0.10678
3.47615 -3.47506 -0.10878
3.49215 -3.47006 -0.10978
3.50615 -3.46206 -0.10978
3.52115 -3.45506 -0.11078
3.55915 -3.44806 -0.11178
3.59415 -3.44906 -0.11378
3.61315 -3.44606 -0.11378
3.63715 -3.44706 -0.11478
3.65215 -3.44006 -0.11578
3.66615 -3.43106 -0.11578
3.69315 -3.43406 -0.11678
3.71015 -3.42806 -0.11778
3.72215 -3.42906 -0.11878
3.75615 -3.41606 -0.11878
3.79915 -3.41206 -0.12078
3.87115 -3.40006 -0.12378
3.92615 -3.38306 -0.12578
3.98615 -3.38006 -0.12878
4.02415 -3.36906 -0.12978
4.24715 -3.34506 -0.13978
3.61315 -3.43806 -0.14878
3.72315 -3.42206 -0.15378
3.78815 -3.40706 -0.15578
3.94315 -3.38206 -0.16278
4.00815 -3.37306 -0.16578
4.06515 -3.36706 -0.16878
4.12315 -3.35006 -0.17078
4.19315 -3.34206 -0.17478
4.19715 -3.33406 -0.17478
4.22015 -3.33106 -0.17578
4.24415 -3.32906 -0.17678
4.26415 -3.32306 -0.17778
4.28915 -3.32106 -0.17878
4.31815 -3.32206 -0.18078
4.37715 -3.31306 -0.18378
4.44815 -3.30206 -0.18678
0.00815098 -4.07806 -0.10678
0.021151 -4.07606 -0.10678
0.053151 -4.08006 -0.10678
0.078151 -4.06506 -0.10578
0.091151 -4.06706 -0.10578
0.104151 -4.06906 -0.10578
0.117151 -4.06606 -0.10578
0.123151 -4.06006 -0.10578
0.136151 -4.06006 -0.10578
0.148151 -4.05506 -0.10478
0.161151 -4.05706 -0.10478
0.186151 -4.04606 -0.10478
0.199151 -4.04306 -0.10478
0.218151 -4.04606 -0.10478
0.231151 -4.04506 -0.10478
0.243151 -4.03906 -0.10378
0.256151 -4.04606 -0.10478
0.268151 -4.02906 -0.10378
0.280151 -4.02606 -0.10378
0.287151 -4.03006 -0.10378
0.299151 -4.02906 -0.10378
0.312151 -4.02806 -0.10378
0.324151 -4.01706 -0.10278
0.375151 -4.01906 -0.10378
0.381151 -4.01806 -0.10378
0.393151 -4.01306 -0.10278
0.406151 -4.01006 -0.10278
0.418151 -4.00406 -0.10278
0.431151 -4.00706 -0.10278
0.444151 -4.01006 -0.10378
0.457151 -4.01206 -0.10378
0.462151 -3.99906 -0.10278
0.476151 -4.00606 -0.10378
0.487151 -3.99306 -0.10278
0.501151 -4.00306 -0.10378
0.513151 -4.00106 -0.10378
0.526151 -3.99806 -0.10278
0.544151 -3.99306 -0.10278
0.557151 -3.99306 -0.10278
0.568151 -3.98406 -0.10278
0.581151 -3.98206 -0.10278
0.594151 -3.98406 -0.10278
0.607151 -3.98206 -0.10278
0.618151 -3.97206 -0.10178
0.625151 -3.97506 -0.10278
0.636151 -3.96706 -0.10178
0.649151 -3.96506 -0.10178
0.662151 -3.96906 -0.10278
0.673151 -3.96106 -0.10178
0.686151 -3.96106 -0.10178
0.700151 -3.96506 -0.10278
0.705151 -3.96006 -0.10278
0.731151 -3.95906 -0.10278
0.754151 -3.94706 -0.10178
0.767151 -3.94806 -0.10278
0.780151 -3.94606 -0.10278
0.786151 -3.94306 -0.10178
0.798151 -3.94206 -0.10278
0.825151 -3.94506 -0.10278
0.835151 -3.93006 -0.10178
0.861151 -3.93306 -0.10278
0.867151 -3.93206 -0.10278
0.881151 -3.93306 -0.10278
0.892151 -3.92606 -0.10278
0.906151 -3.93106 -0.10378
0.918151 -3.92806 -0.10378
0.931151 -3.92706 -0.10378
0.944151 -3.92606 -0.10378
0.961151 -3.91406 -0.10278
0.974151 -3.91706 -0.10378
0.988151 -3.91706 -0.10378
0.997151 -3.90306 -0.10278
1.01115 -3.90706 -0.10378
1.02415 -3.90406 -0.10378
1.02915 -3.89906 -0.10278
1.04315 -3.90306 -0.10378
1.06715 -3.89506 -0.10378
1.07915 -3.89106 -0.10378
1.10615 -3.89206 -0.10378
1.11415 -3.89606 -0.10478
1.12515 -3.88906 -0.10478
1.13515 -3.87906 -0.10378
1.15015 -3.88306 -0.10478
1.16315 -3.88406 -0.10478
1.17615 -3.88206 -0.10478
1.19015 -3.88406 -0.10578
1.20515 -3.86906 -0.10478
1.24315 -3.86306 -0.10478
1.25615 -3.85906 -0.10478
1.27115 -3.86406 -0.10578
1.27615 -3.85906 -0.10578
1.29115 -3.86406 -0.10578
1.30315 -3.86006 -0.10578
1.31515 -3.85606 -0.10578
1.32915 -3.85506 -0.10678
1.34115 -3.85106 -0.10678
1.35315 -3.84906 -0.10678
1.36015 -3.84706 -0.10678
1.37315 -3.84606 -0.10678
1.38515 -3.84206 -0.10678
1.39915 -3.84306 -0.10778
1.41115 -3.83906 -0.10778
1.42515 -3.83806 -0.10778
1.43915 -3.83906 -0.10778
1.45815 -3.83606 -0.10878
1.48215 -3.82506 -0.10878
1.49315 -3.81806 -0.10778
1.51115 -3.82806 -0.10978
1.52615 -3.81406 -0.10878
1.54315 -3.82206 -0.10978
1.58215 -3.81306 -0.10978
1.59415 -3.81006 -0.11078
1.60815 -3.80806 -0.11078
1.62815 -3.80606 -0.11078
1.69015 -3.78606 -0.11178
1.71315 -3.78806 -0.11278
1.73415 -3.77206 -0.11178
1.78115 -3.77906 -0.11378
1.82515 -3.76506 -0.11478
1.85315 -3.76206 -0.11478
1.86915 -3.76506 -0.11578
1.87515 -3.76206 -0.11578
1.91615 -3.75506 -0.11678
1.93115 -3.75406 -0.11678
2.00215 -3.73306 -0.11778
2.04715 -3.73106 -0.11978
2.08215 -3.72506 -0.12078
2.12215 -3.71406 -0.12078
2.15115 -3.71106 -0.12178
2.18815 -3.70606 -0.12278
2.23115 -3.69906 -0.12478
2.26715 -3.69306 -0.12578
2.28115 -3.68906 -0.12578
2.31715 -3.66906 -0.12578
2.48715 -3.65306 -0.13178
2.51615 -3.64506 -0.13278
2.70315 -3.61606 -0.13878
1.79315 -3.76006 -0.14078
1.85315 -3.74806 -0.14178
1.88115 -3.74706 -0.14278
1.89315 -3.74106 -0.14278
1.90815 -3.74106 -0.14378
1.94215 -3.73606 -0.14378
2.02615 -3.72406 -0.14678
2.07115 -3.71006 -0.14778
2.08615 -3.70906 -0.14778
2.10015 -3.70706 -0.14778
2.15015 -3.69906 -0.14978
2.16315 -3.69406 -0.14978
2.19015 -3.68806 -0.15078
2.22815 -3.68606 -0.15178
2.25415 -3.67706 -0.15278
2.26915 -3.67506 -0.15278
2.28515 -3.67606 -0.15378
2.29715 -3.66906 -0.15378
2.30615 -3.67006 -0.15378
2.33315 -3.66306 -0.15478
2.35315 -3.66906 -0.15578
2.36615 -3.66306 -0.15578
2.38215 -3.66206 -0.15678
2.39315 -3.65506 -0.15678
2.41415 -3.64806 -0.15778
2.47615 -3.64306 -0.15978
2.49715 -3.63806 -0.16078
2.51015 -3.63106 -0.16078
2.55915 -3.62906 -0.16278
2.62515 -3.61306 -0.16478
2.64515 -3.61606 -0.16578
2.67815 -3.61406 -0.16778
2.69515 -3.60106 -0.16778
2.72615 -3.59606 -0.16878
2.76315 -3.59806 -0.17078
2.77515 -3.59006 -0.17078
2.79415 -3.59106 -0.17178
2.81215 -3.58006 -0.17178
2.82715 -3.57506 -0.17178
2.84715 -3.57706 -0.17278
2.85915 -3.57006 -0.17378
2.87815 -3.57006 -0.17478
2.89315 -3.56606 -0.17478
2.90615 -3.57106 -0.17578
2.92115 -3.56606 -0.17578
2.94115 -3.56806 -0.17778
2.95215 -3.55906 -0.17778
2.97515 -3.56306 -0.17878
3.00515 -3.55406 -0.17978
3.01715 -3.55706 -0.18078
3.03015 -3.55006 -0.18078
3.06215 -3.54206 -0.18178
3.07315 -3.53206 -0.18178
3.10015 -3.54006 -0.18378
3.12415 -3.53506 -0.18478
3.14215 -3.53206 -0.18578
3.15515 -3.52506 -0.18578
3.17415 -3.52406 -0.18678
3.20315 -3.51206 -0.18778
3.22415 -3.51206 -0.18878
3.24015 -3.51906 -0.18978
3.28415 -3.50006 -0.19178
3.30415 -3.50006 -0.19278
3.32915 -3.50406 -0.19378
3.34515 -3.49906 -0.19478
3.37115 -3.49306 -0.19578
3.40915 -3.48806 -0.19778
3.42615 -3.48406 -0.19878
3.44215 -3.47806 -0.19878
3.46815 -3.47206 -0.19978
3.50615 -3.46706 -0.20178
3.53015 -3.46806 -0.20378
3.54715 -3.46306 -0.20378
3.56015 -3.45406 -0.20478
3.58715 -3.45806 -0.20578
3.72215 -3.43406 -0.21278
4.00015 -3.37906 -0.22678
4.05015 -3.37806 -0.22978
4.06315 -3.36806 -0.22978
4.08915 -3.36806 -0.23178
4.11815 -3.34806 -0.23178
4.16315 -3.35306 -0.23578
4.24715 -3.33406 -0.23978
4.26715 -3.32806 -0.24078
4.28615 -3.33206 -0.24178
4.30315 -3.32306 -0.24278
4.32115 -3.31606 -0.24378
4.35515 -3.32106 -0.24578
4.36415 -3.30606 -0.24578
4.39115 -3.30406 -0.24778
4.41715 -3.30206 -0.24878
4.43015 -3.30106 -0.24978
4.45315 -3.29706 -0.25078
0.121151 -4.05306 -0.15478
0.423151 -4.01106 -0.15378
0.460151 -3.99906 -0.15278
0.702151 -3.95106 -0.15178
1.09415 -3.88006 -0.15278
1.46215 -3.81606 -0.15778
1.67915 -3.78106 -0.16278
1.70715 -3.77906 -0.16278
1.80915 -3.76606 -0.16578
1.82715 -3.75806 -0.16578
1.84015 -3.75406 -0.16578
1.88615 -3.75806 -0.16778
1.89615 -3.74806 -0.16778
1.91415 -3.74106 -0.16778
