0.770177 -3.84699 -0.144324
0.784177 -3.84999 -0.145324
0.797177 -3.85399 -0.145324
0.819177 -3.83699 -0.144324
0.825177 -3.83999 -0.145324
0.852177 -3.84599 -0.146324
0.862177 -3.83399 -0.145324
0.875177 -3.83299 -0.145324
0.889177 -3.83999 -0.146324
0.900177 -3.83299 -0.145324
0.904177 -3.82199 -0.145324
0.917177 -3.82299 -0.145324
0.930177 -3.82399 -0.145324
0.955177 -3.82399 -0.146324
0.978177 -3.81199 -0.145324
0.985177 -3.81599 -0.146324
0.997177 -3.81299 -0.146324
1.00718 -3.80199 -0.145324
1.02418 -3.81599 -0.147324
1.04618 -3.80399 -0.146324
1.06718 -3.80899 -0.147324
1.07518 -3.79199 -0.146324
1.08718 -3.78899 -0.146324
1.10218 -3.79699 -0.147324
1.11318 -3.79099 -0.147324
1.12618 -3.78999 -0.147324
1.14018 -3.79399 -0.147324
1.14218 -3.77999 -0.146324
1.15618 -3.78299 -0.147324
1.16918 -3.78099 -0.147324
1.18318 -3.78499 -0.148324
1.19218 -3.77299 -0.147324
1.20918 -3.78299 -0.148324
1.22218 -3.76399 -0.147324
1.23618 -3.76799 -0.148324
1.24918 -3.76699 -0.148324
1.26418 -3.77099 -0.149324
1.27618 -3.76699 -0.149324
1.28618 -3.75699 -0.148324
1.29718 -3.75299 -0.148324
1.30518 -3.75699 -0.149324
1.32018 -3.76199 -0.150324
1.32918 -3.75099 -0.149324
1.34518 -3.75599 -0.150324
1.35418 -3.74599 -0.149324
1.36918 -3.74899 -0.150324
1.38118 -3.74699 -0.150324
1.39818 -3.73599 -0.150324
1.41018 -3.73399 -0.150324
1.42818 -3.74399 -0.151324
1.44118 -3.74299 -0.152324
1.45118 -3.73499 -0.151324
1.48218 -3.72699 -0.152324
1.49418 -3.72299 -0.152324
1.50718 -3.72199 -0.152324
1.52118 -3.72199 -0.153324
1.53518 -3.72499 -0.153324
1.55518 -3.72299 -0.154324
1.56718 -3.71799 -0.154324
1.57918 -3.71299 -0.154324
1.59018 -3.70799 -0.154324
1.60518 -3.71099 -0.154324
1.63718 -3.70299 -0.155324
1.64918 -3.69999 -0.155324
1.69118 -3.69899 -0.157324
1.69818 -3.68399 -0.156324
1.71718 -3.69299 -0.157324
1.73218 -3.69499 -0.158324
1.73618 -3.69099 -0.158324
1.74718 -3.68299 -0.157324
1.76418 -3.68899 -0.158324
1.78818 -3.67899 -0.159324
1.83618 -3.67399 -0.160324
1.84518 -3.66399 -0.160324
1.87718 -3.66999 -0.161324
1.88918 -3.66399 -0.161324
1.89618 -3.66299 -0.161324
1.90818 -3.65899 -0.162324
1.92018 -3.65299 -0.162324
1.95018 -3.65499 -0.163324
1.96318 -3.65199 -0.163324
1.97418 -3.64399 -0.163324
1.98118 -3.64299 -0.163324
1.99418 -3.63999 -0.164324
2.01218 -3.64599 -0.165324
2.05118 -3.63399 -0.166324
2.08218 -3.62299 -0.166324
2.10018 -3.62799 -0.167324
2.11218 -3.62199 -0.167324
2.18318 -3.59999 -0.169324
2.21318 -3.59799 -0.170324
2.23018 -3.59899 -0.171324
2.24918 -3.60399 -0.172324
2.29218 -3.58399 -0.173324
2.31118 -3.58999 -0.174324
2.32318 -3.58299 -0.174324
2.34118 -3.58599 -0.175324
2.35018 -3.58699 -0.176324
2.36018 -3.57799 -0.175324
2.38518 -3.56799 -0.176324
2.40618 -3.57399 -0.177324
2.42018 -3.57099 -0.178324
2.43618 -3.56999 -0.178324
2.45218 -3.56899 -0.179324
2.46018 -3.56799 -0.179324
2.48718 -3.55899 -0.180324
2.51218 -3.54799 -0.181324
2.53318 -3.55299 -0.182324
2.54618 -3.54899 -0.182324
2.56918 -3.54499 -0.183324
2.58518 -3.54299 -0.184324
2.60118 -3.54099 -0.185324
2.61318 -3.53499 -0.185324
2.63018 -3.53399 -0.186324
2.64818 -3.53599 -0.187324
2.65618 -3.53499 -0.187324
2.69718 -3.51899 -0.188324
2.71518 -3.51999 -0.189324
2.72818 -3.51299 -0.189324
2.75018 -3.51799 -0.191324
2.75318 -3.51099 -0.190324
2.77118 -3.51199 -0.191324
2.82118 -3.50499 -0.194324
2.84918 -3.49499 -0.195324
2.86118 -3.49799 -0.195324
2.87318 -3.49099 -0.196324
2.89218 -3.49099 -0.197324
2.90918 -3.48999 -0.197324
2.97418 -3.46599 -0.200324
3.10818 -3.45399 -0.206324
3.12418 -3.44999 -0.207324
3.27118 -3.42299 -0.214324
3.28618 -3.41699 -0.214324
3.32018 -3.41999 -0.217324
3.37218 -3.40799 -0.219324
3.39118 -3.40599 -0.220324
3.40318 -3.39699 -0.220324
3.45218 -3.39199 -0.223324
3.47318 -3.39099 -0.224324
3.50718 -3.38099 -0.226324
3.57818 -3.37399 -0.230324
3.59718 -3.37099 -0.231324
3.60618 -3.35799 -0.231324
3.63618 -3.36399 -0.233324
3.65518 -3.36099 -0.234324
3.70118 -3.34899 -0.236324
3.71718 -3.34299 -0.237324
3.73818 -3.34099 -0.238324
3.75218 -3.33099 -0.238324
3.77718 -3.33299 -0.240324
3.81518 -3.33399 -0.243324
3.83018 -3.32599 -0.243324
3.86318 -3.31299 -0.244324
3.92018 -3.30799 -0.248324
3.94718 -3.30899 -0.250324
3.96518 -3.30299 -0.251324
4.24118 -3.24799 -0.266324
4.32018 -3.24399 -0.271324
4.38018 -3.23599 -0.275324
4.40018 -3.22899 -0.276324
4.44318 -3.21699 -0.278324
4.47318 -3.21699 -0.281324
4.49718 -3.21399 -0.282324
4.50718 -3.20999 -0.283324
4.58518 -3.19999 -0.288324
4.63518 -3.19099 -0.291324
4.66118 -3.18799 -0.292324
4.68418 -3.18199 -0.294324
4.69818 -3.17999 -0.295324
4.71918 -3.17299 -0.296324
4.94618 -3.13599 -0.310324
4.97218 -3.13099 -0.312324
4.99918 -3.12599 -0.314324
5.04118 -3.11899 -0.317324
5.08918 -3.10499 -0.319324
5.17818 -3.09199 -0.325324
5.25118 -3.07999 -0.330324
5.34718 -3.06899 -0.337324
5.40318 -3.05499 -0.340324
5.48618 -3.04499 -0.346324
5.51318 -3.03799 -0.348324
5.58018 -3.02799 -0.353324
5.59018 -3.02299 -0.353324
5.62018 -3.01599 -0.355324
5.68818 -3.00699 -0.360324
5.72418 -3.00299 -0.363324
5.74418 -2.98999 -0.364324
5.78718 -2.98899 -0.367324
5.81318 -2.97899 -0.368324
5.86818 -2.97199 -0.372324
5.91118 -2.97099 -0.376324
5.94318 -2.96399 -0.378324
5.97418 -2.95499 -0.380324
6.00118 -2.94499 -0.382324
6.03118 -2.94799 -0.384324
6.10018 -2.93399 -0.389324
6.13318 -2.92599 -0.391324
6.16218 -2.91599 -0.393324
6.20518 -2.91299 -0.396324
6.23218 -2.90099 -0.398324
6.26818 -2.90599 -0.401324
6.33818 -2.88999 -0.406324
6.38218 -2.88599 -0.409324
6.41318 -2.87499 -0.411324
6.46018 -2.87199 -0.415324
6.48218 -2.85699 -0.416324
6.55018 -2.84999 -0.421324
6.64918 -2.84299 -0.429324
6.68018 -2.83199 -0.431324
6.76018 -2.81499 -0.436324
6.81718 -2.80199 -0.441324
6.87218 -2.79899 -0.445324
6.90518 -2.78699 -0.447324
6.94518 -2.77799 -0.450324
6.98918 -2.76999 -0.453324
7.03318 -2.76099 -0.456324
7.11118 -2.75299 -0.462324
7.15018 -2.74199 -0.465324
7.19918 -2.73499 -0.469324
7.25718 -2.72999 -0.473324
7.28818 -2.71599 -0.475324
7.33218 -2.70599 -0.479324
7.38118 -2.69799 -0.483324
7.42118 -2.69899 -0.486324
7.45818 -2.68599 -0.488324
7.51318 -2.67899 -0.493324
7.55718 -2.66799 -0.496324
7.60718 -2.65799 -0.500324
7.66418 -2.65099 -0.504324
7.74518 -2.63799 -0.510324
7.81018 -2.63299 -0.515324
7.84818 -2.61799 -0.518324
7.95918 -2.59899 -0.527324
8.10918 -2.57699 -0.538324
8.16418 -2.56699 -0.543324
8.21618 -2.55399 -0.547324
8.27018 -2.54299 -0.551324
0.125177 -3.95399 -0.171324
0.138177 -3.95199 -0.171324
0.181177 -3.94399 -0.170324
0.273177 -3.93499 -0.170324
0.298177 -3.92699 -0.169324
0.322177 -3.91899 -0.169324
0.341177 -3.91899 -0.169324
0.353177 -3.91399 -0.168324
0.444177 -3.89899 -0.168324
0.468177 -3.89399 -0.168324
0.523177 -3.88499 -0.167324
0.547177 -3.88199 -0.167324
0.578177 -3.87499 -0.167324
0.614177 -3.86999 -0.167324
0.638177 -3.86399 -0.167324
0.645177 -3.86499 -0.167324
0.657177 -3.86699 -0.168324
0.681177 -3.86099 -0.167324
0.717177 -3.85199 -0.167324
0.760177 -3.84399 -0.167324
0.772177 -3.84499 -0.168324
0.784177 -3.83899 -0.167324
0.796177 -3.83699 -0.167324
0.816177 -3.84399 -0.168324
0.838177 -3.82999 -0.167324
0.851177 -3.83099 -0.168324
0.882177 -3.82599 -0.168324
0.920177 -3.82699 -0.169324
0.930177 -3.81599 -0.168324
0.961177 -3.81099 -0.168324
0.972177 -3.80599 -0.168324
1.01018 -3.80599 -0.169324
1.02218 -3.80299 -0.169324
1.03318 -3.79599 -0.169324
1.07718 -3.79199 -0.169324
1.10218 -3.78899 -0.170324
1.11518 -3.79099 -0.170324
1.12018 -3.78399 -0.170324
1.13218 -3.77999 -0.170324
1.18118 -3.77199 -0.170324
1.19418 -3.77199 -0.171324
1.20018 -3.77199 -0.171324
1.21518 -3.77499 -0.172324
1.22518 -3.76799 -0.171324
1.23918 -3.76999 -0.172324
1.25118 -3.76799 -0.172324
1.27318 -3.75399 -0.171324
1.28318 -3.76299 -0.173324
1.29218 -3.75199 -0.172324
1.31818 -3.75099 -0.173324
1.33118 -3.74899 -0.173324
1.35518 -3.74199 -0.173324
1.36118 -3.74199 -0.173324
1.37518 -3.74299 -0.174324
1.38718 -3.73899 -0.174324
1.39918 -3.73599 -0.174324
1.42618 -3.73499 -0.175324
1.44718 -3.73799 -0.176324
1.45818 -3.73299 -0.176324
1.47118 -3.72999 -0.176324
1.48318 -3.72799 -0.176324
1.49618 -3.72699 -0.176324
1.50718 -3.71999 -0.176324
1.51818 -3.71299 -0.176324
1.52818 -3.71999 -0.177324
1.53918 -3.71399 -0.177324
1.55418 -3.71799 -0.178324
1.56718 -3.71499 -0.178324
1.57718 -3.70599 -0.177324
1.59018 -3.70499 -0.178324
1.60618 -3.70899 -0.179324
1.62418 -3.70299 -0.179324
1.65918 -3.68999 -0.179324
1.67918 -3.70299 -0.181324
1.69218 -3.70099 -0.181324
1.70218 -3.68999 -0.181324
1.70818 -3.68899 -0.181324
1.72118 -3.68599 -0.181324
1.73218 -3.67999 -0.181324
1.74518 -3.67699 -0.181324
1.76118 -3.68199 -0.182324
1.77418 -3.67799 -0.182324
1.78418 -3.68399 -0.183324
1.80818 -3.67499 -0.184324
1.82018 -3.67099 -0.184324
1.83618 -3.67399 -0.185324
1.84418 -3.66099 -0.184324
1.85718 -3.65899 -0.184324
1.86818 -3.66699 -0.185324
1.87718 -3.65599 -0.185324
1.89418 -3.65999 -0.186324
1.92118 -3.65499 -0.187324
1.92918 -3.64399 -0.186324
1.95018 -3.65599 -0.188324
1.95618 -3.63899 -0.187324
1.96818 -3.64799 -0.188324
1.98318 -3.64899 -0.189324
1.99818 -3.64799 -0.189324
2.00518 -3.63499 -0.189324
2.02118 -3.63499 -0.189324
2.03518 -3.63399 -0.190324
2.04818 -3.63099 -0.190324
2.05818 -3.63499 -0.191324
2.06818 -3.62699 -0.191324
2.08618 -3.63199 -0.192324
2.09918 -3.62799 -0.192324
2.11118 -3.62299 -0.193324
2.12818 -3.62499 -0.193324
2.14018 -3.61999 -0.194324
2.14718 -3.61799 -0.194324
2.16318 -3.61999 -0.195324
2.17618 -3.61699 -0.195324
2.18618 -3.60599 -0.195324
2.19818 -3.60099 -0.195324
2.21818 -3.60799 -0.196324
2.21718 -3.59399 -0.195324
2.23818 -3.60199 -0.197324
2.25418 -3.60399 -0.198324
2.26818 -3.59999 -0.198324
2.27718 -3.58999 -0.198324
2.29018 -3.58599 -0.198324
2.30618 -3.58499 -0.199324
2.31618 -3.57599 -0.199324
2.32818 -3.58299 -0.200324
2.34618 -3.58499 -0.201324
2.36118 -3.58499 -0.202324
2.36918 -3.57199 -0.201324
2.38718 -3.57499 -0.202324
2.40218 -3.57199 -0.203324
2.41718 -3.57099 -0.204324
2.42318 -3.56799 -0.204324
2.44018 -3.56799 -0.204324
2.45418 -3.56499 -0.205324
2.46318 -3.55399 -0.205324
2.48618 -3.56299 -0.206324
2.49818 -3.55699 -0.207324
2.51318 -3.55399 -0.207324
2.51918 -3.55199 -0.207324
2.53618 -3.55199 -0.208324
2.54718 -3.54399 -0.208324
2.56718 -3.54699 -0.210324
2.57718 -3.53699 -0.209324
2.59618 -3.54099 -0.211324
2.60718 -3.53199 -0.211324
2.63318 -3.53299 -0.212324
2.66018 -3.52299 -0.213324
2.68318 -3.52999 -0.215324
2.69018 -3.51699 -0.214324
2.71018 -3.51999 -0.215324
2.72018 -3.52199 -0.216324
2.73718 -3.52099 -0.217324
2.75118 -3.51599 -0.217324
2.76118 -3.50499 -0.217324
2.81518 -3.50599 -0.220324
2.84018 -3.50299 -0.222324
2.87018 -3.49599 -0.223324
2.92718 -3.48599 -0.225324
2.99318 -3.47599 -0.229324
3.69118 -3.35499 -0.266324
4.18518 -3.26599 -0.295324
4.67018 -3.18499 -0.327324
4.69518 -3.18099 -0.328324
4.83518 -3.15599 -0.338324
4.85718 -3.14899 -0.339324
5.03218 -3.11899 -0.351324
5.11918 -3.10599 -0.357324
5.16018 -3.09899 -0.360324
5.17918 -3.08799 -0.361324
5.27318 -3.07699 -0.368324
5.41118 -3.05699 -0.378324
5.43318 -3.04699 -0.380324
5.46118 -3.03999 -0.382324
5.49518 -3.03699 -0.384324
5.51918 -3.03899 -0.386324
5.63918 -3.01299 -0.395324
5.66818 -3.00599 -0.397324
5.68818 -3.00599 -0.398324
5.72218 -3.00099 -0.401324
5.75718 -2.99599 -0.404324
5.78218 -2.98599 -0.405324
5.81418 -2.97999 -0.408324
5.84618 -2.97299 -0.410324
5.87518 -2.96499 -0.412324
5.90718 -2.96899 -0.415324
5.93418 -2.95899 -0.417324
5.96618 -2.95199 -0.419324
6.00218 -2.94699 -0.422324
6.04418 -2.94399 -0.425324
6.06718 -2.93199 -0.426324
6.10518 -2.92699 -0.429324
6.16718 -2.92099 -0.434324
6.20318 -2.91399 -0.437324
6.62818 -2.82799 -0.469324
6.69818 -2.82099 -0.475324
6.76218 -2.82299 -0.481324
6.78618 -2.80799 -0.482324
6.85918 -2.78799 -0.488324
6.90618 -2.78199 -0.491324
6.93818 -2.78199 -0.494324
6.97318 -2.77099 -0.497324
7.02018 -2.76499 -0.501324
7.05518 -2.75299 -0.503324
7.19418 -2.72999 -0.514324
7.21518 -2.72499 -0.516324
7.28918 -2.72699 -0.522324
7.36518 -2.70299 -0.528324
7.53318 -2.67199 -0.542324
7.58918 -2.66499 -0.546324
7.64218 -2.65699 -0.551324
7.69418 -2.64799 -0.555324
7.94418 -2.60899 -0.576324
7.98218 -2.59399 -0.579324
8.11418 -2.58099 -0.590324
8.21418 -2.55699 -0.598324
8.23318 -2.54799 -0.599324
8.29218 -2.53799 -0.604324
8.38218 -2.53699 -0.612324
8.48818 -2.51199 -0.621324
8.60118 -2.48699 -0.630324
8.70618 -2.47299 -0.639324
8.83118 -2.44899 -0.649324
8.95718 -2.42399 -0.660324
9.15118 -2.39999 -0.677324
4.19618 -3.26299 -0.330324
4.42618 -3.21199 -0.345324
4.63218 -3.17499 -0.359324
4.66718 -3.16699 -0.362324
4.77018 -3.14899 -0.369324
4.82118 -3.14999 -0.373324
4.91918 -3.12699 -0.380324
4.99418 -3.11899 -0.386324
5.07518 -3.10299 -0.392324
5.55718 -3.01199 -0.428324
6.26818 -2.88999 -0.486324
6.38418 -2.86999 -0.495324
6.48118 -2.85199 -0.503324
6.60118 -2.83099 -0.513324
7.03718 -2.75799 -0.550324
7.68518 -2.65299 -0.606324
7.78018 -2.63099 -0.614324
7.89118 -2.61299 -0.624324
8.09418 -2.58199 -0.642324
8.41818 -2.52499 -0.671324
8.52818 -2.49899 -0.680324
8.90418 -2.44199 -0.715324
9.27818 -2.37199 -0.748324
10.2122 -2.21899 -0.834324
0.940177 -3.81599 -0.218324
1.04918 -3.79299 -0.219324
1.11618 -3.78099 -0.219324
1.12918 -3.78299 -0.220324
1.19618 -3.76799 -0.220324
1.24718 -3.76399 -0.222324
1.31518 -3.75199 -0.223324
1.43918 -3.72499 -0.225324
1.62918 -3.69199 -0.229324
1.65618 -3.68899 -0.230324
1.68918 -3.68499 -0.231324
1.77418 -3.67099 -0.233324
1.80218 -3.66999 -0.235324
1.90118 -3.65399 -0.238324
1.92418 -3.64199 -0.238324
2.00318 -3.63699 -0.241324
2.16518 -3.60399 -0.247324
2.19518 -3.60199 -0.248324
2.22618 -3.58999 -0.249324
2.34618 -3.56799 -0.254324
2.49218 -3.54299 -0.260324
2.52418 -3.53999 -0.262324
2.63518 -3.51799 -0.267324
2.68118 -3.50999 -0.269324
2.76918 -3.49999 -0.274324
2.85318 -3.48099 -0.278324
2.91418 -3.47699 -0.281324
2.94218 -3.46599 -0.282324
4.00618 -3.28599 -0.349324
4.21318 -3.25099 -0.363324
4.22818 -3.24199 -0.364324
4.25418 -3.24099 -0.366324
4.27418 -3.24499 -0.368324
4.29518 -3.23999 -0.369324
4.31118 -3.23099 -0.370324
4.34118 -3.23199 -0.373324
4.35718 -3.22299 -0.374324
4.38218 -3.21999 -0.375324
4.40918 -3.21899 -0.378324
4.42418 -3.21899 -0.379324
4.44018 -3.20999 -0.380324
4.46818 -3.20899 -0.382324
4.49318 -3.20599 -0.384324
4.50818 -3.19499 -0.385324
4.54018 -3.19699 -0.387324
4.55518 -3.18599 -0.388324
4.57218 -3.18699 -0.389324
4.60518 -3.18799 -0.392324
4.62418 -3.18099 -0.394324
4.67218 -3.17099 -0.397324
4.73218 -3.15699 -0.402324
4.76018 -3.15499 -0.404324
4.78618 -3.15099 -0.406324
4.80818 -3.14299 -0.407324
4.83418 -3.13899 -0.409324
4.86418 -3.13699 -0.412324
4.89218 -3.13299 -0.414324
4.90718 -3.13199 -0.415324
4.92718 -3.12299 -0.417324
4.95718 -3.12099 -0.419324
4.98218 -3.11499 -0.421324
5.03818 -3.10599 -0.426324
5.06018 -3.09799 -0.427324
5.08018 -3.09899 -0.429324
5.11318 -3.09799 -0.432324
5.13018 -3.08599 -0.433324
5.18718 -3.07599 -0.437324
5.26918 -3.06899 -0.444324
5.29618 -3.06299 -0.446324
5.43918 -3.03299 -0.458324
5.45718 -3.03199 -0.459324
5.48918 -3.02799 -0.462324
5.52018 -3.02199 -0.465324
5.55018 -3.01599 -0.467324
5.69118 -2.98999 -0.479324
5.78718 -2.97199 -0.487324
6.10218 -2.91899 -0.514324
6.13818 -2.91299 -0.517324
6.17118 -2.90499 -0.520324
6.21418 -2.90099 -0.524324
6.24618 -2.89299 -0.526324
6.34318 -2.87799 -0.535324
6.38618 -2.87299 -0.539324
6.42118 -2.86499 -0.542324
6.46418 -2.85999 -0.546324
6.49518 -2.84899 -0.548324
6.53318 -2.84199 -0.551324
6.60518 -2.83599 -0.558324
6.64118 -2.82699 -0.561324
6.68518 -2.82099 -0.565324
6.72118 -2.81199 -0.568324
6.75918 -2.80299 -0.572324
6.91318 -2.77899 -0.585324
6.96818 -2.77499 -0.591324
6.99918 -2.76199 -0.593324
7.04418 -2.75499 -0.597324
7.14318 -2.74199 -0.606324
7.16818 -2.73899 -0.609324
7.21718 -2.73199 -0.613324
7.25018 -2.71899 -0.616324
7.30718 -2.71399 -0.621324
7.39318 -2.69299 -0.629324
7.58518 -2.66999 -0.647324
7.69018 -2.65299 -0.657324
7.78418 -2.63099 -0.665324
7.81118 -2.62599 -0.668324
7.87518 -2.62099 -0.674324
7.90818 -2.60399 -0.677324
7.97718 -2.59899 -0.683324
8.08018 -2.57699 -0.693324
8.18518 -2.56899 -0.703324
8.22018 -2.55099 -0.706324
8.29618 -2.54699 -0.714324
8.40718 -2.52299 -0.724324
8.56618 -2.49799 -0.739324
8.62318 -2.48599 -0.745324
8.67718 -2.47199 -0.749324
8.74818 -2.46299 -0.756324
9.04718 -2.40999 -0.785324
9.11618 -2.39799 -0.792324
9.17918 -2.38399 -0.798324
9.50318 -2.32599 -0.829324
0.0251773 -3.97499 -0.249324
0.0371773 -3.97099 -0.249324
0.0561773 -3.96899 -0.248324
0.0931773 -3.95799 -0.247324
0.106177 -3.96199 -0.248324
0.118177 -3.95999 -0.248324
0.173177 -3.94399 -0.246324
0.199177 -3.95199 -0.247324
0.204177 -3.94399 -0.246324
0.217177 -3.94099 -0.246324
0.308177 -3.92299 -0.245324
0.345177 -3.91999 -0.245324
0.376177 -3.91699 -0.245324
0.412177 -3.90799 -0.244324
0.468177 -3.90199 -0.244324
0.491177 -3.88899 -0.243324
0.503177 -3.88899 -0.243324
0.515177 -3.88599 -0.243324
0.558177 -3.87999 -0.243324
0.571177 -3.88199 -0.243324
0.649177 -3.86299 -0.243324
0.661177 -3.85899 -0.242324
0.673177 -3.85899 -0.243324
0.686177 -3.85899 -0.243324
0.692177 -3.86199 -0.243324
0.703177 -3.85399 -0.243324
0.717177 -3.86099 -0.244324
0.740177 -3.85099 -0.243324
0.752177 -3.84499 -0.243324
0.764177 -3.84399 -0.243324
0.770177 -3.84299 -0.243324
0.785177 -3.85199 -0.244324
0.797177 -3.84999 -0.244324
0.820177 -3.83899 -0.244324
0.843177 -3.82799 -0.243324
0.852177 -3.83999 -0.244324
0.861177 -3.82599 -0.243324
0.875177 -3.83299 -0.244324
0.886177 -3.82599 -0.244324
0.899177 -3.82699 -0.244324
0.911177 -3.82399 -0.244324
0.922177 -3.81799 -0.244324
0.929177 -3.81999 -0.244324
0.954177 -3.81599 -0.244324
0.968177 -3.82099 -0.245324
0.979177 -3.81599 -0.245324
0.990177 -3.80699 -0.244324
1.00318 -3.80799 -0.245324
1.01118 -3.81599 -0.246324
1.02118 -3.80499 -0.245324
1.03518 -3.80699 -0.246324
1.04418 -3.79299 -0.244324
1.05818 -3.79899 -0.246324
1.07218 -3.80099 -0.246324
1.08918 -3.79399 -0.246324
1.10318 -3.79599 -0.247324
1.11518 -3.79299 -0.247324
1.15018 -3.78199 -0.247324
1.16418 -3.78399 -0.247324
1.16918 -3.78099 -0.247324
1.19418 -3.77499 -0.247324
1.20618 -3.77099 -0.247324
1.21818 -3.76899 -0.248324
1.23118 -3.76899 -0.248324
1.24218 -3.76199 -0.248324
1.25018 -3.76699 -0.248324
1.26518 -3.77099 -0.249324
1.28418 -3.75199 -0.248324
1.31018 -3.74899 -0.249324
1.32218 -3.74699 -0.249324
1.33218 -3.75399 -0.250324
1.34218 -3.74599 -0.250324
1.35518 -3.74599 -0.250324
1.39418 -3.74199 -0.251324
1.40718 -3.74099 -0.252324
1.41218 -3.73699 -0.251324
1.42518 -3.73499 -0.252324
1.43618 -3.72999 -0.252324
1.45018 -3.73099 -0.252324
1.46618 -3.73799 -0.253324
1.47318 -3.71999 -0.252324
1.49718 -3.72799 -0.254324
1.51118 -3.72999 -0.255324
1.52418 -3.72799 -0.255324
1.53318 -3.71699 -0.254324
1.54818 -3.71999 -0.255324
1.56118 -3.71799 -0.255324
1.57418 -3.71699 -0.256324
1.58018 -3.71499 -0.256324
1.60618 -3.70999 -0.257324
1.63018 -3.70199 -0.257324
1.64418 -3.70199 -0.257324
1.65918 -3.70399 -0.258324
1.66418 -3.69999 -0.258324
1.68918 -3.69299 -0.259324
1.70318 -3.69299 -0.259324
1.74418 -3.68899 -0.261324
1.75018 -3.68599 -0.261324
1.77718 -3.68399 -0.262324
1.78718 -3.67499 -0.261324
1.80318 -3.67799 -0.263324
1.84818 -3.66699 -0.264324
1.86318 -3.66799 -0.265324
1.91718 -3.66099 -0.267324
1.93718 -3.65699 -0.267324
1.97418 -3.64199 -0.268324
2.03618 -3.63299 -0.270324
2.10818 -3.62599 -0.273324
2.23318 -3.60199 -0.278324
2.27818 -3.59899 -0.281324
2.31418 -3.59299 -0.282324
2.37018 -3.57999 -0.284324
2.56118 -3.54399 -0.293324
2.58618 -3.54299 -0.295324
2.59818 -3.53699 -0.295324
2.61718 -3.53799 -0.296324
2.64818 -3.53399 -0.298324
2.69918 -3.52099 -0.300324
2.72818 -3.51099 -0.301324
2.76118 -3.50799 -0.303324
2.82018 -3.50399 -0.307324
2.85318 -3.49799 -0.309324
2.88518 -3.49299 -0.311324
2.90818 -3.48699 -0.312324
5.79018 -2.98899 -0.531324
5.85618 -2.97699 -0.537324
6.01418 -2.94999 -0.551324
6.32818 -2.89599 -0.580324
6.92018 -2.79099 -0.636324
8.03718 -2.59499 -0.745324
8.10418 -2.58799 -0.752324
8.14318 -2.57199 -0.755324
8.20418 -2.56299 -0.761324
8.34918 -2.53599 -0.776324
8.41118 -2.52599 -0.782324
8.46618 -2.51299 -0.788324
8.51418 -2.49799 -0.792324
8.62018 -2.48499 -0.803324
8.68518 -2.47399 -0.810324
8.74818 -2.46199 -0.816324
8.81718 -2.45199 -0.823324
8.86918 -2.43599 -0.828324
8.93818 -2.42499 -0.835324
9.00918 -2.41299 -0.843324
9.04918 -2.40899 -0.847324
9.11818 -2.39599 -0.854324
9.19718 -2.38599 -0.862324
9.25418 -2.36999 -0.868324
9.51418 -2.32399 -0.894324
0.548177 -3.88099 -0.267324
0.590177 -3.87099 -0.267324
0.682177 -3.86199 -0.267324
0.717177 -3.84899 -0.267324
0.785177 -3.84199 -0.267324
0.979177 -3.80499 -0.268324
0.985177 -3.80399 -0.268324
1.02118 -3.79799 -0.269324
1.05918 -3.79399 -0.270324
1.07618 -3.78699 -0.269324
1.08918 -3.78799 -0.270324
1.12618 -3.78099 -0.270324
1.13818 -3.77699 -0.270324
1.19418 -3.76999 -0.271324
1.21918 -3.76699 -0.272324
1.30618 -3.75199 -0.273324
1.43718 -3.72699 -0.276324
1.45318 -3.73599 -0.278324
1.46518 -3.73099 -0.278324
1.49418 -3.71999 -0.278324
1.50618 -3.71499 -0.278324
1.52018 -3.71599 -0.278324
1.54918 -3.72099 -0.280324
1.55318 -3.71499 -0.280324
1.56318 -3.70399 -0.279324
1.57918 -3.70999 -0.280324
1.59218 -3.70899 -0.281324
1.60318 -3.70199 -0.281324
1.61618 -3.70099 -0.281324
1.63218 -3.70499 -0.282324
1.63718 -3.70099 -0.282324
1.65218 -3.70299 -0.283324
1.66218 -3.69399 -0.283324
1.68818 -3.69099 -0.283324
1.70118 -3.68699 -0.284324
1.71518 -3.68699 -0.284324
1.72318 -3.68999 -0.285324
1.73218 -3.67899 -0.284324
1.74718 -3.68099 -0.285324
1.76018 -3.67899 -0.286324
1.77318 -3.67699 -0.286324
1.78818 -3.67799 -0.287324
1.80718 -3.67299 -0.288324
1.82118 -3.67099 -0.288324
1.83718 -3.67499 -0.289324
1.86318 -3.66999 -0.290324
1.89018 -3.66499 -0.291324
1.92218 -3.65699 -0.292324
1.93618 -3.65699 -0.293324
1.96118 -3.64799 -0.293324
1.97518 -3.64699 -0.294324
1.99018 -3.64599 -0.295324
1.99518 -3.64099 -0.294324
2.01118 -3.64399 -0.296324
2.07918 -3.63199 -0.298324
2.08618 -3.63099 -0.299324
2.09918 -3.62799 -0.299324
2.11218 -3.62299 -0.299324
2.12418 -3.61799 -0.300324
2.15418 -3.61599 -0.301324
2.16318 -3.61799 -0.302324
2.18718 -3.60799 -0.302324
2.20018 -3.60299 -0.303324
2.24618 -3.60199 -0.305324
2.26818 -3.59999 -0.307324
2.28318 -3.59799 -0.307324
2.29618 -3.59399 -0.308324
2.31018 -3.58999 -0.308324
2.32418 -3.58799 -0.309324
2.33718 -3.58399 -0.309324
2.35118 -3.57999 -0.310324
2.36018 -3.58099 -0.310324
2.38418 -3.56999 -0.311324
2.40118 -3.56999 -0.312324
2.41918 -3.57299 -0.313324
2.42318 -3.55499 -0.312324
2.44618 -3.56399 -0.314324
2.45618 -3.56699 -0.315324
2.46718 -3.55899 -0.315324
2.48618 -3.56299 -0.317324
2.49518 -3.55199 -0.317324
2.51318 -3.55399 -0.318324
2.52618 -3.54899 -0.318324
2.54018 -3.54399 -0.319324
2.56518 -3.54299 -0.320324
2.59618 -3.53999 -0.322324
2.69718 -3.52399 -0.328324
2.71218 -3.52199 -0.329324
2.72318 -3.51399 -0.329324
2.81218 -3.50199 -0.334324
2.82818 -3.49899 -0.335324
2.84718 -3.49999 -0.336324
2.88718 -3.49299 -0.339324
2.89018 -3.47399 -0.337324
4.17518 -3.25799 -0.428324
4.27118 -3.24799 -0.436324
4.29818 -3.24699 -0.439324
4.47318 -3.21799 -0.453324
4.48718 -3.21599 -0.455324
4.53318 -3.20699 -0.458324
4.63018 -3.18899 -0.466324
4.66618 -3.18199 -0.469324
5.33018 -3.06499 -0.528324
5.40718 -3.05399 -0.535324
5.43918 -3.04899 -0.538324
5.46918 -3.04399 -0.541324
5.50118 -3.03899 -0.544324
5.57918 -3.02599 -0.551324
5.64218 -3.01399 -0.557324
5.67618 -3.00899 -0.560324
5.70418 -3.00199 -0.563324
5.73718 -2.99599 -0.566324
5.78918 -2.98899 -0.571324
5.82218 -2.98299 -0.574324
5.85218 -2.97499 -0.577324
5.88118 -2.96699 -0.579324
5.91518 -2.96099 -0.583324
5.94218 -2.95099 -0.585324
5.98018 -2.94699 -0.589324
6.00918 -2.94999 -0.592324
6.04418 -2.94299 -0.595324
6.07818 -2.93599 -0.599324
6.11718 -2.93199 -0.602324
6.15218 -2.92499 -0.606324
6.17918 -2.91399 -0.608324
6.21018 -2.91699 -0.612324
6.24318 -2.90799 -0.615324
6.27718 -2.89999 -0.618324
6.32218 -2.89699 -0.622324
6.35518 -2.88799 -0.625324
6.38918 -2.87999 -0.629324
6.43118 -2.87499 -0.633324
6.46518 -2.86599 -0.636324
6.52918 -2.85799 -0.643324
6.57318 -2.85199 -0.647324
6.61118 -2.84399 -0.651324
6.64418 -2.83399 -0.654324
6.68918 -2.82799 -0.659324
6.75218 -2.81799 -0.665324
6.87518 -2.79399 -0.677324
6.92518 -2.78899 -0.682324
6.96118 -2.77799 -0.686324
7.03918 -2.77099 -0.694324
7.08618 -2.76399 -0.699324
7.12818 -2.75499 -0.703324
7.17718 -2.74799 -0.708324
7.21618 -2.73699 -0.712324
7.26118 -2.72799 -0.716324
7.33918 -2.71899 -0.725324
7.37418 -2.70499 -0.728324
7.43618 -2.70199 -0.735324
7.47518 -2.68899 -0.738324
7.52218 -2.67999 -0.743324
7.58118 -2.67399 -0.749324
7.61618 -2.65999 -0.753324
7.65918 -2.66199 -0.758324
7.71818 -2.65499 -0.764324
7.75918 -2.64199 -0.768324
7.79918 -2.62799 -0.772324
7.86218 -2.62199 -0.778324
7.89818 -2.60699 -0.782324
7.95718 -2.59899 -0.788324
8.00518 -2.60099 -0.794324
8.05618 -2.58999 -0.799324
8.10818 -2.57799 -0.804324
8.16718 -2.56899 -0.811324
8.20318 -2.55199 -0.814324
8.26118 -2.54199 -0.820324
8.32018 -2.53199 -0.826324
8.36418 -2.53099 -0.831324
8.42318 -2.51999 -0.838324
8.48618 -2.50999 -0.844324
8.54218 -2.49799 -0.850324
8.59118 -2.48299 -0.855324
8.66218 -2.47399 -0.863324
8.77718 -2.46299 -0.875324
8.83018 -2.44799 -0.881324
8.89618 -2.43599 -0.888324
0.0871772 -3.97699 -0.297324
0.235177 -3.94899 -0.294324
0.297177 -3.93699 -0.293324
0.499177 -3.90599 -0.292324
2.55618 -3.54999 -0.346324
2.59918 -3.53799 -0.348324
2.60918 -3.54099 -0.349324
2.63918 -3.53399 -0.350324
5.65518 -3.01199 -0.595324
5.90618 -2.96799 -0.620324
6.13818 -2.92799 -0.644324
6.60318 -2.84799 -0.692324
7.21518 -2.73999 -0.756324
7.38618 -2.71199 -0.775324
7.43418 -2.70299 -0.780324
7.52718 -2.68299 -0.790324
7.58418 -2.67699 -0.796324
7.81518 -2.63399 -0.821324
7.91718 -2.61299 -0.832324
8.06018 -2.58899 -0.848324
8.12318 -2.58099 -0.855324
8.17818 -2.57099 -0.861324
8.22818 -2.55799 -0.867324
8.27818 -2.54499 -0.872324
8.37718 -2.53199 -0.883324
8.44618 -2.52299 -0.891324
8.50418 -2.51099 -0.897324
8.54018 -2.49299 -0.901324
4.22318 -3.24599 -0.490324
4.26618 -3.23799 -0.494324
4.43618 -3.20499 -0.509324
4.51518 -3.19799 -0.517324
4.59718 -3.18099 -0.524324
4.62018 -3.17599 -0.526324
4.78118 -3.14599 -0.541324
4.84518 -3.13399 -0.547324
4.87718 -3.13299 -0.550324
5.21618 -3.06999 -0.583324
5.31818 -3.05199 -0.593324
5.34718 -3.04599 -0.596324
5.38018 -3.04299 -0.599324
5.40118 -3.04299 -0.602324
5.43118 -3.03799 -0.605324
5.45818 -3.03099 -0.607324
5.49318 -3.02799 -0.611324
5.51718 -3.01799 -0.613324
5.54918 -3.01399 -0.616324
5.57918 -3.00699 -0.619324
5.63718 -3.00499 -0.626324
5.66418 -2.99599 -0.628324
5.69918 -2.99199 -0.632324
5.73518 -2.98799 -0.636324
5.76218 -2.97999 -0.639324
5.78718 -2.96999 -0.641324
5.81518 -2.97199 -0.644324
5.84718 -2.96599 -0.647324
5.88318 -2.96099 -0.651324
5.91318 -2.95299 -0.654324
5.94918 -2.94799 -0.658324
5.98218 -2.94099 -0.661324
6.01618 -2.93399 -0.665324
6.04918 -2.93899 -0.669324
6.09018 -2.93499 -0.674324
6.12218 -2.92699 -0.677324
6.15118 -2.91699 -0.680324
6.19318 -2.91299 -0.684324
6.21818 -2.90199 -0.686324
6.26118 -2.89799 -0.691324
6.32918 -2.89299 -0.699324
6.36918 -2.88799 -0.703324
6.42618 -2.86499 -0.709324
6.47318 -2.86199 -0.714324
6.51718 -2.85699 -0.719324
6.55118 -2.84799 -0.722324
6.58318 -2.84899 -0.726324
6.65718 -2.83199 -0.734324
6.70318 -2.82699 -0.739324
6.82618 -2.80399 -0.753324
6.94018 -2.78699 -0.765324
6.98318 -2.77999 -0.770324
7.02518 -2.77099 -0.775324
7.06918 -2.76299 -0.780324
7.10918 -2.75299 -0.784324
7.18918 -2.74499 -0.793324
7.28018 -2.72799 -0.803324
7.32218 -2.71799 -0.808324
7.37118 -2.70999 -0.813324
7.41118 -2.69799 -0.818324
7.50118 -2.69099 -0.828324
7.59418 -2.67099 -0.838324
7.68418 -2.64899 -0.848324
7.75218 -2.64499 -0.856324
7.87418 -2.61799 -0.870324
7.99018 -2.60199 -0.884324
8.02918 -2.58599 -0.888324
8.08018 -2.57499 -0.893324
8.10318 -2.56899 -0.896324
0.124177 -3.96699 -0.344324
0.148177 -3.95999 -0.344324
0.186177 -3.95899 -0.344324
0.204177 -3.95599 -0.343324
0.296177 -3.93999 -0.342324
0.308177 -3.92899 -0.341324
0.320177 -3.92799 -0.341324
0.333177 -3.93299 -0.342324
0.401177 -3.92099 -0.341324
0.413177 -3.91999 -0.341324
0.425177 -3.91399 -0.340324
0.437177 -3.91099 -0.340324
0.535177 -3.89699 -0.340324
0.559177 -3.89299 -0.340324
0.584177 -3.88999 -0.340324
0.638177 -3.87899 -0.339324
7.77218 -2.63399 -0.916324
7.80918 -2.61899 -0.920324
0.0141773 -3.98499 -0.374324
0.0201773 -3.97499 -0.372324
0.0331773 -3.98299 -0.374324
0.0451773 -3.97099 -0.372324
0.0581773 -3.97899 -0.373324
0.0701772 -3.97299 -0.372324
0.0831772 -3.97299 -0.372324
0.101177 -3.97199 -0.372324
0.114177 -3.96599 -0.371324
0.126177 -3.96699 -0.372324
0.138177 -3.95899 -0.370324
0.151177 -3.96499 -0.371324
0.163177 -3.95599 -0.370324
0.175177 -3.94799 -0.369324
0.182177 -3.95299 -0.370324
0.207177 -3.95199 -0.370324
0.219177 -3.94999 -0.370324
0.231177 -3.94499 -0.369324
0.244177 -3.94799 -0.370324
0.262177 -3.93899 -0.369324
0.274177 -3.93399 -0.368324
0.287177 -3.93699 -0.369324
0.323177 -3.92799 -0.368324
0.336177 -3.93299 -0.369324
0.379177 -3.92199 -0.367324
0.391177 -3.92199 -0.368324
0.403177 -3.91299 -0.367324
0.422177 -3.91499 -0.367324
0.446177 -3.90999 -0.367324
0.483177 -3.90799 -0.367324
0.501177 -3.89999 -0.366324
0.535177 -3.87899 -0.364324
0.708177 -3.86799 -0.366324
0.721177 -3.86699 -0.367324
1.14118 -3.78699 -0.370324
1.41718 -3.74599 -0.377324
2.55218 -3.54899 -0.429324
2.91418 -3.48099 -0.452324
5.46918 -3.04299 -0.696324
5.53118 -3.03299 -0.703324
5.67018 -3.00599 -0.718324
5.76818 -2.98899 -0.729324
5.95518 -2.95699 -0.751324
6.15118 -2.92399 -0.774324
6.20618 -2.91499 -0.780324
6.23918 -2.90599 -0.784324
6.31818 -2.89499 -0.794324
7.26018 -2.72799 -0.908324
7.28518 -2.71099 -0.910324
7.30518 -2.70499 -0.912324
4.88118 -3.14399 -0.658324
5.89618 -2.96899 -0.774324
7.09218 -2.75199 -0.921324
7.13218 -2.74099 -0.926324
7.23518 -2.71599 -0.939324
0.0291773 -3.98099 -0.420324
0.0471773 -3.97699 -0.420324
0.110177 -3.97099 -0.419324
0.141177 -3.96599 -0.418324
0.153177 -3.96399 -0.418324
0.190177 -3.95399 -0.417324
0.221177 -3.94699 -0.416324
0.270177 -3.94399 -0.416324
4.63318 -3.18799 -0.672324
6.69118 -2.82499 -0.923324
0.0601773 -3.97299 -0.513324
0.0731772 -3.97499 -0.514324
0.0851773 -3.97199 -0.513324
0.104177 -3.96999 -0.513324
0.129177 -3.96299 -0.512324
0.141177 -3.96499 -0.512324
0.172177 -3.95799 -0.511324
0.221177 -3.95099 -0.511324
0.246177 -3.94399 -0.510324
0.252177 -3.93899 -0.509324
0.313177 -3.92899 -0.508324
0.326177 -3.92999 -0.509324
0.332177 -3.92999 -0.509324
0.393177 -3.91999 -0.508324
0.412177 -3.91799 -0.508324
0.424177 -3.91499 -0.508324
0.448177 -3.91199 -0.508324
0.485177 -3.90399 -0.507324
0.490177 -3.90099 -0.507324
1.21918 -3.77899 -0.513324
1.32518 -3.75999 -0.516324
1.35018 -3.75599 -0.516324
1.43118 -3.73799 -0.518324
1.48918 -3.73199 -0.521324
1.50018 -3.72599 -0.520324
1.51418 -3.72699 -0.521324
1.53918 -3.72099 -0.522324
1.55818 -3.71699 -0.522324
1.58518 -3.71399 -0.524324
1.59818 -3.71299 -0.524324
1.65518 -3.70099 -0.526324
1.68118 -3.69599 -0.527324
1.69418 -3.69399 -0.528324
1.71518 -3.69299 -0.529324
1.72718 -3.68999 -0.529324
1.75418 -3.68599 -0.531324
1.76718 -3.68399 -0.531324
1.79018 -3.67099 -0.531324
1.82418 -3.66699 -0.533324
1.83918 -3.66899 -0.534324
1.88018 -3.66299 -0.536324
1.90018 -3.65999 -0.537324
1.91318 -3.65699 -0.538324
1.97318 -3.64499 -0.541324
2.00018 -3.63999 -0.542324
2.01518 -3.63999 -0.543324
2.02718 -3.63599 -0.543324
2.04018 -3.63099 -0.544324
2.05418 -3.62999 -0.545324
2.06418 -3.63299 -0.546324
2.07718 -3.62999 -0.547324
2.09018 -3.62499 -0.547324
2.10318 -3.62199 -0.548324
2.11618 -3.61899 -0.548324
2.13018 -3.61599 -0.549324
2.14518 -3.61599 -0.550324
2.15918 -3.61199 -0.551324
2.18218 -3.61199 -0.553324
2.31618 -3.58699 -0.560324
2.33118 -3.58599 -0.562324
2.36718 -3.57899 -0.564324
2.39318 -3.56899 -0.565324
2.40718 -3.56699 -0.566324
2.47818 -3.56099 -0.571324
2.52018 -3.54899 -0.574324
2.53618 -3.54899 -0.575324
2.55818 -3.54399 -0.576324
2.64418 -3.53199 -0.583324
2.68818 -3.52099 -0.586324
2.73518 -3.51399 -0.590324
2.77718 -3.50899 -0.593324
2.78918 -3.50199 -0.593324
2.86318 -3.49299 -0.600324
2.91018 -3.48199 -0.603324
4.45418 -3.21699 -0.755324
4.56218 -3.19699 -0.767324
4.63618 -3.18399 -0.776324
4.75018 -3.16399 -0.789324
4.79818 -3.15199 -0.794324
4.83818 -3.14599 -0.799324
4.86318 -3.13999 -0.802324
4.89618 -3.13999 -0.806324
4.91618 -3.13099 -0.808324
4.94618 -3.12799 -0.812324
5.01218 -3.11499 -0.820324
5.04518 -3.11299 -0.824324
5.07018 -3.10699 -0.827324
5.09418 -3.09899 -0.829324
5.13018 -3.09899 -0.834324
5.14718 -3.08699 -0.836324
5.20218 -3.08699 -0.843324
5.22218 -3.07599 -0.845324
5.26118 -3.07699 -0.850324
5.28818 -3.06999 -0.853324
5.31418 -3.06299 -0.857324
5.34818 -3.05999 -0.861324
5.39718 -3.05399 -0.867324
5.45818 -3.04299 -0.875324
5.51318 -3.02899 -0.881324
5.54018 -3.02099 -0.884324
5.57718 -3.01799 -0.890324
5.63018 -3.01199 -0.896324
5.66018 -3.00599 -0.900324
5.68918 -2.99799 -0.904324
5.71818 -2.98999 -0.907324
0.000177251 -3.98299 -0.554324
0.0131773 -3.97499 -0.553324
0.0251773 -3.97899 -0.554324
0.0381773 -3.98099 -0.554324
0.0501773 -3.97699 -0.553324
0.0751773 -3.97099 -0.552324
0.0941772 -3.96999 -0.552324
0.106177 -3.96999 -0.552324
0.119177 -3.96799 -0.552324
0.143177 -3.95899 -0.551324
0.156177 -3.95799 -0.551324
0.162177 -3.95199 -0.550324
0.174177 -3.95199 -0.550324
0.187177 -3.95099 -0.550324
0.199177 -3.95199 -0.550324
0.211177 -3.94799 -0.549324
0.223177 -3.94099 -0.548324
0.236177 -3.94499 -0.549324
0.242177 -3.93999 -0.548324
0.254177 -3.93499 -0.548324
0.266177 -3.93299 -0.547324
0.279177 -3.93599 -0.548324
0.291177 -3.92899 -0.547324
0.304177 -3.93199 -0.548324
0.316177 -3.92899 -0.547324
0.322177 -3.92699 -0.547324
0.334177 -3.92899 -0.548324
0.358177 -3.91899 -0.546324
0.371177 -3.91999 -0.547324
0.383177 -3.91499 -0.546324
0.395177 -3.91199 -0.546324
0.402177 -3.91699 -0.547324
0.414177 -3.91199 -0.546324
0.426177 -3.91499 -0.547324
0.462177 -3.90099 -0.545324
0.474177 -3.89899 -0.545324
0.481177 -3.90199 -0.546324
0.493177 -3.89899 -0.545324
0.505177 -3.89899 -0.546324
0.517177 -3.89599 -0.545324
0.530177 -3.89599 -0.546324
0.542177 -3.89399 -0.546324
0.573177 -3.88999 -0.546324
0.585177 -3.88599 -0.545324
0.597177 -3.88599 -0.546324
0.609177 -3.87999 -0.545324
0.713177 -3.86499 -0.545324
0.730177 -3.85599 -0.544324
0.743177 -3.86099 -0.546324
0.780177 -3.85399 -0.546324
0.803177 -3.84499 -0.545324
0.810177 -3.84799 -0.546324
0.871177 -3.83799 -0.546324
0.938177 -3.82399 -0.547324
0.950177 -3.82199 -0.547324
1.00518 -3.81199 -0.547324
1.01818 -3.81199 -0.548324
1.04118 -3.80599 -0.548324
1.04818 -3.80799 -0.549324
1.07218 -3.80099 -0.549324
1.11018 -3.79699 -0.550324
1.12118 -3.79099 -0.549324
1.14018 -3.78999 -0.550324
1.15318 -3.78999 -0.551324
1.18918 -3.78099 -0.551324
1.20818 -3.77899 -0.552324
1.22118 -3.77699 -0.552324
1.24318 -3.76499 -0.551324
1.25718 -3.76699 -0.552324
1.27118 -3.76899 -0.553324
1.28918 -3.76499 -0.554324
1.31318 -3.75799 -0.554324
1.32618 -3.75799 -0.555324
1.35118 -3.75099 -0.555324
1.36418 -3.75099 -0.556324
1.37118 -3.75199 -0.556324
1.38318 -3.74799 -0.556324
1.42018 -3.73999 -0.557324
1.46518 -3.73599 -0.559324
1.47818 -3.73299 -0.560324
1.49018 -3.72999 -0.560324
1.50118 -3.72299 -0.560324
1.52818 -3.72099 -0.561324
1.53518 -3.72299 -0.562324
1.54618 -3.71599 -0.561324
1.57118 -3.71199 -0.562324
1.58618 -3.71399 -0.564324
1.59918 -3.71199 -0.564324
1.61818 -3.70899 -0.565324
1.68318 -3.69699 -0.568324
1.69418 -3.69199 -0.568324
1.70118 -3.69099 -0.568324
1.76818 -3.68299 -0.572324
1.78118 -3.68099 -0.572324
1.81218 -3.67099 -0.573324
1.82418 -3.66699 -0.573324
1.83818 -3.66599 -0.574324
1.85118 -3.66199 -0.575324
1.91318 -3.65699 -0.579324
1.92518 -3.65099 -0.579324
1.94018 -3.65199 -0.580324
1.95118 -3.64599 -0.580324
1.96518 -3.64299 -0.581324
2.04118 -3.63299 -0.585324
2.07518 -3.62699 -0.587324
2.08918 -3.62499 -0.588324
2.11818 -3.62199 -0.590324
2.16518 -3.61099 -0.593324
2.22218 -3.60399 -0.597324
2.27218 -3.59599 -0.600324
2.28518 -3.59199 -0.601324
2.30918 -3.57899 -0.601324
2.32918 -3.58499 -0.604324
2.40818 -3.57099 -0.609324
2.42718 -3.56199 -0.610324
2.44318 -3.56299 -0.611324
2.48818 -3.55599 -0.615324
2.51518 -3.54699 -0.616324
2.52618 -3.55099 -0.618324
2.55518 -3.54499 -0.620324
2.59818 -3.53299 -0.622324
2.60918 -3.53699 -0.624324
2.65518 -3.52999 -0.628324
2.68518 -3.52199 -0.630324
2.69918 -3.51899 -0.631324
2.78418 -3.50299 -0.637324
2.81718 -3.49899 -0.640324
2.82618 -3.49899 -0.641324
2.90518 -3.48299 -0.648324
2.91818 -3.47699 -0.648324
4.27818 -3.24499 -0.788324
4.40518 -3.22299 -0.803324
4.42818 -3.21799 -0.806324
4.46718 -3.21499 -0.811324
4.49018 -3.20999 -0.813324
4.53218 -3.19799 -0.818324
4.56218 -3.19699 -0.822324
4.59618 -3.18899 -0.826324
4.66318 -3.17199 -0.834324
4.69618 -3.17199 -0.838324
4.74218 -3.15999 -0.844324
4.83918 -3.14899 -0.856324
4.89018 -3.13899 -0.863324
4.91518 -3.13299 -0.866324
4.98318 -3.12199 -0.874324
5.00818 -3.11599 -0.877324
5.03818 -3.11299 -0.881324
5.05918 -3.10399 -0.884324
5.08418 -3.09799 -0.887324
5.11418 -3.09399 -0.891324
5.13618 -3.09599 -0.894324
5.16218 -3.08999 -0.897324
5.19218 -3.08599 -0.901324
5.21518 -3.07799 -0.904324
5.24718 -3.07399 -0.908324
5.26518 -3.06299 -0.910324
5.28418 -3.06299 -0.913324
2.92918 -3.46299 -0.688324
4.94418 -3.12899 -0.921324
4.95318 -3.11199 -0.921324
4.97918 -3.10699 -0.924324
1.82218 -3.65499 -0.638324
1.90118 -3.63999 -0.642324
2.35818 -3.56199 -0.673324
2.77718 -3.48799 -0.707324
2.79418 -3.48699 -0.709324
2.80918 -3.48299 -0.710324
2.86718 -3.47599 -0.716324
2.90218 -3.47399 -0.720324
4.32518 -3.22099 -0.880324
4.35218 -3.22099 -0.884324
4.36818 -3.21199 -0.885324
4.43818 -3.19899 -0.894324
4.50218 -3.19199 -0.903324
4.52618 -3.18799 -0.906324
4.54918 -3.18299 -0.909324
4.57318 -3.17899 -0.913324
4.63218 -3.16599 -0.920324
4.65818 -3.16299 -0.924324
1.34518 -3.74999 -0.655324
1.38618 -3.73499 -0.655324
1.41418 -3.73699 -0.657324
1.42318 -3.72499 -0.656324
1.43218 -3.72999 -0.657324
1.44518 -3.72999 -0.658324
1.45418 -3.71899 -0.657324
1.47918 -3.71399 -0.658324
1.51418 -3.71699 -0.661324
1.56218 -3.69899 -0.661324
1.59018 -3.69999 -0.663324
1.60718 -3.69299 -0.663324
1.61918 -3.68899 -0.664324
1.65918 -3.68499 -0.666324
1.69318 -3.68199 -0.668324
1.70518 -3.67899 -0.669324
1.73018 -3.67099 -0.669324
1.83018 -3.65799 -0.675324
1.84418 -3.65699 -0.677324
1.90218 -3.64299 -0.679324
1.93718 -3.63999 -0.682324
1.94918 -3.63399 -0.682324
1.96618 -3.63799 -0.684324
1.97618 -3.62999 -0.684324
1.98918 -3.62499 -0.684324
2.01618 -3.62099 -0.686324
2.02618 -3.62499 -0.688324
2.05118 -3.61599 -0.688324
2.12918 -3.60699 -0.694324
2.14018 -3.59999 -0.694324
2.15618 -3.59999 -0.696324
2.16818 -3.59499 -0.696324
2.18418 -3.59599 -0.698324
2.19618 -3.58899 -0.698324
2.20818 -3.59599 -0.701324
2.22318 -3.59599 -0.702324
2.23218 -3.58499 -0.701324
2.24918 -3.58699 -0.703324
2.26318 -3.58399 -0.704324
2.27318 -3.57599 -0.704324
2.29918 -3.57799 -0.707324
2.31618 -3.58099 -0.709324
2.33118 -3.57799 -0.710324
2.34518 -3.57599 -0.712324
2.35718 -3.56899 -0.712324
2.36718 -3.55899 -0.711324
2.38418 -3.56199 -0.713324
2.38818 -3.55499 -0.713324
2.42018 -3.55399 -0.716324
2.43218 -3.54799 -0.716324
2.47318 -3.55899 -0.723324
2.47918 -3.54399 -0.721324
2.49318 -3.55199 -0.724324
2.50218 -3.54099 -0.723324
2.52018 -3.54199 -0.725324
2.52918 -3.53099 -0.724324
2.54418 -3.52999 -0.726324
2.56018 -3.52799 -0.727324
2.57618 -3.52599 -0.729324
2.59618 -3.53099 -0.732324
2.59918 -3.52299 -0.731324
2.62318 -3.53299 -0.735324
2.63518 -3.52399 -0.735324
2.64918 -3.52099 -0.737324
2.66018 -3.51199 -0.737324
2.70118 -3.50799 -0.741324
2.73018 -3.50099 -0.743324
2.75218 -3.50599 -0.747324
2.76818 -3.50299 -0.748324
2.78018 -3.49599 -0.748324
2.79018 -3.49599 -0.750324
2.80518 -3.49399 -0.751324
2.81618 -3.48499 -0.751324
2.83718 -3.48799 -0.754324
2.85618 -3.48799 -0.756324
2.86218 -3.47299 -0.755324
2.87918 -3.47199 -0.757324
4.29418 -3.23099 -0.924324
4.32218 -3.22999 -0.928324
4.34418 -3.22599 -0.931324
4.35818 -3.21499 -0.932324
4.39218 -3.21799 -0.938324
4.40818 -3.20899 -0.939324
4.42018 -3.20699 -0.941324
4.44218 -3.20199 -0.944324
4.46218 -3.19499 -0.946324
0.118177 -3.95899 -0.802324
0.149177 -3.95199 -0.801324
0.174177 -3.94699 -0.800324
0.211177 -3.94499 -0.800324
0.217177 -3.94699 -0.801324
0.229177 -3.94399 -0.800324
0.242177 -3.94299 -0.800324
0.254177 -3.93499 -0.798324
0.279177 -3.93699 -0.799324
0.308177 -3.91899 -0.796324
0.346177 -3.92399 -0.797324
0.357177 -3.91299 -0.795324
0.376177 -3.91299 -0.796324
0.425177 -3.90399 -0.795324
0.448177 -3.89399 -0.793324
0.455177 -3.90299 -0.795324
0.468177 -3.90299 -0.796324
0.479177 -3.88999 -0.793324
0.517177 -3.89499 -0.795324
0.529177 -3.89299 -0.795324
0.547177 -3.89099 -0.795324
0.583177 -3.87999 -0.794324
0.595177 -3.87599 -0.793324
0.650177 -3.87099 -0.794324
0.693177 -3.86599 -0.795324
0.717177 -3.86099 -0.795324
0.729177 -3.85699 -0.794324
0.753177 -3.85199 -0.794324
0.766177 -3.84999 -0.794324
0.784177 -3.84599 -0.794324
0.796177 -3.84399 -0.794324
0.833177 -3.84199 -0.796324
0.850177 -3.83399 -0.795324
0.898177 -3.82099 -0.794324
0.930177 -3.82299 -0.797324
0.980177 -3.81699 -0.798324
0.990177 -3.80799 -0.797324
1.00218 -3.80499 -0.797324
1.00918 -3.80699 -0.797324
1.03518 -3.80699 -0.799324
1.07118 -3.79699 -0.799324
1.08418 -3.79899 -0.800324
1.08918 -3.79199 -0.799324
1.12618 -3.78699 -0.800324
1.14018 -3.78899 -0.801324
1.16918 -3.77999 -0.801324
1.19418 -3.77599 -0.802324
1.20618 -3.77199 -0.802324
1.24418 -3.76799 -0.804324
1.27618 -3.76399 -0.806324
1.29718 -3.74999 -0.804324
1.31418 -3.75899 -0.807324
1.34418 -3.75199 -0.808324
1.36818 -3.74399 -0.808324
1.40318 -3.73099 -0.808324
1.41218 -3.73699 -0.811324
1.42418 -3.73299 -0.811324
1.43818 -3.73399 -0.812324
1.45218 -3.73499 -0.813324
1.49018 -3.72799 -0.815324
1.50818 -3.72299 -0.815324
1.58118 -3.70099 -0.817324
1.59318 -3.71099 -0.820324
1.67018 -3.69599 -0.825324
1.68618 -3.68699 -0.824324
1.69918 -3.68499 -0.825324
1.72818 -3.68599 -0.828324
1.76118 -3.67999 -0.830324
1.76818 -3.66499 -0.828324
1.79918 -3.66999 -0.832324
1.81418 -3.67099 -0.834324
1.83318 -3.66599 -0.834324
1.84518 -3.66199 -0.835324
1.87018 -3.65399 -0.836324
1.88718 -3.65799 -0.838324
1.91318 -3.65199 -0.840324
1.92318 -3.64399 -0.839324
1.94418 -3.64199 -0.841324
1.99918 -3.63399 -0.846324
2.01918 -3.62899 -0.847324
2.03418 -3.62999 -0.849324
2.07618 -3.62399 -0.852324
2.10118 -3.61399 -0.853324
2.12618 -3.61799 -0.857324
2.13818 -3.61299 -0.857324
2.14918 -3.60399 -0.857324
2.17518 -3.59699 -0.859324
2.22618 -3.59099 -0.864324
2.25418 -3.58599 -0.866324
2.30818 -3.58299 -0.872324
2.33818 -3.57999 -0.875324
2.38618 -3.56699 -0.879324
2.44918 -3.56199 -0.886324
2.47418 -3.55199 -0.888324
2.49718 -3.54799 -0.890324
2.53018 -3.54799 -0.894324
2.55718 -3.53799 -0.896324
2.58118 -3.53599 -0.899324
2.61118 -3.52999 -0.902324
2.64018 -3.52299 -0.905324
2.65718 -3.52299 -0.907324
2.67118 -3.51699 -0.908324
2.71318 -3.51499 -0.913324
2.72118 -3.50299 -0.913324
2.75318 -3.49799 -0.916324
2.77418 -3.50199 -0.920324
2.78318 -3.50199 -0.921324
2.79518 -3.49499 -0.922324
2.80818 -3.48899 -0.922324
2.88518 -3.48199 -0.932324
0.0871772 -3.95199 -0.875324
1.56318 -3.70399 -0.892324
2.00118 -3.62299 -0.921324
2.18018 -3.59099 -0.937324
2.21518 -3.58499 -0.940324
2.23018 -3.58499 -0.942324
2.25718 -3.57699 -0.944324
2.29918 -3.56899 -0.948324
2.30618 -3.56699 -0.949324
2.33618 -3.56399 -0.952324
2.35018 -3.56099 -0.953324
2.36518 -3.55899 -0.955324
2.39418 -3.55299 -0.958324
0.0921772 -3.96499 -0.919324
0.104177 -3.95999 -0.918324
0.129177 -3.95799 -0.917324
0.148177 -3.95299 -0.916324
0.160177 -3.94899 -0.915324
0.172177 -3.94799 -0.915324
0.209177 -3.93899 -0.913324
0.228177 -3.93599 -0.913324
0.253177 -3.93999 -0.914324
0.264177 -3.92399 -0.910324
0.277177 -3.93499 -0.913324
0.289177 -3.93399 -0.913324
0.295177 -3.92199 -0.910324
0.319177 -3.91799 -0.910324
0.344177 -3.91999 -0.911324
0.357177 -3.92199 -0.912324
0.368177 -3.90999 -0.909324
0.374177 -3.90899 -0.909324
0.387177 -3.90999 -0.909324
0.398177 -3.90099 -0.907324
0.411177 -3.90699 -0.909324
0.422177 -3.89299 -0.906324
0.436177 -3.90699 -0.910324
0.454177 -3.90299 -0.909324
0.465177 -3.89099 -0.907324
0.478177 -3.89599 -0.908324
0.491177 -3.89599 -0.909324
0.527177 -3.88899 -0.908324
0.533177 -3.88699 -0.908324
0.545177 -3.88299 -0.907324
0.582177 -3.88199 -0.908324
0.661177 -3.86899 -0.908324
0.704177 -3.85999 -0.908324
0.921177 -3.81499 -0.908324
0.940177 -3.81499 -0.909324
1.01418 -3.80599 -0.912324
1.03218 -3.80299 -0.912324
1.04518 -3.80299 -0.913324
1.11318 -3.79199 -0.915324
1.18118 -3.77999 -0.917324
1.66318 -3.68899 -0.940324
1.66918 -3.68699 -0.940324
1.69818 -3.68799 -0.944324
1.72118 -3.67799 -0.944324
1.73218 -3.67099 -0.943324
1.74918 -3.67699 -0.947324
1.75118 -3.66599 -0.944324
1.76818 -3.67299 -0.948324
1.79118 -3.66099 -0.948324
1.80218 -3.65399 -0.947324
1.81718 -3.65699 -0.950324
1.84018 -3.65899 -0.953324
1.86518 -3.65199 -0.954324
1.87618 -3.64499 -0.954324
1.89318 -3.64899 -0.957324
1.90218 -3.63999 -0.956324
1.91818 -3.64199 -0.958324
1.94018 -3.64199 -0.961324
1.97618 -3.62699 -0.962324
1.79518 -3.66199 -0.994324
1.79818 -3.65399 -0.992324
1.82518 -3.65099 -0.995324
0.126177 -3.93999 -1.30332
0.206177 -3.92499 -1.29932
0.323177 -3.91899 -1.30032
3.73518 5.55401 0.426676
3.49618 5.50901 0.421676
3.32218 5.47801 0.417676
3.23018 5.46101 0.415676
3.20118 5.45101 0.414676
3.17718 5.45001 0.413676
3.15118 5.44401 0.413676
3.07618 5.43201 0.411676
2.99118 5.41802 0.409676
2.96518 5.41201 0.409676
2.94018 5.40501 0.408676
2.91718 5.40401 0.408676
2.88118 5.39801 0.407676
2.85718 5.39301 0.406676
2.83118 5.38401 0.406676
2.80518 5.37701 0.405676
2.78518 5.37901 0.405676
2.72518 5.36701 0.404676
2.40918 5.30801 0.397676
2.38818 5.30602 0.397676
2.36318 5.29401 0.396676
2.34418 5.29601 0.396676
2.32418 5.29601 0.396676
2.30018 5.28601 0.395676
2.29018 5.28401 0.395676
2.26518 5.27301 0.394676
2.24518 5.27301 0.394676
2.22318 5.26701 0.393676
2.20518 5.26801 0.393676
2.18018 5.25701 0.393676
2.15918 5.25301 0.392676
2.14418 5.26301 0.392676
2.12918 5.24801 0.392676
2.11118 5.25301 0.392676
2.08518 5.23501 0.391676
2.06818 5.24001 0.391676
2.04518 5.22801 0.390676
2.03018 5.24001 0.390676
1.99618 5.22301 0.389676
6.24518 5.99901 0.438676
6.19818 5.99201 0.437676
6.14918 5.98201 0.435676
5.84718 5.92601 0.428676
5.80318 5.91901 0.427676
5.68818 5.89401 0.425676
5.55918 5.87101 0.422676
4.72318 5.71901 0.403676
4.56318 5.68801 0.400676
4.49518 5.67601 0.399676
2.41118 5.29801 0.360676
2.37018 5.29601 0.359676
2.34318 5.28201 0.358676
2.29218 5.27801 0.358676
2.24918 5.26901 0.357676
2.22518 5.25901 0.357676
2.20818 5.26401 0.356676
2.17618 5.25801 0.356676
2.13118 5.24201 0.355676
2.11618 5.25201 0.355676
2.06318 5.24101 0.354676
2.03918 5.22901 0.354676
2.02118 5.23001 0.354676
6.18018 5.99601 0.330676
6.09318 5.98701 0.329676
6.00318 5.97401 0.328676
5.97918 5.96901 0.327676
5.92518 5.95201 0.326676
5.84118 5.94301 0.325676
5.79618 5.93401 0.325676
5.75518 5.92901 0.324676
5.70318 5.91301 0.324676
5.66218 5.90801 0.323676
5.63618 5.89901 0.323676
5.59618 5.89401 0.322676
5.54918 5.88201 0.322676
5.51218 5.87901 0.321676
5.47018 5.87201 0.321676
5.42418 5.86001 0.320676
5.39118 5.86001 0.320676
5.36018 5.84501 0.319676
5.31718 5.83601 0.319676
5.28418 5.83601 0.318676
5.24218 5.82601 0.318676
5.20618 5.82301 0.318676
5.16518 5.81401 0.317676
5.12918 5.81101 0.317676
5.10318 5.79901 0.316676
5.06918 5.79701 0.316676
5.01818 5.77601 0.315676
4.98818 5.77801 0.315676
4.95018 5.77101 0.314676
4.91318 5.76501 0.314676
4.87718 5.75901 0.314676
4.85818 5.75501 0.313676
4.81918 5.74501 0.313676
4.78018 5.73601 0.312676
4.75118 5.73701 0.312676
4.71518 5.73101 0.312676
4.67518 5.71901 0.311676
4.64718 5.72101 0.311676
4.58718 5.70301 0.310676
