6.89102 -0.642011 -1.61785
6.87602 -0.619011 -1.61285
6.88002 -0.597011 -1.61385
6.87902 -0.587011 -1.61285
6.88802 -0.566011 -1.61485
6.87202 -0.543011 -1.61085
6.88202 -0.522011 -1.61285
6.87402 -0.499011 -1.60985
6.88702 -0.478011 -1.61285
6.87502 -0.456011 -1.60985
6.86102 -0.433011 -1.60585
6.86702 -0.423011 -1.60685
6.87402 -0.402011 -1.60885
6.88302 -0.380011 -1.61085
6.88802 -0.359011 -1.61185
6.88002 -0.337011 -1.60885
6.88902 -0.316011 -1.61085
6.88202 -0.294011 -1.60885
6.89602 -0.283011 -1.61285
6.87902 -0.261011 -1.60785
6.89002 -0.240011 -1.61085
6.89202 -0.218011 -1.61085
6.87202 -0.196011 -1.60585
6.88402 -0.175011 -1.60885
6.89202 -0.153011 -1.61085
6.88702 -0.142011 -1.60885
6.88102 -0.121011 -1.60785
6.88902 -0.0990107 -1.60985
6.88202 -0.0770107 -1.60785
6.88002 -0.0560107 -1.60685
6.88802 -0.0340107 -1.60885
6.87402 -0.0230107 -1.60585
6.88202 -0.00201066 -1.60785
6.62102 0.0109893 -1.61085
6.62702 0.0319893 -1.61185
6.62702 0.0419893 -1.61185
6.63002 0.0629893 -1.61285
6.62402 0.0839893 -1.61185
6.61802 0.124989 -1.60985
6.62302 0.145989 -1.61185
6.61502 0.187989 -1.60985
6.61202 0.197989 -1.60885
6.61502 0.239989 -1.60985
6.61802 0.260989 -1.61085
6.60902 0.322989 -1.60985
6.61402 0.374989 -1.61185
6.60702 0.488989 -1.61185
6.52202 1.29799 -1.61785
6.47402 1.58699 -1.62185
6.46002 1.62699 -1.62085
6.44702 1.67699 -1.62085
6.44702 1.69899 -1.62285
6.42702 1.75899 -1.62185
6.42002 1.79999 -1.62285
6.41102 1.82999 -1.62285
6.40502 1.87199 -1.62385
6.39002 1.91099 -1.62285
6.38602 1.93199 -1.62385
6.36602 2.00299 -1.62385
6.34602 2.08399 -1.62585
6.33102 2.13499 -1.62585
6.31902 2.17499 -1.62685
6.30902 2.19399 -1.62585
6.31502 2.21799 -1.62885
6.30902 2.22699 -1.62885
6.30902 2.24999 -1.63085
6.31102 2.27299 -1.63285
6.28402 2.28499 -1.62785
6.29202 2.30999 -1.63185
6.28602 2.33099 -1.63185
6.27502 2.34899 -1.63085
6.29102 2.36599 -1.63685
6.27902 2.38399 -1.63485
6.26002 2.39999 -1.63185
6.26002 2.42199 -1.63385
6.24902 2.43999 -1.63285
6.24402 2.46099 -1.63385
6.23902 2.48199 -1.63485
6.25102 2.49799 -1.63885
6.23902 2.51599 -1.63785
6.22202 2.53199 -1.63585
6.22902 2.55699 -1.63985
6.21902 2.57599 -1.63885
6.21302 2.59699 -1.63985
6.21702 2.62099 -1.64285
6.19702 2.62399 -1.63885
6.21502 2.65499 -1.64585
6.20102 2.67199 -1.64485
6.18802 2.68899 -1.64285
6.17002 2.70499 -1.64085
6.16902 2.72699 -1.64285
6.15102 2.74299 -1.63985
6.14202 2.74999 -1.63885
6.13502 2.76999 -1.63885
6.12402 2.78899 -1.63885
6.10002 2.80099 -1.63385
6.11002 2.82899 -1.63985
6.08602 2.84099 -1.63485
6.07302 2.85799 -1.63385
6.08302 2.87399 -1.63785
6.04502 2.92599 -1.63485
5.64802 3.72299 -1.64785
5.62602 3.77199 -1.64985
5.61902 3.79299 -1.65185
5.61102 3.81299 -1.65285
5.60202 3.83299 -1.65385
5.61102 3.86499 -1.65985
5.59302 3.86599 -1.65685
5.57202 3.87699 -1.65385
5.56702 3.89999 -1.65585
5.55502 3.91699 -1.65585
5.53602 3.92999 -1.65385
5.52602 3.94899 -1.65485
5.51302 3.96599 -1.65485
6.49602 -1.23901 -1.60885
6.50802 -1.22001 -1.61085
6.52902 -1.20201 -1.61485
6.53102 -1.18101 -1.61485
6.52702 -1.17001 -1.61285
6.53202 -1.15001 -1.61385
6.54002 -1.13001 -1.61485
6.53402 -1.10801 -1.61185
6.53102 -1.08601 -1.61085
6.56302 -1.07101 -1.61785
6.55902 -1.04901 -1.61585
6.55502 -1.03801 -1.61485
6.56402 -1.01801 -1.61585
6.56502 -0.997011 -1.61585
6.56102 -0.975011 -1.61385
6.57702 -0.957011 -1.61685
6.57002 -0.934011 -1.61485
6.56802 -0.913011 -1.61285
6.57502 -0.904011 -1.61485
6.58302 -0.884011 -1.61585
6.58402 -0.863011 -1.61585
6.58902 -0.842011 -1.61585
6.58602 -0.821011 -1.61485
6.60402 -0.802011 -1.61885
6.59302 -0.780011 -1.61485
6.59502 -0.759011 -1.61485
6.59002 -0.748011 -1.61385
6.61202 -0.729011 -1.61885
6.59902 -0.707011 -1.61485
6.59902 -0.686011 -1.61385
6.60102 -0.665011 -1.61385
6.61102 -0.645011 -1.61585
6.60502 -0.624011 -1.61385
6.60802 -0.614011 -1.61485
6.61202 -0.593011 -1.61485
6.59602 -0.571011 -1.61085
6.61002 -0.551011 -1.61385
6.61002 -0.530011 -1.61285
6.60902 -0.509011 -1.61285
6.62002 -0.489011 -1.61485
6.61902 -0.478011 -1.61485
6.60902 -0.457011 -1.61185
6.62202 -0.437011 -1.61485
6.61602 -0.416011 -1.61285
6.61502 -0.395011 -1.61185
6.61802 -0.374011 -1.61285
6.61902 -0.364011 -1.61285
6.60802 -0.342011 -1.60985
6.60902 -0.321011 -1.60985
6.62402 -0.301011 -1.61285
6.62102 -0.280011 -1.61185
6.63002 -0.260011 -1.61385
6.62302 -0.239011 -1.61185
6.62102 -0.228011 -1.61185
6.62802 -0.208011 -1.61285
6.61102 -0.186011 -1.60885
6.62902 -0.166011 -1.61285
6.63302 -0.145011 -1.61385
6.62002 -0.124011 -1.61085
6.62402 -0.103011 -1.61185
6.63602 -0.0930107 -1.61485
6.63202 -0.0720107 -1.61385
6.62102 -0.0510107 -1.61085
6.63102 -0.0310107 -1.61285
6.61502 -0.0100107 -1.60885
6.41802 0.00598934 -1.62885
6.40802 0.0159893 -1.62585
6.41402 0.0359893 -1.62785
6.41202 0.0569893 -1.62685
6.41102 0.0769893 -1.62685
6.42302 0.0969893 -1.62985
6.40902 0.116989 -1.62685
6.40502 0.136989 -1.62585
6.41402 0.156989 -1.62785
6.40402 0.166989 -1.62585
6.41702 0.187989 -1.62885
6.39902 0.206989 -1.62485
6.40202 0.227989 -1.62585
6.40502 0.247989 -1.62685
6.39902 0.267989 -1.62485
6.40202 0.287989 -1.62585
6.39702 0.297989 -1.62485
6.39202 0.317989 -1.62385
6.39902 0.337989 -1.62585
6.39002 0.357989 -1.62385
6.39902 0.378989 -1.62685
6.39902 0.398989 -1.62685
6.39202 0.417989 -1.62585
6.39002 0.427989 -1.62485
6.39402 0.448989 -1.62685
6.38502 0.467989 -1.62485
6.38502 0.488989 -1.62485
6.38802 0.508989 -1.62585
6.37702 0.527989 -1.62385
6.38602 0.548989 -1.62685
6.37802 0.558989 -1.62485
6.37002 0.577989 -1.62285
6.37602 0.598989 -1.62485
6.37802 0.618989 -1.62585
6.36502 0.637989 -1.62285
6.37602 0.659989 -1.62685
6.36202 0.677989 -1.62385
6.39002 0.690989 -1.63085
6.36302 0.708989 -1.62485
6.37402 0.729989 -1.62785
6.36402 0.748989 -1.62585
6.36002 0.768989 -1.62585
6.35702 0.788989 -1.62585
6.36102 0.809989 -1.62685
6.35502 0.818989 -1.62585
6.35502 0.839989 -1.62685
6.36002 0.860989 -1.62885
6.34902 0.878989 -1.62685
6.34802 0.899989 -1.62685
6.34802 0.919989 -1.62785
6.34302 0.939989 -1.62685
6.33502 0.948989 -1.62585
6.34602 0.970989 -1.62885
6.33702 0.989989 -1.62785
6.33602 1.00999 -1.62785
6.32302 1.02799 -1.62585
6.33502 1.05099 -1.62985
6.33202 1.06999 -1.62985
6.31902 1.07799 -1.62685
6.32302 1.09999 -1.62885
6.31502 1.11899 -1.62785
6.31602 1.13899 -1.62885
6.30602 1.15799 -1.62685
6.31002 1.17899 -1.62885
6.30702 1.19899 -1.62885
6.29902 1.20799 -1.62785
6.30302 1.22899 -1.62985
6.29902 1.24899 -1.62985
6.28902 1.26799 -1.62785
6.31002 1.29299 -1.63485
6.28902 1.30899 -1.62985
6.29002 1.32999 -1.63185
6.28602 1.33899 -1.63085
6.27802 1.35799 -1.62985
6.27802 1.37899 -1.63085
6.27702 1.39899 -1.63185
6.24602 1.41299 -1.62485
6.25102 1.43499 -1.62785
6.24502 1.45399 -1.62685
6.24402 1.46399 -1.62785
6.24402 1.48499 -1.62885
6.25202 1.50699 -1.63185
6.23802 1.52499 -1.62985
6.23302 1.54399 -1.62985
6.23802 1.56599 -1.63185
6.23402 1.58599 -1.63285
6.23502 1.60699 -1.63485
6.23802 1.61899 -1.63585
6.23502 1.63899 -1.63685
6.21302 1.65399 -1.63185
6.21902 1.67599 -1.63485
6.20102 1.69199 -1.63085
6.21202 1.71699 -1.63585
6.20802 1.73699 -1.63685
6.20902 1.74699 -1.63785
6.19502 1.76399 -1.63485
6.18902 1.78399 -1.63485
6.17602 1.80099 -1.63285
6.17602 1.82199 -1.63485
6.18102 1.84499 -1.63785
6.16602 1.86099 -1.63485
6.17402 1.87399 -1.63785
6.16302 1.89199 -1.63685
6.16002 1.91299 -1.63785
6.14702 1.92999 -1.63585
6.15202 1.95199 -1.63885
6.13302 1.96799 -1.63485
6.14102 1.99199 -1.63885
6.12902 1.99799 -1.63685
6.13902 2.02299 -1.64085
6.12602 2.03999 -1.63885
6.12502 2.06099 -1.64085
6.11802 2.07999 -1.64085
6.11202 2.09899 -1.64085
6.11402 2.12199 -1.64285
6.09202 2.12499 -1.63785
6.09102 2.14599 -1.63985
6.10302 2.17199 -1.64485
6.07402 2.18299 -1.63885
6.07802 2.20599 -1.64185
6.07302 2.22599 -1.64185
6.06802 2.24499 -1.64285
6.06602 2.25599 -1.64285
6.05002 2.27099 -1.64085
6.04802 2.29199 -1.64185
6.04302 2.31199 -1.64285
6.05002 2.33699 -1.64685
6.03702 2.35299 -1.64585
6.03502 2.37499 -1.64685
6.04002 2.38799 -1.64985
6.02402 2.40299 -1.64685
6.00902 2.41899 -1.64485
6.01402 2.44299 -1.64885
6.00402 2.46099 -1.64785
6.00702 2.48399 -1.65085
6.00302 2.50499 -1.65185
5.99402 2.51199 -1.65085
5.99102 2.53299 -1.65185
5.97202 2.59199 -1.65385
5.95302 2.63899 -1.65385
5.92802 2.67299 -1.65185
5.91602 2.68999 -1.65085
5.91102 2.70999 -1.65185
5.89902 2.72699 -1.65085
5.89702 2.74899 -1.65285
5.88402 2.75399 -1.64985
5.87002 2.76999 -1.64885
5.87602 2.79499 -1.65285
5.85102 2.80599 -1.64785
5.83402 2.81999 -1.64585
5.83202 2.84199 -1.64785
5.83802 2.86799 -1.65185
5.82002 2.86999 -1.64785
5.80602 2.88599 -1.64685
5.79102 2.90099 -1.64485
5.78602 2.92099 -1.64585
5.78002 2.94099 -1.64685
5.77402 2.96099 -1.64785
5.77002 2.98199 -1.64985
5.75802 2.98699 -1.64785
5.75402 3.00799 -1.64885
5.73602 3.02199 -1.64685
5.72302 3.03799 -1.64585
5.72702 3.06299 -1.64985
5.69902 3.07099 -1.64385
5.69602 3.09199 -1.64585
5.69502 3.10299 -1.64685
5.70202 3.12999 -1.65185
5.67002 3.13599 -1.64585
5.66502 3.15699 -1.64685
5.64802 3.17099 -1.64485
5.64302 3.19099 -1.64685
5.63702 3.21099 -1.64785
5.64002 3.22499 -1.64985
5.61802 3.23599 -1.64685
5.60602 3.25199 -1.64585
5.60302 3.27399 -1.64785
5.59702 3.29399 -1.64985
5.56802 3.32399 -1.64685
5.56002 3.33099 -1.64585
5.54802 3.34799 -1.64585
5.54202 3.36799 -1.64685
5.53102 3.38499 -1.64685
5.52402 3.40499 -1.64785
5.52002 3.42599 -1.64985
5.50902 3.44399 -1.64985
5.49302 3.46999 -1.64985
5.48302 3.48799 -1.65085
5.46802 3.52599 -1.65285
5.44902 3.53799 -1.64985
5.43502 3.56599 -1.65085
5.42902 3.58599 -1.65285
5.41602 3.60199 -1.65185
5.41302 3.62499 -1.65485
5.39502 3.63699 -1.65285
5.38802 3.65799 -1.65385
5.38902 3.68299 -1.65885
5.38202 3.69099 -1.65785
5.37502 3.71099 -1.65985
5.37002 3.73199 -1.66185
5.36602 3.75399 -1.66385
5.35602 3.77199 -1.66485
5.35502 3.79699 -1.66885
5.35402 3.82199 -1.67185
5.33102 3.83099 -1.66885
5.33402 3.84599 -1.67185
5.31002 3.85299 -1.66785
5.29002 3.86399 -1.66485
5.29102 3.89099 -1.66985
5.27502 3.90399 -1.66785
5.25902 3.91899 -1.66685
5.25102 3.93899 -1.66885
5.23802 3.94099 -1.66585
5.20702 3.94399 -1.65985
5.19602 3.96099 -1.65985
6.20202 -1.31901 -1.60785
6.23202 -1.30501 -1.61485
6.40102 -0.336011 -1.62685
6.41302 -0.236011 -1.62885
6.41102 -0.205011 -1.62785
6.41802 -0.145011 -1.62885
6.40302 -0.125011 -1.62485
6.41502 -0.0740107 -1.62785
6.42302 -0.0340107 -1.62985
6.42302 -0.0140107 -1.62985
6.06402 1.30499 -1.62485
6.05802 1.32399 -1.62485
5.75402 2.42499 -1.63685
5.75702 2.44699 -1.63985
5.74902 2.46499 -1.63985
5.73202 2.48999 -1.63785
5.73602 2.51299 -1.64185
5.72302 2.52899 -1.63985
5.71902 2.54899 -1.64185
5.70202 2.56299 -1.63885
5.10702 3.72099 -1.65785
5.06902 3.77899 -1.65885
6.02002 -1.32601 -1.61485
6.04502 -1.31201 -1.62085
6.05502 -1.29401 -1.62185
6.06302 -1.28601 -1.62385
6.06102 -1.26601 -1.62185
6.06102 -1.24601 -1.62085
6.06902 -1.22801 -1.62185
6.07302 -1.20901 -1.62185
6.07102 -1.18801 -1.62085
6.07802 -1.17001 -1.62185
6.07602 -1.16001 -1.62085
6.07402 -1.14001 -1.61885
6.08002 -1.12101 -1.61885
6.08302 -1.10201 -1.61885
6.08302 -1.08201 -1.61785
6.08402 -1.06201 -1.61785
6.08202 -1.05201 -1.61685
6.08902 -1.03401 -1.61785
6.09002 -1.01401 -1.61685
6.09202 -0.995011 -1.61685
6.09902 -0.976011 -1.61785
6.09402 -0.956011 -1.61585
6.11602 -0.940011 -1.62085
6.10602 -0.928011 -1.61785
6.10702 -0.909011 -1.61685
6.10802 -0.889011 -1.61685
6.11502 -0.871011 -1.61785
6.10602 -0.850011 -1.61485
6.11402 -0.832011 -1.61585
6.11102 -0.812011 -1.61485
6.11002 -0.802011 -1.61385
6.11702 -0.783011 -1.61485
6.12702 -0.765011 -1.61685
6.12902 -0.746011 -1.61685
6.12602 -0.726011 -1.61585
6.12802 -0.706011 -1.61585
6.13002 -0.687011 -1.61585
6.12002 -0.676011 -1.61185
6.12802 -0.658011 -1.61385
6.12802 -0.638011 -1.61285
6.13202 -0.619011 -1.61385
6.13702 -0.600011 -1.61485
6.13502 -0.581011 -1.61385
6.14102 -0.562011 -1.61485
6.14502 -0.543011 -1.61585
6.13602 -0.532011 -1.61285
6.14302 -0.513011 -1.61485
6.13902 -0.493011 -1.61285
6.14102 -0.474011 -1.61285
6.14502 -0.436011 -1.61285
6.15402 -0.417011 -1.61585
6.15702 -0.407011 -1.61585
6.15302 -0.388011 -1.61485
6.15902 -0.369011 -1.61585
6.15302 -0.349011 -1.61385
6.15302 -0.310011 -1.61285
6.15802 -0.281011 -1.61485
6.16102 -0.262011 -1.61485
6.16402 -0.243011 -1.61585
6.16602 -0.223011 -1.61585
6.16302 -0.204011 -1.61485
6.16102 -0.155011 -1.61385
6.16102 -0.136011 -1.61385
6.16402 -0.0780107 -1.61485
6.16402 -0.0590107 -1.61485
5.97402 0.0189893 -1.61985
5.97402 0.0379893 -1.61985
5.97402 0.0659893 -1.61985
5.98502 0.103989 -1.62285
5.97302 0.121989 -1.61985
5.97602 0.159989 -1.62085
5.98002 0.206989 -1.62285
5.97002 0.224989 -1.61985
5.96902 0.243989 -1.61985
5.97002 0.262989 -1.62085
5.96502 0.299989 -1.61985
5.96902 0.328989 -1.62085
5.96102 0.450989 -1.62085
5.95302 0.609989 -1.62285
5.93902 0.806989 -1.62585
5.93302 0.834989 -1.62485
5.92602 0.871989 -1.62485
5.92202 0.909989 -1.62485
5.92202 0.937989 -1.62585
5.92102 0.956989 -1.62685
5.91802 0.975989 -1.62685
5.89102 1.13399 -1.62685
5.87202 1.25499 -1.62885
5.86302 1.29099 -1.62885
5.85802 1.31899 -1.62885
5.85602 1.35799 -1.63085
5.83902 1.39299 -1.62885
5.83902 1.45999 -1.63285
5.82002 1.49499 -1.62985
5.81202 1.53199 -1.63085
5.81602 1.54199 -1.63185
5.82202 1.56399 -1.63585
5.80702 1.61799 -1.63585
5.78802 1.66199 -1.63385
5.77602 1.71799 -1.63485
5.75802 1.75199 -1.63285
5.77102 1.77599 -1.63885
5.74602 1.81799 -1.63485
5.72802 1.87199 -1.63485
5.72202 1.91999 -1.63785
5.69902 1.95199 -1.63485
5.69302 1.96999 -1.63485
5.68602 2.00699 -1.63585
5.69002 2.01899 -1.63885
5.68102 2.05599 -1.63985
5.66902 2.07199 -1.63785
5.66002 2.10899 -1.63885
5.65102 2.12599 -1.63885
5.64102 2.15199 -1.63885
5.63802 2.17099 -1.63985
5.61202 2.22199 -1.63785
5.60702 2.24099 -1.63885
5.60102 2.26899 -1.63985
5.58902 2.28499 -1.63885
5.58702 2.30399 -1.63985
5.58502 2.32399 -1.64185
5.57402 2.33999 -1.64085
5.56302 2.35599 -1.63985
5.57002 2.36999 -1.64285
5.55602 2.38399 -1.64085
5.56002 2.40699 -1.64485
5.54902 2.42299 -1.64385
5.54302 2.44099 -1.64385
5.54402 2.46199 -1.64685
5.53302 2.47799 -1.64585
5.52402 2.48399 -1.64385
5.52302 2.50499 -1.64585
5.51702 2.52299 -1.64685
5.51302 2.54199 -1.64785
5.49902 2.55699 -1.64585
5.50202 2.57899 -1.64985
5.48302 2.59099 -1.64585
5.48302 2.60199 -1.64685
5.46902 2.61599 -1.64585
5.45902 2.63299 -1.64485
5.44702 2.64799 -1.64385
5.45102 2.67099 -1.64785
5.43102 2.68199 -1.64385
5.42802 2.71299 -1.64685
4.87002 3.69399 -1.65985
5.80102 -1.36401 -1.61585
5.83902 -1.35301 -1.62585
5.84302 -1.33501 -1.62585
5.85802 -1.31901 -1.62885
5.86302 -1.30001 -1.62885
5.85702 -1.29001 -1.62685
5.85702 -1.27001 -1.62585
5.86902 -1.25401 -1.62785
5.86102 -1.23301 -1.62485
5.87102 -1.21601 -1.62585
5.86702 -1.19601 -1.62385
5.89002 -1.18101 -1.62985
5.88802 -1.17101 -1.62885
5.89202 -1.15201 -1.62885
5.88802 -1.13201 -1.62585
5.89902 -1.11501 -1.62885
5.89102 -1.09501 -1.62485
5.89802 -1.07701 -1.62585
5.89402 -1.05701 -1.62385
5.91102 -1.05001 -1.62885
5.91402 -1.03201 -1.62885
5.90202 -1.01101 -1.62385
5.90702 -0.992011 -1.62485
5.90602 -0.973011 -1.62285
5.93002 -0.958011 -1.62985
5.92402 -0.938011 -1.62685
5.92102 -0.918011 -1.62485
5.91802 -0.909011 -1.62385
5.92702 -0.891011 -1.62585
5.92402 -0.871011 -1.62385
5.92102 -0.852011 -1.62185
5.93502 -0.835011 -1.62585
5.92102 -0.814011 -1.62085
5.93102 -0.796011 -1.62285
5.91902 -0.785011 -1.61885
5.93402 -0.768011 -1.62285
5.92702 -0.749011 -1.61985
5.94102 -0.731011 -1.62285
5.93202 -0.711011 -1.61985
5.94602 -0.694011 -1.62285
5.93702 -0.684011 -1.62085
5.93002 -0.664011 -1.61785
5.95102 -0.647011 -1.62285
5.95702 -0.629011 -1.62485
5.94902 -0.609011 -1.62185
5.95502 -0.591011 -1.62285
5.95502 -0.572011 -1.62185
5.95402 -0.553011 -1.62185
5.94602 -0.543011 -1.61885
5.95702 -0.525011 -1.62185
5.94702 -0.505011 -1.61785
5.95402 -0.487011 -1.61985
5.96202 -0.469011 -1.62185
5.95502 -0.450011 -1.61985
5.97802 -0.432011 -1.62585
5.95002 -0.421011 -1.61685
5.96302 -0.403011 -1.62085
5.96602 -0.385011 -1.62085
5.96102 -0.365011 -1.61985
5.97202 -0.347011 -1.62185
5.97102 -0.328011 -1.62185
5.97402 -0.310011 -1.62185
5.97102 -0.300011 -1.62085
5.97302 -0.281011 -1.62185
5.97102 -0.263011 -1.62085
5.97702 -0.244011 -1.62185
5.98002 -0.225011 -1.62285
5.97102 -0.206011 -1.61985
5.98502 -0.188011 -1.62385
5.97602 -0.178011 -1.62085
5.97602 -0.159011 -1.62085
5.98602 -0.141011 -1.62385
5.96502 -0.122011 -1.61785
5.97202 -0.103011 -1.61985
5.98102 -0.0840107 -1.62185
5.98002 -0.0660107 -1.62185
5.98602 -0.0560107 -1.62285
5.97602 -0.0370107 -1.62085
5.96902 -0.0190107 -1.61785
5.83502 0.159989 -1.62185
5.45002 2.27199 -1.64185
5.45102 2.29299 -1.64485
5.41702 2.35899 -1.64285
5.41302 2.36699 -1.64285
5.40702 2.40499 -1.64585
5.40302 2.42399 -1.64685
5.40902 2.44699 -1.65185
5.39302 2.45999 -1.64885
5.38102 2.47499 -1.64785
5.37802 2.48399 -1.64785
5.38002 2.50499 -1.65085
5.35702 2.51499 -1.64585
5.35602 2.53499 -1.64885
5.34402 2.54999 -1.64685
5.33602 2.56699 -1.64685
5.33302 2.58599 -1.64885
5.32002 2.60099 -1.64685
5.32602 2.61399 -1.65085
5.30802 2.62599 -1.64685
5.29602 2.64099 -1.64585
5.64502 -1.40701 -1.61685
5.66802 -1.39401 -1.62185
5.71902 -1.33101 -1.63285
5.72702 -1.30401 -1.63285
5.72902 -1.28601 -1.63285
5.72802 -1.26601 -1.63085
5.72802 -1.24701 -1.62985
5.72002 -1.22701 -1.62585
5.72202 -1.20901 -1.62585
5.72202 -1.19001 -1.62485
5.73902 -1.18401 -1.62885
5.72802 -1.16301 -1.62485
5.74102 -1.14701 -1.62685
5.75002 -1.13001 -1.62885
5.73902 -1.10901 -1.62485
5.73602 -1.09001 -1.62285
5.75502 -1.07501 -1.62685
5.75502 -1.06501 -1.62685
5.76602 -1.04801 -1.62885
5.76102 -1.02901 -1.62685
5.76102 -1.01001 -1.62585
5.76602 -0.992011 -1.62585
5.76702 -0.974011 -1.62585
5.75302 -0.962011 -1.62085
5.77002 -0.946011 -1.62485
5.77602 -0.929011 -1.62585
5.76602 -0.909011 -1.62185
5.77102 -0.891011 -1.62285
5.77302 -0.873011 -1.62285
5.78902 -0.857011 -1.62685
5.78302 -0.837011 -1.62385
5.78402 -0.828011 -1.62385
5.77702 -0.808011 -1.62085
5.78102 -0.790011 -1.62185
5.79002 -0.773011 -1.62285
5.77902 -0.753011 -1.61885
5.77902 -0.735011 -1.61885
5.78702 -0.717011 -1.62085
5.79202 -0.709011 -1.62185
5.79802 -0.691011 -1.62285
5.80602 -0.673011 -1.62485
5.79702 -0.654011 -1.62085
5.80002 -0.636011 -1.62185
5.79702 -0.617011 -1.61985
5.80102 -0.599011 -1.62085
5.80002 -0.590011 -1.61985
5.79602 -0.552011 -1.61785
5.80902 -0.535011 -1.62085
5.81602 -0.518011 -1.62285
5.81402 -0.499011 -1.62185
5.81702 -0.481011 -1.62185
5.81002 -0.471011 -1.61985
5.81902 -0.453011 -1.62185
5.81502 -0.435011 -1.62085
5.81102 -0.416011 -1.61885
5.81602 -0.398011 -1.61985
5.82302 -0.380011 -1.62185
5.81802 -0.361011 -1.61985
5.82502 -0.353011 -1.62185
5.82602 -0.334011 -1.62185
5.82502 -0.316011 -1.62085
5.82302 -0.279011 -1.61985
5.82602 -0.243011 -1.62085
5.83202 -0.234011 -1.62185
5.82502 -0.215011 -1.61985
5.84102 -0.197011 -1.62485
5.83202 -0.179011 -1.62185
5.82802 -0.142011 -1.61985
5.83202 -0.124011 -1.62085
5.83102 -0.0960107 -1.62085
5.83702 -0.0600107 -1.62185
5.84702 -0.0230107 -1.62485
5.65102 0.0209893 -1.63485
5.66602 0.0389893 -1.63985
5.66002 0.0569893 -1.63785
5.66902 0.0749893 -1.64085
5.65402 0.0919893 -1.63685
5.65902 0.100989 -1.63785
5.65502 0.118989 -1.63685
5.65702 0.136989 -1.63785
5.65602 0.154989 -1.63785
5.65202 0.171989 -1.63685
5.64902 0.189989 -1.63585
5.65402 0.207989 -1.63785
5.65802 0.216989 -1.63885
5.66102 0.234989 -1.63985
5.66602 0.252989 -1.64185
5.65002 0.269989 -1.63685
5.65102 0.287989 -1.63785
5.65002 0.305989 -1.63785
5.64502 0.322989 -1.63685
5.65602 0.340989 -1.63985
5.64402 0.349989 -1.63685
5.64802 0.367989 -1.63785
5.66602 0.386989 -1.64385
5.64402 0.402989 -1.63785
5.63702 0.419989 -1.63585
5.63202 0.437989 -1.63485
5.65902 0.457989 -1.64385
5.63302 0.464989 -1.63585
5.64102 0.482989 -1.63885
5.63402 0.499989 -1.63685
5.63802 0.518989 -1.63885
5.62102 0.534989 -1.63385
5.63502 0.553989 -1.63885
5.62302 0.561989 -1.63485
5.63002 0.579989 -1.63785
5.62902 0.597989 -1.63785
5.63002 0.615989 -1.63985
5.62502 0.632989 -1.63785
5.63402 0.651989 -1.64185
5.61902 0.667989 -1.63785
5.61102 0.684989 -1.63585
5.62302 0.695989 -1.63985
5.63002 0.714989 -1.64285
5.62002 0.731989 -1.64085
5.62202 0.749989 -1.64185
5.62302 0.767989 -1.64285
5.61102 0.783989 -1.63985
5.61302 0.801989 -1.64085
5.61002 0.810989 -1.64085
5.61102 0.828989 -1.64185
5.61602 0.847989 -1.64385
5.60402 0.863989 -1.64085
5.60502 0.881989 -1.64285
5.61502 0.901989 -1.64685
5.59102 0.915989 -1.63985
5.59402 0.925989 -1.64085
5.59802 0.943989 -1.64385
5.58002 0.958989 -1.63885
5.58102 0.977989 -1.63985
5.58702 0.996989 -1.64285
5.57702 1.01299 -1.64085
5.57902 1.03199 -1.64285
5.57902 1.04099 -1.64285
5.56802 1.05699 -1.64085
5.56902 1.07499 -1.64185
5.56702 1.09299 -1.64285
5.55602 1.10899 -1.63985
5.55502 1.12699 -1.64085
5.54602 1.14299 -1.63885
5.55302 1.15399 -1.64185
5.55702 1.17299 -1.64385
5.54902 1.18899 -1.64285
5.54202 1.20599 -1.64185
5.54602 1.22499 -1.64385
5.54002 1.24199 -1.64385
5.53202 1.25799 -1.64285
5.53202 1.26799 -1.64285
5.53702 1.28699 -1.64585
5.51802 1.30099 -1.64085
5.52602 1.32099 -1.64485
5.52102 1.33799 -1.64485
5.50202 1.35199 -1.63985
5.50702 1.37199 -1.64285
5.51602 1.38299 -1.64685
5.50302 1.39799 -1.64385
5.49602 1.41499 -1.64285
5.49402 1.43299 -1.64385
5.49802 1.45199 -1.64685
5.49602 1.46999 -1.64685
5.48902 1.48699 -1.64685
5.49202 1.49699 -1.64785
5.47702 1.51099 -1.64485
5.48302 1.53199 -1.64785
5.47402 1.54799 -1.64685
5.48802 1.56999 -1.65285
5.45302 1.57899 -1.64385
5.46302 1.59999 -1.64785
5.45902 1.60799 -1.64785
5.45602 1.62599 -1.64785
5.45402 1.64399 -1.64985
5.44302 1.65999 -1.64785
5.45102 1.68099 -1.65185
5.42402 1.69099 -1.64485
5.44802 1.71699 -1.65385
5.42702 1.71999 -1.64785
5.41902 1.73599 -1.64785
5.40702 1.75099 -1.64485
5.42102 1.77499 -1.65185
5.40502 1.78799 -1.64785
5.41302 1.80999 -1.65285
5.40202 1.82499 -1.65085
5.40102 1.83399 -1.65185
5.40102 1.85299 -1.65385
5.39702 1.87099 -1.65385
5.38002 1.88399 -1.65085
5.37402 1.90099 -1.65085
5.36802 1.91799 -1.65085
5.36702 1.93599 -1.65285
5.36702 1.95499 -1.65385
5.36202 1.96299 -1.65385
5.35402 1.97899 -1.65285
5.35102 1.99699 -1.65385
5.35202 2.01699 -1.65685
5.34602 2.03399 -1.65685
5.32702 2.04599 -1.65285
5.33802 2.06899 -1.65785
5.31502 2.06999 -1.65185
5.32702 2.09399 -1.65785
5.30602 2.10499 -1.65285
5.30402 2.12399 -1.65485
5.29602 2.13899 -1.65385
5.29602 2.15899 -1.65685
5.29802 2.17899 -1.65985
5.28102 2.18199 -1.65485
5.28302 2.20199 -1.65785
5.26902 2.21599 -1.65585
5.27102 2.23599 -1.65785
5.26702 2.25399 -1.65985
5.26502 2.27299 -1.66085
5.26002 2.28999 -1.66185
5.25402 2.29799 -1.66085
5.24502 2.31299 -1.66085
5.24502 2.33299 -1.66285
5.23402 2.34799 -1.66185
5.22302 2.36299 -1.66085
5.21402 2.37799 -1.65985
5.21302 2.40799 -1.66385
5.20002 2.42199 -1.66185
5.20002 2.44099 -1.66385
5.19702 2.45999 -1.66585
5.17602 2.46999 -1.66085
5.16502 2.50499 -1.66285
5.15902 2.53099 -1.66485
5.13902 2.56199 -1.66385
5.13102 2.57799 -1.66385
5.10602 2.60599 -1.66085
5.12202 2.62499 -1.66785
5.09402 2.62999 -1.66085
5.08902 2.64799 -1.66185
5.07602 2.66099 -1.65985
5.07902 2.68299 -1.66385
5.05502 2.69099 -1.65885
5.05402 2.71099 -1.66085
5.03402 2.70999 -1.65585
5.02202 2.72399 -1.65485
5.02602 2.74699 -1.65885
5.02002 2.76399 -1.65985
4.99002 2.76799 -1.65285
5.01602 2.80299 -1.66485
4.98002 2.81399 -1.65685
4.96902 2.82799 -1.65585
4.96202 2.84499 -1.65685
4.95902 2.88499 -1.66185
4.91702 2.90199 -1.65385
4.88802 2.95799 -1.65485
4.46502 3.64099 -1.66985
4.45002 3.65099 -1.66785
5.41902 -1.45201 -1.62285
5.43302 -1.43701 -1.62585
5.60502 -0.803011 -1.63885
5.60602 -0.767011 -1.63785
5.61602 -0.706011 -1.63785
5.62202 -0.671011 -1.63885
5.61902 -0.617011 -1.63585
5.62202 -0.590011 -1.63585
5.63302 -0.556011 -1.63785
5.64202 -0.521011 -1.63985
5.64202 -0.458011 -1.63785
5.64402 -0.423011 -1.63785
5.65302 -0.325011 -1.63885
5.66002 -0.290011 -1.64085
5.65502 -0.254011 -1.63785
5.65902 -0.237011 -1.63985
5.66302 -0.228011 -1.64085
5.64902 -0.210011 -1.63585
5.65802 -0.174011 -1.63785
5.66602 -0.157011 -1.64085
5.65902 -0.130011 -1.63785
5.65102 -0.112011 -1.63585
5.65602 -0.0770107 -1.63685
5.67102 -0.0590107 -1.64185
5.66202 -0.0410107 -1.63885
5.66002 -0.0230107 -1.63785
5.66002 -0.0140107 -1.63785
5.49402 0.0299893 -1.64485
5.48902 0.0479893 -1.64285
5.49802 0.0739893 -1.64585
5.48102 0.141989 -1.64085
5.49302 0.202989 -1.64485
5.49302 0.237989 -1.64585
5.49102 0.314989 -1.64685
5.49602 0.332989 -1.64785
5.49002 0.366989 -1.64685
5.48702 0.409989 -1.64685
5.48902 0.427989 -1.64785
5.47902 0.461989 -1.64585
5.47702 0.478989 -1.64585
5.48502 0.496989 -1.64885
5.47702 0.521989 -1.64685
5.47402 0.556989 -1.64685
5.47402 0.590989 -1.64785
5.46702 0.607989 -1.64685
5.46602 0.633989 -1.64685
5.46002 0.667989 -1.64685
5.46302 0.702989 -1.64885
5.45902 0.763989 -1.64985
5.45402 0.780989 -1.64985
5.45502 0.815989 -1.65085
5.44902 0.840989 -1.65085
5.44202 0.909989 -1.65185
5.43402 0.943989 -1.65085
5.43002 0.986989 -1.65285
5.41402 1.00199 -1.64785
5.41702 1.03799 -1.65085
5.40302 1.07899 -1.64985
5.40502 1.09699 -1.65085
5.40402 1.11499 -1.65185
5.38902 1.17399 -1.65085
5.39102 1.19199 -1.65285
5.37502 1.28599 -1.65485
4.90902 2.65299 -1.67185
4.88302 2.68899 -1.66985
4.87502 2.70499 -1.66985
4.85902 2.73599 -1.67085
4.85402 2.75299 -1.67185
4.84002 2.76599 -1.66985
4.83502 2.78299 -1.67185
4.83002 2.78999 -1.67185
4.82202 2.80499 -1.67185
4.81102 2.81999 -1.67085
4.79602 2.83099 -1.66885
4.79802 2.85299 -1.67285
4.77902 2.86199 -1.66885
4.76902 2.87599 -1.66885
4.76302 2.88199 -1.66785
4.75002 2.89499 -1.66685
4.75402 2.91799 -1.67185
4.74702 2.93399 -1.67185
4.73602 2.94799 -1.67185
4.72702 2.96299 -1.67185
4.71902 2.97899 -1.67185
4.70802 2.98199 -1.66985
4.70102 2.99899 -1.67085
4.69002 3.01299 -1.66985
4.68102 3.02699 -1.66985
4.67302 3.04299 -1.67085
4.66002 3.05599 -1.66985
4.65702 3.07399 -1.67185
4.65902 3.08599 -1.67485
4.62802 3.08699 -1.66685
4.63402 3.11199 -1.67285
4.62302 3.12499 -1.67185
4.60702 3.13599 -1.66985
4.60202 3.15299 -1.67185
4.58702 3.16499 -1.66985
4.58202 3.17199 -1.66985
4.57002 3.18499 -1.66885
4.57102 3.20699 -1.67285
4.55702 3.21799 -1.67185
4.53102 3.22099 -1.66485
4.53902 3.24899 -1.67285
4.53202 3.26499 -1.67385
4.52402 3.26999 -1.67285
4.50602 3.27899 -1.66985
4.49602 3.29299 -1.66985
4.49302 3.31299 -1.67285
4.48102 3.32599 -1.67185
4.47402 3.34199 -1.67285
4.46902 3.36099 -1.67585
4.45502 3.36099 -1.67185
4.44602 3.37599 -1.67285
4.43802 3.39199 -1.67385
4.43202 3.40999 -1.67585
4.41202 3.41699 -1.67185
4.41002 3.43699 -1.67585
4.39702 3.44899 -1.67485
4.38902 3.46499 -1.67585
4.37702 3.46699 -1.67285
4.38002 3.49199 -1.67885
4.37002 3.50599 -1.67885
4.36102 3.52099 -1.67985
4.34402 3.52999 -1.67785
4.34202 3.55099 -1.68085
4.33002 3.56499 -1.68085
4.33102 3.57599 -1.68385
4.31602 3.58799 -1.68285
4.30702 3.60199 -1.68285
4.28902 3.61099 -1.68085
4.28802 3.63299 -1.68485
4.26702 3.63799 -1.68085
4.25502 3.63999 -1.67785
4.24802 3.65699 -1.67985
4.23102 3.66499 -1.67785
4.22402 3.68199 -1.67885
4.21302 3.69599 -1.67985
4.19702 3.70599 -1.67785
4.19002 3.72299 -1.67985
4.17702 3.72299 -1.67685
4.16702 3.73799 -1.67785
4.15202 3.74799 -1.67585
4.13302 3.75499 -1.67285
5.24602 -1.50101 -1.63285
5.25602 -1.48701 -1.63385
5.49102 -0.116011 -1.64385
5.28902 0.000989335 -1.63985
5.29902 0.0179893 -1.64285
5.29502 0.0259893 -1.64185
5.28702 0.0419893 -1.63885
5.30802 0.0589893 -1.64585
5.30202 0.0759893 -1.64385
5.29802 0.0919893 -1.64285
5.29002 0.108989 -1.64085
5.29902 0.125989 -1.64385
5.29302 0.133989 -1.64185
5.28902 0.149989 -1.64085
5.29802 0.166989 -1.64385
5.29202 0.183989 -1.64185
5.28902 0.199989 -1.64085
5.29402 0.216989 -1.64285
5.29402 0.233989 -1.64285
5.29102 0.241989 -1.64285
5.29802 0.258989 -1.64485
5.29302 0.275989 -1.64385
5.30202 0.292989 -1.64685
5.29202 0.308989 -1.64385
5.28502 0.324989 -1.64185
5.27602 0.340989 -1.63885
5.28102 0.349989 -1.64085
5.28802 0.366989 -1.64385
5.28102 0.382989 -1.64185
5.27802 0.399989 -1.64085
5.27802 0.415989 -1.64185
5.29002 0.433989 -1.64585
5.29102 0.450989 -1.64685
5.28102 0.457989 -1.64385
5.28902 0.475989 -1.64685
5.27602 0.490989 -1.64285
5.27802 0.507989 -1.64385
5.27802 0.524989 -1.64485
5.28602 0.542989 -1.64785
5.27502 0.557989 -1.64485
5.27602 0.566989 -1.64585
5.27602 0.582989 -1.64585
5.27002 0.599989 -1.64485
5.26702 0.615989 -1.64385
5.27002 0.632989 -1.64585
5.27002 0.649989 -1.64685
5.26802 0.665989 -1.64685
5.26302 0.673989 -1.64585
5.27202 0.691989 -1.64885
5.26302 0.707989 -1.64685
5.27002 0.725989 -1.64985
5.26002 0.740989 -1.64785
5.26502 0.758989 -1.64985
5.26102 0.774989 -1.64885
5.24302 0.780989 -1.64385
5.24602 0.797989 -1.64585
5.24102 0.813989 -1.64485
5.24302 0.830989 -1.64585
5.24602 0.848989 -1.64785
5.24102 0.864989 -1.64785
5.24202 0.881989 -1.64885
5.23902 0.889989 -1.64785
5.24302 0.907989 -1.65085
5.22902 0.921989 -1.64685
5.22602 0.938989 -1.64685
5.22502 0.954989 -1.64785
5.22202 0.971989 -1.64785
5.21902 0.987989 -1.64785
5.22702 0.997989 -1.65085
5.22202 1.01399 -1.64985
5.21702 1.02999 -1.64885
5.21702 1.04699 -1.65085
5.20102 1.06099 -1.64585
5.20102 1.07799 -1.64785
5.20502 1.09599 -1.64985
5.19302 1.10199 -1.64585
5.19302 1.11899 -1.64785
5.19802 1.13699 -1.65085
5.18902 1.15199 -1.64885
5.20002 1.17199 -1.65385
5.19302 1.18799 -1.65285
5.17502 1.19999 -1.64785
5.17802 1.21799 -1.64985
5.18402 1.22799 -1.65285
5.17802 1.24399 -1.65185
5.15902 1.25699 -1.64685
5.17502 1.27799 -1.65385
5.15302 1.28999 -1.64785
5.16702 1.31099 -1.65385
5.15402 1.32399 -1.65085
5.16802 1.33699 -1.65585
5.16102 1.35199 -1.65485
5.16002 1.36899 -1.65585
5.15202 1.38399 -1.65485
5.14202 1.39899 -1.65285
5.15202 1.41899 -1.65785
5.14102 1.43299 -1.65585
5.14702 1.44399 -1.65885
5.13602 1.45799 -1.65585
5.13102 1.47399 -1.65585
5.12102 1.48899 -1.65385
5.12702 1.50799 -1.65785
5.10002 1.51799 -1.65085
5.11402 1.53899 -1.65685
5.11302 1.54799 -1.65785
5.11002 1.56399 -1.65785
5.08502 1.57399 -1.65085
5.09802 1.59599 -1.65785
5.07302 1.60599 -1.65085
5.08602 1.62699 -1.65685
5.08502 1.64499 -1.65785
5.06202 1.64599 -1.65085
5.07002 1.66599 -1.65585
5.07902 1.68699 -1.66085
5.05602 1.69699 -1.65385
5.06102 1.71599 -1.65785
5.05802 1.73299 -1.65885
5.05002 1.74799 -1.65785
5.06002 1.75999 -1.66285
5.04902 1.77399 -1.66085
5.03802 1.78799 -1.65885
5.02202 1.79999 -1.65485
5.02502 1.81899 -1.65785
5.01602 1.83399 -1.65685
5.01202 1.84999 -1.65785
5.02802 1.86499 -1.66485
5.01002 1.87599 -1.65985
5.00902 1.89399 -1.66185
5.00702 1.91099 -1.66285
4.98702 1.92099 -1.65785
4.98302 1.93799 -1.65885
4.99102 1.95899 -1.66385
4.97502 1.96199 -1.65885
4.96702 1.97699 -1.65885
4.97302 1.99699 -1.66285
4.97002 2.01499 -1.66485
4.96402 2.02999 -1.66485
4.95502 2.06299 -1.66585
4.94502 2.06799 -1.66285
4.94702 2.08699 -1.66585
4.93702 2.10099 -1.66485
4.91302 2.10899 -1.65885
4.93002 2.13499 -1.66785
4.92702 2.15199 -1.66885
4.91302 2.16399 -1.66585
4.91702 2.17499 -1.66885
4.89302 2.18299 -1.66285
4.90002 2.22299 -1.66985
4.87702 2.23099 -1.66485
4.88602 2.25399 -1.66985
4.85502 2.32299 -1.67085
4.84902 2.33899 -1.67085
4.83902 2.35299 -1.66985
4.83302 2.36899 -1.67085
4.79802 2.41799 -1.66785
4.80202 2.43899 -1.67185
4.78802 2.44999 -1.66985
4.77702 2.46399 -1.66785
4.78302 2.47599 -1.67185
4.76202 2.48399 -1.66685
4.74902 2.49699 -1.66485
4.74802 2.51499 -1.66785
4.73002 2.52499 -1.66385
4.72202 2.53899 -1.66385
4.71502 2.55499 -1.66485
4.70502 2.55899 -1.66185
4.70002 2.57599 -1.66285
4.69402 2.59099 -1.66385
4.68002 2.60299 -1.66185
4.67902 2.62199 -1.66485
4.65902 2.62999 -1.65985
4.65402 2.64599 -1.66085
4.64002 2.64799 -1.65785
4.63202 2.66199 -1.65785
4.62802 2.67999 -1.65885
4.62102 2.69499 -1.65985
4.59702 2.73999 -1.66085
4.58602 2.76199 -1.66085
4.18202 3.38499 -1.66985
4.16102 3.42199 -1.67285
4.07302 3.53599 -1.67485
4.04902 3.55999 -1.67385
4.04202 3.57699 -1.67585
5.03402 -1.51401 -1.62885
5.04502 -1.49901 -1.63085
5.08002 -1.49201 -1.64185
5.19602 -1.05801 -1.64385
5.21002 -0.967011 -1.64285
5.21402 -0.951011 -1.64385
5.22902 -0.878011 -1.64385
5.23202 -0.836011 -1.64285
5.24202 -0.787011 -1.64385
5.24202 -0.770011 -1.64285
5.24902 -0.754011 -1.64385
5.24202 -0.745011 -1.64185
5.24802 -0.729011 -1.64285
5.24902 -0.696011 -1.64185
5.25302 -0.680011 -1.64285
5.26102 -0.664011 -1.64385
5.25202 -0.646011 -1.64085
5.25602 -0.638011 -1.64185
5.25402 -0.621011 -1.64085
5.26402 -0.605011 -1.64285
5.26402 -0.589011 -1.64285
5.27102 -0.556011 -1.64385
5.26902 -0.539011 -1.64285
5.27002 -0.531011 -1.64285
5.27002 -0.514011 -1.64185
5.27302 -0.498011 -1.64285
5.27302 -0.481011 -1.64185
5.28402 -0.465011 -1.64485
5.28502 -0.448011 -1.64485
5.28702 -0.407011 -1.64385
5.29002 -0.390011 -1.64485
5.28202 -0.373011 -1.64185
5.28902 -0.357011 -1.64385
5.29302 -0.340011 -1.64485
5.28902 -0.324011 -1.64285
5.29702 -0.307011 -1.64585
5.29602 -0.299011 -1.64485
5.29702 -0.282011 -1.64485
5.29202 -0.265011 -1.64285
5.29702 -0.249011 -1.64385
5.29402 -0.232011 -1.64285
5.29202 -0.215011 -1.64285
5.30102 -0.199011 -1.64485
5.28802 -0.190011 -1.64085
5.28602 -0.174011 -1.63985
5.30202 -0.157011 -1.64485
5.29302 -0.141011 -1.64185
5.29002 -0.124011 -1.64085
5.29602 -0.107011 -1.64285
5.29402 -0.0990107 -1.64185
5.28902 -0.0820107 -1.63985
5.29602 -0.0660107 -1.64285
5.29502 -0.0490107 -1.64185
5.29902 -0.0320107 -1.64285
5.30102 -0.0160107 -1.64385
5.15102 0.00598934 -1.64185
5.15502 0.0219893 -1.64285
5.16002 0.0389893 -1.64485
5.14502 0.0549893 -1.63985
5.15402 0.0709893 -1.64285
5.17902 0.0789893 -1.65185
5.18002 0.0959893 -1.65185
5.18002 0.111989 -1.65185
5.17202 0.184989 -1.64985
5.15802 0.200989 -1.64585
5.15402 0.216989 -1.64385
5.14802 0.232989 -1.64185
5.14502 0.248989 -1.64185
5.14202 0.264989 -1.64085
5.13902 0.280989 -1.64085
5.14702 0.288989 -1.64285
5.13602 0.304989 -1.63985
5.14502 0.321989 -1.64285
5.15102 0.337989 -1.64585
5.14102 0.353989 -1.64185
5.13902 0.369989 -1.64185
5.14802 0.386989 -1.64585
5.14102 0.394989 -1.64385
5.13302 0.409989 -1.64085
5.13702 0.426989 -1.64285
5.14502 0.443989 -1.64585
5.13802 0.458989 -1.64385
5.13302 0.474989 -1.64285
5.14302 0.491989 -1.64685
5.12302 0.498989 -1.64085
5.12702 0.514989 -1.64185
5.13102 0.531989 -1.64385
5.13502 0.548989 -1.64585
5.13302 0.564989 -1.64585
5.12802 0.579989 -1.64485
5.12602 0.596989 -1.64485
5.13402 0.605989 -1.64785
5.12302 0.620989 -1.64485
5.13202 0.637989 -1.64885
5.11902 0.652989 -1.64485
5.13402 0.670989 -1.65085
5.12402 0.685989 -1.64785
5.12002 0.701989 -1.64785
5.12302 0.710989 -1.64885
5.10702 0.724989 -1.64385
5.10902 0.740989 -1.64585
5.11902 0.758989 -1.64985
5.11302 0.774989 -1.64885
5.10702 0.789989 -1.64785
5.11602 0.807989 -1.65185
5.09802 0.813989 -1.64585
5.11402 0.832989 -1.65185
5.09802 0.846989 -1.64785
5.08802 0.860989 -1.64485
5.10602 0.880989 -1.65185
5.09402 0.894989 -1.64885
5.07602 0.908989 -1.64385
5.07902 0.925989 -1.64585
5.08302 0.934989 -1.64785
5.08502 0.950989 -1.64985
5.07902 0.966989 -1.64785
5.07702 0.982989 -1.64885
5.07102 0.997989 -1.64785
5.06902 1.01499 -1.64785
5.07402 1.03199 -1.65085
5.08102 1.04199 -1.65385
5.06902 1.05599 -1.65085
5.05802 1.06999 -1.64785
5.06202 1.08799 -1.65085
5.04702 1.10099 -1.64685
5.05302 1.11899 -1.64985
5.04402 1.13399 -1.64785
5.05702 1.14499 -1.65285
5.05302 1.16099 -1.65285
5.04602 1.17599 -1.65185
5.04202 1.19199 -1.65185
5.04202 1.20799 -1.65285
5.03802 1.22399 -1.65285
5.02902 1.23899 -1.65185
5.04202 1.24999 -1.65685
5.03602 1.26599 -1.65585
5.02102 1.27899 -1.65185
5.02402 1.29599 -1.65485
5.02602 1.31299 -1.65685
5.02102 1.32899 -1.65685
5.00802 1.34299 -1.65285
5.02202 1.35499 -1.65885
5.01302 1.36899 -1.65685
5.00302 1.38299 -1.65485
5.00202 1.39999 -1.65685
5.00002 1.41599 -1.65685
4.99902 1.43299 -1.65885
4.98302 1.44599 -1.65485
4.98802 1.45599 -1.65685
4.98702 1.47199 -1.65885
4.96602 1.48299 -1.65285
4.96702 1.49999 -1.65485
4.96402 1.51599 -1.65485
4.96702 1.53399 -1.65785
4.97102 1.55299 -1.66085
4.95902 1.55799 -1.65785
4.95302 1.57299 -1.65685
4.94002 1.58599 -1.65485
4.95002 1.60599 -1.65985
4.93802 1.61899 -1.65685
4.92702 1.63299 -1.65485
4.93502 1.65299 -1.65985
4.93202 1.65999 -1.65985
4.93702 1.67899 -1.66385
4.92102 1.69099 -1.65985
4.91802 1.70699 -1.66085
4.91202 1.72299 -1.66085
4.90002 1.73599 -1.65785
4.89602 1.75199 -1.65885
4.89002 1.75799 -1.65685
4.88402 1.77399 -1.65685
4.88402 1.79099 -1.65885
4.88202 1.80699 -1.66085
4.88702 1.82699 -1.66385
4.86202 1.83499 -1.65685
4.86602 1.85399 -1.66085
4.86502 1.86199 -1.66185
4.85402 1.87599 -1.65985
4.85702 1.89399 -1.66285
4.85102 1.90899 -1.66285
4.83302 1.91999 -1.65885
4.83202 1.93699 -1.66085
4.83302 1.95499 -1.66285
4.83302 1.96399 -1.66385
4.81702 1.97499 -1.66085
4.81602 1.99199 -1.66185
4.80602 2.00599 -1.66085
4.81202 2.02599 -1.66585
4.79702 2.03799 -1.66185
4.78302 2.04999 -1.65985
4.79202 2.06199 -1.66385
4.78902 2.07899 -1.66585
4.78602 2.09499 -1.66685
4.77802 2.10999 -1.66585
4.76402 2.12199 -1.66385
4.74902 2.13299 -1.66085
4.74702 2.14999 -1.66185
4.75102 2.16099 -1.66485
4.74202 2.17499 -1.66385
4.74102 2.19199 -1.66585
4.74702 2.21299 -1.67085
4.73402 2.22499 -1.66885
4.72702 2.23999 -1.66885
4.73002 2.25899 -1.67285
4.70602 2.25699 -1.66485
4.71102 2.27799 -1.66985
4.70202 2.29199 -1.66885
4.69802 2.30799 -1.66985
4.68302 2.35599 -1.67285
4.67502 2.37899 -1.67385
4.67102 2.39599 -1.67485
4.66002 2.40899 -1.67385
4.64602 2.41999 -1.67085
4.64502 2.43799 -1.67385
4.64002 2.45399 -1.67485
4.61502 2.44999 -1.66685
4.61902 2.47099 -1.67085
4.60102 2.47999 -1.66785
4.59502 2.49499 -1.66785
4.59002 2.51099 -1.66985
4.57402 2.52099 -1.66585
4.55802 2.53099 -1.66285
4.56402 2.54399 -1.66685
4.54902 2.55399 -1.66385
4.53602 2.56599 -1.66185
4.53102 2.58199 -1.66385
4.52002 2.59399 -1.66185
4.49302 2.62599 -1.65985
4.47802 2.65499 -1.66085
4.46902 2.66899 -1.66085
4.45602 2.69899 -1.66185
4.46502 2.72399 -1.66885
4.42602 2.78699 -1.66885
4.40102 2.82899 -1.66985
4.37602 2.88199 -1.67185
4.35302 2.90599 -1.66985
4.30902 2.94499 -1.66485
4.30402 3.00199 -1.67485
4.29002 3.00199 -1.67085
4.27602 3.01199 -1.66885
4.27102 3.02899 -1.67085
4.26702 3.06699 -1.67685
4.25602 3.07899 -1.67685
4.23702 3.08599 -1.67285
4.23102 3.09099 -1.67185
4.22602 3.10799 -1.67385
4.19502 3.14599 -1.67285
4.19502 3.16799 -1.67785
4.18402 3.17999 -1.67685
4.16302 3.18499 -1.67285
4.07002 3.29999 -1.67185
3.98502 3.41099 -1.67385
3.96402 3.44699 -1.67685
3.94902 3.45599 -1.67485
3.94502 3.47499 -1.67785
3.94002 3.49199 -1.68085
3.90902 3.50899 -1.67685
3.90902 3.53099 -1.68185
3.90202 3.53599 -1.68085
4.88102 -1.55401 -1.63185
4.91302 -1.54701 -1.64185
5.04302 -1.11301 -1.64585
5.04702 -1.05601 -1.64385
5.06602 -0.985011 -1.64485
5.08102 -0.922011 -1.64585
5.07402 -0.887011 -1.64185
5.08602 -0.881011 -1.64585
5.09602 -0.801011 -1.64385
5.11402 -0.730011 -1.64685
5.11702 -0.681011 -1.64585
5.12402 -0.657011 -1.64685
5.11502 -0.640011 -1.64285
5.12802 -0.625011 -1.64685
5.12402 -0.608011 -1.64485
5.12402 -0.592011 -1.64385
5.12202 -0.576011 -1.64285
5.13702 -0.561011 -1.64785
5.12502 -0.551011 -1.64285
5.13402 -0.536011 -1.64585
5.13202 -0.520011 -1.64385
5.12802 -0.503011 -1.64185
5.14102 -0.488011 -1.64585
5.13902 -0.471011 -1.64485
5.13502 -0.455011 -1.64285
5.13702 -0.447011 -1.64385
5.13302 -0.430011 -1.64185
5.14902 -0.415011 -1.64685
5.15202 -0.399011 -1.64785
5.14802 -0.383011 -1.64585
5.15102 -0.367011 -1.64585
5.14002 -0.358011 -1.64185
5.14002 -0.341011 -1.64185
5.14802 -0.326011 -1.64385
5.14502 -0.309011 -1.64285
5.15002 -0.261011 -1.64385
5.17102 -0.221011 -1.64985
5.14302 -0.0660107 -1.63885
5.17202 -0.0350107 -1.64885
5.17402 -0.0260107 -1.64985
5.15702 -0.0100107 -1.64385
5.03002 0.0199893 -1.65185
5.03402 0.0439893 -1.65385
5.03202 0.0589893 -1.65285
5.02602 0.0749893 -1.65085
5.03502 0.0909893 -1.65385
5.03202 0.122989 -1.65385
5.03202 0.137989 -1.65385
5.03002 0.145989 -1.65285
5.01402 0.160989 -1.64785
5.02502 0.177989 -1.65185
5.03102 0.209989 -1.65385
5.01902 0.224989 -1.64985
5.01302 0.239989 -1.64785
5.03102 0.248989 -1.65485
5.02602 0.280989 -1.65385
5.02502 0.295989 -1.65385
5.02402 0.311989 -1.65385
5.02702 0.327989 -1.65485
5.02202 0.343989 -1.65385
5.02202 0.351989 -1.65385
5.00902 0.366989 -1.64985
5.02102 0.382989 -1.65385
5.02202 0.398989 -1.65485
5.01502 0.414989 -1.65285
5.02102 0.430989 -1.65585
5.01902 0.470989 -1.65585
5.02002 0.486989 -1.65685
5.00902 0.500989 -1.65385
5.01302 0.517989 -1.65585
5.00702 0.532989 -1.65385
5.01302 0.549989 -1.65685
5.01102 0.564989 -1.65685
5.00102 0.571989 -1.65385
5.00902 0.620989 -1.65785
5.00702 0.636989 -1.65785
4.99902 0.651989 -1.65585
4.99402 0.690989 -1.65585
4.98802 0.705989 -1.65485
4.99502 0.722989 -1.65785
4.98702 0.737989 -1.65585
4.99002 0.753989 -1.65785
4.98402 0.768989 -1.65685
4.98702 0.777989 -1.65785
4.96602 0.854989 -1.65585
4.97202 0.879989 -1.65885
4.96902 0.895989 -1.65885
4.95902 0.925989 -1.65785
4.95802 0.941989 -1.65785
4.95502 0.997989 -1.66085
4.92902 1.04099 -1.65485
4.93802 1.05899 -1.65985
4.94302 1.07599 -1.66185
4.93302 1.08299 -1.65985
4.92802 1.09799 -1.65885
4.91902 1.11199 -1.65685
4.91802 1.12799 -1.65785
4.91802 1.17699 -1.66185
4.90702 1.18199 -1.65785
4.90502 1.19799 -1.65885
4.90302 1.21399 -1.65985
4.90302 1.22999 -1.66085
4.90002 1.26199 -1.66285
4.89402 1.27699 -1.66185
4.89402 1.28599 -1.66285
4.88702 1.29999 -1.66185
4.88102 1.31499 -1.66085
4.87802 1.34699 -1.66285
4.86602 1.37699 -1.66185
4.86002 1.38299 -1.65985
4.85902 1.39899 -1.66185
4.84602 1.44499 -1.66185
4.85002 1.46299 -1.66485
4.83302 1.47399 -1.65985
4.83402 1.48299 -1.66185
4.83402 1.51599 -1.66485
4.82002 1.52899 -1.66185
4.80702 1.55799 -1.65985
4.79602 1.57099 -1.65785
4.80502 1.58199 -1.66185
4.80102 1.59799 -1.66285
4.79302 1.61199 -1.66185
4.80202 1.63199 -1.66685
4.79302 1.64599 -1.66585
4.78402 1.65899 -1.66385
4.77902 1.67399 -1.66385
4.77502 1.68099 -1.66385
4.77702 1.69899 -1.66585
4.76602 1.71199 -1.66385
4.75002 1.72299 -1.65985
4.75202 1.73999 -1.66285
4.75102 1.75699 -1.66485
4.74902 1.77399 -1.66585
4.74502 1.77999 -1.66585
4.73402 1.79299 -1.66385
4.73002 1.80899 -1.66385
4.74002 1.82999 -1.66985
4.72102 1.87399 -1.66985
4.70902 1.87799 -1.66585
4.69602 1.88999 -1.66385
4.70102 1.90899 -1.66785
4.69102 1.92199 -1.66585
4.68902 1.93799 -1.66785
4.68302 1.95299 -1.66785
4.67302 1.96599 -1.66585
4.68502 1.97999 -1.67185
4.67202 1.99199 -1.66985
4.66802 2.00699 -1.66985
4.65602 2.01999 -1.66785
4.64802 2.03299 -1.66785
4.65002 2.05199 -1.67085
4.64002 2.06499 -1.66985
4.63102 2.08699 -1.66985
4.63102 2.10399 -1.67185
4.62802 2.12099 -1.67385
4.61302 2.13099 -1.66985
4.60602 2.16299 -1.67285
4.59702 2.18599 -1.67385
4.58302 2.21499 -1.67385
4.46202 2.45799 -1.67485
4.45002 2.45999 -1.67185
4.44202 2.47399 -1.67185
4.44102 2.49199 -1.67385
4.43802 2.50899 -1.67585
4.43502 2.52599 -1.67785
4.41902 2.53499 -1.67485
4.41302 2.54099 -1.67385
4.38402 2.54199 -1.66585
4.38302 2.55999 -1.66785
4.37502 2.57299 -1.66785
4.37302 2.59099 -1.67085
4.35202 2.59699 -1.66585
4.36102 2.62099 -1.67285
4.34802 2.62199 -1.66885
4.33302 2.63199 -1.66585
4.33602 2.65299 -1.67085
4.31802 2.65999 -1.66685
4.32402 2.68299 -1.67285
4.30402 2.68899 -1.66785
4.29402 2.70199 -1.66785
4.29202 2.70999 -1.66785
4.28902 2.72699 -1.67085
4.28102 2.74099 -1.67085
4.25802 2.74499 -1.66485
4.26502 2.76899 -1.67185
4.25302 2.77999 -1.66985
4.25502 2.79999 -1.67485
4.22902 2.80199 -1.66785
4.23302 2.81399 -1.67085
4.22202 2.82599 -1.66985
4.20102 2.85099 -1.66885
4.20202 2.86999 -1.67285
4.17702 2.89199 -1.66985
4.18102 2.90399 -1.67385
4.16502 2.91299 -1.67085
4.14802 2.92099 -1.66785
4.15002 2.94099 -1.67185
4.13102 2.96699 -1.67185
4.12702 2.98399 -1.67385
4.10602 2.99899 -1.67185
4.09702 3.01199 -1.67185
4.07302 3.03399 -1.66985
4.06802 3.04999 -1.67185
4.05702 3.06199 -1.67085
4.05402 3.06899 -1.67185
4.06102 3.09499 -1.67885
4.02902 3.12999 -1.67785
4.00402 3.13099 -1.67085
4.00502 3.16299 -1.67785
3.97102 3.19699 -1.67585
3.96102 3.20999 -1.67585
3.94302 3.21599 -1.67285
3.94302 3.23699 -1.67785
3.93002 3.23599 -1.67385
3.91502 3.26499 -1.67585
3.89002 3.30699 -1.67885
3.88202 3.32199 -1.67985
3.87302 3.32399 -1.67785
3.86502 3.33899 -1.67985
3.83702 3.35699 -1.67585
3.83502 3.37599 -1.67985
3.82302 3.38699 -1.67985
3.81102 3.39799 -1.67885
3.81802 3.41499 -1.68485
3.79502 3.41599 -1.67885
3.79102 3.43399 -1.68185
3.78002 3.44599 -1.68185
3.74902 3.45999 -1.67785
3.74602 3.47999 -1.68185
3.73902 3.48499 -1.68085
3.72802 3.49599 -1.68085
4.71602 -1.57801 -1.63285
4.75402 -1.57401 -1.64385
4.75802 -1.56701 -1.64485
4.77202 -1.55501 -1.64785
4.92502 -0.976011 -1.64885
4.95302 -0.844011 -1.64985
4.98502 -0.578011 -1.64785
5.00402 -0.477011 -1.65085
5.01602 -0.320011 -1.65085
5.01502 -0.233011 -1.64885
5.01802 -0.201011 -1.64985
5.02902 -0.170011 -1.65285
5.02602 -0.146011 -1.65185
5.02502 -0.130011 -1.65085
5.02702 -0.115011 -1.65185
5.02202 -0.0830107 -1.64985
5.03002 -0.0670107 -1.65185
5.02602 -0.0590107 -1.65085
5.02202 -0.0430107 -1.64985
5.01902 -0.0120107 -1.64785
4.75302 1.40099 -1.66685
4.73902 1.45399 -1.66685
4.72102 1.50499 -1.66685
4.65702 1.71399 -1.66885
4.23802 2.65699 -1.68385
4.20602 2.71099 -1.68385
4.18502 2.72499 -1.68085
4.18002 2.74099 -1.68185
4.16102 2.76599 -1.68185
4.15802 2.78299 -1.68385
4.13102 2.80299 -1.67985
4.13602 2.81599 -1.68385
4.09702 2.84599 -1.67885
4.08702 2.87699 -1.68185
4.07902 2.89099 -1.68285
4.08602 2.90499 -1.68785
4.06302 2.90799 -1.68185
4.04902 2.93699 -1.68385
4.04602 2.95399 -1.68585
4.03202 2.96299 -1.68385
4.00002 2.96899 -1.67585
4.01602 2.99999 -1.68785
4.01102 3.01599 -1.68985
4.00002 3.02799 -1.68885
3.98202 3.03399 -1.68485
3.98302 3.05399 -1.68985
3.96302 3.05899 -1.68485
3.95802 3.06499 -1.68485
3.95902 3.08499 -1.68985
3.92902 3.10199 -1.68485
3.92602 3.11999 -1.68785
3.89802 3.13799 -1.68385
3.89302 3.16399 -1.68885
3.88802 3.17999 -1.69085
3.86602 3.18299 -1.68585
3.86502 3.20199 -1.68985
3.84602 3.20699 -1.68585
3.83102 3.22499 -1.68585
3.83402 3.24799 -1.69185
3.81602 3.25399 -1.68785
3.81002 3.26899 -1.68985
3.80102 3.28299 -1.69085
3.78502 3.28999 -1.68785
3.78102 3.30599 -1.69085
3.76202 3.32199 -1.68985
3.76302 3.34399 -1.69485
3.74302 3.34699 -1.68985
3.72902 3.37599 -1.69385
3.71802 3.38799 -1.69385
3.70202 3.39499 -1.69085
3.69902 3.40299 -1.69185
3.69802 3.42299 -1.69685
3.67902 3.42699 -1.69285
3.67502 3.44499 -1.69585
3.65502 3.44799 -1.69185
3.64802 3.46299 -1.69385
3.63302 3.47099 -1.69185
3.63702 3.48599 -1.69585
3.62702 3.49799 -1.69685
3.61402 3.50699 -1.69585
3.60402 3.51999 -1.69585
3.57502 3.51399 -1.68785
3.56802 3.52899 -1.68985
3.54902 3.54299 -1.68785
3.54502 3.56099 -1.69185
3.53302 3.57199 -1.69185
3.52002 3.58099 -1.68985
4.57102 -1.64101 -1.63185
4.61902 -1.62601 -1.64585
4.61802 -1.60901 -1.64385
4.79302 0.0129893 -1.65485
4.78902 0.0279893 -1.65385
4.78202 0.0419893 -1.65085
4.79302 0.0579893 -1.65485
4.77002 0.0719893 -1.64685
4.78302 0.0949893 -1.65185
4.79902 0.110989 -1.65785
4.76502 0.124989 -1.64485
4.77802 0.154989 -1.64985
4.78802 0.170989 -1.65385
4.76302 0.184989 -1.64485
4.76902 0.191989 -1.64785
4.77902 0.207989 -1.65185
4.78202 0.222989 -1.65285
4.78702 0.237989 -1.65485
4.78702 0.252989 -1.65485
4.77402 0.267989 -1.65085
4.77502 0.282989 -1.65185
4.78802 0.290989 -1.65685
4.77802 0.305989 -1.65285
4.76902 0.319989 -1.64985
4.76602 0.334989 -1.64985
4.76002 0.348989 -1.64785
4.76802 0.364989 -1.65085
4.78202 0.380989 -1.65685
4.76402 0.394989 -1.64985
4.77402 0.402989 -1.65385
4.76602 0.417989 -1.65185
4.76602 0.432989 -1.65185
4.75502 0.446989 -1.64885
4.77602 0.463989 -1.65685
4.76602 0.477989 -1.65385
4.76202 0.492989 -1.65285
4.76702 0.500989 -1.65485
4.76002 0.514989 -1.65285
4.75302 0.529989 -1.65085
4.76902 0.546989 -1.65785
4.77302 0.561989 -1.65985
4.75902 0.575989 -1.65485
4.75202 0.582989 -1.65285
4.75802 0.597989 -1.65585
4.75002 0.612989 -1.65385
4.75202 0.642989 -1.65585
4.75502 0.658989 -1.65785
4.74202 0.671989 -1.65385
4.75502 0.688989 -1.65885
4.74402 0.695989 -1.65585
4.73702 0.709989 -1.65385
