4.71211 1.5271 -1.66545
4.70111 1.5721 -1.66645
4.69411 1.5871 -1.66645
4.69211 1.6031 -1.66745
4.68511 1.6251 -1.66745
4.67511 1.6541 -1.66745
4.61511 1.8151 -1.66745
3.99511 2.9751 -1.67545
3.97611 3.0001 -1.67545
3.92811 3.0721 -1.67745
3.76311 3.2811 -1.67945
3.64311 3.4051 -1.67745
3.36511 3.7031 -1.68345
3.34411 3.7041 -1.67945
3.32911 3.7111 -1.67745
4.65411 -1.5569 -1.64945
4.69411 -1.5369 -1.66045
4.76811 -1.2919 -1.66045
4.78711 -1.2489 -1.66345
4.78211 -1.2159 -1.65845
4.81011 -1.1669 -1.66445
4.81711 -1.1199 -1.66245
4.81911 -1.1129 -1.66245
4.82911 -1.0989 -1.66545
4.82411 -1.0819 -1.66245
4.82111 -1.0659 -1.66045
4.83811 -1.0529 -1.66445
4.82311 -1.0339 -1.65845
4.82811 -1.0189 -1.65845
4.81511 -1.0089 -1.65345
4.84711 -0.999904 -1.66445
4.83711 -0.981904 -1.65945
4.83911 -0.965904 -1.65845
4.84311 -0.950904 -1.65945
4.85411 -0.937904 -1.66245
4.85511 -0.921904 -1.66145
4.84311 -0.911904 -1.65645
4.86311 -0.899904 -1.66245
4.84911 -0.880904 -1.65645
4.85911 -0.867904 -1.65945
4.85811 -0.851904 -1.65845
4.86611 -0.836904 -1.66045
4.87111 -0.821904 -1.66045
4.87211 -0.814904 -1.66045
4.86211 -0.781904 -1.65545
4.85611 -0.748904 -1.65145
4.89211 -0.738904 -1.66345
4.86411 -0.718904 -1.65245
4.89011 -0.699904 -1.66045
4.89211 -0.668904 -1.66045
4.87611 -0.634904 -1.65245
4.89011 -0.613904 -1.65645
4.90511 -0.599904 -1.66145
4.90511 -0.583904 -1.66045
4.89411 -0.551904 -1.65545
4.90811 -0.537904 -1.66045
4.90511 -0.521904 -1.65845
4.89411 -0.496904 -1.65345
4.90211 -0.466904 -1.65545
4.90911 -0.436904 -1.65645
4.91111 -0.412904 -1.65645
4.92511 -0.383904 -1.66045
4.92411 -0.367904 -1.66045
4.91511 -0.335904 -1.65645
4.92311 -0.305904 -1.65845
4.92911 -0.297904 -1.66045
4.91111 -0.281904 -1.65345
4.92911 -0.266904 -1.65945
4.92211 -0.250904 -1.65645
4.94211 -0.236904 -1.66345
4.92011 -0.219904 -1.65545
4.93211 -0.204904 -1.65945
4.92611 -0.196904 -1.65745
4.93111 -0.181904 -1.65845
4.91111 -0.149904 -1.65145
4.92511 -0.119904 -1.65645
4.93111 -0.103904 -1.65845
4.92711 -0.0969041 -1.65645
4.93911 -0.0809041 -1.66045
4.91311 -0.0649041 -1.65145
4.92811 -0.0349041 -1.65645
4.93611 -0.0189041 -1.65945
4.92811 -0.0039041 -1.65645
4.77611 0.0050959 -1.64845
4.77211 0.0350959 -1.64745
4.77411 0.0500959 -1.64745
4.78111 0.0800959 -1.65045
4.77111 0.102096 -1.64745
4.77111 0.117096 -1.64745
4.76811 0.147096 -1.64645
4.77411 0.162096 -1.64845
4.76711 0.192096 -1.64645
4.77511 0.215096 -1.64945
4.76611 0.342096 -1.64945
4.76011 0.372096 -1.64745
4.75811 0.394096 -1.64745
4.76811 0.410096 -1.65145
4.75411 0.439096 -1.64745
4.75911 0.485096 -1.65145
4.75811 0.493096 -1.65145
4.74911 0.507096 -1.64845
4.74511 0.566096 -1.64945
4.73611 0.603096 -1.64745
4.73611 0.618096 -1.64845
4.73211 0.648096 -1.64845
4.73111 0.686096 -1.64945
4.74111 0.703096 -1.65445
4.73011 0.716096 -1.65145
4.73711 0.732096 -1.65445
4.72711 0.746096 -1.65145
4.70911 0.774096 -1.64745
4.70811 0.796096 -1.64745
4.72311 0.829096 -1.65545
4.72011 0.844096 -1.65545
4.70311 0.856096 -1.64945
4.70411 0.872096 -1.65145
4.70411 0.879096 -1.65145
4.70911 0.926096 -1.65645
4.69611 0.939096 -1.65345
4.69011 0.953096 -1.65145
4.68711 0.968096 -1.65145
4.67811 0.974096 -1.64945
4.67011 1.0031 -1.64845
4.67411 1.0191 -1.65145
4.67411 1.0351 -1.65245
4.66411 1.0481 -1.64945
4.65711 1.0611 -1.64845
4.67911 1.0741 -1.65745
4.67211 1.0881 -1.65645
4.65911 1.1011 -1.65245
4.64711 1.1131 -1.64945
4.65811 1.1311 -1.65445
4.64511 1.1431 -1.65145
4.66311 1.1641 -1.65945
4.64511 1.1751 -1.65345
4.64311 1.1821 -1.65345
4.63111 1.1941 -1.65045
4.63411 1.2101 -1.65345
4.62511 1.2241 -1.65145
4.62611 1.2401 -1.65345
4.62211 1.2541 -1.65345
4.62211 1.2701 -1.65445
4.61611 1.2761 -1.65345
4.61611 1.2911 -1.65445
4.61711 1.3071 -1.65645
4.60111 1.3181 -1.65145
4.61411 1.3381 -1.65845
4.59911 1.3491 -1.65445
4.59211 1.3631 -1.65345
4.60411 1.3741 -1.65845
4.58911 1.3851 -1.65445
4.60211 1.4051 -1.66145
4.58511 1.4161 -1.65645
4.57011 1.4271 -1.65245
4.58211 1.4461 -1.65845
4.56511 1.4571 -1.65345
4.56211 1.4641 -1.65345
4.57011 1.4821 -1.65845
4.55811 1.4941 -1.65645
4.54111 1.5041 -1.65145
4.54911 1.5231 -1.65645
4.53711 1.5351 -1.65345
4.53711 1.5511 -1.65545
4.54211 1.5601 -1.65845
4.54411 1.5771 -1.66045
4.52911 1.5881 -1.65645
4.52711 1.6031 -1.65845
4.52411 1.6181 -1.65845
4.52411 1.6341 -1.66045
4.50111 1.6421 -1.65345
4.52011 1.6571 -1.66245
4.49211 1.6621 -1.65345
4.49911 1.6811 -1.65845
4.50211 1.6991 -1.66145
4.49011 1.7101 -1.65845
4.48611 1.7251 -1.65945
4.49011 1.7421 -1.66245
4.47111 1.7431 -1.65645
4.47811 1.7621 -1.66145
4.46311 1.7731 -1.65845
4.47211 1.7921 -1.66345
4.47311 1.8091 -1.66645
4.45711 1.8191 -1.66245
4.44611 1.8311 -1.66045
4.46011 1.8451 -1.66745
4.44111 1.8531 -1.66145
4.43811 1.8691 -1.66245
4.43311 1.8831 -1.66245
4.44211 1.9031 -1.66945
4.42811 1.9131 -1.66545
4.42111 1.9271 -1.66545
4.42411 1.9361 -1.66745
4.41611 1.9501 -1.66745
4.40111 1.9601 -1.66345
4.40711 1.9791 -1.66845
4.39211 1.9891 -1.66545
4.39311 2.0061 -1.66745
4.38811 2.0201 -1.66845
4.37511 2.0221 -1.66445
4.38011 2.0421 -1.66945
4.35511 2.0471 -1.66145
4.35911 2.0651 -1.66545
4.34911 2.0771 -1.66445
4.34711 2.0931 -1.66645
4.33211 2.1031 -1.66245
4.33411 2.1291 -1.66745
4.33211 2.1451 -1.66945
4.31911 2.1551 -1.66745
4.32211 2.1741 -1.67145
4.17311 2.4481 -1.67145
4.16311 2.4771 -1.67345
4.14811 2.4951 -1.67145
4.13211 2.5211 -1.67145
4.11111 2.5431 -1.66945
4.10611 2.5671 -1.67245
4.07911 2.5681 -1.66445
4.07711 2.5841 -1.66745
4.08811 2.6091 -1.67545
4.05111 2.6041 -1.66245
4.04611 2.6191 -1.66445
4.06711 2.6411 -1.67545
4.02111 2.6471 -1.66245
4.01711 2.6631 -1.66445
3.99511 2.6661 -1.65845
3.99711 2.6861 -1.66245
3.98911 2.6991 -1.66245
3.97211 2.7061 -1.65945
3.97111 2.7141 -1.66045
3.96311 2.7271 -1.66045
3.96211 2.7441 -1.66445
3.93911 2.7471 -1.65845
3.93211 2.7611 -1.65845
3.93611 2.7821 -1.66445
3.91811 2.7871 -1.66045
3.92911 2.8051 -1.66745
3.90211 2.8041 -1.65845
3.89711 2.8191 -1.66045
3.89311 2.8351 -1.66245
3.89311 2.8541 -1.66745
3.86211 2.8681 -1.66045
3.85911 2.8751 -1.66145
3.84711 2.8851 -1.66045
3.86911 2.9211 -1.67445
3.84211 2.9191 -1.66645
3.81911 2.9211 -1.66045
3.81611 2.9381 -1.66245
3.80211 2.9461 -1.66045
3.80211 2.9561 -1.66245
3.80011 2.9731 -1.66645
3.78811 2.9831 -1.66545
3.77811 2.9951 -1.66545
3.76211 3.0011 -1.66145
3.75811 3.0171 -1.66445
3.74311 3.0241 -1.66145
3.74511 3.0361 -1.66545
3.74711 3.0581 -1.67045
3.70911 3.0651 -1.66145
3.70211 3.0791 -1.66245
3.70311 3.1001 -1.66745
3.70711 3.1231 -1.67445
3.67811 3.1081 -1.66245
3.67011 3.1211 -1.66345
3.66111 3.1341 -1.66445
3.65611 3.1491 -1.66645
3.66411 3.1771 -1.67545
3.63911 3.1751 -1.66745
3.62611 3.1831 -1.66645
3.63511 3.2021 -1.67345
3.60711 3.1971 -1.66445
3.60511 3.2161 -1.66845
3.59611 3.2281 -1.66945
3.59211 3.2451 -1.67145
3.58711 3.2611 -1.67445
3.55611 3.2531 -1.66445
3.56211 3.2691 -1.66945
3.55411 3.2831 -1.67145
3.53911 3.2891 -1.66845
3.52611 3.2971 -1.66745
3.53011 3.3221 -1.67445
3.50211 3.3171 -1.66545
3.51111 3.3461 -1.67545
3.49711 3.3431 -1.67145
3.48811 3.3561 -1.67145
3.47511 3.3641 -1.67045
3.48011 3.3911 -1.67845
3.45611 3.3881 -1.67145
3.45511 3.4091 -1.67645
3.44311 3.4181 -1.67645
3.43911 3.4251 -1.67645
3.43711 3.4451 -1.68145
3.42211 3.4521 -1.67945
3.40611 3.4571 -1.67645
3.40711 3.4801 -1.68245
3.39211 3.4871 -1.68045
3.37911 3.4941 -1.67945
3.38111 3.5081 -1.68345
3.36011 3.5081 -1.67845
3.34511 3.5141 -1.67645
3.33611 3.5271 -1.67745
3.32511 3.5381 -1.67745
3.30611 3.5401 -1.67345
3.30411 3.5601 -1.67845
3.30511 3.5721 -1.68145
3.27711 3.5641 -1.67245
3.27511 3.5841 -1.67745
3.27211 3.6041 -1.68245
3.26411 3.6181 -1.68345
3.23811 3.6121 -1.67645
3.22011 3.6141 -1.67145
3.21111 3.6271 -1.67345
3.20611 3.6331 -1.67445
3.18511 3.6321 -1.66845
3.16711 3.6581 -1.67145
4.55211 -1.5369 -1.65845
4.58711 -1.5169 -1.66845
4.58111 -1.4989 -1.66445
4.58011 -1.4829 -1.66245
4.59011 -1.4699 -1.66445
4.58011 -1.4589 -1.65945
4.58611 -1.4449 -1.66045
4.59611 -1.4319 -1.66245
4.58111 -1.4119 -1.65445
4.60311 -1.4029 -1.66145
4.60911 -1.3889 -1.66245
4.59911 -1.3699 -1.65645
4.60111 -1.3629 -1.65645
4.60211 -1.3469 -1.65545
4.62611 -1.3389 -1.66245
4.59811 -1.3149 -1.65045
4.62211 -1.3059 -1.65845
4.61111 -1.2879 -1.65245
4.62411 -1.2749 -1.65645
4.63011 -1.2689 -1.65745
4.65211 -1.2589 -1.66445
4.62111 -1.2359 -1.65145
4.64011 -1.2249 -1.65645
4.63811 -1.2089 -1.65445
4.63311 -1.1919 -1.65145
4.64911 -1.1809 -1.65645
4.65311 -1.1739 -1.65645
4.68011 -1.1649 -1.66545
4.65311 -1.1429 -1.65345
4.66811 -1.1309 -1.65845
4.65311 -1.1119 -1.65145
4.67511 -1.1019 -1.65845
4.67111 -1.0849 -1.65545
4.69111 -1.0819 -1.66245
4.66511 -1.0609 -1.65145
4.66411 -1.0449 -1.64945
4.67911 -1.0329 -1.65345
4.68211 -1.0179 -1.65345
4.69111 -1.0049 -1.65645
4.68111 -0.986904 -1.65145
4.71611 -0.986904 -1.66345
4.68911 -0.965904 -1.65245
4.69611 -0.951904 -1.65345
4.69111 -0.935904 -1.65145
4.69811 -0.921904 -1.65245
4.69711 -0.905904 -1.65145
4.70611 -0.892904 -1.65345
4.71411 -0.886904 -1.65645
4.70011 -0.868904 -1.64945
4.70111 -0.853904 -1.64945
4.72411 -0.841904 -1.65645
4.70711 -0.823904 -1.64945
4.70711 -0.808904 -1.64845
4.71711 -0.794904 -1.65145
4.71511 -0.786904 -1.64945
4.74711 -0.761904 -1.66045
4.73511 -0.744904 -1.65445
4.72211 -0.727904 -1.64945
4.72111 -0.711904 -1.64745
4.73111 -0.698904 -1.65045
4.73911 -0.691904 -1.65345
4.74111 -0.676904 -1.65345
4.74311 -0.661904 -1.65345
4.74211 -0.646904 -1.65145
4.73811 -0.630904 -1.64945
4.74011 -0.616904 -1.64945
4.73811 -0.600904 -1.64845
4.74811 -0.586904 -1.65145
4.74911 -0.579904 -1.65145
4.78211 -0.552904 -1.66245
4.75411 -0.519904 -1.65045
4.76511 -0.505904 -1.65345
4.75911 -0.467904 -1.65045
4.75911 -0.451904 -1.64945
4.75311 -0.436904 -1.64745
4.77111 -0.422904 -1.65345
4.77011 -0.407904 -1.65245
4.76311 -0.399904 -1.64945
4.79311 -0.386904 -1.66045
4.76711 -0.354904 -1.64945
4.78211 -0.325904 -1.65445
4.76111 -0.309904 -1.64645
4.77311 -0.294904 -1.65045
4.79711 -0.273904 -1.65845
4.77911 -0.257904 -1.65145
4.77211 -0.242904 -1.64945
4.76911 -0.227904 -1.64745
4.77211 -0.197904 -1.64845
4.78211 -0.189904 -1.65145
4.77911 -0.174904 -1.65045
4.77711 -0.114904 -1.64945
4.77211 -0.0779041 -1.64745
4.77011 -0.0479041 -1.64645
4.78911 -0.0029041 -1.65345
4.65511 0.0130959 -1.65645
4.64711 0.0270959 -1.65345
4.64011 0.0420959 -1.65045
4.65811 0.0570959 -1.65745
4.63811 0.0640959 -1.64945
4.66211 0.0790959 -1.65945
4.64811 0.0930959 -1.65445
4.65011 0.108096 -1.65445
4.64811 0.122096 -1.65445
4.65511 0.137096 -1.65745
4.64311 0.151096 -1.65245
4.64311 0.159096 -1.65245
4.64411 0.173096 -1.65345
4.64511 0.188096 -1.65445
4.63911 0.202096 -1.65245
4.64411 0.217096 -1.65445
4.63611 0.231096 -1.65145
4.63211 0.246096 -1.64945
4.64011 0.254096 -1.65345
4.64511 0.268096 -1.65545
4.63311 0.282096 -1.65145
4.64711 0.298096 -1.65745
4.62911 0.311096 -1.65045
4.63211 0.326096 -1.65245
4.64811 0.342096 -1.65845
4.62711 0.348096 -1.65045
4.64111 0.363096 -1.65645
4.64111 0.378096 -1.65745
4.63611 0.392096 -1.65545
4.62811 0.406096 -1.65245
4.62311 0.421096 -1.65145
4.62111 0.435096 -1.65145
4.63711 0.444096 -1.65745
4.63011 0.458096 -1.65545
4.63611 0.473096 -1.65845
4.62411 0.487096 -1.65445
4.63711 0.503096 -1.65945
4.62211 0.516096 -1.65445
4.61911 0.530096 -1.65445
4.62411 0.538096 -1.65645
4.62011 0.552096 -1.65545
4.61111 0.566096 -1.65245
4.62611 0.582096 -1.65945
4.61811 0.596096 -1.65745
4.61711 0.611096 -1.65745
4.62911 0.627096 -1.66245
4.61211 0.632096 -1.65645
4.61011 0.647096 -1.65645
4.61711 0.663096 -1.65945
4.61511 0.677096 -1.65945
4.60311 0.690096 -1.65645
4.61811 0.707096 -1.66245
4.59711 0.719096 -1.65545
4.60311 0.727096 -1.65845
4.60311 0.742096 -1.65945
4.60411 0.757096 -1.66045
4.59611 0.771096 -1.65845
4.61411 0.788096 -1.66645
4.58611 0.798096 -1.65645
4.60011 0.816096 -1.66245
4.59511 0.822096 -1.66145
4.58911 0.836096 -1.65945
4.58611 0.850096 -1.65945
4.59811 0.868096 -1.66545
4.58111 0.879096 -1.65945
4.57811 0.894096 -1.65945
4.57311 0.908096 -1.65945
4.56711 0.921096 -1.65745
4.57611 0.931096 -1.66145
4.58611 0.948096 -1.66645
4.56311 0.958096 -1.65945
4.56911 0.974096 -1.66245
4.56011 0.987096 -1.66045
4.55411 1.0011 -1.65945
4.55011 1.0151 -1.65945
4.55811 1.0241 -1.66245
4.55111 1.0381 -1.66145
4.55011 1.0531 -1.66145
4.54611 1.0671 -1.66145
4.54511 1.0821 -1.66245
4.55611 1.0991 -1.66845
4.54211 1.1111 -1.66445
4.54011 1.1181 -1.66445
4.52911 1.1311 -1.66145
4.53611 1.1471 -1.66545
4.51811 1.1581 -1.65945
4.51811 1.1731 -1.66145
4.51311 1.1871 -1.66045
4.51111 1.2021 -1.66145
4.51211 1.2101 -1.66245
4.52311 1.2281 -1.66845
4.51211 1.2401 -1.66545
4.48811 1.2491 -1.65745
4.50211 1.2681 -1.66445
4.49611 1.2811 -1.66445
4.49411 1.2961 -1.66445
4.49411 1.3031 -1.66545
4.49911 1.3201 -1.66945
4.48411 1.3311 -1.66445
4.48111 1.3611 -1.66645
4.47011 1.3891 -1.66645
4.46511 1.3941 -1.66445
4.45711 1.4071 -1.66345
4.46311 1.4251 -1.66745
4.45811 1.4391 -1.66745
4.44911 1.4511 -1.66545
4.44611 1.4661 -1.66645
4.43911 1.4791 -1.66545
4.44411 1.4881 -1.66845
4.42511 1.4971 -1.66245
4.42911 1.5141 -1.66645
4.42611 1.5291 -1.66645
4.42511 1.5441 -1.66845
4.41111 1.5551 -1.66445
4.41011 1.5701 -1.66645
4.41311 1.5791 -1.66845
4.41311 1.5941 -1.67045
4.39211 1.6031 -1.66445
4.39911 1.6211 -1.66945
4.39111 1.6331 -1.66745
4.38911 1.6481 -1.66945
4.38711 1.6641 -1.67045
4.37611 1.6671 -1.66645
4.37111 1.6811 -1.66645
4.36911 1.6961 -1.66845
4.36511 1.7101 -1.66945
4.35511 1.7221 -1.66645
4.35611 1.7381 -1.66945
4.34711 1.7511 -1.66845
4.35011 1.7601 -1.67045
4.33711 1.8021 -1.67145
4.32011 1.8271 -1.66945
4.30711 1.8621 -1.67045
4.29811 1.8741 -1.66945
3.98911 2.5031 -1.67645
3.97611 2.5121 -1.67445
3.97311 2.5281 -1.67645
3.93411 2.5471 -1.66845
3.93411 2.5641 -1.67145
3.92611 2.5761 -1.67145
3.91311 2.5861 -1.66945
3.90511 2.5981 -1.66945
3.91311 2.6211 -1.67645
3.89311 2.6161 -1.66945
3.87711 2.6231 -1.66645
3.87611 2.6411 -1.66945
3.87111 2.6551 -1.67145
3.86311 2.6671 -1.67145
3.84511 2.6731 -1.66645
3.84411 2.6901 -1.67045
3.84811 2.7021 -1.67445
3.83011 2.7071 -1.66945
3.82011 2.7181 -1.66945
3.81611 2.7341 -1.67145
3.81111 2.7481 -1.67245
3.79411 2.7541 -1.66945
3.78911 2.7681 -1.67045
3.78311 2.7731 -1.66945
3.78011 2.7891 -1.67245
3.77911 2.8071 -1.67645
3.75811 2.8101 -1.67045
3.74611 2.8191 -1.66945
3.74011 2.8331 -1.67045
3.73011 2.8441 -1.66945
3.72411 2.8491 -1.66945
3.71611 2.8611 -1.66945
3.71011 2.8751 -1.67145
3.69811 2.8851 -1.66945
3.68611 2.8941 -1.66845
3.68911 2.9151 -1.67445
3.67211 2.9211 -1.67045
3.67111 2.9291 -1.67145
3.66011 2.9391 -1.67145
3.65111 2.9511 -1.67145
3.64311 2.9631 -1.67145
3.64111 2.9801 -1.67545
3.63511 2.9941 -1.67645
3.61211 2.9951 -1.67045
3.62211 3.0131 -1.67745
3.61211 3.0241 -1.67745
3.59611 3.0291 -1.67445
3.58811 3.0421 -1.67445
3.57711 3.0521 -1.67445
3.57311 3.0681 -1.67645
3.56211 3.0781 -1.67645
3.55411 3.0811 -1.67445
3.55411 3.1011 -1.67945
3.53911 3.1071 -1.67645
3.53011 3.1191 -1.67745
3.51811 3.1281 -1.67645
3.51211 3.1431 -1.67845
3.50811 3.1591 -1.68145
3.50111 3.1631 -1.68045
3.49411 3.1761 -1.68145
3.47911 3.1821 -1.67945
3.47611 3.2001 -1.68245
3.46811 3.2131 -1.68345
3.45411 3.2201 -1.68145
3.44311 3.2301 -1.68145
3.43611 3.2341 -1.68045
3.42011 3.2591 -1.68245
3.39311 3.2951 -1.68445
3.37911 3.3021 -1.68245
3.37211 3.3061 -1.68145
3.36311 3.3181 -1.68245
3.35511 3.3311 -1.68345
3.19711 3.4881 -1.68545
3.18411 3.4951 -1.68345
3.16311 3.5171 -1.68445
3.15611 3.5201 -1.68345
3.13611 3.5431 -1.68545
3.11611 3.5431 -1.68045
3.11311 3.5611 -1.68445
3.10011 3.5691 -1.68345
3.08411 3.5731 -1.68145
3.07911 3.5781 -1.68145
3.05811 3.5771 -1.67545
3.04611 3.5861 -1.67545
3.04111 3.6031 -1.67945
3.02211 3.6041 -1.67445
2.99911 3.6211 -1.67445
4.37311 -1.5679 -1.65245
4.39311 -1.5599 -1.65945
4.40011 -1.5469 -1.65945
4.41711 -1.5449 -1.66545
4.42511 -1.5329 -1.66645
4.43711 -1.5209 -1.66945
4.44011 -1.5069 -1.66945
4.43611 -1.4899 -1.66545
4.44611 -1.4779 -1.66745
4.45211 -1.4639 -1.66845
4.45111 -1.4559 -1.66645
4.45011 -1.4399 -1.66445
4.46011 -1.4279 -1.66645
4.45011 -1.4089 -1.66145
4.46011 -1.3969 -1.66345
4.46111 -1.3819 -1.66145
4.48111 -1.3729 -1.66845
4.47211 -1.3629 -1.66445
4.48611 -1.3509 -1.66745
4.47911 -1.3339 -1.66345
4.48211 -1.3189 -1.66245
4.48411 -1.3049 -1.66145
4.48611 -1.2899 -1.66145
4.50111 -1.2789 -1.66545
4.49611 -1.2699 -1.66245
4.51311 -1.2439 -1.66645
4.52411 -1.2319 -1.66945
4.52411 -1.2019 -1.66645
4.51511 -1.1839 -1.66145
4.52411 -1.1789 -1.66445
4.53011 -1.1649 -1.66445
4.53011 -1.1499 -1.66345
4.53011 -1.1349 -1.66145
4.53711 -1.1209 -1.66345
4.53111 -1.1049 -1.65945
4.53511 -1.0909 -1.65945
4.55111 -1.0869 -1.66545
4.54011 -1.0689 -1.65945
4.54511 -1.0559 -1.66045
4.54811 -1.0409 -1.66045
4.54411 -1.0249 -1.65745
4.56011 -1.0139 -1.66245
4.55611 -0.997904 -1.65945
4.54711 -0.987904 -1.65545
4.56611 -0.977904 -1.66145
4.56011 -0.960904 -1.65845
4.56711 -0.947904 -1.65945
4.56111 -0.930904 -1.65645
4.58211 -0.920904 -1.66345
4.57011 -0.903904 -1.65745
4.57311 -0.896904 -1.65845
4.58411 -0.883904 -1.66145
4.57311 -0.866904 -1.65645
4.57111 -0.850904 -1.65445
4.57411 -0.821904 -1.65345
4.57711 -0.807904 -1.65345
4.60111 -0.797904 -1.66145
4.59011 -0.787904 -1.65745
4.58511 -0.771904 -1.65445
4.60411 -0.760904 -1.66045
4.59511 -0.743904 -1.65645
4.60311 -0.730904 -1.65845
4.61811 -0.718904 -1.66345
4.59311 -0.706904 -1.65345
4.60311 -0.693904 -1.65645
4.61111 -0.679904 -1.65845
4.60311 -0.663904 -1.65445
4.61311 -0.650904 -1.65745
4.62611 -0.637904 -1.66145
4.61511 -0.621904 -1.65745
4.62511 -0.615904 -1.66045
4.62211 -0.600904 -1.65845
4.61111 -0.583904 -1.65345
4.62511 -0.570904 -1.65845
4.62511 -0.556904 -1.65745
4.62911 -0.541904 -1.65845
4.63011 -0.527904 -1.65845
4.62511 -0.511904 -1.65545
4.63311 -0.505904 -1.65845
4.62111 -0.489904 -1.65345
4.63811 -0.476904 -1.65945
4.62311 -0.460904 -1.65245
4.62811 -0.446904 -1.65445
4.63711 -0.432904 -1.65745
4.63011 -0.417904 -1.65445
4.63311 -0.409904 -1.65445
4.63811 -0.395904 -1.65645
4.63011 -0.380904 -1.65245
4.64411 -0.366904 -1.65745
4.64511 -0.352904 -1.65745
4.64811 -0.337904 -1.65845
4.63211 -0.322904 -1.65245
4.63711 -0.315904 -1.65345
4.63911 -0.300904 -1.65445
4.64411 -0.286904 -1.65545
4.65811 -0.272904 -1.66045
4.65111 -0.257904 -1.65745
4.64111 -0.242904 -1.65345
4.64711 -0.227904 -1.65545
4.65711 -0.221904 -1.65945
4.64711 -0.205904 -1.65445
4.65311 -0.191904 -1.65745
4.64411 -0.176904 -1.65345
4.64811 -0.162904 -1.65445
4.65411 -0.147904 -1.65745
4.63811 -0.132904 -1.65045
4.64011 -0.125904 -1.65145
4.64011 -0.110904 -1.65145
4.64311 -0.0969041 -1.65245
4.64111 -0.0819041 -1.65145
4.64911 -0.0679041 -1.65445
4.65311 -0.0529041 -1.65545
4.63811 -0.0379041 -1.64945
4.64711 -0.0309041 -1.65345
4.63811 -0.0159041 -1.64945
4.64711 -0.0019041 -1.65345
4.52611 0.0010959 -1.65545
4.52811 0.0150959 -1.65645
4.53011 0.0220959 -1.65745
4.53711 0.0360959 -1.66045
4.55611 0.0510959 -1.66745
4.53211 0.0650959 -1.65845
4.53911 0.0790959 -1.66145
4.52411 0.0930959 -1.65545
4.54011 0.108096 -1.66145
4.54411 0.115096 -1.66345
4.53911 0.129096 -1.66145
4.52011 0.143096 -1.65445
4.52411 0.157096 -1.65545
4.52711 0.171096 -1.65745
4.54511 0.186096 -1.66445
4.54611 0.201096 -1.66545
4.54211 0.208096 -1.66345
4.53411 0.222096 -1.66145
4.52811 0.236096 -1.65845
4.52911 0.250096 -1.65945
4.53511 0.265096 -1.66245
4.50511 0.277096 -1.65045
4.53711 0.293096 -1.66345
4.51811 0.299096 -1.65645
4.52911 0.314096 -1.66145
4.52011 0.328096 -1.65845
4.52611 0.343096 -1.66145
4.52211 0.357096 -1.65945
4.53011 0.372096 -1.66345
4.53611 0.386096 -1.66645
4.53011 0.393096 -1.66345
4.52911 0.407096 -1.66345
4.51611 0.420096 -1.65945
4.51511 0.435096 -1.65945
4.52511 0.450096 -1.66345
4.51011 0.463096 -1.65845
4.50911 0.477096 -1.65845
4.49311 0.482096 -1.65345
4.51911 0.500096 -1.66345
4.50511 0.512096 -1.65845
4.51611 0.528096 -1.66345
4.49411 0.540096 -1.65545
4.50911 0.556096 -1.66245
4.50211 0.569096 -1.66045
4.51611 0.586096 -1.66645
4.51411 0.593096 -1.66645
4.51611 0.607096 -1.66745
4.51411 0.622096 -1.66745
4.50111 0.634096 -1.66345
4.50411 0.649096 -1.66545
4.50811 0.664096 -1.66745
4.50511 0.678096 -1.66745
4.49311 0.698096 -1.66345
4.49611 0.713096 -1.66645
4.49611 0.727096 -1.66645
4.48611 0.740096 -1.66345
4.47311 0.752096 -1.65945
4.49111 0.770096 -1.66745
4.48611 0.776096 -1.66645
4.49111 0.792096 -1.66945
4.48311 0.805096 -1.66645
4.48611 0.820096 -1.66945
4.47711 0.833096 -1.66645
4.47711 0.848096 -1.66745
4.46511 0.860096 -1.66345
4.46911 0.868096 -1.66645
4.46811 0.882096 -1.66645
4.46011 0.895096 -1.66445
4.45111 0.908096 -1.66245
4.46611 0.940096 -1.67045
4.46111 0.954096 -1.66945
4.44311 0.957096 -1.66345
4.44911 0.973096 -1.66645
4.44311 1.0161 -1.66845
4.43311 1.0281 -1.66545
4.43011 1.0421 -1.66545
4.43511 1.0511 -1.66845
4.43611 1.0661 -1.66945
4.42511 1.0781 -1.66645
4.42911 1.0941 -1.66945
4.41811 1.1061 -1.66645
4.42211 1.1211 -1.66945
4.40411 1.1391 -1.66445
4.41111 1.1701 -1.67045
4.40411 1.1831 -1.66945
4.40211 1.1981 -1.66945
4.38511 1.2231 -1.66645
4.37611 1.2421 -1.66445
4.38411 1.2751 -1.67145
4.38211 1.2891 -1.67145
4.35711 1.3191 -1.66645
4.36411 1.3361 -1.67045
4.34911 1.3761 -1.66945
4.33011 1.4531 -1.67145
4.31611 1.4781 -1.66945
4.29611 1.5551 -1.67245
4.28111 1.5801 -1.67045
4.27711 1.6021 -1.67145
4.25211 1.6771 -1.67345
4.24211 1.7041 -1.67345
4.17611 1.8551 -1.67245
3.82711 2.5241 -1.67845
3.79611 2.5731 -1.67945
3.73611 2.6621 -1.67945
3.71711 2.6661 -1.67445
3.71811 2.6761 -1.67745
3.71511 2.6921 -1.67945
3.69811 2.6971 -1.67545
3.68911 2.7081 -1.67545
3.68211 2.7211 -1.67645
3.67811 2.7361 -1.67845
3.65911 2.7491 -1.67545
3.65411 2.7621 -1.67745
3.63811 2.7681 -1.67345
3.62911 2.7801 -1.67345
3.62911 2.7981 -1.67745
3.61911 2.8081 -1.67745
3.60811 2.8181 -1.67645
3.60811 2.8271 -1.67845
3.59511 2.8351 -1.67645
3.58111 2.8611 -1.67845
3.56111 2.8811 -1.67745
3.55011 2.8911 -1.67645
3.55111 2.9021 -1.67945
3.54911 2.9191 -1.68245
3.53611 2.9261 -1.68045
3.52411 2.9351 -1.67945
3.51211 2.9631 -1.68245
3.49911 2.9711 -1.68045
3.48311 2.9861 -1.67945
3.41511 3.0701 -1.68145
3.05111 3.4511 -1.68745
3.03811 3.4581 -1.68545
3.02511 3.4771 -1.68745
2.99111 3.5041 -1.68745
2.98611 3.5201 -1.69045
2.96111 3.5241 -1.68545
2.95011 3.5331 -1.68545
2.94511 3.5501 -1.68945
2.93111 3.5561 -1.68745
2.91611 3.5611 -1.68545
2.91111 3.5771 -1.68945
2.89411 3.5791 -1.68545
2.88211 3.5761 -1.68245
2.86311 3.5751 -1.67745
2.85111 3.5831 -1.67645
2.83711 3.5891 -1.67445
4.24211 -1.5949 -1.65845
4.26311 -1.5869 -1.66445
4.26311 -1.5719 -1.66245
4.28011 -1.5629 -1.66745
4.29211 -1.5519 -1.67045
4.31811 -1.4769 -1.67045
4.32711 -1.4579 -1.67145
4.33711 -1.4309 -1.67145
4.34211 -1.4169 -1.67145
4.39511 -1.2239 -1.66945
4.39511 -1.1939 -1.66645
4.40211 -1.1889 -1.66945
4.41011 -1.1459 -1.66745
4.42011 -1.1339 -1.67045
4.41911 -1.1189 -1.66845
4.41111 -1.1019 -1.66345
4.42411 -1.0909 -1.66745
4.41611 -1.0819 -1.66345
4.43211 -1.0559 -1.66745
4.42511 -1.0389 -1.66345
4.43911 -1.0279 -1.66745
4.44411 -1.0139 -1.66845
4.44511 -1.0069 -1.66845
4.44111 -0.991904 -1.66545
4.44311 -0.948904 -1.66245
4.45911 -0.936904 -1.66745
4.44911 -0.920904 -1.66245
4.46911 -0.916904 -1.66945
4.46411 -0.901904 -1.66645
4.45811 -0.885904 -1.66345
4.46811 -0.872904 -1.66645
4.46911 -0.858904 -1.66545
4.46011 -0.842904 -1.66145
4.47811 -0.831904 -1.66645
4.48211 -0.817904 -1.66745
4.46511 -0.807904 -1.66045
4.47911 -0.794904 -1.66445
4.49211 -0.782904 -1.66945
4.47811 -0.765904 -1.66245
4.48811 -0.752904 -1.66545
4.48811 -0.738904 -1.66445
4.48511 -0.723904 -1.66245
4.48111 -0.715904 -1.66045
4.48511 -0.701904 -1.66145
4.48911 -0.688904 -1.66145
4.49111 -0.673904 -1.66145
4.50411 -0.661904 -1.66645
4.50111 -0.646904 -1.66345
4.49911 -0.631904 -1.66245
4.50511 -0.625904 -1.66445
4.49111 -0.609904 -1.65845
4.50911 -0.597904 -1.66445
4.50011 -0.581904 -1.66045
4.49411 -0.566904 -1.65745
4.50911 -0.554904 -1.66245
4.50211 -0.538904 -1.65845
4.49511 -0.530904 -1.65545
4.51511 -0.518904 -1.66345
4.52111 -0.504904 -1.66445
4.50411 -0.488904 -1.65745
4.52411 -0.476904 -1.66445
4.50111 -0.460904 -1.65545
4.52111 -0.447904 -1.66245
4.51411 -0.439904 -1.65945
4.51911 -0.425904 -1.66145
4.51511 -0.411904 -1.65845
4.52211 -0.397904 -1.66145
4.51911 -0.383904 -1.65945
4.52611 -0.369904 -1.66145
4.52511 -0.354904 -1.66145
4.53311 -0.348904 -1.66345
4.53311 -0.333904 -1.66345
4.53411 -0.319904 -1.66345
4.53811 -0.305904 -1.66445
4.52411 -0.290904 -1.65845
4.54011 -0.277904 -1.66445
4.54111 -0.262904 -1.66445
4.53611 -0.255904 -1.66245
4.52611 -0.240904 -1.65845
4.53211 -0.226904 -1.66045
4.52511 -0.212904 -1.65745
4.52211 -0.197904 -1.65545
4.53611 -0.184904 -1.66145
4.52111 -0.169904 -1.65545
4.52911 -0.162904 -1.65845
4.54611 -0.148904 -1.66445
4.54111 -0.134904 -1.66245
4.53411 -0.119904 -1.65945
4.54911 -0.105904 -1.66545
4.53811 -0.0919041 -1.66145
4.54111 -0.0779041 -1.66145
4.53911 -0.0709041 -1.66145
4.52811 -0.0559041 -1.65645
4.53211 -0.0419041 -1.65845
4.53011 -0.0279041 -1.65745
4.53411 -0.0139041 -1.65845
4.34811 0.816096 -1.67145
3.61911 2.5871 -1.68145
3.60411 2.6101 -1.68145
2.87611 3.4221 -1.69045
2.86411 3.4301 -1.68945
2.85411 3.4391 -1.68945
2.84211 3.4461 -1.68845
2.83711 3.4621 -1.69245
2.80611 3.4801 -1.69045
2.79411 3.4881 -1.68945
2.77611 3.5111 -1.69245
2.76411 3.5181 -1.69145
2.74811 3.5311 -1.69145
2.72811 3.5511 -1.69345
2.71011 3.5511 -1.68845
2.69411 3.5541 -1.68545
2.67611 3.5531 -1.68145
4.07911 -1.6439 -1.66145
4.10011 -1.6379 -1.66745
4.08411 1.4171 -1.67545
3.46711 2.6161 -1.68345
3.24411 2.8931 -1.68545
3.13811 3.0181 -1.68845
3.11311 3.0421 -1.68745
3.09411 3.0611 -1.68745
3.06511 3.0901 -1.68745
3.05911 3.1041 -1.68945
3.05411 3.1091 -1.68945
3.03411 3.1071 -1.68345
3.02211 3.1341 -1.68845
2.96411 3.1821 -1.68545
2.95711 3.1941 -1.68745
2.94411 3.2011 -1.68545
2.92311 3.2181 -1.68545
2.89611 3.2591 -1.69045
2.87611 3.2791 -1.69145
2.85611 3.2871 -1.68845
2.83411 3.3031 -1.68745
2.82811 3.3181 -1.69045
2.82211 3.3311 -1.69245
2.79811 3.3461 -1.69145
2.79111 3.3471 -1.68945
2.78011 3.3561 -1.68945
2.76211 3.3781 -1.69145
2.73911 3.3921 -1.69045
2.72911 3.4021 -1.69145
2.71711 3.3981 -1.68645
2.71311 3.4151 -1.69145
2.70211 3.4241 -1.69145
2.68711 3.4261 -1.68845
2.68211 3.4421 -1.69145
2.66611 3.4431 -1.68845
2.66311 3.4621 -1.69345
2.64911 3.4671 -1.69145
2.63611 3.4841 -1.69445
2.62411 3.4911 -1.69345
2.61211 3.4971 -1.69245
2.59511 3.4971 -1.68845
2.58911 3.5121 -1.69145
2.57511 3.5161 -1.68945
2.56711 3.5171 -1.68845
2.55511 3.5241 -1.68745
2.53511 3.5201 -1.68145
3.94311 -1.6659 -1.65745
3.97011 -1.6629 -1.66745
3.98411 -1.6539 -1.67145
4.06111 1.1661 -1.67145
4.05011 1.1771 -1.66845
4.05011 1.1901 -1.66945
4.05011 1.1971 -1.67045
4.04411 1.2091 -1.66945
4.03511 1.2211 -1.66745
4.03811 1.2351 -1.67045
4.03311 1.2481 -1.66945
4.02511 1.2591 -1.66845
4.03411 1.2761 -1.67345
4.02111 1.2861 -1.66945
4.01911 1.2921 -1.66945
4.01311 1.3041 -1.66845
4.01811 1.3191 -1.67245
4.00111 1.3281 -1.66745
3.99511 1.3401 -1.66645
3.99611 1.3541 -1.66845
3.99411 1.3671 -1.66945
4.00011 1.3771 -1.67345
3.98511 1.3861 -1.66845
3.98811 1.4001 -1.67245
3.97411 1.4241 -1.66945
3.96411 1.4341 -1.66745
3.96511 1.4491 -1.66945
3.97011 1.4571 -1.67245
3.96011 1.4681 -1.67045
3.95711 1.4811 -1.67145
3.95211 1.4931 -1.67145
3.94611 1.5051 -1.67045
3.94111 1.5181 -1.67045
3.93111 1.5281 -1.66845
3.93711 1.5371 -1.67245
3.93211 1.5501 -1.67245
3.92911 1.5631 -1.67245
3.92111 1.5741 -1.67145
3.90611 1.5821 -1.66645
3.91311 1.5991 -1.67245
3.90211 1.6091 -1.66945
3.89611 1.6141 -1.66845
3.90311 1.6311 -1.67345
3.90211 1.6451 -1.67545
3.88811 1.6541 -1.67145
3.89111 1.6691 -1.67545
3.88811 1.6821 -1.67545
3.87411 1.6911 -1.67245
3.87111 1.6971 -1.67245
3.86911 1.7111 -1.67345
3.85711 1.7201 -1.67045
3.85711 1.7341 -1.67245
3.85611 1.7481 -1.67545
3.84611 1.7581 -1.67245
3.85211 1.7761 -1.67845
3.83711 1.7761 -1.67245
3.82711 1.7861 -1.67045
3.81511 1.8241 -1.67245
3.81911 1.8411 -1.67745
3.81011 1.8521 -1.67545
3.80411 1.8561 -1.67445
3.80011 1.8841 -1.67845
3.79111 1.8941 -1.67645
3.79211 1.9091 -1.67945
3.77611 1.9391 -1.67945
3.75811 1.9591 -1.67645
3.74811 1.9691 -1.67545
3.72011 2.0371 -1.67845
3.50811 2.4001 -1.68245
3.48711 2.4341 -1.68245
3.47011 2.4551 -1.68245
3.46111 2.4651 -1.68145
3.45611 2.4691 -1.68045
3.44911 2.4811 -1.68145
3.40911 2.5181 -1.67645
3.41011 2.5441 -1.68345
3.39911 2.5521 -1.68245
3.38311 2.5731 -1.68245
3.37811 2.5861 -1.68345
3.37111 2.5981 -1.68445
3.34811 2.6221 -1.68245
3.34111 2.6341 -1.68345
3.33011 2.6421 -1.68245
3.32311 2.6541 -1.68245
3.31911 2.6671 -1.68545
3.30211 2.6801 -1.68245
3.28111 2.6971 -1.68045
3.27511 2.7271 -1.68645
3.26011 2.7311 -1.68245
3.25411 2.7441 -1.68445
3.23811 2.7571 -1.68245
3.23211 2.7691 -1.68445
3.21711 2.7731 -1.68045
3.20411 2.7801 -1.67845
3.20511 2.7981 -1.68345
3.19611 2.8081 -1.68345
3.18311 2.8231 -1.68345
3.17211 2.8321 -1.68245
3.16911 2.8471 -1.68645
3.15911 2.8561 -1.68545
3.15011 2.8661 -1.68545
3.14511 2.8791 -1.68745
3.13011 2.8841 -1.68445
3.12611 2.8891 -1.68445
3.12311 2.9051 -1.68845
3.11111 2.9121 -1.68645
3.08511 2.9241 -1.68245
3.08411 2.9421 -1.68645
3.07211 2.9491 -1.68545
3.05911 2.9461 -1.68045
3.05311 2.9581 -1.68245
3.04711 2.9711 -1.68445
3.03711 2.9801 -1.68345
3.03111 2.9931 -1.68645
3.01411 2.9951 -1.68145
3.00611 3.0061 -1.68245
3.00111 3.0101 -1.68245
2.99311 3.0211 -1.68245
2.99011 3.0371 -1.68645
2.97511 3.0411 -1.68345
2.97111 3.0561 -1.68645
2.95311 3.0571 -1.68245
2.94311 3.0651 -1.68145
2.93511 3.0671 -1.67945
2.92211 3.0721 -1.67745
2.92511 3.0951 -1.68545
2.91411 3.1031 -1.68445
2.90311 3.1101 -1.68345
2.88511 3.1111 -1.67945
2.88411 3.1301 -1.68445
2.87911 3.1341 -1.68445
2.86811 3.1421 -1.68345
2.85511 3.1471 -1.68145
2.84611 3.1571 -1.68245
2.84211 3.1731 -1.68645
2.82611 3.1751 -1.68245
2.81611 3.1841 -1.68245
2.81011 3.1871 -1.68145
2.80011 3.1961 -1.68145
2.79111 3.2061 -1.68245
2.79011 3.2241 -1.68745
2.77011 3.2221 -1.68145
2.76611 3.2381 -1.68545
2.75511 3.2461 -1.68545
2.74211 3.2511 -1.68245
2.73511 3.2541 -1.68245
2.72511 3.2621 -1.68245
2.72311 3.2811 -1.68745
2.70811 3.2841 -1.68445
2.69711 3.2911 -1.68345
2.69311 3.3081 -1.68845
2.68211 3.3151 -1.68745
2.67811 3.3201 -1.68845
2.67111 3.3331 -1.69045
2.65711 3.3371 -1.68845
2.64511 3.3441 -1.68745
2.63711 3.3551 -1.68945
2.62311 3.3591 -1.68645
2.60811 3.3621 -1.68345
2.60811 3.3731 -1.68745
2.58811 3.3691 -1.68145
2.58911 3.3921 -1.68945
2.57611 3.3971 -1.68745
2.56711 3.4071 -1.68845
2.55111 3.4091 -1.68545
2.54211 3.4181 -1.68645
2.53611 3.4221 -1.68645
2.52811 3.4331 -1.68745
2.51711 3.4411 -1.68745
2.51111 3.4551 -1.69045
2.49411 3.4561 -1.68645
2.49311 3.4771 -1.69345
2.46511 3.4831 -1.68945
2.45911 3.4871 -1.68945
2.43611 3.4771 -1.67945
2.42511 3.4851 -1.67945
3.86911 -1.6889 -1.66945
3.87111 -1.6829 -1.66945
3.89011 -1.6759 -1.67545
3.92011 1.3311 -1.67545
3.91911 1.3451 -1.67645
3.91711 1.3511 -1.67645
3.89911 1.3581 -1.67045
3.90511 1.3741 -1.67545
3.90211 1.3871 -1.67645
3.89411 1.3981 -1.67445
3.88611 1.4221 -1.67445
3.88211 1.4281 -1.67345
3.87811 1.4541 -1.67645
3.87311 1.4661 -1.67645
3.87211 1.4801 -1.67745
3.86011 1.4891 -1.67445
3.85411 1.5221 -1.67645
3.84311 1.5591 -1.67845
3.83011 1.5891 -1.67845
3.81311 1.6251 -1.67745
3.80811 1.6371 -1.67745
3.79711 1.6671 -1.67845
3.67111 1.9321 -1.67945
3.43411 2.3451 -1.68345
3.43311 2.3521 -1.68445
3.42011 2.3591 -1.68145
3.41711 2.3731 -1.68345
3.40311 2.3951 -1.68445
3.39411 2.4051 -1.68345
3.38711 2.4151 -1.68345
3.37511 2.4151 -1.68045
3.36611 2.4251 -1.67945
3.35811 2.4511 -1.68345
3.32711 2.4851 -1.68045
3.31811 2.5111 -1.68445
3.15411 2.7231 -1.68745
3.14611 2.7331 -1.68745
3.13311 2.7391 -1.68445
3.11511 2.7681 -1.68745
3.09111 2.7811 -1.68345
3.07611 2.8031 -1.68445
3.06311 2.8171 -1.68445
3.06111 2.8331 -1.68845
3.04911 2.8401 -1.68745
3.03111 2.8591 -1.68745
3.00911 2.8751 -1.68445
3.01111 2.8861 -1.68845
2.99711 2.8901 -1.68545
2.99111 2.9021 -1.68745
2.96411 2.9311 -1.68745
2.95911 2.9441 -1.69045
2.94711 2.9411 -1.68545
2.92911 2.9611 -1.68645
2.92511 2.9761 -1.68945
2.91111 2.9791 -1.68645
2.89511 3.0001 -1.68745
2.89611 3.0111 -1.69145
2.87911 3.0131 -1.68745
2.87311 3.0261 -1.68945
2.86111 3.0321 -1.68745
2.85711 3.0461 -1.69145
2.84211 3.0501 -1.68745
2.82811 3.0531 -1.68445
2.82211 3.0661 -1.68745
2.80011 3.0711 -1.68245
2.80011 3.0911 -1.68845
2.79211 3.1011 -1.68945
2.77711 3.1051 -1.68645
2.76811 3.1151 -1.68745
2.76711 3.1331 -1.69245
2.74111 3.1331 -1.68545
2.72811 3.1581 -1.68945
2.71511 3.1631 -1.68745
2.69811 3.1831 -1.68945
2.69411 3.1891 -1.69045
2.69011 3.2041 -1.69445
2.67211 3.2031 -1.68845
2.66611 3.2171 -1.69145
2.64611 3.2341 -1.69145
2.62311 3.2571 -1.69345
2.60411 3.2551 -1.68745
2.58311 3.2701 -1.68745
2.58311 3.2911 -1.69445
2.56511 3.3011 -1.69245
2.53611 3.3271 -1.69445
2.52511 3.3351 -1.69445
2.48911 3.3631 -1.69445
2.47211 3.3621 -1.68945
2.46611 3.3771 -1.69345
2.45711 3.3861 -1.69445
2.44311 3.3901 -1.69145
2.43211 3.3971 -1.69145
2.41611 3.4091 -1.69145
2.40611 3.4161 -1.69145
2.40011 3.4311 -1.69545
2.38111 3.4271 -1.68945
2.37411 3.4401 -1.69245
2.36811 3.4541 -1.69545
2.35311 3.4441 -1.68845
2.34711 3.4591 -1.69245
2.32811 3.4781 -1.69545
2.32011 3.4901 -1.69745
2.30011 3.4831 -1.69045
2.27911 3.4741 -1.68145
2.27511 3.4801 -1.68345
2.26311 3.4861 -1.68245
3.32311 -2.4429 -1.66845
3.45011 -2.2399 -1.66445
3.47111 -2.2379 -1.67145
3.76711 -1.7119 -1.67445
3.77211 -1.6859 -1.67245
3.76611 -1.6689 -1.66645
3.79511 -1.6679 -1.67745
3.90111 -1.4019 -1.67745
3.90211 -1.3879 -1.67645
3.92311 -1.3329 -1.67645
2.25311 3.3911 -1.70045
3.58911 -1.7319 -1.66245
3.60411 -1.7249 -1.66745
3.62811 -1.7229 -1.67645
3.63611 -1.7129 -1.67845
3.33911 -2.0279 -1.67245
22.3571 -3.6539 0.967547
22.3281 -3.5049 0.965547
22.2851 -3.3909 0.963547
22.2561 -3.3149 0.962547
22.2311 -3.2399 0.961547
22.1871 -3.0919 0.959547
21.6621 -1.4369 0.935547
21.6531 -1.3679 0.935547
21.6271 -1.2979 0.934547
21.6071 -1.2289 0.933547
21.5871 -1.1599 0.932547
21.5581 -1.0899 0.931547
21.5341 -1.0549 0.930547
22.9541 -5.5489 0.850547
22.9311 -5.4669 0.848547
22.9111 -5.3859 0.847547
22.8361 -5.1789 0.844547
22.3631 -3.6299 0.716547
22.2291 -3.2159 0.712547
22.9681 -5.5839 0.559547
22.9471 -5.5019 0.559547
22.9171 -5.4189 0.558547
22.8711 -5.2559 0.557547
22.8081 -5.0539 0.555547
22.4301 -3.8709 0.546547
22.3921 -3.7919 0.545547
22.3801 -3.7179 0.545547
22.3531 -3.6409 0.544547
22.3081 -3.5259 0.543547
22.2671 -3.3759 0.542547
22.2401 -3.2999 0.542547
22.2181 -3.2259 0.541547
22.1951 -3.1509 0.541547
22.1521 -3.0379 0.540547
21.6951 -1.5619 0.531547
21.6661 -1.4919 0.530547
21.6491 -1.4219 0.530547
21.6331 -1.3529 0.529547
21.6131 -1.2829 0.529547
21.5671 -1.1789 0.528547
21.5431 -1.1089 0.528547
21.5261 -1.0409 0.528547
21.5071 -0.971904 0.527547
21.4881 -0.903904 0.527547
21.4691 -0.834904 0.527547
21.4481 -0.800904 0.526547
22.9011 -5.4059 0.437547
22.8871 -5.3269 0.437547
22.8531 -5.2429 0.436547
22.8151 -5.0839 0.435547
22.3271 -3.5579 0.428547
22.2971 -3.4809 0.427547
22.2571 -3.3679 0.427547
21.6741 -1.5219 0.419547
21.6601 -1.4869 0.419547
21.6371 -1.4169 0.418547
21.6151 -1.3469 0.418547
21.5511 -1.1399 0.417547
21.5321 -1.0709 0.417547
21.4531 -0.830904 0.416547
22.8341 -5.1489 0.273547
22.1381 -2.9789 0.269547
22.8941 -5.3759 0.162547
22.8731 -5.3329 0.162547
22.9261 -5.5209 0.0125466
22.8211 -5.1549 0.0145466
22.7691 -4.9929 0.0145466
22.3751 -3.7389 0.0195466
22.3441 -3.6609 0.0195466
22.3281 -3.6229 0.0205466
22.2351 -3.3209 0.0215466
22.2101 -3.2459 0.0215466
22.1921 -3.1719 0.0215466
22.1031 -2.9119 0.0225466
21.6381 -1.4419 0.0275466
21.5981 -1.3029 0.0275466
21.5191 -1.0609 0.0285466
21.4761 -0.923904 0.0285466
21.4551 -0.854904 0.0295466
22.8581 -5.2519 -0.130453
22.3441 -3.6399 -0.119453
22.2771 -3.4499 -0.117453
22.2441 -3.3729 -0.117453
22.1521 -3.0749 -0.115453
21.4441 -0.836904 -0.102453
21.4281 -0.768904 -0.102453
22.7561 -4.9529 -0.290453
22.4351 -3.9309 -0.279453
22.4081 -3.8529 -0.279453
22.3791 -3.7759 -0.278453
22.2781 -3.4349 -0.275453
22.2331 -3.2859 -0.273453
22.1821 -3.1359 -0.272453
22.1111 -2.9489 -0.270453
22.1011 -2.8759 -0.269453
22.0781 -2.8029 -0.269453
22.0511 -2.7289 -0.268453
22.0351 -2.6569 -0.267453
22.0041 -2.5829 -0.266453
21.9801 -2.5099 -0.266453
21.9681 -2.4739 -0.265453
21.9381 -2.4009 -0.265453
21.9161 -2.3289 -0.264453
21.9071 -2.2579 -0.264453
21.8591 -2.1139 -0.262453
21.8191 -2.0069 -0.261453
21.7951 -1.9349 -0.261453
21.7551 -1.7939 -0.260453
21.7161 -1.6529 -0.259453
21.6841 -1.5479 -0.258453
21.6391 -1.4079 -0.257453
21.6101 -1.3379 -0.256453
21.5391 -1.0959 -0.254453
21.5171 -1.0269 -0.254453
22.6241 -4.5509 -0.541453
22.5771 -4.3939 -0.539453
22.4311 -3.9639 -0.532453
22.3371 -3.6589 -0.527453
22.2841 -3.4699 -0.524453
22.2481 -3.3929 -0.523453
22.2391 -3.3199 -0.522453
22.2091 -3.2449 -0.521453
22.1271 -2.9839 -0.517453
22.1001 -2.9099 -0.516453
21.9571 -2.4359 -0.510453
21.9141 -2.2919 -0.508453
21.8851 -2.2189 -0.507453
21.8341 -2.0409 -0.505453
21.6861 -1.5809 -0.499453
21.6551 -1.5099 -0.497453
21.6421 -1.4409 -0.497453
21.5441 -1.1289 -0.493453
21.5191 -1.0599 -0.492453
21.5011 -0.990904 -0.492453
21.4611 -0.853904 -0.490453
22.6651 -4.7049 -0.966453
22.6151 -4.5469 -0.962453
22.4721 -4.1159 -0.951453
22.4331 -3.9629 -0.947453
22.3351 -3.6939 -0.940453
22.2891 -3.5419 -0.937453
22.2781 -3.4689 -0.936453
22.2421 -3.3919 -0.933453
22.2071 -3.2439 -0.930453
22.1551 -3.1299 -0.927453
22.1151 -2.9829 -0.924453
22.0641 -2.8349 -0.920453
22.0251 -2.7239 -0.918453
21.9821 -2.5789 -0.915453
21.9431 -2.4349 -0.912453
21.9041 -2.2909 -0.909453
21.8101 -2.0399 -0.903453
21.7771 -1.8989 -0.901453
21.7281 -1.7909 -0.898453
21.7191 -1.7219 -0.898453
21.6891 -1.6509 -0.896453
21.6701 -1.5809 -0.895453
21.6531 -1.5109 -0.893453
21.6061 -1.3719 -0.891453
21.5901 -1.3369 -0.890453
21.5751 -1.2679 -0.889453
21.5301 -1.1299 -0.886453
21.5181 -1.0609 -0.885453
21.4931 -0.991904 -0.884453
21.4541 -0.888904 -0.882453
21.4361 -0.820904 -0.881453
22.9041 -5.5099 -1.26245
22.8751 -5.4269 -1.25945
22.8211 -5.2639 -1.25345
22.8141 -5.1869 -1.25245
22.7561 -5.0229 -1.24645
22.7331 -4.9809 -1.24445
22.6801 -4.8199 -1.23945
22.6351 -4.6619 -1.23445
22.6091 -4.5829 -1.23145
22.5941 -4.5059 -1.22945
22.5641 -4.4269 -1.22745
21.8781 -2.2669 -1.31845
22.4331 -4.0389 -1.48545
22.4101 -3.9619 -1.48345
22.3911 -3.8859 -1.48045
22.3731 -3.8109 -1.47845
22.3201 -3.6939 -1.47345
22.3021 -3.6189 -1.47145
22.2761 -3.5429 -1.46845
22.2571 -3.4679 -1.46645
22.2331 -3.3929 -1.46345
22.2121 -3.3179 -1.46145
22.1821 -3.2429 -1.45845
22.1641 -3.2039 -1.45645
22.1541 -3.1319 -1.45445
22.1221 -3.0569 -1.45145
22.1021 -2.9829 -1.44945
22.0571 -2.8359 -1.44445
22.0321 -2.7629 -1.44245
22.0211 -2.7259 -1.44145
21.9991 -2.6529 -1.43845
21.9741 -2.5799 -1.43645
21.9601 -2.5089 -1.43445
21.9281 -2.4359 -1.43145
21.9081 -2.3639 -1.42945
21.8861 -2.2919 -1.42745
21.7831 -1.9699 -1.41745
21.7531 -1.8989 -1.41545
21.7311 -1.8279 -1.41345
21.6331 -1.5119 -1.40445
3.26611 -3.3069 0.358547
3.30711 -3.3059 0.359547
3.34711 -3.3049 0.360547
3.35311 -3.2899 0.360547
3.36611 -3.2919 0.360547
3.39811 -3.2809 0.361547
3.41711 -3.2789 0.361547
3.45911 -3.2779 0.362547
3.47211 -3.2699 0.362547
3.48011 -3.2669 0.363547
3.50711 -3.2709 0.363547
3.52311 -3.2649 0.364547
3.53811 -3.2579 0.364547
3.57711 -3.2529 0.365547
3.61211 -3.2539 0.366547
3.64811 -3.2439 0.366547
3.66211 -3.2369 0.366547
3.68111 -3.2329 0.367547
3.70411 -3.2319 0.367547
3.73611 -3.2289 0.368547
3.75311 -3.2229 0.368547
3.77711 -3.2229 0.369547
4.78111 -3.0579 0.393547
5.21011 -2.9739 0.404547
5.98011 -2.8359 0.425547
6.22711 -2.7979 0.432547
6.29911 -2.7829 0.434547
7.69511 -2.5469 0.475547
7.73911 -2.5339 0.477547
7.79911 -2.5259 0.478547
3.26111 -3.3139 0.328547
3.27411 -3.3059 0.328547
3.29711 -3.3089 0.329547
3.31311 -3.3039 0.329547
3.32511 -3.3059 0.329547
3.34511 -3.3049 0.330547
3.36611 -3.3049 0.330547
3.37611 -3.2939 0.330547
3.39611 -3.2929 0.331547
3.41711 -3.2919 0.331547
3.43311 -3.2869 0.331547
3.48011 -3.2809 0.332547
3.52011 -3.2769 0.333547
3.60411 -3.2619 0.334547
3.78611 -3.2269 0.337547
4.01811 -3.1929 0.342547
4.74611 -3.0619 0.356547
4.76911 -3.0559 0.356547
4.87611 -3.0289 0.358547
4.92811 -3.0179 0.359547
4.82311 -3.0459 0.330547
4.85111 -3.0429 0.331547
4.85911 -3.0369 0.331547
4.89511 -3.0369 0.331547
4.94411 -3.0249 0.332547
4.96211 -3.0149 0.333547
4.99211 -3.0119 0.333547
5.02411 -3.0089 0.334547
5.09611 -2.9979 0.335547
5.12611 -2.9939 0.335547
5.15811 -2.9909 0.336547
5.18511 -2.9839 0.337547
5.21011 -2.9769 0.337547
5.22011 -2.9719 0.337547
5.25711 -2.9709 0.338547
5.28711 -2.9659 0.338547
5.31611 -2.9599 0.339547
5.34411 -2.9539 0.339547
5.37311 -2.9469 0.340547
5.41011 -2.9459 0.341547
5.43111 -2.9459 0.341547
5.46311 -2.9409 0.342547
5.49211 -2.9339 0.342547
5.51911 -2.9259 0.343547
5.55111 -2.9209 0.343547
5.58311 -2.9149 0.344547
5.61411 -2.9089 0.344547
5.63811 -2.9099 0.345547
5.67511 -2.9069 0.345547
5.76711 -2.8849 0.347547
5.80111 -2.8789 0.348547
5.82611 -2.8689 0.348547
5.86311 -2.8749 0.349547
5.92411 -2.8589 0.350547
5.96811 -2.8569 0.351547
5.99711 -2.8469 0.351547
6.02511 -2.8379 0.352547
6.06211 -2.8309 0.353547
6.09011 -2.8329 0.353547
6.12211 -2.8239 0.354547
6.16211 -2.8189 0.355547
6.19111 -2.8089 0.355547
6.22911 -2.8019 0.356547
6.26911 -2.7959 0.357547
6.29811 -2.7859 0.357547
6.33511 -2.7899 0.358547
6.36611 -2.7799 0.358547
6.40911 -2.7749 0.359547
7.53511 -2.5769 0.382547
7.58311 -2.5669 0.383547
7.62911 -2.5559 0.384547
7.73411 -2.5369 0.386547
7.82611 -2.5259 0.388547
7.86911 -2.5119 0.388547
7.92211 -2.5019 0.389547
7.98211 -2.4929 0.391547
8.20011 -2.4619 0.395547
8.24611 -2.4469 0.396547
3.24211 -3.3129 0.270547
3.29611 -3.3159 0.271547
3.30911 -3.3089 0.271547
3.32511 -3.3039 0.271547
3.36111 -3.2979 0.271547
3.42911 -3.2919 0.272547
3.46711 -3.2869 0.272547
3.49211 -3.2799 0.273547
3.53011 -3.2749 0.273547
3.63511 -3.2569 0.274547
4.79211 -3.0579 0.286547
4.80211 -3.0429 0.286547
4.82811 -3.0389 0.286547
4.85611 -3.0349 0.287547
4.90311 -3.0219 0.287547
4.94211 -3.0139 0.288547
4.96911 -3.0089 0.288547
5.08411 -2.9929 0.289547
5.18211 -2.9749 0.291547
5.31211 -2.9509 0.292547
3.66811 -3.2359 0.249547
3.76211 -3.2259 0.249547
4.78711 -3.0459 0.257547
4.80311 -3.0459 0.257547
4.82111 -3.0359 0.257547
4.85011 -3.0329 0.257547
4.87811 -3.0289 0.257547
4.94011 -3.0239 0.258547
4.95811 -3.0249 0.258547
4.98311 -3.0179 0.258547
5.01311 -3.0149 0.258547
5.04011 -3.0089 0.259547
5.05311 -2.9949 0.259547
5.08311 -2.9919 0.259547
5.12011 -2.9919 0.259547
5.13111 -2.9879 0.259547
5.17011 -2.9879 0.260547
5.19311 -2.9799 0.260547
5.21511 -2.9709 0.260547
5.24511 -2.9659 0.260547
5.27611 -2.9609 0.260547
5.30211 -2.9539 0.261547
5.33311 -2.9599 0.261547
5.35811 -2.9519 0.261547
5.38511 -2.9449 0.261547
5.41711 -2.9399 0.262547
5.44911 -2.9349 0.262547
5.47111 -2.9249 0.262547
5.51011 -2.9229 0.262547
5.53411 -2.9249 0.263547
5.55811 -2.9149 0.263547
5.59311 -2.9109 0.263547
5.62011 -2.9029 0.263547
5.65611 -2.8989 0.264547
5.68911 -2.8919 0.264547
5.73311 -2.8919 0.264547
5.75111 -2.8789 0.264547
5.78511 -2.8839 0.265547
5.81311 -2.8749 0.265547
5.84411 -2.8679 0.265547
5.87611 -2.8609 0.265547
5.90311 -2.8509 0.266547
5.93811 -2.8439 0.266547
5.97011 -2.8369 0.266547
6.00211 -2.8399 0.266547
6.03811 -2.8339 0.267547
6.07011 -2.8259 0.267547
6.10111 -2.8159 0.267547
6.15211 -2.8159 0.268547
6.17111 -2.8019 0.268547
6.21511 -2.7979 0.268547
6.23611 -2.7949 0.268547
6.29011 -2.7959 0.269547
6.31611 -2.7829 0.269547
6.35211 -2.7749 0.269547
6.40511 -2.7739 0.270547
7.53311 -2.5779 0.280547
7.61711 -2.5539 0.280547
7.68211 -2.5479 0.281547
7.72411 -2.5489 0.281547
7.77011 -2.5369 0.282547
7.82611 -2.5279 0.282547
7.87511 -2.5159 0.283547
7.92111 -2.5029 0.283547
7.97511 -2.4929 0.284547
8.04611 -2.4869 0.284547
8.08211 -2.4839 0.285547
8.14211 -2.4739 0.285547
8.19211 -2.4609 0.286547
8.25111 -2.4509 0.286547
8.30111 -2.4369 0.287547
8.36111 -2.4259 0.287547
8.46311 -2.4119 0.288547
8.53011 -2.4019 0.289547
8.58011 -2.3869 0.289547
8.64511 -2.3759 0.290547
8.89111 -2.3379 0.292547
3.32111 -3.2939 0.214547
3.49111 -3.2619 0.214547
3.77611 -3.2309 0.214547
3.79411 -3.2249 0.214547
3.81711 -3.2249 0.215547
3.84811 -3.2199 0.215547
3.97811 -3.1939 0.215547
4.22511 -3.1489 0.215547
4.30911 -3.1389 0.216547
4.34511 -3.1239 0.216547
4.45111 -3.1059 0.216547
4.51011 -3.1049 0.216547
4.53111 -3.0989 0.216547
4.55111 -3.0909 0.216547
4.57011 -3.0939 0.216547
4.60311 -3.0749 0.216547
4.63711 -3.0769 0.216547
4.66011 -3.0709 0.216547
4.69011 -3.0699 0.216547
4.73511 -3.0669 0.217547
4.74111 -3.0499 0.217547
6.30911 -2.7949 0.188547
7.64111 -2.5649 0.186547
7.80611 -2.5379 0.186547
7.94411 -2.5139 0.186547
8.10911 -2.4819 0.185547
8.16511 -2.4709 0.185547
8.26111 -2.4569 0.185547
8.32811 -2.4479 0.185547
8.38811 -2.4369 0.185547
8.43211 -2.4209 0.185547
8.49311 -2.4099 0.185547
8.56411 -2.4009 0.185547
8.60911 -2.3839 0.185547
8.67211 -2.3869 0.185547
8.73011 -2.3729 0.184547
8.78611 -2.3579 0.184547
8.84111 -2.3429 0.184547
8.91611 -2.3329 0.184547
9.03611 -2.3179 0.184547
9.09911 -2.3039 0.184547
9.17111 -2.2909 0.184547
3.56611 -3.2519 0.160547
3.66911 -3.2319 0.159547
3.68911 -3.2289 0.159547
3.71511 -3.2319 0.159547
3.77211 -3.2299 0.159547
4.74211 -3.0639 0.153547
4.81311 -3.0349 0.153547
5.32811 -2.9449 0.150547
5.74411 -2.8759 0.147547
5.87911 -2.8519 0.146547
5.93711 -2.8469 0.146547
6.03811 -2.8249 0.145547
6.17211 -2.8059 0.145547
6.27511 -2.7829 0.144547
6.43011 -2.7679 0.143547
3.28411 -3.3009 0.132547
3.64211 -3.2359 0.129547
3.96211 -3.1979 0.126547
4.07111 -3.1709 0.125547
4.08711 -3.1629 0.125547
4.15311 -3.1619 0.124547
4.20211 -3.1569 0.124547
4.21511 -3.1459 0.124547
4.25411 -3.1439 0.123547
4.30111 -3.1369 0.123547
4.32111 -3.1309 0.123547
4.33111 -3.1169 0.123547
4.37511 -3.1279 0.122547
4.38811 -3.1159 0.122547
4.40611 -3.1079 0.122547
4.42211 -3.1089 0.122547
4.45011 -3.1079 0.121547
4.47011 -3.1009 0.121547
4.50611 -3.1049 0.121547
4.55311 -3.0949 0.120547
4.56111 -3.0799 0.120547
4.60911 -3.0799 0.120547
4.64211 -3.0809 0.119547
3.35911 -3.2919 0.0985466
3.38311 -3.2949 0.0985466
3.39811 -3.2889 0.0985466
3.41211 -3.2919 0.0985466
3.44911 -3.2869 0.0975466
3.46111 -3.2779 0.0975466
3.50411 -3.2759 0.0975466
4.88611 -3.0289 0.0775466
4.91411 -3.0249 0.0765466
4.93611 -3.0169 0.0765466
4.96611 -3.0139 0.0755466
5.00511 -3.0059 0.0755466
5.03211 -3.0009 0.0745467
5.07711 -3.0059 0.0735466
5.08211 -2.9869 0.0745467
5.11211 -2.9829 0.0735466
5.16111 -2.9909 0.0725466
5.16711 -2.9719 0.0725466
5.19511 -2.9779 0.0725466
5.23311 -2.9779 0.0715467
5.25111 -2.9659 0.0715467
5.28611 -2.9649 0.0705466
5.30911 -2.9559 0.0705466
5.34611 -2.9549 0.0695466
5.36411 -2.9429 0.0695466
5.39211 -2.9469 0.0685466
5.42711 -2.9439 0.0685466
5.43511 -2.9259 0.0685466
5.48411 -2.9309 0.0675467
5.52211 -2.9289 0.0665466
5.52911 -2.9109 0.0665466
5.57211 -2.9109 0.0655466
5.59911 -2.9139 0.0655466
5.61711 -2.9009 0.0655466
5.66211 -2.9019 0.0645466
5.67511 -2.8859 0.0645466
5.72111 -2.8869 0.0635467
5.78911 -2.8769 0.0625466
5.84711 -2.8709 0.0615466
5.87811 -2.8639 0.0605466
5.91211 -2.8569 0.0595466
5.93011 -2.8429 0.0595466
5.98411 -2.8459 0.0585466
6.00211 -2.8319 0.0585466
6.06211 -2.8259 0.0575466
6.14211 -2.8159 0.0555466
6.17411 -2.8079 0.0555466
6.21211 -2.8009 0.0545466
6.25011 -2.7949 0.0545466
6.25211 -2.7839 0.0545466
6.31211 -2.7879 0.0525466
6.37211 -2.7659 0.0515466
7.53911 -2.5689 0.0305466
7.58111 -2.5569 0.0295466
7.68811 -2.5389 0.0275466
7.79111 -2.5329 0.0255466
7.85011 -2.5249 0.0245466
7.89611 -2.5129 0.0235466
7.94811 -2.5019 0.0225466
8.00111 -2.4909 0.0215466
8.04311 -2.4769 0.0215466
8.10311 -2.4669 0.0205466
8.15411 -2.4689 0.0185466
8.19811 -2.4549 0.0185466
8.25211 -2.4429 0.0175466
8.31311 -2.4329 0.0155466
8.59111 -2.3829 0.0105466
3.29511 -3.3019 0.0755466
3.32111 -3.3069 0.0755466
3.31511 -3.2909 0.0755466
3.34011 -3.2939 0.0745467
3.35411 -3.2879 0.0745467
3.37211 -3.2839 0.0745467
