6.89211 -2.64993 -0.854425
6.93311 -2.64093 -0.859425
6.97711 -2.63293 -0.864425
7.02211 -2.62493 -0.870425
7.07111 -2.61793 -0.876425
7.10711 -2.60593 -0.880425
7.15211 -2.59693 -0.886425
7.18811 -2.59693 -0.891425
7.23511 -2.58893 -0.897425
7.27711 -2.57793 -0.902425
7.32611 -2.56993 -0.908425
7.37111 -2.55993 -0.913425
3.24911 -3.25993 -0.481425
3.67411 -3.18693 -0.519425
3.71711 -3.18293 -0.524425
3.78511 -3.16993 -0.530425
3.88111 -3.14693 -0.539425
3.94411 -3.14693 -0.546425
4.12811 -3.11693 -0.564425
4.14111 -3.10593 -0.565425
4.17711 -3.10193 -0.569425
4.20211 -3.09993 -0.572425
4.25211 -3.09593 -0.577425
4.27311 -3.08993 -0.579425
4.31711 -3.08093 -0.583425
4.33011 -3.07893 -0.585425
4.35411 -3.07593 -0.588425
4.37511 -3.06993 -0.590425
4.39311 -3.06193 -0.591425
4.42711 -3.06493 -0.595425
4.43511 -3.04993 -0.595425
4.45611 -3.04393 -0.597425
4.50011 -3.04293 -0.602425
4.53111 -3.04293 -0.606425
4.58111 -3.03493 -0.612425
4.60211 -3.02793 -0.614425
4.63611 -3.01893 -0.617425
4.65911 -3.01293 -0.619425
4.69511 -3.01493 -0.624425
4.71611 -3.00793 -0.626425
4.77611 -3.00293 -0.633425
4.82011 -2.99993 -0.638425
4.83511 -2.98793 -0.639425
4.86411 -2.98493 -0.642425
4.87911 -2.97193 -0.643425
4.91711 -2.97393 -0.648425
4.96111 -2.95893 -0.653425
4.98911 -2.96493 -0.657425
5.00711 -2.95393 -0.658425
5.07211 -2.94893 -0.666425
5.09211 -2.93893 -0.668425
5.12311 -2.93593 -0.671425
5.15711 -2.93293 -0.675425
5.17311 -2.93193 -0.677425
5.19811 -2.92393 -0.680425
5.23011 -2.91993 -0.684425
5.36511 -2.89693 -0.699425
5.39311 -2.88993 -0.703425
5.42811 -2.88693 -0.707425
5.48511 -2.87293 -0.713425
5.54911 -2.86193 -0.721425
5.56911 -2.86093 -0.723425
5.60811 -2.85893 -0.728425
5.63311 -2.84893 -0.731425
5.66911 -2.84393 -0.735425
5.70011 -2.83793 -0.739425
5.73211 -2.83093 -0.743425
5.76811 -2.82593 -0.747425
5.80211 -2.81993 -0.751425
5.83111 -2.82293 -0.755425
5.86211 -2.81493 -0.759425
5.89011 -2.80593 -0.762425
5.92911 -2.80093 -0.767425
6.05711 -2.77993 -0.782425
6.09111 -2.77293 -0.786425
6.27111 -2.74793 -0.809425
6.30011 -2.73693 -0.812425
6.34511 -2.73193 -0.818425
6.38111 -2.72393 -0.822425
6.42011 -2.71693 -0.827425
6.57311 -2.69593 -0.847425
6.60911 -2.68593 -0.851425
6.85911 -2.64993 -0.883425
7.12511 -2.61193 -0.917425
2.81511 -3.32493 -0.477425
2.83311 -3.32493 -0.478425
2.85511 -3.32993 -0.481425
2.86011 -3.31493 -0.480425
2.88611 -3.32393 -0.484425
2.90111 -3.32093 -0.485425
2.90911 -3.31893 -0.485425
2.91811 -3.30893 -0.485425
2.95511 -3.30793 -0.489425
2.97211 -3.30593 -0.490425
2.98911 -3.30393 -0.492425
2.99811 -3.30393 -0.493425
3.01411 -3.29993 -0.494425
3.03111 -3.29793 -0.495425
3.04111 -3.28893 -0.495425
3.06511 -3.29393 -0.498425
3.07611 -3.28493 -0.499425
3.09111 -3.27993 -0.500425
3.10211 -3.27193 -0.500425
3.13811 -3.27893 -0.505425
3.15111 -3.27193 -0.505425
3.18711 -3.26693 -0.508425
3.19711 -3.25693 -0.508425
3.22911 -3.25893 -0.512425
3.24511 -3.25493 -0.513425
3.27011 -3.25993 -0.517425
3.27511 -3.24393 -0.515425
3.30211 -3.24993 -0.519425
3.32811 -3.23493 -0.520425
3.36411 -3.23993 -0.525425
3.37611 -3.23093 -0.525425
3.40211 -3.23493 -0.528425
3.41211 -3.22493 -0.528425
3.43511 -3.22593 -0.531425
3.45611 -3.22593 -0.534425
3.46711 -3.22593 -0.535425
3.48211 -3.21893 -0.536425
3.53211 -3.20493 -0.540425
3.55111 -3.20193 -0.542425
3.58711 -3.20393 -0.546425
3.60511 -3.19993 -0.548425
3.63911 -3.18993 -0.551425
3.66711 -3.19393 -0.554425
3.68311 -3.18693 -0.555425
3.69111 -3.17493 -0.555425
3.70511 -3.17693 -0.557425
3.73411 -3.18193 -0.561425
3.74611 -3.17093 -0.561425
3.76011 -3.16293 -0.562425
3.78411 -3.16293 -0.565425
3.80611 -3.16093 -0.567425
3.82611 -3.15793 -0.569425
3.84411 -3.16193 -0.572425
3.85511 -3.15093 -0.572425
3.87711 -3.14893 -0.575425
3.89611 -3.14493 -0.576425
3.90911 -3.13493 -0.577425
3.93411 -3.13493 -0.580425
3.96011 -3.13493 -0.583425
3.97711 -3.13793 -0.585425
3.99111 -3.12993 -0.586425
4.01711 -3.12893 -0.589425
4.03311 -3.12193 -0.591425
4.05211 -3.11593 -0.592425
4.08511 -3.12193 -0.597425
4.09511 -3.10893 -0.597425
4.11111 -3.11093 -0.599425
4.13911 -3.11193 -0.603425
4.16811 -3.09293 -0.605425
4.19411 -3.09193 -0.608425
4.23411 -3.08093 -0.611425
4.25811 -3.08793 -0.615425
4.27711 -3.08193 -0.617425
4.29511 -3.07393 -0.618425
4.31711 -3.06993 -0.621425
4.33811 -3.06393 -0.623425
4.36111 -3.05993 -0.625425
4.38811 -3.05793 -0.629425
4.39811 -3.05493 -0.630425
4.43711 -3.06093 -0.635425
4.45811 -3.05493 -0.637425
4.47211 -3.04493 -0.638425
4.49611 -3.04093 -0.641425
4.52111 -3.03693 -0.644425
4.55411 -3.02793 -0.647425
4.58411 -3.02693 -0.651425
4.60311 -3.01893 -0.653425
4.63111 -3.01693 -0.656425
4.66011 -3.01493 -0.660425
4.72711 -3.00593 -0.668425
4.74611 -2.99793 -0.669425
4.82511 -2.98393 -0.678425
4.84911 -2.97893 -0.681425
4.87911 -2.97593 -0.685425
4.90311 -2.98093 -0.688425
4.92311 -2.97093 -0.690425
4.94711 -2.96493 -0.693425
4.97911 -2.96293 -0.697425
5.00511 -2.95693 -0.700425
5.03011 -2.95093 -0.703425
5.07811 -2.94693 -0.709425
5.11211 -2.94593 -0.713425
5.14411 -2.94293 -0.717425
5.16511 -2.93293 -0.719425
5.19111 -2.92693 -0.722425
5.22011 -2.92093 -0.726425
5.24911 -2.91593 -0.729425
5.26811 -2.91593 -0.732425
5.29611 -2.90993 -0.735425
5.32811 -2.90593 -0.739425
5.35111 -2.89693 -0.741425
5.38911 -2.89593 -0.747425
5.42411 -2.89293 -0.751425
5.44211 -2.87993 -0.753425
5.48311 -2.87993 -0.758425
5.50811 -2.88193 -0.762425
5.52211 -2.86793 -0.763425
5.57011 -2.87093 -0.769425
5.59111 -2.85893 -0.771425
5.62511 -2.85493 -0.776425
5.69711 -2.84693 -0.785425
5.71611 -2.84493 -0.787425
5.74411 -2.83693 -0.791425
5.79411 -2.83893 -0.798425
5.81911 -2.82793 -0.800425
5.85811 -2.82493 -0.806425
5.88111 -2.81293 -0.808425
5.91711 -2.81893 -0.814425
5.94111 -2.80793 -0.816425
5.98911 -2.80793 -0.823425
6.02111 -2.79993 -0.827425
6.03711 -2.78393 -0.828425
6.09211 -2.78693 -0.836425
6.12211 -2.77693 -0.839425
6.15111 -2.76693 -0.843425
6.18411 -2.77093 -0.847425
6.21811 -2.76193 -0.852425
6.25211 -2.75393 -0.856425
6.29511 -2.74993 -0.862425
6.32711 -2.73993 -0.866425
6.36311 -2.73193 -0.870425
6.40411 -2.72593 -0.876425
6.43911 -2.72893 -0.881425
6.47311 -2.71993 -0.885425
6.51411 -2.71293 -0.890425
6.55011 -2.70393 -0.895425
6.58611 -2.69493 -0.900425
6.62911 -2.68893 -0.905425
6.67411 -2.69493 -0.912425
6.70211 -2.68193 -0.915425
6.73811 -2.67193 -0.920425
6.77811 -2.66293 -0.925425
2.99911 -3.29493 -0.589425
3.08711 -3.27493 -0.596425
3.80911 -3.15593 -0.667425
3.94111 -3.13193 -0.681425
4.06111 -3.11293 -0.694425
4.12511 -3.10093 -0.701425
4.37911 -3.05993 -0.730425
4.42911 -3.05293 -0.736425
5.41411 -2.88693 -0.856425
5.69111 -2.84093 -0.892425
3.64911 -3.18393 -0.698425
3.70611 -3.17293 -0.704425
3.75811 -3.16593 -0.710425
3.81511 -3.15393 -0.716425
3.87811 -3.14493 -0.724425
4.02411 -3.11993 -0.740425
4.04611 -3.11693 -0.743425
4.11111 -3.10593 -0.751425
2.82211 -3.32693 -0.656425
2.84011 -3.32693 -0.658425
2.85311 -3.32093 -0.659425
2.87311 -3.32193 -0.661425
2.88711 -3.31793 -0.662425
2.90111 -3.31293 -0.663425
2.91011 -3.31293 -0.664425
2.93111 -3.31493 -0.667425
2.94311 -3.30793 -0.668425
2.96011 -3.30593 -0.669425
2.97711 -3.30393 -0.671425
2.99111 -3.29893 -0.672425
3.00811 -3.29593 -0.674425
3.02011 -3.29893 -0.676425
3.03911 -3.29793 -0.678425
3.04811 -3.28693 -0.677425
3.07411 -3.29493 -0.682425
3.08511 -3.28493 -0.682425
3.10211 -3.28193 -0.683425
3.12411 -3.28493 -0.686425
3.12511 -3.27593 -0.685425
3.14911 -3.28093 -0.689425
3.16711 -3.27793 -0.691425
3.18011 -3.27093 -0.691425
3.20011 -3.26993 -0.694425
3.21711 -3.26693 -0.696425
3.23011 -3.25993 -0.696425
3.24611 -3.26593 -0.699425
3.26511 -3.26393 -0.701425
3.27111 -3.24993 -0.700425
3.29511 -3.25293 -0.704425
3.31711 -3.25393 -0.706425
3.32411 -3.24093 -0.706425
3.34111 -3.23693 -0.707425
3.35911 -3.24393 -0.711425
3.37111 -3.23493 -0.711425
3.38711 -3.22893 -0.712425
3.41511 -3.23593 -0.717425
3.42311 -3.22293 -0.716425
3.44311 -3.22093 -0.719425
3.46611 -3.22293 -0.722425
3.47011 -3.21593 -0.721425
3.49011 -3.21393 -0.724425
3.51711 -3.21893 -0.728425
3.52511 -3.20493 -0.727425
3.55111 -3.20893 -0.731425
3.57611 -3.21093 -0.735425
3.59211 -3.19493 -0.735425
3.62211 -3.20093 -0.740425
3.63211 -3.18893 -0.740425
3.65811 -3.19193 -0.743425
3.67711 -3.18793 -0.746425
3.69011 -3.17893 -0.746425
3.70711 -3.17393 -0.748425
3.72911 -3.18193 -0.752425
3.74011 -3.17193 -0.752425
3.75911 -3.16693 -0.754425
3.78611 -3.16893 -0.758425
3.84511 -3.15693 -0.765425
3.84811 -3.14993 -0.764425
3.89411 -3.14593 -0.770425
3.95511 -3.13393 -0.777425
3.99111 -3.13193 -0.782425
4.01211 -3.12793 -0.785425
4.07311 -3.11393 -0.792425
4.13511 -3.10993 -0.800425
4.27411 -3.07993 -0.817425
4.32711 -3.07693 -0.824425
4.42911 -3.05493 -0.837425
4.45511 -3.05193 -0.840425
4.47611 -3.04593 -0.843425
4.51011 -3.04793 -0.848425
4.52611 -3.03893 -0.849425
4.55011 -3.03393 -0.852425
4.57611 -3.03093 -0.856425
4.58811 -3.02793 -0.857425
4.61211 -3.02293 -0.861425
4.64111 -3.02093 -0.865425
4.66411 -3.01493 -0.867425
4.74211 -3.00193 -0.878425
4.76111 -3.00293 -0.881425
4.78511 -2.99793 -0.884425
4.81311 -2.99393 -0.888425
4.83911 -2.98893 -0.891425
4.86411 -2.98293 -0.894425
4.89011 -2.97793 -0.898425
4.96711 -2.97093 -0.909425
4.99211 -2.96493 -0.912425
5.01611 -2.95793 -0.915425
2.92711 -3.30793 -0.790425
3.01611 -3.29293 -0.800425
3.35111 -3.23793 -0.840425
2.46011 -3.40293 -0.785425
2.46211 -3.39393 -0.784425
2.51311 -3.39593 -0.790425
2.52611 -3.39093 -0.791425
2.55311 -3.38293 -0.793425
2.56411 -3.38693 -0.795425
2.59411 -3.38093 -0.798425
2.60811 -3.37793 -0.799425
2.62511 -3.37693 -0.802425
2.63811 -3.37193 -0.802425
2.65311 -3.36993 -0.804425
2.67411 -3.36293 -0.806425
2.69211 -3.36393 -0.808425
2.71711 -3.35193 -0.810425
2.73411 -3.35093 -0.812425
2.84411 -3.32193 -0.822425
2.86311 -3.33393 -0.827425
2.87411 -3.32493 -0.827425
2.89211 -3.32493 -0.829425
2.92411 -3.31993 -0.833425
2.94411 -3.32093 -0.836425
2.95811 -3.31593 -0.837425
2.97511 -3.31393 -0.839425
2.98311 -3.31193 -0.840425
3.00311 -3.31293 -0.843425
3.01611 -3.30593 -0.844425
3.03511 -3.30693 -0.847425
3.05111 -3.30293 -0.849425
3.07111 -3.30293 -0.852425
3.08111 -3.29293 -0.852425
3.09411 -3.29693 -0.854425
3.10711 -3.28993 -0.855425
3.12511 -3.28693 -0.857425
3.13811 -3.27993 -0.858425
3.15911 -3.28193 -0.861425
3.17511 -3.27693 -0.863425
3.20811 -3.27993 -0.868425
3.22511 -3.27693 -0.870425
3.24211 -3.27393 -0.873425
3.25711 -3.26793 -0.874425
3.27411 -3.26493 -0.876425
3.30311 -3.25193 -0.878425
3.32211 -3.26093 -0.883425
3.33611 -3.25393 -0.884425
3.35511 -3.25193 -0.886425
3.36911 -3.24493 -0.888425
3.38811 -3.24293 -0.890425
3.40811 -3.24093 -0.893425
3.42711 -3.23893 -0.896425
3.43811 -3.23893 -0.897425
3.49411 -3.22993 -0.905425
3.50711 -3.22193 -0.906425
3.52611 -3.21793 -0.908425
3.54811 -3.21793 -0.912425
3.56011 -3.21893 -0.914425
3.57711 -3.21393 -0.916425
3.61811 -3.20893 -0.922425
3.63411 -3.20293 -0.923425
3.65511 -3.20093 -0.926425
3.66911 -3.19293 -0.928425
3.68611 -3.19793 -0.931425
3.70611 -3.19493 -0.934425
3.72711 -3.19193 -0.937425
3.74311 -3.18493 -0.938425
3.76211 -3.18093 -0.941425
3.77811 -3.17393 -0.943425
3.79211 -3.16593 -0.944425
3.80511 -3.16593 -0.946425
2.45911 -3.38693 -0.816425
2.48011 -3.39393 -0.820425
2.49011 -3.38593 -0.820425
2.50511 -3.38293 -0.822425
2.52911 -3.39393 -0.827425
2.53011 -3.38393 -0.825425
2.54511 -3.38193 -0.827425
2.56311 -3.38293 -0.830425
2.57311 -3.37493 -0.830425
2.58311 -3.36593 -0.829425
2.60311 -3.36993 -0.833425
2.62611 -3.36693 -0.835425
2.66111 -3.36893 -0.840425
2.66911 -3.35693 -0.840425
2.68811 -3.35993 -0.843425
2.70011 -3.35293 -0.843425
2.71311 -3.34693 -0.844425
2.87311 -3.32593 -0.863425
2.89611 -3.33193 -0.867425
2.90211 -3.31793 -0.866425
2.92711 -3.32493 -0.871425
2.93211 -3.31993 -0.871425
2.95211 -3.32193 -0.874425
2.96711 -3.31793 -0.876425
2.98411 -3.31593 -0.878425
2.99411 -3.30693 -0.878425
3.01311 -3.30593 -0.880425
3.03011 -3.30393 -0.883425
3.04811 -3.30293 -0.885425
3.05211 -3.29693 -0.885425
3.07411 -3.29993 -0.889425
3.08611 -3.29193 -0.889425
3.10511 -3.29193 -0.892425
3.12011 -3.28593 -0.893425
3.14111 -3.28793 -0.897425
3.16011 -3.28793 -0.900425
3.16811 -3.28593 -0.901425
3.17611 -3.27293 -0.900425
3.20011 -3.27693 -0.904425
3.21711 -3.27393 -0.907425
3.23111 -3.26793 -0.908425
3.24711 -3.26393 -0.910425
3.41411 -3.24293 -0.933425
3.43511 -3.24293 -0.937425
3.44511 -3.23293 -0.937425
3.46711 -3.23293 -0.940425
3.48111 -3.22593 -0.941425
3.50311 -3.22493 -0.945425
3.51111 -3.22193 -0.946425
3.53511 -3.22493 -0.950425
3.03611 -3.30693 -0.961425
3.04511 -3.29593 -0.960425
3.05811 -3.28893 -0.961425
3.08011 -3.29193 -0.965425
3.10311 -3.28593 -0.968425
3.12211 -3.28493 -0.971425
1.12611 5.26807 0.0845748
1.10911 5.26907 0.0845748
1.09111 5.26707 0.0845748
1.07111 5.25507 0.0855748
1.05711 5.26607 0.0845748
1.04511 5.25007 0.0855748
1.02711 5.24507 0.0855748
1.01211 5.25807 0.0855748
0.99111 5.24007 0.0855748
0.95711 5.23807 0.0855748
0.94011 5.23907 0.0865748
0.92211 5.23207 0.0865748
0.91311 5.23207 0.0865748
0.89611 5.23107 0.0865748
0.88011 5.23307 0.0865748
0.86111 5.22407 0.0865748
0.84411 5.22307 0.0865748
0.82611 5.21807 0.0865748
0.81011 5.22007 0.0865748
0.80111 5.21607 0.0865748
0.78411 5.21207 0.0875748
0.74911 5.20507 0.0875748
0.69811 5.20007 0.0875748
0.68911 5.19507 0.0875748
0.67211 5.19107 0.0875748
0.65511 5.18407 0.0885748
1.12011 5.27507 0.0565748
1.10111 5.26507 0.0565748
1.08311 5.26007 0.0575748
1.04811 5.25707 0.0575748
1.03911 5.25707 0.0575748
1.02111 5.25407 0.0575748
1.00111 5.24007 0.0585748
0.98511 5.24307 0.0585748
0.96811 5.24207 0.0585748
0.93411 5.24207 0.0585748
0.90711 5.23507 0.0585748
0.89011 5.23207 0.0585748
0.83811 5.22207 0.0595748
0.81911 5.21107 0.0595748
0.81011 5.20607 0.0595748
0.79511 5.22007 0.0595748
0.77811 5.21507 0.0595748
0.74211 5.19807 0.0605748
0.70811 5.18907 0.0605748
0.69111 5.18707 0.0605748
0.68311 5.19407 0.0605748
1.13611 5.27707 0.0245748
1.11811 5.27107 0.0245748
1.10011 5.26807 0.0245748
1.09111 5.27007 0.0245748
1.07311 5.26607 0.0245748
1.05511 5.26107 0.0255748
1.03811 5.26207 0.0255748
1.02011 5.25807 0.0255748
1.00111 5.24707 0.0255748
0.98411 5.24807 0.0255748
0.97411 5.23807 0.0265748
0.95711 5.23907 0.0265748
0.93911 5.23407 0.0265748
0.92111 5.22707 0.0265748
0.90411 5.23207 0.0265748
0.88811 5.23707 0.0265748
0.86911 5.22007 0.0275748
0.85111 5.21907 0.0275748
0.84311 5.21607 0.0275748
0.82611 5.21507 0.0275748
0.79311 5.22007 0.0275748
0.77311 5.20307 0.0285748
0.75711 5.20507 0.0285748
0.74111 5.20907 0.0285748
0.73011 5.19507 0.0285748
0.71411 5.19307 0.0295748
0.69711 5.19107 0.0295748
0.66311 5.18807 0.0295748
0.64511 5.17807 0.0295748
1.06011 5.26907 -0.0424252
1.04311 5.26907 -0.0424252
0.99611 5.25107 -0.0414252
0.98011 5.25607 -0.0414252
0.91711 5.23507 -0.0404252
0.89911 5.23407 -0.0404252
0.83111 5.22907 -0.0394252
0.77111 5.22007 -0.0384252
0.70211 5.20807 -0.0374252
0.67711 5.20507 -0.0374252
0.65811 5.19307 -0.0364252
1.04511 5.26607 -0.0734252
0.98111 5.24307 -0.0724252
0.92811 5.23507 -0.0714252
0.85111 5.23007 -0.0704252
1.14911 5.27907 -0.110425
1.13211 5.27907 -0.109425
1.11311 5.27507 -0.109425
1.09411 5.26607 -0.108425
1.08511 5.26207 -0.108425
0.99711 5.25307 -0.106425
0.97911 5.25007 -0.106425
0.97011 5.24807 -0.106425
0.93511 5.24207 -0.105425
0.91711 5.23507 -0.105425
0.90111 5.24007 -0.105425
0.88311 5.23707 -0.104425
0.86511 5.23007 -0.104425
0.84811 5.22707 -0.104425
0.83811 5.22007 -0.103425
0.82111 5.21707 -0.103425
0.80411 5.21407 -0.102425
0.78711 5.21407 -0.102425
0.77111 5.22007 -0.103425
0.75411 5.21507 -0.102425
0.73611 5.20707 -0.102425
0.72711 5.20707 -0.101425
0.71111 5.20907 -0.101425
0.69311 5.19707 -0.101425
0.67611 5.19507 -0.100425
0.64311 5.20007 -0.100425
0.62511 5.19007 -0.100425
0.61811 5.19507 -0.100425
0.91411 5.24907 -0.134425
0.83511 5.23007 -0.132425
0.64711 5.20407 -0.129425
1.11511 5.28407 -0.176425
1.05911 5.26107 -0.174425
0.96211 5.24707 -0.172425
0.91711 5.23507 -0.171425
0.86511 5.22707 -0.169425
0.81311 5.21707 -0.168425
0.69311 5.19807 -0.166425
0.85411 5.24507 -0.197425
0.68111 5.20207 -0.192425
1.15411 5.29107 -0.240425
1.13411 5.28107 -0.239425
1.11811 5.28607 -0.239425
1.08911 5.27407 -0.238425
1.07111 5.27007 -0.237425
1.03711 5.27407 -0.237425
1.01711 5.25607 -0.235425
1.00211 5.27107 -0.236425
0.99111 5.25507 -0.235425
0.97411 5.25607 -0.235425
0.95611 5.25307 -0.234425
0.93811 5.24607 -0.233425
0.92111 5.24907 -0.233425
0.90511 5.25007 -0.233425
0.88511 5.23707 -0.232425
0.87011 5.24607 -0.232425
0.86111 5.24307 -0.232425
0.84311 5.24007 -0.231425
0.82511 5.23307 -0.231425
0.80811 5.23107 -0.230425
0.79111 5.22607 -0.230425
0.77311 5.22107 -0.229425
0.74811 5.22207 -0.229425
0.72911 5.20707 -0.227425
0.71411 5.21507 -0.228425
1.13811 5.28307 -0.270425
1.12011 5.28107 -0.270425
1.07511 5.27307 -0.269425
1.02311 5.26807 -0.267425
1.00311 5.25707 -0.266425
0.99511 5.25907 -0.266425
0.97711 5.25207 -0.265425
0.96011 5.25107 -0.265425
0.90811 5.24807 -0.264425
0.89111 5.24907 -0.264425
0.88011 5.23307 -0.262425
0.86411 5.23707 -0.262425
0.84811 5.24207 -0.262425
0.81111 5.22407 -0.260425
0.66611 5.19607 -0.256425
0.64911 5.19207 -0.256425
0.64211 5.20907 -0.257425
0.62411 5.18907 -0.255425
0.60811 5.19707 -0.256425
0.59111 5.18907 -0.255425
0.57411 5.18907 -0.255425
0.55611 5.17707 -0.253425
0.54011 5.17507 -0.253425
0.53211 5.18107 -0.254425
0.51611 5.18307 -0.254425
0.48211 5.17607 -0.253425
0.46511 5.16207 -0.251425
0.44911 5.16707 -0.252425
0.43211 5.15507 -0.251425
0.42311 5.15107 -0.250425
0.40711 5.15507 -0.250425
0.39011 5.14607 -0.250425
0.35811 5.15607 -0.250425
0.34111 5.14207 -0.249425
0.32511 5.14507 -0.249425
0.31611 5.13307 -0.248425
0.30111 5.14807 -0.249425
0.28411 5.12907 -0.248425
0.26811 5.12807 -0.247425
0.25111 5.12307 -0.247425
0.23511 5.13007 -0.247425
0.21911 5.11807 -0.246425
0.20311 5.11507 -0.246425
0.17811 5.11407 -0.246425
0.16211 5.11007 -0.245425
0.14611 5.10707 -0.245425
0.0981101 5.09607 -0.244425
0.0901101 5.09607 -0.244425
0.0741101 5.08907 -0.243425
1.16911 5.30707 -0.306425
1.15011 5.30107 -0.305425
1.13111 5.29607 -0.304425
1.11411 5.29607 -0.304425
1.09611 5.29207 -0.303425
1.07711 5.28707 -0.302425
1.05911 5.28307 -0.301425
1.05111 5.28507 -0.301425
0.99611 5.27107 -0.299425
0.97911 5.27207 -0.299425
0.96011 5.25907 -0.298425
0.91611 5.25507 -0.296425
0.88211 5.25307 -0.296425
0.86511 5.25007 -0.295425
0.82911 5.23707 -0.293425
0.76911 5.23207 -0.292425
0.65611 5.19907 -0.288425
0.63911 5.19807 -0.287425
0.62211 5.19407 -0.287425
0.60511 5.19407 -0.287425
0.58811 5.18607 -0.286425
0.58011 5.18607 -0.286425
0.52911 5.17207 -0.284425
0.51211 5.17307 -0.284425
0.49511 5.16707 -0.283425
0.47811 5.16307 -0.283425
0.47111 5.16507 -0.283425
0.45411 5.16507 -0.283425
0.42111 5.15607 -0.282425
0.40411 5.14907 -0.281425
0.38811 5.15007 -0.281425
0.37111 5.14807 -0.280425
0.35511 5.14707 -0.280425
0.34711 5.15107 -0.281425
0.33011 5.14407 -0.280425
0.31411 5.13707 -0.279425
0.29711 5.13607 -0.279425
0.28111 5.14107 -0.279425
0.26511 5.13007 -0.278425
0.24811 5.13107 -0.278425
0.24011 5.13107 -0.278425
0.22411 5.13407 -0.278425
0.20811 5.12307 -0.277425
0.19211 5.12407 -0.277425
0.17511 5.11807 -0.277425
0.15911 5.11707 -0.277425
0.14311 5.10707 -0.276425
0.13511 5.10907 -0.276425
0.11911 5.11407 -0.276425
0.10311 5.10807 -0.276425
0.0541101 5.10307 -0.275425
0.0381101 5.10307 -0.275425
0.0141101 5.09307 -0.274425
1.17611 5.30407 -0.410425
1.07711 5.28807 -0.406425
0.90711 5.24707 -0.398425
0.87211 5.24307 -0.397425
0.81211 5.23607 -0.395425
0.58911 5.18807 -0.386425
0.52311 5.17907 -0.385425
0.30811 5.13907 -0.378425
0.21811 5.12207 -0.376425
0.16111 5.11407 -0.375425
0.46311 5.17407 -0.415425
0.29711 5.13807 -0.410425
0.23211 5.12807 -0.408425
0.22311 5.12407 -0.408425
0.14211 5.11107 -0.406425
1.16611 5.29607 -0.473425
1.13311 5.30507 -0.474425
1.11511 5.30107 -0.473425
1.09611 5.29207 -0.471425
1.08011 5.29807 -0.472425
1.06111 5.29107 -0.470425
1.05011 5.27907 -0.469425
1.03411 5.28507 -0.469425
1.01711 5.28407 -0.468425
0.99711 5.26807 -0.466425
0.98211 5.28207 -0.467425
0.96311 5.27007 -0.465425
0.93711 5.26907 -0.465425
0.91911 5.26607 -0.464425
0.90111 5.26107 -0.463425
0.88311 5.25007 -0.461425
0.86511 5.24707 -0.461425
0.84911 5.25307 -0.461425
0.83211 5.24807 -0.460425
0.82311 5.24507 -0.460425
0.80411 5.23407 -0.458425
0.78811 5.24107 -0.458425
0.77111 5.23307 -0.457425
0.75211 5.22407 -0.456425
0.73611 5.22807 -0.456425
0.70211 5.22507 -0.455425
0.69411 5.22407 -0.455425
0.67611 5.21407 -0.453425
0.66011 5.21607 -0.453425
0.64211 5.20807 -0.452425
0.62711 5.21807 -0.453425
0.60911 5.20507 -0.451425
0.59311 5.21207 -0.452425
0.58311 5.19907 -0.450425
0.56711 5.20107 -0.450425
0.53411 5.19907 -0.449425
0.51711 5.19607 -0.449425
0.48311 5.18407 -0.447425
0.47511 5.19007 -0.448425
0.45811 5.18007 -0.446425
0.44111 5.18007 -0.446425
0.42411 5.17107 -0.445425
0.40911 5.17807 -0.445425
0.39211 5.17007 -0.444425
0.36711 5.16907 -0.444425
0.33411 5.16407 -0.443425
0.31711 5.15307 -0.442425
0.30111 5.15607 -0.442425
0.28411 5.14307 -0.440425
0.21111 5.13607 -0.439425
0.17811 5.12407 -0.437425
0.16311 5.13007 -0.438425
0.14611 5.12707 -0.437425
0.12211 5.11907 -0.436425
0.0901101 5.12007 -0.436425
0.0581101 5.11107 -0.435425
0.0341101 5.09707 -0.434425
0.0171101 5.10707 -0.435425
1.06311 5.29707 -0.537425
1.00011 5.28307 -0.533425
0.94611 5.27207 -0.531425
0.91211 5.27207 -0.530425
0.81611 5.25407 -0.525425
0.78211 5.24907 -0.524425
0.72111 5.23807 -0.521425
0.68711 5.22807 -0.519425
0.65211 5.21907 -0.517425
0.62611 5.20807 -0.516425
0.55911 5.20607 -0.514425
0.53411 5.20207 -0.513425
0.46711 5.19107 -0.511425
0.40911 5.18007 -0.509425
0.34211 5.15707 -0.505425
0.30211 5.16107 -0.505425
0.28511 5.15207 -0.504425
0.25311 5.15207 -0.504425
0.19611 5.13907 -0.502425
0.14711 5.12807 -0.500425
0.0981101 5.12607 -0.500425
1.11511 5.30507 -0.576425
1.09511 5.29507 -0.574425
1.07811 5.29507 -0.574425
1.05311 5.30007 -0.574425
1.03411 5.28907 -0.572425
1.01611 5.28907 -0.571425
0.97811 5.27207 -0.568425
0.96211 5.27707 -0.568425
0.92711 5.27107 -0.566425
0.91811 5.27007 -0.566425
0.89811 5.25407 -0.563425
0.88311 5.26007 -0.564425
0.86411 5.25107 -0.562425
0.84711 5.24807 -0.561425
0.83011 5.25107 -0.561425
0.80311 5.23707 -0.559425
0.77011 5.24607 -0.559425
0.75211 5.23907 -0.558425
0.73511 5.23907 -0.558425
0.71611 5.22007 -0.555425
0.70111 5.23207 -0.556425
0.69111 5.22107 -0.554425
0.65811 5.22107 -0.554425
0.63911 5.20807 -0.551425
0.62411 5.21707 -0.553425
0.58811 5.19607 -0.549425
0.58111 5.20507 -0.550425
0.56411 5.20407 -0.550425
0.54611 5.19007 -0.548425
0.53111 5.20007 -0.549425
0.51311 5.19007 -0.547425
0.49611 5.18707 -0.546425
0.48111 5.19307 -0.547425
0.46411 5.18607 -0.546425
0.45611 5.18907 -0.546425
0.43911 5.18307 -0.545425
0.42211 5.18407 -0.545425
0.40511 5.17107 -0.543425
0.38811 5.17107 -0.543425
0.33111 5.16107 -0.541425
0.31411 5.16207 -0.541425
0.29811 5.16107 -0.541425
0.28211 5.15807 -0.540425
0.26511 5.15707 -0.540425
0.24811 5.14207 -0.537425
0.24111 5.15207 -0.539425
0.22411 5.13907 -0.537425
0.15911 5.12907 -0.535425
0.12611 5.12607 -0.535425
0.11811 5.11907 -0.534425
0.0701101 5.12007 -0.534425
1.06711 5.29607 -0.598425
1.04011 5.29307 -0.597425
0.98811 5.28907 -0.595425
0.96911 5.28207 -0.593425
0.90711 5.26907 -0.590425
0.89011 5.26407 -0.589425
0.83611 5.24707 -0.585425
0.79411 5.25107 -0.585425
0.74311 5.24507 -0.583425
0.72611 5.24107 -0.582425
0.70011 5.23507 -0.580425
0.64811 5.22007 -0.577425
0.63111 5.21607 -0.576425
0.58911 5.20907 -0.575425
0.57211 5.21007 -0.575425
0.55511 5.20807 -0.574425
0.52211 5.20007 -0.572425
0.48811 5.19707 -0.571425
0.48011 5.19407 -0.571425
0.43011 5.18807 -0.569425
0.39711 5.18307 -0.568425
0.38011 5.18007 -0.568425
0.23211 5.15007 -0.562425
0.20011 5.14707 -0.561425
0.14311 5.13107 -0.559425
0.0461101 5.11307 -0.556425
0.0381101 5.11507 -0.556425
1.13711 5.30107 -0.640425
1.07411 5.28807 -0.636425
1.02011 5.28107 -0.633425
0.99411 5.27607 -0.632425
0.97711 5.28107 -0.632425
0.94011 5.26607 -0.629425
0.87011 5.25207 -0.625425
0.79311 5.24607 -0.622425
0.64611 5.21207 -0.614425
0.63711 5.20907 -0.613425
0.51911 5.19107 -0.608425
0.35211 5.15907 -0.601425
0.30311 5.14807 -0.599425
0.27811 5.14407 -0.598425
0.26211 5.14807 -0.599425
0.21311 5.13707 -0.597425
0.19711 5.13407 -0.596425
0.17211 5.12507 -0.595425
0.12411 5.11807 -0.594425
0.0831101 5.10907 -0.592425
0.0351101 5.10207 -0.591425
0.0191101 5.09807 -0.590425
1.11011 5.30807 -0.743425
1.09311 5.31007 -0.742425
1.05611 5.29707 -0.739425
1.03711 5.29107 -0.738425
1.03011 5.30007 -0.739425
1.01111 5.29007 -0.737425
0.99411 5.28707 -0.736425
0.95811 5.27807 -0.733425
0.94011 5.27707 -0.733425
0.92411 5.28207 -0.733425
0.91411 5.27507 -0.732425
0.89611 5.26407 -0.729425
0.88011 5.27107 -0.730425
0.86111 5.26007 -0.728425
0.84411 5.26307 -0.728425
0.82611 5.25607 -0.726425
0.80911 5.25207 -0.725425
0.80011 5.25007 -0.725425
0.78311 5.24607 -0.724425
0.76611 5.24707 -0.723425
0.75011 5.24907 -0.723425
0.73111 5.23607 -0.721425
0.71511 5.23807 -0.721425
0.69711 5.23307 -0.720425
0.68811 5.22607 -0.718425
0.67111 5.22607 -0.718425
0.65411 5.22007 -0.717425
0.63711 5.21607 -0.716425
0.62011 5.21407 -0.715425
0.60311 5.21207 -0.715425
0.58611 5.21007 -0.714425
0.56911 5.20607 -0.713425
0.54411 5.19707 -0.711425
0.52811 5.20307 -0.712425
0.51011 5.19507 -0.710425
0.49411 5.19007 -0.709425
0.47711 5.18607 -0.708425
0.46111 5.19107 -0.709425
0.45211 5.18207 -0.707425
0.43511 5.17807 -0.707425
0.41811 5.17507 -0.706425
0.40211 5.17607 -0.706425
0.38611 5.17607 -0.706425
0.35311 5.16607 -0.704425
0.34411 5.16707 -0.704425
0.32811 5.16207 -0.703425
0.31111 5.15707 -0.702425
0.29511 5.15407 -0.701425
0.27811 5.14907 -0.700425
0.26211 5.14607 -0.700425
0.24611 5.14507 -0.699425
0.23011 5.14907 -0.700425
0.22111 5.14407 -0.699425
0.20511 5.14007 -0.698425
0.18911 5.13507 -0.697425
0.17311 5.13007 -0.696425
0.15711 5.13607 -0.697425
0.14011 5.13307 -0.697425
0.12411 5.12707 -0.696425
0.11611 5.12307 -0.695425
0.0841101 5.11807 -0.694425
0.0681101 5.11407 -0.694425
0.0521101 5.11707 -0.694425
0.0351101 5.11107 -0.693425
0.0191101 5.11107 -0.693425
0.0111101 5.11307 -0.693425
0.91111 5.26807 -0.783425
0.66811 5.22207 -0.770425
0.61711 5.21307 -0.767425
0.50711 5.19307 -0.762425
0.41511 5.17907 -0.758425
0.38211 5.17207 -0.756425
0.35711 5.16607 -0.755425
0.32411 5.16007 -0.754425
0.25011 5.14807 -0.751425
0.18511 5.13507 -0.748425
0.16911 5.13407 -0.748425
0.15311 5.13107 -0.747425
0.0801101 5.11607 -0.745425
0.0631101 5.11307 -0.744425
1.22311 5.33707 -0.854425
1.15711 5.31907 -0.848425
1.13911 5.31307 -0.846425
1.12111 5.31307 -0.845425
1.10311 5.31107 -0.844425
1.08611 5.31007 -0.844425
1.07711 5.30807 -0.843425
1.05811 5.30207 -0.841425
1.04111 5.30107 -0.841425
1.02411 5.30207 -0.840425
1.00411 5.29007 -0.837425
0.98811 5.29707 -0.838425
0.97011 5.29007 -0.836425
0.96011 5.28407 -0.835425
0.94311 5.28307 -0.834425
0.92711 5.28807 -0.835425
0.90811 5.27707 -0.832425
0.89111 5.27607 -0.832425
0.87311 5.27507 -0.831425
0.85411 5.26207 -0.828425
0.83711 5.26107 -0.827425
0.82911 5.26407 -0.828425
0.81111 5.25307 -0.825425
0.79411 5.25207 -0.825425
0.77711 5.25607 -0.825425
0.76011 5.25507 -0.824425
0.74311 5.25107 -0.823425
0.72511 5.24607 -0.822425
0.71611 5.24107 -0.821425
0.69911 5.24007 -0.820425
0.68311 5.24007 -0.820425
0.66511 5.23007 -0.818425
0.64811 5.22607 -0.816425
0.63111 5.22607 -0.816425
0.61511 5.23007 -0.816425
0.60611 5.22307 -0.815425
0.58811 5.21607 -0.813425
0.57111 5.21207 -0.812425
0.55511 5.21307 -0.812425
0.53811 5.21107 -0.812425
0.52111 5.20107 -0.809425
0.50511 5.20707 -0.810425
0.49611 5.20507 -0.810425
0.47911 5.19707 -0.808425
0.46311 5.19707 -0.808425
0.44611 5.19807 -0.808425
0.42911 5.19207 -0.806425
0.41311 5.19107 -0.806425
0.39611 5.19007 -0.806425
0.38811 5.18307 -0.804425
0.37111 5.18407 -0.804425
0.35511 5.18107 -0.804425
0.33811 5.17707 -0.803425
0.32211 5.17807 -0.803425
0.30511 5.16507 -0.800425
0.28911 5.16607 -0.800425
0.27211 5.16507 -0.800425
0.26411 5.16307 -0.799425
0.24811 5.16207 -0.799425
0.19911 5.15407 -0.797425
0.16611 5.15307 -0.797425
0.15811 5.14007 -0.794425
0.14211 5.13407 -0.793425
0.10911 5.12907 -0.792425
0.0931101 5.13207 -0.793425
0.0771101 5.13807 -0.794425
0.0531101 5.12407 -0.791425
0.0371101 5.12607 -0.792425
0.0211101 5.12107 -0.791425
2.85311 5.57707 0.413575
2.80611 5.57007 0.412575
2.44411 5.50207 0.405575
2.31511 5.48707 0.402575
2.21611 5.46707 0.401575
2.15211 5.45407 0.399575
2.12111 5.45107 0.399575
2.01611 5.43107 0.397575
2.00711 5.43207 0.397575
1.98311 5.42207 0.396575
1.96511 5.42407 0.396575
1.90511 5.41607 0.395575
1.87311 5.40607 0.395575
1.85211 5.40007 0.394575
1.81311 5.39907 0.394575
1.79311 5.39507 0.393575
1.75411 5.38907 0.393575
1.72311 5.37807 0.392575
1.70211 5.37207 0.392575
1.68111 5.36407 0.391575
1.64511 5.36707 0.391575
1.62711 5.36807 0.391575
1.60811 5.36507 0.391575
1.59411 5.35107 0.390575
1.57611 5.35007 0.390575
1.55711 5.34907 0.390575
1.53611 5.33907 0.389575
1.51811 5.33807 0.389575
1.50211 5.34607 0.389575
1.48111 5.33507 0.388575
1.46911 5.32407 0.388575
1.45411 5.33507 0.388575
1.43411 5.32607 0.388575
1.41311 5.31507 0.387575
1.39811 5.32707 0.387575
1.37911 5.32107 0.387575
5.40111 5.99807 0.422575
5.36411 5.99607 0.422575
5.32411 5.98907 0.421575
2.36011 5.48007 0.365575
2.22011 5.46007 0.363575
2.18611 5.44807 0.362575
2.10311 5.44007 0.361575
2.07911 5.42807 0.360575
2.03411 5.43807 0.360575
1.98911 5.42107 0.359575
1.96611 5.41207 0.359575
1.94811 5.41507 0.359575
1.91811 5.41207 0.358575
1.85811 5.40407 0.358575
1.81511 5.38907 0.357575
1.76411 5.37807 0.356575
1.66611 5.36207 0.355575
1.65611 5.36007 0.355575
1.63611 5.35607 0.355575
1.61711 5.35307 0.354575
1.53411 5.35107 0.354575
1.49211 5.33207 0.353575
1.45611 5.33307 0.353575
1.41811 5.32507 0.352575
1.35011 5.30307 0.351575
1.33211 5.30407 0.351575
5.17411 5.97407 0.320575
5.13711 5.96907 0.319575
5.09711 5.96007 0.319575
5.06011 5.95507 0.319575
5.02111 5.94707 0.318575
4.98311 5.93907 0.318575
4.94811 5.93507 0.317575
4.92711 5.92907 0.317575
4.88211 5.91407 0.316575
4.85511 5.91807 0.316575
4.81611 5.90907 0.316575
4.78111 5.90407 0.315575
4.74711 5.90007 0.315575
4.71411 5.89607 0.315575
4.67611 5.88807 0.314575
4.65311 5.87807 0.314575
4.62011 5.87407 0.313575
4.58711 5.86907 0.313575
4.55511 5.86607 0.313575
4.52511 5.86607 0.312575
4.49111 5.86007 0.312575
4.45411 5.85007 0.312575
4.43011 5.83807 0.311575
4.40211 5.83907 0.311575
4.36711 5.83107 0.311575
4.34011 5.83307 0.310575
4.30511 5.82407 0.310575
4.27511 5.82207 0.310575
4.23811 5.80907 0.309575
4.20911 5.80807 0.309575
4.18811 5.79907 0.309575
4.15511 5.79107 0.308575
4.12511 5.78707 0.308575
4.06511 5.78107 0.307575
4.03711 5.77907 0.307575
3.99011 5.77007 0.306575
3.95411 5.75607 0.306575
3.89811 5.75307 0.305575
3.84111 5.74507 0.305575
3.79511 5.73507 0.304575
3.73411 5.72207 0.304575
3.67711 5.71207 0.303575
3.62011 5.70307 0.302575
3.54811 5.68707 0.302575
3.46911 5.68007 0.301575
3.39811 5.66407 0.300575
3.31811 5.65107 0.299575
3.22711 5.63707 0.298575
1.53311 5.35207 0.284575
1.36911 5.31407 0.283575
1.35211 5.31607 0.283575
2.92111 5.59107 0.263575
2.87411 5.58607 0.263575
2.09611 5.45107 0.258575
2.02011 5.43007 0.258575
1.98111 5.43007 0.258575
1.94011 5.42307 0.257575
1.91911 5.41807 0.257575
1.84911 5.40607 0.257575
1.80811 5.39707 0.257575
1.68111 5.38107 0.256575
1.66211 5.37907 0.256575
1.64211 5.37407 0.256575
1.62311 5.37207 0.256575
1.61111 5.36307 0.256575
1.57411 5.35907 0.256575
1.55611 5.36007 0.256575
1.51711 5.35307 0.256575
1.49611 5.34207 0.255575
1.46811 5.33907 0.255575
1.41211 5.32807 0.255575
1.36511 5.31907 0.255575
5.31711 5.99607 0.224575
2.23311 5.46207 0.217575
5.25111 5.99307 0.135575
5.20711 5.98107 0.135575
5.18611 5.97507 0.136575
5.14411 5.96507 0.136575
5.11211 5.96607 0.136575
5.07011 5.95407 0.136575
5.04211 5.95907 0.136575
4.99711 5.94507 0.137575
4.92611 5.93607 0.137575
4.90411 5.92807 0.137575
4.87311 5.92807 0.137575
4.82711 5.91107 0.138575
4.80011 5.91607 0.138575
4.75711 5.90107 0.138575
4.72611 5.90107 0.138575
4.71011 5.89907 0.138575
4.64011 5.88707 0.139575
4.60011 5.87507 0.139575
4.56811 5.87207 0.139575
4.50311 5.86407 0.140575
4.47511 5.84607 0.140575
4.44411 5.84407 0.140575
4.41111 5.83907 0.140575
4.37811 5.83407 0.140575
4.35111 5.83607 0.141575
4.28711 5.82707 0.141575
4.20011 5.80407 0.142575
4.17411 5.80507 0.142575
4.13611 5.79107 0.142575
4.10511 5.78607 0.142575
4.04611 5.78107 0.142575
4.02611 5.77107 0.143575
3.99511 5.76507 0.143575
3.94511 5.77007 0.143575
3.91611 5.76607 0.143575
3.87811 5.75007 0.143575
3.85411 5.75307 0.143575
3.83111 5.73907 0.144575
3.80111 5.73307 0.144575
3.77511 5.73307 0.144575
3.75111 5.73607 0.144575
3.68811 5.71807 0.144575
3.65811 5.71107 0.145575
3.62811 5.70407 0.145575
3.62211 5.71307 0.145575
3.59011 5.70207 0.145575
3.53811 5.69907 0.145575
3.50511 5.68707 0.145575
3.47311 5.67407 0.146575
3.46211 5.67607 0.146575
3.38011 5.66207 0.146575
3.35611 5.66207 0.146575
3.33411 5.66607 0.146575
3.30011 5.64907 0.146575
3.21611 5.64707 0.147575
3.17911 5.62407 0.147575
3.16211 5.63407 0.147575
3.13211 5.62307 0.147575
3.04911 5.61807 0.148575
3.01511 5.59807 0.148575
2.99411 5.60007 0.148575
2.96611 5.59007 0.148575
2.94911 5.60107 0.148575
2.90211 5.57607 0.148575
2.85411 5.56907 0.149575
2.80811 5.56607 0.149575
2.78311 5.56007 0.149575
2.77211 5.55907 0.149575
2.68011 5.54907 0.149575
2.63211 5.53807 0.150575
2.60711 5.53007 0.150575
2.59611 5.52907 0.150575
2.54711 5.51507 0.150575
2.52611 5.51507 0.150575
2.50311 5.51007 0.150575
2.45811 5.50407 0.150575
2.40111 5.49207 0.151575
2.38311 5.49807 0.151575
2.33611 5.48507 0.151575
2.30311 5.47807 0.151575
2.25811 5.46607 0.151575
2.21511 5.46007 0.152575
2.17611 5.46307 0.152575
2.14011 5.44707 0.152575
2.12111 5.45007 0.152575
2.09911 5.44307 0.152575
2.06211 5.44907 0.152575
2.02511 5.42907 0.152575
1.94711 5.42707 0.153575
1.86911 5.39807 0.153575
1.83011 5.39407 0.153575
1.79211 5.39407 0.153575
1.68211 5.37307 0.154575
1.66211 5.36707 0.154575
5.28811 5.99507 0.0865748
5.24111 5.98007 0.0865748
5.03311 5.94507 0.0885748
5.16211 5.98607 0.0315748
5.10211 5.97407 0.0325748
5.06511 5.96807 0.0335748
4.95011 5.94507 0.0355748
4.91611 5.94207 0.0355748
4.87511 5.93207 0.0365748
4.84311 5.93007 0.0375748
4.78711 5.91907 0.0375748
4.71611 5.90607 0.0395748
4.64611 5.89507 0.0405748
4.61111 5.88807 0.0405748
4.58811 5.87807 0.0415748
4.52311 5.87007 0.0425748
4.45511 5.85907 0.0435748
4.34011 5.84007 0.0455748
4.31111 5.83907 0.0455748
4.28011 5.83507 0.0455748
4.20311 5.80707 0.0475748
4.16211 5.80907 0.0475748
4.00711 5.78207 0.0505748
3.96611 5.76207 0.0505748
3.94911 5.77607 0.0505748
3.93411 5.77407 0.0515748
3.90411 5.76907 0.0515748
3.78411 5.74607 0.0535748
3.75011 5.73307 0.0535748
3.70711 5.72707 0.0545748
3.68011 5.72607 0.0545748
3.65411 5.72407 0.0555748
3.59111 5.70407 0.0565748
3.55011 5.69907 0.0565748
3.49111 5.68407 0.0575748
3.43911 5.67807 0.0585748
3.38511 5.67107 0.0595748
3.37611 5.67607 0.0595748
3.34911 5.67107 0.0595748
3.29611 5.66107 0.0605748
3.27011 5.65807 0.0605748
3.15411 5.64107 0.0625748
3.12711 5.63507 0.0625748
3.09911 5.62507 0.0625748
3.04611 5.61307 0.0635748
2.97811 5.59307 0.0645748
2.96311 5.60607 0.0645748
2.93611 5.59707 0.0655748
2.90511 5.58207 0.0655748
2.88811 5.59107 0.0655748
2.86511 5.59107 0.0655748
2.85111 5.58507 0.0665748
2.82211 5.57107 0.0665748
2.80111 5.57407 0.0665748
2.77911 5.57207 0.0675748
2.75011 5.55907 0.0675748
2.68911 5.54507 0.0685748
2.62411 5.54307 0.0695748
2.60411 5.54607 0.0695748
2.55311 5.52807 0.0695748
2.54311 5.53007 0.0695748
2.49711 5.52007 0.0705748
2.42711 5.50307 0.0715748
2.40911 5.50907 0.0715748
2.38311 5.49807 0.0715748
2.37511 5.50207 0.0715748
2.34611 5.48407 0.0725748
2.30411 5.48007 0.0725748
2.26211 5.47807 0.0735748
2.22611 5.46307 0.0735748
2.20611 5.46407 0.0745748
2.18911 5.47107 0.0745748
2.16211 5.45207 0.0745748
2.14411 5.45707 0.0745748
2.12511 5.46007 0.0745748
2.10011 5.44607 0.0755748
2.08811 5.44207 0.0755748
2.07111 5.44807 0.0755748
2.02611 5.43107 0.0765748
2.00411 5.42407 0.0765748
1.98611 5.42907 0.0765748
1.96311 5.42007 0.0765748
1.95611 5.42507 0.0765748
1.93211 5.41207 0.0775748
1.89011 5.40407 0.0775748
1.87311 5.40907 0.0775748
1.85211 5.40207 0.0775748
1.80311 5.39707 0.0785748
1.76211 5.38807 0.0785748
1.74311 5.38607 0.0785748
1.68311 5.37507 0.0795748
1.59411 5.35607 0.0805748
1.58011 5.36907 0.0805748
1.52611 5.34107 0.0815748
1.43111 5.32607 0.0815748
1.42211 5.32407 0.0825748
4.97811 5.95507 -0.00542516
4.77611 5.91707 -0.00142516
4.74011 5.91007 -0.000425157
4.55411 5.88307 0.00357484
4.48511 5.87107 0.00457484
4.44811 5.85907 0.00557484
4.38511 5.85207 0.00657484
4.30111 5.83407 0.00857484
4.27111 5.83207 0.00857484
4.24111 5.82907 0.00957484
4.20211 5.81407 0.0105748
4.17411 5.81307 0.0105748
4.09411 5.79607 0.0125748
4.03411 5.78907 0.0135748
3.99911 5.77707 0.0145748
3.97411 5.78007 0.0145748
3.86811 5.76007 0.0165748
3.69711 5.73407 0.0195748
3.65511 5.72807 0.0205748
3.62311 5.71707 0.0205748
3.56911 5.71107 0.0215748
3.52811 5.70507 0.0225748
3.47311 5.69507 0.0235748
3.44711 5.69207 0.0235748
3.34311 5.66107 0.0255748
3.32311 5.66607 0.0255748
3.29311 5.65607 0.0265748
3.27011 5.65707 0.0265748
3.24311 5.65207 0.0275748
3.15311 5.63607 0.0285748
3.13011 5.63807 0.0295748
3.07011 5.61107 0.0305748
3.05111 5.61907 0.0305748
2.98411 5.59907 0.0315748
2.91511 5.59707 0.0325748
2.89111 5.59307 0.0335748
2.84111 5.58107 0.0335748
2.78411 5.57607 0.0345748
2.72811 5.55007 0.0355748
2.63011 5.54907 0.0375748
2.58111 5.53407 0.0385748
2.50111 5.51807 0.0395748
2.46011 5.52107 0.0395748
2.40911 5.49807 0.0405748
2.29011 5.48107 0.0425748
2.24811 5.47907 0.0425748
2.21711 5.47707 0.0435748
2.14711 5.44907 0.0445748
2.11011 5.45507 0.0445748
2.01511 5.43707 0.0465748
1.99111 5.42307 0.0465748
1.97011 5.41807 0.0465748
1.92311 5.42207 0.0475748
1.87911 5.40307 0.0485748
1.82211 5.40407 0.0485748
1.79911 5.39007 0.0495748
1.73211 5.38707 0.0495748
1.69411 5.38407 0.0505748
1.66211 5.36907 0.0505748
1.64411 5.37107 0.0505748
1.60511 5.36607 0.0515748
1.56411 5.35107 0.0515748
1.54511 5.34607 0.0525748
1.53611 5.34807 0.0525748
1.49811 5.34107 0.0525748
1.46111 5.33607 0.0525748
1.44111 5.32907 0.0535748
1.42411 5.33207 0.0535748
1.37811 5.32907 0.0535748
1.35711 5.31407 0.0545748
1.32111 5.31507 0.0545748
5.15311 5.97607 -0.0554252
5.12111 5.97707 -0.0554252
5.08511 5.97307 -0.0544252
5.04211 5.96007 -0.0524252
5.00711 5.95807 -0.0524252
4.97411 5.95707 -0.0514252
4.93011 5.94207 -0.0504252
4.90011 5.92507 -0.0494252
4.87511 5.93207 -0.0484252
4.82911 5.91407 -0.0474252
4.79911 5.91507 -0.0464252
4.76511 5.91107 -0.0464252
4.72511 5.90007 -0.0454252
4.69911 5.90507 -0.0444252
4.66311 5.89807 -0.0434252
4.63311 5.87907 -0.0424252
4.60211 5.87807 -0.0424252
4.57111 5.87607 -0.0414252
4.53511 5.86907 -0.0404252
4.50011 5.86107 -0.0394252
4.47011 5.86107 -0.0394252
4.44211 5.86207 -0.0384252
4.41611 5.84707 -0.0374252
4.38611 5.84407 -0.0364252
4.34711 5.83107 -0.0354252
4.31311 5.82407 -0.0354252
4.28311 5.82107 -0.0344252
4.25211 5.81907 -0.0334252
4.22411 5.81707 -0.0334252
4.20411 5.80907 -0.0324252
4.17311 5.80507 -0.0314252
4.14511 5.80507 -0.0314252
4.11211 5.79707 -0.0304252
4.08211 5.79307 -0.0294252
4.05211 5.79007 -0.0294252
4.02111 5.78507 -0.0284252
3.99211 5.78107 -0.0274252
3.96711 5.76407 -0.0274252
3.94311 5.76807 -0.0264252
3.91011 5.75907 -0.0254252
3.88111 5.75507 -0.0254252
3.85511 5.75507 -0.0244252
3.82311 5.74807 -0.0244252
3.80511 5.74007 -0.0234252
3.78011 5.74107 -0.0234252
3.71811 5.72607 -0.0214252
3.69311 5.72607 -0.0214252
3.66211 5.71707 -0.0204252
3.63311 5.71207 -0.0194252
3.61511 5.70407 -0.0194252
3.59211 5.70707 -0.0184252
3.55911 5.69407 -0.0184252
3.53411 5.69407 -0.0174252
3.50611 5.68907 -0.0174252
3.47811 5.68307 -0.0164252
3.45411 5.68407 -0.0164252
3.43711 5.67607 -0.0154252
3.40711 5.66807 -0.0144252
3.38511 5.67207 -0.0144252
3.35611 5.66307 -0.0134252
3.33111 5.66207 -0.0134252
3.30311 5.65507 -0.0124252
3.27611 5.65007 -0.0124252
3.25111 5.64607 -0.0114252
3.23711 5.64307 -0.0114252
3.20911 5.63607 -0.0104252
3.18411 5.63407 -0.0104252
3.16311 5.63707 -0.00942516
3.13711 5.63307 -0.00942516
3.11211 5.62807 -0.00842516
3.08611 5.62407 -0.00842516
3.06811 5.61207 -0.00742516
3.04311 5.60907 -0.00742516
3.01811 5.60407 -0.00642516
2.96811 5.59507 -0.00542516
2.94811 5.60107 -0.00542516
2.91911 5.58907 -0.00442516
2.89711 5.58907 -0.00442516
2.88311 5.58307 -0.00442516
2.85611 5.57407 -0.00342516
2.83411 5.57407 -0.00342516
2.81011 5.57107 -0.00242516
2.78411 5.56207 -0.00242516
2.70111 5.54907 -0.000425157
2.67611 5.54107 -0.000425157
2.65811 5.54807 -0.000425157
2.63111 5.53607 0.000574843
2.61011 5.53707 0.000574843
2.58511 5.53107 0.00157484
2.57211 5.52407 0.00157484
2.55011 5.52307 0.00257484
2.52611 5.51707 0.00257484
2.48211 5.51207 0.00357484
2.46111 5.51107 0.00357484
2.44111 5.51307 0.00357484
2.42511 5.50107 0.00457484
2.40611 5.50507 0.00457484
2.38211 5.49607 0.00557484
2.33711 5.48907 0.00557484
2.31811 5.49007 0.00657484
2.29411 5.48307 0.00657484
2.25911 5.47107 0.00757484
2.24511 5.48607 0.00757484
2.21711 5.46707 0.00857484
2.19911 5.47207 0.00857484
2.17311 5.45707 0.00857484
2.15411 5.46007 0.00957484
2.14211 5.45407 0.00957484
2.12411 5.45707 0.00957484
2.10111 5.44907 0.00957484
2.08211 5.45207 0.0105748
2.06111 5.44707 0.0105748
2.03611 5.43507 0.0115748
2.01911 5.43907 0.0115748
1.99611 5.43007 0.0115748
1.96411 5.42307 0.0125748
1.94711 5.42907 0.0125748
1.92711 5.42607 0.0125748
1.90311 5.41307 0.0135748
1.88211 5.40807 0.0135748
1.86311 5.40807 0.0135748
1.85511 5.41307 0.0135748
1.83211 5.40107 0.0145748
1.81311 5.40107 0.0145748
1.79311 5.39807 0.0145748
1.77411 5.39607 0.0155748
1.75311 5.39007 0.0155748
1.73211 5.38207 0.0155748
1.72511 5.39007 0.0155748
1.70411 5.38407 0.0165748
1.68411 5.37807 0.0165748
1.66511 5.37807 0.0165748
1.64211 5.36407 0.0175748
1.62511 5.36907 0.0175748
1.57611 5.35707 0.0185748
1.56011 5.36607 0.0185748
1.53611 5.34707 0.0185748
1.51811 5.34807 0.0185748
1.50111 5.34907 0.0195748
1.47911 5.33907 0.0195748
1.47011 5.33707 0.0195748
1.45211 5.33807 0.0195748
1.41311 5.32707 0.0205748
2.69911 5.56307 -0.0414252
4.87911 5.92907 -0.145425
4.85511 5.93907 -0.145425
4.69411 5.91107 -0.139425
4.62011 5.89407 -0.136425
4.43611 5.86607 -0.131425
4.38811 5.84007 -0.128425
4.18511 5.81507 -0.122425
4.10711 5.80307 -0.120425
4.04611 5.79407 -0.118425
3.90811 5.76807 -0.113425
3.69011 5.73507 -0.107425
3.65611 5.72107 -0.105425
3.54211 5.70007 -0.102425
3.50311 5.69707 -0.101425
3.47711 5.69407 -0.100425
3.42611 5.69207 -0.0994252
3.35711 5.67707 -0.0974252
3.32311 5.66007 -0.0954252
3.27611 5.66207 -0.0944252
3.24311 5.64607 -0.0934252
3.19711 5.64807 -0.0924252
3.02411 5.60807 -0.0874252
2.91811 5.59907 -0.0844252
1.88111 5.42307 -0.0594252
1.65911 5.37607 -0.0544252
1.53211 5.35407 -0.0514252
1.51511 5.35607 -0.0514252
1.49511 5.35007 -0.0504252
1.39111 5.33407 -0.0494252
5.16411 5.97507 -0.200425
5.13211 5.97607 -0.199425
5.08811 5.96307 -0.197425
5.06611 5.97507 -0.197425
4.99811 5.95107 -0.194425
4.95611 5.93907 -0.192425
4.88711 5.93107 -0.190425
4.85611 5.93107 -0.189425
4.81211 5.91507 -0.187425
4.72211 5.89807 -0.183425
4.69611 5.90407 -0.182425
4.65911 5.89507 -0.181425
4.58411 5.87507 -0.178425
4.43211 5.84807 -0.172425
3.98911 5.77207 -0.156425
3.92811 5.76107 -0.154425
3.89711 5.75507 -0.153425
3.85411 5.74807 -0.151425
3.48411 5.68407 -0.138425
3.46211 5.68807 -0.138425
3.43011 5.67507 -0.137425
3.40311 5.67007 -0.136425
3.35111 5.66407 -0.134425
3.31111 5.65707 -0.133425
3.28311 5.65007 -0.132425
3.23411 5.64607 -0.130425
3.21211 5.64907 -0.130425
3.17911 5.63207 -0.128425
3.16811 5.63307 -0.128425
3.15111 5.64507 -0.128425
3.12011 5.63007 -0.127425
3.09211 5.62107 -0.126425
3.07011 5.62207 -0.125425
3.04011 5.60807 -0.124425
2.97711 5.59707 -0.122425
2.95911 5.60607 -0.122425
2.92811 5.58907 -0.120425
2.90311 5.58407 -0.120425
2.88211 5.58607 -0.119425
2.84011 5.58907 -0.118425
2.82111 5.57407 -0.117425
2.79511 5.56707 -0.116425
2.75311 5.57007 -0.116425
2.66511 5.54407 -0.113425
2.64911 5.55407 -0.113425
2.57411 5.53007 -0.110425
2.55511 5.53407 -0.110425
2.49911 5.52707 -0.108425
2.47511 5.52007 -0.107425
2.43111 5.51307 -0.106425
2.40611 5.50507 -0.105425
2.38511 5.50307 -0.105425
2.37611 5.50507 -0.105425
2.35411 5.50107 -0.104425
2.33111 5.49607 -0.103425
2.31011 5.49407 -0.103425
2.26411 5.48007 -0.101425
2.23011 5.47107 -0.100425
2.18811 5.46607 -0.0994252
2.17111 5.47307 -0.0994252
2.14711 5.46307 -0.0984252
2.12911 5.46807 -0.0984252
2.10411 5.45207 -0.0974252
2.08511 5.45507 -0.0974252
2.07111 5.44307 -0.0964252
2.01311 5.44507 -0.0954252
1.98811 5.42907 -0.0944252
1.94711 5.42107 -0.0934252
1.93511 5.41607 -0.0934252
1.91911 5.42407 -0.0934252
1.89511 5.41007 -0.0924252
1.85511 5.40407 -0.0914252
1.83911 5.41207 -0.0914252
1.76611 5.39007 -0.0894252
1.74711 5.39007 -0.0884252
1.72911 5.39207 -0.0884252
5.18811 5.99007 -0.252425
5.14211 5.97507 -0.250425
5.11511 5.98207 -0.249425
5.07311 5.97107 -0.247425
5.04011 5.97007 -0.246425
5.00111 5.96107 -0.244425
4.96411 5.95607 -0.243425
4.93211 5.93607 -0.240425
4.90411 5.94007 -0.240425
4.86811 5.93407 -0.238425
4.83811 5.93607 -0.237425
4.79711 5.92407 -0.235425
4.76411 5.92107 -0.234425
4.72111 5.90607 -0.232425
4.68511 5.89907 -0.230425
4.56211 5.87707 -0.225425
4.46711 5.86707 -0.221425
4.35311 5.85007 -0.216425
4.27911 5.82807 -0.213425
4.21511 5.81707 -0.210425
4.13311 5.80007 -0.207425
4.04511 5.79107 -0.204425
3.96211 5.76907 -0.200425
3.90111 5.75707 -0.197425
3.81211 5.74207 -0.194425
3.62611 5.71307 -0.187425
3.10411 5.62607 -0.167425
3.07511 5.61707 -0.166425
2.91511 5.59307 -0.161425
2.87811 5.58607 -0.159425
2.83511 5.58907 -0.159425
2.75211 5.57707 -0.156425
2.72911 5.57407 -0.155425
2.69511 5.55007 -0.153425
2.64911 5.54307 -0.152425
2.62611 5.54107 -0.151425
2.59111 5.53307 -0.150425
2.52311 5.52307 -0.147425
2.48011 5.52107 -0.146425
2.45511 5.51207 -0.145425
2.39711 5.49807 -0.143425
2.37411 5.49307 -0.142425
2.33111 5.48707 -0.141425
2.28911 5.48407 -0.140425
2.21211 5.47007 -0.138425
2.16811 5.45907 -0.136425
2.14711 5.45507 -0.136425
2.13711 5.45507 -0.135425
2.07211 5.44107 -0.133425
2.03211 5.43707 -0.132425
1.89711 5.41207 -0.128425
1.78611 5.39207 -0.125425
1.74611 5.38507 -0.124425
1.72611 5.38207 -0.124425
1.67711 5.37307 -0.122425
1.63711 5.36607 -0.121425
1.59411 5.37507 -0.121425
1.57511 5.37207 -0.121425
1.55511 5.36807 -0.120425
1.53611 5.36507 -0.120425
1.51811 5.36407 -0.119425
1.47911 5.35607 -0.118425
1.45011 5.35007 -0.118425
1.43211 5.34807 -0.117425
1.41311 5.34707 -0.117425
1.39311 5.33807 -0.116425
1.37511 5.33707 -0.116425
4.41211 5.85907 -0.258425
4.38511 5.86207 -0.257425
4.34911 5.85207 -0.255425
4.23711 5.83407 -0.250425
4.13011 5.80107 -0.245425
4.04711 5.79807 -0.242425
3.99611 5.78307 -0.239425
3.93511 5.77107 -0.237425
3.87711 5.76307 -0.234425
3.81911 5.75507 -0.232425
3.80711 5.75607 -0.231425
3.77311 5.74307 -0.229425
3.75111 5.75007 -0.229425
3.71711 5.73607 -0.227425
3.66111 5.72807 -0.225425
3.65311 5.73507 -0.225425
3.61111 5.70907 -0.222425
3.56511 5.71507 -0.221425
3.50411 5.69607 -0.218425
3.47511 5.68807 -0.217425
3.38311 5.67707 -0.213425
3.35411 5.66807 -0.212425
3.33111 5.67007 -0.211425
3.30611 5.66807 -0.210425
3.23411 5.64607 -0.207425
3.21611 5.65607 -0.207425
3.18711 5.64707 -0.206425
3.16411 5.64607 -0.205425
3.13611 5.63707 -0.203425
3.11111 5.63407 -0.203425
3.09611 5.62707 -0.202425
3.07311 5.62807 -0.201425
3.04911 5.62507 -0.200425
3.02011 5.61407 -0.199425
2.97611 5.61707 -0.198425
2.94311 5.59607 -0.196425
2.93311 5.59907 -0.195425
2.90511 5.58707 -0.194425
2.88711 5.59607 -0.194425
2.85611 5.57807 -0.192425
2.83911 5.58907 -0.192425
2.81211 5.57807 -0.191425
2.79011 5.57807 -0.190425
