6.32615 -2.67998 -0.524088
6.39915 -2.66398 -0.530088
6.44015 -2.65798 -0.534088
6.47015 -2.65798 -0.537088
6.50815 -2.64998 -0.540088
6.54815 -2.64198 -0.544088
6.58615 -2.63398 -0.547088
6.66815 -2.61898 -0.555088
6.75115 -2.61498 -0.562088
6.83115 -2.59598 -0.570088
6.86715 -2.58598 -0.573088
6.92715 -2.58398 -0.578088
6.96315 -2.57198 -0.582088
7.00415 -2.56298 -0.585088
7.04215 -2.56398 -0.589088
7.09715 -2.55898 -0.594088
7.13515 -2.54798 -0.598088
7.19915 -2.54498 -0.604088
7.22615 -2.52898 -0.606088
7.29415 -2.52798 -0.613088
7.41115 -2.50398 -0.623088
7.47515 -2.49898 -0.630088
7.50815 -2.48398 -0.632088
7.57415 -2.47998 -0.639088
7.60615 -2.46398 -0.641088
7.67315 -2.45898 -0.648088
7.69815 -2.45398 -0.650088
7.77215 -2.45098 -0.657088
7.80615 -2.43498 -0.660088
7.87815 -2.42998 -0.667088
7.90815 -2.41298 -0.670088
7.98615 -2.40898 -0.677088
8.09115 -2.39998 -0.688088
8.12115 -2.38098 -0.690088
8.19015 -2.37298 -0.697088
2.38815 -3.34098 -0.263088
2.42115 -3.33098 -0.264088
2.43915 -3.33298 -0.265088
2.45215 -3.32898 -0.266088
2.46315 -3.32298 -0.266088
2.49115 -3.31698 -0.267088
2.50015 -3.31698 -0.268088
2.51815 -3.31898 -0.269088
2.52815 -3.31098 -0.269088
2.54415 -3.30898 -0.270088
2.57415 -3.30598 -0.272088
2.59815 -3.30498 -0.273088
2.61015 -3.29798 -0.274088
2.65615 -3.29198 -0.276088
2.67815 -3.28698 -0.277088
2.70615 -3.27898 -0.279088
2.73815 -3.27598 -0.281088
2.75515 -3.27498 -0.282088
2.76915 -3.26998 -0.282088
2.78615 -3.26898 -0.284088
2.79815 -3.27198 -0.285088
2.82515 -3.26198 -0.286088
2.83915 -3.25798 -0.286088
2.86015 -3.26098 -0.288088
2.87015 -3.25198 -0.288088
2.88715 -3.24998 -0.289088
2.90115 -3.25598 -0.291088
2.92115 -3.25698 -0.292088
2.93215 -3.24898 -0.293088
2.95015 -3.24898 -0.294088
2.96915 -3.24798 -0.295088
2.97515 -3.23498 -0.295088
2.99315 -3.23398 -0.296088
3.00515 -3.23698 -0.297088
3.04315 -3.23598 -0.300088
3.05515 -3.22798 -0.300088
3.07215 -3.22598 -0.301088
3.08315 -3.21698 -0.301088
3.11115 -3.22598 -0.304088
3.11415 -3.21898 -0.304088
3.13415 -3.21898 -0.305088
3.14915 -3.21398 -0.306088
3.16315 -3.20898 -0.307088
3.18215 -3.20698 -0.308088
3.20915 -3.21398 -0.311088
3.21815 -3.20298 -0.311088
3.23015 -3.20398 -0.312088
3.24315 -3.19698 -0.312088
3.26115 -3.19498 -0.314088
3.28115 -3.19498 -0.315088
3.29615 -3.18798 -0.316088
3.32715 -3.17798 -0.318088
3.34415 -3.18398 -0.319088
3.36215 -3.18198 -0.321088
3.38015 -3.17798 -0.322088
3.39715 -3.17398 -0.323088
3.41115 -3.16698 -0.323088
3.42915 -3.16298 -0.325088
3.44415 -3.15798 -0.325088
3.46015 -3.16198 -0.327088
3.47615 -3.15598 -0.328088
3.49715 -3.15598 -0.330088
3.51515 -3.15198 -0.331088
3.55115 -3.14398 -0.333088
3.56715 -3.13798 -0.334088
3.58115 -3.13998 -0.335088
3.59815 -3.13498 -0.336088
3.61815 -3.13298 -0.338088
3.63315 -3.12498 -0.339088
3.66115 -3.12898 -0.341088
3.67415 -3.11998 -0.342088
3.71015 -3.12098 -0.345088
3.72615 -3.11398 -0.346088
3.74315 -3.10898 -0.347088
3.77915 -3.11898 -0.351088
3.78615 -3.10398 -0.350088
3.82515 -3.09598 -0.353088
3.83315 -3.09298 -0.353088
3.86315 -3.09698 -0.356088
3.88115 -3.09098 -0.357088
3.89815 -3.08498 -0.359088
3.93815 -3.07598 -0.361088
3.97015 -3.08098 -0.364088
3.96815 -3.06998 -0.364088
4.00015 -3.07398 -0.367088
4.03515 -3.06098 -0.369088
4.08915 -3.06098 -0.374088
4.09715 -3.04698 -0.374088
4.11815 -3.05298 -0.376088
4.16015 -3.04298 -0.379088
4.17615 -3.03398 -0.380088
4.20315 -3.03398 -0.382088
4.22115 -3.02698 -0.383088
4.25515 -3.03098 -0.387088
4.26115 -3.02498 -0.387088
4.29515 -3.02898 -0.390088
4.30615 -3.01598 -0.390088
4.33715 -3.01698 -0.393088
4.35915 -3.01298 -0.395088
4.38415 -3.00898 -0.397088
4.40015 -2.99998 -0.398088
4.42915 -3.00898 -0.401088
4.44815 -3.00198 -0.402088
4.47815 -3.00098 -0.405088
4.48715 -2.98698 -0.405088
4.53315 -2.97598 -0.409088
4.57215 -2.98098 -0.413088
4.61415 -2.97798 -0.416088
4.62715 -2.96598 -0.417088
4.68615 -2.96198 -0.422088
4.69915 -2.94898 -0.422088
4.74515 -2.95698 -0.427088
4.74615 -2.94798 -0.427088
4.78315 -2.94898 -0.430088
4.81115 -2.94598 -0.433088
4.83515 -2.93998 -0.435088
4.87615 -2.92298 -0.438088
4.91115 -2.92198 -0.441088
4.92215 -2.91898 -0.442088
4.99015 -2.91698 -0.448088
5.01715 -2.91098 -0.450088
5.03115 -2.89798 -0.451088
5.10315 -2.89698 -0.458088
5.11615 -2.89298 -0.459088
5.14915 -2.89098 -0.462088
5.17815 -2.88498 -0.465088
5.20915 -2.88098 -0.467088
5.29915 -2.86598 -0.475088
5.37615 -2.85298 -0.482088
5.40815 -2.84798 -0.485088
5.43715 -2.84098 -0.488088
5.46515 -2.83398 -0.490088
5.50215 -2.83098 -0.493088
5.73315 -2.79098 -0.514088
5.87015 -2.76698 -0.527088
5.93615 -2.75198 -0.533088
6.00415 -2.74898 -0.540088
6.07015 -2.73298 -0.545088
8.11315 -2.39598 -0.745088
8.14615 -2.39198 -0.749088
8.24515 -2.36398 -0.758088
8.32315 -2.35798 -0.767088
2.51115 -3.31098 -0.294088
2.52615 -3.30998 -0.295088
2.54815 -3.30598 -0.296088
2.56315 -3.30398 -0.297088
2.59215 -3.29898 -0.299088
2.61115 -3.30198 -0.300088
2.63815 -3.29298 -0.301088
2.67515 -3.28598 -0.303088
2.69415 -3.28798 -0.305088
2.70415 -3.27998 -0.305088
2.72015 -3.27798 -0.306088
2.73615 -3.27698 -0.307088
2.76315 -3.27798 -0.309088
2.77615 -3.27198 -0.310088
2.79115 -3.26898 -0.311088
2.80515 -3.26498 -0.311088
2.81915 -3.26098 -0.312088
2.83615 -3.25898 -0.313088
2.85215 -3.25598 -0.314088
2.86315 -3.25898 -0.315088
2.88115 -3.25898 -0.317088
2.89515 -3.25498 -0.317088
2.91115 -3.25198 -0.318088
2.92215 -3.24398 -0.319088
2.94215 -3.24498 -0.320088
2.95515 -3.23898 -0.321088
2.96515 -3.23998 -0.322088
2.98315 -3.23998 -0.323088
2.99815 -3.23498 -0.324088
3.01215 -3.22898 -0.324088
3.03315 -3.23198 -0.326088
3.05115 -3.23098 -0.328088
3.06415 -3.22398 -0.328088
3.07415 -3.22498 -0.329088
3.08815 -3.21998 -0.330088
3.10315 -3.21398 -0.330088
3.12415 -3.21598 -0.332088
3.13715 -3.20898 -0.333088
3.15515 -3.20798 -0.334088
3.17215 -3.20498 -0.335088
3.19115 -3.21398 -0.338088
3.20415 -3.20698 -0.338088
3.22215 -3.20498 -0.339088
3.24415 -3.20598 -0.341088
3.25415 -3.19598 -0.341088
3.27615 -3.19798 -0.343088
3.29415 -3.19498 -0.345088
3.29715 -3.18898 -0.344088
3.31715 -3.18798 -0.346088
3.35015 -3.17898 -0.348088
3.36715 -3.17598 -0.349088
3.40415 -3.17098 -0.352088
3.41715 -3.17198 -0.353088
3.44115 -3.17498 -0.355088
3.45215 -3.16598 -0.356088
3.47115 -3.16298 -0.357088
3.49015 -3.15998 -0.359088
3.50615 -3.15398 -0.359088
3.52715 -3.15398 -0.361088
3.54415 -3.15898 -0.363088
3.55815 -3.15198 -0.364088
3.57315 -3.14498 -0.365088
3.59915 -3.14798 -0.367088
3.60615 -3.13398 -0.367088
3.62915 -3.13398 -0.369088
3.65515 -3.13698 -0.371088
3.65915 -3.12998 -0.371088
3.68415 -3.13198 -0.373088
3.70415 -3.12898 -0.375088
3.72015 -3.12298 -0.376088
3.73615 -3.11598 -0.377088
3.76115 -3.11698 -0.379088
3.77215 -3.10598 -0.379088
3.78615 -3.10798 -0.381088
3.81015 -3.10798 -0.383088
3.83015 -3.10398 -0.385088
3.84915 -3.09998 -0.386088
3.87015 -3.09598 -0.388088
3.88915 -3.09198 -0.389088
3.90515 -3.08398 -0.390088
3.92515 -3.09098 -0.392088
3.93615 -3.07998 -0.392088
3.95515 -3.07498 -0.394088
3.98415 -3.07698 -0.397088
4.00015 -3.06898 -0.398088
4.02415 -3.06698 -0.400088
4.04715 -3.06598 -0.402088
4.05815 -3.06398 -0.403088
4.08415 -3.06298 -0.405088
4.10315 -3.05798 -0.406088
4.12115 -3.05098 -0.408088
4.13615 -3.04298 -0.409088
4.17015 -3.04698 -0.412088
4.18615 -3.03898 -0.413088
4.20015 -3.03898 -0.414088
4.22615 -3.03798 -0.417088
4.24515 -3.03098 -0.418088
4.26615 -3.02598 -0.420088
4.29215 -3.02398 -0.422088
4.30915 -3.01698 -0.423088
4.33215 -3.01198 -0.425088
4.34515 -3.01098 -0.426088
4.36915 -3.00798 -0.428088
4.39415 -3.00498 -0.431088
4.42515 -3.00598 -0.434088
4.44115 -2.99598 -0.435088
4.46215 -2.98998 -0.436088
4.49015 -2.98798 -0.439088
4.50715 -2.98998 -0.441088
4.53215 -2.98598 -0.443088
4.55115 -2.97798 -0.444088
4.56915 -2.96898 -0.445088
4.59515 -2.96598 -0.448088
4.63415 -2.97098 -0.452088
4.65515 -2.96398 -0.453088
4.67615 -2.96698 -0.456088
4.69115 -2.95598 -0.456088
4.71315 -2.94998 -0.458088
4.74615 -2.94898 -0.462088
4.76715 -2.94198 -0.463088
4.79815 -2.94098 -0.466088
4.81415 -2.92998 -0.467088
4.83715 -2.93298 -0.470088
4.86415 -2.92898 -0.472088
4.88515 -2.91998 -0.474088
4.91615 -2.91798 -0.477088
4.95215 -2.91898 -0.480088
4.97715 -2.91298 -0.482088
4.99815 -2.90398 -0.484088
5.02515 -2.90898 -0.487088
5.05515 -2.90498 -0.490088
5.07615 -2.89698 -0.492088
5.09715 -2.88698 -0.493088
5.11815 -2.87798 -0.495088
5.15815 -2.87998 -0.499088
5.19315 -2.87798 -0.502088
5.21515 -2.87998 -0.505088
5.23815 -2.87098 -0.507088
5.32615 -2.85498 -0.515088
5.35415 -2.84798 -0.517088
5.38415 -2.84298 -0.520088
5.47715 -2.83698 -0.529088
5.53515 -2.82298 -0.535088
5.56315 -2.81598 -0.537088
5.58815 -2.80698 -0.539088
5.65115 -2.80498 -0.546088
5.68615 -2.80098 -0.549088
5.71715 -2.79298 -0.552088
5.75215 -2.78798 -0.556088
5.77915 -2.77898 -0.558088
5.81815 -2.77598 -0.562088
5.87415 -2.76898 -0.568088
5.94315 -2.75598 -0.574088
5.97915 -2.74998 -0.578088
6.00615 -2.73998 -0.580088
6.04715 -2.73498 -0.584088
6.22115 -2.70998 -0.602088
6.26215 -2.70398 -0.606088
6.29815 -2.69698 -0.609088
6.44315 -2.67598 -0.624088
6.48115 -2.66798 -0.628088
6.52215 -2.66098 -0.632088
6.56315 -2.65398 -0.636088
6.70515 -2.62598 -0.650088
6.75015 -2.61998 -0.655088
6.79315 -2.61198 -0.659088
6.84215 -2.60598 -0.664088
7.04815 -2.57198 -0.686088
7.09915 -2.56498 -0.691088
7.14515 -2.55698 -0.696088
7.22215 -2.54598 -0.704088
7.31815 -2.52898 -0.714088
7.36615 -2.51998 -0.719088
7.46215 -2.50098 -0.729088
7.51215 -2.49098 -0.734088
7.60115 -2.48098 -0.743088
7.65015 -2.47098 -0.748088
7.70715 -2.46298 -0.754088
7.75215 -2.45098 -0.759088
7.80715 -2.44098 -0.765088
7.86415 -2.43198 -0.771088
7.90415 -2.43098 -0.775088
7.95015 -2.41798 -0.780088
8.01415 -2.40998 -0.787088
8.06015 -2.39598 -0.792088
8.11115 -2.38398 -0.797088
8.18015 -2.37698 -0.804088
2.56115 -3.32098 -0.323088
2.63515 -3.29798 -0.326088
2.70315 -3.29698 -0.331088
2.71615 -3.29098 -0.332088
2.78815 -3.28298 -0.337088
2.80315 -3.27998 -0.338088
2.99315 -3.24498 -0.350088
3.05615 -3.23998 -0.355088
3.34915 -3.18998 -0.376088
3.63715 -3.13998 -0.398088
3.69415 -3.12898 -0.402088
3.80015 -3.10698 -0.410088
3.82115 -3.10398 -0.412088
3.84715 -3.10498 -0.415088
3.86715 -3.09998 -0.416088
3.90115 -3.09798 -0.419088
3.94115 -3.08898 -0.423088
3.97215 -3.07298 -0.424088
3.99515 -3.07098 -0.426088
4.03815 -3.07398 -0.431088
4.05915 -3.06998 -0.433088
4.10515 -3.06398 -0.437088
4.12015 -3.05498 -0.437088
4.13815 -3.04798 -0.439088
4.15715 -3.05198 -0.441088
4.17415 -3.04398 -0.442088
4.20515 -3.04598 -0.445088
4.22615 -3.04098 -0.447088
4.26915 -3.03198 -0.451088
4.29315 -3.02798 -0.453088
4.33015 -3.02398 -0.456088
4.35315 -3.01898 -0.458088
4.38815 -3.00298 -0.461088
4.43115 -3.01098 -0.465088
4.44815 -3.00298 -0.467088
4.48915 -2.99898 -0.471088
4.53615 -2.98998 -0.475088
4.56415 -2.98698 -0.477088
4.58515 -2.97998 -0.479088
4.60715 -2.97498 -0.481088
4.62915 -2.97798 -0.483088
4.67915 -2.96898 -0.488088
4.69915 -2.95998 -0.490088
4.72815 -2.95798 -0.492088
4.75815 -2.95598 -0.495088
4.78115 -2.94898 -0.497088
4.82215 -2.94298 -0.501088
4.85015 -2.93898 -0.504088
4.87915 -2.93598 -0.507088
4.90215 -2.92898 -0.509088
4.92915 -2.92298 -0.511088
4.95315 -2.91698 -0.513088
5.05915 -2.90398 -0.524088
5.14415 -2.88798 -0.532088
5.19215 -2.88298 -0.537088
5.22215 -2.87798 -0.540088
5.31015 -2.86198 -0.548088
5.33515 -2.85298 -0.551088
5.42015 -2.84398 -0.559088
5.45115 -2.83798 -0.562088
5.48215 -2.83298 -0.565088
5.51615 -2.82798 -0.569088
5.54615 -2.82198 -0.572088
5.66415 -2.80298 -0.584088
5.73515 -2.79298 -0.591088
5.76915 -2.78698 -0.594088
6.00215 -2.74898 -0.618088
6.17115 -2.72098 -0.636088
6.83115 -2.60798 -0.705088
7.70615 -2.46398 -0.801088
7.76015 -2.45398 -0.807088
7.81515 -2.44398 -0.813088
7.96515 -2.42198 -0.830088
8.07115 -2.39898 -0.841088
8.12615 -2.38698 -0.848088
8.18915 -2.37698 -0.855088
8.23515 -2.37698 -0.860088
5.46115 -2.82198 -0.594088
5.49115 -2.81598 -0.597088
5.55315 -2.80398 -0.604088
5.67615 -2.78898 -0.617088
5.70815 -2.78198 -0.620088
5.74015 -2.77598 -0.623088
5.77515 -2.77098 -0.627088
5.80915 -2.76498 -0.631088
5.84815 -2.76098 -0.635088
5.87815 -2.75298 -0.638088
5.91515 -2.75898 -0.643088
5.94115 -2.74798 -0.645088
5.97915 -2.74298 -0.649088
6.01115 -2.73498 -0.652088
6.04115 -2.72598 -0.656088
6.07815 -2.71998 -0.660088
6.12115 -2.71698 -0.664088
6.15115 -2.71798 -0.668088
6.18815 -2.71198 -0.672088
6.23015 -2.70698 -0.677088
6.26015 -2.69698 -0.680088
6.29915 -2.68998 -0.684088
6.34115 -2.68398 -0.689088
6.37315 -2.67498 -0.692088
6.41215 -2.66798 -0.696088
6.45115 -2.67198 -0.701088
6.48715 -2.66298 -0.705088
6.53615 -2.65898 -0.710088
6.57315 -2.65098 -0.714088
6.60415 -2.63898 -0.717088
6.64915 -2.63298 -0.723088
6.68715 -2.62398 -0.727088
6.72615 -2.62698 -0.731088
6.76515 -2.61798 -0.736088
6.81315 -2.61198 -0.741088
6.85815 -2.60498 -0.746088
6.90315 -2.59798 -0.751088
6.94615 -2.58898 -0.756088
6.98015 -2.57698 -0.760088
7.06715 -2.57098 -0.770088
7.16115 -2.55498 -0.780088
7.20915 -2.54698 -0.786088
7.25815 -2.53898 -0.791088
7.29915 -2.52798 -0.796088
7.43215 -2.50898 -0.811088
7.53815 -2.49198 -0.823088
7.58715 -2.48198 -0.829088
7.64015 -2.47298 -0.835088
7.67215 -2.46998 -0.839088
7.83515 -2.44198 -0.857088
7.89215 -2.43298 -0.864088
7.93715 -2.41998 -0.869088
7.98915 -2.40798 -0.875088
8.03815 -2.40898 -0.881088
8.14015 -2.38498 -0.893088
8.21115 -2.37698 -0.901088
8.25815 -2.36298 -0.906088
2.50615 -3.32698 -0.370088
2.69415 -3.29798 -0.382088
2.71715 -3.29398 -0.384088
2.85015 -3.27198 -0.393088
2.98415 -3.24598 -0.403088
3.02715 -3.24098 -0.406088
3.73315 -3.12198 -0.465088
3.77615 -3.11798 -0.469088
3.93115 -3.09198 -0.483088
4.04915 -3.07298 -0.494088
4.09215 -3.06498 -0.498088
7.98615 -2.41498 -0.933088
8.01815 -2.39798 -0.937088
8.05515 -2.39498 -0.941088
8.09815 -2.37998 -0.946088
2.56615 -3.31898 -0.403088
2.67615 -3.28698 -0.409088
2.71415 -3.29198 -0.413088
2.72215 -3.27998 -0.412088
2.76215 -3.28598 -0.416088
2.80815 -3.26698 -0.419088
2.84615 -3.25998 -0.421088
2.89815 -3.25698 -0.426088
2.97415 -3.24998 -0.432088
2.98815 -3.24498 -0.433088
3.02315 -3.24198 -0.436088
3.03915 -3.23798 -0.437088
3.08115 -3.23098 -0.441088
3.11315 -3.22498 -0.443088
3.12915 -3.22098 -0.444088
3.18215 -3.21498 -0.449088
3.26315 -3.20498 -0.456088
3.41315 -3.17898 -0.469088
3.79415 -3.11398 -0.504088
3.91415 -3.09098 -0.515088
4.03415 -3.07498 -0.527088
4.12815 -3.05598 -0.536088
4.15515 -3.05598 -0.539088
4.27815 -3.03398 -0.551088
4.48015 -3.00198 -0.572088
4.60315 -2.97098 -0.584088
4.66615 -2.97098 -0.592088
7.53115 -2.48398 -0.931088
7.58415 -2.47498 -0.938088
3.82315 -3.11098 -0.529088
3.93715 -3.09198 -0.540088
4.31315 -3.02698 -0.579088
4.41515 -3.00598 -0.589088
4.44415 -3.00498 -0.592088
4.46015 -2.99598 -0.594088
4.63415 -2.97598 -0.613088
4.64315 -2.97198 -0.614088
4.67115 -2.96898 -0.617088
4.74915 -2.95598 -0.626088
4.76915 -2.94698 -0.628088
4.89715 -2.93098 -0.642088
4.94915 -2.91998 -0.648088
4.97915 -2.91698 -0.652088
5.05015 -2.90498 -0.660088
5.10215 -2.89198 -0.666088
5.13715 -2.89098 -0.670088
5.16715 -2.88598 -0.673088
5.17415 -2.87898 -0.674088
5.21215 -2.87898 -0.679088
5.30415 -2.86398 -0.689088
5.33215 -2.85798 -0.692088
5.36415 -2.85298 -0.696088
5.47015 -2.83198 -0.709088
5.50715 -2.82998 -0.713088
5.52515 -2.81698 -0.715088
5.56215 -2.81398 -0.719088
5.58315 -2.81298 -0.722088
5.68215 -2.79598 -0.734088
5.72315 -2.79298 -0.739088
5.75815 -2.78798 -0.743088
5.78815 -2.77998 -0.747088
5.87815 -2.76598 -0.758088
5.91415 -2.75998 -0.762088
5.98315 -2.74698 -0.771088
6.00815 -2.73498 -0.773088
6.04115 -2.73898 -0.778088
6.15415 -2.71998 -0.792088
6.22515 -2.70498 -0.800088
6.27215 -2.70098 -0.806088
6.29415 -2.69898 -0.809088
6.44515 -2.66798 -0.828088
6.48615 -2.66098 -0.833088
6.53515 -2.65698 -0.839088
6.68615 -2.63198 -0.858088
6.73315 -2.62598 -0.864088
6.81215 -2.60798 -0.874088
7.12515 -2.56098 -0.915088
7.29915 -2.53198 -0.937088
7.36115 -2.50198 -0.945088
2.32515 -3.35898 -0.435088
2.55315 -3.31998 -0.451088
2.56715 -3.31698 -0.452088
2.60515 -3.31198 -0.455088
2.62115 -3.30998 -0.456088
2.64615 -3.29998 -0.457088
2.66415 -3.30098 -0.459088
2.73315 -3.28998 -0.465088
2.75015 -3.28898 -0.466088
2.76515 -3.28698 -0.467088
2.79115 -3.27498 -0.468088
2.84715 -3.26798 -0.473088
2.87915 -3.26398 -0.476088
2.90115 -3.25798 -0.478088
2.95315 -3.25398 -0.482088
2.96715 -3.24898 -0.483088
2.98515 -3.24798 -0.485088
3.00115 -3.24498 -0.486088
3.05815 -3.23498 -0.491088
3.11115 -3.22998 -0.496088
3.11915 -3.22798 -0.497088
3.15015 -3.21998 -0.499088
3.16615 -3.21498 -0.501088
3.20015 -3.20998 -0.504088
3.22815 -3.20698 -0.506088
3.26215 -3.20098 -0.509088
3.43015 -3.17098 -0.525088
3.53515 -3.15698 -0.535088
3.64115 -3.14098 -0.546088
3.65715 -3.13498 -0.547088
3.69515 -3.12698 -0.551088
3.74515 -3.11998 -0.556088
3.80515 -3.10998 -0.562088
3.83015 -3.10998 -0.565088
3.85815 -3.10298 -0.568088
3.88015 -3.10098 -0.570088
3.91215 -3.08698 -0.573088
3.93415 -3.08398 -0.575088
3.95815 -3.08298 -0.578088
3.96715 -3.07998 -0.579088
3.98815 -3.07598 -0.581088
4.02715 -3.06698 -0.585088
4.05415 -3.06698 -0.588088
4.08015 -3.06698 -0.591088
4.10015 -3.06198 -0.593088
4.11015 -3.05898 -0.594088
4.13115 -3.05498 -0.596088
4.14515 -3.04498 -0.597088
4.17715 -3.04898 -0.601088
4.19415 -3.04098 -0.603088
4.21315 -3.03498 -0.605088
4.23915 -3.03298 -0.608088
4.27915 -3.03198 -0.613088
4.29615 -3.02398 -0.614088
4.34315 -3.01598 -0.619088
4.36915 -3.01398 -0.622088
4.39715 -3.01398 -0.626088
4.41015 -3.01198 -0.628088
4.47915 -2.99798 -0.635088
4.50715 -2.99598 -0.638088
4.52815 -2.98998 -0.641088
4.54915 -2.98298 -0.643088
4.56515 -2.98398 -0.645088
4.61715 -2.97698 -0.651088
4.69315 -2.96398 -0.660088
4.81315 -2.94598 -0.674088
4.83915 -2.94098 -0.677088
4.86615 -2.93598 -0.680088
5.07415 -2.90198 -0.705088
6.83815 -2.59998 -0.930088
6.87015 -2.58798 -0.934088
6.90815 -2.57798 -0.939088
6.93215 -2.57398 -0.942088
2.34415 -3.33698 -0.529088
2.35915 -3.33598 -0.530088
2.37415 -3.34698 -0.533088
2.38015 -3.33298 -0.532088
2.39615 -3.33398 -0.533088
2.41515 -3.33698 -0.536088
2.45315 -3.32398 -0.537088
2.45815 -3.31798 -0.537088
2.49115 -3.31998 -0.541088
2.53215 -3.30898 -0.543088
2.55915 -3.31098 -0.546088
2.56815 -3.30098 -0.546088
2.58615 -3.30298 -0.547088
2.61315 -3.29398 -0.549088
2.65015 -3.28698 -0.552088
2.66515 -3.28498 -0.553088
2.69415 -3.27898 -0.555088
2.71115 -3.27798 -0.557088
2.73315 -3.27298 -0.558088
2.75215 -3.27398 -0.561088
2.78315 -3.26898 -0.563088
2.81215 -3.26198 -0.565088
2.82715 -3.25798 -0.566088
2.87115 -3.25598 -0.571088
2.88315 -3.24998 -0.571088
2.90415 -3.25198 -0.574088
2.93115 -3.24098 -0.575088
2.94515 -3.23698 -0.576088
2.96115 -3.24398 -0.579088
2.97515 -3.23898 -0.580088
2.99115 -3.23498 -0.581088
3.00715 -3.23098 -0.582088
3.02115 -3.22598 -0.583088
3.04315 -3.22998 -0.586088
3.05615 -3.22298 -0.587088
3.06915 -3.22698 -0.589088
3.08415 -3.22098 -0.589088
3.10115 -3.21798 -0.591088
3.12015 -3.21898 -0.593088
3.13315 -3.21198 -0.594088
3.15315 -3.21198 -0.596088
3.16715 -3.20598 -0.597088
3.18315 -3.21198 -0.600088
3.19415 -3.20198 -0.600088
3.21315 -3.20198 -0.602088
3.22815 -3.19598 -0.603088
3.24815 -3.19498 -0.605088
3.26815 -3.19498 -0.607088
3.28615 -3.19198 -0.609088
3.29415 -3.18998 -0.610088
3.31715 -3.19198 -0.612088
3.32715 -3.18098 -0.612088
3.34715 -3.17998 -0.615088
3.36415 -3.17698 -0.616088
3.37615 -3.16698 -0.616088
3.39715 -3.16798 -0.619088
3.40815 -3.16798 -0.620088
3.42715 -3.16498 -0.622088
3.44815 -3.16498 -0.625088
3.46715 -3.16198 -0.627088
3.48015 -3.15298 -0.627088
3.49915 -3.14998 -0.629088
3.51715 -3.14698 -0.631088
3.52815 -3.14698 -0.632088
3.54715 -3.14398 -0.634088
3.57015 -3.14398 -0.637088
3.59215 -3.14298 -0.639088
3.60515 -3.13498 -0.640088
3.62715 -3.13398 -0.643088
3.64115 -3.12598 -0.643088
3.65515 -3.12798 -0.645088
3.66915 -3.11998 -0.646088
3.69715 -3.12398 -0.650088
3.70715 -3.11198 -0.650088
3.73715 -3.11698 -0.654088
3.74615 -3.10498 -0.654088
3.76815 -3.10298 -0.657088
3.78615 -3.10698 -0.659088
3.80315 -3.10198 -0.661088
3.82815 -3.10198 -0.664088
3.84415 -3.09498 -0.665088
3.86515 -3.09098 -0.667088
3.89015 -3.09098 -0.670088
3.90115 -3.07998 -0.671088
3.91815 -3.08398 -0.673088
3.94415 -3.08398 -0.676088
3.96015 -3.07598 -0.678088
3.97915 -3.07098 -0.680088
4.00215 -3.06898 -0.682088
4.01815 -3.06098 -0.684088
4.05515 -3.06898 -0.689088
4.06315 -3.06498 -0.690088
4.07415 -3.05298 -0.690088
4.10015 -3.05198 -0.693088
4.13015 -3.05398 -0.697088
4.14115 -3.04298 -0.697088
4.17015 -3.04298 -0.701088
4.19515 -3.04198 -0.704088
4.20515 -3.03898 -0.705088
4.22115 -3.02998 -0.707088
4.25515 -3.03398 -0.711088
4.26415 -3.01998 -0.711088
4.28315 -3.01398 -0.713088
4.31915 -3.01798 -0.718088
4.33115 -3.00698 -0.719088
4.35415 -3.01198 -0.722088
4.38615 -3.01398 -0.727088
4.40115 -3.00398 -0.728088
4.41815 -2.99498 -0.729088
4.44815 -2.99498 -0.733088
4.47215 -2.99098 -0.736088
4.49315 -2.98398 -0.738088
4.51615 -2.98898 -0.741088
4.53815 -2.98298 -0.744088
4.56715 -2.98198 -0.748088
4.59015 -2.97598 -0.750088
4.60615 -2.96598 -0.751088
4.63415 -2.96298 -0.755088
4.66815 -2.96398 -0.760088
4.67815 -2.95998 -0.760088
4.70515 -2.95698 -0.764088
4.73515 -2.95398 -0.768088
4.75415 -2.94598 -0.770088
4.77915 -2.93998 -0.772088
4.80815 -2.93698 -0.776088
4.83415 -2.93198 -0.779088
4.84415 -2.92798 -0.780088
4.88215 -2.92998 -0.786088
4.90015 -2.91898 -0.787088
4.93115 -2.91698 -0.791088
4.96215 -2.91398 -0.795088
4.98015 -2.90398 -0.797088
5.00515 -2.89698 -0.800088
5.03115 -2.90198 -0.804088
5.05915 -2.89698 -0.807088
5.08715 -2.89098 -0.811088
5.11715 -2.88698 -0.814088
5.14215 -2.87898 -0.817088
5.17315 -2.87598 -0.821088
5.19615 -2.86698 -0.824088
5.21815 -2.86798 -0.827088
5.25515 -2.86698 -0.832088
5.28115 -2.85998 -0.835088
5.30915 -2.85298 -0.839088
5.34615 -2.85098 -0.844088
5.37115 -2.84298 -0.846088
5.40315 -2.83798 -0.851088
5.45515 -2.83198 -0.857088
5.48615 -2.82698 -0.862088
5.51615 -2.81998 -0.865088
5.55015 -2.81498 -0.870088
5.58215 -2.80898 -0.874088
5.61215 -2.80198 -0.878088
5.67115 -2.79798 -0.886088
5.70315 -2.79098 -0.890088
5.73315 -2.78398 -0.894088
5.77615 -2.78198 -0.899088
5.79915 -2.77098 -0.902088
5.83415 -2.76498 -0.907088
5.85815 -2.76498 -0.910088
5.92215 -2.74898 -0.918088
5.94515 -2.73698 -0.921088
2.33315 -3.34198 -0.569088
2.37015 -3.33998 -0.572088
2.38015 -3.33098 -0.572088
2.41015 -3.32898 -0.575088
2.44815 -3.32698 -0.578088
2.49315 -3.32098 -0.582088
2.50215 -3.31198 -0.582088
2.52815 -3.31398 -0.585088
2.55215 -3.30298 -0.586088
2.56915 -3.30298 -0.587088
2.59715 -3.29598 -0.589088
2.61115 -3.29298 -0.590088
2.69315 -3.27898 -0.597088
2.73215 -3.27298 -0.601088
2.74715 -3.27098 -0.602088
2.77815 -3.26498 -0.605088
2.79315 -3.26298 -0.606088
2.83315 -3.25698 -0.610088
2.84815 -3.25398 -0.611088
2.86715 -3.25598 -0.613088
2.88015 -3.24898 -0.614088
2.89915 -3.25098 -0.616088
2.92615 -3.23998 -0.618088
2.95315 -3.23898 -0.621088
2.96915 -3.23598 -0.622088
2.98315 -3.23098 -0.623088
3.00215 -3.23198 -0.626088
3.02215 -3.23198 -0.628088
3.03615 -3.22698 -0.629088
3.05115 -3.23198 -0.631088
3.06115 -3.22298 -0.631088
3.08015 -3.22298 -0.634088
3.09315 -3.21598 -0.634088
3.10915 -3.21198 -0.636088
3.12715 -3.21098 -0.638088
3.14415 -3.20798 -0.639088
3.15415 -3.20898 -0.641088
3.17015 -3.20498 -0.642088
3.19115 -3.20598 -0.645088
3.20715 -3.20198 -0.646088
3.22515 -3.19998 -0.648088
3.24515 -3.19898 -0.650088
3.25215 -3.18698 -0.650088
3.27115 -3.19498 -0.653088
3.28415 -3.18798 -0.654088
3.30115 -3.18398 -0.655088
3.31815 -3.18098 -0.657088
3.34115 -3.18298 -0.660088
3.35715 -3.17798 -0.661088
3.37415 -3.17398 -0.663088
3.38615 -3.17498 -0.664088
3.40315 -3.17098 -0.666088
3.42215 -3.16898 -0.668088
3.43715 -3.16298 -0.669088
3.45215 -3.15698 -0.670088
3.47615 -3.15898 -0.674088
3.49215 -3.15298 -0.675088
3.50715 -3.15698 -0.677088
3.52315 -3.15198 -0.679088
3.53815 -3.14598 -0.680088
3.55415 -3.13998 -0.681088
3.57315 -3.13698 -0.683088
3.60215 -3.14198 -0.688088
3.60915 -3.12798 -0.687088
3.62915 -3.13598 -0.690088
3.65215 -3.13598 -0.693088
3.66515 -3.12698 -0.694088
3.68315 -3.12298 -0.696088
3.71115 -3.12698 -0.700088
3.72115 -3.11498 -0.700088
3.73815 -3.10998 -0.702088
3.76115 -3.11898 -0.706088
3.77315 -3.10898 -0.706088
3.79515 -3.10698 -0.709088
3.82315 -3.10998 -0.713088
3.84015 -3.10398 -0.714088
3.85615 -3.09698 -0.716088
3.87815 -3.09498 -0.718088
3.88415 -3.08998 -0.719088
3.90915 -3.08998 -0.722088
3.93115 -3.08798 -0.725088
3.94415 -3.07798 -0.725088
3.96515 -3.07398 -0.728088
3.99415 -3.07698 -0.732088
4.00915 -3.06798 -0.733088
4.02315 -3.06898 -0.735088
4.05015 -3.06898 -0.739088
4.06115 -3.05798 -0.739088
4.09115 -3.06098 -0.743088
4.11515 -3.05798 -0.746088
4.12815 -3.04798 -0.747088
4.15015 -3.04398 -0.750088
4.17215 -3.05098 -0.753088
4.18315 -3.03898 -0.754088
4.21215 -3.03898 -0.758088
4.23415 -3.03498 -0.760088
4.25315 -3.02898 -0.762088
4.27615 -3.02498 -0.765088
4.30115 -3.02298 -0.768088
4.31115 -3.01898 -0.769088
4.33815 -3.01798 -0.773088
4.36415 -3.01598 -0.776088
4.37615 -3.00498 -0.777088
4.40215 -3.00198 -0.780088
4.42915 -2.99998 -0.784088
4.44815 -2.99298 -0.786088
4.46815 -2.99598 -0.789088
4.49215 -2.99198 -0.792088
4.51315 -2.98598 -0.794088
4.53515 -2.97998 -0.797088
4.56415 -2.97898 -0.801088
4.58015 -2.96898 -0.802088
4.60615 -2.96498 -0.806088
4.63115 -2.97098 -0.810088
4.65515 -2.96598 -0.812088
4.68615 -2.96498 -0.817088
4.72815 -2.94998 -0.821088
4.75415 -2.94598 -0.825088
4.78115 -2.94198 -0.828088
4.79915 -2.94298 -0.831088
4.82015 -2.93498 -0.833088
4.85115 -2.93298 -0.838088
4.87415 -2.92598 -0.840088
4.90215 -2.92198 -0.844088
4.92615 -2.91598 -0.847088
4.95615 -2.91298 -0.851088
5.00815 -2.91198 -0.859088
5.03315 -2.90498 -0.862088
5.05415 -2.89598 -0.864088
5.08015 -2.88998 -0.867088
5.10115 -2.88098 -0.870088
5.13915 -2.88198 -0.875088
5.16315 -2.88398 -0.879088
5.19415 -2.88098 -0.883088
5.22215 -2.87498 -0.887088
5.24815 -2.86798 -0.890088
5.27815 -2.86298 -0.894088
5.30615 -2.85698 -0.898088
5.33315 -2.84898 -0.901088
5.35815 -2.85198 -0.905088
5.39115 -2.84798 -0.910088
5.45115 -2.83598 -0.918088
5.47515 -2.82698 -0.921088
5.49015 -2.81298 -0.922088
2.34815 -3.34498 -0.607088
2.36815 -3.34998 -0.610088
2.38115 -3.34798 -0.611088
2.38715 -3.33398 -0.610088
2.40215 -3.33298 -0.611088
2.41615 -3.33998 -0.613088
2.42815 -3.33398 -0.614088
2.43815 -3.32598 -0.614088
2.45915 -3.33298 -0.617088
2.46915 -3.32498 -0.617088
2.48515 -3.32398 -0.618088
2.50115 -3.32398 -0.620088
2.50515 -3.31798 -0.620088
2.52015 -3.31698 -0.621088
2.53415 -3.31298 -0.622088
2.55115 -3.31298 -0.624088
2.56215 -3.30698 -0.624088
2.58315 -3.31098 -0.627088
2.59715 -3.30698 -0.628088
2.62215 -3.30698 -0.631088
2.63515 -3.30198 -0.632088
2.64915 -3.29898 -0.633088
2.66715 -3.29898 -0.635088
2.67615 -3.28898 -0.634088
2.69915 -3.29598 -0.638088
2.70415 -3.29198 -0.638088
2.71615 -3.28498 -0.638088
2.73115 -3.28198 -0.640088
2.75315 -3.28698 -0.643088
2.76715 -3.28298 -0.644088
2.78015 -3.27698 -0.645088
2.79515 -3.27498 -0.646088
2.80415 -3.27498 -0.647088
2.82115 -3.27298 -0.649088
2.83815 -3.27198 -0.650088
2.85415 -3.26998 -0.652088
2.86315 -3.25998 -0.652088
2.88515 -3.26398 -0.655088
2.90115 -3.26098 -0.656088
2.90715 -3.25798 -0.657088
2.94215 -3.25498 -0.661088
2.98615 -3.24198 -0.664088
3.00615 -3.24298 -0.667088
3.10015 -3.22998 -0.676088
3.32615 -3.19298 -0.700088
3.42615 -3.17598 -0.711088
3.47015 -3.16598 -0.715088
3.54615 -3.15498 -0.724088
3.58415 -3.14798 -0.728088
3.59515 -3.14698 -0.730088
3.63315 -3.13998 -0.734088
3.65015 -3.13498 -0.736088
3.68615 -3.12598 -0.740088
3.70815 -3.12398 -0.742088
3.80115 -3.11098 -0.754088
3.82015 -3.10698 -0.756088
3.84215 -3.10498 -0.758088
3.85115 -3.10198 -0.760088
3.91415 -3.09298 -0.767088
3.97315 -3.07798 -0.774088
3.98715 -3.07898 -0.776088
4.03215 -3.07298 -0.782088
4.05115 -3.06698 -0.784088
4.09215 -3.05798 -0.789088
4.11515 -3.05498 -0.791088
4.14815 -3.04898 -0.796088
4.17515 -3.04898 -0.799088
4.22015 -3.04098 -0.805088
4.26315 -3.03098 -0.810088
4.30015 -3.02698 -0.815088
4.32615 -3.02498 -0.819088
4.39115 -3.00898 -0.827088
4.41215 -3.00298 -0.829088
4.48215 -2.99898 -0.839088
4.50615 -2.99398 -0.842088
5.15115 -2.88598 -0.930088
5.16715 -2.87398 -0.931088
4.02715 -3.05698 -0.817088
4.06515 -3.05598 -0.822088
4.08115 -3.04798 -0.824088
4.12415 -3.03998 -0.829088
4.22415 -3.02298 -0.842088
4.27915 -3.02198 -0.850088
4.32215 -3.01198 -0.856088
4.35415 -3.00398 -0.860088
4.37715 -2.99998 -0.863088
4.40715 -2.99998 -0.868088
4.45315 -2.99098 -0.874088
4.47115 -2.98298 -0.876088
4.49815 -2.98098 -0.880088
4.51815 -2.98398 -0.883088
4.54215 -2.97898 -0.886088
4.55915 -2.96998 -0.888088
4.59515 -2.97298 -0.894088
4.60615 -2.95998 -0.894088
4.64015 -2.96098 -0.900088
4.66315 -2.95498 -0.902088
4.68415 -2.95898 -0.906088
4.71315 -2.95598 -0.910088
4.72915 -2.94598 -0.912088
4.75515 -2.94098 -0.916088
4.78215 -2.93798 -0.920088
4.81015 -2.93398 -0.924088
4.83115 -2.92598 -0.926088
4.84715 -2.92598 -0.929088
4.87215 -2.91998 -0.932088
4.89415 -2.91198 -0.935088
3.86515 -3.08598 -0.840088
3.99315 -3.06598 -0.857088
4.00415 -3.06398 -0.859088
4.02215 -3.05798 -0.861088
4.04215 -3.05298 -0.863088
4.06815 -3.05198 -0.867088
4.17115 -3.03798 -0.882088
4.19615 -3.03598 -0.885088
4.20915 -3.02598 -0.886088
4.23315 -3.02198 -0.890088
4.27915 -3.01498 -0.896088
4.29215 -3.01398 -0.898088
4.32415 -3.01598 -0.903088
4.33815 -3.00598 -0.904088
4.36415 -3.00298 -0.908088
4.41215 -2.99498 -0.915088
4.46515 -3.00098 -0.924088
4.47015 -2.98298 -0.923088
4.51415 -2.99198 -0.931088
4.53815 -2.98698 -0.934088
4.58015 -2.97398 -0.940088
4.60215 -2.96798 -0.943088
4.63315 -2.95598 -0.947088
2.34515 -3.35498 -0.723088
2.38015 -3.33798 -0.725088
2.39315 -3.33398 -0.725088
2.40315 -3.33598 -0.727088
2.42215 -3.34098 -0.730088
2.42915 -3.32898 -0.729088
2.44715 -3.33098 -0.731088
2.47215 -3.32198 -0.733088
2.48315 -3.31398 -0.733088
2.50815 -3.32598 -0.738088
2.51015 -3.31798 -0.737088
2.52615 -3.31798 -0.739088
2.55315 -3.30998 -0.741088
2.56715 -3.30598 -0.742088
2.58515 -3.30698 -0.745088
2.59915 -3.30398 -0.746088
2.60915 -3.30598 -0.747088
2.62115 -3.30098 -0.748088
2.63915 -3.30198 -0.751088
2.64715 -3.29098 -0.750088
2.66915 -3.29798 -0.754088
2.67915 -3.28798 -0.753088
2.69415 -3.28498 -0.755088
2.70515 -3.28898 -0.757088
2.71715 -3.28198 -0.758088
2.73115 -3.27798 -0.759088
2.75415 -3.28398 -0.763088
2.76115 -3.27198 -0.762088
2.77515 -3.26798 -0.763088
2.80015 -3.27598 -0.768088
2.79615 -3.26098 -0.765088
2.82015 -3.26898 -0.769088
2.83515 -3.26598 -0.771088
2.85115 -3.26298 -0.772088
2.86515 -3.25798 -0.774088
2.89315 -3.24898 -0.776088
2.90615 -3.25298 -0.778088
2.92515 -3.25398 -0.781088
2.93815 -3.24798 -0.782088
2.95015 -3.23998 -0.782088
2.97315 -3.24598 -0.786088
2.98615 -3.23898 -0.787088
2.99315 -3.23698 -0.788088
3.02715 -3.23298 -0.792088
3.05115 -3.23798 -0.796088
3.06115 -3.22798 -0.796088
3.07815 -3.22598 -0.798088
3.09215 -3.21998 -0.799088
3.11715 -3.22598 -0.804088
3.11915 -3.21798 -0.803088
3.14015 -3.21998 -0.806088
3.16615 -3.20598 -0.808088
3.18515 -3.20498 -0.811088
3.21015 -3.21098 -0.815088
3.21815 -3.19798 -0.814088
3.22815 -3.19798 -0.816088
3.25215 -3.20198 -0.820088
3.26515 -3.19398 -0.821088
3.27915 -3.18798 -0.822088
3.29815 -3.18598 -0.824088
3.31515 -3.18298 -0.826088
3.33715 -3.18398 -0.830088
3.34715 -3.18298 -0.831088
3.36115 -3.17698 -0.832088
3.38115 -3.17598 -0.835088
3.39815 -3.17198 -0.837088
3.40915 -3.16198 -0.838088
3.42915 -3.16098 -0.840088
3.44915 -3.15998 -0.843088
3.46415 -3.16298 -0.846088
3.47615 -3.15398 -0.846088
3.50615 -3.16098 -0.852088
3.51615 -3.14998 -0.852088
3.53615 -3.14898 -0.855088
3.56015 -3.14998 -0.859088
3.56915 -3.13798 -0.858088
3.58215 -3.13998 -0.861088
3.60515 -3.14098 -0.864088
3.62615 -3.13798 -0.867088
3.63815 -3.12898 -0.868088
3.66715 -3.13498 -0.873088
3.67915 -3.12398 -0.874088
3.70215 -3.12398 -0.877088
3.73315 -3.12098 -0.882088
3.75515 -3.11898 -0.885088
3.79415 -3.11198 -0.890088
3.81315 -3.10698 -0.893088
3.83515 -3.10498 -0.896088
3.84415 -3.10298 -0.897088
3.86315 -3.09798 -0.899088
3.88815 -3.09798 -0.903088
3.90115 -3.08798 -0.904088
3.92915 -3.09098 -0.909088
3.96115 -3.07598 -0.912088
4.02215 -3.07298 -0.922088
4.03615 -3.06398 -0.923088
4.08615 -3.06198 -0.931088
4.09315 -3.04698 -0.930088
4.10615 -3.04698 -0.932088
3.89715 -3.08998 -0.951088
3.91415 -3.08398 -0.953088
3.93315 -3.08898 -0.957088
3.94015 -3.07398 -0.956088
3.63815 -3.13498 -0.954088
3.65615 -3.12998 -0.956088
3.67315 -3.12498 -0.958088
3.68715 -3.11698 -0.960088
3.00215 -3.23298 -0.906088
3.04615 -3.21898 -0.911088
3.06715 -3.22098 -0.914088
3.08815 -3.22198 -0.918088
3.10015 -3.21398 -0.918088
3.10615 -3.20998 -0.919088
3.13515 -3.21998 -0.925088
3.16415 -3.20898 -0.928088
3.17815 -3.20298 -0.929088
4.60615 5.89102 0.406912
4.51715 5.87102 0.404912
4.48715 5.87102 0.404912
4.45215 5.86302 0.403912
4.41915 5.85802 0.402912
4.33615 5.84302 0.401912
4.30315 5.83702 0.400912
4.27015 5.83102 0.399912
4.20515 5.81902 0.398912
4.17915 5.82102 0.398912
4.14715 5.81502 0.397912
4.07015 5.80302 0.395912
4.03315 5.79002 0.395912
3.97315 5.78002 0.393912
3.94815 5.78302 0.393912
3.91615 5.77502 0.392912
3.89815 5.76802 0.392912
3.86515 5.75902 0.391912
3.83515 5.75302 0.391912
3.81115 5.75702 0.390912
3.72515 5.74402 0.389912
3.70115 5.72602 0.388912
3.67915 5.73302 0.388912
3.64815 5.72402 0.387912
3.61815 5.71502 0.386912
3.59615 5.72102 0.386912
3.56115 5.70602 0.385912
3.54215 5.71502 0.385912
3.51515 5.71102 0.385912
3.49515 5.69902 0.384912
3.46615 5.69202 0.384912
3.44015 5.68902 0.383912
3.41615 5.68902 0.383912
3.38715 5.68302 0.382912
3.33215 5.67102 0.381912
3.31815 5.66802 0.381912
3.29215 5.66502 0.381912
3.26515 5.65902 0.380912
3.24415 5.66302 0.380912
3.21615 5.65602 0.379912
3.19015 5.65202 0.379912
3.16415 5.64602 0.378912
3.15015 5.64202 0.378912
3.12015 5.63102 0.378912
3.10015 5.63602 0.377912
3.05015 5.62902 0.377912
3.01915 5.61402 0.376912
2.98115 5.60702 0.375912
2.95815 5.60602 0.375912
2.93315 5.60102 0.374912
2.90915 5.59902 0.374912
2.88315 5.59102 0.373912
2.83315 5.58002 0.373912
2.82315 5.58302 0.373912
2.77515 5.57602 0.372912
2.75715 5.58202 0.372912
2.72415 5.56102 0.371912
2.70615 5.56702 0.371912
2.68115 5.56102 0.370912
2.66115 5.56402 0.370912
2.62215 5.55002 0.369912
2.59915 5.54502 0.369912
2.58115 5.55402 0.369912
2.55315 5.53802 0.368912
2.53115 5.53702 0.368912
2.51115 5.53902 0.368912
2.49915 5.53602 0.368912
2.47715 5.53302 0.367912
2.45115 5.52302 0.367912
2.43215 5.52702 0.367912
2.41115 5.52502 0.366912
2.38615 5.51602 0.366912
2.36315 5.51102 0.365912
2.35215 5.50702 0.365912
2.33015 5.50302 0.365912
2.30515 5.49202 0.364912
2.29015 5.50702 0.365912
2.26515 5.49602 0.364912
2.24615 5.49702 0.364912
2.22215 5.48802 0.363912
2.20915 5.48202 0.363912
2.19215 5.48902 0.363912
2.17115 5.48602 0.363912
2.14815 5.47802 0.362912
2.08415 5.46602 0.361912
2.05015 5.45602 0.361912
2.01015 5.45302 0.360912
1.98915 5.44902 0.360912
1.97215 5.45502 0.360912
1.95115 5.45202 0.360912
1.93815 5.44102 0.359912
1.91915 5.44202 0.359912
1.89915 5.43802 0.359912
1.87915 5.43702 0.359912
1.85815 5.43102 0.358912
1.81815 5.42602 0.358912
1.78615 5.41702 0.357912
1.74615 5.40902 0.357912
1.66615 5.39302 0.356912
1.64015 5.39902 0.356912
1.59915 5.38602 0.355912
1.56015 5.37702 0.354912
1.53015 5.37102 0.354912
1.47215 5.35802 0.353912
1.43415 5.35102 0.353912
1.38915 5.34902 0.352912
1.31415 5.33502 0.352912
1.26615 5.32402 0.351912
1.19415 5.31402 0.350912
1.12815 5.29602 0.349912
5.18615 5.99902 0.224912
5.14615 5.99102 0.224912
5.01115 5.96602 0.223912
4.96815 5.95302 0.223912
4.93915 5.95602 0.223912
4.89915 5.94502 0.223912
4.83215 5.94002 0.223912
4.79615 5.93402 0.223912
4.76915 5.91902 0.223912
4.73215 5.91302 0.223912
4.69815 5.90702 0.223912
4.66415 5.90302 0.223912
4.62815 5.89602 0.222912
4.59415 5.89002 0.222912
4.56315 5.88802 0.222912
4.53915 5.87702 0.222912
4.50315 5.86902 0.222912
4.48015 5.87702 0.222912
4.43915 5.86202 0.222912
4.41115 5.86302 0.222912
4.37115 5.84802 0.222912
4.34215 5.84702 0.222912
4.31315 5.84702 0.222912
4.29315 5.83902 0.222912
4.25815 5.83002 0.222912
4.23615 5.83802 0.222912
4.19815 5.82402 0.221912
4.17115 5.82602 0.221912
4.13915 5.82002 0.221912
4.05415 5.79602 0.221912
4.02015 5.78602 0.221912
3.95915 5.77702 0.221912
3.90315 5.77202 0.221912
3.79815 5.75302 0.221912
3.76815 5.74602 0.220912
3.72315 5.73702 0.220912
3.58115 5.71402 0.220912
3.55815 5.71602 0.220912
3.53315 5.71602 0.220912
3.48515 5.69802 0.220912
3.45715 5.69402 0.220912
3.40315 5.68502 0.220912
3.38215 5.69002 0.220912
3.33715 5.67502 0.220912
3.31715 5.68202 0.220912
3.28215 5.66302 0.219912
3.25615 5.66002 0.219912
3.23015 5.65602 0.219912
3.20315 5.65002 0.219912
3.17815 5.64702 0.219912
3.16515 5.64502 0.219912
3.11315 5.63502 0.219912
3.03915 5.62502 0.219912
3.01515 5.62402 0.219912
2.97515 5.61202 0.219912
2.83315 5.59702 0.219912
2.76815 5.57802 0.218912
2.69915 5.57202 0.218912
2.63815 5.55702 0.218912
2.59415 5.55302 0.218912
2.42215 5.52202 0.218912
2.37815 5.51502 0.218912
2.34415 5.50702 0.218912
2.30015 5.50002 0.218912
2.27815 5.49802 0.218912
2.25815 5.49802 0.218912
2.21415 5.49002 0.217912
2.18115 5.48102 0.217912
2.14415 5.48702 0.217912
2.07615 5.46602 0.217912
1.98515 5.45802 0.217912
1.96315 5.45302 0.217912
1.63215 5.39602 0.217912
1.61115 5.39002 0.217912
1.42815 5.35602 0.216912
1.36315 5.34602 0.216912
1.32715 5.34702 0.216912
1.05315 5.30002 0.216912
1.02615 5.29502 0.216912
4.05615 5.81302 0.142912
3.97315 5.79202 0.143912
3.77615 5.75402 0.144912
3.61815 5.72702 0.145912
3.53715 5.71802 0.145912
3.41615 5.70102 0.146912
3.31015 5.68702 0.146912
3.10915 5.64402 0.147912
3.07615 5.64702 0.147912
3.02815 5.64302 0.148912
2.91415 5.62002 0.148912
2.86515 5.61102 0.148912
2.81915 5.60902 0.149912
2.79515 5.60602 0.149912
2.68215 5.57502 0.149912
2.65915 5.57202 0.149912
2.64015 5.57702 0.149912
2.60615 5.57302 0.149912
2.55515 5.55502 0.150912
2.51415 5.55802 0.150912
2.48715 5.54602 0.150912
2.45515 5.54502 0.150912
2.43215 5.54002 0.150912
2.38415 5.52402 0.151912
2.34115 5.52002 0.151912
2.31015 5.51802 0.151912
2.28915 5.51602 0.151912
2.26715 5.51202 0.151912
2.22415 5.50602 0.151912
2.20315 5.50402 0.151912
2.16515 5.48602 0.151912
2.12615 5.48702 0.152912
2.10615 5.48802 0.152912
2.08615 5.48702 0.152912
2.06515 5.48402 0.152912
2.04015 5.46802 0.152912
2.01315 5.47402 0.152912
1.96615 5.45402 0.152912
1.94715 5.45502 0.152912
1.90415 5.44302 0.153912
1.88815 5.45202 0.153912
1.87915 5.45302 0.153912
1.85615 5.44202 0.153912
1.81515 5.43302 0.153912
1.77315 5.42002 0.153912
1.74415 5.42002 0.153912
1.70215 5.40402 0.153912
1.68415 5.40602 0.153912
1.66815 5.41502 0.153912
1.64715 5.40902 0.153912
1.59615 5.39302 0.154912
1.55915 5.39302 0.154912
1.54115 5.39202 0.154912
1.51715 5.37402 0.154912
1.50415 5.39002 0.154912
1.47015 5.36702 0.154912
1.43215 5.36202 0.154912
1.41415 5.36102 0.154912
1.39815 5.37102 0.154912
1.37815 5.36402 0.154912
1.33015 5.34902 0.155912
1.29515 5.35402 0.155912
1.27515 5.34402 0.155912
1.25515 5.33402 0.155912
1.22715 5.32702 0.155912
1.20815 5.32302 0.155912
1.19315 5.33202 0.155912
1.17215 5.31802 0.155912
1.14015 5.33002 0.155912
1.11815 5.31202 0.155912
1.10915 5.30802 0.155912
1.09415 5.31902 0.155912
1.03815 5.30302 0.155912
1.00115 5.28802 0.156912
0.994147 5.30002 0.155912
5.12315 5.99502 0.087912
5.04515 5.97902 0.088912
4.96915 5.96502 0.089912
4.95015 5.96002 0.089912
4.91315 5.95402 0.089912
4.87315 5.94302 0.090912
4.84115 5.94102 0.090912
4.80315 5.93302 0.091912
4.77015 5.92902 0.091912
4.73615 5.92602 0.091912
4.70515 5.92502 0.092912
4.68115 5.91302 0.092912
4.64115 5.90102 0.092912
4.57115 5.88702 0.0939121
4.54315 5.88902 0.0939121
4.50615 5.87902 0.094912
4.47415 5.87602 0.094912
4.32215 5.84502 0.096912
4.29015 5.83902 0.096912
4.26015 5.83602 0.096912
4.05815 5.80402 0.098912
4.02315 5.79402 0.099912
4.01015 5.79302 0.099912
3.86315 5.77202 0.100912
3.32015 5.68302 0.105912
3.25215 5.66702 0.106912
3.95315 5.80202 0.050912
3.74615 5.76702 0.053912
3.35615 5.70202 0.058912
2.92015 5.63202 0.064912
2.76215 5.60502 0.066912
2.71415 5.59502 0.067912
2.65315 5.58202 0.068912
2.58515 5.57402 0.068912
2.52515 5.56002 0.069912
2.45815 5.55102 0.070912
2.39115 5.54102 0.0719121
2.33715 5.53302 0.0719121
2.27015 5.52002 0.072912
2.19515 5.50902 0.073912
2.07815 5.49102 0.074912
1.92015 5.45902 0.076912
1.86015 5.45402 0.076912
1.81015 5.44602 0.077912
1.72915 5.43002 0.078912
1.70915 5.42802 0.078912
1.67815 5.41902 0.078912
1.62115 5.41502 0.079912
1.58215 5.40602 0.079912
1.56215 5.40302 0.079912
1.53215 5.39502 0.080912
1.45615 5.38102 0.080912
1.40915 5.37702 0.081912
1.39015 5.37402 0.081912
1.37115 5.36802 0.081912
1.35215 5.36702 0.081912
1.28815 5.35802 0.0829121
1.24915 5.34502 0.0829121
1.21215 5.33702 0.0829121
1.19515 5.34102 0.0829121
1.14815 5.32802 0.083912
1.09215 5.31402 0.083912
1.07715 5.32102 0.083912
1.05715 5.31102 0.084912
1.05015 5.31802 0.083912
1.03215 5.31302 0.084912
1.01315 5.30902 0.084912
0.961147 5.30402 0.084912
2.99615 5.64202 0.030912
2.92215 5.63102 0.031912
2.78815 5.60702 0.033912
2.58915 5.57402 0.036912
2.50715 5.55502 0.038912
2.46515 5.55602 0.038912
2.42115 5.55102 0.039912
2.34115 5.53202 0.040912
2.21815 5.50402 0.042912
2.17915 5.50702 0.042912
2.13515 5.49402 0.043912
2.09515 5.49502 0.043912
2.06415 5.48902 0.044912
2.02015 5.47802 0.045912
1.97915 5.47202 0.045912
1.93815 5.46302 0.046912
1.90715 5.45702 0.046912
1.86215 5.43902 0.047912
1.80715 5.44502 0.047912
1.77615 5.43602 0.048912
1.73715 5.43402 0.048912
1.71715 5.42902 0.048912
1.64615 5.41002 0.049912
1.60815 5.40702 0.050912
1.56715 5.39202 0.050912
1.52415 5.40002 0.050912
1.46615 5.38902 0.051912
1.41615 5.37302 0.052912
1.40015 5.37702 0.052912
1.37915 5.36602 0.052912
1.34315 5.36702 0.052912
1.32515 5.36502 0.053912
1.30615 5.36002 0.053912
1.27915 5.35802 0.053912
1.25915 5.34902 0.053912
1.24115 5.34902 0.054912
1.22215 5.34502 0.054912
1.20415 5.34302 0.054912
1.18615 5.33902 0.054912
1.16915 5.34002 0.054912
1.15915 5.33402 0.054912
1.14115 5.33202 0.055912
1.10515 5.32702 0.055912
1.04115 5.31602 0.056912
1.00715 5.31402 0.056912
4.88815 5.96602 -0.049088
4.62115 5.92102 -0.043088
4.45215 5.89402 -0.039088
4.43315 5.88802 -0.039088
4.39815 5.88002 -0.038088
4.36615 5.87602 -0.037088
4.33515 5.87202 -0.036088
4.30215 5.86702 -0.035088
4.27115 5.86202 -0.035088
4.18915 5.84702 -0.033088
4.15615 5.83902 -0.032088
4.12115 5.82902 -0.031088
4.09715 5.83402 -0.031088
4.06515 5.82702 -0.030088
3.98715 5.81302 -0.028088
3.95815 5.80902 -0.028088
3.86815 5.79502 -0.026088
3.83815 5.78802 -0.025088
3.78415 5.76602 -0.023088
3.76315 5.77502 -0.023088
3.73415 5.77002 -0.023088
3.70815 5.76802 -0.022088
3.67615 5.76002 -0.021088
3.63415 5.75302 -0.020088
3.60015 5.73902 -0.019088
3.58015 5.74702 -0.019088
3.54915 5.73802 -0.019088
3.51815 5.72902 -0.018088
3.42315 5.71402 -0.016088
3.40015 5.71602 -0.016088
3.36915 5.70502 -0.015088
3.34515 5.70502 -0.014088
3.31915 5.70202 -0.014088
3.29215 5.69702 -0.013088
3.26715 5.69502 -0.013088
3.24615 5.67902 -0.012088
3.22415 5.68202 -0.012088
3.19815 5.67902 -0.011088
3.14815 5.67202 -0.010088
3.05515 5.65002 -0.00808795
3.03015 5.64802 -0.00808795
3.00015 5.63402 -0.00708795
2.98215 5.64202 -0.00708795
2.93515 5.63902 -0.00608795
2.89715 5.63202 -0.00508795
2.86915 5.62102 -0.00508795
2.79715 5.61102 -0.00308795
2.75015 5.60302 -0.00208795
2.73515 5.59502 -0.00208795
2.69215 5.59602 -0.00108795
2.66815 5.59202 -0.00108795
2.64515 5.58902 -0.00108795
2.62115 5.58302 -8.79541e-05
2.59715 5.57802 -8.79541e-05
2.58415 5.57302 0.000912046
2.56015 5.56702 0.000912046
2.54015 5.57002 0.000912046
2.51715 5.56502 0.00191205
2.49315 5.56002 0.00191205
2.46915 5.55302 0.00291205
2.44715 5.55002 0.00291205
2.43415 5.54502 0.00391205
2.41315 5.54302 0.00391205
2.39015 5.53802 0.00391205
2.37115 5.54402 0.00391205
2.32615 5.53302 0.00491205
2.30115 5.52302 0.00591205
2.26815 5.51602 0.00691205
2.24815 5.51702 0.00691205
2.22415 5.50802 0.00691205
2.20615 5.51302 0.00691205
2.18215 5.50502 0.00791205
2.13115 5.50102 0.00891205
2.10715 5.49102 0.00891205
2.08715 5.49002 0.00891205
2.06815 5.49302 0.00991205
2.04615 5.48502 0.00991205
2.02615 5.48502 0.00991205
2.00315 5.47502 0.010912
1.99315 5.47602 0.010912
1.95115 5.46602 0.011912
1.93215 5.46802 0.011912
1.91215 5.46702 0.011912
1.89215 5.46302 0.011912
1.85915 5.45102 0.012912
1.81815 5.44202 0.013912
1.77615 5.43302 0.013912
1.73915 5.43402 0.014912
1.72815 5.42702 0.014912
1.70815 5.42502 0.014912
1.69115 5.43002 0.014912
1.67115 5.42602 0.015912
1.65215 5.42402 0.015912
1.63215 5.42102 0.015912
1.61215 5.41502 0.016912
1.60015 5.40602 0.016912
1.58015 5.40302 0.016912
1.56115 5.39902 0.017912
1.54115 5.39602 0.017912
1.52215 5.39102 0.017912
1.50515 5.39602 0.017912
1.47615 5.39102 0.017912
1.45515 5.38102 0.018912
1.43715 5.38302 0.018912
1.41615 5.37002 0.019912
1.39815 5.37102 0.019912
1.37815 5.36202 0.019912
1.35915 5.35802 0.019912
1.34115 5.35902 0.020912
1.33315 5.36302 0.020912
1.31615 5.36502 0.020912
1.29715 5.36102 0.020912
1.27615 5.34802 0.020912
1.25715 5.34402 0.021912
1.24115 5.35002 0.021912
1.22215 5.34602 0.021912
1.21215 5.34202 0.021912
1.19515 5.34402 0.021912
1.17615 5.34002 0.021912
1.15615 5.32802 0.022912
1.13915 5.32702 0.022912
1.12015 5.32102 0.022912
1.10415 5.32902 0.022912
1.09415 5.32302 0.022912
1.07715 5.32402 0.023912
1.05715 5.31202 0.023912
1.03915 5.30902 0.023912
1.02015 5.30302 0.024912
1.00415 5.30802 0.023912
0.987147 5.30902 0.024912
0.976147 5.29902 0.024912
4.50515 5.89902 -0.134088
4.37315 5.87802 -0.129088
3.46215 5.73102 -0.101088
3.31415 5.70702 -0.097088
3.20715 5.68602 -0.094088
1.48015 5.39502 -0.052088
1.25515 5.35802 -0.048088
4.94115 5.97802 -0.193088
4.83915 5.96802 -0.189088
4.82115 5.96502 -0.189088
4.78215 5.95502 -0.187088
4.74415 5.94502 -0.186088
4.71015 5.94102 -0.184088
4.66715 5.92402 -0.182088
4.63115 5.91702 -0.181088
4.60715 5.92302 -0.180088
4.54915 5.90702 -0.178088
4.51515 5.90002 -0.177088
4.41615 5.88502 -0.173088
4.37815 5.87102 -0.171088
4.34615 5.86802 -0.170088
4.23915 5.85702 -0.167088
4.20615 5.84902 -0.165088
4.17315 5.84102 -0.164088
4.14215 5.83602 -0.163088
4.12215 5.82802 -0.162088
4.06615 5.82502 -0.160088
4.03315 5.81702 -0.159088
4.01115 5.82502 -0.159088
3.97115 5.80402 -0.157088
3.83515 5.77902 -0.152088
3.81115 5.78102 -0.151088
3.77815 5.77202 -0.150088
3.75415 5.77302 -0.149088
3.72215 5.76302 -0.148088
3.64715 5.74702 -0.145088
3.59515 5.74402 -0.144088
3.57115 5.74502 -0.143088
3.54315 5.73902 -0.142088
3.50415 5.73702 -0.141088
3.47115 5.72202 -0.140088
3.44115 5.71402 -0.139088
3.42015 5.72002 -0.138088
3.39515 5.71902 -0.138088
3.36815 5.71402 -0.137088
3.34615 5.69702 -0.135088
3.32215 5.69702 -0.135088
3.29815 5.69702 -0.134088
3.27515 5.69702 -0.134088
3.25015 5.69502 -0.133088
3.19715 5.68502 -0.131088
3.17615 5.66802 -0.130088
3.15115 5.66502 -0.129088
3.12815 5.66502 -0.129088
3.10615 5.66802 -0.128088
3.08415 5.66902 -0.128088
3.05515 5.65902 -0.127088
3.03415 5.66102 -0.126088
2.99515 5.65302 -0.125088
2.97015 5.64802 -0.124088
2.94315 5.63902 -0.123088
2.91815 5.63402 -0.122088
2.89815 5.64002 -0.122088
2.87215 5.63102 -0.121088
2.78715 5.61602 -0.118088
2.76415 5.61402 -0.118088
2.74115 5.61202 -0.117088
2.71615 5.60402 -0.116088
2.68115 5.59902 -0.115088
2.65715 5.59402 -0.115088
2.63015 5.58302 -0.114088
2.58515 5.57702 -0.112088
2.56315 5.57502 -0.112088
2.54315 5.57702 -0.111088
2.52915 5.57002 -0.111088
2.50315 5.56002 -0.110088
2.48715 5.57102 -0.110088
2.46315 5.56302 -0.109088
2.43715 5.55202 -0.108088
2.39715 5.55402 -0.107088
2.38515 5.55102 -0.107088
2.36115 5.54402 -0.106088
2.33815 5.53602 -0.105088
2.29515 5.53202 -0.104088
2.27015 5.52102 -0.103088
2.25215 5.52402 -0.103088
2.19315 5.50302 -0.101088
2.17815 5.51702 -0.102088
