2.55407 5.63894 0.0353986
2.50607 5.62494 0.0363986
2.48807 5.63294 0.0363986
2.45507 5.62994 0.0373986
2.40607 5.61194 0.0383986
2.36507 5.61494 0.0383986
2.32707 5.59794 0.0393986
2.28707 5.59894 0.0393986
2.24407 5.59294 0.0403986
2.20007 5.58494 0.0403986
2.11907 5.55594 0.0423986
2.09707 5.55194 0.0423986
2.08107 5.56194 0.0423986
2.04807 5.55494 0.0423986
2.00307 5.53694 0.0433986
1.98507 5.54194 0.0433986
1.96307 5.53694 0.0443986
1.92507 5.53794 0.0443986
1.85207 5.52394 0.0453986
1.77907 5.50394 0.0463986
1.65907 5.48494 0.0473986
1.64007 5.48294 0.0483986
1.59207 5.47794 0.0483986
1.55507 5.47994 0.0483986
1.53407 5.47194 0.0493986
1.51507 5.46894 0.0493986
1.42507 5.44294 0.0503986
1.40607 5.43994 0.0503986
1.39007 5.44594 0.0503986
1.36307 5.44894 0.0503986
1.32207 5.42794 0.0513986
1.25807 5.42494 0.0523986
1.22007 5.41494 0.0523986
1.18207 5.40294 0.0533986
1.14907 5.41594 0.0523986
1.13607 5.39594 0.0533986
1.10007 5.39194 0.0533986
0.947065 5.36794 0.0553986
0.893065 5.35694 0.0553986
0.814065 5.34494 0.0563986
0.797065 5.34794 0.0563986
0.753065 5.33794 0.0563986
0.718065 5.33094 0.0563986
0.657065 5.31994 0.0573986
0.588065 5.30594 0.0583986
4.78707 5.99594 -0.0486014
4.75207 5.99094 -0.0476014
4.68007 5.97694 -0.0466014
1.65107 5.48294 0.0133986
4.29507 5.92794 -0.0856014
4.15407 5.90794 -0.0816014
4.11807 5.89494 -0.0806014
4.06207 5.89394 -0.0796014
3.95607 5.87694 -0.0766014
3.92507 5.86894 -0.0756014
3.89607 5.86594 -0.0756014
3.86507 5.85894 -0.0746014
3.77807 5.84594 -0.0716014
3.76507 5.84494 -0.0716014
3.73707 5.84194 -0.0706014
3.70307 5.82994 -0.0696014
3.67707 5.82994 -0.0696014
3.62107 5.81994 -0.0676014
3.57807 5.81194 -0.0666014
3.54707 5.80194 -0.0656014
3.52407 5.80494 -0.0656014
3.49507 5.79894 -0.0646014
3.22807 5.75494 -0.0576014
3.03707 5.72694 -0.0536014
2.88907 5.70294 -0.0496014
2.87407 5.69694 -0.0496014
2.85107 5.69494 -0.0496014
2.80007 5.68194 -0.0476014
2.72007 5.67494 -0.0466014
2.67207 5.66694 -0.0456014
2.62507 5.65794 -0.0436014
2.54107 5.63894 -0.0416014
4.67607 5.98394 -0.141601
4.61607 5.98494 -0.140601
4.51407 5.96794 -0.136601
4.45207 5.94394 -0.134601
4.35407 5.92994 -0.131601
4.28207 5.92794 -0.129601
4.18707 5.91494 -0.126601
4.15207 5.90494 -0.124601
4.08007 5.87994 -0.122601
3.87107 5.85094 -0.115601
3.76007 5.84194 -0.112601
3.72707 5.83194 -0.111601
3.69407 5.81994 -0.110601
3.65307 5.81494 -0.109601
3.54607 5.80594 -0.106601
3.51207 5.79194 -0.105601
3.46707 5.77894 -0.103601
3.44107 5.77594 -0.102601
3.41407 5.77294 -0.102601
3.38707 5.76894 -0.101601
3.31307 5.76694 -0.0996014
3.29307 5.75394 -0.0986014
3.27007 5.75494 -0.0986014
3.21407 5.74094 -0.0966014
3.19007 5.74094 -0.0966014
3.14107 5.73594 -0.0946014
3.07307 5.71794 -0.0926014
3.04707 5.71394 -0.0916014
3.02207 5.70894 -0.0916014
2.99807 5.70794 -0.0906014
2.96407 5.70794 -0.0896014
2.91207 5.69594 -0.0886014
2.84307 5.69294 -0.0866014
2.77807 5.67394 -0.0846014
2.75207 5.66694 -0.0846014
2.66207 5.66094 -0.0826014
2.62307 5.64794 -0.0806014
2.57607 5.63894 -0.0796014
2.53507 5.64294 -0.0796014
2.50607 5.62694 -0.0776014
2.49607 5.62694 -0.0776014
2.45107 5.62094 -0.0766014
2.40607 5.61394 -0.0756014
2.38107 5.60494 -0.0746014
2.36607 5.61794 -0.0756014
2.33107 5.60894 -0.0746014
2.28507 5.59794 -0.0726014
2.20007 5.58894 -0.0716014
2.16507 5.57894 -0.0706014
2.12107 5.56994 -0.0696014
2.05807 5.55994 -0.0676014
2.04807 5.55894 -0.0676014
1.89207 5.53594 -0.0646014
1.84907 5.52294 -0.0626014
1.80907 5.52094 -0.0626014
1.78607 5.50994 -0.0616014
1.77507 5.50494 -0.0616014
1.75607 5.50294 -0.0606014
1.73807 5.50694 -0.0606014
1.69907 5.50394 -0.0606014
1.65507 5.48394 -0.0586014
1.64807 5.49294 -0.0586014
1.62907 5.49194 -0.0586014
1.58907 5.48494 -0.0576014
1.54707 5.46594 -0.0566014
1.52907 5.47094 -0.0566014
1.51307 5.47694 -0.0566014
1.48007 5.45894 -0.0556014
1.44007 5.44894 -0.0546014
1.38707 5.45494 -0.0546014
1.35507 5.43594 -0.0536014
1.33707 5.43894 -0.0536014
1.30007 5.43494 -0.0526014
1.25107 5.41794 -0.0516014
1.19607 5.41394 -0.0506014
1.14107 5.40494 -0.0496014
1.06007 5.39594 -0.0486014
0.977065 5.37494 -0.0466014
0.960065 5.37794 -0.0466014
0.904065 5.35894 -0.0456014
0.825065 5.35094 -0.0446014
0.790065 5.34494 -0.0446014
0.765065 5.34994 -0.0446014
0.712065 5.33794 -0.0436014
0.694065 5.33394 -0.0436014
0.633065 5.32494 -0.0426014
0.599065 5.32094 -0.0426014
0.564065 5.31094 -0.0416014
4.54607 5.95994 -0.180601
4.51307 5.95494 -0.179601
3.06207 5.71394 -0.129601
3.01107 5.70494 -0.128601
2.81707 5.67694 -0.122601
2.72307 5.66494 -0.119601
2.67807 5.66194 -0.118601
2.65007 5.64894 -0.117601
2.55207 5.64494 -0.115601
2.52307 5.62794 -0.113601
2.49907 5.62094 -0.113601
2.46707 5.61994 -0.112601
2.25407 5.58094 -0.106601
2.18207 5.57794 -0.104601
2.06407 5.55694 -0.101601
2.04207 5.54994 -0.101601
2.00007 5.54394 -0.100601
1.97707 5.53494 -0.0996014
1.93907 5.53594 -0.0986014
1.90707 5.52994 -0.0976014
1.80307 5.50594 -0.0956014
1.45907 5.44994 -0.0876014
4.55107 5.95794 -0.228601
4.52307 5.95994 -0.227601
4.41707 5.93594 -0.223601
4.30707 5.92294 -0.218601
4.24107 5.90994 -0.215601
2.69307 5.65694 -0.158601
2.64907 5.65594 -0.157601
2.60107 5.64494 -0.156601
2.57807 5.64294 -0.155601
2.56407 5.63594 -0.154601
2.54107 5.63294 -0.154601
2.52007 5.63194 -0.153601
2.47407 5.62394 -0.152601
2.42907 5.61694 -0.150601
0.817065 5.34894 -0.110601
0.801065 5.35694 -0.110601
0.784065 5.35794 -0.110601
0.766065 5.35394 -0.110601
0.748065 5.35294 -0.110601
0.729065 5.33694 -0.109601
0.712065 5.33794 -0.109601
0.703065 5.33494 -0.108601
0.685065 5.32894 -0.108601
0.669065 5.33694 -0.108601
0.651065 5.32894 -0.108601
0.634065 5.32894 -0.108601
0.600065 5.32694 -0.107601
0.591065 5.31994 -0.107601
4.62007 5.97894 -0.272601
4.59007 5.97894 -0.271601
4.55407 5.97194 -0.269601
4.52307 5.96794 -0.268601
4.49107 5.96494 -0.266601
4.45607 5.95794 -0.265601
4.40207 5.94394 -0.262601
4.37607 5.94794 -0.261601
4.33007 5.92294 -0.258601
4.30307 5.92494 -0.257601
4.26707 5.91394 -0.256601
4.24207 5.91894 -0.255601
4.20607 5.90794 -0.253601
4.15707 5.89694 -0.251601
4.13807 5.90994 -0.251601
4.10707 5.90494 -0.249601
4.04007 5.88594 -0.246601
3.95907 5.86594 -0.242601
3.81807 5.85194 -0.237601
3.76907 5.83794 -0.234601
3.71907 5.83994 -0.233601
3.65507 5.81894 -0.229601
3.60007 5.81294 -0.227601
3.55507 5.80094 -0.225601
3.49907 5.78994 -0.223601
3.38507 5.78394 -0.219601
3.25307 5.76294 -0.214601
3.20607 5.74394 -0.211601
2.93807 5.69494 -0.201601
2.78107 5.67094 -0.195601
2.74507 5.66494 -0.194601
2.69707 5.65594 -0.192601
2.52307 5.62894 -0.186601
1.96207 5.54794 -0.169601
1.67907 5.50494 -0.160601
1.65507 5.48494 -0.159601
1.61707 5.48594 -0.158601
1.52707 5.46394 -0.155601
1.48907 5.45994 -0.155601
1.42607 5.46494 -0.154601
1.38307 5.43894 -0.152601
1.35007 5.44894 -0.152601
1.24607 5.43294 -0.149601
1.22507 5.41894 -0.148601
1.10507 5.39394 -0.145601
1.07807 5.39094 -0.145601
0.969065 5.37294 -0.142601
0.961065 5.37294 -0.142601
0.925065 5.36894 -0.141601
0.874065 5.37394 -0.141601
0.812065 5.36094 -0.140601
0.757065 5.33694 -0.138601
0.741065 5.34894 -0.138601
0.731065 5.33394 -0.138601
0.681065 5.34294 -0.138601
0.627065 5.31894 -0.136601
3.21707 5.74394 -0.258601
1.94007 5.53294 -0.208601
1.86707 5.51994 -0.206601
1.67507 5.48694 -0.200601
4.52607 5.95894 -0.406601
4.45807 5.94694 -0.402601
4.34107 5.92694 -0.395601
4.27607 5.91594 -0.391601
4.21907 5.91494 -0.389601
3.20907 5.74594 -0.334601
3.15607 5.73694 -0.331601
3.11107 5.74094 -0.330601
2.99307 5.71394 -0.323601
2.91807 5.70294 -0.320601
2.83407 5.69194 -0.316601
2.28407 5.58894 -0.290601
2.16407 5.56994 -0.285601
2.11107 5.56194 -0.283601
1.60907 5.48094 -0.264601
1.54107 5.47094 -0.262601
1.33007 5.43394 -0.255601
1.25407 5.42094 -0.252601
1.18907 5.40994 -0.250601
1.13407 5.40094 -0.248601
1.09707 5.39594 -0.247601
0.979065 5.37494 -0.244601
0.916065 5.36494 -0.242601
0.863065 5.35594 -0.241601
0.766065 5.34094 -0.239601
0.722065 5.33294 -0.237601
0.687065 5.32694 -0.237601
0.670065 5.32494 -0.236601
0.653065 5.32494 -0.236601
4.57207 5.96794 -0.452601
4.50207 5.95394 -0.448601
4.47307 5.95294 -0.446601
4.44007 5.94794 -0.444601
4.25807 5.91394 -0.432601
4.11707 5.89094 -0.424601
4.08607 5.88594 -0.422601
4.05607 5.88294 -0.420601
4.02607 5.87894 -0.418601
4.00907 5.87394 -0.417601
3.98607 5.87994 -0.417601
3.89007 5.85494 -0.410601
3.86107 5.85094 -0.409601
3.82907 5.84294 -0.406601
3.78807 5.83894 -0.404601
3.73807 5.84294 -0.402601
3.67607 5.82494 -0.398601
3.64307 5.81294 -0.396601
3.61607 5.81094 -0.394601
3.49507 5.79694 -0.388601
3.47307 5.80094 -0.387601
3.44307 5.79294 -0.385601
3.42507 5.78294 -0.384601
3.37107 5.77294 -0.381601
3.34707 5.77294 -0.380601
3.32207 5.77194 -0.378601
3.29707 5.76994 -0.377601
3.26407 5.75394 -0.375601
3.25607 5.76094 -0.375601
3.22907 5.75594 -0.373601
3.19707 5.74094 -0.371601
3.17507 5.74294 -0.370601
3.14907 5.73894 -0.369601
3.13107 5.74794 -0.369601
3.10207 5.73894 -0.367601
3.08207 5.72294 -0.365601
3.06407 5.73194 -0.365601
3.03107 5.71394 -0.362601
3.00907 5.71394 -0.361601
2.98907 5.71994 -0.361601
2.92907 5.71294 -0.358601
2.89707 5.69594 -0.355601
2.87807 5.70094 -0.355601
2.82907 5.69394 -0.353601
2.79707 5.67294 -0.350601
2.71707 5.66694 -0.346601
2.69507 5.66694 -0.345601
2.62307 5.65194 -0.342601
2.60007 5.64894 -0.341601
2.59407 5.65894 -0.341601
2.56507 5.64094 -0.339601
2.54507 5.64394 -0.338601
2.52007 5.63494 -0.337601
2.49907 5.63594 -0.336601
2.47407 5.62694 -0.334601
2.42007 5.62494 -0.332601
2.39607 5.61794 -0.331601
2.37707 5.62094 -0.331601
2.35207 5.60994 -0.329601
2.33007 5.60894 -0.328601
2.30707 5.60294 -0.327601
2.29407 5.59494 -0.326601
2.27507 5.59894 -0.325601
2.25507 5.59894 -0.325601
2.23007 5.58694 -0.323601
2.20607 5.57694 -0.322601
2.18807 5.58394 -0.322601
2.16207 5.56894 -0.319601
2.15507 5.57794 -0.320601
2.13107 5.56594 -0.318601
2.09307 5.57194 -0.318601
2.07307 5.57094 -0.317601
2.04807 5.55694 -0.315601
2.02907 5.55894 -0.315601
2.01507 5.54894 -0.313601
1.99607 5.54994 -0.313601
1.95207 5.53594 -0.311601
1.93307 5.53694 -0.310601
1.89607 5.54294 -0.310601
1.86007 5.52294 -0.307601
1.83907 5.51794 -0.306601
1.81907 5.51594 -0.305601
1.80007 5.51594 -0.305601
1.78207 5.51994 -0.305601
1.76007 5.50994 -0.303601
1.74007 5.50594 -0.302601
1.73207 5.51294 -0.303601
1.68807 5.49094 -0.300601
1.66907 5.49094 -0.299601
1.63207 5.49094 -0.298601
1.61007 5.48294 -0.297601
1.56007 5.47094 -0.295601
1.47307 5.45594 -0.292601
1.45507 5.45594 -0.291601
1.43507 5.45094 -0.291601
1.41607 5.44594 -0.290601
1.36207 5.44994 -0.289601
1.31207 5.42894 -0.286601
1.20907 5.41194 -0.283601
1.17207 5.40594 -0.281601
1.09207 5.40194 -0.280601
1.00007 5.37994 -0.276601
0.982065 5.37894 -0.276601
0.957065 5.38094 -0.276601
0.901065 5.36294 -0.273601
0.884065 5.35894 -0.273601
0.840065 5.35394 -0.272601
0.822065 5.34894 -0.271601
0.787065 5.34394 -0.270601
0.656065 5.32194 -0.267601
0.639065 5.32594 -0.267601
4.39307 5.95194 -0.486601
4.33507 5.93194 -0.481601
4.26607 5.91594 -0.477601
4.20707 5.91194 -0.473601
4.14907 5.90894 -0.470601
4.03307 5.88094 -0.462601
2.74807 5.66694 -0.385601
2.54707 5.63294 -0.374601
1.92807 5.53994 -0.345601
1.90607 5.53294 -0.344601
1.88907 5.54094 -0.344601
1.86507 5.52594 -0.342601
1.84507 5.52394 -0.341601
1.82707 5.52794 -0.341601
1.80507 5.52094 -0.340601
1.79607 5.52194 -0.340601
1.75707 5.51894 -0.339601
1.73607 5.51394 -0.337601
1.71707 5.51294 -0.337601
1.69507 5.50294 -0.335601
1.66607 5.50194 -0.334601
1.64507 5.49594 -0.333601
1.62707 5.49894 -0.333601
1.60607 5.49294 -0.332601
1.58307 5.47794 -0.330601
1.56707 5.48494 -0.330601
1.54607 5.47894 -0.329601
1.53607 5.47494 -0.329601
1.51807 5.47794 -0.329601
1.49807 5.47094 -0.328601
1.46007 5.46894 -0.326601
1.44207 5.46794 -0.326601
1.42007 5.45694 -0.324601
1.41207 5.46094 -0.325601
1.39107 5.44994 -0.323601
1.37307 5.45094 -0.323601
1.35507 5.45094 -0.322601
1.33607 5.44794 -0.322601
1.31807 5.44994 -0.321601
1.29807 5.44194 -0.320601
1.27807 5.43294 -0.319601
1.26807 5.43094 -0.319601
1.25207 5.43894 -0.319601
1.23207 5.42894 -0.318601
1.21407 5.42694 -0.317601
1.19407 5.42094 -0.316601
1.17707 5.42294 -0.316601
1.15607 5.40694 -0.314601
1.14807 5.41494 -0.315601
1.13007 5.41094 -0.314601
1.11207 5.40994 -0.314601
1.09307 5.40394 -0.313601
1.07307 5.39594 -0.312601
1.05607 5.39494 -0.311601
1.03807 5.39694 -0.311601
1.02807 5.38994 -0.311601
1.01107 5.38994 -0.310601
0.993065 5.39094 -0.310601
0.975065 5.38594 -0.309601
0.938065 5.37594 -0.308601
0.910065 5.36494 -0.306601
0.893065 5.36794 -0.306601
0.876065 5.36694 -0.306601
0.858065 5.36194 -0.305601
0.841065 5.36794 -0.306601
0.823065 5.35894 -0.304601
0.806065 5.36194 -0.304601
0.788065 5.35394 -0.304601
0.760065 5.34394 -0.302601
0.726065 5.34694 -0.302601
0.691065 5.34094 -0.301601
0.665065 5.33494 -0.300601
0.630065 5.32294 -0.299601
0.596065 5.32694 -0.299601
4.54607 5.97494 -0.640601
4.47307 5.95594 -0.633601
4.44407 5.95694 -0.631601
4.38007 5.94794 -0.626601
4.32707 5.93394 -0.622601
4.30107 5.93694 -0.620601
4.26507 5.92594 -0.617601
4.23607 5.92494 -0.615601
4.20107 5.91494 -0.612601
4.08807 5.89194 -0.603601
4.06907 5.90294 -0.602601
4.03107 5.88794 -0.599601
3.97407 5.88394 -0.595601
3.96407 5.88794 -0.594601
3.91907 5.86094 -0.589601
3.86307 5.85694 -0.585601
3.84307 5.86594 -0.585601
3.81107 5.85794 -0.582601
3.70007 5.82594 -0.573601
3.68407 5.83994 -0.573601
3.65307 5.83194 -0.570601
3.59607 5.82094 -0.566601
3.58507 5.82494 -0.566601
3.54507 5.79994 -0.561601
3.47407 5.80594 -0.558601
3.44107 5.79094 -0.554601
3.37207 5.77794 -0.549601
3.34407 5.77194 -0.547601
3.31607 5.76494 -0.545601
3.22807 5.75594 -0.539601
3.19607 5.74194 -0.536601
3.10107 5.73894 -0.531601
3.07907 5.74194 -0.530601
2.91307 5.70794 -0.518601
2.88507 5.69694 -0.516601
2.77907 5.68394 -0.509601
2.71507 5.66594 -0.504601
2.70007 5.67994 -0.505601
2.67307 5.66894 -0.502601
2.62607 5.66194 -0.499601
2.60207 5.65594 -0.498601
2.57607 5.64594 -0.495601
2.54507 5.64694 -0.494601
2.52107 5.64194 -0.493601
2.49807 5.63694 -0.491601
2.47607 5.63594 -0.490601
2.45607 5.63794 -0.489601
2.42507 5.61494 -0.486601
2.39707 5.62194 -0.485601
2.37207 5.61294 -0.483601
2.35307 5.61694 -0.483601
2.33307 5.61694 -0.482601
2.30707 5.60394 -0.479601
2.28907 5.61194 -0.479601
2.27407 5.59794 -0.477601
2.25307 5.59794 -0.476601
2.23007 5.59194 -0.475601
2.18707 5.58594 -0.473601
2.14707 5.58494 -0.471601
2.12607 5.58194 -0.470601
2.11407 5.57794 -0.469601
2.09407 5.57694 -0.468601
2.07107 5.56894 -0.466601
2.05007 5.56794 -0.465601
1.98507 5.54894 -0.461601
1.89007 5.52994 -0.455601
1.85307 5.53594 -0.455601
1.84207 5.53094 -0.454601
1.82207 5.52894 -0.453601
1.80207 5.52594 -0.452601
1.78207 5.52194 -0.451601
1.74307 5.52094 -0.449601
1.71107 5.50894 -0.447601
1.69307 5.51194 -0.447601
1.67107 5.50194 -0.445601
1.65007 5.49394 -0.443601
1.63407 5.50294 -0.444601
1.61007 5.48694 -0.441601
1.59307 5.48994 -0.441601
1.56107 5.47894 -0.439601
1.54407 5.48094 -0.439601
1.52507 5.48094 -0.438601
1.50307 5.46994 -0.436601
1.48707 5.47694 -0.437601
1.46807 5.47394 -0.436601
1.45707 5.46794 -0.435601
1.43807 5.46694 -0.434601
1.41907 5.46394 -0.433601
1.39807 5.45094 -0.431601
1.36107 5.44994 -0.430601
1.34207 5.44794 -0.430601
1.32407 5.44694 -0.429601
1.31607 5.45094 -0.429601
1.29607 5.44094 -0.428601
1.27607 5.43594 -0.426601
1.25907 5.43794 -0.426601
1.23907 5.42794 -0.425601
1.20207 5.42394 -0.423601
1.19207 5.41794 -0.422601
1.17307 5.41594 -0.422601
1.15507 5.41194 -0.421601
1.13807 5.41694 -0.421601
1.11907 5.40894 -0.420601
1.10007 5.40294 -0.419601
1.01807 5.38894 -0.415601
1.00107 5.39394 -0.416601
0.982065 5.38494 -0.414601
0.965065 5.38394 -0.414601
0.919065 5.36994 -0.411601
0.902065 5.37494 -0.412601
0.883065 5.36394 -0.410601
0.866065 5.36294 -0.410601
0.849065 5.36394 -0.409601
0.841065 5.36894 -0.410601
0.821065 5.35394 -0.408601
0.806065 5.36394 -0.409601
0.787065 5.35094 -0.407601
0.769065 5.34594 -0.406601
0.753065 5.35594 -0.407601
0.734065 5.34594 -0.406601
0.725065 5.33994 -0.405601
0.708065 5.33594 -0.404601
0.674065 5.33794 -0.404601
0.656065 5.33194 -0.403601
0.638065 5.32094 -0.402601
0.621065 5.32494 -0.402601
0.605065 5.32894 -0.402601
0.595065 5.31394 -0.400601
0.560065 5.30894 -0.399601
0.545065 5.31894 -0.400601
2.40207 5.61794 -0.523601
2.38207 5.61794 -0.522601
2.33407 5.60394 -0.518601
2.32207 5.59994 -0.517601
2.30007 5.59694 -0.516601
2.25607 5.58894 -0.513601
2.23407 5.58494 -0.512601
2.21507 5.58994 -0.511601
2.19207 5.58194 -0.509601
2.18007 5.57794 -0.508601
2.15907 5.57594 -0.507601
2.13607 5.56994 -0.506601
2.11607 5.56894 -0.505601
2.09407 5.56394 -0.503601
2.05407 5.56294 -0.502601
2.04007 5.55294 -0.500601
2.02307 5.55894 -0.500601
2.00307 5.55994 -0.499601
1.97907 5.54694 -0.497601
1.95707 5.54194 -0.495601
1.93907 5.54494 -0.495601
1.88307 5.52594 -0.491601
1.84307 5.52094 -0.489601
1.82507 5.52494 -0.488601
1.80307 5.51694 -0.487601
1.78307 5.51294 -0.486601
1.73307 5.50594 -0.483601
1.71207 5.49994 -0.482601
1.65407 5.49694 -0.479601
1.54407 5.47194 -0.473601
1.49507 5.46294 -0.470601
1.41807 5.44994 -0.467601
1.33207 5.43694 -0.463601
1.31407 5.43694 -0.462601
1.29507 5.43394 -0.461601
1.27607 5.42594 -0.460601
1.17307 5.40994 -0.455601
0.838065 5.35394 -0.442601
0.821065 5.35194 -0.441601
0.655065 5.32894 -0.436601
4.59007 5.99294 -0.734601
4.53807 5.98194 -0.730601
4.50607 5.97894 -0.727601
4.47007 5.96894 -0.723601
4.43807 5.96594 -0.721601
4.39907 5.95294 -0.716601
4.33807 5.94794 -0.712601
4.32007 5.94194 -0.710601
4.28707 5.93594 -0.707601
4.25607 5.93194 -0.704601
4.22207 5.92394 -0.701601
4.19107 5.91894 -0.698601
4.13307 5.91594 -0.694601
4.11707 5.91294 -0.692601
4.08807 5.90894 -0.690601
4.05207 5.89794 -0.686601
4.02107 5.89194 -0.684601
3.96407 5.88794 -0.679601
3.91907 5.87994 -0.675601
3.88507 5.86894 -0.672601
3.83207 5.86794 -0.668601
3.79907 5.85694 -0.665601
3.77307 5.85694 -0.663601
3.74407 5.85194 -0.661601
3.71107 5.83994 -0.657601
3.70007 5.84394 -0.657601
3.66907 5.83594 -0.654601
3.64407 5.83494 -0.652601
3.61507 5.82994 -0.650601
3.58607 5.82394 -0.647601
3.55707 5.81694 -0.645601
3.51507 5.80994 -0.641601
3.48507 5.80194 -0.639601
3.45807 5.79794 -0.637601
3.43307 5.79594 -0.635601
3.40007 5.78094 -0.631601
3.38007 5.78994 -0.631601
3.35507 5.78894 -0.629601
3.33507 5.77494 -0.627601
3.31307 5.77894 -0.626601
3.28807 5.77694 -0.624601
3.26007 5.76794 -0.621601
3.18407 5.76094 -0.616601
3.16707 5.75194 -0.614601
3.14107 5.74594 -0.612601
3.11407 5.73994 -0.609601
3.04207 5.73594 -0.605601
3.00407 5.72694 -0.602601
2.97907 5.72394 -0.600601
2.92707 5.71094 -0.596601
2.90607 5.71494 -0.595601
2.84207 5.69794 -0.589601
2.82107 5.69994 -0.589601
2.70007 5.67894 -0.580601
2.52607 5.64994 -0.568601
2.49207 5.64594 -0.565601
1.94807 5.55294 -0.530601
1.92807 5.55394 -0.530601
1.75507 5.52394 -0.519601
1.73407 5.51994 -0.518601
1.69507 5.51494 -0.516601
1.66407 5.50794 -0.514601
1.62507 5.50294 -0.512601
1.58607 5.49594 -0.510601
1.53607 5.48394 -0.507601
1.51807 5.48494 -0.506601
1.46007 5.47594 -0.503601
1.39307 5.46394 -0.500601
1.37207 5.45494 -0.498601
1.35407 5.45594 -0.498601
1.33507 5.45194 -0.497601
1.31707 5.45194 -0.496601
1.25007 5.43594 -0.492601
1.23307 5.43794 -0.492601
1.19507 5.42794 -0.490601
1.16707 5.42194 -0.489601
1.14907 5.42294 -0.488601
1.11207 5.41494 -0.486601
1.09307 5.40694 -0.485601
1.03907 5.40494 -0.483601
1.02907 5.39694 -0.482601
1.01207 5.39994 -0.482601
0.993065 5.39094 -0.481601
0.976065 5.39294 -0.481601
0.957065 5.38594 -0.479601
0.941065 5.39094 -0.480601
0.922065 5.38394 -0.478601
0.913065 5.38494 -0.478601
0.895065 5.37994 -0.477601
0.860065 5.37794 -0.476601
0.823065 5.36194 -0.474601
0.797065 5.35794 -0.473601
0.763065 5.35894 -0.472601
0.745065 5.35494 -0.472601
0.727065 5.35194 -0.471601
0.684065 5.34494 -0.469601
0.666065 5.33794 -0.468601
0.632065 5.33794 -0.468601
0.614065 5.33194 -0.467601
0.580065 5.32994 -0.466601
0.563065 5.32694 -0.465601
0.728065 5.35494 -0.537601
4.57407 5.97894 -0.874601
4.54207 5.97594 -0.871601
4.48607 5.96094 -0.865601
4.45107 5.95294 -0.861601
4.42807 5.96194 -0.860601
4.39107 5.95094 -0.856601
4.35707 5.94394 -0.852601
4.32007 5.93394 -0.848601
4.28707 5.92594 -0.844601
4.24007 5.92094 -0.840601
4.20707 5.91294 -0.836601
4.14607 5.90694 -0.830601
4.12207 5.91194 -0.829601
4.09007 5.90494 -0.826601
4.06607 5.89094 -0.822601
4.00507 5.88194 -0.816601
3.97507 5.87594 -0.813601
3.95107 5.88094 -0.812601
3.91407 5.86694 -0.807601
3.89407 5.87594 -0.807601
3.81407 5.85494 -0.798601
3.78607 5.85194 -0.795601
3.75207 5.83994 -0.791601
3.72707 5.84194 -0.790601
3.69307 5.82894 -0.786601
3.67707 5.82494 -0.784601
3.62207 5.81694 -0.779601
3.59907 5.82194 -0.778601
3.57207 5.81794 -0.775601
3.54307 5.81194 -0.772601
3.51207 5.80294 -0.769601
3.33407 5.77294 -0.752601
3.19107 5.75394 -0.740601
3.16007 5.73894 -0.736601
3.09607 5.72894 -0.731601
3.07307 5.72994 -0.729601
3.01907 5.71594 -0.724601
2.98407 5.71494 -0.721601
2.95707 5.70594 -0.719601
2.93207 5.70194 -0.716601
2.90707 5.69794 -0.714601
2.88307 5.69494 -0.712601
2.86007 5.69394 -0.711601
2.84207 5.70294 -0.711601
2.81007 5.68294 -0.706601
2.77207 5.67494 -0.703601
2.72607 5.66894 -0.699601
2.68207 5.66994 -0.697601
2.62207 5.65694 -0.691601
2.59707 5.65094 -0.689601
2.57407 5.64794 -0.687601
2.55307 5.64894 -0.686601
2.52607 5.63494 -0.683601
2.50407 5.63394 -0.682601
2.49207 5.63094 -0.680601
2.44607 5.62294 -0.677601
2.42407 5.61994 -0.675601
2.40207 5.61794 -0.674601
2.38107 5.61794 -0.673601
2.36107 5.61994 -0.672601
2.30307 5.60394 -0.666601
2.23607 5.59194 -0.661601
2.21807 5.59794 -0.661601
2.20807 5.59694 -0.661601
2.18007 5.57894 -0.657601
2.15907 5.57594 -0.655601
2.13807 5.57394 -0.654601
2.12007 5.57994 -0.654601
2.09607 5.56794 -0.651601
2.06407 5.56294 -0.649601
2.04707 5.57194 -0.649601
2.02307 5.56094 -0.646601
1.99907 5.54894 -0.644601
1.96307 5.55794 -0.643601
1.94307 5.55694 -0.642601
1.91907 5.54594 -0.639601
1.90507 5.53194 -0.637601
1.89007 5.54494 -0.638601
1.84407 5.52494 -0.633601
1.77207 5.51094 -0.628601
1.75207 5.50894 -0.627601
1.73507 5.51494 -0.627601
1.71807 5.51994 -0.627601
1.69807 5.51794 -0.626601
1.64707 5.50694 -0.622601
1.60307 5.48494 -0.618601
1.58507 5.48794 -0.617601
1.56707 5.49094 -0.617601
1.54907 5.49194 -0.616601
1.52807 5.48294 -0.615601
1.49907 5.47894 -0.613601
1.47907 5.47394 -0.611601
1.46107 5.47494 -0.611601
1.44207 5.47394 -0.610601
1.40207 5.45994 -0.607601
1.37207 5.44894 -0.604601
1.35607 5.45894 -0.605601
1.33407 5.44594 -0.602601
1.29507 5.43494 -0.600601
1.28107 5.44894 -0.601601
1.24907 5.42794 -0.597601
1.17707 5.42894 -0.595601
1.13007 5.41494 -0.592601
1.09307 5.40894 -0.590601
1.07407 5.40394 -0.589601
0.992065 5.38594 -0.584601
0.975065 5.39094 -0.584601
0.938065 5.38094 -0.582601
0.920065 5.37494 -0.581601
0.903065 5.38094 -0.581601
0.876065 5.37394 -0.579601
0.858065 5.36694 -0.578601
0.841065 5.36894 -0.578601
0.821065 5.35394 -0.576601
0.786065 5.35194 -0.574601
0.777065 5.34894 -0.574601
0.761065 5.35294 -0.574601
0.707065 5.33894 -0.571601
0.690065 5.33494 -0.570601
0.665065 5.33794 -0.570601
0.646065 5.32794 -0.569601
0.629065 5.32294 -0.567601
0.612065 5.32794 -0.568601
0.594065 5.31694 -0.566601
0.560065 5.31794 -0.566601
0.535065 5.31694 -0.565601
0.517065 5.30694 -0.564601
4.53407 5.98594 -0.906601
4.51107 5.97494 -0.902601
4.44807 5.96894 -0.896601
4.41407 5.96294 -0.893601
4.35007 5.95294 -0.886601
4.31707 5.94794 -0.882601
4.26707 5.93694 -0.877601
4.23407 5.92994 -0.873601
4.09807 5.91394 -0.860601
3.97507 5.89294 -0.847601
3.89807 5.87694 -0.839601
3.84107 5.86994 -0.834601
3.81007 5.86394 -0.830601
3.75307 5.85594 -0.825601
3.72507 5.85294 -0.822601
3.70807 5.84494 -0.820601
3.67507 5.83294 -0.816601
3.65307 5.83994 -0.815601
3.59507 5.82694 -0.809601
3.53807 5.81594 -0.803601
3.52607 5.81794 -0.803601
3.49707 5.80994 -0.799601
3.46807 5.80294 -0.796601
3.43707 5.79294 -0.793601
3.41707 5.79994 -0.792601
3.39007 5.79594 -0.790601
3.36307 5.79094 -0.787601
3.35007 5.78894 -0.786601
3.32007 5.77894 -0.782601
3.26507 5.76694 -0.777601
3.24207 5.76894 -0.775601
3.21207 5.75594 -0.772601
3.19207 5.76294 -0.771601
3.16607 5.75894 -0.769601
2.98707 5.72694 -0.752601
2.82907 5.70494 -0.739601
2.75507 5.68894 -0.732601
2.72707 5.67594 -0.729601
2.70607 5.67894 -0.728601
2.68407 5.67794 -0.726601
2.67207 5.67494 -0.725601
2.64907 5.67294 -0.723601
2.62507 5.66694 -0.721601
2.49807 5.64594 -0.711601
2.47207 5.63594 -0.708601
2.45307 5.63994 -0.707601
2.22107 5.60294 -0.689601
2.21107 5.60294 -0.689601
2.16607 5.59294 -0.685601
1.93407 5.55594 -0.668601
1.65107 5.50994 -0.649601
1.54107 5.48494 -0.641601
0.602065 5.33694 -0.593601
4.53707 5.97694 -0.959601
4.47207 5.96894 -0.952601
4.41807 5.95494 -0.945601
4.39007 5.95594 -0.943601
4.35407 5.94594 -0.938601
4.32707 5.94794 -0.936601
4.28807 5.93494 -0.931601
4.25907 5.93394 -0.928601
4.22807 5.92894 -0.925601
4.20707 5.91994 -0.922601
4.14907 5.91694 -0.917601
4.12107 5.91694 -0.914601
4.08207 5.90094 -0.909601
4.05807 5.90594 -0.907601
4.02707 5.90094 -0.904601
4.00807 5.89194 -0.901601
3.98207 5.89294 -0.899601
3.94207 5.87494 -0.893601
3.88807 5.87294 -0.888601
3.82707 5.86094 -0.882601
3.77707 5.84594 -0.876601
3.75207 5.84594 -0.873601
3.72607 5.84594 -0.871601
3.69807 5.84294 -0.869601
3.66607 5.83294 -0.865601
3.64407 5.83894 -0.864601
3.62507 5.82994 -0.861601
3.59407 5.81894 -0.857601
3.56707 5.81694 -0.855601
3.54007 5.81494 -0.852601
3.51207 5.80894 -0.849601
3.48307 5.80294 -0.846601
3.45807 5.80194 -0.844601
3.43307 5.80094 -0.842601
3.41207 5.78794 -0.839601
3.39107 5.79294 -0.838601
3.36407 5.78894 -0.835601
3.33507 5.77994 -0.832601
3.31407 5.78594 -0.831601
3.28507 5.77694 -0.827601
3.25607 5.76894 -0.824601
3.23907 5.75994 -0.822601
3.21407 5.75794 -0.820601
3.18907 5.75594 -0.817601
3.15807 5.74394 -0.814601
3.13907 5.75194 -0.813601
3.11607 5.75094 -0.811601
3.08607 5.73994 -0.808601
3.07307 5.73794 -0.807601
3.05107 5.73894 -0.805601
3.02707 5.73794 -0.803601
2.99607 5.72294 -0.799601
2.94707 5.71694 -0.795601
2.92407 5.71594 -0.793601
2.90707 5.70494 -0.790601
2.86407 5.70894 -0.788601
2.83607 5.69794 -0.784601
2.78707 5.68894 -0.780601
2.76407 5.68694 -0.778601
2.75007 5.68094 -0.776601
2.72807 5.68294 -0.775601
2.69907 5.66794 -0.771601
2.65707 5.67094 -0.769601
2.63407 5.66794 -0.767601
2.61007 5.66394 -0.765601
2.59607 5.65494 -0.763601
2.57507 5.65794 -0.762601
2.55307 5.65494 -0.760601
2.52807 5.64694 -0.757601
2.50707 5.64794 -0.756601
2.48407 5.64494 -0.754601
2.46107 5.63994 -0.752601
2.44007 5.63994 -0.751601
2.42507 5.62994 -0.748601
2.40507 5.63394 -0.748601
2.38107 5.62494 -0.745601
2.36107 5.62694 -0.744601
2.31307 5.61194 -0.739601
2.28107 5.60894 -0.737601
2.25507 5.59794 -0.734601
2.19407 5.59594 -0.730601
2.17107 5.58994 -0.728601
2.13607 5.57894 -0.724601
2.11507 5.57594 -0.723601
2.09707 5.58094 -0.723601
2.07707 5.57994 -0.721601
2.05607 5.57694 -0.720601
2.03507 5.57394 -0.718601
2.01107 5.56394 -0.716601
2.00107 5.56294 -0.715601
1.98207 5.56594 -0.714601
1.95907 5.55494 -0.712601
1.93907 5.55394 -0.711601
1.91907 5.55494 -0.710601
1.89507 5.54194 -0.707601
1.86607 5.54294 -0.705601
1.84307 5.52994 -0.702601
1.82507 5.53394 -0.702601
1.78407 5.52694 -0.699601
1.76607 5.52994 -0.699601
1.74407 5.52294 -0.697601
1.73107 5.50994 -0.694601
1.71407 5.51794 -0.694601
1.69407 5.51594 -0.693601
1.67207 5.50594 -0.691601
1.65207 5.50194 -0.689601
1.63407 5.50494 -0.689601
1.61207 5.49494 -0.687601
1.59407 5.49594 -0.686601
1.58307 5.48894 -0.684601
1.56207 5.48294 -0.683601
1.54407 5.48394 -0.682601
1.52407 5.48094 -0.681601
1.50307 5.47194 -0.679601
1.48507 5.47094 -0.678601
1.46607 5.47194 -0.677601
1.45407 5.45894 -0.675601
1.43507 5.45794 -0.674601
1.41807 5.46194 -0.674601
1.39707 5.45194 -0.671601
1.37907 5.45394 -0.671601
1.36307 5.46194 -0.672601
1.34107 5.44694 -0.669601
1.33307 5.45094 -0.669601
1.31407 5.44994 -0.668601
1.29207 5.43494 -0.665601
1.27507 5.43694 -0.665601
1.25507 5.43094 -0.663601
1.23607 5.42494 -0.662601
1.21807 5.42294 -0.661601
1.21107 5.43094 -0.662601
1.19007 5.42094 -0.660601
1.17207 5.41894 -0.659601
1.15407 5.41894 -0.658601
1.13407 5.40894 -0.656601
1.11607 5.40494 -0.655601
1.09707 5.40094 -0.654601
1.07007 5.39594 -0.652601
1.05307 5.39894 -0.652601
1.03407 5.39494 -0.651601
1.01607 5.38994 -0.650601
0.999065 5.39394 -0.650601
0.979065 5.38094 -0.647601
0.972065 5.39194 -0.649601
0.955065 5.39094 -0.648601
0.900065 5.38094 -0.645601
0.882065 5.37394 -0.644601
0.864065 5.36894 -0.642601
0.847065 5.37294 -0.643601
0.838065 5.37094 -0.642601
0.766065 5.34994 -0.637601
0.749065 5.35394 -0.638601
0.732065 5.35194 -0.637601
0.723065 5.35194 -0.637601
0.705065 5.33994 -0.634601
0.687065 5.33394 -0.633601
0.670065 5.33494 -0.633601
0.653065 5.33694 -0.633601
0.635065 5.32894 -0.631601
0.618065 5.32494 -0.631601
0.610065 5.33594 -0.632601
0.593065 5.32994 -0.631601
0.576065 5.33194 -0.631601
4.29007 5.93494 -1.0446
4.26007 5.93194 -1.0416
4.24507 5.93094 -1.0406
4.21807 5.93294 -1.0386
4.15507 5.92194 -1.0306
4.09407 5.91394 -1.0246
4.04407 5.90094 -1.0176
4.01407 5.89694 -1.0146
3.98607 5.89494 -1.0126
3.95907 5.89394 -1.0096
3.85107 5.87294 -0.997601
3.82007 5.86494 -0.993601
3.76307 5.85694 -0.987601
3.73607 5.85494 -0.985601
3.70807 5.85194 -0.982601
3.66007 5.83594 -0.975601
3.63307 5.83394 -0.973601
3.60707 5.83194 -0.970601
3.58007 5.82994 -0.968601
3.55207 5.82594 -0.965601
3.49607 5.81394 -0.959601
3.48307 5.81394 -0.958601
3.45607 5.80994 -0.955601
3.42807 5.80394 -0.952601
3.37507 5.79594 -0.947601
3.34807 5.79294 -0.944601
3.32107 5.78794 -0.941601
3.30407 5.77794 -0.938601
3.28007 5.77794 -0.937601
3.25407 5.77394 -0.934601
3.22707 5.76894 -0.931601
3.20307 5.76894 -0.929601
3.13707 5.75494 -0.922601
3.11107 5.74994 -0.920601
3.06107 5.74294 -0.915601
1.38707 5.46894 -0.777601
0.988065 5.40294 -0.754601
0.970065 5.39594 -0.752601
0.934065 5.39194 -0.750601
0.819065 5.37494 -0.745601
0.783065 5.36794 -0.743601
0.757065 5.36194 -0.741601
0.739065 5.35994 -0.741601
0.687065 5.35294 -0.739601
0.660065 5.34494 -0.737601
0.643065 5.34294 -0.736601
0.626065 5.34294 -0.736601
0.609065 5.33894 -0.735601
0.591065 5.33494 -0.734601
0.557065 5.33294 -0.733601
3.10107 5.74994 -1.0416
3.07507 5.74494 -1.0386
3.05307 5.74594 -1.0376
3.04107 5.74594 -1.0366
3.01507 5.73994 -1.0326
2.99107 5.73894 -1.0306
2.96807 5.73794 -1.0286
2.94607 5.73994 -1.0276
2.91907 5.73094 -1.0236
2.89807 5.73394 -1.0226
2.86007 5.72594 -1.0186
2.83507 5.72094 -1.0156
2.81107 5.71694 -1.0136
2.79007 5.71894 -1.0116
2.76607 5.71494 -1.0096
2.70107 5.69394 -1.0006
2.67807 5.69194 -0.998601
2.63507 5.69194 -0.995601
2.61207 5.68994 -0.993601
2.56307 5.67694 -0.987601
2.55207 5.67594 -0.986601
2.50507 5.66494 -0.981601
2.48407 5.66694 -0.980601
2.43707 5.65594 -0.975601
2.41707 5.65794 -0.974601
2.40607 5.65594 -0.973601
2.38207 5.64894 -0.970601
2.31507 5.63694 -0.963601
2.29307 5.63294 -0.961601
2.27307 5.63594 -0.960601
2.25607 5.61794 -0.956601
2.23607 5.61994 -0.955601
2.21707 5.62294 -0.955601
2.19207 5.61194 -0.951601
2.17007 5.60694 -0.949601
2.12707 5.59894 -0.945601
2.11507 5.59494 -0.943601
2.09707 5.59894 -0.943601
2.07407 5.59094 -0.940601
2.05307 5.58794 -0.938601
2.03607 5.59694 -0.939601
2.01207 5.58494 -0.935601
1.99007 5.57994 -0.933601
1.97107 5.57994 -0.932601
1.95907 5.57394 -0.930601
1.93807 5.56894 -0.928601
1.92107 5.57694 -0.929601
1.89807 5.56594 -0.926601
1.87807 5.56694 -0.924601
1.85807 5.56494 -0.923601
1.83407 5.54994 -0.919601
1.82307 5.54694 -0.918601
1.80807 5.56094 -0.920601
1.78507 5.54694 -0.916601
1.76507 5.54594 -0.915601
1.74407 5.53994 -0.913601
1.72307 5.53194 -0.910601
1.70407 5.53194 -0.909601
1.69507 5.53394 -0.909601
1.67407 5.52694 -0.907601
1.65207 5.51694 -0.904601
1.63707 5.52894 -0.905601
1.61407 5.51694 -0.902601
1.59407 5.51094 -0.900601
1.57607 5.51394 -0.900601
1.56407 5.50494 -0.898601
1.54607 5.50594 -0.897601
1.52607 5.50394 -0.895601
1.50607 5.49494 -0.893601
1.48707 5.49594 -0.892601
1.47107 5.50294 -0.893601
1.45107 5.49794 -0.891601
1.44007 5.48994 -0.889601
1.42107 5.48894 -0.888601
1.40007 5.47994 -0.886601
1.38207 5.48094 -0.885601
1.36407 5.48094 -0.884601
1.34407 5.47394 -0.882601
1.32607 5.47394 -0.881601
1.31607 5.47094 -0.880601
1.29607 5.46094 -0.878601
1.27907 5.46894 -0.879601
1.26007 5.46594 -0.877601
1.23907 5.44994 -0.874601
1.22107 5.44994 -0.873601
1.20407 5.45194 -0.873601
1.18407 5.44594 -0.871601
1.17507 5.44194 -0.870601
1.15707 5.44394 -0.870601
1.13807 5.43994 -0.868601
1.11907 5.43194 -0.866601
1.10307 5.43894 -0.867601
1.06407 5.42294 -0.863601
1.05607 5.42794 -0.863601
1.03707 5.41994 -0.861601
1.02007 5.42294 -0.861601
1.00007 5.41294 -0.859601
0.983065 5.41594 -0.859601
0.965065 5.40894 -0.857601
0.947065 5.40694 -0.856601
0.920065 5.40294 -0.855601
0.901065 5.39594 -0.853601
0.883065 5.39094 -0.851601
0.866065 5.38994 -0.851601
0.848065 5.38894 -0.850601
0.831065 5.38794 -0.849601
0.821065 5.37894 -0.848601
0.805065 5.38794 -0.849601
0.785065 5.37294 -0.845601
0.751065 5.37594 -0.845601
0.733065 5.36994 -0.844601
0.716065 5.36694 -0.843601
0.698065 5.36494 -0.842601
0.690065 5.36794 -0.842601
0.672065 5.35794 -0.840601
0.654065 5.35494 -0.839601
0.638065 5.35694 -0.839601
0.620065 5.35494 -0.838601
0.602065 5.34294 -0.836601
0.585065 5.34694 -0.836601
0.576065 5.33994 -0.835601
0.560065 5.34294 -0.835601
0.542065 5.33494 -0.834601
1.57007 5.47594 -1.0526
1.55107 5.47294 -1.0516
3.51307 5.77394 -1.3346
3.41807 5.75794 -1.3216
3.39107 5.75394 -1.3176
2.84707 5.67194 -1.2466
2.58707 5.62994 -1.2136
2.56407 5.62694 -1.2116
2.54207 5.62594 -1.2096
2.47207 5.61094 -1.1996
2.44007 5.60994 -1.1976
2.41807 5.60594 -1.1946
2.39707 5.60494 -1.1926
2.37107 5.59294 -1.1876
2.35007 5.59294 -1.1866
2.32807 5.58894 -1.1836
2.31607 5.58394 -1.1816
2.27307 5.57994 -1.1776
2.25107 5.57494 -1.1746
2.22907 5.57094 -1.1716
2.21007 5.57594 -1.1716
2.18707 5.56794 -1.1686
2.15307 5.55794 -1.1636
2.13507 5.56294 -1.1636
2.09107 5.55094 -1.1576
2.07007 5.54794 -1.1556
2.05107 5.55094 -1.1546
2.01907 5.54394 -1.1506
1.99807 5.53894 -1.1476
1.95607 5.53194 -1.1436
1.93407 5.52694 -1.1406
1.89407 5.52194 -1.1376
1.88107 5.51194 -1.1346
1.84107 5.50894 -1.1306
1.78207 5.50194 -1.1256
1.76307 5.50194 -1.1246
1.72907 5.48394 -1.1186
1.71207 5.49094 -1.1186
1.69307 5.49294 -1.1176
1.67307 5.48694 -1.1156
1.65307 5.48294 -1.1136
1.62307 5.47694 -1.1106
1.60507 5.47794 -1.1096
1.56607 5.47094 -1.1056
1.50807 5.46294 -1.1006
1.49607 5.45194 -1.0976
1.45607 5.44294 -1.0936
1.43707 5.43794 -1.0916
1.42207 5.44994 -1.0926
1.39807 5.42994 -1.0876
1.35207 5.42494 -1.0846
1.33407 5.42794 -1.0836
1.29707 5.42094 -1.0806
1.28007 5.42694 -1.0806
1.24307 5.41894 -1.0776
1.23107 5.40794 -1.0746
1.19307 5.39494 -1.0696
1.17607 5.39994 -1.0706
1.15907 5.40394 -1.0706
3.54407 5.76694 -1.3926
3.41707 5.74294 -1.3736
3.39207 5.74194 -1.3706
3.36707 5.73994 -1.3676
3.32407 5.72794 -1.3596
3.27207 5.72094 -1.3526
3.24707 5.71994 -1.3496
3.15307 5.69894 -1.3356
3.12807 5.69694 -1.3326
3.07907 5.69194 -1.3266
2.99307 5.68294 -1.3156
2.83207 5.65394 -1.2936
2.65507 5.62894 -1.2716
2.60907 5.62294 -1.2656
2.51907 5.61194 -1.2556
2.48007 5.59694 -1.2486
2.45807 5.59494 -1.2456
2.43907 5.59894 -1.2456
2.41607 5.59394 -1.2416
2.39307 5.59094 -1.2396
2.35807 5.57994 -1.2346
2.33307 5.57094 -1.2306
2.29407 5.57494 -1.2276
2.22907 5.56794 -1.2206
2.21607 5.55994 -1.2186
2.17307 5.55394 -1.2136
2.15207 5.54994 -1.2106
2.10807 5.54194 -1.2056
2.08907 5.54494 -1.2046
2.07907 5.54394 -1.2036
2.03407 5.52994 -1.1976
1.99007 5.51694 -1.1916
1.97107 5.51694 -1.1896
1.93907 5.51194 -1.1866
1.92007 5.51194 -1.1846
1.90207 5.51494 -1.1846
1.88007 5.50994 -1.1816
1.85707 5.49894 -1.1776
1.84007 5.50494 -1.1776
1.81807 5.49794 -1.1746
1.80607 5.48894 -1.1716
1.78907 5.49494 -1.1716
1.74807 5.48694 -1.1676
1.73007 5.48894 -1.1666
1.70807 5.48194 -1.1636
1.68607 5.46994 -1.1596
1.65607 5.46294 -1.1566
1.63607 5.46094 -1.1546
1.59907 5.46194 -1.1526
1.58007 5.45894 -1.1506
1.56207 5.46194 -1.1506
1.54107 5.45394 -1.1476
1.52807 5.44094 -1.1436
1.49207 5.44294 -1.1416
1.47307 5.44194 -1.1406
1.45407 5.44094 -1.1396
1.43607 5.43994 -1.1386
1.41507 5.43094 -1.1346
1.40707 5.43594 -1.1356
1.38607 5.42294 -1.1316
1.36907 5.42694 -1.1316
1.33007 5.41894 -1.1276
1.31007 5.40794 -1.1246
1.28307 5.40794 -1.1226
1.26407 5.40494 -1.1216
1.24707 5.40794 -1.1216
1.20907 5.40094 -1.1176
1.17207 5.39294 -1.1146
1.16407 5.39494 -1.1146
1.14507 5.39094 -1.1126
1.10807 5.38294 -1.1086
1.07207 5.38194 -1.1076
1.04407 5.37394 -1.1046
1.00807 5.36494 -1.1006
0.991065 5.36794 -1.1006
0.972065 5.36294 -1.0986
0.893065 5.35294 -1.0936
0.854065 5.32994 -1.0876
0.820065 5.33094 -1.0866
0.794065 5.32894 -1.0846
0.759065 5.32694 -1.0836
0.723065 5.31394 -1.0796
0.690065 5.31994 -1.0796
0.681065 5.31594 -1.0786
0.664065 5.31194 -1.0776
0.647065 5.31194 -1.0766
0.630065 5.30994 -1.0756
2.70007 5.61294 -1.3276
2.64207 5.60394 -1.3196
2.57107 5.58894 -1.3096
2.82907 5.60994 -1.4576
2.65007 5.57594 -1.4306
2.50307 5.55494 -1.4096
2.21807 5.51194 -1.3716
2.16507 5.50494 -1.3656
2.05007 5.48894 -1.3516
2.02807 5.48294 -1.3486
1.98707 5.47694 -1.3436
0.960065 5.31394 -1.2366
0.926065 5.31194 -1.2346
0.811065 5.29094 -1.2246
2.68807 5.57994 -1.4986
2.66607 5.57994 -1.4966
2.64107 5.57194 -1.4916
2.61807 5.56994 -1.4886
2.57407 5.56694 -1.4836
2.55807 5.55494 -1.4786
2.53607 5.55294 -1.4756
2.51607 5.55494 -1.4736
2.49207 5.54894 -1.4696
2.47007 5.54594 -1.4666
2.45007 5.54894 -1.4656
2.40507 5.54094 -1.4586
2.39207 5.53394 -1.4556
2.36707 5.52394 -1.4506
2.34907 5.53094 -1.4506
2.32307 5.51894 -1.4456
2.30407 5.52094 -1.4436
2.28307 5.52094 -1.4416
2.26207 5.51794 -1.4386
2.24607 5.50494 -1.4346
2.22907 5.51194 -1.4346
2.20707 5.50794 -1.4316
2.18807 5.50994 -1.4296
2.12507 5.50094 -1.4216
2.11007 5.48794 -1.4166
2.09007 5.48994 -1.4156
2.07007 5.48694 -1.4126
2.04907 5.48394 -1.4106
2.02907 5.48394 -1.4086
2.00607 5.47494 -1.4046
1.98807 5.47794 -1.4036
1.97607 5.47394 -1.4016
1.95507 5.46894 -1.3986
1.91607 5.46894 -1.3946
1.89507 5.46394 -1.3916
1.87407 5.45894 -1.3886
1.84207 5.44894 -1.3836
1.80607 5.45294 -1.3816
1.76507 5.44394 -1.3766
1.74407 5.43894 -1.3736
1.72607 5.43994 -1.3726
1.71207 5.42794 -1.3686
1.69407 5.42794 -1.3666
1.67507 5.42794 -1.3656
1.65407 5.41994 -1.3616
1.63507 5.42194 -1.3606
1.59607 5.41294 -1.3556
1.56807 5.41294 -1.3536
1.54807 5.40694 -1.3506
1.52907 5.40494 -1.3486
1.51007 5.40394 -1.3466
1.49107 5.40094 -1.3446
1.47207 5.39794 -1.3426
1.44007 5.38094 -1.3366
1.38507 5.37894 -1.3326
1.36607 5.37594 -1.3306
1.34907 5.37994 -1.3306
1.32807 5.36594 -1.3256
1.32007 5.36994 -1.3256
1.30307 5.37194 -1.3256
1.28207 5.35894 -1.3206
1.26407 5.35894 -1.3196
1.22607 5.34994 -1.3156
1.20807 5.34794 -1.3136
1.20007 5.34994 -1.3136
1.18107 5.34494 -1.3116
1.16307 5.34294 -1.3096
1.14507 5.34194 -1.3086
1.12707 5.33794 -1.3066
1.10707 5.33094 -1.3036
1.09207 5.33994 -1.3056
1.07907 5.32094 -1.2996
1.06307 5.32794 -1.3006
1.04607 5.32894 -1.3006
1.02607 5.31494 -1.2956
1.00807 5.31494 -1.2946
0.992065 5.31794 -1.2946
0.973065 5.30794 -1.2906
0.966065 5.32094 -1.2936
0.949065 5.31794 -1.2926
0.929065 5.30594 -1.2886
0.912065 5.30494 -1.2876
0.894065 5.30194 -1.2856
0.876065 5.29894 -1.2846
0.859065 5.29794 -1.2836
0.842065 5.29794 -1.2826
0.832065 5.28794 -1.2796
0.815065 5.28894 -1.2796
0.798065 5.28794 -1.2786
0.779065 5.27694 -1.2746
0.762065 5.27694 -1.2746
0.746065 5.28394 -1.2756
0.727065 5.26694 -1.2706
0.719065 5.27194 -1.2716
0.702065 5.27194 -1.2706
0.685065 5.26494 -1.2686
0.667065 5.26094 -1.2666
0.651065 5.26894 -1.2686
0.632065 5.24994 -1.2626
0.617065 5.26294 -1.2656
0.607065 5.24894 -1.2616
0.590065 5.24294 -1.2596
1.98007 5.44994 -1.5116
1.95907 5.44494 -1.5086
1.93807 5.44094 -1.5056
1.91907 5.43994 -1.5026
1.90807 5.43694 -1.5016
1.88607 5.42894 -1.4966
1.86807 5.43294 -1.4966
1.84507 5.42194 -1.4916
1.82607 5.42094 -1.4896
1.80507 5.41494 -1.4866
1.78807 5.42094 -1.4866
1.77607 5.41294 -1.4826
1.75807 5.41494 -1.4816
1.73707 5.40894 -1.4786
1.72007 5.41294 -1.4786
1.69707 5.40194 -1.4736
1.65807 5.39394 -1.4676
1.64707 5.39094 -1.4666
1.62807 5.38894 -1.4646
1.60907 5.38594 -1.4616
1.59107 5.38794 -1.4606
1.57207 5.38694 -1.4596
1.55207 5.38094 -1.4556
1.53207 5.37494 -1.4526
1.51607 5.38094 -1.4536
1.50407 5.37294 -1.4496
1.48307 5.36094 -1.4456
1.46407 5.35794 -1.4426
1.44507 5.35494 -1.4406
1.42607 5.35194 -1.4386
1.40807 5.35094 -1.4376
1.38907 5.34994 -1.4356
1.38107 5.35194 -1.4356
1.36107 5.34294 -1.4316
1.34307 5.34394 -1.4306
1.32507 5.34194 -1.4286
1.30507 5.33494 -1.4256
1.28807 5.33794 -1.4256
1.26707 5.32694 -1.4206
1.26007 5.32994 -1.4216
1.24207 5.33094 -1.4206
1.22407 5.33094 -1.4196
1.20507 5.32294 -1.4156
1.18607 5.31794 -1.4136
1.16807 5.31394 -1.4116
1.15107 5.31694 -1.4116
1.12307 5.30994 -1.4076
1.10407 5.30394 -1.4046
1.08607 5.29794 -1.4016
1.06907 5.29894 -1.4016
1.05307 5.30594 -1.4026
1.03207 5.29094 -1.3976
1.02407 5.29394 -1.3976
1.00707 5.29194 -1.3966
0.987065 5.28194 -1.3926
0.970065 5.28094 -1.3916
0.952065 5.27794 -1.3896
0.918065 5.27694 -1.3876
0.908065 5.26894 -1.3846
0.891065 5.26994 -1.3846
0.857065 5.26894 -1.3826
0.839065 5.26194 -1.3796
0.822065 5.26294 -1.3796
0.804065 5.25794 -1.3776
0.787065 5.25894 -1.3766
0.779065 5.25594 -1.3756
0.761065 5.25294 -1.3736
0.743065 5.24194 -1.3706
0.727065 5.24994 -1.3716
0.709065 5.24094 -1.3686
0.692065 5.24094 -1.3676
0.676065 5.24294 -1.3676
0.667065 5.23694 -1.3656
0.650065 5.23894 -1.3656
0.633065 5.23494 -1.3646
0.617065 5.23694 -1.3646
0.598065 5.22494 -1.3606
0.582065 5.22494 -1.3596
1.35607 5.34394 -1.4856
1.27207 5.32694 -1.4756
1.25507 5.32894 -1.4746
1.20007 5.31794 -1.4686
1.16407 5.31594 -1.4656
1.15407 5.30894 -1.4626
1.09807 5.28894 -1.4536
1.08307 5.29994 -1.4556
1.06407 5.29394 -1.4536
1.04507 5.28594 -1.4496
1.03707 5.28994 -1.4506
1.02007 5.29094 -1.4496
0.984065 5.27794 -1.4446
0.966065 5.27394 -1.4416
0.948065 5.27094 -1.4406
0.930065 5.26694 -1.4386
0.906065 5.27494 -1.4396
0.889065 5.27194 -1.4376
0.870065 5.26094 -1.4336
0.852065 5.25594 -1.4316
0.835065 5.25694 -1.4306
0.809065 5.25194 -1.4276
0.792065 5.24994 -1.4266
0.775065 5.25094 -1.4266
0.757065 5.23994 -1.4226
0.706065 5.23494 -1.4196
0.681065 5.23294 -1.4176
0.664065 5.23494 -1.4176
0.646065 5.22394 -1.4136
0.579065 5.22194 -1.4106
0.571065 5.21894 -1.4096
1.61807 5.36694 -1.5526
1.70407 -3.39006 0.144399
0.0540654 -3.64106 0.121399
0.0820654 -3.63606 0.121399
0.105065 -3.63806 0.121399
0.117065 -3.63906 0.121399
0.128065 -3.63506 0.121399
0.134065 -3.63706 0.121399
0.213065 -3.61906 0.121399
0.230065 -3.62006 0.121399
0.241065 -3.60906 0.121399
0.253065 -3.61606 0.121399
0.264065 -3.61506 0.121399
0.276065 -3.61706 0.121399
0.286065 -3.60206 0.121399
0.293065 -3.61506 0.121399
0.314065 -3.59906 0.121399
0.326065 -3.60406 0.121399
0.338065 -3.60506 0.121399
0.360065 -3.60306 0.121399
0.377065 -3.59506 0.121399
0.388065 -3.59206 0.121399
0.399065 -3.59506 0.121399
0.421065 -3.58606 0.121399
0.439065 -3.58806 0.121399
0.450065 -3.58706 0.121399
0.461065 -3.58406 0.121399
0.484065 -3.58906 0.121399
0.500065 -3.57806 0.121399
0.511065 -3.57306 0.121399
0.522065 -3.56706 0.122399
0.546065 -3.57606 0.121399
0.567065 -3.56406 0.121399
0.583065 -3.55806 0.122399
0.595065 -3.56006 0.121399
0.607065 -3.56206 0.121399
0.629065 -3.55406 0.121399
0.651065 -3.54806 0.121399
0.669065 -3.55306 0.121399
0.690065 -3.54506 0.121399
0.703065 -3.55206 0.121399
0.713065 -3.54006 0.121399
0.730065 -3.54106 0.121399
0.751065 -3.53206 0.121399
0.763065 -3.53206 0.121399
0.774065 -3.53106 0.121399
0.798065 -3.53206 0.121399
0.803065 -3.52906 0.121399
0.815065 -3.52806 0.121399
0.826065 -3.52806 0.121399
0.837065 -3.52306 0.121399
0.861065 -3.52606 0.121399
0.877065 -3.52106 0.121399
0.887065 -3.51306 0.121399
0.899065 -3.51406 0.121399
0.922065 -3.51406 0.121399
0.943065 -3.50406 0.121399
0.950065 -3.50706 0.121399
0.963065 -3.51106 0.121399
0.974065 -3.50606 0.121399
0.985065 -3.50506 0.121399
0.994065 -3.49606 0.121399
1.00807 -3.50106 0.121399
1.01407 -3.50106 0.121399
1.02407 -3.49606 0.121399
1.03407 -3.48906 0.121399
1.04907 -3.50106 0.120399
1.06907 -3.48506 0.121399
1.08007 -3.48306 0.121399
1.09407 -3.49006 0.120399
1.11307 -3.49206 0.120399
1.13207 -3.47706 0.120399
1.14507 -3.48006 0.120399
1.15507 -3.47406 0.120399
1.17407 -3.47606 0.120399
1.19907 -3.47606 0.120399
1.22207 -3.47206 0.120399
1.23307 -3.47006 0.120399
1.24707 -3.47606 0.120399
1.24807 -3.46106 0.120399
1.26307 -3.46806 0.120399
1.27107 -3.45706 0.120399
1.28407 -3.45806 0.120399
1.29707 -3.46006 0.120399
1.31107 -3.46306 0.119399
1.31107 -3.44806 0.120399
1.32607 -3.45506 0.120399
1.33707 -3.45106 0.120399
1.35107 -3.45406 0.119399
1.37607 -3.45506 0.119399
1.38307 -3.44106 0.119399
1.39007 -3.44306 0.119399
1.40607 -3.45006 0.119399
1.41607 -3.44306 0.119399
1.42607 -3.43906 0.119399
1.44107 -3.44406 0.119399
1.45007 -3.43406 0.119399
1.47807 -3.44106 0.119399
1.48307 -3.43706 0.119399
1.49307 -3.43006 0.119399
1.50307 -3.42606 0.119399
1.51707 -3.42806 0.118399
1.53007 -3.42706 0.118399
1.54507 -3.43106 0.118399
1.55607 -3.42806 0.118399
1.56107 -3.42406 0.118399
1.58307 -3.41606 0.118399
1.60907 -3.41506 0.118399
1.61907 -3.40806 0.118399
1.62407 -3.40606 0.118399
1.65007 -3.40606 0.118399
1.65907 -3.39706 0.118399
1.67507 -3.40306 0.118399
1.68907 -3.40306 0.117399
1.70307 -3.40506 0.117399
1.70907 -3.40406 0.117399
1.72007 -3.39906 0.117399
1.73007 -3.39306 0.117399
0.156065 -3.63006 0.102399
0.167065 -3.61906 0.102399
0.229065 -3.61006 0.102399
0.700065 -3.54106 0.103399
0.773065 -3.53006 0.103399
0.784065 -3.52706 0.103399
0.801065 -3.52506 0.102399
0.857065 -3.51406 0.102399
0.870065 -3.51906 0.102399
0.886065 -3.51106 0.102399
0.897065 -3.51006 0.102399
0.920065 -3.50706 0.102399
0.932065 -3.51006 0.102399
0.960065 -3.50206 0.102399
0.984065 -3.50206 0.102399
0.996065 -3.50206 0.102399
1.01707 -3.49206 0.102399
1.02907 -3.49306 0.102399
1.03507 -3.49506 0.102399
1.04707 -3.49406 0.102399
1.05807 -3.49206 0.102399
1.08007 -3.48606 0.102399
1.09107 -3.48206 0.102399
1.10807 -3.47706 0.102399
1.12007 -3.47706 0.101399
1.15507 -3.47406 0.101399
1.16507 -3.46906 0.101399
1.17607 -3.48206 0.101399
1.18407 -3.46906 0.101399
1.20807 -3.46906 0.101399
1.22907 -3.45906 0.101399
1.24507 -3.46906 0.101399
1.25507 -3.46306 0.101399
1.25907 -3.45506 0.101399
1.26907 -3.45106 0.101399
1.28607 -3.46206 0.100399
1.29307 -3.44906 0.101399
1.30607 -3.45006 0.101399
1.32007 -3.45406 0.100399
1.33007 -3.44806 0.100399
1.33607 -3.44706 0.100399
1.34907 -3.44706 0.100399
1.35907 -3.44306 0.100399
1.38407 -3.44106 0.100399
1.39307 -3.43306 0.100399
1.40107 -3.43706 0.100399
1.41607 -3.44106 0.100399
1.42607 -3.43506 0.100399
1.43607 -3.42906 0.100399
1.45207 -3.43706 0.0993986
1.46007 -3.42506 0.100399
1.48507 -3.42506 0.0993986
1.49007 -3.42306 0.0993986
1.51407 -3.41906 0.0993986
1.55507 -3.42306 0.0993986
1.56307 -3.41206 0.0993986
1.57007 -3.41306 0.0993986
1.58307 -3.41406 0.0993986
1.59307 -3.40706 0.0993986
1.61107 -3.41606 0.0983986
1.61607 -3.40106 0.0993986
1.63307 -3.40806 0.0983986
1.64807 -3.39906 0.0983986
1.66407 -3.40206 0.0983986
1.67507 -3.39906 0.0983986
1.68807 -3.39906 0.0983986
1.70207 -3.39906 0.0983986
1.71607 -3.40106 0.0973986
1.72007 -3.39406 0.0983986
1.73007 -3.38906 0.0983986
0.870065 -3.51506 0.0803986
0.904065 -3.50806 0.0803986
0.937065 -3.50006 0.0803986
1.31607 -3.44406 0.0783986
1.51807 -3.41406 0.0773986
0.0210654 -3.64506 0.0553986
0.0260654 -3.64706 0.0553986
0.0380654 -3.64506 0.0553986
0.0490654 -3.63706 0.0563986
0.0610654 -3.64206 0.0563986
0.0830654 -3.63606 0.0563986
0.0950654 -3.63606 0.0563986
0.106065 -3.63306 0.0563986
0.112065 -3.63306 0.0563986
0.123065 -3.63906 0.0563986
0.135065 -3.63406 0.0563986
0.157065 -3.63206 0.0563986
0.168065 -3.61706 0.0563986
0.174065 -3.62706 0.0563986
