5.69316 -0.0139635 -1.64778
5.53616 0.0220365 -1.65778
5.53416 0.0390365 -1.65778
5.53817 0.0560365 -1.65878
5.51117 0.0740365 -1.64978
5.53717 0.109036 -1.65878
5.52916 0.126036 -1.65578
5.53516 0.135036 -1.65778
5.52517 0.152036 -1.65478
5.51717 0.169036 -1.65278
5.52617 0.187036 -1.65578
5.53316 0.204036 -1.65778
5.52417 0.221036 -1.65578
5.51817 0.238036 -1.65378
5.52517 0.247036 -1.65578
5.52617 0.265036 -1.65678
5.53117 0.283036 -1.65878
5.51516 0.299036 -1.65378
5.51817 0.317036 -1.65478
5.52316 0.334036 -1.65678
5.51616 0.351036 -1.65478
5.50016 0.359036 -1.64978
5.51017 0.377036 -1.65378
5.51316 0.395036 -1.65478
5.52716 0.413036 -1.65978
5.50617 0.429036 -1.65378
5.51316 0.447036 -1.65578
5.50216 0.463036 -1.65278
5.49016 0.471036 -1.64978
5.50316 0.490036 -1.65478
5.49016 0.506036 -1.65078
5.49416 0.524036 -1.65278
5.49717 0.541036 -1.65378
5.49117 0.558037 -1.65278
5.49516 0.576036 -1.65478
5.49616 0.585036 -1.65478
5.49416 0.602036 -1.65478
5.46816 0.617036 -1.64678
5.48417 0.636036 -1.65278
5.49016 0.654036 -1.65578
5.49217 0.672036 -1.65678
5.49317 0.690036 -1.65778
5.48716 0.697037 -1.65578
5.46916 0.713036 -1.65078
5.49317 0.733036 -1.65978
5.47616 0.749036 -1.65478
5.47616 0.766036 -1.65578
5.46716 0.782036 -1.65378
5.46116 0.799037 -1.65278
5.46716 0.809036 -1.65478
5.45516 0.825036 -1.65178
5.46617 0.844036 -1.65578
5.46716 0.861036 -1.65778
5.46116 0.878036 -1.65578
5.45217 0.894036 -1.65478
5.45917 0.913036 -1.65778
5.45716 0.922036 -1.65778
5.44116 0.936036 -1.65278
5.45317 0.956036 -1.65778
5.45217 0.974036 -1.65878
5.43417 0.988036 -1.65378
5.45516 1.00904 -1.66178
5.44816 1.02604 -1.66078
5.45016 1.03504 -1.66178
5.42717 1.04804 -1.65478
5.44017 1.06904 -1.66078
5.41817 1.08204 -1.65478
5.41116 1.09804 -1.65278
5.43516 1.12104 -1.66178
5.41917 1.13504 -1.65778
5.42416 1.14504 -1.66078
5.43217 1.16504 -1.66378
5.40617 1.17704 -1.65678
5.41716 1.19704 -1.66178
5.41317 1.21404 -1.66178
5.40416 1.23004 -1.65978
5.40617 1.24804 -1.66178
5.39816 1.26404 -1.66078
5.39417 1.27304 -1.65978
5.39417 1.29004 -1.66078
5.38617 1.30604 -1.65978
5.38216 1.32304 -1.65978
5.38316 1.34204 -1.66178
5.37716 1.35804 -1.66078
5.37716 1.36704 -1.66178
5.37116 1.38304 -1.66078
5.37716 1.40304 -1.66478
5.36416 1.41804 -1.66178
5.36717 1.43604 -1.66378
5.36617 1.45404 -1.66478
5.35417 1.46904 -1.66278
5.35217 1.47704 -1.66278
5.35816 1.49704 -1.66678
5.34017 1.51104 -1.66178
5.32617 1.60604 -1.66678
5.29916 1.70804 -1.66778
5.28717 1.75004 -1.66878
5.28017 1.76604 -1.66778
4.71116 3.04704 -1.68178
4.65017 3.15404 -1.68378
4.59117 3.24204 -1.68478
4.55817 3.29504 -1.68578
4.51616 3.35204 -1.68578
4.01017 3.99004 -1.69678
3.98417 3.98904 -1.68978
3.96717 3.99704 -1.68878
3.93317 3.98804 -1.67878
5.36117 -1.24696 -1.64778
5.52417 -0.168964 -1.65478
5.53217 -0.0999635 -1.65678
5.52716 -0.0559635 -1.65478
5.51917 -0.0219635 -1.65278
5.53616 -0.00396351 -1.65778
5.32516 0.00903649 -1.65178
5.32117 0.0260365 -1.65078
5.31616 0.0430365 -1.64878
5.32516 0.0600365 -1.65178
5.32717 0.0760365 -1.65278
5.31317 0.0930365 -1.64778
5.31916 0.101036 -1.64978
5.31616 0.118036 -1.64878
5.30617 0.134036 -1.64578
5.31417 0.151036 -1.64878
5.31916 0.168036 -1.65078
5.31116 0.185036 -1.64778
5.29916 0.201036 -1.64378
5.31417 0.210036 -1.64878
5.30017 0.226036 -1.64478
5.30617 0.243036 -1.64778
5.30817 0.260036 -1.64778
5.30717 0.276036 -1.64778
5.30416 0.293036 -1.64778
5.31417 0.310036 -1.65078
5.30217 0.318036 -1.64778
5.30117 0.334036 -1.64778
5.29816 0.351036 -1.64678
5.30117 0.368036 -1.64778
5.29317 0.401036 -1.64578
5.29016 0.417036 -1.64578
5.28717 0.425036 -1.64478
5.29517 0.443036 -1.64778
5.29016 0.459036 -1.64678
5.29216 0.476036 -1.64778
5.28717 0.492036 -1.64678
5.28017 0.508036 -1.64478
5.29116 0.535037 -1.64878
5.27417 0.566036 -1.64478
5.28217 0.584036 -1.64778
5.27016 0.616036 -1.64578
5.28017 0.634036 -1.64878
5.27316 0.642036 -1.64778
5.26717 0.658036 -1.64578
5.26717 0.675036 -1.64678
5.26717 0.692036 -1.64778
5.26316 0.708036 -1.64678
5.27016 0.726036 -1.64978
5.26416 0.742036 -1.64878
5.26316 0.750036 -1.64878
5.26217 0.767036 -1.64878
5.25517 0.800036 -1.64878
5.25517 0.816036 -1.64878
5.24917 0.849036 -1.64878
5.23916 0.865036 -1.64678
5.24217 0.873037 -1.64778
5.24317 0.891036 -1.64878
5.24317 0.908036 -1.65078
5.23316 0.923036 -1.64778
5.23017 0.939036 -1.64778
5.23816 0.958036 -1.65178
5.23316 0.965036 -1.65078
5.23617 0.983036 -1.65278
5.24616 1.00204 -1.65678
5.22616 1.01504 -1.65078
5.22616 1.03204 -1.65278
5.22117 1.04804 -1.65178
5.21216 1.06304 -1.64978
5.21116 1.07204 -1.64978
5.21617 1.09004 -1.65278
5.21716 1.10704 -1.65378
5.21116 1.12304 -1.65378
5.20416 1.13904 -1.65278
5.20016 1.15504 -1.65278
5.20616 1.17304 -1.65578
5.19916 1.18004 -1.65378
5.19316 1.19604 -1.65278
5.19316 1.21304 -1.65378
5.18217 1.22804 -1.65178
5.17416 1.24304 -1.65078
5.18516 1.26304 -1.65578
5.17916 1.27904 -1.65478
5.16217 1.29204 -1.65078
5.16817 1.30204 -1.65278
5.17316 1.32104 -1.65578
5.15916 1.33404 -1.65278
5.15717 1.35104 -1.65378
5.16217 1.37004 -1.65678
5.15617 1.38504 -1.65578
5.15316 1.40204 -1.65678
5.16016 1.41304 -1.65978
5.13916 1.42404 -1.65378
5.14616 1.44404 -1.65778
5.12816 1.45604 -1.65378
5.12716 1.47304 -1.65478
5.13017 1.49204 -1.65778
5.12816 1.50004 -1.65778
5.12816 1.51704 -1.65878
5.12516 1.53404 -1.65978
5.12616 1.55204 -1.66178
5.11416 1.56604 -1.65878
5.11216 1.58304 -1.66078
5.10616 1.59804 -1.65978
5.11017 1.60904 -1.66278
5.10217 1.62304 -1.66078
5.10917 1.64404 -1.66578
5.09717 1.65704 -1.66278
5.09216 1.67304 -1.66278
5.09017 1.69004 -1.66478
5.07916 1.70504 -1.66278
5.07617 1.72104 -1.66278
5.07516 1.73004 -1.66378
5.05516 1.74104 -1.65878
5.06216 1.76104 -1.66278
5.07217 1.78304 -1.66878
5.04716 1.79104 -1.66178
5.03616 1.80504 -1.65978
5.04317 1.82604 -1.66478
5.03316 1.83104 -1.66178
5.02216 1.84504 -1.65978
5.02517 1.86404 -1.66278
5.00816 1.87604 -1.65878
5.01717 1.89704 -1.66478
5.02316 1.91704 -1.66878
4.98916 1.92204 -1.65878
5.00916 1.93904 -1.66678
4.99416 1.95104 -1.66378
4.98417 1.96604 -1.66278
4.99717 1.98904 -1.66978
4.98216 2.00104 -1.66578
4.96716 2.01304 -1.66278
4.96617 2.03104 -1.66478
4.96816 2.04104 -1.66678
4.95616 2.05404 -1.66478
4.94517 2.06804 -1.66278
4.95016 2.08804 -1.66778
4.94717 2.10504 -1.66878
4.93516 2.11904 -1.66678
4.94216 2.13104 -1.67078
4.93417 2.14604 -1.66978
4.91317 2.15504 -1.66478
4.92717 2.18004 -1.67278
4.90517 2.18804 -1.66678
4.89116 2.20004 -1.66478
4.90017 2.22304 -1.66978
4.89417 2.23004 -1.66978
4.89116 2.24704 -1.67078
4.87716 2.25904 -1.66778
4.86817 2.27304 -1.66778
4.86316 2.29004 -1.66778
4.87116 2.31204 -1.67378
4.84817 2.32004 -1.66778
4.83917 2.33404 -1.66778
4.85217 2.35004 -1.67378
4.84717 2.36604 -1.67478
4.82916 2.37704 -1.67078
4.80416 2.40204 -1.66678
4.81716 2.42704 -1.67478
4.81216 2.44404 -1.67578
4.80717 2.45104 -1.67478
4.79116 2.46104 -1.67178
4.80017 2.48504 -1.67778
4.79216 2.50004 -1.67778
4.78217 2.51404 -1.67778
4.76516 2.54404 -1.67678
4.76917 2.55604 -1.67978
4.73617 2.57604 -1.67378
4.74516 2.60004 -1.67978
4.73316 2.61304 -1.67878
4.71017 2.62004 -1.67278
4.72317 2.63704 -1.67978
4.70416 2.64604 -1.67578
4.69816 2.66204 -1.67578
4.69116 2.67704 -1.67678
4.66917 2.68404 -1.67178
4.66716 2.70304 -1.67478
4.65617 2.71604 -1.67278
4.64716 2.72004 -1.67078
4.64317 2.73704 -1.67278
4.64116 2.75604 -1.67578
4.61316 2.75904 -1.66778
4.61017 2.77704 -1.67078
4.60616 2.79504 -1.67278
4.58616 2.80204 -1.66778
4.58417 2.81004 -1.66878
4.57316 2.82404 -1.66778
4.55917 2.83504 -1.66578
4.56616 2.85904 -1.67278
4.54517 2.86604 -1.66778
4.53316 2.89804 -1.66978
4.51717 2.90804 -1.66778
4.51117 2.91404 -1.66678
4.51217 2.93504 -1.67078
4.49917 2.94704 -1.66978
4.47917 2.97404 -1.66878
4.46816 2.98704 -1.66778
4.45217 3.00704 -1.66778
4.44316 3.02104 -1.66778
4.42416 3.04904 -1.66778
4.41616 3.06404 -1.66778
4.39816 3.09304 -1.66878
4.39317 3.09904 -1.66878
4.37816 3.13004 -1.67078
4.37016 3.14504 -1.67078
4.34916 3.17104 -1.67078
4.34017 3.18604 -1.67078
4.32017 3.20304 -1.66978
4.31816 3.22304 -1.67278
4.29816 3.25004 -1.67278
4.29216 3.26704 -1.67478
4.28117 3.26904 -1.67178
4.27517 3.28604 -1.67378
4.26817 3.30104 -1.67478
4.25417 3.31204 -1.67378
4.25617 3.33504 -1.67878
4.23316 3.33904 -1.67378
4.22717 3.35604 -1.67578
4.22317 3.36404 -1.67578
4.21617 3.37904 -1.67778
4.20716 3.39404 -1.67778
4.19617 3.40704 -1.67778
4.17916 3.41504 -1.67578
4.19116 3.44704 -1.68478
4.17717 3.45704 -1.68378
4.16616 3.47004 -1.68378
4.15316 3.47104 -1.68078
4.14816 3.48904 -1.68278
4.13017 3.49604 -1.67978
4.13017 3.51804 -1.68478
4.10816 3.52204 -1.67978
4.11316 3.54804 -1.68678
4.10317 3.56204 -1.68778
4.08616 3.55904 -1.68278
4.08317 3.57904 -1.68678
4.08016 3.59904 -1.68978
4.06517 3.60804 -1.68778
4.05817 3.62504 -1.68978
4.05717 3.64804 -1.69478
4.04317 3.65804 -1.69378
4.03217 3.65904 -1.69178
4.00716 3.68304 -1.69078
4.00617 3.70504 -1.69478
3.98217 3.73004 -1.69478
3.85917 3.87404 -1.69878
3.80817 3.90704 -1.69478
3.79617 3.91904 -1.69478
3.77317 3.92004 -1.68978
5.17416 -1.26696 -1.65278
5.18016 -1.25096 -1.65278
5.20616 -1.22296 -1.65878
5.20616 -1.20596 -1.65778
5.21216 -1.19796 -1.65878
5.24717 -1.02496 -1.65878
5.25517 -0.992963 -1.65878
5.27916 -0.843964 -1.65878
5.28416 -0.775964 -1.65678
5.29517 -0.751963 -1.65878
5.29616 -0.701964 -1.65778
5.30617 -0.668964 -1.65878
5.30717 -0.660964 -1.65878
5.30717 -0.643964 -1.65878
5.31116 -0.626963 -1.65878
5.30717 -0.609964 -1.65778
5.31116 -0.593964 -1.65778
5.30516 -0.575963 -1.65578
5.30717 -0.559964 -1.65578
5.31816 -0.551964 -1.65878
5.31916 -0.534964 -1.65878
5.31116 -0.517964 -1.65578
5.30917 -0.500964 -1.65378
5.31616 -0.484964 -1.65578
5.31216 -0.466964 -1.65378
5.31417 -0.450964 -1.65378
5.32017 -0.442964 -1.65578
5.32017 -0.425964 -1.65578
5.31916 -0.408964 -1.65478
5.33216 -0.392964 -1.65878
5.32017 -0.375964 -1.65378
5.32817 -0.358964 -1.65678
5.31417 -0.341964 -1.65178
5.31116 -0.332964 -1.65078
5.32516 -0.316964 -1.65478
5.32217 -0.299964 -1.65378
5.32516 -0.283964 -1.65378
5.31916 -0.266964 -1.65178
5.33317 -0.249964 -1.65578
5.32416 -0.232964 -1.65278
5.33417 -0.224964 -1.65578
5.32916 -0.207964 -1.65378
5.32017 -0.190964 -1.65078
5.31716 -0.173964 -1.64978
5.32117 -0.157964 -1.65078
5.32316 -0.140964 -1.65178
5.31417 -0.123964 -1.64878
5.32416 -0.115964 -1.65178
5.31517 -0.0989635 -1.64878
5.32717 -0.0829635 -1.65278
5.32717 -0.0659635 -1.65278
5.31417 -0.0489635 -1.64778
5.31816 -0.0319635 -1.64878
5.32516 -0.0159635 -1.65178
5.32117 -0.00696351 -1.65078
5.19316 0.00603649 -1.65578
5.19416 0.0220365 -1.65678
5.19416 0.0390365 -1.65678
5.19017 0.0630365 -1.65478
5.18817 0.0790365 -1.65478
5.18616 0.0960365 -1.65378
5.19717 0.112036 -1.65778
5.16317 0.128036 -1.64578
5.16217 0.144036 -1.64578
5.18317 0.153036 -1.65278
5.16016 0.201036 -1.64578
5.16116 0.217036 -1.64678
5.16116 0.233036 -1.64678
5.18516 0.251036 -1.65478
5.18417 0.259036 -1.65478
5.18016 0.275036 -1.65378
5.16217 0.290036 -1.64778
5.16116 0.306036 -1.64778
5.17017 0.340036 -1.65178
5.16317 0.355036 -1.64978
5.17416 0.364036 -1.65378
5.16716 0.380036 -1.65178
5.17416 0.397036 -1.65478
5.16516 0.413036 -1.65178
5.17517 0.430036 -1.65578
5.17017 0.446036 -1.65478
5.16116 0.461036 -1.65178
5.15017 0.469036 -1.64878
5.16417 0.486036 -1.65378
5.15916 0.502036 -1.65278
5.16116 0.551036 -1.65478
5.15316 0.591036 -1.65378
5.15316 0.624036 -1.65478
5.14317 0.672036 -1.65378
5.11717 0.726036 -1.64778
5.13816 0.762037 -1.65678
5.13216 0.802036 -1.65678
5.12716 0.835036 -1.65678
5.12217 0.867036 -1.65678
5.09316 0.920036 -1.64978
5.09617 0.937036 -1.65178
5.08816 0.968036 -1.65178
5.08116 0.984037 -1.64978
5.07117 1.02304 -1.64978
5.07916 1.04104 -1.65278
5.04616 1.20104 -1.65378
5.03616 1.23204 -1.65278
5.04517 1.25104 -1.65778
5.02216 1.30404 -1.65478
5.00916 1.31804 -1.65178
5.01017 1.33504 -1.65278
5.00816 1.35104 -1.65378
5.00417 1.36704 -1.65378
4.99717 1.38204 -1.65278
4.99717 1.39904 -1.65478
4.98116 1.45304 -1.65478
4.99117 1.47304 -1.65978
4.97416 1.48504 -1.65478
4.97416 1.50204 -1.65678
4.96216 1.51604 -1.65478
4.96017 1.52404 -1.65478
4.96216 1.54104 -1.65678
4.95817 1.55704 -1.65678
4.95117 1.57204 -1.65678
4.95117 1.58904 -1.65878
4.96116 1.60904 -1.66378
4.93616 1.61904 -1.65678
4.93117 1.62604 -1.65578
4.95016 1.64904 -1.66378
4.93616 1.66204 -1.66078
4.92517 1.67504 -1.65878
4.92717 1.69304 -1.66178
4.90517 1.70304 -1.65578
4.90916 1.72204 -1.65878
4.89917 1.72704 -1.65678
4.89217 1.74204 -1.65578
4.90416 1.78104 -1.66378
4.88216 1.79004 -1.65878
4.88416 1.80804 -1.66078
4.87716 1.81404 -1.65978
4.87317 1.83004 -1.66078
4.86617 1.84504 -1.65978
4.85816 1.86004 -1.65878
4.84117 1.88804 -1.65678
4.84416 1.90704 -1.66078
4.83816 1.91304 -1.65878
4.83716 1.93004 -1.66078
4.82916 1.94504 -1.66078
4.81916 1.95804 -1.65878
4.81116 1.97304 -1.65878
4.81216 1.99104 -1.66078
4.81517 2.01004 -1.66378
4.80817 2.02504 -1.66378
4.79517 2.02804 -1.66078
4.79716 2.04704 -1.66378
4.79916 2.06504 -1.66678
4.78616 2.07704 -1.66378
4.77216 2.08904 -1.66178
4.76217 2.10304 -1.66078
4.75716 2.11904 -1.66078
4.76316 2.13004 -1.66378
4.76516 2.14904 -1.66778
4.75417 2.16204 -1.66578
4.73916 2.17304 -1.66278
4.73017 2.18704 -1.66178
4.72717 2.20404 -1.66378
4.72016 2.21904 -1.66378
4.72317 2.22904 -1.66578
4.73716 2.25404 -1.67378
4.71316 2.26004 -1.66778
4.71116 2.27804 -1.66978
4.69717 2.28904 -1.66678
4.70016 2.30904 -1.67078
4.68917 2.31304 -1.66778
4.68516 2.32904 -1.66978
4.67517 2.34204 -1.66778
4.67916 2.36304 -1.67278
4.65617 2.37004 -1.66678
4.65617 2.38804 -1.66978
4.65117 2.40404 -1.67078
4.64116 2.40804 -1.66778
4.64716 2.43004 -1.67278
4.64217 2.44604 -1.67478
4.62317 2.45404 -1.66978
4.62217 2.47204 -1.67278
4.62417 2.49204 -1.67678
4.60517 2.50104 -1.67178
4.61117 2.51304 -1.67578
4.60616 2.52904 -1.67678
4.58317 2.53604 -1.67078
4.59516 2.56104 -1.67878
4.59416 2.57904 -1.68178
4.57717 2.58904 -1.67878
4.56417 2.60104 -1.67678
4.56616 2.62104 -1.68078
4.54916 2.62004 -1.67478
4.54716 2.63804 -1.67778
4.53717 2.65204 -1.67678
4.52417 2.66304 -1.67478
4.51717 2.67804 -1.67578
4.51017 2.69304 -1.67678
4.48517 2.69804 -1.66978
4.49616 2.71304 -1.67578
4.48617 2.72704 -1.67478
4.46617 2.73404 -1.67078
4.46816 2.75504 -1.67478
4.45716 2.76704 -1.67378
4.44916 2.78204 -1.67478
4.43716 2.79404 -1.67278
4.43117 2.80004 -1.67278
4.41016 2.80604 -1.66778
4.41516 2.82904 -1.67278
4.39716 2.83604 -1.66978
4.39616 2.85504 -1.67278
4.37616 2.86204 -1.66778
4.37816 2.88304 -1.67278
4.36216 2.88204 -1.66778
4.36017 2.90004 -1.67078
4.34916 2.91304 -1.66978
4.33816 2.92504 -1.66978
4.32717 2.95804 -1.67278
4.30917 2.97504 -1.67078
4.30416 2.99204 -1.67278
4.28416 3.01804 -1.67178
4.27417 3.03104 -1.67178
4.26017 3.04104 -1.66978
4.26416 3.05504 -1.67378
4.25016 3.06504 -1.67178
4.24117 3.07804 -1.67178
4.23916 3.09704 -1.67478
4.22317 3.10604 -1.67278
4.21617 3.12104 -1.67378
4.20616 3.13404 -1.67378
4.19617 3.14804 -1.67378
4.19717 3.15904 -1.67678
4.18016 3.16604 -1.67278
4.18016 3.18704 -1.67778
4.19216 3.21604 -1.68678
4.17717 3.22604 -1.68478
4.14417 3.22204 -1.67478
4.14516 3.24304 -1.67978
4.15617 3.26204 -1.68678
4.12616 3.26004 -1.67878
4.13216 3.28604 -1.68578
4.12217 3.29904 -1.68578
4.11017 3.31104 -1.68478
4.08616 3.31304 -1.67878
4.10716 3.35104 -1.69278
4.06616 3.32904 -1.67678
4.05717 3.34304 -1.67778
4.03817 3.36904 -1.67878
4.02916 3.38304 -1.67878
4.01217 3.39104 -1.67678
4.02916 3.42704 -1.68878
4.02916 3.43804 -1.69078
4.01017 3.44304 -1.68778
3.97717 3.43704 -1.67778
3.97817 3.46004 -1.68278
3.98717 3.48904 -1.69178
3.95517 3.48304 -1.68178
3.97417 3.52204 -1.69578
3.94417 3.50704 -1.68478
3.92917 3.51604 -1.68278
3.92617 3.53504 -1.68678
3.90517 3.53904 -1.68178
3.90117 3.55704 -1.68578
3.89817 3.57704 -1.68978
3.89717 3.59904 -1.69378
3.88817 3.60204 -1.69278
3.88517 3.62204 -1.69678
3.87317 3.63304 -1.69578
3.85817 3.64204 -1.69478
3.84717 3.65504 -1.69478
3.83117 3.68504 -1.69778
3.74117 3.78404 -1.69978
3.66317 3.86004 -1.69978
3.64217 3.86204 -1.69478
3.62817 3.87204 -1.69478
3.59517 3.86104 -1.68378
3.58817 3.87804 -1.68678
3.57717 3.89104 -1.68778
4.98816 -1.30796 -1.64378
5.01416 -1.29796 -1.65178
5.03817 -1.28696 -1.65878
5.04116 -1.25396 -1.65678
5.05017 -1.23996 -1.65878
5.06116 -1.22596 -1.66078
5.06116 -1.21696 -1.66078
5.06216 -1.20096 -1.65878
5.06016 -1.18296 -1.65678
5.07316 -1.16996 -1.66078
5.07316 -1.15296 -1.65878
5.07817 -1.13696 -1.65978
5.08016 -1.12096 -1.65878
5.08317 -1.07996 -1.65678
5.09017 -1.06496 -1.65878
5.09516 -1.04896 -1.65878
5.09316 -1.03196 -1.65678
5.09817 -1.01596 -1.65778
5.10016 -1.00796 -1.65778
5.09216 -0.989964 -1.65378
5.10616 -0.975964 -1.65778
5.11617 -0.961964 -1.66078
5.12116 -0.912964 -1.65878
5.12116 -0.903964 -1.65878
5.12616 -0.887964 -1.65878
5.12116 -0.870964 -1.65678
5.12716 -0.855964 -1.65778
5.12716 -0.821964 -1.65578
5.13117 -0.806964 -1.65678
5.14516 -0.783964 -1.65978
5.14317 -0.766964 -1.65878
5.14417 -0.733964 -1.65678
5.14116 -0.716964 -1.65478
5.14317 -0.700963 -1.65478
5.15216 -0.693964 -1.65778
5.14317 -0.675964 -1.65378
5.15617 -0.661964 -1.65778
5.15216 -0.644964 -1.65578
5.15117 -0.627964 -1.65478
5.16016 -0.612963 -1.65678
5.16016 -0.595964 -1.65678
5.17816 -0.556964 -1.66078
5.18317 -0.524963 -1.66178
5.17216 -0.506964 -1.65678
5.16016 -0.489964 -1.65278
5.16317 -0.481964 -1.65278
5.16016 -0.464964 -1.65178
5.14816 -0.447964 -1.64778
5.16116 -0.432964 -1.65178
5.15916 -0.415964 -1.64978
5.15617 -0.399964 -1.64878
5.17116 -0.384964 -1.65278
5.16417 -0.375964 -1.65078
5.17216 -0.359964 -1.65278
5.16016 -0.342964 -1.64878
5.16016 -0.326964 -1.64778
5.16817 -0.310964 -1.65078
5.16317 -0.293964 -1.64878
5.18716 -0.278964 -1.65678
5.19116 -0.270964 -1.65778
5.20516 -0.255964 -1.66178
5.19316 -0.238963 -1.65778
5.17116 -0.220964 -1.64978
5.19816 -0.205964 -1.65878
5.19717 -0.189964 -1.65878
5.19916 -0.173964 -1.65878
5.18616 -0.164964 -1.65478
5.19617 -0.148964 -1.65778
5.19517 -0.132964 -1.65678
5.19717 -0.115964 -1.65778
5.19517 -0.0999635 -1.65678
5.19017 -0.0839635 -1.65478
5.18817 -0.0669635 -1.65478
5.19816 -0.0589635 -1.65778
5.17216 -0.0429635 -1.64878
5.16616 -0.0259635 -1.64678
5.17017 -0.00996351 -1.64778
5.05617 0.00403649 -1.66178
5.04916 0.0120365 -1.65878
5.05316 0.0280365 -1.65978
5.04116 0.0440365 -1.65578
5.05217 0.0600365 -1.65978
5.04616 0.0750365 -1.65778
5.04616 0.0910365 -1.65778
5.05917 0.107036 -1.66278
5.04816 0.115036 -1.65878
5.04317 0.131036 -1.65778
5.05617 0.147036 -1.66178
5.04317 0.163036 -1.65778
5.04016 0.178036 -1.65678
5.04916 0.195036 -1.65978
5.03717 0.210036 -1.65578
5.03117 0.225036 -1.65378
5.04517 0.234036 -1.65978
5.03917 0.250036 -1.65778
5.03817 0.265036 -1.65778
5.03516 0.281036 -1.65678
5.04616 0.298036 -1.66078
5.03416 0.313036 -1.65678
5.02916 0.320036 -1.65578
5.03416 0.337036 -1.65778
5.03117 0.352036 -1.65678
5.04116 0.369036 -1.66078
5.02316 0.383036 -1.65478
5.02916 0.400036 -1.65778
5.01917 0.415036 -1.65378
5.01017 0.422036 -1.65178
5.02216 0.439036 -1.65578
5.00216 0.453036 -1.64978
5.00816 0.469036 -1.65178
5.02716 0.487036 -1.65978
5.02216 0.503036 -1.65778
5.01817 0.518036 -1.65778
5.01017 0.525036 -1.65478
5.01217 0.541036 -1.65578
5.00916 0.557036 -1.65578
5.01217 0.573036 -1.65778
4.99817 0.588036 -1.65278
5.01117 0.605036 -1.65778
4.99717 0.619036 -1.65378
4.99917 0.636036 -1.65578
5.00916 0.645036 -1.65978
5.00016 0.660037 -1.65678
4.99616 0.675036 -1.65578
4.99817 0.691036 -1.65778
5.00316 0.708036 -1.65978
4.98816 0.722036 -1.65578
4.99117 0.738036 -1.65778
4.99317 0.747036 -1.65878
4.98916 0.762037 -1.65778
4.98916 0.778036 -1.65878
4.98216 0.793036 -1.65778
4.98216 0.809036 -1.65778
4.97917 0.825036 -1.65778
4.97817 0.833036 -1.65778
4.98116 0.849036 -1.65978
4.96017 0.862036 -1.65378
4.97217 0.880036 -1.65878
4.97117 0.896037 -1.65978
4.96816 0.911036 -1.65978
4.95217 0.925036 -1.65478
4.95817 0.934036 -1.65778
4.96417 0.951036 -1.66078
4.95616 0.966036 -1.65878
4.94316 0.979036 -1.65578
4.95516 0.998037 -1.66078
4.95217 1.01304 -1.66078
4.95217 1.03004 -1.66178
4.93417 1.04204 -1.65678
4.94216 1.05204 -1.65978
4.92816 1.06504 -1.65578
4.94116 1.08404 -1.66178
4.93217 1.09804 -1.65978
4.92816 1.11404 -1.65978
4.93217 1.13104 -1.66278
4.90816 1.14204 -1.65578
4.91616 1.15204 -1.65878
4.91817 1.16904 -1.66078
4.92316 1.18604 -1.66378
4.90316 1.19804 -1.65778
4.89716 1.21304 -1.65778
4.91217 1.23304 -1.66378
4.91217 1.24904 -1.66578
4.90216 1.25504 -1.66278
4.88517 1.26704 -1.65778
4.90017 1.28704 -1.66478
4.87616 1.29704 -1.65778
4.88117 1.31504 -1.66078
4.88617 1.33304 -1.66378
4.88316 1.34804 -1.66478
4.87217 1.35404 -1.66178
4.87917 1.37204 -1.66578
4.87116 1.38604 -1.66378
4.86316 1.40004 -1.66278
4.87616 1.42104 -1.66978
4.83716 1.42604 -1.65678
4.83917 1.43504 -1.65778
4.85116 1.45504 -1.66378
4.84817 1.47104 -1.66478
4.82916 1.48104 -1.65978
4.84717 1.50404 -1.66778
4.82817 1.51504 -1.66278
4.82017 1.52904 -1.66178
4.84117 1.54404 -1.66978
4.82316 1.55504 -1.66578
4.82416 1.57204 -1.66778
4.80117 1.58104 -1.66078
4.81716 1.60304 -1.66878
4.80217 1.61504 -1.66478
4.80917 1.63404 -1.66978
4.78117 1.64104 -1.66078
4.78217 1.65004 -1.66178
4.78416 1.66704 -1.66478
4.77517 1.68104 -1.66378
4.77716 1.69904 -1.66578
4.78416 1.71804 -1.67078
4.76917 1.73004 -1.66778
4.75316 1.74104 -1.66378
4.76516 1.75404 -1.66878
4.74016 1.76104 -1.66178
4.73916 1.79504 -1.66578
4.72616 1.80704 -1.66278
4.72616 1.82404 -1.66478
4.71716 1.83804 -1.66378
4.71916 1.84704 -1.66578
4.71517 1.86304 -1.66578
4.72717 1.88504 -1.67278
4.70317 1.89204 -1.66578
4.69916 1.90804 -1.66678
4.69316 1.92304 -1.66678
4.69717 1.93304 -1.66978
4.68016 1.94304 -1.66578
4.69017 1.96504 -1.67178
4.68917 1.98204 -1.67378
4.67617 1.99304 -1.67078
4.67517 2.01004 -1.67278
4.66016 2.02104 -1.66978
4.64616 2.02404 -1.66578
4.65717 2.04604 -1.67178
4.65216 2.06104 -1.67278
4.64417 2.07504 -1.67178
4.63816 2.09004 -1.67178
4.62616 2.10204 -1.66978
4.62816 2.12104 -1.67378
4.62116 2.12604 -1.67178
4.61916 2.14304 -1.67378
4.60417 2.15404 -1.67078
4.59717 2.16804 -1.67078
4.58716 2.18104 -1.66978
4.59617 2.20304 -1.67578
4.59516 2.22004 -1.67778
4.58216 2.23204 -1.67578
4.59017 2.24504 -1.67978
4.57617 2.25604 -1.67778
4.57717 2.27404 -1.68078
4.55017 2.27804 -1.67278
4.54816 2.29504 -1.67478
4.54916 2.31404 -1.67778
4.53817 2.32604 -1.67678
4.53516 2.33304 -1.67678
4.54216 2.35604 -1.68278
4.52216 2.36304 -1.67778
4.52016 2.39804 -1.68278
4.50517 2.42704 -1.68278
4.46617 2.50604 -1.68378
4.45016 2.52504 -1.68278
4.38916 2.64804 -1.68578
4.38017 2.66104 -1.68578
4.35816 2.68504 -1.68378
4.36017 2.69604 -1.68578
4.35016 2.70904 -1.68578
4.33317 2.71704 -1.68178
4.32817 2.73304 -1.68378
4.31816 2.74604 -1.68278
4.30917 2.75904 -1.68278
4.30217 2.77404 -1.68378
4.28917 2.78404 -1.68178
4.28416 2.79104 -1.68178
4.27716 2.80504 -1.68178
4.26416 2.81604 -1.67978
4.25617 2.83004 -1.68078
4.23116 2.85104 -1.67778
4.23916 2.87604 -1.68478
4.23116 2.88104 -1.68378
4.22717 2.89704 -1.68578
4.20117 2.89904 -1.67778
4.21816 2.93004 -1.68878
4.18716 2.92804 -1.67978
4.17517 2.93904 -1.67878
4.17916 2.96204 -1.68478
4.17316 2.96804 -1.68378
4.15117 2.97204 -1.67878
4.16016 2.99804 -1.68678
4.14016 3.00404 -1.68178
4.11617 3.00504 -1.67578
4.13216 3.03704 -1.68678
4.10317 3.03604 -1.67778
4.09216 3.03804 -1.67578
4.10317 3.06604 -1.68478
4.08616 3.07404 -1.68178
4.07117 3.08204 -1.67878
4.07717 3.10704 -1.68578
4.05117 3.10704 -1.67878
4.03516 3.11504 -1.67578
4.05416 3.14004 -1.68678
4.02417 3.13704 -1.67778
4.01516 3.15104 -1.67778
4.02716 3.18104 -1.68778
3.99417 3.17504 -1.67778
3.97917 3.18304 -1.67578
3.99717 3.21904 -1.68778
3.97317 3.20904 -1.67978
3.96017 3.21904 -1.67778
3.96717 3.24604 -1.68578
3.94017 3.24404 -1.67778
3.93117 3.25804 -1.67878
3.94117 3.28704 -1.68778
3.91317 3.28504 -1.67978
3.90717 3.29004 -1.67978
3.92117 3.32304 -1.69078
3.88017 3.30904 -1.67678
3.87117 3.32304 -1.67778
3.88217 3.35404 -1.68678
3.85717 3.35304 -1.68078
3.84717 3.36504 -1.68078
3.85717 3.38504 -1.68778
3.83717 3.38804 -1.68378
3.83017 3.40404 -1.68578
3.83217 3.42804 -1.69078
3.80517 3.42404 -1.68378
3.79717 3.43904 -1.68478
3.80017 3.46404 -1.69078
3.77917 3.45604 -1.68378
3.77417 3.47304 -1.68678
3.77417 3.49504 -1.69178
3.75917 3.50304 -1.68978
3.75217 3.51804 -1.69178
3.73817 3.52704 -1.69078
3.73617 3.54804 -1.69478
3.72417 3.54804 -1.69178
3.72017 3.56604 -1.69478
3.71117 3.58004 -1.69678
3.70017 3.59204 -1.69678
3.45017 3.83504 -1.69678
4.85116 -1.31496 -1.65078
4.87016 -1.31196 -1.65678
5.02816 -0.606964 -1.66378
5.02716 -0.542964 -1.66178
5.03616 -0.527964 -1.66378
5.03516 -0.503964 -1.66278
5.02916 -0.486964 -1.65978
5.04016 -0.471964 -1.66378
5.04016 -0.455964 -1.66278
5.04417 -0.424964 -1.66378
5.04716 -0.408964 -1.66378
5.04616 -0.400964 -1.66378
5.03416 -0.383964 -1.65878
5.04317 -0.320964 -1.65978
5.04716 -0.304964 -1.66178
5.05017 -0.297964 -1.66178
5.05117 -0.281964 -1.66178
5.05117 -0.265964 -1.66178
5.05017 -0.249964 -1.66178
5.05316 -0.233964 -1.66178
5.05416 -0.217964 -1.66178
5.05617 -0.201964 -1.66278
5.05516 -0.193964 -1.66178
5.04816 -0.177964 -1.65978
5.04616 -0.161964 -1.65878
5.06216 -0.146964 -1.66378
5.04317 -0.130964 -1.65778
5.05316 -0.114964 -1.66078
5.04616 -0.0989635 -1.65778
5.04816 -0.0909635 -1.65878
5.05817 -0.0749635 -1.66178
5.05416 -0.0589635 -1.66078
5.04716 -0.0429635 -1.65778
5.05516 -0.0279635 -1.66078
5.05617 -0.0119635 -1.66178
4.95117 0.0430365 -1.66478
4.95117 0.128036 -1.66578
4.95117 0.199036 -1.66678
4.94816 0.230036 -1.66578
4.95016 0.284036 -1.66778
4.93716 0.315036 -1.66378
4.94216 0.385036 -1.66678
4.93016 0.415036 -1.66378
4.94216 0.432036 -1.66878
4.93117 0.486036 -1.66678
4.93217 0.517036 -1.66778
4.92017 0.586037 -1.66678
4.91817 0.617036 -1.66678
4.90816 0.648036 -1.66478
4.90916 0.671036 -1.66678
4.91417 0.719036 -1.67078
4.90816 0.734037 -1.66878
4.90517 0.765036 -1.66978
4.90117 0.804036 -1.67078
4.89217 0.818036 -1.66878
4.88816 0.833036 -1.66778
4.89016 0.865036 -1.67078
4.88416 0.920036 -1.67178
4.87616 0.950036 -1.67178
4.86717 0.980036 -1.66978
4.85816 0.986036 -1.66678
4.86117 1.01904 -1.67078
4.86017 1.05004 -1.67278
4.84916 1.08804 -1.67178
4.82617 1.13104 -1.66678
4.81916 1.16104 -1.66678
4.82416 1.18604 -1.67178
4.80917 1.21504 -1.66878
4.80316 1.24504 -1.66878
4.81216 1.26404 -1.67378
4.80717 1.27004 -1.67278
4.79916 1.30104 -1.67278
4.79417 1.33204 -1.67378
4.79016 1.34704 -1.67378
4.76717 1.37304 -1.66878
4.77517 1.38304 -1.67278
4.77016 1.41404 -1.67378
4.74516 1.49704 -1.67378
4.73116 1.50904 -1.67078
4.72817 1.55704 -1.67478
4.70616 1.59104 -1.67178
4.69416 1.67704 -1.67778
4.67816 1.70504 -1.67578
4.67517 1.73704 -1.67778
4.63117 1.82904 -1.67578
4.61916 1.88404 -1.67878
4.61216 1.89704 -1.67778
4.61117 1.91404 -1.67978
4.05017 2.96704 -1.68978
4.03817 2.99704 -1.69278
4.00016 3.03704 -1.69078
3.98217 3.06404 -1.69178
3.97917 3.08104 -1.69378
3.95917 3.10604 -1.69378
3.92917 3.13204 -1.69178
3.90617 3.17504 -1.69478
3.88317 3.19704 -1.69378
3.87017 3.21604 -1.69378
3.84517 3.23704 -1.69178
3.83217 3.26704 -1.69578
3.81517 3.28404 -1.69478
3.80017 3.31304 -1.69778
3.77917 3.33704 -1.69778
3.75117 3.35404 -1.69378
3.74117 3.37704 -1.69678
3.72017 3.40004 -1.69678
3.26817 3.86804 -1.70578
3.23517 3.87904 -1.70078
3.22217 3.87504 -1.69678
4.72516 -1.37596 -1.65478
4.73617 -1.36396 -1.65678
4.95616 -0.0739635 -1.66678
4.79517 0.0130365 -1.65578
4.79916 0.0280365 -1.65678
4.81016 0.0430365 -1.66078
4.80817 0.0580365 -1.66078
4.80017 0.0730365 -1.65778
4.80617 0.0810365 -1.65978
4.82217 0.0960365 -1.66578
4.79417 0.110036 -1.65578
4.79517 0.126036 -1.65678
4.79716 0.141036 -1.65678
4.79616 0.156036 -1.65678
4.79417 0.171036 -1.65678
4.79616 0.178036 -1.65678
4.78616 0.193036 -1.65378
4.80617 0.209036 -1.66078
4.78416 0.223036 -1.65378
4.79116 0.239036 -1.65678
4.79016 0.254036 -1.65678
4.79116 0.269036 -1.65678
4.78616 0.291036 -1.65578
4.78316 0.306036 -1.65478
4.78217 0.321036 -1.65478
4.78117 0.336036 -1.65478
4.78217 0.351036 -1.65578
4.77916 0.366036 -1.65478
4.78616 0.374036 -1.65778
4.77016 0.388036 -1.65178
4.78217 0.404036 -1.65678
4.78717 0.435036 -1.65978
4.76917 0.463036 -1.65378
4.77016 0.471036 -1.65478
4.76917 0.501036 -1.65578
4.75517 0.560036 -1.65278
4.77417 0.570036 -1.66078
4.75916 0.584036 -1.65578
4.75816 0.598036 -1.65578
4.75417 0.628036 -1.65578
4.75016 0.643036 -1.65478
4.75316 0.659036 -1.65678
4.75216 0.666036 -1.65678
4.74317 0.695036 -1.65478
4.74016 0.710036 -1.65478
4.74416 0.726036 -1.65678
4.73617 0.740036 -1.65478
4.72717 0.792036 -1.65478
4.72217 0.822037 -1.65478
4.72616 0.853036 -1.65878
4.71916 0.859037 -1.65678
4.71716 0.874036 -1.65678
4.71716 0.920036 -1.65978
4.70917 0.934036 -1.65778
4.69916 1.00104 -1.65878
4.68716 1.01404 -1.65578
4.68217 1.04404 -1.65678
4.67916 1.05104 -1.65578
4.67717 1.08204 -1.65778
4.68516 1.09904 -1.66178
4.67416 1.11204 -1.65878
4.66516 1.12504 -1.65678
4.66917 1.14204 -1.65978
4.66016 1.14704 -1.65678
4.66317 1.17904 -1.66078
4.64716 1.20604 -1.65778
4.64317 1.22104 -1.65778
4.64116 1.23604 -1.65878
4.63916 1.24304 -1.65878
4.64217 1.26004 -1.66078
4.62217 1.31704 -1.65978
4.61717 1.33104 -1.65878
4.61617 1.33904 -1.65978
4.60616 1.36704 -1.65878
4.60917 1.38404 -1.66178
4.59516 1.39504 -1.65878
4.59117 1.41004 -1.65878
4.59216 1.42604 -1.66078
4.58417 1.43904 -1.65878
4.58317 1.44704 -1.65978
4.58317 1.47904 -1.66278
4.57516 1.49204 -1.66178
4.58116 1.51004 -1.66578
4.57416 1.52404 -1.66578
4.57916 1.53304 -1.66778
4.56016 1.54304 -1.66278
4.56417 1.56004 -1.66578
4.55416 1.57304 -1.66378
4.55617 1.58904 -1.66678
4.53817 1.59904 -1.66178
4.53017 1.61204 -1.66078
4.54716 1.62604 -1.66778
4.54216 1.64104 -1.66778
4.54216 1.65704 -1.66978
4.52417 1.66704 -1.66578
4.51416 1.67904 -1.66278
4.51516 1.69604 -1.66578
4.50517 1.70804 -1.66378
4.51316 1.71904 -1.66778
4.50216 1.73104 -1.66578
4.49317 1.74404 -1.66478
4.48417 1.75604 -1.66278
4.48916 1.77504 -1.66778
4.48216 1.78804 -1.66678
4.47616 1.80204 -1.66678
4.48316 1.83004 -1.67278
4.46316 1.83804 -1.66778
4.44916 1.84804 -1.66378
4.44116 1.86204 -1.66278
4.43417 1.87504 -1.66278
4.44216 1.89504 -1.66778
4.42916 1.90604 -1.66578
4.42517 1.92904 -1.66778
4.41417 1.94004 -1.66578
4.41917 1.97604 -1.67178
4.41716 1.99204 -1.67478
4.40216 1.99304 -1.66978
4.39616 2.00704 -1.66978
4.39516 2.02404 -1.67178
4.38717 2.03604 -1.67078
4.38216 2.05104 -1.67178
4.37217 2.06304 -1.66978
4.35417 2.07104 -1.66578
4.37317 2.08904 -1.67478
4.34916 2.09404 -1.66778
4.36617 2.11904 -1.67678
4.33917 2.12304 -1.66878
4.35317 2.14704 -1.67678
4.33116 2.15304 -1.67078
4.33917 2.17404 -1.67678
4.31716 2.18004 -1.67078
4.32217 2.19104 -1.67478
4.32516 2.21004 -1.67878
4.30316 2.21604 -1.67178
4.31016 2.23604 -1.67778
4.29616 2.24604 -1.67478
4.29716 2.26404 -1.67878
4.28316 2.27404 -1.67578
4.27216 2.27604 -1.67178
4.27916 2.29804 -1.67878
4.26717 2.30804 -1.67678
4.26817 2.32604 -1.67978
4.24917 2.33304 -1.67478
4.24717 2.34904 -1.67678
4.25916 2.37404 -1.68578
4.24217 2.37304 -1.67978
4.22817 2.38304 -1.67678
4.23716 2.40504 -1.68378
4.22317 2.41504 -1.68078
4.21216 2.42604 -1.67978
4.21617 2.44604 -1.68478
4.20817 2.45904 -1.68478
4.20416 2.46604 -1.68478
4.20416 2.48404 -1.68778
4.17916 2.50504 -1.68378
4.16817 2.53404 -1.68578
4.15416 2.53404 -1.68178
4.14317 2.56304 -1.68378
4.14317 2.58104 -1.68778
4.12516 2.58804 -1.68278
4.10417 2.61104 -1.68078
4.11416 2.62704 -1.68778
4.08917 2.62804 -1.67978
4.10116 2.65504 -1.68878
4.07117 2.65304 -1.67878
4.07017 2.67104 -1.68278
4.05416 2.67904 -1.67878
4.05516 2.69804 -1.68278
4.02916 2.69904 -1.67578
4.04116 2.71604 -1.68278
4.02016 2.72004 -1.67678
4.01717 2.73704 -1.67978
3.99317 2.73904 -1.67278
4.00517 2.76504 -1.68178
3.98017 2.76704 -1.67478
3.99317 2.79504 -1.68478
3.96717 2.78604 -1.67478
3.96517 2.80204 -1.67778
3.94617 2.82604 -1.67678
3.93117 2.83404 -1.67478
3.92817 2.85104 -1.67678
3.92217 2.87504 -1.68078
3.89417 2.93104 -1.68478
3.86117 2.93404 -1.67578
3.80817 3.00904 -1.67678
3.80917 3.02004 -1.67978
3.78717 3.04104 -1.67878
3.76917 3.06604 -1.67878
3.73317 3.12504 -1.68278
3.69217 3.19104 -1.68678
3.66317 3.19604 -1.67978
3.64517 3.22104 -1.68078
3.63717 3.23404 -1.68178
3.62617 3.24504 -1.68178
3.60217 3.27504 -1.68278
3.59317 3.30804 -1.68778
3.56217 3.32104 -1.68278
3.55617 3.34704 -1.68778
3.51517 3.37104 -1.68278
3.51817 3.39504 -1.68978
3.50417 3.40404 -1.68878
3.49917 3.42004 -1.69178
3.46117 3.43704 -1.68578
3.45317 3.45004 -1.68778
3.45117 3.49204 -1.69778
3.42717 3.50004 -1.69378
3.40417 3.49904 -1.68778
3.41117 3.52804 -1.69678
3.38317 3.52104 -1.68778
3.37617 3.53604 -1.68978
3.36717 3.56004 -1.69478
3.34417 3.55804 -1.68778
3.34217 3.57804 -1.69278
3.33217 3.59004 -1.69378
3.33717 3.61904 -1.70278
3.31217 3.61404 -1.69478
3.29717 3.64304 -1.69878
3.28817 3.66804 -1.70378
3.26817 3.66904 -1.69878
3.26817 3.69204 -1.70578
3.25217 3.69804 -1.70378
3.22817 3.69404 -1.69678
3.21417 3.73604 -1.70478
3.19317 3.75904 -1.70578
3.17417 3.76104 -1.70178
3.16417 3.77304 -1.70378
3.15517 3.79804 -1.70778
3.12717 3.78904 -1.69878
3.13217 3.82004 -1.70878
3.10817 3.81504 -1.70178
3.08517 3.81004 -1.69478
3.07717 3.82604 -1.69778
4.59017 -1.36796 -1.65378
4.61617 -1.35896 -1.66178
4.70217 -1.07696 -1.66578
4.77216 -0.711964 -1.66678
4.78017 -0.659964 -1.66678
4.77316 -0.642964 -1.66278
4.76316 -0.626963 -1.65878
4.77216 -0.604964 -1.66078
4.79216 -0.561963 -1.66678
4.79216 -0.530964 -1.66578
4.79417 -0.515963 -1.66578
4.78516 -0.507964 -1.66178
4.79816 -0.493964 -1.66578
4.79016 -0.462964 -1.66178
4.80217 -0.448964 -1.66578
4.78717 -0.431964 -1.65978
4.80316 -0.417964 -1.66578
4.80817 -0.410964 -1.66678
4.77916 -0.393964 -1.65578
4.79716 -0.379964 -1.66178
4.80416 -0.364964 -1.66378
4.79016 -0.348964 -1.65878
4.80316 -0.319964 -1.66278
4.80017 -0.311964 -1.66078
4.81016 -0.296964 -1.66478
4.79616 -0.281964 -1.65878
4.80316 -0.266964 -1.66078
4.80717 -0.251964 -1.66278
4.81417 -0.236964 -1.66478
4.80316 -0.220964 -1.66078
4.80017 -0.213964 -1.65878
4.81517 -0.198964 -1.66478
4.80817 -0.183964 -1.66178
4.81116 -0.168964 -1.66278
4.82117 -0.153964 -1.66578
4.81216 -0.138964 -1.66278
4.79916 -0.122964 -1.65778
4.80516 -0.115964 -1.65978
4.79816 -0.0999635 -1.65678
4.80917 -0.0859635 -1.66078
4.80217 -0.0699635 -1.65878
4.79116 -0.0549635 -1.65378
4.79916 -0.0399635 -1.65678
4.81216 -0.0249635 -1.66178
4.80617 -0.0179635 -1.65978
4.81216 -0.00196351 -1.66178
4.67717 0.00503649 -1.66478
4.67017 0.0200365 -1.66178
4.67916 0.0350365 -1.66578
4.67517 0.0420365 -1.66478
4.67916 0.0570365 -1.66578
4.67717 0.0710365 -1.66478
4.67116 0.0860365 -1.66278
4.68417 0.101036 -1.66778
4.66817 0.115036 -1.66178
4.67416 0.130036 -1.66478
4.67316 0.138036 -1.66478
4.67517 0.152036 -1.66478
4.66917 0.167036 -1.66278
4.67816 0.182036 -1.66678
4.65816 0.196036 -1.65978
4.66116 0.211036 -1.66078
4.66817 0.225036 -1.66378
4.66817 0.233036 -1.66378
4.65816 0.247036 -1.65978
4.66116 0.262036 -1.66178
4.65617 0.276036 -1.65978
4.66616 0.292036 -1.66478
4.66217 0.306036 -1.66278
4.66116 0.321036 -1.66278
4.65316 0.327036 -1.65978
4.67416 0.344036 -1.66878
4.65117 0.357036 -1.65978
4.66417 0.372036 -1.66578
4.65916 0.387036 -1.66478
4.64516 0.400036 -1.65978
4.66217 0.417036 -1.66678
4.64516 0.422036 -1.65978
4.64417 0.437036 -1.65978
4.64417 0.452036 -1.66078
4.65017 0.467036 -1.66378
4.63916 0.481036 -1.65978
4.64917 0.496036 -1.66478
4.64217 0.510036 -1.66178
4.64516 0.518036 -1.66378
4.63216 0.532036 -1.65978
4.63416 0.547036 -1.66078
4.62917 0.561036 -1.65978
4.62716 0.575036 -1.65978
4.64716 0.592036 -1.66778
4.63017 0.605036 -1.66178
4.63117 0.613036 -1.66278
4.63316 0.628036 -1.66478
4.62417 0.641036 -1.66178
4.62516 0.656036 -1.66278
4.62716 0.671036 -1.66478
4.61416 0.684036 -1.65978
4.62816 0.701036 -1.66678
4.61416 0.707036 -1.66178
4.62716 0.723036 -1.66678
4.61316 0.736036 -1.66278
4.61817 0.752036 -1.66578
4.60917 0.765036 -1.66278
4.61017 0.780036 -1.66478
4.59617 0.793036 -1.65978
4.61017 0.802036 -1.66578
4.59617 0.815036 -1.66178
4.60716 0.832036 -1.66678
4.58917 0.844036 -1.66078
4.60317 0.861036 -1.66678
4.58716 0.873037 -1.66178
4.59416 0.889036 -1.66578
4.58517 0.895036 -1.66278
4.59316 0.912036 -1.66678
4.57817 0.923036 -1.66178
4.56916 0.937036 -1.65978
4.59216 0.956036 -1.66978
4.56916 0.967036 -1.66178
4.57117 0.982036 -1.66478
4.57516 0.990036 -1.66678
4.57617 1.00604 -1.66778
4.56317 1.01804 -1.66478
4.56716 1.03404 -1.66678
4.55316 1.04604 -1.66278
4.55717 1.06204 -1.66578
4.55416 1.07604 -1.66578
4.54517 1.08204 -1.66278
4.54517 1.09704 -1.66478
4.55617 1.11404 -1.66978
4.53117 1.12304 -1.66178
4.54417 1.14204 -1.66778
4.54016 1.15604 -1.66778
4.53316 1.16904 -1.66678
4.52216 1.18204 -1.66378
4.53117 1.19204 -1.66778
4.52216 1.20404 -1.66578
4.52517 1.22004 -1.66878
4.52116 1.23504 -1.66878
4.50517 1.24504 -1.66378
4.52016 1.26504 -1.67178
4.51316 1.27104 -1.66978
4.49616 1.28104 -1.66478
4.48716 1.29404 -1.66178
4.49917 1.31304 -1.66878
4.48816 1.32504 -1.66578
4.48216 1.33804 -1.66478
4.49217 1.35704 -1.67078
4.48617 1.36304 -1.66978
4.47117 1.37304 -1.66478
4.47217 1.38904 -1.66678
4.46116 1.40104 -1.66478
4.46017 1.41604 -1.66578
4.47317 1.43604 -1.67278
4.46517 1.44904 -1.67178
4.45917 1.45404 -1.66978
4.46316 1.47104 -1.67378
4.45917 1.48504 -1.67378
4.45217 1.49904 -1.67278
4.45716 1.51604 -1.67678
4.43917 1.52504 -1.67178
4.44017 1.54104 -1.67378
4.43117 1.55404 -1.67178
4.44116 1.56504 -1.67678
4.42216 1.57404 -1.67178
4.42316 1.59004 -1.67378
4.41317 1.61804 -1.67378
4.40617 1.63104 -1.67278
4.40617 1.64704 -1.67478
4.38717 1.64804 -1.66878
4.39616 1.66704 -1.67478
4.39317 1.68104 -1.67478
4.37716 1.69104 -1.67078
4.39417 1.71404 -1.67978
4.37317 1.72104 -1.67378
4.37716 1.73104 -1.67678
4.36316 1.74104 -1.67278
4.36817 1.75904 -1.67678
4.36416 1.77304 -1.67778
4.35016 1.78404 -1.67478
4.35517 1.80104 -1.67878
4.33517 1.80904 -1.67278
4.34516 1.82104 -1.67778
4.32516 1.82904 -1.67178
4.33116 1.84804 -1.67678
4.32717 1.86204 -1.67778
4.32017 1.87504 -1.67678
4.31716 1.89004 -1.67878
4.31016 1.90304 -1.67778
4.29317 1.91204 -1.67378
4.29216 1.91904 -1.67478
4.29317 1.93604 -1.67678
4.28717 1.94904 -1.67678
4.27716 1.96104 -1.67578
4.27316 1.99204 -1.67978
4.26217 2.00304 -1.67678
4.26917 2.01404 -1.68178
4.26616 2.02904 -1.68278
4.24416 2.03604 -1.67678
4.22817 2.06104 -1.67478
4.24217 2.08404 -1.68378
4.23417 2.09604 -1.68278
4.23517 2.10504 -1.68478
4.22217 2.11504 -1.68178
4.22416 2.13304 -1.68578
4.19916 2.13704 -1.67778
4.20217 2.15504 -1.68178
4.19816 2.17004 -1.68378
4.19017 2.18204 -1.68278
4.18516 2.18804 -1.68178
4.16917 2.21304 -1.68178
4.16417 2.22704 -1.68178
4.15316 2.25504 -1.68378
4.14616 2.26004 -1.68178
4.13517 2.28804 -1.68378
4.13517 2.30404 -1.68678
4.11017 2.32504 -1.68178
4.10616 2.33904 -1.68378
4.10517 2.36404 -1.68778
4.09717 2.37704 -1.68778
4.09216 2.39104 -1.68878
4.06716 2.41104 -1.68378
3.97617 2.58204 -1.68878
3.96217 2.59104 -1.68678
3.95817 2.60604 -1.68878
3.94617 2.62504 -1.68878
3.94517 2.64204 -1.69178
3.92017 2.64304 -1.68378
3.91317 2.65704 -1.68478
3.90617 2.67004 -1.68578
3.90417 2.67704 -1.68678
3.89217 2.68704 -1.68478
3.87917 2.69604 -1.68278
3.88317 2.71704 -1.68878
3.86517 2.72304 -1.68378
3.86017 2.73704 -1.68578
3.84517 2.74504 -1.68278
3.84817 2.75604 -1.68678
3.83217 2.76304 -1.68278
3.82517 2.77604 -1.68378
3.81717 2.78904 -1.68378
3.81317 2.80404 -1.68678
3.80317 2.81504 -1.68578
3.79417 2.82704 -1.68578
3.78817 2.83204 -1.68478
3.77617 2.84204 -1.68378
3.76917 2.85504 -1.68378
3.76417 2.87004 -1.68678
3.75117 2.87804 -1.68378
3.74317 2.89104 -1.68478
3.73717 2.90504 -1.68678
3.72817 2.91704 -1.68678
3.71917 2.91904 -1.68378
3.71017 2.93104 -1.68378
3.69717 2.94004 -1.68278
3.69717 2.95904 -1.68678
3.68217 2.96604 -1.68378
3.67417 2.97904 -1.68478
3.66617 2.99104 -1.68578
3.66017 2.99604 -1.68478
3.65317 3.01004 -1.68678
3.64017 3.01804 -1.68378
3.63717 3.03504 -1.68778
3.63117 3.04904 -1.68878
3.61517 3.05504 -1.68678
3.60617 3.06704 -1.68678
3.59917 3.07104 -1.68578
3.59017 3.08204 -1.68578
3.58117 3.09504 -1.68678
3.56717 3.10204 -1.68378
3.56517 3.12004 -1.68778
3.55817 3.13304 -1.68878
3.54817 3.14504 -1.68878
3.54017 3.14804 -1.68778
3.52617 3.15504 -1.68578
3.52217 3.17104 -1.68878
3.51217 3.18204 -1.68878
3.50317 3.19404 -1.68878
3.49317 3.20504 -1.68878
3.48217 3.20604 -1.68678
3.47417 3.21804 -1.68678
3.46617 3.23104 -1.68878
3.45817 3.24404 -1.68878
3.45017 3.25704 -1.69078
3.43717 3.26504 -1.68878
3.43117 3.28004 -1.69178
3.43117 3.29004 -1.69378
3.40717 3.28804 -1.68678
3.40517 3.30704 -1.69178
3.39217 3.31504 -1.68978
3.37817 3.32204 -1.68778
3.37217 3.33704 -1.69078
3.36617 3.35204 -1.69278
3.35917 3.36604 -1.69478
3.34717 3.36504 -1.69178
3.33617 3.37404 -1.69078
3.32617 3.38604 -1.69178
3.31317 3.39404 -1.68978
3.32517 3.42704 -1.70178
3.29817 3.42104 -1.69378
3.28617 3.43004 -1.69278
3.29117 3.44604 -1.69878
3.27217 3.44804 -1.69378
3.26717 3.46404 -1.69678
3.26217 3.48104 -1.70078
3.24417 3.48304 -1.69678
3.24817 3.51004 -1.70478
3.23117 3.52504 -1.70478
3.22217 3.53704 -1.70578
3.20117 3.55804 -1.70678
3.16917 3.59104 -1.70778
3.16417 3.59604 -1.70778
3.07817 3.66904 -1.70778
3.04117 3.69504 -1.70678
3.02817 3.70304 -1.70578
3.01417 3.72204 -1.70778
3.00117 3.73004 -1.70678
2.99317 3.74404 -1.70878
2.97317 3.74304 -1.70378
2.95917 3.74904 -1.70278
2.95217 3.76504 -1.70578
2.93417 3.76604 -1.70178
2.92317 3.76404 -1.69878
2.91917 3.78304 -1.70378
2.89717 3.77904 -1.69678
2.88017 3.78204 -1.69378
4.43516 -1.38196 -1.65278
4.46816 -1.37696 -1.66478
4.64217 -0.647964 -1.66878
4.64716 -0.610964 -1.66878
4.65216 -0.567964 -1.66878
4.65617 -0.537964 -1.66878
4.65316 -0.530964 -1.66678
4.65617 -0.500964 -1.66678
4.65916 -0.486964 -1.66778
4.66217 -0.457964 -1.66778
4.66217 -0.442964 -1.66678
4.66417 -0.435964 -1.66778
4.66716 -0.405964 -1.66778
4.67216 -0.391964 -1.66978
4.66817 -0.376964 -1.66678
4.66716 -0.361964 -1.66678
4.66516 -0.339964 -1.66478
4.67916 -0.325964 -1.66978
4.67416 -0.295964 -1.66678
4.68016 -0.281964 -1.66978
4.67717 -0.266964 -1.66778
4.68417 -0.251964 -1.66978
4.67316 -0.243964 -1.66578
4.68117 -0.229964 -1.66878
4.67816 -0.214964 -1.66678
4.67717 -0.200964 -1.66678
4.68716 -0.185964 -1.66978
4.67816 -0.170964 -1.66678
4.67116 -0.155964 -1.66378
4.67717 -0.148964 -1.66578
4.67517 -0.133964 -1.66478
4.67617 -0.119964 -1.66478
4.67216 -0.104964 -1.66378
4.68016 -0.0899635 -1.66678
4.67517 -0.0749635 -1.66478
4.67717 -0.0609635 -1.66478
4.67017 -0.0529635 -1.66178
4.66817 -0.0389635 -1.66178
4.67916 -0.0239635 -1.66578
4.67216 -0.00896351 -1.66278
4.55416 0.00103649 -1.66678
4.56417 0.0300365 -1.67078
4.55617 0.0440365 -1.66778
4.55416 0.0580365 -1.66678
4.55617 0.0720365 -1.66778
4.56816 0.0940365 -1.67278
4.56016 0.108036 -1.66978
4.56417 0.123036 -1.67178
4.56916 0.137036 -1.67378
4.55717 0.151036 -1.66978
4.56417 0.166036 -1.67178
4.55516 0.180037 -1.66878
4.54116 0.186036 -1.66378
4.54116 0.201036 -1.66378
4.55117 0.215036 -1.66778
4.54317 0.229036 -1.66478
4.56116 0.245036 -1.67178
4.54116 0.258036 -1.66478
4.52816 0.271036 -1.65978
4.55516 0.280036 -1.67078
4.54916 0.294036 -1.66878
4.54016 0.308036 -1.66578
4.54317 0.322036 -1.66678
4.52916 0.336036 -1.66178
4.54616 0.351036 -1.66978
4.53217 0.365036 -1.66378
4.55217 0.374036 -1.67178
4.53017 0.386036 -1.66378
4.54016 0.401036 -1.66878
4.52816 0.414036 -1.66378
4.52316 0.428036 -1.66278
4.53616 0.444036 -1.66878
4.53316 0.458036 -1.66778
4.53616 0.466036 -1.66978
4.52316 0.479036 -1.66478
4.53717 0.495036 -1.67078
4.52216 0.507037 -1.66578
4.51917 0.521037 -1.66478
4.52316 0.536036 -1.66678
4.51516 0.550036 -1.66478
4.52216 0.558037 -1.66778
4.51817 0.572037 -1.66678
4.50716 0.585036 -1.66378
4.51516 0.600037 -1.66678
4.51616 0.615036 -1.66878
4.51117 0.628036 -1.66678
4.50517 0.642036 -1.66578
4.51017 0.650036 -1.66778
4.49616 0.662036 -1.66378
4.50417 0.678036 -1.66678
4.50716 0.693036 -1.66978
4.49416 0.705036 -1.66478
4.49016 0.719036 -1.66378
4.49817 0.735036 -1.66878
4.49917 0.742036 -1.66978
4.49917 0.757037 -1.66978
4.50216 0.772036 -1.67178
4.48617 0.784036 -1.66678
4.48617 0.798036 -1.66778
4.48517 0.813037 -1.66878
4.46417 0.823036 -1.66178
4.49317 0.843036 -1.67378
4.48017 0.848036 -1.66978
4.47217 0.861036 -1.66678
4.48017 0.877036 -1.67178
4.47917 0.892036 -1.67178
4.44717 0.900036 -1.66078
4.46617 0.918036 -1.66978
4.46116 0.925036 -1.66778
4.46017 0.939036 -1.66878
4.46517 0.955036 -1.67178
4.46216 0.969036 -1.67178
4.44916 0.981036 -1.66778
4.45217 0.996036 -1.66978
4.45016 1.01004 -1.67078
4.44517 1.01604 -1.66978
4.43716 1.02904 -1.66678
4.43716 1.04404 -1.66878
4.44316 1.06004 -1.67178
4.42816 1.07104 -1.66778
4.43817 1.08804 -1.67278
4.42916 1.10104 -1.67078
4.43117 1.10904 -1.67178
4.42416 1.12204 -1.67078
4.42216 1.13604 -1.67178
4.41516 1.14904 -1.66978
4.42017 1.16504 -1.67378
4.40916 1.17704 -1.67078
4.41417 1.19404 -1.67478
4.39417 1.20304 -1.66778
4.40017 1.21204 -1.67078
4.39816 1.22604 -1.67178
4.40617 1.24404 -1.67678
4.38517 1.25204 -1.66978
4.38816 1.26804 -1.67178
4.39116 1.28404 -1.67478
4.38717 1.29804 -1.67478
4.37917 1.30304 -1.67278
4.39516 1.32304 -1.68078
4.36617 1.32904 -1.67078
4.36316 1.34304 -1.67178
4.35917 1.35704 -1.67178
4.36216 1.37304 -1.67478
4.36017 1.38004 -1.67478
4.36316 1.39604 -1.67778
4.35816 1.40904 -1.67778
4.35517 1.42404 -1.67778
4.35517 1.43904 -1.67978
4.34516 1.45004 -1.67778
4.34117 1.47204 -1.67878
4.32617 1.48204 -1.67478
4.33716 1.50104 -1.68078
4.32217 1.51104 -1.67678
4.32416 1.52704 -1.67978
4.31616 1.54004 -1.67778
4.31816 1.55604 -1.68078
4.30416 1.56604 -1.67778
4.30717 1.57504 -1.67978
4.30617 1.60504 -1.68278
4.28917 1.61404 -1.67778
4.28917 1.62904 -1.67978
4.28416 1.64304 -1.67978
4.28416 1.65804 -1.68278
4.27417 1.66204 -1.67978
4.26416 1.67404 -1.67778
4.25116 1.71504 -1.67878
4.24917 1.73004 -1.67978
4.25216 1.74704 -1.68378
4.23916 1.74904 -1.67978
4.24217 1.76604 -1.68278
4.23517 1.77904 -1.68278
4.22016 1.80404 -1.68078
4.22217 1.82004 -1.68378
4.21617 1.83304 -1.68378
4.20817 1.83804 -1.68178
4.19416 1.86304 -1.68078
4.18016 1.87304 -1.67778
4.18317 1.90604 -1.68378
4.18217 1.91304 -1.68478
4.17116 1.92404 -1.68278
4.15816 1.93404 -1.67978
4.15017 1.94604 -1.67878
4.15617 1.96504 -1.68378
4.14516 1.97504 -1.68178
4.14016 1.98904 -1.68278
4.14116 1.99704 -1.68378
4.13617 2.01104 -1.68478
4.11316 2.03204 -1.67978
4.12016 2.05204 -1.68578
4.11916 2.06704 -1.68778
4.11017 2.07904 -1.68778
4.10217 2.09104 -1.68678
4.09216 2.11104 -1.68678
4.08116 2.13704 -1.68778
4.06616 2.14604 -1.68378
4.06216 2.16004 -1.68578
4.05416 2.17204 -1.68478
4.05516 2.18104 -1.68678
4.04716 2.19304 -1.68578
4.04317 2.20704 -1.68778
4.03217 2.23504 -1.68878
4.02417 2.24604 -1.68778
4.01817 2.26004 -1.68878
4.00916 2.28004 -1.68978
3.99617 2.28904 -1.68678
3.99317 2.30404 -1.68878
3.99117 2.31904 -1.69078
3.97917 2.32904 -1.68878
3.97317 2.33404 -1.68778
3.97217 2.35104 -1.69078
3.95917 2.35904 -1.68778
3.93517 2.39504 -1.68778
3.91817 2.44504 -1.69178
3.87217 2.51004 -1.69078
3.83017 2.58704 -1.69378
3.82617 2.59304 -1.69378
3.80817 2.59804 -1.68878
3.80817 2.61604 -1.69278
3.79217 2.62204 -1.68878
3.78317 2.65104 -1.69278
3.77317 2.67104 -1.69378
3.76817 2.68504 -1.69578
3.75017 2.70804 -1.69478
3.73417 2.71404 -1.69078
3.73317 2.73104 -1.69478
3.72217 2.74204 -1.69378
3.71417 2.74404 -1.69178
3.71117 2.76104 -1.69478
3.70417 2.77304 -1.69578
3.68817 2.77904 -1.69178
3.67317 2.78604 -1.68878
3.66317 2.79704 -1.68778
3.66417 2.81604 -1.69378
3.66417 2.82504 -1.69578
3.65117 2.83304 -1.69378
3.64117 2.84404 -1.69278
3.63217 2.85504 -1.69278
3.62317 2.86704 -1.69278
3.61517 2.87904 -1.69378
3.60817 2.88204 -1.69178
3.59317 2.88904 -1.68878
3.59517 2.91004 -1.69478
3.56617 2.90404 -1.68478
3.57017 2.92604 -1.69078
3.56617 2.94204 -1.69378
3.55417 2.95104 -1.69278
3.54917 2.95704 -1.69278
3.53017 2.95904 -1.68778
3.52117 2.97004 -1.68778
3.50917 2.97904 -1.68578
3.51117 3.00004 -1.69178
3.50517 3.01504 -1.69378
3.49317 3.02304 -1.69278
3.47717 3.02804 -1.68878
3.47617 3.03704 -1.69078
3.46817 3.04904 -1.69178
3.46417 3.06504 -1.69478
