7.68514 1.81802 -1.64258
7.67314 1.84102 -1.64158
7.67714 1.86702 -1.64358
7.66514 1.89002 -1.64258
7.66414 1.90202 -1.64258
7.64714 1.92302 -1.64058
7.63914 1.94702 -1.63958
7.62314 1.96902 -1.63758
7.61714 1.99202 -1.63758
7.61114 2.01602 -1.63758
7.59914 2.03902 -1.63658
7.59614 2.05102 -1.63658
7.60014 2.07802 -1.63858
7.59914 2.10302 -1.64058
7.58314 2.12402 -1.63858
7.59214 2.15202 -1.64158
7.57414 2.17302 -1.63858
7.55614 2.19402 -1.63658
7.56014 2.20802 -1.63858
7.55414 2.23202 -1.63858
7.54014 2.25302 -1.63658
7.55514 2.28402 -1.64258
7.53714 2.30402 -1.63958
7.52814 2.32702 -1.63858
7.52814 2.35302 -1.64058
7.53314 2.36802 -1.64258
7.52014 2.39002 -1.64158
7.50214 2.41002 -1.63858
7.51414 2.44002 -1.64358
7.50514 2.46302 -1.64358
7.49214 2.48502 -1.64258
7.50414 2.51502 -1.64658
7.48014 2.52002 -1.64258
7.48914 2.54902 -1.64558
7.48814 2.57502 -1.64758
7.47414 2.59702 -1.64658
7.47714 2.62402 -1.64858
7.47114 2.64802 -1.64958
7.46414 2.67202 -1.64958
7.46714 2.68702 -1.65158
7.23714 3.27902 -1.65358
7.23614 3.29202 -1.65458
7.22914 3.31702 -1.65558
7.21514 3.33802 -1.65458
5.53514 5.87302 -1.68158
5.51314 5.88602 -1.68058
5.48214 5.89102 -1.67658
5.45214 5.89502 -1.67258
5.43314 5.91202 -1.67258
5.40814 5.92202 -1.67058
5.38414 5.93302 -1.66858
5.36314 5.92802 -1.66458
7.69514 -1.46898 -1.62858
7.70414 -1.44598 -1.62958
7.71614 -1.42298 -1.63158
7.72214 -1.39898 -1.63258
7.73014 -1.37598 -1.63258
7.74214 -1.35298 -1.63458
7.75014 -1.32898 -1.63558
7.75614 -1.31798 -1.63658
7.76814 -1.29498 -1.63858
7.78414 -1.27198 -1.64058
7.79514 -1.24898 -1.64258
7.80114 -1.22498 -1.64258
7.79714 -1.19898 -1.64158
7.82314 -1.08998 -1.64358
7.82714 -1.06498 -1.64358
7.82414 -1.03998 -1.64258
7.82714 -1.01498 -1.64258
7.83314 -1.00398 -1.64258
7.87114 -0.608975 -1.64258
7.87514 -0.583975 -1.64258
7.87414 -0.521975 -1.64158
7.86914 -0.496975 -1.64058
7.87514 -0.471975 -1.64158
7.87614 -0.446975 -1.64158
7.87614 -0.422975 -1.64058
7.87714 -0.397975 -1.64058
7.88214 -0.372975 -1.64158
7.88914 -0.360975 -1.64258
7.88014 -0.335975 -1.64058
7.86714 -0.310975 -1.63758
7.86814 -0.285975 -1.63758
7.87314 -0.260975 -1.63858
7.87614 -0.236975 -1.63858
7.86914 -0.211975 -1.63758
7.87514 -0.186975 -1.63858
7.86914 -0.174975 -1.63758
7.87414 -0.149975 -1.63858
7.86714 -0.124975 -1.63658
7.87114 -0.0999752 -1.63758
7.85914 -0.0759752 -1.63458
7.86514 -0.0509752 -1.63558
7.86414 -0.0259752 -1.63558
7.86414 -0.0139752 -1.63558
7.38014 1.62502 -1.63358
7.37114 1.64802 -1.63358
7.37814 1.66102 -1.63558
7.36714 1.68302 -1.63358
7.36214 1.70602 -1.63358
7.35914 1.75402 -1.63558
7.34414 1.77502 -1.63358
7.34614 1.80002 -1.63558
7.36714 1.81802 -1.64158
7.34314 1.83602 -1.63658
7.32914 1.85702 -1.63458
7.34614 1.88602 -1.64058
7.31514 1.95202 -1.63758
7.30114 1.96002 -1.63458
7.30214 1.98502 -1.63658
7.30114 2.01002 -1.63758
7.28214 2.02902 -1.63458
7.27514 2.05202 -1.63458
7.28614 2.07902 -1.63858
7.26214 2.09702 -1.63458
7.26814 2.11202 -1.63658
7.26414 2.13502 -1.63758
7.24114 2.20302 -1.63658
7.24014 2.26502 -1.64058
7.21114 2.28002 -1.63558
7.20914 2.30502 -1.63658
7.21314 2.33102 -1.63958
7.18614 2.37202 -1.63658
7.18514 2.39702 -1.63858
7.17414 2.40602 -1.63658
7.17614 2.43202 -1.63858
7.17414 2.45602 -1.63958
7.15114 2.47302 -1.63658
7.15614 2.50002 -1.63958
7.16314 2.52802 -1.64358
7.14414 2.54702 -1.64058
7.13614 2.55702 -1.63958
7.14314 2.58402 -1.64358
7.12914 2.60502 -1.64158
7.12514 2.62802 -1.64258
7.12914 2.65602 -1.64558
7.11014 2.67402 -1.64358
7.11114 2.70002 -1.64558
7.10814 2.71202 -1.64558
7.10914 2.73702 -1.64758
7.09614 2.75802 -1.64758
7.10214 2.78602 -1.65058
7.08314 2.80402 -1.64758
7.09214 2.83402 -1.65258
7.09914 2.86302 -1.65658
7.08614 2.87002 -1.65458
7.07114 2.89002 -1.65258
7.06614 2.91402 -1.65358
7.05314 2.93402 -1.65258
7.04914 2.95902 -1.65458
7.04014 2.98102 -1.65458
7.03714 2.99302 -1.65458
7.02214 3.01302 -1.65358
7.00914 3.03302 -1.65258
6.99214 3.05202 -1.65058
6.98814 3.07602 -1.65258
6.97614 3.09702 -1.65158
6.96514 3.11902 -1.65158
6.96214 3.13002 -1.65158
6.95214 3.15202 -1.65158
6.92614 3.16702 -1.64758
6.92814 3.19402 -1.65058
6.90814 3.21102 -1.64758
6.89914 3.23302 -1.64858
6.89114 3.25602 -1.64858
6.88814 3.28102 -1.65058
6.87214 3.28702 -1.64758
6.86514 3.31002 -1.64858
6.86014 3.33402 -1.65058
6.84614 3.35402 -1.64958
6.83414 3.37502 -1.64858
6.83214 3.40002 -1.65158
6.81614 3.41902 -1.64958
6.81214 3.43102 -1.65058
6.81014 3.45702 -1.65258
6.79614 3.47602 -1.65158
6.80214 3.50602 -1.65658
6.79114 3.52802 -1.65658
6.77814 3.54802 -1.65558
6.77914 3.57602 -1.65858
6.77314 3.58702 -1.65858
6.75914 3.60602 -1.65758
6.76114 3.63502 -1.66158
6.75014 3.65602 -1.66158
6.73114 3.67302 -1.65958
5.41214 5.53302 -1.67658
5.39414 5.54902 -1.67558
5.36814 5.55702 -1.67358
5.33214 5.55502 -1.66658
7.42714 -1.33298 -1.63158
7.44714 -1.27598 -1.63358
7.43714 -1.24998 -1.63058
7.44914 -1.22798 -1.63258
7.46414 -1.20598 -1.63458
7.47014 -1.18298 -1.63558
7.47714 -1.15998 -1.63658
7.50014 -1.13998 -1.64058
7.50414 -1.12798 -1.64158
7.52314 -1.10698 -1.64458
7.52814 -1.08398 -1.64558
7.54314 -1.06098 -1.64758
7.54814 -1.01398 -1.64758
7.53014 -0.986975 -1.64258
7.53314 -0.975975 -1.64358
7.55014 -0.953975 -1.64658
7.54714 -0.928975 -1.64458
7.54414 -0.904975 -1.64358
7.56014 -0.882975 -1.64658
7.55314 -0.857975 -1.64458
7.55014 -0.833975 -1.64358
7.56914 -0.823975 -1.64758
7.56214 -0.798975 -1.64458
7.56014 -0.774975 -1.64358
7.56914 -0.750975 -1.64558
7.55514 -0.725975 -1.64158
7.54814 -0.701975 -1.63958
7.55814 -0.678975 -1.64158
7.54114 -0.652975 -1.63658
7.56514 -0.642975 -1.64258
7.55714 -0.618975 -1.63958
7.54014 -0.593975 -1.63558
7.55514 -0.570975 -1.63858
7.57014 -0.547975 -1.64158
7.54314 -0.521975 -1.63458
7.54914 -0.498975 -1.63558
7.55314 -0.486975 -1.63658
7.54114 -0.462975 -1.63358
7.54214 -0.438975 -1.63358
7.54214 -0.414975 -1.63358
7.54714 -0.391975 -1.63358
7.54414 -0.367975 -1.63358
7.54914 -0.343975 -1.63358
7.53814 -0.331975 -1.63158
7.53914 -0.307975 -1.63158
7.54614 -0.284975 -1.63258
7.53314 -0.260975 -1.62958
7.53814 -0.236975 -1.63058
7.54114 -0.212975 -1.63058
7.53914 -0.201975 -1.63058
7.54414 -0.0239752 -1.63058
7.30114 0.00402481 -1.63458
7.30914 0.0270248 -1.63658
7.29914 0.0390248 -1.63458
7.30714 0.0620248 -1.63658
7.31214 0.107025 -1.63758
7.30214 0.130025 -1.63558
7.30014 0.153025 -1.63458
7.29514 0.176025 -1.63358
7.30214 0.211025 -1.63558
7.29914 0.234025 -1.63558
7.29114 0.302025 -1.63358
7.28814 0.325025 -1.63358
7.26914 0.622025 -1.63358
7.27014 0.657025 -1.63458
7.25314 0.874025 -1.63558
7.24314 0.919025 -1.63458
7.24214 0.931025 -1.63458
7.23614 0.999025 -1.63558
7.23514 1.02202 -1.63658
7.22114 1.07802 -1.63458
7.22014 1.12402 -1.63658
7.21514 1.14702 -1.63558
7.21714 1.17002 -1.63758
7.20914 1.21602 -1.63758
7.21114 1.25102 -1.63858
7.19014 1.29402 -1.63558
7.17914 1.33902 -1.63558
7.18514 1.37502 -1.63758
7.16914 1.39502 -1.63558
7.17614 1.42002 -1.63758
7.16914 1.44202 -1.63758
7.15114 1.48502 -1.63558
7.16714 1.51202 -1.64058
7.14714 1.52002 -1.63658
7.16014 1.54602 -1.64058
7.17014 1.57102 -1.64458
7.14814 1.59002 -1.63958
7.15614 1.61602 -1.64358
7.14714 1.63702 -1.64258
7.14214 1.66002 -1.64258
7.13614 1.67002 -1.64158
7.15714 1.69902 -1.64758
7.13514 1.71702 -1.64358
7.14614 1.74302 -1.64758
7.16714 1.77202 -1.65458
7.14314 1.79002 -1.64958
7.14514 1.80302 -1.65158
7.14314 1.85002 -1.65358
7.13614 1.87202 -1.65258
7.12814 1.89402 -1.65258
7.12014 1.91602 -1.65158
7.12014 1.94002 -1.65358
7.12314 1.96502 -1.65558
7.10714 1.97202 -1.65258
7.10414 1.99602 -1.65358
7.09414 2.01702 -1.65258
7.08014 2.03702 -1.65058
7.06614 2.05702 -1.64858
7.06414 2.08002 -1.64958
7.05914 2.10302 -1.65058
7.06114 2.11602 -1.65158
7.05414 2.13802 -1.65158
7.03714 2.15702 -1.64858
7.04114 2.18202 -1.65158
7.04914 2.20902 -1.65558
7.02114 2.22502 -1.65058
7.02714 2.25102 -1.65358
7.02814 2.26302 -1.65458
7.02214 2.28602 -1.65458
7.00614 2.30502 -1.65258
7.00014 2.35202 -1.65458
6.99314 2.37402 -1.65458
6.98114 2.45602 -1.65858
6.95414 2.52002 -1.65758
6.94014 2.57702 -1.65858
6.91714 2.64302 -1.65958
6.70014 3.15702 -1.65958
6.68014 3.19902 -1.65958
6.67414 3.24802 -1.66358
6.66114 3.25502 -1.66158
6.65614 3.27802 -1.66358
6.62514 3.34102 -1.66358
5.24914 5.37002 -1.68458
5.22114 5.37602 -1.68058
5.21114 5.38302 -1.68058
5.18114 5.38503 -1.67558
5.15214 5.38902 -1.67158
5.14114 5.41202 -1.67358
5.12014 5.42402 -1.67258
5.09514 5.43103 -1.66958
5.07414 5.44302 -1.66858
7.19114 -1.29698 -1.63658
7.18414 -1.27298 -1.63358
7.19914 -1.25198 -1.63658
7.21114 -1.23098 -1.63758
7.22214 -1.20998 -1.63958
7.23514 -1.18898 -1.64258
7.24114 -1.17798 -1.64358
7.24914 -1.15598 -1.64458
7.27314 -1.13598 -1.64958
7.28514 -1.11498 -1.65158
7.29314 -1.04598 -1.65058
7.32314 -0.769975 -1.64958
7.31614 -0.687975 -1.64558
7.33114 -0.665975 -1.64958
7.32614 -0.641975 -1.64758
7.33014 -0.618975 -1.64758
7.34114 -0.596975 -1.65058
7.33614 -0.584975 -1.64858
7.34214 -0.561975 -1.64958
7.33614 -0.538975 -1.64758
7.32614 -0.514975 -1.64458
7.34314 -0.492975 -1.64858
7.33514 -0.468975 -1.64658
7.32914 -0.444975 -1.64458
7.33814 -0.422975 -1.64658
7.33114 -0.410975 -1.64458
7.31414 -0.386975 -1.64058
7.33514 -0.364975 -1.64458
7.31114 -0.340975 -1.63858
7.33514 -0.318975 -1.64458
7.31114 -0.294975 -1.63858
7.32214 -0.271975 -1.64058
7.31414 -0.259975 -1.63858
7.33014 -0.237975 -1.64258
7.31414 -0.213975 -1.63858
7.32814 -0.191975 -1.64158
7.30514 -0.167975 -1.63658
7.32314 -0.144975 -1.64058
7.32014 -0.121975 -1.63958
7.31014 -0.110975 -1.63758
7.31214 -0.0879752 -1.63758
7.32614 -0.0649752 -1.64058
7.30914 -0.0419752 -1.63658
7.32314 -0.0189752 -1.63958
6.52714 2.66702 -1.64858
6.52114 2.68802 -1.64958
6.52414 2.70102 -1.65058
6.52414 2.72502 -1.65358
6.51214 2.74402 -1.65258
6.50314 2.76502 -1.65258
6.51214 2.79302 -1.65758
6.50014 2.81202 -1.65658
6.47714 2.82602 -1.65258
6.47114 2.83502 -1.65158
6.45514 2.85202 -1.65058
6.44714 2.87302 -1.65058
6.43814 2.89402 -1.65058
6.43114 2.91502 -1.65058
6.41714 2.93202 -1.64958
6.41314 2.95502 -1.65058
6.39914 2.96102 -1.64858
6.39214 2.98202 -1.64958
6.37914 3.00002 -1.64858
6.38014 3.02502 -1.65058
6.35014 3.06002 -1.64858
6.29114 3.19202 -1.64958
6.26814 3.24202 -1.65058
6.24414 3.30502 -1.65158
6.21814 3.34102 -1.65058
6.22814 3.35902 -1.65458
6.21714 3.37902 -1.65458
6.20514 3.39702 -1.65458
6.20114 3.42102 -1.65658
6.18014 3.43402 -1.65358
6.17814 3.45902 -1.65558
6.17214 3.48102 -1.65758
6.16014 3.48702 -1.65558
6.16114 3.51302 -1.65858
6.16814 3.54302 -1.66458
6.13514 3.54902 -1.65758
6.12714 3.57102 -1.65858
6.14114 3.60502 -1.66658
6.11114 3.61302 -1.66058
6.12714 3.63602 -1.66758
6.11714 3.65602 -1.66758
6.08814 3.66402 -1.66258
6.09914 3.69702 -1.66858
6.09314 3.71902 -1.67058
6.06414 3.72802 -1.66558
6.06814 3.74402 -1.66858
6.07114 3.77202 -1.67258
6.04014 3.77902 -1.66758
6.04314 3.80702 -1.67158
6.01414 3.84202 -1.66958
5.20114 4.97602 -1.68558
5.15914 4.99802 -1.68158
5.13914 5.01003 -1.68058
5.10914 5.01302 -1.67558
5.08814 5.02302 -1.67358
5.07214 5.02302 -1.67058
6.92214 -1.11998 -1.63858
6.91814 -1.10798 -1.63758
6.93514 -1.08798 -1.64058
6.93314 -1.06598 -1.63958
6.93414 -1.04398 -1.63858
6.95614 -1.02498 -1.64358
6.99214 -1.00698 -1.65158
7.01114 -0.987975 -1.65558
7.00914 -0.975975 -1.65458
7.00414 -0.952975 -1.65258
6.99014 -0.928975 -1.64858
6.98714 -0.905975 -1.64758
7.01414 -0.886975 -1.65358
7.00214 -0.862975 -1.64958
6.99514 -0.839975 -1.64758
7.01514 -0.830975 -1.65158
6.96814 -0.803975 -1.63958
6.98214 -0.782975 -1.64258
6.99014 -0.761975 -1.64358
6.97514 -0.737975 -1.63958
6.97614 -0.715975 -1.63858
6.98214 -0.693975 -1.63958
6.98514 -0.661975 -1.63958
6.99614 -0.639975 -1.64258
6.21414 2.73602 -1.65258
6.20214 2.75402 -1.65158
6.19714 2.77502 -1.65258
6.19814 2.78702 -1.65458
6.19614 2.80902 -1.65658
6.19214 2.83102 -1.65758
6.17614 2.84702 -1.65558
6.16214 2.86402 -1.65458
6.15514 2.88402 -1.65458
6.13314 2.89802 -1.65158
6.14814 2.91702 -1.65658
6.12514 2.92902 -1.65258
6.11614 2.94902 -1.65258
6.11714 2.97302 -1.65558
6.08814 3.00602 -1.65258
6.08314 3.02802 -1.65458
6.05614 3.07402 -1.65358
6.03514 3.13502 -1.65558
6.01914 3.15102 -1.65358
6.01114 3.18202 -1.65558
5.97914 3.23802 -1.65558
5.95614 3.28702 -1.65658
5.94314 3.30402 -1.65558
5.93914 3.32602 -1.65758
5.93014 3.34602 -1.65758
5.91114 3.35902 -1.65558
5.92614 3.39202 -1.66258
5.91014 3.40802 -1.66158
5.90114 3.41502 -1.66058
5.89414 3.43602 -1.66158
5.88514 3.45502 -1.66158
5.87414 3.47402 -1.66158
5.87014 3.49602 -1.66358
5.86414 3.51802 -1.66558
5.85814 3.53902 -1.66658
5.85014 3.54702 -1.66658
5.84314 3.56802 -1.66758
5.83814 3.59002 -1.66958
5.82214 3.60502 -1.66858
5.82014 3.63002 -1.67158
5.81014 3.64902 -1.67158
5.79414 3.66402 -1.67058
5.79614 3.67802 -1.67258
5.78514 3.69602 -1.67258
5.77814 3.71802 -1.67458
5.77514 3.74102 -1.67658
5.75614 3.75502 -1.67458
5.74814 3.77502 -1.67558
5.74214 3.79702 -1.67758
5.07714 4.69202 -1.68558
5.05814 4.70402 -1.68358
5.03614 4.71403 -1.68158
5.01314 4.72202 -1.67858
5.00214 4.74102 -1.67958
4.97314 4.74402 -1.67458
4.95114 4.75302 -1.67258
6.69714 -1.01798 -1.64858
6.70114 -1.00698 -1.64958
6.71714 -0.987975 -1.65258
6.72814 -0.967975 -1.65458
6.71014 -0.943975 -1.64958
6.71914 -0.923975 -1.65058
6.72514 -0.902975 -1.65158
6.72414 -0.881975 -1.65058
6.72714 -0.870975 -1.65158
6.72414 -0.848975 -1.64958
6.48114 0.0370248 -1.64458
6.28914 1.70602 -1.65358
6.27814 1.72402 -1.65258
6.26314 1.74102 -1.64958
6.08914 2.29702 -1.65158
6.06214 2.37402 -1.65258
6.05114 2.40302 -1.65258
6.04114 2.44302 -1.65358
6.02814 2.46002 -1.65258
6.02114 2.50102 -1.65558
6.02914 2.52702 -1.65958
6.02514 2.53602 -1.65958
5.99814 2.54702 -1.65358
6.01114 2.57502 -1.66058
5.99614 2.59102 -1.65858
6.00314 2.61702 -1.66258
6.00914 2.64202 -1.66758
5.99014 2.65602 -1.66358
5.98114 2.66302 -1.66258
6.00414 2.69602 -1.67158
5.96814 2.70202 -1.66358
5.96614 2.72402 -1.66558
5.96514 2.74602 -1.66758
5.95414 2.76402 -1.66758
5.96514 2.78102 -1.67158
5.95814 2.80002 -1.67258
5.94314 2.81602 -1.67058
5.93414 2.83402 -1.67058
5.93514 2.85802 -1.67358
5.92114 2.87402 -1.67158
5.88914 2.90402 -1.66758
5.89014 2.91602 -1.66958
5.87914 2.93402 -1.66858
5.87514 2.95502 -1.67058
5.85014 2.96502 -1.66558
5.83214 2.97902 -1.66258
5.83614 3.00502 -1.66758
5.82014 3.01902 -1.66458
5.81714 3.03002 -1.66558
5.82114 3.05502 -1.66958
5.80114 3.06802 -1.66658
5.78514 3.08202 -1.66458
5.78014 3.10302 -1.66658
5.76714 3.12002 -1.66458
5.76614 3.14202 -1.66758
5.75914 3.15002 -1.66758
5.74214 3.16502 -1.66458
5.73614 3.18502 -1.66658
5.73614 3.20802 -1.66958
5.71714 3.22202 -1.66658
5.71914 3.24602 -1.67058
5.70414 3.26102 -1.66858
5.71214 3.27802 -1.67258
5.68614 3.28702 -1.66858
5.68314 3.30902 -1.67058
5.67114 3.32602 -1.66958
5.67814 3.35402 -1.67558
5.66114 3.36802 -1.67358
5.63914 3.39102 -1.67158
5.62614 3.40802 -1.67058
5.63214 3.43502 -1.67558
5.62014 3.45202 -1.67558
5.59614 3.46202 -1.67158
5.60114 3.48902 -1.67658
5.58914 3.49402 -1.67458
5.57814 3.51202 -1.67458
5.57214 3.53202 -1.67558
5.57114 3.55602 -1.67958
5.55114 3.56802 -1.67658
5.55014 3.59202 -1.67958
5.52714 3.62702 -1.67958
5.50214 3.67202 -1.68058
5.00214 4.36402 -1.68658
4.98814 4.37902 -1.68658
4.94714 4.37102 -1.67758
4.93314 4.37203 -1.67458
4.91614 4.38503 -1.67358
6.41014 -1.05998 -1.64858
6.47414 -0.862975 -1.65858
6.46714 -0.840975 -1.65558
6.45514 -0.818975 -1.65158
6.45914 -0.798975 -1.65158
6.47314 -0.779975 -1.65558
6.45614 -0.756975 -1.64958
6.46314 -0.747975 -1.65158
6.48714 -0.729975 -1.65758
6.46614 -0.706975 -1.65058
6.47014 -0.686975 -1.65158
6.46514 -0.665975 -1.64958
6.46314 -0.644975 -1.64858
6.47214 -0.625975 -1.65058
6.47714 -0.615975 -1.65158
6.47514 -0.594975 -1.65058
6.47514 -0.574975 -1.64958
6.48514 -0.554975 -1.65158
6.48114 -0.533975 -1.65058
6.48414 -0.513975 -1.65058
6.48414 -0.492975 -1.65058
6.48314 -0.472975 -1.64958
6.47614 -0.461975 -1.64758
6.48014 -0.441975 -1.64858
6.47514 -0.420975 -1.64658
6.47114 -0.400975 -1.64558
6.47614 -0.379975 -1.64658
6.48514 -0.359975 -1.64858
6.47414 -0.349975 -1.64558
6.47514 -0.328975 -1.64558
6.47614 -0.308975 -1.64558
6.47714 -0.288975 -1.64558
6.47914 -0.227975 -1.64558
6.48414 -0.217975 -1.64658
6.49014 -0.196975 -1.64758
6.49514 -0.156975 -1.64858
6.47814 -0.135975 -1.64458
6.49014 -0.115975 -1.64758
6.47914 -0.0439752 -1.64458
5.28914 3.52002 -1.66558
5.26914 3.54302 -1.66458
5.26314 3.56302 -1.66658
5.24514 3.59902 -1.66858
5.23514 3.61702 -1.66858
5.21914 3.63002 -1.66758
5.21414 3.65102 -1.66958
5.21214 3.66102 -1.67058
5.19514 3.67402 -1.66858
5.19814 3.70002 -1.67358
5.18614 3.71702 -1.67358
5.17314 3.73202 -1.67258
5.16614 3.75102 -1.67458
5.16614 3.76402 -1.67658
5.15914 3.78402 -1.67858
5.15314 3.80402 -1.68058
5.14614 3.82402 -1.68258
5.13714 3.84202 -1.68358
4.90814 4.16302 -1.68958
4.85314 4.14302 -1.67358
6.19814 -1.07298 -1.64858
6.20714 -1.05398 -1.64958
6.21614 -1.04598 -1.65158
6.22514 -1.02698 -1.65358
6.23814 -1.00898 -1.65658
6.23514 -0.988975 -1.65458
6.23814 -0.968975 -1.65458
6.22814 -0.946975 -1.65058
6.23314 -0.927975 -1.65158
6.23414 -0.917975 -1.65158
5.55514 2.57302 -1.66158
5.53914 2.60702 -1.66158
5.53914 2.63902 -1.66558
5.51514 2.64902 -1.66058
5.52214 2.67402 -1.66558
5.50514 2.68702 -1.66258
5.50214 2.70702 -1.66458
5.48814 2.72202 -1.66258
5.48114 2.74002 -1.66358
5.47514 2.74802 -1.66258
5.47414 2.76802 -1.66458
5.46114 2.78402 -1.66358
5.45114 2.80002 -1.66358
5.44014 2.81602 -1.66258
5.43214 2.83302 -1.66258
5.42414 2.85102 -1.66358
5.39814 2.89202 -1.66258
5.30214 3.08102 -1.66458
5.27314 3.13002 -1.66458
5.23914 3.18902 -1.66458
5.17514 3.29702 -1.66558
5.16614 3.31402 -1.66658
5.16214 3.33402 -1.66858
5.15514 3.35302 -1.66958
5.14614 3.37002 -1.66958
5.13714 3.38702 -1.67058
5.12414 3.39002 -1.66758
5.10914 3.42602 -1.66958
5.08414 3.45602 -1.66858
5.08114 3.47702 -1.67158
5.06314 3.48902 -1.66958
5.06014 3.51002 -1.67258
5.05614 3.51902 -1.67258
5.04214 3.53302 -1.67158
5.04214 3.55702 -1.67558
5.02314 3.56702 -1.67258
5.01614 3.58602 -1.67458
5.02214 3.61402 -1.68058
4.98514 3.61102 -1.67158
4.99014 3.62702 -1.67458
4.99214 3.65202 -1.67958
4.98714 3.67302 -1.68258
4.96814 3.68302 -1.67958
4.95814 3.69902 -1.67958
4.94414 3.71402 -1.67958
4.93614 3.73202 -1.68058
4.95014 3.75402 -1.68758
4.92414 3.75902 -1.68258
4.91714 3.77802 -1.68458
4.90714 3.82002 -1.68958
4.68214 4.10402 -1.69158
4.63514 4.08802 -1.67858
4.61514 4.09602 -1.67558
4.60314 4.11202 -1.67658
5.99514 -1.10398 -1.65358
6.01314 -1.08798 -1.65858
6.00714 -1.06698 -1.65558
6.02214 -1.04998 -1.65858
6.00814 -1.03798 -1.65458
6.01514 -1.01998 -1.65558
6.02414 -1.00198 -1.65758
6.02714 -0.982975 -1.65758
6.01914 -0.961975 -1.65358
6.02414 -0.943975 -1.65458
6.02514 -0.923975 -1.65358
6.02814 -0.837975 -1.65058
6.03214 -0.789975 -1.65058
5.38214 2.59902 -1.66258
5.37514 2.62702 -1.66458
5.35314 2.65802 -1.66258
5.35714 2.68102 -1.66658
5.34914 2.69802 -1.66658
5.34214 2.71602 -1.66658
5.33014 2.73102 -1.66558
5.31514 2.75502 -1.66558
5.04014 3.24802 -1.66858
5.03114 3.29802 -1.67358
5.00614 3.30402 -1.66858
4.99614 3.32002 -1.66858
5.00314 3.34702 -1.67458
4.97614 3.35202 -1.66958
4.96714 3.36902 -1.66958
4.97814 3.38802 -1.67558
4.94714 3.41202 -1.67258
4.95214 3.43902 -1.67758
4.92514 3.44302 -1.67258
4.91114 3.45702 -1.67058
4.91814 3.48402 -1.67758
4.90614 3.48702 -1.67458
4.90014 3.50602 -1.67658
4.89314 3.52502 -1.67858
4.87614 3.53602 -1.67658
4.86614 3.55202 -1.67658
4.86914 3.57802 -1.68158
4.85014 3.58702 -1.67858
4.84014 3.59102 -1.67758
4.84414 3.61802 -1.68258
4.82514 3.62702 -1.68058
4.82414 3.65102 -1.68458
4.81114 3.66502 -1.68358
4.79814 3.67902 -1.68258
4.79914 3.70302 -1.68758
4.79614 3.71302 -1.68858
4.77814 3.72302 -1.68658
4.76514 3.73702 -1.68558
4.76414 3.76002 -1.68958
4.74814 3.77202 -1.68858
4.72814 3.78102 -1.68558
4.72114 3.81102 -1.68958
4.71514 3.83102 -1.69158
4.68514 3.85602 -1.68958
4.56614 3.99202 -1.68858
4.55314 4.01902 -1.69058
4.53214 4.02602 -1.68758
4.52514 4.04502 -1.68958
4.49814 4.04602 -1.68458
4.47214 4.04902 -1.67858
4.45814 4.06202 -1.67858
5.85714 -1.12298 -1.65858
5.86214 -1.10498 -1.65958
5.87014 -1.08698 -1.66058
5.86914 -1.07698 -1.65958
5.86114 -1.05698 -1.65658
5.88214 -1.04098 -1.66158
5.87914 -1.02198 -1.65958
5.86414 -0.999975 -1.65358
5.87114 -0.981975 -1.65558
5.87714 -0.964975 -1.65658
5.87414 -0.935975 -1.65358
5.73314 0.00402481 -1.65958
5.72914 0.0130248 -1.65858
5.75014 0.0310248 -1.66458
5.73614 0.0670248 -1.66058
5.71914 0.0850248 -1.65558
5.74114 0.121025 -1.66258
5.72714 0.148025 -1.65858
5.71714 0.165025 -1.65558
5.74114 0.202025 -1.66258
5.72014 0.238025 -1.65658
5.72914 0.265025 -1.65958
5.71914 0.301025 -1.65758
5.72914 0.337025 -1.66158
5.71814 0.382025 -1.65858
5.71414 0.436025 -1.65858
5.71014 0.516025 -1.65958
5.69314 0.687025 -1.65958
5.67914 0.712025 -1.65658
5.67414 0.766025 -1.65658
5.68214 0.803025 -1.66158
5.66614 0.837025 -1.65758
5.67514 0.866025 -1.66158
5.66514 0.938025 -1.66258
5.65714 0.964025 -1.66158
5.65714 1.01902 -1.66458
5.63314 1.03302 -1.65758
5.63714 1.05202 -1.65958
5.62714 1.07702 -1.65858
5.65514 1.10102 -1.66858
5.62014 1.13102 -1.65958
5.61314 1.14802 -1.65858
5.62614 1.16902 -1.66358
5.61114 1.19402 -1.66058
5.63514 1.21702 -1.66958
5.60014 1.22802 -1.65958
5.59414 1.24502 -1.65858
5.59214 1.26302 -1.65958
5.58414 1.28002 -1.65858
5.58214 1.30702 -1.65958
5.59314 1.32802 -1.66458
5.57514 1.34202 -1.65958
5.59514 1.36602 -1.66758
5.57214 1.37902 -1.66158
5.59014 1.40202 -1.66858
5.56414 1.41402 -1.66158
5.58414 1.42802 -1.66858
5.57114 1.46202 -1.66758
5.55914 1.47802 -1.66558
5.56514 1.49802 -1.66858
5.53514 1.50902 -1.66058
5.55014 1.53202 -1.66758
5.52814 1.53502 -1.66058
5.55614 1.56202 -1.67158
5.53414 1.57402 -1.66558
5.54414 1.59602 -1.67058
5.52414 1.60902 -1.66558
5.50614 1.62302 -1.66158
5.50514 1.64102 -1.66258
5.50414 1.65002 -1.66358
5.49414 1.68502 -1.66358
5.49214 1.70302 -1.66458
5.48314 1.71902 -1.66358
5.48114 1.73802 -1.66458
5.47814 1.75502 -1.66558
5.46614 1.76102 -1.66258
5.46614 1.78002 -1.66458
5.46214 1.79802 -1.66458
5.45414 1.81402 -1.66458
5.45214 1.83302 -1.66558
5.45014 1.87002 -1.66858
5.43014 1.87302 -1.66258
5.43314 1.89302 -1.66558
5.42014 1.90802 -1.66358
5.41114 1.92302 -1.66258
5.42814 1.94902 -1.66958
5.40914 1.96102 -1.66558
5.39114 1.97402 -1.66158
5.40914 1.99002 -1.66858
5.39014 2.00202 -1.66458
5.39514 2.02302 -1.66858
5.37714 2.03602 -1.66458
5.38214 2.05702 -1.66858
5.36314 2.06902 -1.66458
5.36914 2.09102 -1.66858
5.36914 2.10102 -1.66958
5.36114 2.11702 -1.66858
5.34514 2.13002 -1.66558
5.34914 2.15102 -1.66958
5.34414 2.16902 -1.66958
5.34614 2.18902 -1.67258
5.34114 2.20702 -1.67358
5.32314 2.20902 -1.66858
5.32814 2.23102 -1.67258
5.31814 2.24602 -1.67158
5.31414 2.26502 -1.67258
5.30914 2.28202 -1.67358
5.29714 2.29602 -1.67158
5.29514 2.31502 -1.67358
5.29814 2.32702 -1.67558
5.29214 2.34402 -1.67658
5.28014 2.35802 -1.67458
5.28814 2.38202 -1.68058
5.26114 2.39002 -1.67358
5.25514 2.40702 -1.67458
5.25114 2.42502 -1.67558
5.24614 2.43302 -1.67458
5.24314 2.45202 -1.67658
5.23714 2.46902 -1.67758
5.23314 2.48702 -1.67858
5.22914 2.50502 -1.67958
5.21714 2.52002 -1.67858
5.20814 2.53602 -1.67758
5.20714 2.54502 -1.67858
5.21114 2.56802 -1.68258
5.18614 2.59602 -1.68058
5.18714 2.61702 -1.68258
5.18314 2.63602 -1.68458
5.16814 2.64802 -1.68258
5.16614 2.65702 -1.68258
5.15114 2.69102 -1.68358
5.12514 2.71802 -1.68058
5.12814 2.74102 -1.68458
5.12314 2.75902 -1.68558
5.11214 2.76302 -1.68358
5.08314 2.76802 -1.67658
5.06614 2.80002 -1.67658
5.06914 2.82302 -1.68058
5.05814 2.83802 -1.68058
5.05614 2.85702 -1.68258
5.03514 2.85602 -1.67658
5.04714 2.88402 -1.68458
5.01314 2.88502 -1.67558
5.02214 2.91202 -1.68158
5.00814 2.92402 -1.68058
4.99914 2.94002 -1.68058
4.97814 2.93802 -1.67458
4.99214 2.96802 -1.68258
4.96314 2.97102 -1.67558
4.97014 2.99702 -1.68158
4.95414 3.00902 -1.67858
4.93114 3.01602 -1.67458
4.92314 3.03302 -1.67458
4.94014 3.06402 -1.68458
4.91414 3.05902 -1.67658
4.91414 3.08002 -1.68058
4.90314 3.09502 -1.67958
4.89614 3.11202 -1.68058
4.86714 3.11502 -1.67358
4.87314 3.14102 -1.67958
4.84914 3.14702 -1.67458
4.86814 3.17002 -1.68258
4.84414 3.17602 -1.67758
4.83514 3.19202 -1.67858
4.82714 3.20802 -1.67858
4.83414 3.23502 -1.68558
4.80514 3.23802 -1.67858
4.80614 3.26002 -1.68258
4.79014 3.26002 -1.67858
4.79014 3.28302 -1.68258
4.76914 3.29002 -1.67858
4.77914 3.31902 -1.68558
4.75614 3.32602 -1.68158
4.74714 3.34202 -1.68158
4.73214 3.35302 -1.68058
4.73514 3.36602 -1.68258
4.71014 3.37102 -1.67758
4.72714 3.40602 -1.68858
4.70314 3.41102 -1.68258
4.69514 3.42802 -1.68458
4.68614 3.44402 -1.68458
4.67114 3.46702 -1.68558
4.66914 3.48802 -1.68858
4.65114 3.49702 -1.68558
4.64914 3.51902 -1.68958
4.62614 3.52402 -1.68458
4.62214 3.54402 -1.68758
4.62814 3.56102 -1.69258
4.60814 3.56802 -1.68858
4.60914 3.59202 -1.69358
4.58914 3.60002 -1.69058
4.58614 3.62102 -1.69358
4.57114 3.63202 -1.69158
4.53914 3.65302 -1.68858
4.53514 3.68602 -1.69358
4.52514 3.70102 -1.69458
4.51314 3.71502 -1.69458
4.24314 4.04102 -1.69858
4.20914 4.03402 -1.68958
4.18414 4.03502 -1.68458
5.62614 -1.17898 -1.66458
5.66114 -1.16798 -1.67458
5.66314 -1.15898 -1.67458
5.65714 -1.12098 -1.66958
5.66814 -1.10498 -1.67258
5.67914 -1.08798 -1.67458
5.67314 -1.06898 -1.67158
5.67314 -1.04998 -1.67058
5.68914 -1.03498 -1.67458
5.67914 -1.02398 -1.67158
5.67714 -1.00498 -1.66958
5.68014 -0.986975 -1.66958
5.68714 -0.969975 -1.67058
5.66914 -0.948975 -1.66458
5.68014 -0.931975 -1.66658
5.66814 -0.911975 -1.66158
5.66914 -0.902975 -1.66158
5.67714 -0.885975 -1.66358
5.67814 -0.867975 -1.66258
5.67914 -0.849975 -1.66258
5.69914 -0.833975 -1.66758
5.70314 -0.816975 -1.66858
5.69614 -0.797975 -1.66558
5.69614 -0.787975 -1.66458
5.71714 -0.772975 -1.67058
5.69114 -0.750975 -1.66158
5.70914 -0.734975 -1.66658
5.69014 -0.714975 -1.65958
5.68814 -0.696975 -1.65858
5.72514 -0.682975 -1.66958
5.69914 -0.670975 -1.66158
5.71114 -0.653975 -1.66458
5.70514 -0.634975 -1.66158
5.71714 -0.617975 -1.66458
5.70714 -0.598975 -1.66158
5.71514 -0.581975 -1.66258
5.71814 -0.563975 -1.66358
5.71614 -0.553975 -1.66258
5.72514 -0.536975 -1.66458
5.71714 -0.517975 -1.66158
5.74314 -0.501975 -1.66958
5.72414 -0.482975 -1.66258
5.71814 -0.463975 -1.66058
5.71214 -0.445975 -1.65858
5.75414 -0.439975 -1.67158
5.71714 -0.418975 -1.65958
5.73614 -0.401975 -1.66458
5.73114 -0.383975 -1.66258
5.72714 -0.364975 -1.66158
5.74314 -0.347975 -1.66558
5.71814 -0.328975 -1.65758
5.72614 -0.319975 -1.65958
5.73214 -0.302975 -1.66158
5.73214 -0.283975 -1.66158
5.74414 -0.266975 -1.66458
5.72414 -0.247975 -1.65858
5.73614 -0.229975 -1.66158
5.72314 -0.211975 -1.65758
5.72914 -0.202975 -1.65958
5.75814 -0.185975 -1.66858
5.72714 -0.166975 -1.65858
5.74214 -0.148975 -1.66258
5.73114 -0.130975 -1.65958
5.72614 -0.112975 -1.65758
5.73614 -0.103975 -1.66058
5.72514 -0.0859752 -1.65658
5.72514 -0.0679752 -1.65658
5.75414 -0.0499752 -1.66558
5.72114 -0.0319752 -1.65558
5.74414 -0.0139752 -1.66258
5.56514 0.00402481 -1.66558
5.56714 0.0220248 -1.66658
5.56914 0.0390248 -1.66758
5.56314 0.0570248 -1.66558
5.56714 0.0650248 -1.66658
5.55714 0.0830248 -1.66358
5.56614 0.100025 -1.66658
5.57714 0.118025 -1.67058
5.55014 0.135025 -1.66158
5.55014 0.152025 -1.66158
5.57214 0.170025 -1.66858
5.55614 0.179025 -1.66358
5.55414 0.196025 -1.66358
5.56314 0.214025 -1.66658
5.54114 0.231025 -1.65958
5.56114 0.249025 -1.66658
5.55114 0.266025 -1.66358
5.55814 0.284025 -1.66558
5.55414 0.292025 -1.66458
5.54714 0.309025 -1.66258
5.54214 0.327025 -1.66158
5.54314 0.344025 -1.66258
5.54214 0.362025 -1.66258
5.54114 0.379025 -1.66258
5.53814 0.396025 -1.66158
5.55414 0.406025 -1.66758
5.53814 0.423025 -1.66258
5.52914 0.439025 -1.65958
5.53514 0.457025 -1.66258
5.54514 0.476025 -1.66558
5.53014 0.492025 -1.66158
5.53214 0.510025 -1.66258
5.52714 0.527025 -1.66158
5.52814 0.536025 -1.66258
5.54114 0.554025 -1.66758
5.53014 0.571025 -1.66358
5.52614 0.606025 -1.66358
5.51114 0.621025 -1.65958
5.50714 0.639025 -1.65958
5.52714 0.650025 -1.66558
5.51214 0.665025 -1.66158
5.51514 0.683025 -1.66358
5.52414 0.702025 -1.66758
5.51114 0.718025 -1.66358
5.50714 0.735025 -1.66258
5.50114 0.752025 -1.66158
5.50514 0.761025 -1.66358
5.51214 0.780025 -1.66658
5.50014 0.796025 -1.66358
5.50114 0.814025 -1.66458
5.49714 0.831025 -1.66358
5.50014 0.849025 -1.66558
5.48214 0.855025 -1.66058
5.49814 0.875025 -1.66658
5.48714 0.891025 -1.66358
5.49414 0.910025 -1.66758
5.48714 0.926025 -1.66558
5.49214 0.945025 -1.66858
5.47414 0.960025 -1.66358
5.48014 0.978025 -1.66658
5.48414 0.988025 -1.66858
5.47214 1.00402 -1.66558
5.46114 1.01902 -1.66258
5.48614 1.04202 -1.67158
5.47214 1.05702 -1.66858
5.47614 1.07502 -1.67058
5.45514 1.08902 -1.66558
5.46714 1.10102 -1.66958
5.45414 1.11602 -1.66658
5.46214 1.13502 -1.67058
5.45814 1.15202 -1.67058
5.45414 1.17002 -1.67058
5.45314 1.18702 -1.67058
5.42814 1.20002 -1.66358
5.46014 1.21602 -1.67458
5.44114 1.22902 -1.67058
5.42814 1.24402 -1.66758
5.44114 1.26502 -1.67258
5.42814 1.28002 -1.66958
5.42914 1.29902 -1.67158
5.43414 1.31802 -1.67458
5.43414 1.32702 -1.67458
5.43214 1.34402 -1.67558
5.40714 1.35602 -1.66858
5.42914 1.38002 -1.67758
5.41514 1.39502 -1.67458
5.41414 1.41202 -1.67558
5.41014 1.42902 -1.67558
5.39814 1.43602 -1.67258
5.39814 1.45402 -1.67358
5.40414 1.47302 -1.67758
5.38314 1.48602 -1.67158
5.38714 1.50502 -1.67458
5.38814 1.52402 -1.67658
5.37014 1.53702 -1.67258
5.36814 1.54602 -1.67258
5.37814 1.56702 -1.67758
5.36714 1.58202 -1.67558
5.36214 1.59902 -1.67558
5.37014 1.61902 -1.67958
5.34814 1.63102 -1.67458
5.36014 1.65302 -1.67958
5.35414 1.66002 -1.67858
5.33714 1.67402 -1.67458
5.34714 1.69502 -1.67958
5.33814 1.71102 -1.67858
5.34114 1.73002 -1.68158
5.33414 1.74702 -1.68158
5.31514 1.76802 -1.67758
5.31114 1.78502 -1.67758
5.31614 1.80602 -1.68158
5.30514 1.83902 -1.68158
5.28814 1.87102 -1.67958
5.27514 1.91302 -1.68058
5.26314 1.92702 -1.67858
5.24314 2.02302 -1.68358
4.01314 4.01902 -1.70258
3.98814 4.03102 -1.69958
3.95214 4.02002 -1.68858
3.93314 4.02602 -1.68558
3.92814 4.04602 -1.68958
5.41514 -1.21498 -1.66058
5.45114 -1.20498 -1.67158
5.47114 -1.16498 -1.67458
5.48814 -1.13198 -1.67758
5.48514 -1.07798 -1.67358
5.49514 -0.981975 -1.67158
5.51014 -0.965975 -1.67458
5.52014 -0.949975 -1.67758
5.51014 -0.939975 -1.67358
5.52814 -0.888975 -1.67658
5.52914 -0.871975 -1.67658
5.52114 -0.834975 -1.67158
5.51514 -0.824975 -1.66958
5.52514 -0.808975 -1.67158
5.52414 -0.790975 -1.67058
5.52114 -0.772975 -1.66858
5.54114 -0.739975 -1.67358
5.55014 -0.723975 -1.67658
5.52914 -0.693975 -1.66858
5.54514 -0.678975 -1.67258
5.55614 -0.661975 -1.67558
5.54914 -0.643975 -1.67258
5.54314 -0.624975 -1.67058
5.55114 -0.608975 -1.67158
5.55614 -0.599975 -1.67358
5.55414 -0.582975 -1.67158
5.56114 -0.565975 -1.67358
5.55014 -0.546975 -1.66958
5.57214 -0.531975 -1.67658
5.57614 -0.513975 -1.67658
5.56614 -0.495975 -1.67358
5.56314 -0.486975 -1.67158
5.56614 -0.468975 -1.67258
5.56814 -0.451975 -1.67258
5.55414 -0.432975 -1.66758
5.57614 -0.416975 -1.67458
5.56614 -0.398975 -1.67058
5.57214 -0.389975 -1.67258
5.55314 -0.370975 -1.66558
5.57114 -0.354975 -1.67158
5.57414 -0.337975 -1.67158
5.57514 -0.319975 -1.67158
5.57814 -0.302975 -1.67258
5.58314 -0.285975 -1.67358
5.56414 -0.275975 -1.66758
5.57614 -0.258975 -1.67158
5.57114 -0.240975 -1.66958
5.57614 -0.223975 -1.67058
5.57314 -0.205975 -1.66958
5.58114 -0.188975 -1.67158
5.57614 -0.170975 -1.67058
5.56514 -0.152975 -1.66658
5.56514 -0.143975 -1.66658
5.57714 -0.126975 -1.67058
5.57014 -0.109975 -1.66758
5.57814 -0.0919752 -1.67058
5.57414 -0.0749752 -1.66858
5.57014 -0.0569752 -1.66758
5.55914 -0.0479752 -1.66358
5.57314 -0.0309752 -1.66858
5.56514 -0.0129752 -1.66558
5.24114 1.13802 -1.66358
5.23914 1.15502 -1.66358
5.23714 1.17202 -1.66458
5.23214 1.20502 -1.66458
5.22014 1.24602 -1.66458
5.21414 1.29602 -1.66658
5.20414 1.31102 -1.66458
5.20114 1.34602 -1.66658
5.19814 1.35302 -1.66558
5.19114 1.36902 -1.66458
5.19314 1.38702 -1.66658
5.18214 1.41902 -1.66658
5.17114 1.45102 -1.66558
5.17114 1.46002 -1.66658
5.17714 1.47902 -1.66958
5.16914 1.49402 -1.66858
5.16514 1.52802 -1.67058
5.15414 1.54302 -1.66858
5.14214 1.55702 -1.66658
5.15214 1.56902 -1.67058
5.14214 1.58302 -1.66858
5.13314 1.59802 -1.66758
5.13014 1.61502 -1.66858
5.12714 1.63202 -1.66858
5.12714 1.65002 -1.67058
5.12614 1.66702 -1.67158
5.12514 1.67502 -1.67258
5.12814 1.69502 -1.67558
5.12514 1.71102 -1.67658
5.11214 1.72502 -1.67358
5.09414 1.73702 -1.66958
5.09114 1.75302 -1.66958
5.08914 1.77002 -1.67158
5.09314 1.78102 -1.67358
5.08914 1.79802 -1.67458
5.06914 1.80802 -1.66958
5.06514 1.82502 -1.66958
5.07614 1.84702 -1.67558
5.05614 1.85702 -1.67058
5.05514 1.87502 -1.67258
5.06814 1.88902 -1.67858
5.04414 1.89802 -1.67158
5.04714 1.91802 -1.67458
5.04814 1.93602 -1.67758
5.01714 1.94202 -1.66858
5.03414 1.96702 -1.67658
5.02314 1.98102 -1.67458
5.01814 1.98802 -1.67458
5.00114 2.00002 -1.67058
5.00714 2.02002 -1.67458
4.99914 2.03502 -1.67458
4.98914 2.05002 -1.67358
4.99114 2.06902 -1.67658
4.97114 2.07902 -1.67158
4.96914 2.08702 -1.67158
4.97814 2.11002 -1.67758
4.95814 2.11902 -1.67258
4.96514 2.14102 -1.67758
4.95314 2.15402 -1.67558
4.94114 2.16702 -1.67358
4.94614 2.17902 -1.67658
4.94514 2.19702 -1.67858
4.93414 2.21102 -1.67758
4.92714 2.22602 -1.67758
4.92014 2.24202 -1.67758
4.91014 2.25602 -1.67658
4.90814 2.27302 -1.67858
4.91414 2.29502 -1.68358
4.89414 2.29502 -1.67658
4.89714 2.31502 -1.68058
4.88614 2.32902 -1.67958
4.87514 2.34302 -1.67858
4.86614 2.35702 -1.67758
4.86014 2.37302 -1.67858
4.84914 2.38702 -1.67658
4.85114 2.39702 -1.67858
4.84814 2.41502 -1.68058
4.83914 2.42902 -1.67958
4.84514 2.45102 -1.68558
4.83714 2.46602 -1.68558
4.81314 2.47302 -1.67858
4.82514 2.49902 -1.68658
4.80814 2.49902 -1.68158
4.79814 2.51302 -1.68058
4.79214 2.52902 -1.68158
4.79014 2.54802 -1.68358
4.78614 2.56502 -1.68558
4.76614 2.57302 -1.68058
4.76114 2.59002 -1.68158
4.77514 2.60802 -1.68858
4.75914 2.61802 -1.68558
4.74714 2.63102 -1.68458
4.73614 2.64402 -1.68358
4.72714 2.65902 -1.68358
4.71314 2.67002 -1.68058
4.71714 2.68202 -1.68358
4.70814 2.69702 -1.68358
4.68514 2.70302 -1.67858
4.69114 2.72702 -1.68358
4.67414 2.73602 -1.68058
4.66214 2.74902 -1.67958
4.66414 2.77002 -1.68358
4.65614 2.77502 -1.68158
4.63414 2.78202 -1.67658
4.63014 2.79902 -1.67858
4.62314 2.81502 -1.67958
4.60814 2.82502 -1.67658
4.60214 2.84202 -1.67858
4.60014 2.86002 -1.68058
4.57514 2.86502 -1.67458
4.57814 2.87702 -1.67758
4.57914 2.89702 -1.68158
4.55314 2.90102 -1.67458
4.54814 2.91802 -1.67658
4.54314 2.93502 -1.67858
4.52014 2.96102 -1.67658
4.52314 2.97302 -1.67958
4.51114 3.00502 -1.68158
4.49814 3.01702 -1.68058
4.48414 3.04902 -1.68258
4.46614 3.05802 -1.67958
4.46014 3.06402 -1.67858
4.46314 3.08602 -1.68358
4.43914 3.09002 -1.67858
4.42814 3.10302 -1.67758
4.42114 3.11902 -1.67858
4.41714 3.13802 -1.68158
4.39814 3.14502 -1.67758
4.39814 3.15502 -1.67958
4.39914 3.17702 -1.68358
4.37514 3.18002 -1.67858
4.37614 3.20202 -1.68258
4.35814 3.21002 -1.67958
4.35414 3.22802 -1.68158
4.34414 3.24202 -1.68158
4.34014 3.25002 -1.68258
4.33014 3.26402 -1.68258
4.32114 3.27802 -1.68358
4.30814 3.29002 -1.68158
4.29714 3.30302 -1.68158
4.29314 3.32102 -1.68458
4.28514 3.32602 -1.68358
4.27614 3.34002 -1.68358
4.27114 3.35802 -1.68658
4.25514 3.36702 -1.68358
4.24714 3.38302 -1.68558
4.24214 3.40102 -1.68758
4.23014 3.41302 -1.68658
4.22914 3.42302 -1.68858
4.21014 3.42902 -1.68558
4.20514 3.44702 -1.68758
4.19814 3.46402 -1.68958
4.18714 3.47702 -1.68958
4.18714 3.49902 -1.69358
4.17114 3.50802 -1.69158
4.15914 3.52002 -1.69158
4.15314 3.52702 -1.69158
4.14814 3.54502 -1.69358
4.12714 3.54902 -1.68958
4.12614 3.57102 -1.69358
4.11114 3.58102 -1.69258
4.10014 3.59402 -1.69258
4.09314 3.61102 -1.69458
4.09314 3.62202 -1.69658
4.07914 3.63302 -1.69558
4.06914 3.64702 -1.69658
4.05114 3.67702 -1.69858
4.03814 3.68902 -1.69858
4.01814 3.72802 -1.70158
3.80714 3.95602 -1.70558
3.78314 3.94302 -1.69658
3.76614 3.95102 -1.69458
3.75314 3.96102 -1.69358
5.23814 -1.22098 -1.66858
5.24714 -1.20598 -1.66958
5.24514 -1.18798 -1.66858
5.25314 -1.17298 -1.66958
5.25314 -1.15598 -1.66858
5.26014 -1.14798 -1.66958
5.26014 -1.13098 -1.66858
5.26214 -1.11398 -1.66858
5.26514 -1.09798 -1.66858
5.27814 -1.08298 -1.67158
5.27214 -1.06498 -1.66858
5.27714 -1.04798 -1.66858
5.29214 -1.04298 -1.67358
5.27114 -1.02098 -1.66458
5.27214 -1.00398 -1.66458
5.27514 -0.987975 -1.66458
5.28414 -0.971975 -1.66658
5.27214 -0.952975 -1.66158
5.29414 -0.939975 -1.66758
5.28214 -0.928975 -1.66358
5.29414 -0.913975 -1.66658
5.31214 -0.899975 -1.67158
5.29814 -0.880975 -1.66558
5.29714 -0.862975 -1.66458
5.30714 -0.847975 -1.66658
5.30214 -0.829975 -1.66458
5.31514 -0.822975 -1.66858
5.30614 -0.804975 -1.66458
5.30714 -0.787975 -1.66358
5.30914 -0.770975 -1.66358
5.31914 -0.755975 -1.66658
5.31614 -0.737975 -1.66458
5.32114 -0.729975 -1.66558
5.32314 -0.713975 -1.66558
5.31414 -0.695975 -1.66158
5.32014 -0.678975 -1.66358
5.32614 -0.662975 -1.66458
5.32814 -0.628975 -1.66358
5.32914 -0.586975 -1.66258
5.34214 -0.571975 -1.66658
5.33614 -0.553975 -1.66358
5.34414 -0.537975 -1.66558
5.34014 -0.519975 -1.66358
5.34014 -0.503975 -1.66358
5.34514 -0.444975 -1.66358
5.34614 -0.427975 -1.66358
5.35614 -0.402975 -1.66558
5.34214 -0.384975 -1.66058
5.35814 -0.335975 -1.66458
5.34914 -0.301975 -1.66158
5.34814 -0.292975 -1.66058
5.34914 -0.259975 -1.66058
5.35214 -0.242975 -1.66158
5.36514 -0.192975 -1.66458
5.35414 -0.183975 -1.66158
5.35314 -0.166975 -1.66058
5.36114 -0.0579752 -1.66258
5.23014 0.0470248 -1.66758
5.23014 0.0800248 -1.66758
5.22214 0.104025 -1.66458
5.20714 0.350025 -1.66358
5.20714 0.383025 -1.66458
5.17114 0.717025 -1.66458
5.17314 0.775025 -1.66758
5.16614 0.808025 -1.66658
5.08714 1.21002 -1.66658
5.03714 1.47802 -1.67358
5.00914 1.50402 -1.66758
5.00814 1.52102 -1.66858
4.99514 1.55102 -1.66758
4.99414 1.56802 -1.66858
5.00214 1.57902 -1.67258
4.99014 1.59302 -1.66958
4.98114 1.60702 -1.66858
4.98714 1.62702 -1.67258
4.97314 1.63902 -1.66958
4.96214 1.67002 -1.66958
4.95614 1.67702 -1.66858
4.95814 1.69502 -1.67058
4.95114 1.71002 -1.66958
4.94214 1.72402 -1.66858
4.94014 1.74102 -1.66958
4.93614 1.75702 -1.67058
4.92614 1.78002 -1.66958
4.92214 1.79602 -1.67058
4.91514 1.81102 -1.66958
4.91114 1.82702 -1.67058
4.90914 1.84402 -1.67158
4.89514 1.86502 -1.66958
4.89814 1.88302 -1.67358
4.89214 1.89902 -1.67358
4.88414 1.91302 -1.67258
4.87314 1.92702 -1.67058
4.86414 1.95902 -1.67158
4.86514 1.97702 -1.67458
4.84814 1.97902 -1.66958
4.85314 2.01602 -1.67558
4.84314 2.03002 -1.67458
4.83714 2.04502 -1.67458
4.82814 2.06002 -1.67358
4.81214 2.08002 -1.67158
4.81714 2.10002 -1.67558
4.80414 2.11202 -1.67358
4.80614 2.13102 -1.67658
4.79414 2.14402 -1.67458
4.77514 2.17102 -1.67258
4.77714 2.18102 -1.67458
4.76114 2.19202 -1.67158
4.75614 2.20802 -1.67158
4.75314 2.22502 -1.67358
4.75114 2.24202 -1.67558
4.74214 2.25602 -1.67458
4.73514 2.27102 -1.67458
4.73114 2.27802 -1.67458
4.72914 2.29602 -1.67658
4.72014 2.31002 -1.67558
4.71814 2.32702 -1.67758
4.71114 2.34202 -1.67758
4.69514 2.35202 -1.67458
4.69814 2.36302 -1.67758
4.70114 2.38302 -1.68058
4.68614 2.39402 -1.67858
4.68214 2.41102 -1.67958
4.66514 2.42002 -1.67558
4.65914 2.43602 -1.67658
4.65414 2.45202 -1.67758
4.66014 2.46502 -1.68158
4.64414 2.47502 -1.67858
4.64314 2.49302 -1.68058
4.64014 2.51002 -1.68258
4.62914 2.52302 -1.68158
4.62614 2.54002 -1.68358
4.62114 2.55702 -1.68458
4.61014 2.56902 -1.68358
4.60814 2.57702 -1.68458
4.59614 2.59002 -1.68258
4.58614 2.60402 -1.68258
4.59014 2.62502 -1.68658
4.58314 2.64002 -1.68758
4.56314 2.64802 -1.68258
4.57314 2.67202 -1.68958
4.55714 2.67302 -1.68558
4.54714 2.68602 -1.68458
4.53914 2.70102 -1.68458
4.54714 2.72402 -1.69158
4.51514 2.72502 -1.68258
4.52514 2.75002 -1.68958
4.50614 2.75802 -1.68558
4.50014 2.76402 -1.68458
4.47914 2.77102 -1.67958
4.48114 2.79202 -1.68458
4.46414 2.80102 -1.68058
4.45714 2.81602 -1.68158
4.45814 2.83602 -1.68558
4.43914 2.84402 -1.68158
4.43514 2.85102 -1.68158
4.42914 2.86702 -1.68258
4.41114 2.87402 -1.67958
4.40614 2.89102 -1.68058
4.39914 2.90602 -1.68158
4.38814 2.91902 -1.68058
4.38014 2.93402 -1.68158
4.37714 2.94202 -1.68258
4.36014 2.95002 -1.67958
4.35714 2.96802 -1.68158
4.36214 2.99102 -1.68758
4.32914 2.98902 -1.67758
4.32114 3.00402 -1.67858
4.32414 3.01602 -1.68158
4.31214 3.02702 -1.68058
4.30214 3.04102 -1.68058
4.28614 3.07002 -1.68158
4.26914 3.07802 -1.67858
4.27114 3.10002 -1.68358
4.26614 3.10702 -1.68358
4.25214 3.11702 -1.68158
4.27314 3.15302 -1.69458
4.23414 3.14502 -1.68258
4.22914 3.16102 -1.68458
4.23714 3.18802 -1.69158
4.21314 3.19102 -1.68658
4.19714 3.20002 -1.68358
4.21814 3.22602 -1.69458
4.18914 3.22502 -1.68658
4.19014 3.24702 -1.69158
4.16214 3.24602 -1.68358
4.17714 3.27902 -1.69458
4.14114 3.27202 -1.68358
4.15514 3.30402 -1.69358
4.15414 3.31402 -1.69558
4.11514 3.30402 -1.68358
4.10514 3.31702 -1.68358
4.09614 3.33102 -1.68458
4.10314 3.35802 -1.69158
4.07514 3.35702 -1.68458
4.08914 3.39002 -1.69558
4.06314 3.38002 -1.68658
4.07914 3.41402 -1.69758
4.07014 3.42802 -1.69858
4.03714 3.42302 -1.68858
4.05414 3.45902 -1.70058
4.00614 3.46202 -1.68958
4.00714 3.47302 -1.69158
4.00014 3.48902 -1.69358
3.97814 3.49202 -1.68858
3.97814 3.51402 -1.69358
3.96714 3.52702 -1.69358
3.95314 3.53702 -1.69258
3.94914 3.55602 -1.69558
3.94814 3.56602 -1.69758
3.93514 3.57702 -1.69758
3.91914 3.58502 -1.69558
3.91514 3.60402 -1.69858
3.90514 3.61702 -1.69858
3.89414 3.63002 -1.69858
3.88914 3.64802 -1.70258
3.87714 3.64802 -1.69858
3.86914 3.66402 -1.70058
3.86214 3.68002 -1.70258
3.84914 3.69102 -1.70258
3.84314 3.70802 -1.70458
3.61714 3.92102 -1.70258
3.60514 3.93202 -1.70258
3.57714 3.92702 -1.69558
5.07214 -1.25398 -1.66558
5.08114 -1.23898 -1.66758
5.09514 -1.22598 -1.67058
5.09714 -1.20898 -1.66958
5.09314 -1.19098 -1.66758
5.11514 -1.17998 -1.67358
5.10414 -1.16898 -1.66958
5.11114 -1.15298 -1.67058
5.11314 -1.13698 -1.66958
5.10914 -1.11898 -1.66758
5.12414 -1.10598 -1.67158
5.13714 -1.09098 -1.67458
5.13114 -1.07298 -1.67158
5.12314 -1.06298 -1.66858
5.11514 -1.04498 -1.66458
5.13714 -1.03298 -1.67058
5.12914 -1.01398 -1.66658
5.16014 -1.00398 -1.67658
5.13414 -0.981975 -1.66658
5.16314 -0.978975 -1.67558
5.13814 -0.956975 -1.66658
5.14114 -0.940975 -1.66658
5.15514 -0.926975 -1.66958
5.14014 -0.907975 -1.66358
5.15714 -0.893975 -1.66858
5.17314 -0.879975 -1.67358
5.17614 -0.871975 -1.67358
5.15914 -0.852975 -1.66658
5.18714 -0.840975 -1.67558
5.18114 -0.822975 -1.67258
5.16314 -0.802975 -1.66558
5.16514 -0.786975 -1.66558
5.19614 -0.774975 -1.67558
5.18314 -0.756975 -1.66958
5.19014 -0.748975 -1.67158
5.19614 -0.733975 -1.67358
5.18714 -0.715975 -1.66958
5.20414 -0.700975 -1.67458
5.17414 -0.680975 -1.66358
5.18114 -0.656975 -1.66458
5.21214 -0.643975 -1.67458
5.19114 -0.624975 -1.66658
5.18514 -0.607975 -1.66458
5.20814 -0.593975 -1.67158
5.22114 -0.561975 -1.67458
5.22914 -0.554975 -1.67758
5.21614 -0.536975 -1.67158
5.22214 -0.520975 -1.67358
5.21514 -0.486975 -1.66958
5.22214 -0.470975 -1.67158
5.21314 -0.453975 -1.66858
5.21514 -0.445975 -1.66858
5.20814 -0.395975 -1.66458
5.22614 -0.380975 -1.67058
5.23114 -0.364975 -1.67158
5.22114 -0.346975 -1.66858
5.22314 -0.338975 -1.66858
5.22414 -0.322975 -1.66858
5.21014 -0.304975 -1.66358
5.22014 -0.289975 -1.66658
5.22614 -0.256975 -1.66858
5.07914 0.0120248 -1.66858
5.07914 0.0280248 -1.66858
5.07114 0.0600248 -1.66558
5.07914 0.0680248 -1.66858
5.07114 0.0840248 -1.66558
5.07214 0.172025 -1.66658
5.06614 0.235025 -1.66558
5.06414 0.307025 -1.66658
5.05714 0.378025 -1.66558
5.02214 0.719025 -1.66658
5.00914 0.806025 -1.66658
4.99514 0.909025 -1.66758
4.98814 0.956025 -1.66858
4.97114 1.04202 -1.66858
4.96114 1.09702 -1.66858
4.95414 1.12802 -1.66858
4.94714 1.15902 -1.66858
4.95314 1.17702 -1.67258
4.94314 1.19102 -1.67058
4.94114 1.21502 -1.67158
4.93514 1.26302 -1.67358
4.91814 1.27502 -1.66858
4.92114 1.30102 -1.67258
4.90814 1.33002 -1.67058
4.89614 1.36002 -1.66858
4.89614 1.39402 -1.67258
4.89614 1.43502 -1.67658
4.87314 1.44502 -1.66958
4.86714 1.48502 -1.67158
4.85914 1.49902 -1.67058
4.86314 1.51702 -1.67358
4.86014 1.53302 -1.67458
4.84314 1.54402 -1.66958
4.85014 1.56402 -1.67458
4.85314 1.58102 -1.67658
4.83114 1.59102 -1.67058
4.85814 1.60802 -1.68158
4.83814 1.61902 -1.67658
4.83114 1.63302 -1.67558
4.82814 1.64902 -1.67658
4.81614 1.66202 -1.67358
4.81414 1.67802 -1.67458
4.81214 1.69502 -1.67658
4.79314 1.69602 -1.67058
4.79314 1.71302 -1.67258
4.79914 1.73202 -1.67658
4.78414 1.74402 -1.67258
4.79314 1.76402 -1.67858
4.79814 1.78302 -1.68258
4.78214 1.79402 -1.67858
4.77414 1.80002 -1.67658
4.77514 1.81802 -1.67858
4.76114 1.82902 -1.67558
4.74814 1.84102 -1.67258
4.75114 1.86002 -1.67658
4.74114 1.87302 -1.67458
4.73714 1.88902 -1.67558
4.73414 1.89602 -1.67558
4.73214 1.91302 -1.67658
4.72214 1.92602 -1.67558
4.71814 1.94202 -1.67658
4.72614 1.96202 -1.68158
4.71614 1.97602 -1.68058
4.71514 1.98402 -1.68058
4.70514 1.99702 -1.67958
4.69514 2.01002 -1.67858
4.67514 2.01902 -1.67258
4.68614 2.04102 -1.67958
4.67114 2.05202 -1.67658
4.66614 2.06802 -1.67658
4.67014 2.07802 -1.67958
4.66514 2.09402 -1.68058
4.65714 2.10702 -1.67958
4.64114 2.11802 -1.67658
4.64014 2.13502 -1.67858
4.63314 2.15002 -1.67858
4.63014 2.16602 -1.67958
4.61814 2.17802 -1.67758
4.62314 2.18902 -1.68058
4.60414 2.19802 -1.67658
4.61214 2.22002 -1.68258
4.60014 2.23202 -1.68058
4.59514 2.24702 -1.68058
4.59314 2.26402 -1.68258
4.59114 2.28102 -1.68458
4.58914 2.28902 -1.68558
4.58714 2.30602 -1.68758
4.58314 2.32202 -1.68858
4.57214 2.33502 -1.68758
4.56314 2.34802 -1.68658
4.55914 2.36402 -1.68758
4.54214 2.37302 -1.68458
4.54014 2.38102 -1.68458
4.53714 2.39802 -1.68658
4.53514 2.41502 -1.68858
4.52414 2.42802 -1.68758
4.52614 2.44702 -1.69158
4.50814 2.45602 -1.68758
4.50714 2.47402 -1.68958
4.50514 2.48202 -1.69058
4.50514 2.50102 -1.69358
4.49914 2.51602 -1.69458
4.48114 2.52402 -1.69058
4.46114 2.56802 -1.69158
4.45014 2.59002 -1.69258
4.44314 2.60502 -1.69358
4.44014 2.62202 -1.69558
4.43014 2.63502 -1.69458
4.42514 2.65102 -1.69558
4.42114 2.65802 -1.69558
4.41114 2.67102 -1.69558
4.40114 2.68302 -1.69458
4.37914 2.70802 -1.69258
4.38014 2.72802 -1.69658
4.36714 2.73902 -1.69458
4.35614 2.74102 -1.69158
4.35214 2.75802 -1.69358
4.33314 2.76502 -1.68958
4.33214 2.78302 -1.69258
4.32114 2.79602 -1.69158
4.31114 2.80802 -1.69158
4.29114 2.81502 -1.68658
4.28114 2.82702 -1.68558
4.28014 2.83602 -1.68758
4.26914 2.84802 -1.68658
4.27614 2.87202 -1.69358
4.26714 2.88602 -1.69358
4.23714 2.88502 -1.68458
4.25214 2.91502 -1.69458
4.22814 2.91802 -1.68858
4.22214 2.92402 -1.68758
4.22414 2.94502 -1.69258
4.19814 2.94602 -1.68558
4.19814 2.96602 -1.68958
4.18414 2.97602 -1.68758
4.17914 2.99202 -1.68958
4.16014 2.99802 -1.68558
4.16314 3.01002 -1.68858
4.15114 3.02102 -1.68758
4.13714 3.03102 -1.68558
4.12914 3.04502 -1.68558
4.11814 3.05702 -1.68558
4.10214 3.06502 -1.68258
4.11214 3.09302 -1.69158
4.10114 3.09502 -1.68858
4.08514 3.10302 -1.68558
4.09814 3.13302 -1.69558
4.06414 3.12802 -1.68558
4.06314 3.14702 -1.68958
4.04914 3.15702 -1.68758
4.03414 3.16602 -1.68558
4.03414 3.17602 -1.68758
4.03114 3.19402 -1.69058
4.00914 3.19702 -1.68558
4.00714 3.21602 -1.68858
4.00214 3.23302 -1.69158
3.98114 3.23602 -1.68558
3.98214 3.25802 -1.69158
3.97714 3.26502 -1.69158
3.95514 3.28802 -1.69058
3.94514 3.30102 -1.69058
3.92814 3.30802 -1.68758
3.92914 3.33002 -1.69358
3.92014 3.34402 -1.69358
3.89714 3.33402 -1.68558
3.90614 3.36402 -1.69458
3.89314 3.37302 -1.69358
3.87514 3.37902 -1.68958
3.87014 3.39602 -1.69258
3.86114 3.41002 -1.69358
3.85314 3.42402 -1.69458
3.84214 3.42502 -1.69158
3.83214 3.43902 -1.69258
3.82314 3.45202 -1.69358
3.82214 3.47302 -1.69758
3.80914 3.48402 -1.69758
3.78514 3.48302 -1.69058
3.79714 3.51702 -1.70158
3.78314 3.51502 -1.69758
3.77914 3.53302 -1.70158
3.76514 3.54202 -1.69958
3.75114 3.55202 -1.69858
3.75114 3.57402 -1.70358
