8.51811 -1.31802 -1.65119
8.51611 -1.29002 -1.65019
8.50711 -1.26202 -1.64719
8.50911 -1.23502 -1.64719
8.50711 -1.20702 -1.64619
8.50711 -1.19302 -1.64519
8.50511 -1.16602 -1.64419
8.51611 -1.14002 -1.64619
8.50811 -1.11202 -1.64319
8.20611 0.00598121 -1.64419
8.19611 0.0319812 -1.64219
8.19411 0.0569812 -1.64119
8.18611 0.0829812 -1.64019
8.19311 0.108981 -1.64119
8.18911 0.134981 -1.64019
8.18711 0.159981 -1.64019
8.18811 0.172981 -1.64019
8.18611 0.198981 -1.64019
8.17911 0.223981 -1.63919
8.19211 0.250981 -1.64219
8.18511 0.275981 -1.64019
8.17911 0.301981 -1.63919
8.18011 0.326981 -1.64019
8.17611 0.365981 -1.63919
8.16311 0.635981 -1.64019
8.15511 0.673981 -1.63919
8.13311 0.800981 -1.63719
8.13511 0.825981 -1.63819
8.13711 0.839981 -1.63819
8.13411 0.864981 -1.63819
8.13411 0.890981 -1.63919
8.12511 0.915981 -1.63819
8.12211 0.940981 -1.63819
8.11111 1.00498 -1.63719
8.11711 1.03098 -1.63919
8.11811 1.05698 -1.64019
8.10111 1.08098 -1.63719
8.11111 1.10798 -1.64019
8.09611 1.13198 -1.63719
8.09811 1.15798 -1.63819
8.09011 1.16998 -1.63719
8.10411 1.19798 -1.64119
8.09411 1.22298 -1.64019
8.08511 1.24698 -1.63819
8.09411 1.27498 -1.64119
8.07511 1.29798 -1.63819
8.08811 1.32598 -1.64219
8.07811 1.33798 -1.64019
8.06811 1.36198 -1.63919
8.08511 1.39098 -1.64319
8.07111 1.41498 -1.64119
8.06311 1.43898 -1.64019
8.06211 1.46498 -1.64119
8.05011 1.48898 -1.64019
8.04711 1.50198 -1.64019
8.03711 1.52598 -1.63819
8.04211 1.55298 -1.64019
8.04211 1.57998 -1.64219
8.03211 1.60398 -1.64019
8.03411 1.62998 -1.64219
8.02111 1.65398 -1.64019
8.01511 1.66598 -1.64019
8.02311 1.69398 -1.64319
8.00811 1.71698 -1.64019
7.99511 1.74098 -1.63919
7.99711 1.76698 -1.64019
7.98211 1.78998 -1.63819
7.99211 1.81898 -1.64219
7.98511 1.83098 -1.64119
7.96611 1.85198 -1.63819
7.96611 1.87898 -1.63919
7.97111 1.90698 -1.64219
7.96711 1.93198 -1.64219
7.94411 1.95298 -1.63819
7.96011 1.98398 -1.64319
7.95711 1.99598 -1.64319
7.95311 2.02198 -1.64419
7.95011 2.04798 -1.64519
7.92911 2.06798 -1.64119
7.93511 2.09698 -1.64419
7.92311 2.11998 -1.64319
7.92211 2.14698 -1.64419
7.91111 2.15698 -1.64319
7.91911 2.18598 -1.64619
7.91411 2.21198 -1.64619
7.90411 2.23498 -1.64619
7.90011 2.26098 -1.64619
7.89311 2.28598 -1.64619
7.89011 2.31198 -1.64719
7.88611 2.32398 -1.64719
7.87911 2.34898 -1.64719
7.88111 2.37698 -1.64919
7.87311 2.40098 -1.64919
7.85211 2.42198 -1.64619
7.85611 2.44998 -1.64919
7.85411 2.47698 -1.65019
7.84811 2.48798 -1.65019
7.83611 2.53898 -1.65119
7.82811 2.56398 -1.65119
7.82211 2.58898 -1.65119
7.80111 2.64998 -1.65119
7.89611 -2.23402 -1.64419
7.91211 -2.21202 -1.64619
7.93211 -2.19102 -1.64919
7.93011 -2.16302 -1.64719
7.93711 -2.15202 -1.64819
7.95511 -2.13002 -1.65019
7.96411 -2.10502 -1.65119
7.98711 -2.08402 -1.65419
7.99711 -2.06002 -1.65519
8.01111 -2.03702 -1.65719
8.02711 -2.01402 -1.65919
8.04411 -2.00502 -1.66219
8.05011 -1.98002 -1.66219
8.19911 -1.21302 -1.66119
8.20411 -1.18802 -1.66219
8.20211 -1.17402 -1.66119
8.21011 -1.12302 -1.66119
8.21511 -1.09702 -1.66119
8.21611 -1.07102 -1.66119
8.21811 -1.04502 -1.66119
8.21911 -1.00602 -1.66019
8.21011 -0.979019 -1.65719
8.22111 -0.954019 -1.65919
8.22411 -0.928019 -1.65919
8.23711 -0.903019 -1.66119
8.24111 -0.864019 -1.66119
8.23411 -0.837019 -1.65919
8.23211 -0.811019 -1.65819
8.23911 -0.786019 -1.65919
8.23011 -0.759019 -1.65619
8.22811 -0.732019 -1.65619
8.23611 -0.707019 -1.65719
8.23411 -0.681019 -1.65619
8.23211 -0.668019 -1.65519
8.23911 -0.642019 -1.65619
8.23811 -0.616019 -1.65619
8.23711 -0.590019 -1.65519
8.23911 -0.564019 -1.65519
8.23711 -0.538019 -1.65419
8.23111 -0.512019 -1.65319
8.23411 -0.499019 -1.65319
8.22011 -0.472019 -1.65019
8.22311 -0.446019 -1.65019
8.21711 -0.420019 -1.64819
8.22011 -0.394019 -1.64919
8.22111 -0.369019 -1.64919
8.21811 -0.356019 -1.64819
8.21911 -0.330019 -1.64819
8.21811 -0.304019 -1.64819
8.21511 -0.278019 -1.64719
8.21611 -0.252019 -1.64719
8.21211 -0.226019 -1.64619
8.21711 -0.200019 -1.64719
8.19811 -0.187019 -1.64319
8.20811 -0.162019 -1.64519
8.20111 -0.136019 -1.64319
8.20911 -0.110019 -1.64519
8.21711 -0.0840188 -1.64619
8.20211 -0.0580188 -1.64319
8.21611 -0.0330188 -1.64619
8.20411 -0.0200188 -1.64319
7.91011 0.0109812 -1.64519
7.90611 0.0359812 -1.64519
7.89911 0.0599812 -1.64319
7.90611 0.0729812 -1.64519
7.89811 0.0979812 -1.64319
7.89411 0.121981 -1.64219
7.89711 0.146981 -1.64319
7.90111 0.171981 -1.64419
7.89611 0.196981 -1.64319
7.88411 0.220981 -1.64019
7.88911 0.233981 -1.64219
7.87911 0.257981 -1.63919
7.88611 0.282981 -1.64119
7.86911 0.307981 -1.63819
7.87611 0.332981 -1.63919
7.87111 0.356981 -1.63819
7.87411 0.381981 -1.63919
7.86811 0.418981 -1.63819
7.86711 0.443981 -1.63819
7.86511 0.468981 -1.63819
7.86011 0.517981 -1.63819
7.85511 0.541981 -1.63719
7.86211 0.554981 -1.63919
7.85811 0.579981 -1.63819
7.85811 0.603981 -1.63919
7.85611 0.628981 -1.63919
7.85811 0.653981 -1.64019
7.85211 0.702981 -1.63919
7.84311 0.714981 -1.63819
7.85411 0.740981 -1.64119
7.84611 0.764981 -1.63919
7.84511 0.789981 -1.64019
7.83611 0.838981 -1.63919
7.83411 0.862981 -1.63919
7.83411 0.875981 -1.63919
7.82411 0.899981 -1.63819
7.82711 0.924981 -1.63919
7.82211 0.948981 -1.63819
7.81711 0.973981 -1.63819
7.80811 0.996981 -1.63719
7.81611 1.02298 -1.63919
7.81911 1.03598 -1.64019
7.81311 1.05998 -1.64019
7.81611 1.08598 -1.64119
7.80911 1.10998 -1.64019
7.80911 1.13498 -1.64119
7.80111 1.15898 -1.64019
7.80211 1.18398 -1.64119
7.78811 1.19398 -1.63819
7.79811 1.22098 -1.64219
7.78811 1.24498 -1.64019
7.79411 1.27098 -1.64219
7.77411 1.29198 -1.63919
7.78011 1.31798 -1.64119
7.78011 1.34398 -1.64219
7.77611 1.35498 -1.64219
7.77311 1.37998 -1.64219
7.77311 1.40498 -1.64319
7.76411 1.42898 -1.64219
7.76811 1.45498 -1.64419
7.75511 1.47798 -1.64219
7.75411 1.50298 -1.64319
7.74811 1.51398 -1.64219
7.74711 1.53898 -1.64319
7.75211 1.56598 -1.64519
7.73911 1.58798 -1.64319
7.73611 1.61298 -1.64419
7.72911 1.63698 -1.64319
7.72211 1.66098 -1.64319
7.73311 1.67598 -1.64619
7.71611 1.69798 -1.64319
7.71611 1.72298 -1.64519
7.70311 1.74598 -1.64319
7.70611 1.77198 -1.64519
7.69611 1.79498 -1.64419
7.69211 1.81998 -1.64419
7.69711 1.83298 -1.64619
7.68611 1.85598 -1.64519
7.67011 1.87798 -1.64219
7.65911 1.90098 -1.64119
7.66411 1.92798 -1.64419
7.64811 1.94898 -1.64219
7.65711 1.97698 -1.64519
7.63911 1.98498 -1.64219
7.64411 2.01198 -1.64419
7.63411 2.03498 -1.64319
7.63311 2.06098 -1.64519
7.62711 2.08498 -1.64519
7.62411 2.10998 -1.64519
7.61511 2.13298 -1.64519
7.61411 2.14598 -1.64519
7.60311 2.16798 -1.64519
7.60011 2.19298 -1.64519
7.58811 2.21598 -1.64419
7.58611 2.24098 -1.64519
7.59011 2.26798 -1.64819
7.58111 2.29198 -1.64819
7.58511 2.30598 -1.64919
7.57811 2.32998 -1.64919
7.57111 2.35298 -1.64919
7.55611 2.37498 -1.64819
7.54111 2.42198 -1.64819
7.53511 2.44598 -1.64819
7.52311 2.50798 -1.65019
7.69111 -1.84802 -1.64519
7.69211 -1.82302 -1.64419
7.70911 -1.80102 -1.64719
7.71411 -1.77702 -1.64719
7.72611 -1.75402 -1.64819
7.75211 -1.73502 -1.65319
7.76511 -1.71202 -1.65519
7.77011 -1.70002 -1.65519
7.77511 -1.67602 -1.65519
7.78611 -1.65302 -1.65619
7.79911 -1.63002 -1.65819
7.81511 -1.60802 -1.66119
7.81611 -1.58202 -1.66019
7.83311 -1.56002 -1.66219
7.93811 -0.765019 -1.66019
7.94311 -0.715019 -1.66019
7.94511 -0.690019 -1.66019
7.93711 -0.664019 -1.65819
7.94311 -0.640019 -1.65819
7.93711 -0.614019 -1.65719
7.93711 -0.601019 -1.65619
7.94211 -0.577019 -1.65719
7.93611 -0.551019 -1.65519
7.94611 -0.527019 -1.65719
7.93811 -0.501019 -1.65519
7.94711 -0.477019 -1.65719
7.94811 -0.452019 -1.65719
7.93211 -0.438019 -1.65319
7.94311 -0.414019 -1.65519
7.92611 -0.388019 -1.65119
7.92211 -0.363019 -1.65019
7.93811 -0.339019 -1.65319
7.94311 -0.314019 -1.65419
7.92311 -0.288019 -1.64919
7.93311 -0.264019 -1.65219
7.92611 -0.251019 -1.65019
7.92711 -0.226019 -1.65019
7.93311 -0.201019 -1.65119
7.91411 -0.176019 -1.64719
7.91511 -0.151019 -1.64719
7.91911 -0.126019 -1.64819
7.90811 -0.101019 -1.64519
7.92411 -0.0890188 -1.64819
7.91011 -0.0640188 -1.64519
7.92011 -0.0390188 -1.64819
7.91011 -0.0140188 -1.64519
7.57911 0.0239812 -1.63819
7.58811 0.0479812 -1.64119
7.59011 0.0599812 -1.64119
7.59011 0.0829812 -1.64119
7.57611 0.106981 -1.63819
7.57911 0.130981 -1.63919
7.57211 0.201981 -1.63819
7.57711 0.237981 -1.63919
7.58411 0.261981 -1.64119
7.57711 0.285981 -1.63919
7.58011 0.309981 -1.64019
7.58111 0.333981 -1.64119
7.56411 0.356981 -1.63719
7.57211 0.368981 -1.63919
7.57011 0.392981 -1.63919
7.56211 0.463981 -1.63819
7.55511 0.486981 -1.63719
7.56111 0.510981 -1.63819
7.57211 0.523981 -1.64119
7.55911 0.594981 -1.63919
7.54611 0.617981 -1.63719
7.55111 0.641981 -1.63819
7.54211 0.664981 -1.63719
7.55211 0.677981 -1.63919
7.54211 0.700981 -1.63819
7.54611 0.724981 -1.63919
7.54311 0.748981 -1.63919
7.53711 0.771981 -1.63819
7.54111 0.795981 -1.63919
7.53411 0.819981 -1.63819
7.54111 0.831981 -1.64019
7.54611 0.856981 -1.64219
7.53911 0.879981 -1.64119
7.53411 0.903981 -1.64119
7.54711 0.928981 -1.64419
7.51911 0.949981 -1.63819
7.52911 0.974981 -1.64219
7.52411 0.985981 -1.64119
7.53411 1.01198 -1.64419
7.51411 1.03298 -1.64019
7.53211 1.05998 -1.64519
7.51511 1.08198 -1.64219
7.51111 1.10498 -1.64219
7.51211 1.12898 -1.64319
7.50411 1.13998 -1.64119
7.51211 1.16598 -1.64419
7.50611 1.18898 -1.64319
7.49111 1.21098 -1.64119
7.50111 1.23598 -1.64419
7.49711 1.25998 -1.64419
7.49111 1.28298 -1.64319
7.48511 1.29398 -1.64319
7.48711 1.31898 -1.64419
7.48311 1.34198 -1.64419
7.46711 1.36398 -1.64119
7.48511 1.39098 -1.64719
7.46411 1.41198 -1.64319
7.46711 1.43698 -1.64419
7.47211 1.44998 -1.64619
7.45811 1.47098 -1.64419
7.46111 1.49598 -1.64619
7.45611 1.51998 -1.64619
7.44811 1.54198 -1.64519
7.44911 1.56698 -1.64619
7.45711 1.59298 -1.64919
7.43211 1.59998 -1.64419
7.44211 1.62698 -1.64719
7.44811 1.65298 -1.65019
7.42811 1.67298 -1.64719
7.42211 1.69598 -1.64719
7.42811 1.72198 -1.64919
7.40411 1.74098 -1.64519
7.40111 1.75198 -1.64519
7.40511 1.77798 -1.64719
7.39211 1.79898 -1.64519
7.39011 1.82298 -1.64619
7.40311 1.85098 -1.65119
7.37911 1.86998 -1.64619
7.37411 1.89298 -1.64719
7.38311 1.90798 -1.64919
7.37511 1.93098 -1.64919
7.35611 1.94998 -1.64619
7.37011 1.97898 -1.65119
7.34111 1.99598 -1.64519
7.33711 2.01998 -1.64619
7.34011 2.04498 -1.64819
7.33711 2.05698 -1.64819
7.31711 2.07598 -1.64519
7.32911 2.10398 -1.64919
7.30811 2.12298 -1.64619
7.29911 2.14498 -1.64519
7.30711 2.17298 -1.64919
7.28211 2.18998 -1.64419
7.28811 2.20398 -1.64719
7.28411 2.22798 -1.64719
7.26211 2.24698 -1.64419
7.25911 2.27098 -1.64519
7.27011 2.29898 -1.64919
7.25011 2.31798 -1.64619
7.25011 2.34298 -1.64819
7.23711 2.37698 -1.64719
7.24111 2.40298 -1.65019
7.22211 2.44698 -1.64919
7.20911 2.46798 -1.64819
7.20611 2.50498 -1.65019
7.19811 2.52798 -1.65019
4.71111 5.91898 -1.63519
4.68111 5.91798 -1.63119
4.66611 5.93698 -1.63219
4.64111 5.94398 -1.63019
4.62511 5.96198 -1.63119
4.60811 5.95998 -1.62819
4.58411 5.96698 -1.62619
7.41611 -1.63302 -1.64219
7.42311 -1.61002 -1.64319
7.44411 -1.59002 -1.64619
7.44911 -1.56702 -1.64619
7.46911 -1.54702 -1.65019
7.48511 -1.52502 -1.65219
7.48811 -1.50202 -1.65219
7.49611 -1.49102 -1.65319
7.51011 -1.46902 -1.65619
7.50511 -1.44402 -1.65319
7.51911 -1.42202 -1.65619
7.53511 -1.40002 -1.65819
7.53811 -1.37602 -1.65819
7.55011 -1.35402 -1.66019
7.55211 -1.31802 -1.65919
7.57011 -1.22302 -1.65919
7.57411 -1.21202 -1.66019
7.55611 -1.18502 -1.65519
7.57911 -1.16402 -1.65919
7.57711 -1.13902 -1.65819
7.57711 -1.11502 -1.65719
7.62611 -0.781019 -1.65919
7.62711 -0.757019 -1.65819
7.62511 -0.733019 -1.65719
7.62511 -0.721019 -1.65719
7.62111 -0.696019 -1.65619
7.62511 -0.672019 -1.65619
7.61511 -0.647019 -1.65319
7.62111 -0.624019 -1.65419
7.62711 -0.600019 -1.65519
7.62511 -0.576019 -1.65419
7.61011 -0.563019 -1.65119
7.62811 -0.540019 -1.65419
7.61211 -0.515019 -1.65019
7.60811 -0.491019 -1.64919
7.61911 -0.467019 -1.65119
7.60111 -0.442019 -1.64719
7.61211 -0.419019 -1.64919
7.60911 -0.407019 -1.64819
7.61211 -0.383019 -1.64819
7.60711 -0.359019 -1.64719
7.61011 -0.335019 -1.64719
7.59211 -0.310019 -1.64319
7.60211 -0.287019 -1.64519
7.60711 -0.263019 -1.64619
7.60011 -0.251019 -1.64419
7.59511 -0.227019 -1.64319
7.59911 -0.203019 -1.64419
7.59811 -0.179019 -1.64319
7.60811 -0.155019 -1.64619
7.59911 -0.131019 -1.64319
7.59111 -0.107019 -1.64219
7.60111 -0.0960188 -1.64419
7.59011 -0.0720188 -1.64119
7.60011 -0.0480188 -1.64319
7.58211 -0.0240188 -1.63919
7.59811 -1.87935e-05 -1.64319
7.37511 0.0149812 -1.65219
7.35611 0.0389812 -1.64719
7.35511 0.0619812 -1.64719
7.36911 0.0849812 -1.65119
7.35711 0.107981 -1.64819
7.38211 0.119981 -1.65419
7.36011 0.142981 -1.64919
7.36211 0.165981 -1.64919
7.37111 0.188981 -1.65119
7.35511 0.211981 -1.64819
7.33811 0.234981 -1.64419
7.35911 0.257981 -1.64919
7.33911 0.268981 -1.64419
7.36011 0.292981 -1.65019
7.36811 0.316981 -1.65219
7.36011 0.338981 -1.65019
7.33511 0.360981 -1.64419
7.35511 0.385981 -1.65019
7.34411 0.407981 -1.64719
7.33411 0.418981 -1.64519
7.34811 0.442981 -1.64919
7.31811 0.463981 -1.64219
7.33411 0.488981 -1.64619
7.31811 0.510981 -1.64319
7.33211 0.534981 -1.64619
7.31711 0.556981 -1.64319
7.32811 0.568981 -1.64619
7.32211 0.591981 -1.64519
7.32011 0.614981 -1.64519
7.31111 0.636981 -1.64319
7.31211 0.659981 -1.64419
7.31411 0.683981 -1.64519
7.32411 0.707981 -1.64819
7.29711 0.716981 -1.64219
7.31611 0.741981 -1.64719
7.30011 0.763981 -1.64419
7.30811 0.787981 -1.64619
7.29511 0.808981 -1.64419
7.31011 0.833981 -1.64819
7.29811 0.855981 -1.64519
7.31011 0.868981 -1.64919
7.29211 0.889981 -1.64519
7.30111 0.914981 -1.64819
7.28411 0.935981 -1.64419
7.30411 0.961981 -1.65019
7.29411 0.983981 -1.64819
7.26311 1.00298 -1.64219
7.30211 1.01998 -1.65119
7.27611 1.03998 -1.64619
7.29211 1.06498 -1.65119
7.26911 1.08498 -1.64619
7.25611 1.10698 -1.64419
7.27611 1.13298 -1.64919
7.27411 1.15598 -1.65019
7.27611 1.16798 -1.65119
7.27211 1.19098 -1.65119
7.25711 1.23498 -1.64919
7.26311 1.25998 -1.65119
7.26511 1.28398 -1.65219
7.25311 1.30498 -1.65119
7.23511 1.31398 -1.64719
7.25411 1.34098 -1.65219
7.24011 1.36198 -1.65019
7.23611 1.38398 -1.65019
7.23511 1.43098 -1.65219
7.22911 1.45398 -1.65119
7.21111 1.50898 -1.65019
7.20211 1.55398 -1.65019
7.20411 1.57898 -1.65219
7.09211 2.01598 -1.65119
4.48311 5.76798 -1.63519
4.45411 5.76798 -1.63119
4.42511 5.76798 -1.62719
7.15211 -1.61802 -1.64219
7.15911 -1.59602 -1.64219
7.17311 -1.57602 -1.64419
7.17611 -1.55302 -1.64419
7.18411 -1.54302 -1.64519
7.18711 -1.52002 -1.64519
7.19911 -1.49902 -1.64719
7.21611 -1.47802 -1.65019
7.22411 -1.45702 -1.65119
7.23411 -1.43502 -1.65219
7.25411 -1.41502 -1.65619
7.23911 -1.40102 -1.65119
7.26611 -1.38202 -1.65719
7.26711 -1.35902 -1.65619
7.28211 -1.33802 -1.65919
7.28911 -1.31502 -1.65919
7.37311 -0.611019 -1.65819
7.37111 -0.541019 -1.65619
7.37411 -0.460019 -1.65519
7.38911 -0.438019 -1.65819
7.38511 -0.414019 -1.65719
7.39211 -0.391019 -1.65819
7.37811 -0.367019 -1.65519
7.38111 -0.333019 -1.65519
7.37711 -0.286019 -1.65419
7.38111 -0.240019 -1.65419
7.38611 -0.217019 -1.65519
7.38011 -0.193019 -1.65419
7.37011 -0.158019 -1.65119
7.39211 -0.112019 -1.65619
7.38611 -0.0890188 -1.65519
7.39211 -0.0660188 -1.65619
7.37711 -0.0420188 -1.65219
7.36111 -0.0310188 -1.64919
7.36411 -0.00801879 -1.64919
6.83611 1.49298 -1.63419
6.82711 1.51298 -1.63319
6.83011 1.52498 -1.63519
6.82211 1.54598 -1.63419
6.83011 1.57098 -1.63719
6.81211 1.58898 -1.63419
6.81811 1.61298 -1.63719
6.82211 1.63698 -1.63919
6.80211 1.65398 -1.63519
6.81811 1.66998 -1.64019
6.80211 1.68798 -1.63719
6.78311 1.70598 -1.63419
6.79911 1.73298 -1.63919
6.80111 1.75598 -1.64119
6.78911 1.77598 -1.64019
6.79311 1.79998 -1.64219
6.78911 1.80998 -1.64219
6.78111 1.83098 -1.64119
6.77011 1.85098 -1.64019
6.76611 1.87198 -1.64019
6.76711 1.89598 -1.64219
6.76511 1.91798 -1.64319
6.75511 1.93798 -1.64219
6.74811 1.94798 -1.64119
6.72911 1.96498 -1.63819
6.72311 1.98598 -1.63819
6.71711 2.00698 -1.63819
6.71611 2.02998 -1.63919
6.71311 2.05198 -1.64019
6.70111 2.07198 -1.63919
6.71111 2.08598 -1.64219
6.69511 2.10398 -1.64019
6.69411 2.12698 -1.64119
6.68511 2.14798 -1.64119
6.67311 2.16698 -1.63919
6.67711 2.19198 -1.64219
6.65711 2.20798 -1.63919
6.65911 2.21998 -1.64019
6.65111 2.24098 -1.64019
6.64011 2.25998 -1.63919
6.64711 2.28598 -1.64319
6.63111 2.30398 -1.64019
6.63111 2.32698 -1.64219
6.63311 2.35098 -1.64519
6.62411 2.35998 -1.64319
6.61411 2.37998 -1.64319
6.61611 2.40398 -1.64519
6.59411 2.41998 -1.64119
6.59511 2.44398 -1.64419
6.59111 2.46598 -1.64519
6.59411 2.49098 -1.64819
6.58911 2.49998 -1.64719
6.58111 2.52098 -1.64719
6.55811 2.53598 -1.64319
6.28411 3.17598 -1.64619
4.57511 5.30398 -1.63619
4.53811 5.32798 -1.63519
4.51911 5.33898 -1.63419
4.50111 5.35198 -1.63319
4.48011 5.36198 -1.63219
4.46311 5.35798 -1.62919
4.43611 5.35998 -1.62519
4.42711 5.38298 -1.62819
4.39011 5.37298 -1.62019
6.87811 -1.41402 -1.64119
6.88911 -1.34902 -1.64019
6.90711 -1.31902 -1.64319
6.92611 -1.30002 -1.64719
6.92111 -1.27602 -1.64519
6.93811 -1.25702 -1.64819
6.94811 -1.23602 -1.65019
6.93611 -1.21202 -1.64619
6.95511 -1.19302 -1.65019
6.96311 -1.18302 -1.65119
6.97411 -1.16202 -1.65319
6.99311 -1.14202 -1.65719
6.99911 -1.12102 -1.65719
7.00611 -1.09902 -1.65819
7.00911 -1.05502 -1.65719
6.97811 -1.03902 -1.64919
7.00011 -1.02002 -1.65419
7.01711 -1.00002 -1.65719
7.00111 -0.975019 -1.65219
7.02711 -0.956019 -1.65819
7.00911 -0.898019 -1.65219
7.01411 -0.876019 -1.65219
7.00111 -0.852019 -1.64919
7.02711 -0.833019 -1.65419
7.02411 -0.810019 -1.65319
7.00311 -0.785019 -1.64719
7.00911 -0.764019 -1.64819
7.03011 -0.755019 -1.65319
7.00111 -0.730019 -1.64519
7.01111 -0.708019 -1.64719
7.00411 -0.685019 -1.64519
7.00411 -0.663019 -1.64419
6.98511 -0.639019 -1.63919
7.01611 -0.620019 -1.64619
7.01911 -0.609019 -1.64719
7.00311 -0.586019 -1.64219
7.00511 -0.564019 -1.64219
6.99311 -0.518019 -1.63819
7.00611 -0.497019 -1.64119
6.99411 -0.474019 -1.63819
6.99911 -0.464019 -1.63919
7.00211 -0.442019 -1.63919
7.00111 -0.398019 -1.63819
7.00111 -0.353019 -1.63819
7.01411 -0.156019 -1.63919
6.52311 1.56598 -1.63119
6.52011 1.60898 -1.63319
6.52811 1.63298 -1.63719
6.51611 1.65098 -1.63519
6.52311 1.66398 -1.63719
6.51911 1.68498 -1.63819
6.53111 1.70998 -1.64219
6.53511 1.73298 -1.64519
6.52411 1.75198 -1.64319
6.50111 1.76798 -1.63919
6.49411 1.78798 -1.63819
6.50411 1.80098 -1.64219
6.48111 1.81698 -1.63719
6.50611 1.84598 -1.64519
6.48111 1.86098 -1.64019
6.48311 1.88398 -1.64219
6.48011 1.90498 -1.64319
6.46111 1.92198 -1.64019
6.46411 1.93298 -1.64119
6.46211 1.95498 -1.64219
6.46711 1.97798 -1.64519
6.43811 1.99198 -1.63919
6.45011 2.01798 -1.64419
6.44011 2.03698 -1.64319
6.42811 2.05498 -1.64219
6.44011 2.06998 -1.64619
6.42211 2.08698 -1.64319
6.42111 2.10898 -1.64419
6.40311 2.12498 -1.64119
6.39711 2.14498 -1.64119
6.39911 2.16898 -1.64419
6.38111 2.18498 -1.64119
6.39111 2.19898 -1.64419
6.36911 2.21398 -1.64019
6.37311 2.23798 -1.64319
6.36411 2.25798 -1.64319
6.35511 2.27698 -1.64219
6.35911 2.30098 -1.64519
6.35411 2.32098 -1.64619
6.35311 2.33298 -1.64719
6.33211 2.34698 -1.64319
6.33911 2.37298 -1.64719
6.31911 2.38798 -1.64319
6.31411 2.43198 -1.64619
6.30311 2.44998 -1.64519
6.30111 2.46098 -1.64619
6.30011 2.48298 -1.64819
6.29111 2.50198 -1.64719
6.25911 2.58098 -1.64719
4.37411 5.10598 -1.63519
4.36111 5.12298 -1.63619
4.33211 5.12198 -1.63119
4.29911 5.11498 -1.62419
4.28911 5.13498 -1.62719
4.26411 5.13898 -1.62319
4.24311 5.14598 -1.62119
4.23511 5.15298 -1.62119
4.20911 5.15398 -1.61719
4.17511 5.17898 -1.61719
6.62111 -1.29502 -1.64119
6.63111 -1.25402 -1.64219
6.64311 -1.23502 -1.64419
6.62811 -1.21002 -1.63919
6.64511 -1.20302 -1.64319
6.66911 -1.18602 -1.64819
6.67111 -1.16402 -1.64819
6.69411 -1.14702 -1.65319
6.71111 -1.12802 -1.65619
6.69911 -1.10402 -1.65219
6.70811 -1.08402 -1.65419
6.72011 -1.03202 -1.65519
6.72511 -0.989019 -1.65419
6.73211 -0.969019 -1.65519
6.74011 -0.949019 -1.65719
6.72511 -0.935019 -1.65219
6.74111 -0.916019 -1.65619
6.73111 -0.872019 -1.65219
6.72311 -0.849019 -1.64919
6.72711 -0.828019 -1.64919
6.71811 -0.806019 -1.64619
6.72511 -0.796019 -1.64819
6.72411 -0.774019 -1.64719
6.72811 -0.753019 -1.64719
6.73011 -0.732019 -1.64719
6.72711 -0.710019 -1.64619
6.72911 -0.689019 -1.64619
6.72511 -0.668019 -1.64419
6.73211 -0.658019 -1.64619
6.72711 -0.636019 -1.64419
6.73211 -0.615019 -1.64519
6.73411 -0.594019 -1.64519
6.72111 -0.571019 -1.64119
6.72311 -0.550019 -1.64119
6.73611 -0.530019 -1.64419
6.73311 -0.519019 -1.64319
6.71711 -0.497019 -1.63819
6.72211 -0.476019 -1.63919
6.72411 -0.455019 -1.63919
6.71911 -0.433019 -1.63819
6.72111 -0.412019 -1.63819
6.72811 -0.391019 -1.63919
6.72511 -0.380019 -1.63819
6.72411 -0.359019 -1.63819
6.72311 -0.338019 -1.63719
6.72911 -0.296019 -1.63819
6.48311 0.00698121 -1.64519
6.49911 0.0269812 -1.64919
6.48911 0.0469812 -1.64619
6.48911 0.0679812 -1.64619
6.48711 0.0879812 -1.64619
6.48811 0.108981 -1.64619
6.47611 0.117981 -1.64319
6.49511 0.138981 -1.64819
6.48311 0.158981 -1.64519
6.47511 0.179981 -1.64319
6.47111 0.199981 -1.64219
6.48311 0.220981 -1.64619
6.46911 0.239981 -1.64219
6.47811 0.260981 -1.64519
6.47011 0.270981 -1.64219
6.46711 0.290981 -1.64219
6.47211 0.311981 -1.64419
6.45711 0.330981 -1.64019
6.46611 0.351981 -1.64219
6.46311 0.371981 -1.64219
6.45411 0.391981 -1.64019
6.45011 0.401981 -1.63919
6.45011 0.421981 -1.63919
6.45311 0.442981 -1.64019
6.45311 0.462981 -1.64119
6.46711 0.484981 -1.64519
6.43911 0.502981 -1.63819
6.45011 0.523981 -1.64119
6.44411 0.533981 -1.64019
6.45611 0.554981 -1.64419
6.44611 0.574981 -1.64119
6.43511 0.593981 -1.63919
6.45211 0.615981 -1.64419
6.42911 0.634981 -1.63819
6.43611 0.655981 -1.64119
6.43511 0.665981 -1.64119
6.43911 0.686981 -1.64219
6.42911 0.705981 -1.64019
6.43511 0.726981 -1.64219
6.41511 0.744981 -1.63819
6.41511 0.765981 -1.63819
6.41011 0.785981 -1.63819
6.41711 0.796981 -1.64019
6.41411 0.816981 -1.64019
6.41211 0.836981 -1.64019
6.39711 0.855981 -1.63719
6.40211 0.876981 -1.63919
6.39611 0.895981 -1.63819
6.40211 0.917981 -1.64019
6.39311 0.926981 -1.63819
6.39011 0.946981 -1.63819
6.37811 0.964981 -1.63619
6.39211 0.987981 -1.64019
6.37911 1.00698 -1.63819
6.39311 1.02998 -1.64219
6.37911 1.04798 -1.63919
6.39611 1.06098 -1.64519
6.37211 1.07698 -1.63919
6.37611 1.09898 -1.64119
6.35911 1.11598 -1.63719
6.36511 1.13798 -1.64019
6.35411 1.15698 -1.63819
6.35011 1.17698 -1.63819
6.36211 1.18898 -1.64119
6.35211 1.20798 -1.64019
6.33911 1.22598 -1.63719
6.34811 1.24898 -1.64119
6.34011 1.26798 -1.64019
6.33611 1.28798 -1.64019
6.33011 1.30698 -1.63919
6.33611 1.31898 -1.64119
6.33211 1.33898 -1.64119
6.33511 1.35998 -1.64419
6.32311 1.37798 -1.64119
6.31511 1.39698 -1.64019
6.31411 1.41798 -1.64119
6.31411 1.43898 -1.64219
6.30811 1.44798 -1.64119
6.32011 1.47198 -1.64619
6.31311 1.49098 -1.64619
6.32011 1.51398 -1.64919
6.29311 1.52798 -1.64219
6.29511 1.54998 -1.64519
6.29011 1.56898 -1.64519
6.29411 1.58098 -1.64619
6.29211 1.60098 -1.64719
4.17011 4.92398 -1.63619
4.14611 4.92598 -1.63319
4.13211 4.94098 -1.63319
4.11511 4.95198 -1.63319
4.09511 4.95898 -1.63019
4.09311 4.97298 -1.63319
4.06511 4.97098 -1.62819
4.04911 4.98398 -1.62819
4.02211 4.98098 -1.62319
4.00211 4.98998 -1.62119
3.98711 5.00198 -1.62119
3.96411 5.00498 -1.61819
3.96311 5.02098 -1.62119
3.94511 5.02998 -1.62019
3.92611 5.03798 -1.61819
3.91211 5.05298 -1.61919
3.88911 5.05598 -1.61619
3.87411 5.06998 -1.61719
6.33711 -1.26402 -1.63919
6.34911 -1.24602 -1.64119
6.38111 -1.23102 -1.64919
6.38911 -1.21202 -1.65019
6.41511 -1.19602 -1.65619
6.41711 -1.18602 -1.65619
6.49611 -0.576019 -1.65519
6.50211 -0.556019 -1.65619
6.50311 -0.526019 -1.65619
6.49511 -0.504019 -1.65319
6.50211 -0.484019 -1.65519
6.49811 -0.464019 -1.65319
6.50111 -0.443019 -1.65319
6.49911 -0.423019 -1.65219
6.49611 -0.402019 -1.65119
6.49911 -0.392019 -1.65219
6.50011 -0.371019 -1.65219
6.49911 -0.351019 -1.65119
6.49711 -0.310019 -1.65019
6.50411 -0.290019 -1.65219
6.49111 -0.269019 -1.64819
6.49711 -0.259019 -1.65019
6.49211 -0.238019 -1.64819
6.49711 -0.218019 -1.64919
6.48811 -0.197019 -1.64719
6.49111 -0.177019 -1.64719
6.48311 -0.156019 -1.64519
6.50311 -0.147019 -1.65019
6.49011 -0.126019 -1.64719
6.49611 -0.106019 -1.64819
6.50611 -0.0850188 -1.65119
6.48311 -0.0650188 -1.64519
6.50211 -0.0440188 -1.65019
6.48711 -0.0240188 -1.64619
6.48711 -0.0140188 -1.64619
6.06611 1.44498 -1.63319
6.05111 1.49198 -1.63119
6.04111 1.50998 -1.63019
6.04111 1.52998 -1.63119
6.03811 1.54998 -1.63219
6.04311 1.57098 -1.63519
6.04811 1.58198 -1.63719
6.05811 1.60498 -1.64119
6.03611 1.61998 -1.63619
6.04611 1.64298 -1.64119
6.03311 1.65998 -1.63819
6.02411 1.67798 -1.63719
6.01111 1.69398 -1.63519
6.01411 1.70498 -1.63719
5.99611 1.74098 -1.63519
5.98511 1.75798 -1.63319
5.97911 1.77698 -1.63319
5.97711 1.79698 -1.63419
5.97711 1.81698 -1.63619
5.96311 1.82298 -1.63319
5.96711 1.84498 -1.63519
5.96111 1.86398 -1.63519
5.95311 1.88198 -1.63519
5.94211 1.89898 -1.63319
5.93011 1.91598 -1.63119
5.92411 1.93398 -1.63119
5.91611 1.94198 -1.63019
5.92111 1.96398 -1.63319
5.90311 1.97898 -1.63019
5.91211 2.00198 -1.63419
5.89511 2.01698 -1.63119
5.89511 2.03798 -1.63319
5.88511 2.05598 -1.63219
5.88811 2.06698 -1.63419
5.87711 2.08398 -1.63319
5.87511 2.10398 -1.63419
5.87711 2.12498 -1.63619
5.88311 2.14798 -1.64019
5.85611 2.15998 -1.63419
5.85811 2.18098 -1.63719
5.84611 2.18698 -1.63419
5.85211 2.20998 -1.63819
5.84311 2.22798 -1.63719
5.84111 2.24798 -1.63919
5.82711 2.26398 -1.63719
5.82911 2.28598 -1.64019
5.82911 2.30698 -1.64219
5.82311 2.31498 -1.64119
5.82311 2.33598 -1.64319
5.79811 2.34698 -1.63819
5.79111 2.36598 -1.63819
5.79711 2.38998 -1.64219
5.79511 2.40998 -1.64419
5.78811 2.42798 -1.64419
5.77911 2.43498 -1.64219
5.77811 2.45598 -1.64419
5.77011 2.47398 -1.64419
5.76811 2.49498 -1.64619
5.75011 2.52998 -1.64519
5.74011 2.55798 -1.64619
4.40011 4.44098 -1.63719
4.38511 4.45298 -1.63619
4.37511 4.47098 -1.63819
4.35311 4.47598 -1.63519
4.33711 4.48898 -1.63419
4.32111 4.49898 -1.63319
4.30011 4.50598 -1.63019
4.29411 4.51398 -1.63119
4.28511 4.53298 -1.63319
4.26711 4.54198 -1.63119
4.24711 4.54998 -1.62919
4.23411 4.56498 -1.63019
4.21211 4.56998 -1.62719
4.20011 4.58598 -1.62819
4.19311 4.59198 -1.62819
4.17611 4.60298 -1.62719
4.15911 4.61298 -1.62619
4.14411 4.62598 -1.62619
4.12911 4.63798 -1.62519
4.11411 4.64998 -1.62519
4.09311 4.65598 -1.62219
4.09111 4.66798 -1.62419
4.07011 4.67398 -1.62219
4.04911 4.67898 -1.61919
4.03511 4.69398 -1.62019
4.01811 4.70298 -1.61919
4.00211 4.71498 -1.61819
3.99211 4.73298 -1.62019
3.98211 4.73598 -1.61919
3.96611 4.74698 -1.61919
6.15311 -1.12502 -1.63819
6.18111 -1.11002 -1.64519
6.18311 -1.09002 -1.64419
6.22411 -1.08802 -1.65619
6.25211 -0.901019 -1.65519
6.22511 -0.877019 -1.64719
6.22311 -0.857019 -1.64519
6.22711 -0.847019 -1.64619
6.22411 -0.827019 -1.64419
6.22411 -0.807019 -1.64419
6.24211 -0.790019 -1.64819
6.22511 -0.768019 -1.64319
6.23411 -0.749019 -1.64419
6.23811 -0.729019 -1.64519
6.22911 -0.708019 -1.64219
6.23711 -0.700019 -1.64419
6.24111 -0.680019 -1.64419
6.22811 -0.659019 -1.64019
6.24411 -0.641019 -1.64419
6.24211 -0.621019 -1.64319
6.23811 -0.601019 -1.64119
6.23411 -0.580019 -1.64019
6.23311 -0.570019 -1.63919
6.24111 -0.551019 -1.64119
6.23311 -0.531019 -1.63819
6.24811 -0.512019 -1.64219
6.23811 -0.492019 -1.63819
6.23211 -0.472019 -1.63619
6.24811 -0.463019 -1.64119
6.24111 -0.443019 -1.63819
6.24311 -0.423019 -1.63819
6.24211 -0.384019 -1.63719
6.24311 -0.364019 -1.63719
6.24011 -0.344019 -1.63619
6.24011 -0.315019 -1.63619
6.24111 -0.295019 -1.63619
6.24611 -0.256019 -1.63719
6.24111 -0.236019 -1.63519
6.24211 -0.207019 -1.63519
6.24211 -0.148019 -1.63519
6.24211 -0.128019 -1.63519
6.05311 0.00998121 -1.64119
6.05711 0.0289812 -1.64219
6.05311 0.0389812 -1.64119
6.03411 0.0569812 -1.63519
6.04911 0.0769812 -1.64019
6.03711 0.0949812 -1.63719
6.03511 0.113981 -1.63619
6.04611 0.132981 -1.63919
6.03611 0.151981 -1.63719
6.02811 0.160981 -1.63419
6.04511 0.180981 -1.63919
6.03211 0.217981 -1.63619
6.02711 0.236981 -1.63519
6.02811 0.255981 -1.63519
6.03511 0.275981 -1.63819
6.02711 0.284981 -1.63519
6.02811 0.303981 -1.63619
6.02711 0.322981 -1.63619
6.02011 0.340981 -1.63419
6.01911 0.359981 -1.63419
6.02811 0.398981 -1.63819
6.02211 0.407981 -1.63619
6.01011 0.444981 -1.63319
6.01811 0.464981 -1.63619
6.00711 0.482981 -1.63319
6.00811 0.520981 -1.63419
6.01211 0.530981 -1.63619
6.01811 0.549981 -1.63819
6.00111 0.567981 -1.63419
6.01311 0.587981 -1.63819
5.99411 0.604981 -1.63319
6.00311 0.624981 -1.63619
6.00911 0.644981 -1.63819
5.99811 0.652981 -1.63519
5.98911 0.670981 -1.63319
5.98711 0.689981 -1.63319
5.98811 0.708981 -1.63419
5.98011 0.726981 -1.63319
5.98711 0.746981 -1.63519
5.97911 0.764981 -1.63419
5.97411 0.773981 -1.63319
5.97411 0.792981 -1.63319
5.97311 0.811981 -1.63419
5.96711 0.830981 -1.63319
5.96411 0.848981 -1.63319
5.96711 0.868981 -1.63419
5.96611 0.887981 -1.63519
5.96711 0.897981 -1.63519
5.96411 0.915981 -1.63519
5.95011 0.932981 -1.63219
5.94711 0.951981 -1.63219
5.95711 0.972981 -1.63619
5.96311 0.992981 -1.63919
5.94511 1.00898 -1.63419
5.94011 1.01798 -1.63319
5.94011 1.03698 -1.63419
5.93711 1.05598 -1.63419
5.93211 1.07398 -1.63419
5.93411 1.09398 -1.63519
5.92911 1.11198 -1.63519
5.93111 1.13198 -1.63719
5.92711 1.14098 -1.63619
5.92011 1.15898 -1.63519
5.92211 1.17798 -1.63719
5.92011 1.19698 -1.63719
5.90711 1.21398 -1.63419
5.91011 1.23398 -1.63719
5.90411 1.25198 -1.63619
5.91211 1.26398 -1.63919
5.90611 1.28198 -1.63819
5.89411 1.29898 -1.63619
5.89411 1.31798 -1.63719
5.88411 1.33498 -1.63519
5.87411 1.35198 -1.63419
5.88111 1.37298 -1.63719
5.87911 1.38298 -1.63719
5.87311 1.40098 -1.63719
5.87611 1.42098 -1.63919
5.87211 1.43898 -1.63919
5.86311 1.45698 -1.63819
5.86611 1.47698 -1.64019
5.86711 1.49698 -1.64219
5.85511 1.50398 -1.63919
5.86211 1.52498 -1.64219
5.87011 1.54698 -1.64619
5.85011 1.56198 -1.64219
5.85611 1.58298 -1.64519
5.85711 1.60298 -1.64719
5.84611 1.61998 -1.64519
5.84711 1.62998 -1.64619
5.82811 1.66398 -1.64319
5.82111 1.68198 -1.64319
5.82311 1.70198 -1.64519
5.80111 1.71598 -1.64019
5.79411 1.73298 -1.63919
5.80211 1.74598 -1.64319
5.78711 1.76098 -1.64019
5.76911 1.77498 -1.63619
5.78011 1.79898 -1.64119
5.76111 1.81298 -1.63719
5.75411 1.82998 -1.63719
5.76811 1.85498 -1.64319
5.75211 1.85998 -1.63919
5.75011 1.87898 -1.64019
5.74411 1.89698 -1.64019
5.73611 1.91398 -1.63919
5.74311 1.93698 -1.64319
5.72211 1.94998 -1.63919
5.71611 1.96798 -1.63919
5.71011 1.97498 -1.63819
5.71411 1.99698 -1.64119
5.70411 2.01398 -1.64019
5.71111 2.03598 -1.64419
5.71011 2.05598 -1.64519
5.69011 2.06898 -1.64219
5.69611 2.09198 -1.64519
5.68111 2.09598 -1.64219
5.67611 2.11498 -1.64219
5.66411 2.13098 -1.64019
5.66411 2.15098 -1.64319
5.65211 2.16698 -1.64119
5.65411 2.18798 -1.64419
5.65811 2.20998 -1.64719
5.63711 2.21198 -1.64219
5.64611 2.23598 -1.64719
5.63011 2.24998 -1.64419
5.62311 2.26798 -1.64419
5.60811 2.30298 -1.64419
5.60611 2.32298 -1.64519
4.16511 4.36598 -1.63519
4.15011 4.37798 -1.63519
4.14111 4.39698 -1.63719
4.12711 4.40998 -1.63719
4.10711 4.41498 -1.63419
4.09011 4.42498 -1.63319
4.07211 4.43398 -1.63219
4.05911 4.43298 -1.62919
4.03711 4.43698 -1.62519
4.02611 4.45298 -1.62719
4.01811 4.47298 -1.62919
3.99711 4.47698 -1.62619
3.98111 4.48798 -1.62519
3.96511 4.48398 -1.62119
3.95911 4.50498 -1.62519
3.94111 4.51298 -1.62319
3.92711 4.52598 -1.62319
3.91611 4.54198 -1.62519
3.89111 4.54098 -1.62019
3.87911 4.55598 -1.62119
3.87311 4.56398 -1.62119
3.85911 4.57598 -1.62119
3.82511 4.59398 -1.61919
3.79211 4.61398 -1.61819
3.77811 4.64098 -1.62119
3.76611 4.65598 -1.62219
3.74911 4.66398 -1.62119
3.71611 4.68298 -1.61919
3.68811 4.70998 -1.62019
3.66911 4.71498 -1.61819
3.59711 4.75998 -1.61619
5.95111 -1.11502 -1.64219
5.98511 -1.10202 -1.65019
6.03111 -0.896019 -1.65419
6.02211 -0.876019 -1.65019
6.02511 -0.857019 -1.65019
6.02511 -0.847019 -1.65019
6.02711 -0.828019 -1.65019
6.02611 -0.809019 -1.64919
6.02511 -0.789019 -1.64819
6.04211 -0.772019 -1.65219
6.03111 -0.752019 -1.64819
6.03811 -0.733019 -1.64919
6.03511 -0.723019 -1.64819
6.03711 -0.704019 -1.64819
6.03511 -0.685019 -1.64719
6.06211 -0.669019 -1.65419
6.03211 -0.646019 -1.64519
6.05111 -0.629019 -1.65019
6.04211 -0.609019 -1.64719
6.04111 -0.599019 -1.64619
6.04311 -0.580019 -1.64619
6.05411 -0.562019 -1.64919
6.05211 -0.543019 -1.64819
6.05211 -0.523019 -1.64719
6.05111 -0.504019 -1.64719
6.05111 -0.485019 -1.64619
6.04311 -0.465019 -1.64319
6.05911 -0.457019 -1.64819
6.03911 -0.437019 -1.64219
6.05211 -0.418019 -1.64519
6.04611 -0.399019 -1.64319
6.05511 -0.380019 -1.64519
6.05211 -0.361019 -1.64419
6.06111 -0.342019 -1.64619
6.04611 -0.332019 -1.64219
6.05711 -0.314019 -1.64419
6.06311 -0.295019 -1.64619
6.04711 -0.275019 -1.64119
6.05011 -0.256019 -1.64219
6.05211 -0.237019 -1.64219
6.05111 -0.218019 -1.64219
6.04411 -0.208019 -1.63919
6.05211 -0.190019 -1.64219
6.04711 -0.170019 -1.64019
6.05311 -0.152019 -1.64219
6.05911 -0.133019 -1.64319
6.04611 -0.113019 -1.63919
6.04111 -0.0940188 -1.63819
6.05411 -0.0850188 -1.64219
6.04511 -0.0660188 -1.63919
6.05311 -0.0470188 -1.64119
6.05311 -0.0280188 -1.64119
6.04511 -0.00901879 -1.63919
5.89111 0.0139812 -1.63619
5.91011 0.0319812 -1.64219
5.89111 0.0509812 -1.63619
5.89211 0.0689812 -1.63719
5.90211 0.0879812 -1.64019
5.88811 0.0969812 -1.63619
5.90911 0.115981 -1.64219
5.87811 0.133981 -1.63319
5.88111 0.151981 -1.63419
5.88111 0.170981 -1.63419
5.89011 0.188981 -1.63719
5.88511 0.207981 -1.63619
5.87711 0.216981 -1.63319
5.88211 0.234981 -1.63519
5.87611 0.253981 -1.63319
5.87611 0.290981 -1.63419
5.87711 0.308981 -1.63519
5.88411 0.327981 -1.63719
5.87211 0.336981 -1.63319
5.87411 0.354981 -1.63519
5.86911 0.373981 -1.63319
5.87611 0.392981 -1.63619
5.87511 0.410981 -1.63619
5.86611 0.428981 -1.63319
5.85611 0.474981 -1.63219
5.85711 0.492981 -1.63219
5.85511 0.511981 -1.63219
5.85711 0.548981 -1.63419
5.84711 0.575981 -1.63219
5.85111 0.594981 -1.63319
5.84311 0.611981 -1.63219
5.84911 0.631981 -1.63419
5.84511 0.649981 -1.63319
5.84511 0.667981 -1.63419
5.83911 0.685981 -1.63319
5.83811 0.713981 -1.63319
5.83711 0.750981 -1.63519
5.83211 0.787981 -1.63519
5.83511 0.806981 -1.63619
5.82611 0.814981 -1.63419
5.81211 0.849981 -1.63119
5.81011 0.886981 -1.63219
5.80311 0.904981 -1.63119
5.80111 0.922981 -1.63119
5.80311 0.932981 -1.63219
5.80111 0.969981 -1.63319
5.78811 0.986981 -1.63119
5.79411 1.00598 -1.63319
5.78411 1.02298 -1.63119
5.78511 1.05198 -1.63319
5.77711 1.06898 -1.63219
5.77811 1.08798 -1.63319
5.77211 1.10598 -1.63219
5.78211 1.12598 -1.63619
5.76211 1.14098 -1.63119
5.76611 1.16098 -1.63319
5.75811 1.16898 -1.63219
5.75611 1.18698 -1.63219
5.76211 1.20698 -1.63519
5.76011 1.22598 -1.63619
5.75211 1.24298 -1.63519
5.75611 1.26298 -1.63719
5.74811 1.27998 -1.63619
5.74611 1.28898 -1.63619
5.75911 1.31098 -1.64119
5.74211 1.32598 -1.63719
5.72211 1.33998 -1.63219
5.73311 1.36198 -1.63719
5.71811 1.37698 -1.63319
5.71511 1.39598 -1.63419
5.71311 1.40498 -1.63419
5.72711 1.42698 -1.64019
5.70811 1.44098 -1.63519
5.71611 1.46298 -1.63919
5.70411 1.47898 -1.63719
5.69811 1.49598 -1.63619
5.70011 1.51598 -1.63919
5.69111 1.52298 -1.63619
5.69511 1.54298 -1.63919
5.70311 1.56498 -1.64319
5.69311 1.58098 -1.64119
5.69911 1.60198 -1.64519
5.69011 1.64798 -1.64619
5.66611 1.65998 -1.64019
5.64411 1.67298 -1.63519
5.63911 1.69098 -1.63519
5.63411 1.70898 -1.63519
5.62411 1.72498 -1.63419
5.61511 1.74198 -1.63319
5.62011 1.75298 -1.63519
5.59811 1.76498 -1.63019
5.59211 1.78298 -1.63019
5.60511 1.80598 -1.63619
5.58811 1.81998 -1.63219
5.59011 1.83998 -1.63519
5.60111 1.86298 -1.64019
5.59211 1.86998 -1.63819
5.57011 1.88198 -1.63319
5.57811 1.90498 -1.63719
5.56011 1.91798 -1.63319
5.55711 1.93698 -1.63519
5.54811 1.95298 -1.63319
5.54511 1.97098 -1.63519
5.55811 1.98598 -1.64019
5.54111 1.99998 -1.63619
5.54611 2.02098 -1.64019
5.53211 2.03598 -1.63719
5.54011 2.05798 -1.64219
5.52811 2.07398 -1.64019
5.52311 2.09198 -1.64119
5.52411 2.10198 -1.64219
5.51711 2.11898 -1.64219
5.50711 2.13498 -1.64119
5.50711 2.15498 -1.64319
5.50411 2.17398 -1.64419
5.49211 2.18898 -1.64319
5.47911 2.20398 -1.64119
5.47411 2.21198 -1.64019
5.47111 2.23098 -1.64119
5.47411 2.25198 -1.64519
5.45811 2.26598 -1.64219
5.45811 2.28598 -1.64419
5.45311 2.30398 -1.64519
5.43711 2.32698 -1.64319
4.04511 4.28698 -1.63719
4.03711 4.29198 -1.63719
4.02311 4.30398 -1.63619
4.00111 4.30798 -1.63319
3.99011 4.32298 -1.63419
3.97911 4.33798 -1.63519
3.95511 4.33998 -1.63119
3.95311 4.36498 -1.63619
3.93311 4.35698 -1.63019
3.91811 4.36798 -1.62919
3.90211 4.37698 -1.62819
3.88711 4.38798 -1.62819
3.88011 4.40698 -1.63119
3.84811 4.39898 -1.62319
3.84611 4.42398 -1.62819
3.82911 4.43398 -1.62719
3.81811 4.43498 -1.62519
3.80311 4.44598 -1.62419
3.78811 4.45598 -1.62419
3.76811 4.46098 -1.62119
3.74811 4.46498 -1.61819
3.73111 4.47398 -1.61719
3.72111 4.48998 -1.61919
3.71611 4.49898 -1.62019
3.69711 4.50498 -1.61719
3.65711 4.54198 -1.61919
3.62711 4.56398 -1.61819
5.78411 -1.14602 -1.63819
5.80511 -1.13102 -1.64319
5.84011 -1.12902 -1.65319
5.87311 -0.917019 -1.65219
5.87611 -0.898019 -1.65219
5.87611 -0.889019 -1.65219
5.86111 -0.868019 -1.64719
5.87611 -0.851019 -1.65019
5.88211 -0.833019 -1.65119
5.89611 -0.816019 -1.65519
5.88511 -0.796019 -1.65119
5.89911 -0.779019 -1.65419
5.88611 -0.758019 -1.64919
5.89111 -0.749019 -1.65119
5.88811 -0.730019 -1.64919
5.89211 -0.712019 -1.64919
5.89411 -0.693019 -1.64919
5.90011 -0.675019 -1.65119
5.90211 -0.657019 -1.65119
5.90211 -0.638019 -1.65019
5.89811 -0.628019 -1.64819
5.89811 -0.609019 -1.64819
5.89611 -0.590019 -1.64719
5.91111 -0.573019 -1.65119
5.89811 -0.553019 -1.64619
5.90511 -0.535019 -1.64819
5.89911 -0.516019 -1.64519
5.90411 -0.507019 -1.64719
5.90911 -0.489019 -1.64819
5.90911 -0.470019 -1.64719
5.90611 -0.451019 -1.64619
5.90811 -0.433019 -1.64619
5.89611 -0.413019 -1.64219
5.90811 -0.395019 -1.64519
5.89911 -0.385019 -1.64319
5.90411 -0.367019 -1.64419
5.90211 -0.348019 -1.64319
5.90111 -0.330019 -1.64219
5.91511 -0.312019 -1.64619
5.92211 -0.294019 -1.64819
5.90911 -0.274019 -1.64419
5.91011 -0.265019 -1.64419
5.89711 -0.246019 -1.64019
5.90011 -0.228019 -1.64019
5.91011 -0.209019 -1.64319
5.91611 -0.191019 -1.64519
5.90011 -0.172019 -1.64019
5.90011 -0.153019 -1.64019
5.89511 -0.144019 -1.63819
5.91111 -0.126019 -1.64319
5.91711 -0.107019 -1.64419
5.89411 -0.0880188 -1.63719
5.89211 -0.0700188 -1.63719
5.90011 -0.0510188 -1.63919
5.89511 -0.0330188 -1.63719
5.90011 -0.0240188 -1.63919
5.90211 -0.00501879 -1.64019
5.70011 0.263981 -1.65119
5.69611 0.298981 -1.65019
5.62911 0.922981 -1.65019
3.57411 4.38198 -1.63519
3.54111 4.39598 -1.63219
3.53711 4.40698 -1.63319
3.52811 4.42398 -1.63619
3.50711 4.42598 -1.63219
3.49011 4.43198 -1.63019
3.46111 4.45198 -1.63019
3.44411 4.45998 -1.62919
3.45011 4.48198 -1.63519
3.42211 4.47498 -1.62819
3.41711 4.49798 -1.63319
3.38511 4.51498 -1.63119
3.37011 4.52398 -1.63019
3.35711 4.53598 -1.63119
3.34711 4.55298 -1.63319
3.32111 4.53198 -1.62319
3.30511 4.53898 -1.62219
3.27911 4.53398 -1.61619
3.26411 4.54198 -1.61619
3.26611 4.57598 -1.62519
3.22311 4.57598 -1.61719
3.22611 4.59498 -1.62219
3.20011 4.58998 -1.61619
3.18911 4.60398 -1.61819
3.16911 4.60598 -1.61519
3.16011 4.62398 -1.61819
3.13311 4.64698 -1.61919
3.10411 4.65098 -1.61519
3.08911 4.66098 -1.61519
3.06011 4.67998 -1.61519
5.54511 -1.19002 -1.64019
5.59011 -1.18102 -1.65319
3.23911 4.40798 -1.63519
3.19411 4.43298 -1.63319
3.19111 4.44298 -1.63519
3.17511 4.45098 -1.63419
3.15811 4.45698 -1.63219
3.14311 4.46498 -1.63219
3.13611 4.48398 -1.63519
3.11811 4.48898 -1.63419
3.10111 4.49398 -1.63219
3.09811 4.50598 -1.63419
3.08311 4.51398 -1.63419
3.06611 4.51998 -1.63219
3.04711 4.52198 -1.62919
3.03511 4.53498 -1.63119
3.01411 4.53498 -1.62719
3.00611 4.55398 -1.63119
2.98211 4.54898 -1.62519
2.98611 4.56898 -1.63119
2.96911 4.57598 -1.63019
2.95011 4.57698 -1.62719
2.93411 4.58498 -1.62619
2.92211 4.59698 -1.62819
2.90311 4.59998 -1.62519
2.89411 4.60098 -1.62419
2.88111 4.61198 -1.62419
2.86611 4.62098 -1.62419
2.85111 4.62798 -1.62419
2.83611 4.63698 -1.62419
2.81711 4.63798 -1.62119
2.80511 4.65098 -1.62319
2.79911 4.65698 -1.62319
2.78011 4.65998 -1.62119
2.76311 4.66498 -1.62019
2.75611 4.68498 -1.62419
2.73311 4.68098 -1.61919
2.72211 4.69598 -1.62119
2.70311 4.69598 -1.61819
2.69611 4.70198 -1.61919
2.68011 4.70898 -1.61819
2.67211 4.72898 -1.62319
2.65611 4.73398 -1.62119
2.63811 4.73698 -1.62019
2.62811 4.75398 -1.62319
2.60311 4.74498 -1.61719
2.59711 4.76898 -1.62219
2.58811 4.77098 -1.62119
2.56811 4.76898 -1.61819
2.55311 4.77698 -1.61819
2.54111 4.79198 -1.62019
2.52511 4.79598 -1.61919
2.50711 4.79898 -1.61719
2.49511 4.81398 -1.62019
2.48211 4.80598 -1.61519
2.46811 4.81698 -1.61719
2.45411 4.82698 -1.61719
2.43711 4.83098 -1.61619
2.41811 4.83198 -1.61419
2.40411 4.84098 -1.61419
2.39011 4.84998 -1.61519
2.38011 4.84898 -1.61319
2.36811 4.86498 -1.61619
2.35111 4.86698 -1.61419
2.33511 4.87298 -1.61419
2.31911 4.87998 -1.61419
2.30711 4.89398 -1.61619
2.28511 4.90698 -1.61719
2.24811 4.90898 -1.61219
2.21811 4.92298 -1.61219
2.16211 4.94498 -1.61219
5.35811 -1.22002 -1.64319
3.17711 4.21898 -1.63519
3.16411 4.22898 -1.63519
3.15111 4.23898 -1.63519
3.13111 4.23998 -1.63219
3.12111 4.25398 -1.63419
3.09711 4.24998 -1.62819
3.09311 4.25798 -1.62919
3.07811 4.26598 -1.62919
3.06411 4.27398 -1.62819
3.05011 4.28398 -1.62819
3.03611 4.29198 -1.62719
3.01611 4.29198 -1.62419
3.00911 4.31098 -1.62719
3.00011 4.31198 -1.62619
2.98111 4.31398 -1.62319
2.96611 4.32198 -1.62219
2.95611 4.33598 -1.62419
2.93811 4.33898 -1.62219
2.92511 4.34898 -1.62219
2.91311 4.35998 -1.62319
2.90311 4.35998 -1.62119
2.88811 4.36798 -1.62019
2.87511 4.37798 -1.62119
2.86311 4.38898 -1.62219
2.85711 4.41098 -1.62719
2.83211 4.40198 -1.62019
2.81211 4.40098 -1.61619
2.80011 4.41298 -1.61719
2.79611 4.42198 -1.61919
2.77511 4.41998 -1.61519
2.73411 4.44698 -1.61519
2.71911 4.45398 -1.61519
2.66911 4.48198 -1.61419
5.15111 -1.23602 -1.64119
5.17311 -1.22402 -1.64719
3.02111 4.15498 -1.63519
3.00711 4.16298 -1.63519
2.97911 4.17898 -1.63319
2.96711 4.18998 -1.63419
2.95911 4.19298 -1.63319
2.94811 4.20498 -1.63519
2.92611 4.20198 -1.63019
2.91911 4.22098 -1.63319
2.90511 4.22798 -1.63319
2.89011 4.23398 -1.63119
2.87211 4.23698 -1.62919
2.86111 4.23498 -1.62619
2.85011 4.24698 -1.62819
2.82811 4.24398 -1.62219
2.81811 4.25698 -1.62419
2.79811 4.25698 -1.62119
2.78811 4.26998 -1.62219
2.78511 4.29498 -1.62919
2.76911 4.28498 -1.62319
2.75211 4.28898 -1.62119
2.73911 4.29798 -1.62119
2.72411 4.30498 -1.62119
2.70711 4.30698 -1.61819
2.69811 4.32298 -1.62119
2.68411 4.33198 -1.62119
2.67811 4.33598 -1.62119
2.66111 4.33898 -1.61919
2.64811 4.34898 -1.62019
2.63411 4.35598 -1.61919
2.62311 4.36898 -1.62119
2.60811 4.37598 -1.62119
2.58911 4.37398 -1.61719
2.58711 4.38598 -1.62019
2.57111 4.39098 -1.61919
2.55511 4.39598 -1.61719
2.54011 4.40198 -1.61719
2.52311 4.40398 -1.61419
2.50311 4.43398 -1.62019
2.48411 4.43198 -1.61619
2.48611 4.45298 -1.62219
2.46711 4.45098 -1.61919
2.45511 4.46298 -1.62119
2.43411 4.45798 -1.61519
2.42111 4.46698 -1.61619
2.40711 4.47498 -1.61619
2.40011 4.49498 -1.62119
2.38611 4.48598 -1.61619
2.37711 4.50298 -1.62019
2.35611 4.49698 -1.61519
2.34611 4.51298 -1.61819
2.32811 4.51398 -1.61519
2.31911 4.52898 -1.61919
2.30311 4.53298 -1.61719
2.30211 4.54898 -1.62219
2.27111 4.55998 -1.62119
2.25211 4.55698 -1.61719
2.23711 4.56398 -1.61719
2.20411 4.56798 -1.61319
2.19811 4.57398 -1.61419
2.18211 4.57798 -1.61319
2.15611 4.59698 -1.61519
2.14411 4.60898 -1.61719
2.11111 4.61298 -1.61319
2.10511 4.61998 -1.61519
2.08811 4.62098 -1.61319
1.90511 4.69798 -1.61219
4.99311 -1.26702 -1.64019
5.01911 -1.25702 -1.64819
2.73911 4.16198 -1.63419
2.71411 4.16698 -1.63119
2.69811 4.17098 -1.62919
2.68911 4.18598 -1.63119
2.67611 4.19398 -1.63119
2.66411 4.20398 -1.63219
2.64811 4.20798 -1.63019
2.63611 4.21898 -1.63119
2.63211 4.22698 -1.63319
2.61611 4.23198 -1.63119
2.60211 4.23798 -1.63119
2.58611 4.24198 -1.62919
2.57711 4.25798 -1.63219
2.56111 4.26098 -1.63019
2.54911 4.27098 -1.63119
2.54311 4.27598 -1.63119
2.52811 4.28098 -1.63019
2.51511 4.29098 -1.63119
2.49911 4.29398 -1.62919
2.48111 4.29298 -1.62519
2.46511 4.29798 -1.62419
2.46011 4.31998 -1.63019
2.45111 4.32098 -1.62919
2.43311 4.31998 -1.62519
2.42511 4.33798 -1.62919
2.41311 4.34898 -1.63119
2.39511 4.34798 -1.62719
2.38111 4.35498 -1.62719
2.37011 4.36598 -1.62919
2.36011 4.36498 -1.62719
2.35211 4.38198 -1.63119
2.33311 4.38098 -1.62719
2.32011 4.38898 -1.62719
2.30711 4.39798 -1.62819
2.28811 4.39498 -1.62419
2.27711 4.40898 -1.62719
2.26311 4.41598 -1.62719
2.25611 4.41798 -1.62619
2.23611 4.41298 -1.62119
2.22611 4.42798 -1.62519
2.21111 4.43198 -1.62319
2.20311 4.45198 -1.62919
2.18211 4.44398 -1.62319
2.17011 4.45598 -1.62519
2.16211 4.45598 -1.62319
2.14211 4.45098 -1.61919
2.13211 4.46598 -1.62219
2.12111 4.47998 -1.62519
2.10211 4.47398 -1.62019
2.09111 4.48898 -1.62319
2.08011 4.50298 -1.62619
2.07011 4.49698 -1.62319
2.05511 4.50198 -1.62219
2.04411 4.51598 -1.62519
2.02311 4.50798 -1.61919
2.00611 4.50798 -1.61719
2.00111 4.53498 -1.62519
1.98211 4.53098 -1.62119
1.97211 4.52698 -1.61819
1.96411 4.54698 -1.62319
1.94411 4.53898 -1.61819
1.93011 4.54698 -1.61919
1.91711 4.55598 -1.62019
1.89611 4.54698 -1.61419
1.88511 4.55998 -1.61719
1.87811 4.56398 -1.61719
1.84811 4.57098 -1.61519
1.83311 4.57598 -1.61519
1.78911 4.58998 -1.61419
1.78011 4.58798 -1.61219
1.75511 4.60898 -1.61619
1.70811 4.61698 -1.61319
1.67311 4.63498 -1.61519
1.58211 4.65498 -1.61119
4.82811 -1.29202 -1.63919
4.84811 -1.28202 -1.64519
1.82111 4.50698 -1.63119
1.78311 4.51598 -1.62919
1.77011 4.52298 -1.63019
1.75511 4.52898 -1.63019
1.73811 4.52698 -1.62719
1.72611 4.53598 -1.62819
1.70911 4.53398 -1.62619
1.69511 4.54098 -1.62619
1.68811 4.54398 -1.62619
1.67211 4.54398 -1.62419
1.65711 4.54798 -1.62419
1.64411 4.55798 -1.62619
1.61411 4.56498 -1.62419
1.60211 4.57498 -1.62619
1.59911 4.58798 -1.63019
1.57511 4.56698 -1.62019
1.56711 4.58898 -1.62719
1.54811 4.58398 -1.62319
1.53411 4.58798 -1.62319
1.52311 4.60398 -1.62719
1.50311 4.59098 -1.62019
1.49911 4.60198 -1.62419
1.48511 4.60998 -1.62519
1.46411 4.59498 -1.61819
1.45911 4.62898 -1.62819
1.43911 4.61498 -1.62219
1.42611 4.62498 -1.62419
1.40811 4.61698 -1.61919
1.39911 4.63898 -1.62619
1.38611 4.62498 -1.62019
1.36911 4.61898 -1.61519
1.35711 4.63398 -1.62019
1.34011 4.62698 -1.61519
1.32511 4.62998 -1.61519
1.31211 4.64098 -1.61819
1.29611 4.64198 -1.61619
1.29111 4.64898 -1.61819
1.27711 4.65498 -1.61919
1.26211 4.65898 -1.61919
1.24711 4.66298 -1.61919
1.23711 4.68298 -1.62519
1.21511 4.65998 -1.61519
1.20111 4.66498 -1.61519
1.19211 4.66198 -1.61319
1.18011 4.67498 -1.61719
1.16411 4.67498 -1.61519
1.14911 4.67498 -1.61419
1.13811 4.69298 -1.62019
1.12011 4.68298 -1.61519
1.10811 4.69798 -1.61919
1.09511 4.67998 -1.61119
1.08911 4.71798 -1.62419
1.05611 4.70998 -1.61919
1.03611 4.69098 -1.61119
1.02411 4.70698 -1.61519
1.00911 4.70898 -1.61519
1.00111 4.70598 -1.61319
0.987113 4.71298 -1.61519
0.976113 4.73298 -1.62119
0.954113 4.70298 -1.60919
0.944113 4.72998 -1.61819
0.926113 4.71598 -1.61119
0.913113 4.72798 -1.61519
0.896113 4.72198 -1.61119
0.893113 4.74498 -1.62019
0.875113 4.73298 -1.61419
0.862113 4.74498 -1.61819
0.843113 4.72798 -1.61019
0.832113 4.74698 -1.61619
0.818113 4.75498 -1.61819
0.802113 4.75598 -1.61819
0.795113 4.75898 -1.61819
0.781113 4.76698 -1.62019
0.768113 4.77898 -1.62419
0.750113 4.76398 -1.61819
0.738113 4.78498 -1.62419
0.719113 4.76498 -1.61619
0.705113 4.77298 -1.61819
0.699113 4.78298 -1.62219
0.682113 4.77098 -1.61619
0.668113 4.78198 -1.62019
0.654113 4.78598 -1.62019
0.639113 4.78798 -1.62019
0.625113 4.79798 -1.62319
0.608113 4.78798 -1.61919
0.602113 4.79998 -1.62319
0.583113 4.77598 -1.61319
0.569113 4.77998 -1.61419
0.555113 4.79298 -1.61819
0.541113 4.80598 -1.62219
