8.4413 1.57908 -1.79687
8.4383 1.60608 -1.79787
8.4333 1.63208 -1.79787
8.4283 1.65908 -1.79787
8.4313 1.68708 -1.79987
8.4313 1.71408 -1.80087
8.4243 1.74008 -1.79987
8.4303 1.75608 -1.80287
8.4193 1.78108 -1.80087
8.4103 1.80608 -1.79987
8.4123 1.83408 -1.80187
8.4193 1.86408 -1.80487
8.4043 1.88808 -1.80287
8.4033 1.91608 -1.80387
8.4183 1.93308 -1.80787
8.4273 1.96308 -1.81187
8.4223 1.99008 -1.81187
8.4123 2.01508 -1.81087
8.4083 2.04208 -1.81187
8.4133 2.07108 -1.81387
8.4043 2.08308 -1.81287
8.3903 2.10808 -1.81087
8.3893 2.13508 -1.81287
8.3883 2.16308 -1.81387
8.3863 2.19108 -1.81487
8.3833 2.21808 -1.81587
8.3713 2.24308 -1.81487
8.3823 2.27508 -1.81887
8.3903 2.29108 -1.82187
8.3883 2.31908 -1.82287
8.3833 2.34508 -1.82287
8.3983 2.37808 -1.82887
8.3983 2.40708 -1.82987
8.0363 3.80708 -1.86487
7.9773 3.81008 -1.85387
7.9453 3.82508 -1.84887
7.9093 -1.66592 -1.68487
8.2783 -0.758921 -1.73587
8.2823 -0.706921 -1.73587
8.2963 -0.616921 -1.73687
8.2923 -0.589921 -1.73587
8.2973 -0.563921 -1.73687
8.3013 -0.537921 -1.73687
8.3003 -0.524921 -1.73687
8.3013 -0.498921 -1.73687
8.3073 -0.472921 -1.73787
8.3043 -0.446921 -1.73687
8.3063 -0.420921 -1.73687
8.3153 -0.394921 -1.73887
8.3103 -0.368921 -1.73687
8.3173 -0.355921 -1.73887
8.3043 -0.328921 -1.73587
8.3173 -0.303921 -1.73787
8.3293 -0.277921 -1.74087
8.3283 -0.251921 -1.73987
8.3233 -0.224921 -1.73887
8.3303 -0.198921 -1.73987
8.3243 -0.185921 -1.73887
8.3343 -0.159921 -1.74087
8.3333 -0.133921 -1.74087
8.3353 -0.107921 -1.74087
8.3283 -0.081921 -1.73987
8.3363 -0.054921 -1.74087
8.3403 -0.028921 -1.74187
8.3363 -0.015921 -1.74087
8.0093 0.00107898 -1.73887
7.9973 0.026079 -1.73587
8.0053 0.052079 -1.73787
8.0093 0.077079 -1.73887
8.0033 0.102079 -1.73787
8.0183 0.140079 -1.74087
8.0093 0.165079 -1.73987
8.0133 0.190079 -1.74087
8.0203 0.266079 -1.74287
8.0343 0.406079 -1.74687
8.0473 0.495079 -1.75087
8.0603 1.29208 -1.77487
8.0583 1.33008 -1.77587
8.0673 1.35808 -1.77887
8.0673 1.38408 -1.77987
8.0693 1.43708 -1.78287
8.0573 1.46008 -1.78087
8.0663 1.47508 -1.78287
8.0623 1.50108 -1.78287
8.0633 1.52708 -1.78487
8.0603 1.55308 -1.78487
8.0663 1.58008 -1.78787
8.0753 1.60808 -1.79087
8.0643 1.63308 -1.78987
8.0763 1.66108 -1.79387
8.0693 1.67308 -1.79287
8.0793 1.70208 -1.79587
8.0683 1.72608 -1.79487
8.0573 1.75008 -1.79387
8.0653 1.77808 -1.79687
8.0593 1.80408 -1.79687
8.0593 1.83008 -1.79787
8.0473 1.84108 -1.79587
8.0733 1.87408 -1.80387
8.0453 1.89408 -1.79787
8.0523 1.92208 -1.80087
8.0573 1.95008 -1.80387
8.0593 1.97708 -1.80587
8.0353 1.99808 -1.80187
8.0593 2.01808 -1.80787
8.0413 2.04008 -1.80587
8.0423 2.06708 -1.80687
8.0493 2.09608 -1.80987
8.0363 2.12008 -1.80887
8.0413 2.14808 -1.81187
8.0603 2.18108 -1.81787
8.0503 2.19108 -1.81587
8.0433 2.21608 -1.81587
8.0543 2.24708 -1.82087
8.0493 2.27308 -1.82087
8.0463 2.29908 -1.82187
8.0293 2.34908 -1.82187
8.0333 2.36408 -1.82387
7.5933 3.84208 -1.85487
7.5593 3.84008 -1.84787
7.6553 -1.64692 -1.69787
7.9343 -0.735921 -1.72987
7.9593 -0.674921 -1.73387
7.9483 -0.648921 -1.73087
7.9633 -0.624921 -1.73387
7.9693 -0.600921 -1.73487
7.9633 -0.574921 -1.73287
7.9713 -0.549921 -1.73487
7.9453 -0.523921 -1.72787
7.9623 -0.511921 -1.73187
7.9593 -0.486921 -1.73087
7.9703 -0.461921 -1.73287
7.9643 -0.436921 -1.73187
7.9813 -0.412921 -1.73487
7.9733 -0.386921 -1.73287
7.9743 -0.361921 -1.73287
7.9803 -0.349921 -1.73387
7.9813 -0.324921 -1.73387
7.9823 -0.299921 -1.73387
7.9833 -0.274921 -1.73387
7.9883 -0.249921 -1.73487
7.9923 -0.224921 -1.73587
7.9873 -0.198921 -1.73487
7.9883 -0.186921 -1.73487
7.9883 -0.161921 -1.73487
8.0043 -0.136921 -1.73787
7.9893 -0.111921 -1.73487
7.9993 -0.086921 -1.73687
8.0053 -0.061921 -1.73787
8.0053 -0.035921 -1.73787
8.0133 -0.023921 -1.73987
7.7433 0.00307898 -1.74087
7.7583 0.027079 -1.74487
7.7473 0.039079 -1.74187
7.7483 0.064079 -1.74187
7.7663 0.088079 -1.74687
7.7483 0.112079 -1.74187
7.7573 0.137079 -1.74487
7.7663 0.161079 -1.74687
7.7463 0.185079 -1.74187
7.7523 0.198079 -1.74387
7.7323 0.222079 -1.73887
7.7413 0.246079 -1.74187
7.7483 0.271079 -1.74287
7.7623 0.296079 -1.74687
7.7853 0.321079 -1.75287
7.7803 0.345079 -1.75187
7.7813 0.357079 -1.75187
7.7923 0.382079 -1.75487
7.7873 0.407079 -1.75387
7.7813 0.431079 -1.75287
7.7843 0.456079 -1.75387
7.7943 0.481079 -1.75687
7.7793 0.504079 -1.75387
7.7793 0.529079 -1.75387
7.7783 0.541079 -1.75387
7.7773 0.566079 -1.75387
7.7753 0.590079 -1.75387
7.7813 0.615079 -1.75587
7.7753 0.639079 -1.75487
7.7653 0.663079 -1.75287
7.7803 0.689079 -1.75687
7.7753 0.701079 -1.75587
7.7833 0.726079 -1.75887
7.7843 0.751079 -1.75987
7.7803 0.775079 -1.75887
7.7723 0.799079 -1.75787
7.7873 0.825079 -1.76187
7.7743 0.849079 -1.75987
7.7693 0.860079 -1.75887
7.7843 0.887079 -1.76287
7.7893 0.912079 -1.76487
7.7863 0.936079 -1.76487
7.7963 0.963079 -1.76787
7.7803 0.985079 -1.76487
7.7843 0.998079 -1.76587
7.7983 1.02508 -1.76987
7.7873 1.04808 -1.76887
7.7843 1.07308 -1.76887
7.7823 1.09808 -1.76887
7.7923 1.12408 -1.77187
7.7853 1.14808 -1.77087
7.7783 1.17208 -1.76987
7.7833 1.18508 -1.77187
7.7803 1.21008 -1.77187
7.7853 1.23608 -1.77487
7.7683 1.25808 -1.77087
7.7793 1.28508 -1.77487
7.7893 1.31108 -1.77787
7.7693 1.33308 -1.77487
7.7863 1.34908 -1.77887
7.7863 1.37408 -1.77987
7.7683 1.39608 -1.77687
7.8023 1.42708 -1.78587
7.7783 1.44808 -1.78187
7.7723 1.47208 -1.78087
7.7883 1.50108 -1.78587
7.7843 1.51308 -1.78587
7.7713 1.53508 -1.78387
7.7913 1.56508 -1.78987
7.7853 1.58908 -1.78987
7.7573 1.60908 -1.78387
7.7863 1.64008 -1.79187
7.7843 1.66508 -1.79287
7.7653 1.67408 -1.78887
7.7923 1.70508 -1.79687
7.7833 1.72908 -1.79587
7.7623 1.75008 -1.79187
7.7853 1.78108 -1.79887
7.7963 1.80908 -1.80387
7.7893 1.83308 -1.80287
7.7953 1.84808 -1.80487
7.7833 1.89708 -1.80487
7.7743 1.92008 -1.80387
7.7803 1.97408 -1.80887
7.7783 1.99908 -1.80987
7.7663 2.06108 -1.81087
7.2943 -1.63892 -1.67687
7.6763 -0.600921 -1.73087
7.6793 -0.588921 -1.73087
7.6853 -0.564921 -1.73187
7.6963 -0.517921 -1.73387
7.7003 -0.493921 -1.73487
7.6953 -0.468921 -1.73287
7.7013 -0.444921 -1.73387
7.7053 -0.432921 -1.73487
7.6953 -0.407921 -1.73187
7.6943 -0.383921 -1.73187
7.7033 -0.359921 -1.73387
7.7103 -0.335921 -1.73487
7.7033 -0.311921 -1.73287
7.7043 -0.287921 -1.73287
7.7163 -0.275921 -1.73587
7.7253 -0.251921 -1.73787
7.7183 -0.227921 -1.73587
7.7133 -0.202921 -1.73487
7.7213 -0.178921 -1.73587
7.7203 -0.154921 -1.73587
7.7243 -0.130921 -1.73687
7.7483 -0.118921 -1.74187
7.7363 -0.093921 -1.73987
7.7503 -0.069921 -1.74287
7.7483 -0.045921 -1.74187
7.7393 -0.020921 -1.73987
7.3753 7.89785e-05 -1.72987
7.3793 0.012079 -1.73087
7.3613 0.035079 -1.72687
7.3903 0.058079 -1.73387
7.3903 0.081079 -1.73387
7.3723 0.104079 -1.72987
7.3873 0.128079 -1.73387
7.3983 0.163079 -1.73587
7.3983 0.186079 -1.73587
7.3863 0.209079 -1.73387
7.4083 0.233079 -1.73887
7.4093 0.256079 -1.73987
7.3973 0.279079 -1.73687
7.4313 0.304079 -1.74587
7.3913 0.325079 -1.73587
7.3963 0.337079 -1.73687
7.4013 0.361079 -1.73887
7.4103 0.385079 -1.74087
7.4183 0.408079 -1.74387
7.4013 0.431079 -1.73987
7.4253 0.456079 -1.74587
7.4053 0.489079 -1.74187
7.4043 0.513079 -1.74187
7.4233 0.538079 -1.74687
7.4183 0.584079 -1.74687
7.4103 0.630079 -1.74587
7.4113 0.642079 -1.74587
7.4133 0.666079 -1.74687
7.4173 0.690079 -1.74887
7.4163 0.713079 -1.74887
7.4183 0.737079 -1.74987
7.4193 0.784079 -1.75087
7.4203 0.796079 -1.75187
7.4253 0.820079 -1.75387
7.4343 0.845079 -1.75687
7.4163 0.866079 -1.75287
7.4233 0.891079 -1.75487
7.4163 0.914079 -1.75387
7.4163 0.973079 -1.75587
7.4153 0.996079 -1.75687
7.4143 1.04408 -1.75787
7.4143 1.17508 -1.76287
7.4053 1.22108 -1.76287
7.4143 1.24708 -1.76587
7.3983 1.35208 -1.76687
7.4033 1.37708 -1.76887
7.4143 1.41508 -1.77287
7.3943 1.43508 -1.76887
7.3933 1.45908 -1.76987
7.4033 1.51008 -1.77487
7.3803 1.55308 -1.77187
7.3853 1.56608 -1.77387
7.3843 1.59008 -1.77487
7.3783 1.63808 -1.77587
7.3843 1.66308 -1.77887
7.3813 1.68708 -1.77887
7.3713 1.70908 -1.77787
7.3883 1.72508 -1.78287
7.3923 1.75108 -1.78487
7.3793 1.77208 -1.78387
7.3713 1.79508 -1.78287
7.3673 1.81908 -1.78387
7.3603 1.84108 -1.78287
7.3563 1.86508 -1.78387
7.3813 1.88408 -1.79087
7.3603 1.90308 -1.78687
7.3733 1.93108 -1.79187
7.3533 1.95108 -1.78787
7.3703 1.98008 -1.79387
7.3373 1.99608 -1.78687
7.3423 2.02208 -1.78987
7.3413 2.03408 -1.79087
7.3533 2.06208 -1.79587
7.3523 2.08708 -1.79687
7.3553 2.11308 -1.79987
7.3583 2.13908 -1.80187
7.3323 2.15608 -1.79687
7.3553 2.18808 -1.80487
7.3463 2.19808 -1.80287
7.3503 2.22508 -1.80587
7.3623 2.25308 -1.81087
7.3403 2.27208 -1.80687
7.3383 2.29708 -1.80887
7.3353 2.32108 -1.80987
7.3443 2.34908 -1.81387
7.3183 2.35408 -1.80787
7.3163 2.40408 -1.81187
7.3193 2.45608 -1.81687
7.3113 2.47908 -1.81687
7.2753 2.60808 -1.81787
7.2643 2.69408 -1.82287
6.9993 -1.62292 -1.68287
7.2353 -0.983921 -1.71187
7.2443 -0.961921 -1.71287
7.2463 -0.938921 -1.71287
7.2513 -0.915921 -1.71387
7.2583 -0.893921 -1.71487
7.2403 -0.879921 -1.70987
7.2473 -0.857921 -1.71087
7.2743 -0.837921 -1.71687
7.2503 -0.811921 -1.70987
7.2513 -0.788921 -1.70987
7.2693 -0.767921 -1.71387
7.2553 -0.743921 -1.70987
7.2763 -0.733921 -1.71487
7.2863 -0.711921 -1.71687
7.2733 -0.687921 -1.71287
7.2773 -0.664921 -1.71287
7.2923 -0.642921 -1.71687
7.2833 -0.618921 -1.71387
7.2833 -0.595921 -1.71287
7.3013 -0.585921 -1.71787
7.2893 -0.561921 -1.71387
7.2913 -0.538921 -1.71387
7.3043 -0.516921 -1.71687
7.2943 -0.493921 -1.71387
7.3023 -0.470921 -1.71587
7.3133 -0.448921 -1.71787
7.3103 -0.425921 -1.71687
7.3173 -0.413921 -1.71787
7.3183 -0.390921 -1.71787
7.3043 -0.367921 -1.71487
7.3093 -0.344921 -1.71587
7.3153 -0.321921 -1.71687
7.3273 -0.275921 -1.71887
7.3273 -0.264921 -1.71887
7.3303 -0.241921 -1.71987
7.3563 -0.219921 -1.72587
7.3573 -0.196921 -1.72587
7.3423 -0.172921 -1.72187
7.3643 -0.149921 -1.72787
7.3493 -0.126921 -1.72387
7.3593 -0.115921 -1.72587
7.3513 -0.091921 -1.72387
7.3673 -0.068921 -1.72787
7.3533 -0.045921 -1.72487
7.0823 0.021079 -1.72887
7.0853 0.043079 -1.73087
7.0893 0.066079 -1.73187
7.0773 0.088079 -1.72787
7.0983 0.099079 -1.73387
7.0983 0.122079 -1.73387
7.0803 0.144079 -1.72887
7.0893 0.166079 -1.73187
7.0973 0.188079 -1.73387
7.0773 0.210079 -1.72887
7.0803 0.233079 -1.72987
7.0973 0.244079 -1.73487
7.0903 0.266079 -1.73287
7.1033 0.289079 -1.73687
7.1173 0.312079 -1.74087
7.1163 0.334079 -1.74087
7.1083 0.356079 -1.73887
7.1033 0.378079 -1.73787
7.1193 0.391079 -1.74187
7.1123 0.413079 -1.74087
7.1013 0.434079 -1.73787
7.0903 0.456079 -1.73587
7.1073 0.502079 -1.74087
7.1053 0.524079 -1.74087
7.1023 0.535079 -1.73987
7.0953 0.557079 -1.73887
7.1013 0.580079 -1.74087
7.0973 0.625079 -1.74087
7.1013 0.681079 -1.74287
7.0973 0.703079 -1.74287
7.1013 0.816079 -1.74687
7.1013 0.941079 -1.75087
7.0873 1.21208 -1.75787
7.0863 1.31608 -1.76187
7.0803 1.33808 -1.76187
7.0773 1.41808 -1.76487
7.0873 1.44308 -1.76887
7.0793 1.46408 -1.76787
7.0693 1.48508 -1.76587
7.0663 1.50808 -1.76687
7.0693 1.53208 -1.76887
7.0793 1.55708 -1.77287
7.0693 1.56708 -1.77087
7.0663 1.58908 -1.77087
7.0613 1.61208 -1.77087
7.0613 1.63508 -1.77287
7.0543 1.65708 -1.77187
7.0683 1.68308 -1.77687
7.0663 1.70608 -1.77787
7.0523 1.71508 -1.77487
7.0563 1.73908 -1.77787
7.0553 1.76208 -1.77887
7.0493 1.78408 -1.77887
7.0423 1.80608 -1.77787
7.0453 1.83108 -1.78087
7.0343 1.85108 -1.77887
7.0513 1.86808 -1.78487
7.0443 1.88908 -1.78387
7.0433 1.91308 -1.78587
7.0413 1.93608 -1.78687
7.0393 1.95908 -1.78787
7.0363 1.98208 -1.78887
7.0323 2.00508 -1.78887
7.0363 2.01808 -1.79087
7.0263 2.03908 -1.78987
7.0273 2.06308 -1.79287
7.0223 2.08608 -1.79287
7.0183 2.10908 -1.79387
7.0093 2.13008 -1.79287
7.0013 2.15208 -1.79287
7.0163 2.16808 -1.79787
7.0073 2.19008 -1.79687
7.0023 2.21208 -1.79787
7.0083 2.23808 -1.80087
6.9933 2.25808 -1.79887
6.9993 2.28408 -1.80287
6.9883 2.30508 -1.80187
6.9923 2.33008 -1.80487
6.9963 2.34408 -1.80687
6.9903 2.36608 -1.80687
6.9833 2.38808 -1.80687
6.9823 2.41308 -1.80887
6.9673 2.43208 -1.80687
6.9673 2.45708 -1.80887
6.9703 2.48208 -1.81187
6.9683 2.49408 -1.81287
6.9643 2.51708 -1.81387
6.9023 2.73008 -1.81787
6.8953 2.75308 -1.81887
6.7003 -1.60892 -1.67987
6.8983 -1.13792 -1.70587
6.9013 -1.11592 -1.70587
6.9103 -1.07292 -1.70587
6.9123 -1.06192 -1.70587
6.9233 -1.04192 -1.70787
6.9103 -1.01692 -1.70387
6.9163 -0.995921 -1.70487
6.9223 -0.974921 -1.70587
6.9183 -0.951921 -1.70387
6.9233 -0.930921 -1.70387
6.9203 -0.918921 -1.70287
6.9233 -0.896921 -1.70287
6.9413 -0.877921 -1.70687
6.9383 -0.854921 -1.70587
6.9353 -0.832921 -1.70387
6.9453 -0.811921 -1.70587
6.9543 -0.790921 -1.70787
6.9523 -0.767921 -1.70687
6.9463 -0.756921 -1.70487
6.9643 -0.735921 -1.70887
6.9623 -0.713921 -1.70787
6.9643 -0.691921 -1.70787
6.9723 -0.670921 -1.70887
6.9803 -0.649921 -1.71087
6.9843 -0.627921 -1.71087
6.9873 -0.616921 -1.71187
6.9833 -0.594921 -1.70987
6.9773 -0.571921 -1.70787
6.9923 -0.550921 -1.71187
6.9773 -0.527921 -1.70687
7.0033 -0.507921 -1.71387
6.9993 -0.484921 -1.71187
7.0063 -0.474921 -1.71387
7.0013 -0.451921 -1.71187
7.0093 -0.430921 -1.71387
7.0163 -0.408921 -1.71487
7.0113 -0.386921 -1.71387
7.0223 -0.364921 -1.71587
7.0243 -0.353921 -1.71687
7.0273 -0.331921 -1.71687
7.0343 -0.310921 -1.71887
7.0353 -0.287921 -1.71887
7.0263 -0.265921 -1.71587
7.0523 -0.244921 -1.72287
7.0533 -0.222921 -1.72287
7.0403 -0.210921 -1.71887
7.0483 -0.188921 -1.72087
7.0453 -0.166921 -1.71987
7.0613 -0.144921 -1.72387
7.0573 -0.122921 -1.72287
7.0543 -0.100921 -1.72187
7.0663 -0.078921 -1.72487
7.0723 -0.056921 -1.72687
7.0663 -0.044921 -1.72487
7.0783 -0.022921 -1.72787
7.0803 -0.000921022 -1.72887
6.8293 0.019079 -1.73887
6.8133 0.040079 -1.73487
6.8053 0.062079 -1.73287
6.8253 0.073079 -1.73787
6.8263 0.094079 -1.73887
6.8093 0.115079 -1.73387
6.8243 0.137079 -1.73787
6.8233 0.158079 -1.73787
6.7993 0.179079 -1.73187
6.8123 0.201079 -1.73587
6.8123 0.212079 -1.73587
6.7963 0.232079 -1.73187
6.8093 0.254079 -1.73487
6.8063 0.276079 -1.73487
6.7843 0.296079 -1.72887
6.8003 0.318079 -1.73387
6.7883 0.339079 -1.72987
6.8043 0.351079 -1.73487
6.7993 0.372079 -1.73387
6.8003 0.393079 -1.73487
6.8033 0.436079 -1.73587
6.8023 0.458079 -1.73587
6.7893 0.478079 -1.73287
6.8003 0.490079 -1.73587
6.7963 0.511079 -1.73587
6.8043 0.555079 -1.73887
6.7913 0.575079 -1.73587
6.8033 0.598079 -1.73887
6.7993 0.619079 -1.73887
6.8213 0.632079 -1.74487
6.8003 0.651079 -1.73987
6.8073 0.673079 -1.74287
6.8033 0.695079 -1.74187
6.8103 0.717079 -1.74487
6.7993 0.737079 -1.74187
6.8233 0.762079 -1.74887
6.8053 0.771079 -1.74487
6.8143 0.793079 -1.74787
6.8173 0.815079 -1.74887
6.7993 0.835079 -1.74487
6.8253 0.860079 -1.75287
6.8093 0.880079 -1.74887
6.8213 0.903079 -1.75387
6.7973 0.911079 -1.74687
6.8273 0.937079 -1.75587
6.8103 0.956079 -1.75187
6.8133 0.978079 -1.75387
6.8083 0.999079 -1.75387
6.8243 1.02408 -1.75887
6.8173 1.04508 -1.75787
6.8233 1.05608 -1.75987
6.8123 1.07708 -1.75787
6.8203 1.10008 -1.76087
6.8333 1.12408 -1.76587
6.8093 1.14208 -1.75987
6.8173 1.16608 -1.76287
6.8113 1.18708 -1.76187
6.8193 1.19908 -1.76487
6.8133 1.22008 -1.76487
6.8323 1.24608 -1.77087
6.8223 1.26608 -1.76887
6.8133 1.28608 -1.76787
6.8163 1.30908 -1.76987
6.8163 1.33108 -1.77087
6.8103 1.34108 -1.76987
6.8283 1.36708 -1.77587
6.8263 1.38908 -1.77687
6.8063 1.40808 -1.77187
6.8283 1.43508 -1.77987
6.8223 1.45608 -1.77887
6.8173 1.47708 -1.77887
6.8123 1.51008 -1.77987
6.8023 1.53008 -1.77787
6.8033 1.57508 -1.78087
6.8083 1.59908 -1.78387
6.7933 1.62908 -1.78187
6.7913 1.65108 -1.78287
6.7883 1.69608 -1.78487
6.7873 1.71808 -1.78587
6.7873 1.74108 -1.78787
6.7813 1.76208 -1.78787
6.7463 1.77508 -1.77887
6.7823 1.79608 -1.78987
6.7713 1.81608 -1.78887
6.7653 1.83708 -1.78887
6.7613 1.85908 -1.78887
6.7573 1.88108 -1.78987
6.7443 1.90008 -1.78787
6.7493 1.92408 -1.79087
6.7533 1.93708 -1.79287
6.7563 1.96108 -1.79487
6.7333 2.00008 -1.79187
6.7183 2.12308 -1.79787
6.4143 -1.60692 -1.68087
6.7703 -0.300921 -1.72487
6.7913 -0.258921 -1.72987
6.7823 -0.236921 -1.72787
6.7993 -0.204921 -1.73187
6.7953 -0.119921 -1.72987
6.8153 -0.076921 -1.73587
6.8033 -0.066921 -1.73287
6.8153 -0.044921 -1.73587
6.8133 -0.023921 -1.73487
6.8043 -0.00192102 -1.73287
6.5403 0.080079 -1.71887
6.5393 0.131079 -1.71887
6.5503 0.265079 -1.72287
6.5633 0.942079 -1.74387
6.5593 1.12108 -1.75087
6.5553 1.14108 -1.75087
6.5503 1.16208 -1.74987
6.5523 1.18308 -1.75187
6.5463 1.20308 -1.75087
6.5563 1.21608 -1.75387
6.5633 1.23808 -1.75787
6.5743 1.26208 -1.76187
6.5823 1.28508 -1.76487
6.5593 1.30208 -1.75987
6.5563 1.32308 -1.75987
6.5583 1.34408 -1.76187
6.5443 1.36308 -1.75887
6.5483 1.37508 -1.76087
6.5473 1.39608 -1.76187
6.5583 1.42008 -1.76587
6.5403 1.43708 -1.76287
6.5413 1.45908 -1.76387
6.5443 1.48108 -1.76587
6.5393 1.50208 -1.76587
6.5333 1.51108 -1.76487
6.5443 1.53508 -1.76987
6.5273 1.55308 -1.76587
6.5343 1.57608 -1.76987
6.5293 1.59708 -1.76987
6.5203 1.61708 -1.76787
6.5213 1.63808 -1.76987
6.5183 1.64908 -1.76987
6.5163 1.67008 -1.77087
6.5173 1.69208 -1.77287
6.5133 1.71308 -1.77287
6.5153 1.73508 -1.77487
6.4993 1.75308 -1.77187
6.5053 1.76508 -1.77487
6.5013 1.78608 -1.77487
6.4943 1.80608 -1.77487
6.4883 1.82708 -1.77487
6.4903 1.84908 -1.77687
6.5043 1.87508 -1.78287
6.4933 1.89408 -1.78087
6.4853 1.91408 -1.78087
6.4903 1.92608 -1.78287
6.4933 1.94908 -1.78587
6.4753 1.96708 -1.78287
6.4783 1.99008 -1.78487
6.4703 2.00908 -1.78487
6.4773 2.03408 -1.78787
6.4653 2.05208 -1.78687
6.4763 2.06708 -1.79087
6.4743 2.08908 -1.79187
6.4713 2.11008 -1.79287
6.4603 2.12908 -1.79187
6.4593 2.15108 -1.79387
6.4633 2.17508 -1.79687
6.4563 2.19608 -1.79687
6.3523 2.58108 -1.80687
6.3393 2.63308 -1.80887
6.2953 2.73208 -1.80887
6.1753 -1.59692 -1.67287
6.4173 -0.955921 -1.70387
6.5063 -0.565921 -1.71587
6.5143 -0.545921 -1.71787
6.5113 -0.534921 -1.71687
6.5083 -0.513921 -1.71587
6.5023 -0.492921 -1.71287
6.5103 -0.472921 -1.71487
6.5033 -0.451921 -1.71287
6.5143 -0.432921 -1.71587
6.4963 -0.410921 -1.70987
6.5033 -0.400921 -1.71187
6.4943 -0.379921 -1.70887
6.4993 -0.359921 -1.70987
6.5103 -0.339921 -1.71287
6.5003 -0.318921 -1.70987
6.5013 -0.297921 -1.70987
6.5133 -0.277921 -1.71287
6.5043 -0.267921 -1.70987
6.4993 -0.246921 -1.70887
6.5003 -0.205921 -1.70887
6.5073 -0.185921 -1.70987
6.5133 -0.165921 -1.71187
6.5163 -0.134921 -1.71187
6.5273 -0.052921 -1.71487
6.2423 1.65708 -1.75987
6.2363 1.70808 -1.76187
6.2273 1.76908 -1.76387
6.2153 1.81908 -1.76487
6.2173 1.84008 -1.76687
6.2093 1.85908 -1.76587
6.2163 1.88308 -1.76987
6.2063 1.90108 -1.76887
6.1933 1.91808 -1.76687
6.2093 1.94508 -1.77287
6.1883 1.94908 -1.76787
6.1813 1.96808 -1.76787
6.2043 1.99708 -1.77687
6.1853 2.01208 -1.77287
6.1843 2.03408 -1.77487
6.1943 2.05908 -1.77987
6.1733 2.07308 -1.77487
6.1613 2.08008 -1.77187
6.1743 2.10608 -1.77887
6.1613 2.12308 -1.77587
6.1613 2.14508 -1.77887
6.1673 2.16908 -1.78187
6.1553 2.18608 -1.78087
6.1443 2.20408 -1.77987
6.1613 2.22108 -1.78587
6.1413 2.23608 -1.78187
6.1343 2.25508 -1.78187
6.1413 2.27908 -1.78587
6.1293 2.29708 -1.78487
6.1183 2.31508 -1.78387
6.1233 2.33908 -1.78687
6.1163 2.34708 -1.78587
6.1213 2.37108 -1.78987
6.1223 2.39408 -1.79287
6.1093 2.41108 -1.79087
6.0953 2.42708 -1.78887
6.0963 2.45008 -1.79187
6.0863 2.46808 -1.79087
6.0793 2.47608 -1.78987
6.0873 2.50208 -1.79487
6.0793 2.52108 -1.79487
6.0823 2.54508 -1.79887
6.0793 2.56608 -1.79987
6.0643 2.58208 -1.79787
6.0583 2.60208 -1.79887
6.0573 2.61308 -1.79987
6.0543 2.63408 -1.80087
6.0353 2.64908 -1.79787
6.0373 2.67208 -1.80087
6.0263 2.69008 -1.79987
6.0333 2.71608 -1.80487
6.0213 2.73308 -1.80387
6.0083 2.73908 -1.80087
6.0063 2.76108 -1.80387
6.0113 2.78608 -1.80787
5.9963 2.80208 -1.80587
5.9943 2.82408 -1.80787
5.9883 2.84408 -1.80887
5.9723 2.86008 -1.80687
5.9733 2.87208 -1.80887
5.9583 2.91108 -1.80987
5.9323 2.96808 -1.80987
5.9143 -1.57692 -1.66187
5.9633 -1.56992 -1.67487
6.2003 -0.880921 -1.70287
6.2013 -0.860921 -1.70187
6.2023 -0.840921 -1.70187
6.2063 -0.821921 -1.70187
6.2113 -0.802921 -1.70287
6.2093 -0.772921 -1.70087
6.2233 -0.754921 -1.70387
6.2153 -0.733921 -1.70187
6.2223 -0.714921 -1.70287
6.2203 -0.694921 -1.70187
6.2203 -0.674921 -1.70087
6.2103 -0.663921 -1.69787
6.2233 -0.645921 -1.70087
6.2233 -0.625921 -1.70087
6.2293 -0.606921 -1.70187
6.2293 -0.586921 -1.70087
6.2273 -0.566921 -1.69987
6.2273 -0.547921 -1.69887
6.2343 -0.537921 -1.70087
6.2313 -0.518921 -1.69987
6.2413 -0.499921 -1.70187
6.2333 -0.478921 -1.69887
6.2363 -0.459921 -1.69987
6.2473 -0.440921 -1.70287
6.2543 -0.421921 -1.70387
6.2363 -0.410921 -1.69887
6.2413 -0.390921 -1.69987
6.2423 -0.371921 -1.69987
6.2493 -0.351921 -1.70187
6.2503 -0.332921 -1.70187
6.2583 -0.312921 -1.70387
6.1513 0.110079 -1.71487
6.1293 1.32308 -1.74987
6.1293 1.34308 -1.75087
6.1173 1.36008 -1.74887
6.1183 1.38108 -1.75087
6.1353 1.40508 -1.75687
6.1133 1.42008 -1.75187
6.1153 1.44008 -1.75387
6.1203 1.45208 -1.75587
6.1013 1.48808 -1.75287
6.1023 1.50908 -1.75487
6.0993 1.52808 -1.75487
6.0943 1.54708 -1.75487
6.1143 1.57308 -1.76287
6.0963 1.57808 -1.75787
6.0913 1.59808 -1.75787
6.1013 1.62108 -1.76287
6.0813 1.63608 -1.75787
6.0853 1.65708 -1.76087
6.0803 1.67608 -1.76087
6.0803 1.69708 -1.76287
6.0743 1.70608 -1.76187
6.0683 1.72508 -1.76187
6.0613 1.74308 -1.76087
6.0613 1.76408 -1.76287
6.0633 1.78508 -1.76487
6.0523 1.80208 -1.76287
6.0503 1.82308 -1.76387
6.0543 1.83408 -1.76687
6.0343 1.84908 -1.76187
6.0353 1.87008 -1.76387
6.0393 1.89208 -1.76687
6.0213 1.92808 -1.76587
6.0303 1.95108 -1.76987
6.0193 1.95908 -1.76787
6.0113 1.97708 -1.76687
6.0213 2.00108 -1.77187
6.0153 2.02008 -1.77187
6.0073 2.03808 -1.77187
6.0023 2.05808 -1.77187
6.0053 2.08008 -1.77487
6.0093 2.09208 -1.77687
6.0083 2.11208 -1.77887
5.9993 2.13108 -1.77887
5.9923 2.15008 -1.77887
5.9913 2.17008 -1.77987
5.9863 2.19008 -1.78087
5.9843 2.21008 -1.78287
5.9853 2.22108 -1.78387
5.9743 2.23908 -1.78287
5.9833 2.26308 -1.78787
5.9693 2.28008 -1.78487
5.9713 2.30208 -1.78787
5.9743 2.32508 -1.79187
5.9613 2.34108 -1.78987
5.9743 2.35708 -1.79487
5.9483 2.36908 -1.78887
5.9613 2.39508 -1.79587
5.9353 2.40708 -1.78987
5.9423 2.43108 -1.79487
5.9383 2.45108 -1.79587
5.9233 2.46708 -1.79287
5.9283 2.48008 -1.79587
5.9223 2.49908 -1.79687
5.9163 2.51908 -1.79687
5.9063 2.53608 -1.79687
5.8933 2.57508 -1.79787
5.8963 2.59808 -1.80087
5.7903 2.86108 -1.80587
5.8003 -1.57292 -1.67287
6.0033 -1.02492 -1.69687
6.0153 -0.987921 -1.69787
6.0223 -0.969921 -1.69887
6.0223 -0.920921 -1.69687
6.0253 -0.901921 -1.69687
6.0323 -0.883921 -1.69787
6.0403 -0.865921 -1.69987
6.0333 -0.844921 -1.69687
6.0313 -0.834921 -1.69587
6.0473 -0.817921 -1.69987
6.0403 -0.797921 -1.69687
6.0383 -0.777921 -1.69587
6.0463 -0.759921 -1.69787
6.0533 -0.741921 -1.69887
6.0553 -0.722921 -1.69887
6.0583 -0.712921 -1.69887
6.0623 -0.694921 -1.69987
6.0603 -0.674921 -1.69887
6.0613 -0.655921 -1.69787
6.0633 -0.636921 -1.69787
6.0653 -0.617921 -1.69787
6.0743 -0.598921 -1.70087
6.0623 -0.588921 -1.69687
6.0713 -0.569921 -1.69887
6.0673 -0.550921 -1.69687
6.0733 -0.531921 -1.69787
6.0743 -0.512921 -1.69787
6.0783 -0.493921 -1.69887
6.0763 -0.474921 -1.69787
6.0903 -0.465921 -1.70187
6.0853 -0.446921 -1.69987
6.0753 -0.426921 -1.69687
6.0843 -0.407921 -1.69887
6.0853 -0.388921 -1.69887
6.0903 -0.369921 -1.69987
6.0923 -0.350921 -1.69987
6.0953 -0.321921 -1.70087
6.1023 -0.302921 -1.70187
6.1123 -0.178921 -1.70387
5.9143 0.00507898 -1.71587
5.9353 0.014079 -1.72287
5.9243 0.033079 -1.71887
5.9473 0.052079 -1.72587
5.9293 0.070079 -1.72087
5.9353 0.089079 -1.72287
5.9313 0.107079 -1.72087
5.9323 0.126079 -1.72187
5.9263 0.154079 -1.71987
5.9463 0.173079 -1.72687
5.9383 0.192079 -1.72387
5.9393 0.210079 -1.72487
5.9423 0.229079 -1.72587
5.9383 0.248079 -1.72487
5.9543 0.267079 -1.72987
5.9373 0.276079 -1.72487
5.9643 0.296079 -1.73387
5.9403 0.313079 -1.72687
5.9493 0.332079 -1.72987
5.9563 0.352079 -1.73187
5.9353 0.369079 -1.72587
5.9613 0.390079 -1.73387
5.9533 0.398079 -1.73187
5.9553 0.417079 -1.73287
5.9353 0.435079 -1.72687
5.9473 0.454079 -1.73087
5.9343 0.472079 -1.72787
5.9423 0.491079 -1.73087
5.9313 0.509079 -1.72787
5.9603 0.521079 -1.73687
5.9303 0.537079 -1.72787
5.9513 0.558079 -1.73587
5.9273 0.575079 -1.72787
5.9343 0.594079 -1.73087
5.9573 0.616079 -1.73887
5.9423 0.633079 -1.73487
5.9283 0.641079 -1.73087
5.9463 0.662079 -1.73687
5.9313 0.679079 -1.73287
5.9273 0.697079 -1.73287
5.9303 0.716079 -1.73387
5.9193 0.734079 -1.73087
5.9433 0.756079 -1.73987
5.9233 0.763079 -1.73387
5.9323 0.783079 -1.73687
5.9163 0.800079 -1.73287
5.9273 0.820079 -1.73687
5.9393 0.841079 -1.74187
5.9023 0.855079 -1.73087
5.9173 0.876079 -1.73687
5.9093 0.903079 -1.73587
5.9043 0.921079 -1.73487
5.9113 0.941079 -1.73787
5.9293 0.983079 -1.74587
5.9263 1.01108 -1.74587
5.9073 1.04608 -1.74187
5.9043 1.08408 -1.74287
5.8953 1.10108 -1.74087
5.8853 1.11808 -1.73987
5.9063 1.13208 -1.74687
5.8913 1.16808 -1.74387
5.8783 1.18408 -1.74087
5.8843 1.20508 -1.74387
5.8893 1.24408 -1.74887
5.8993 1.25608 -1.75187
5.8953 1.27508 -1.75187
5.9113 1.29808 -1.75887
5.8923 1.31308 -1.75387
5.8993 1.33408 -1.75687
5.8873 1.35108 -1.75487
5.8893 1.37108 -1.75687
5.8853 1.37908 -1.75587
5.8933 1.40108 -1.75987
5.8743 1.41608 -1.75587
5.8733 1.43508 -1.75687
5.8873 1.45808 -1.76287
5.8663 1.47308 -1.75687
5.8693 1.49308 -1.75987
5.8963 1.51008 -1.76887
5.8773 1.52408 -1.76387
5.8723 1.54308 -1.76387
5.8823 1.56508 -1.76887
5.8663 1.58108 -1.76587
5.8773 1.60408 -1.77087
5.8723 1.62208 -1.77087
5.8573 1.64808 -1.76887
5.8503 1.66608 -1.76787
5.8543 1.68708 -1.77087
5.8383 1.70208 -1.76687
5.8323 1.72008 -1.76687
5.8303 1.74008 -1.76887
5.8223 1.74708 -1.76687
5.8373 1.77208 -1.77287
5.8223 1.78708 -1.76987
5.8203 1.80608 -1.77187
5.8313 1.83008 -1.77687
5.8053 1.84208 -1.76987
5.8063 1.86208 -1.77287
5.8033 1.87208 -1.77287
5.8143 1.89508 -1.77787
5.7973 1.91008 -1.77487
5.7963 1.93008 -1.77587
5.7983 1.95108 -1.77887
5.7953 1.97008 -1.77987
5.7833 1.98608 -1.77787
5.7893 1.99908 -1.78087
5.7853 2.01708 -1.78187
5.7793 2.05608 -1.78387
5.7703 2.09408 -1.78487
5.7543 2.10908 -1.78187
5.7513 2.12808 -1.78287
5.7463 2.13608 -1.78287
5.7523 2.15908 -1.78687
5.7383 2.17408 -1.78487
5.5253 -1.57292 -1.66287
5.8603 -0.511921 -1.70587
5.8723 -0.447921 -1.70787
5.8903 -0.411921 -1.71287
5.8903 -0.356921 -1.71187
5.8993 -0.337921 -1.71387
5.9033 -0.328921 -1.71487
5.8993 -0.291921 -1.71387
5.9003 -0.272921 -1.71387
5.9153 -0.254921 -1.71787
5.9083 -0.236921 -1.71487
5.9103 -0.217921 -1.71587
5.9003 -0.189921 -1.71187
5.9123 -0.171921 -1.71587
5.9093 -0.133921 -1.71487
5.9273 -0.115921 -1.71987
5.9133 -0.106921 -1.71587
5.9273 -0.087921 -1.71987
5.9293 -0.069921 -1.72087
5.9293 -0.050921 -1.72087
5.9243 -0.031921 -1.71887
5.9433 -0.013921 -1.72487
5.7173 0.00407898 -1.71487
5.7123 0.022079 -1.71287
5.7213 0.039079 -1.71587
5.7113 0.057079 -1.71287
5.7213 0.075079 -1.71587
5.7173 0.084079 -1.71487
5.7203 0.102079 -1.71587
5.7283 0.120079 -1.71887
5.7253 0.138079 -1.71787
5.7133 0.156079 -1.71387
5.7213 0.174079 -1.71687
5.7333 0.193079 -1.72087
5.7273 0.202079 -1.71887
5.7343 0.220079 -1.72187
5.7263 0.237079 -1.71887
5.7253 0.255079 -1.71887
5.7283 0.274079 -1.72087
5.7253 0.292079 -1.71987
5.7133 0.309079 -1.71587
5.7183 0.318079 -1.71787
5.7273 0.337079 -1.72087
5.7293 0.355079 -1.72187
5.7243 0.373079 -1.72087
5.7313 0.391079 -1.72387
5.7333 0.409079 -1.72487
5.7343 0.428079 -1.72487
5.7373 0.437079 -1.72687
5.7323 0.455079 -1.72487
5.7343 0.473079 -1.72687
5.7333 0.491079 -1.72687
5.7333 0.509079 -1.72687
5.7393 0.528079 -1.72987
5.7493 0.547079 -1.73287
5.7423 0.555079 -1.73087
5.7423 0.573079 -1.73187
5.7353 0.591079 -1.72987
5.7233 0.608079 -1.72687
5.7423 0.628079 -1.73387
5.7383 0.646079 -1.73287
5.7153 0.662079 -1.72687
5.7313 0.673079 -1.73187
5.7273 0.690079 -1.73087
5.7183 0.707079 -1.72887
5.7083 0.725079 -1.72687
5.7193 0.744079 -1.73087
5.7053 0.779079 -1.72787
5.7163 0.808079 -1.73287
5.7053 0.843079 -1.73087
5.6953 0.896079 -1.72987
5.6933 0.942079 -1.73187
5.6823 1.04108 -1.73387
5.6793 1.05908 -1.73387
5.6793 1.07708 -1.73487
5.6763 1.14208 -1.73787
5.6713 1.15908 -1.73787
5.6823 1.19908 -1.74387
5.6713 1.21508 -1.74087
5.6693 1.23308 -1.74187
5.6853 1.25508 -1.74887
5.6743 1.26208 -1.74487
5.6813 1.28208 -1.74887
5.6943 1.30408 -1.75487
5.7033 1.32508 -1.75887
5.7043 1.34408 -1.76087
5.7053 1.36308 -1.76287
5.6973 1.38008 -1.76087
5.6953 1.38908 -1.76087
5.6893 1.40708 -1.76087
5.6883 1.42608 -1.76187
5.6863 1.44408 -1.76287
5.6873 1.46308 -1.76387
5.6653 1.47708 -1.75887
5.6643 1.49508 -1.75987
5.6693 1.50608 -1.76287
5.6633 1.52408 -1.76187
5.6673 1.54408 -1.76487
5.6593 1.56108 -1.76387
5.6393 1.57408 -1.75887
5.6383 1.59308 -1.75987
5.6403 1.61308 -1.76287
5.6303 1.62008 -1.75987
5.6213 1.63608 -1.75887
5.6293 1.65808 -1.76287
5.6163 1.67308 -1.76087
5.6153 1.69208 -1.76187
5.6113 1.71008 -1.76287
5.6083 1.72808 -1.76287
5.5953 1.74408 -1.76087
5.5993 1.75508 -1.76287
5.5873 1.77008 -1.76087
5.5883 1.79008 -1.76287
5.5903 1.81008 -1.76587
5.5843 1.82708 -1.76587
5.5863 1.84708 -1.76787
5.5823 1.86508 -1.76887
5.5753 1.87308 -1.76687
5.5623 1.88808 -1.76487
5.5653 1.90808 -1.76787
5.5553 1.92508 -1.76687
5.5553 1.94408 -1.76887
5.5593 1.96508 -1.77187
5.5553 1.98308 -1.77287
5.5503 1.99108 -1.77187
5.5473 2.01008 -1.77387
5.5393 2.02708 -1.77287
5.5403 2.04708 -1.77487
5.5353 2.06508 -1.77587
5.5233 2.08008 -1.77387
5.5273 2.09208 -1.77687
5.5123 2.10608 -1.77387
5.5213 2.12908 -1.77887
5.5223 2.14908 -1.78087
5.5183 2.16808 -1.78287
5.5063 2.20308 -1.78287
5.4923 2.22808 -1.78187
5.4983 2.25008 -1.78587
5.2973 -1.57092 -1.65387
5.6453 -0.636921 -1.70287
5.6503 -0.592921 -1.70287
5.6583 -0.575921 -1.70487
5.6673 -0.522921 -1.70687
5.6743 -0.478921 -1.70787
5.6763 -0.460921 -1.70787
5.6793 -0.442921 -1.70787
5.6863 -0.425921 -1.70987
5.6933 -0.381921 -1.71087
5.7003 -0.327921 -1.71287
5.6903 -0.308921 -1.70887
5.7003 -0.291921 -1.71187
5.7053 -0.282921 -1.71287
5.7043 -0.246921 -1.71287
5.7133 -0.229921 -1.71487
5.7123 -0.211921 -1.71387
5.7033 -0.193921 -1.71087
5.7173 -0.157921 -1.71587
5.7213 -0.148921 -1.71687
5.7183 -0.130921 -1.71587
5.7223 -0.112921 -1.71687
5.7173 -0.094921 -1.71487
5.7233 -0.076921 -1.71687
5.7213 -0.058921 -1.71587
5.7213 -0.040921 -1.71587
5.7143 -0.031921 -1.71387
5.7293 -0.013921 -1.71887
5.5303 0.011079 -1.71887
5.5153 0.028079 -1.71387
5.5233 0.045079 -1.71587
5.5223 0.054079 -1.71587
5.5243 0.071079 -1.71687
5.5303 0.089079 -1.71887
5.5203 0.106079 -1.71587
5.5253 0.124079 -1.71787
5.5283 0.141079 -1.71887
5.5343 0.159079 -1.72087
5.5323 0.167079 -1.71987
5.5223 0.184079 -1.71687
5.5303 0.202079 -1.71987
5.5373 0.220079 -1.72287
5.5393 0.237079 -1.72287
5.5303 0.254079 -1.72087
5.5183 0.271079 -1.71687
5.5313 0.280079 -1.72087
5.5323 0.298079 -1.72187
5.5443 0.316079 -1.72587
5.5453 0.334079 -1.72687
5.5513 0.351079 -1.72987
5.5373 0.368079 -1.72487
5.5453 0.386079 -1.72787
5.5433 0.395079 -1.72787
5.5533 0.413079 -1.73087
5.5423 0.430079 -1.72787
5.5493 0.465079 -1.73087
5.5553 0.483079 -1.73387
5.5453 0.509079 -1.73087
5.5493 0.527079 -1.73287
5.5533 0.545079 -1.73487
5.5513 0.580079 -1.73587
5.5533 0.598079 -1.73687
5.5533 0.615079 -1.73787
5.5493 0.624079 -1.73587
5.5333 0.640079 -1.73187
5.5293 0.657079 -1.73087
5.5443 0.676079 -1.73687
5.5273 0.692079 -1.73187
5.5273 0.709079 -1.73287
5.5213 0.726079 -1.73087
5.5213 0.735079 -1.73187
5.5173 0.752079 -1.73087
5.5323 0.772079 -1.73687
5.5263 0.789079 -1.73587
5.5063 0.804079 -1.72987
5.5093 0.822079 -1.73187
5.5123 0.840079 -1.73387
5.5133 0.849079 -1.73487
5.5103 0.866079 -1.73487
5.5153 0.885079 -1.73687
5.5103 0.902079 -1.73587
5.5053 0.919079 -1.73587
5.5103 0.937079 -1.73787
5.5073 0.955079 -1.73787
5.5093 0.964079 -1.73987
5.5083 0.982079 -1.73987
5.5113 1.00008 -1.74187
5.5043 1.01708 -1.74087
5.5023 1.03408 -1.74087
5.4993 1.05108 -1.74087
5.5073 1.07108 -1.74487
5.5163 1.08208 -1.74887
5.5003 1.09608 -1.74487
5.5023 1.11508 -1.74687
5.5063 1.13408 -1.74887
5.5023 1.15108 -1.74887
5.5103 1.17108 -1.75287
5.5083 1.18808 -1.75287
5.4993 1.19508 -1.75087
5.4993 1.21408 -1.75187
5.5023 1.25108 -1.75587
5.5003 1.26808 -1.75687
5.5003 1.28708 -1.75787
5.4723 1.44408 -1.76187
5.4583 1.49608 -1.76187
5.4473 1.54808 -1.76287
5.4373 1.59208 -1.76287
5.4373 1.61008 -1.76487
5.4163 1.70608 -1.76787
5.4093 1.74208 -1.76887
5.3983 1.78508 -1.76987
5.3723 1.83308 -1.76687
5.3753 1.87208 -1.77187
5.3703 1.89808 -1.77387
5.3573 1.95108 -1.77487
5.3463 1.98508 -1.77587
5.1303 -1.55092 -1.66187
5.4933 -0.308921 -1.70887
5.4943 -0.291921 -1.70887
5.5023 -0.283921 -1.71187
5.5043 -0.248921 -1.71187
5.5093 -0.213921 -1.71287
5.5163 -0.179921 -1.71487
5.5143 -0.170921 -1.71387
5.5193 -0.153921 -1.71587
5.5163 -0.118921 -1.71387
5.5103 -0.101921 -1.71287
5.5163 -0.084921 -1.71387
5.5153 -0.066921 -1.71387
5.5283 -0.058921 -1.71787
5.5283 -0.040921 -1.71787
5.5193 -0.023921 -1.71487
5.5213 -0.00692102 -1.71587
5.3653 0.014079 -1.71387
5.3313 0.031079 -1.70187
5.3293 0.047079 -1.70087
5.3663 0.064079 -1.71387
5.3343 0.081079 -1.70287
5.3413 0.098079 -1.70587
5.3813 0.107079 -1.71887
5.3543 0.123079 -1.70987
5.3373 0.140079 -1.70487
5.3363 0.156079 -1.70487
5.3433 0.173079 -1.70687
5.3443 0.190079 -1.70787
5.3423 0.207079 -1.70687
5.3423 0.215079 -1.70687
5.3653 0.233079 -1.71587
5.3723 0.250079 -1.71787
5.3453 0.266079 -1.70887
5.3723 0.284079 -1.71887
5.3513 0.300079 -1.71187
5.3743 0.318079 -1.71987
5.3443 0.342079 -1.70987
5.3383 0.358079 -1.70887
5.3663 0.394079 -1.71887
5.3673 0.428079 -1.71987
5.3613 0.453079 -1.71887
5.3673 0.470079 -1.72087
5.3623 0.504079 -1.72087
5.3493 0.519079 -1.71687
5.3573 0.537079 -1.71987
5.3523 0.562079 -1.71887
5.3603 0.580079 -1.72287
5.3583 0.597079 -1.72287
5.3453 0.612079 -1.71887
5.3173 0.959079 -1.72687
5.3433 1.00708 -1.73787
5.3093 1.05308 -1.72987
5.3073 1.07008 -1.72987
5.3113 1.08808 -1.73287
5.3043 1.10408 -1.73187
5.3083 1.11308 -1.73387
5.3083 1.26208 -1.74487
5.3063 1.27908 -1.74487
5.3033 1.29608 -1.74587
5.3073 1.31408 -1.74787
5.3103 1.32408 -1.74987
5.2753 1.33308 -1.73887
5.3073 1.35908 -1.75187
5.2743 1.36808 -1.74187
5.3063 1.39408 -1.75487
5.2873 1.40708 -1.74987
5.2623 1.41808 -1.74287
5.2823 1.44108 -1.75087
5.2543 1.44208 -1.74187
5.2663 1.46308 -1.74787
5.2573 1.47908 -1.74687
5.2513 1.49508 -1.74587
5.2833 1.52208 -1.75887
5.2473 1.53008 -1.74787
5.2643 1.55208 -1.75587
5.2303 1.55208 -1.74487
5.2673 1.58008 -1.75887
5.2513 1.59408 -1.75587
5.2503 1.61108 -1.75687
5.2413 1.62708 -1.75587
5.2403 1.64408 -1.75687
5.2383 1.66208 -1.75787
5.2373 1.67108 -1.75887
5.2383 1.68908 -1.76087
5.2303 1.70508 -1.75987
5.2213 1.72008 -1.75887
5.2123 1.73508 -1.75687
5.2183 1.75508 -1.76087
5.2103 1.77108 -1.76087
5.2023 1.77708 -1.75887
5.1713 1.78508 -1.74987
5.1713 1.80308 -1.75187
5.1643 1.81908 -1.75087
5.1623 1.83608 -1.75187
5.1673 1.85608 -1.75587
5.1523 1.86908 -1.75287
5.1563 1.88008 -1.75587
5.1463 1.89508 -1.75387
5.1443 1.91208 -1.75587
5.1363 1.92808 -1.75487
5.1413 1.94808 -1.75887
5.1313 1.96308 -1.75687
5.1233 1.97808 -1.75687
5.1343 1.99108 -1.76187
5.1233 2.00608 -1.75987
5.1183 2.02208 -1.76087
5.1063 2.03608 -1.75887
5.1123 2.05708 -1.76287
5.1083 2.07408 -1.76387
5.1173 2.09608 -1.76987
5.0963 2.09708 -1.76287
5.1073 2.12008 -1.76987
5.1043 2.13808 -1.77087
5.0933 2.15208 -1.76987
5.0813 2.16608 -1.76787
5.0923 2.19008 -1.77387
5.0733 2.20008 -1.76987
5.0823 2.21408 -1.77387
5.0753 2.23008 -1.77387
5.0733 2.24808 -1.77587
5.0713 2.26608 -1.77787
5.0653 2.28308 -1.77887
5.0533 2.31508 -1.77887
5.0113 2.43108 -1.78287
4.9743 -1.54092 -1.65987
5.1663 -1.08092 -1.68387
5.1893 -0.983921 -1.68487
5.2043 -0.935921 -1.68687
5.2053 -0.918921 -1.68687
5.2153 -0.903921 -1.68887
5.2103 -0.877921 -1.68587
5.2213 -0.845921 -1.68787
5.2313 -0.830921 -1.68987
5.2363 -0.797921 -1.68987
5.2543 -0.758921 -1.69387
5.2623 -0.709921 -1.69487
5.2813 -0.618921 -1.69787
5.3043 -0.529921 -1.70187
5.2963 -0.494921 -1.69787
5.3093 -0.479921 -1.70187
5.3163 -0.462921 -1.70387
5.3073 -0.436921 -1.69987
5.3223 -0.421921 -1.70487
5.3023 -0.402921 -1.69787
5.3283 -0.388921 -1.70587
5.3083 -0.369921 -1.69887
5.3223 -0.337921 -1.70287
5.3123 -0.311921 -1.69887
5.3193 -0.295921 -1.70087
5.3353 -0.279921 -1.70587
5.3073 -0.260921 -1.69587
5.3363 -0.245921 -1.70587
5.3453 -0.229921 -1.70887
5.3213 -0.219921 -1.69987
5.3383 -0.203921 -1.70587
5.3143 -0.186921 -1.69787
5.3473 -0.170921 -1.70887
5.3133 -0.152921 -1.69687
5.3213 -0.136921 -1.69887
5.3293 -0.119921 -1.70187
5.3493 -0.111921 -1.70887
5.3433 -0.094921 -1.70687
5.3213 -0.077921 -1.69887
5.3493 -0.061921 -1.70887
5.3553 -0.044921 -1.70987
5.3333 -0.027921 -1.70287
5.3233 -0.010921 -1.69887
5.3253 -0.00292102 -1.69987
5.2343 0.425079 -1.72887
5.2293 0.475079 -1.72887
5.2323 0.492079 -1.72987
5.2323 0.583079 -1.73287
5.2203 0.615079 -1.73087
5.2253 0.624079 -1.73287
5.2253 0.640079 -1.73287
5.2123 0.672079 -1.72987
5.2213 0.690079 -1.73387
5.2243 0.707079 -1.73587
5.2163 0.748079 -1.73487
5.2173 0.781079 -1.73687
5.2043 0.796079 -1.73287
5.1823 1.16408 -1.74987
5.1713 1.21308 -1.74987
5.1653 1.22908 -1.74887
5.1633 1.27108 -1.75187
4.0743 -2.70892 -1.60287
4.1103 -2.66792 -1.60587
4.1153 -2.65292 -1.60387
4.1443 -2.63492 -1.60987
4.1493 -2.61992 -1.60787
4.1583 -2.61692 -1.60987
4.1653 -2.60292 -1.60987
4.1783 -2.59292 -1.61187
4.1923 -2.58292 -1.61387
4.2043 -2.57192 -1.61587
4.2093 -2.55692 -1.61387
4.2203 -2.54592 -1.61587
4.2383 -2.54792 -1.62187
4.2403 -2.52992 -1.61887
4.2583 -2.52292 -1.62287
4.2753 -2.51492 -1.62687
4.2863 -2.50392 -1.62787
4.2893 -2.48692 -1.62587
4.2943 -2.47192 -1.62487
4.2963 -2.46392 -1.62387
4.3093 -2.45392 -1.62587
4.3163 -2.43992 -1.62587
4.3263 -2.42692 -1.62687
4.3323 -2.41292 -1.62587
4.3363 -2.39692 -1.62487
4.3453 -2.38492 -1.62587
4.3493 -2.37792 -1.62587
4.3653 -2.36892 -1.62887
4.3823 -2.35992 -1.63287
4.3833 -2.34292 -1.62987
4.3953 -2.33192 -1.63187
4.4063 -2.31992 -1.63387
4.4053 -2.30192 -1.62987
4.4173 -2.29892 -1.63387
4.4103 -2.27792 -1.62787
4.4263 -2.26892 -1.63187
4.4283 -2.25192 -1.62987
4.4383 -2.23992 -1.63087
4.4473 -2.22692 -1.63187
4.4543 -2.21292 -1.63187
4.4593 -2.20692 -1.63187
4.4813 -2.19992 -1.63787
4.4823 -2.18292 -1.63587
4.4883 -2.16892 -1.63587
4.5053 -2.15892 -1.63987
4.4973 -2.13792 -1.63387
4.5093 -2.12592 -1.63587
4.5193 -2.12192 -1.63787
4.5133 -2.10292 -1.63387
4.5293 -2.09192 -1.63687
4.5393 -2.07992 -1.63787
4.5433 -2.06492 -1.63787
4.5463 -2.04892 -1.63587
4.5823 -2.04692 -1.64687
4.5613 -2.02992 -1.63787
4.5733 -2.01692 -1.63987
4.5863 -2.00592 -1.64287
4.5943 -1.99192 -1.64287
4.5923 -1.97392 -1.63987
4.6103 -1.96492 -1.64487
4.6163 -1.94992 -1.64487
4.6053 -1.93692 -1.63987
4.6363 -1.93292 -1.64887
4.6223 -1.91092 -1.64187
4.6463 -1.90292 -1.64787
4.6573 -1.89092 -1.64987
4.6473 -1.86992 -1.64387
4.6533 -1.85492 -1.64387
4.6823 -1.85792 -1.65387
4.6653 -1.83492 -1.64487
4.6733 -1.82092 -1.64587
4.7013 -1.81492 -1.65487
4.6903 -1.79292 -1.64787
4.7063 -1.78192 -1.65187
4.7023 -1.76392 -1.64887
4.7093 -1.75792 -1.64987
4.7073 -1.74092 -1.64687
4.7303 -1.73192 -1.65387
4.7233 -1.71292 -1.64887
4.7343 -1.69992 -1.65087
4.7573 -1.67492 -1.65587
4.7563 -1.66592 -1.65487
4.7693 -1.65292 -1.65687
4.7453 -1.62892 -1.64687
4.7593 -1.61692 -1.64987
4.7863 -1.60892 -1.65787
5.1043 0.220079 -1.72087
5.1033 0.244079 -1.72087
5.0943 0.340079 -1.71987
5.1073 0.397079 -1.72587
5.0973 0.429079 -1.72287
5.1063 0.454079 -1.72687
5.1033 0.486079 -1.72687
5.0943 0.517079 -1.72487
5.1023 0.534079 -1.72887
5.0913 0.549079 -1.72487
5.0883 0.557079 -1.72487
5.0883 0.573079 -1.72487
5.0773 0.604079 -1.72287
5.1033 0.623079 -1.73287
5.0773 0.637079 -1.72387
5.0873 0.646079 -1.72787
5.0873 0.662079 -1.72887
5.0833 0.678079 -1.72787
5.0983 0.696079 -1.73387
5.0693 0.709079 -1.72487
5.0893 0.728079 -1.73287
5.0683 0.741079 -1.72587
5.0853 0.759079 -1.73287
5.0823 0.767079 -1.73187
5.0813 0.783079 -1.73287
5.0773 0.799079 -1.73187
5.0723 0.815079 -1.73087
5.0923 0.834079 -1.73887
5.0843 0.849079 -1.73687
5.0783 0.873079 -1.73687
5.0683 0.920079 -1.73587
5.0653 0.978079 -1.73887
5.0603 1.01008 -1.73887
5.0663 1.02708 -1.74287
5.0413 1.05508 -1.73587
5.0563 1.07508 -1.74287
5.0643 1.08508 -1.74587
5.0533 1.09908 -1.74287
5.0483 1.11508 -1.74287
5.0313 1.14408 -1.73887
5.0413 1.16308 -1.74387
5.0433 1.18008 -1.74587
5.0243 1.18408 -1.73987
5.0083 1.19708 -1.73487
5.0243 1.21808 -1.74287
5.0353 1.23708 -1.74787
5.0183 1.25008 -1.74287
5.0323 1.27008 -1.74987
5.0013 1.27908 -1.73987
5.0263 1.29408 -1.74987
5.0283 1.31108 -1.75187
5.0163 1.32508 -1.74987
5.0083 1.33908 -1.74787
5.0103 1.39908 -1.75387
5.0053 1.41508 -1.75387
4.9833 1.45908 -1.75087
4.9743 1.53308 -1.75587
4.9733 1.56708 -1.75887
4.9563 1.60508 -1.75687
4.9513 1.63708 -1.75887
4.9443 1.68708 -1.76187
4.9293 1.70808 -1.75987
4.9123 1.78908 -1.76387
3.7623 -2.90192 -1.59287
3.7703 -2.88892 -1.59187
3.7983 -2.86392 -1.59487
3.8043 -2.84992 -1.59387
3.8373 -2.81892 -1.59587
3.8443 -2.81492 -1.59787
3.8743 -2.81792 -1.60687
3.8603 -2.78992 -1.59687
3.8723 -2.77992 -1.59787
3.8953 -2.77692 -1.60387
3.8933 -2.75692 -1.59987
3.9043 -2.74692 -1.60087
3.9163 -2.74692 -1.60387
3.9253 -2.73392 -1.60387
3.9343 -2.72192 -1.60387
3.9513 -2.71592 -1.60787
3.9603 -2.70392 -1.60787
3.9753 -2.69492 -1.61087
3.9863 -2.68492 -1.61187
3.9843 -2.67492 -1.60987
3.9923 -2.66192 -1.60987
4.0123 -2.65692 -1.61387
4.0223 -2.64492 -1.61487
4.0413 -2.63992 -1.61987
4.0483 -2.62592 -1.61887
4.0503 -2.60892 -1.61587
4.0623 -2.60792 -1.61987
4.0793 -2.60092 -1.62387
4.0833 -2.58592 -1.62187
4.0833 -2.56792 -1.61887
4.1233 -2.53892 -1.62487
4.1303 -2.53392 -1.62687
4.5653 -1.82792 -1.65187
4.9383 0.014079 -1.70687
4.9533 0.022079 -1.71287
4.9453 0.037079 -1.70987
4.9303 0.052079 -1.70487
4.9503 0.068079 -1.71187
4.9333 0.083079 -1.70587
4.9253 0.099079 -1.70287
4.9313 0.122079 -1.70487
4.9343 0.138079 -1.70687
4.9323 0.153079 -1.70587
4.9253 0.168079 -1.70387
4.9593 0.185079 -1.71587
4.9303 0.200079 -1.70587
4.9483 0.216079 -1.71287
4.9343 0.231079 -1.70787
4.9453 0.239079 -1.71187
4.9483 0.255079 -1.71387
4.9173 0.269079 -1.70287
4.9183 0.284079 -1.70287
4.9233 0.300079 -1.70487
4.9223 0.316079 -1.70487
4.9153 0.331079 -1.70287
4.9283 0.339079 -1.70787
4.9253 0.355079 -1.70687
4.9223 0.370079 -1.70687
4.9583 0.389079 -1.72087
4.9313 0.418079 -1.71187
4.9263 0.433079 -1.70987
4.9203 0.456079 -1.70887
4.9343 0.472079 -1.71387
4.9213 0.487079 -1.70987
4.9183 0.502079 -1.70887
4.9163 0.518079 -1.70887
4.9283 0.534079 -1.71387
4.9213 0.542079 -1.71187
4.9123 0.556079 -1.70887
4.9203 0.588079 -1.71387
4.9083 0.603079 -1.70987
4.9223 0.644079 -1.71687
4.9053 0.673079 -1.71187
4.9063 0.704079 -1.71387
4.9073 0.736079 -1.71587
4.9133 0.745079 -1.71887
4.9113 0.760079 -1.71887
4.8993 0.774079 -1.71587
4.9063 0.791079 -1.71887
4.9133 0.808079 -1.72287
4.9033 0.822079 -1.71987
4.8953 0.837079 -1.71787
4.9103 0.847079 -1.72387
4.8913 0.860079 -1.71787
4.9073 0.879079 -1.72487
4.8953 0.892079 -1.72087
4.9193 0.913079 -1.73187
4.8913 0.923079 -1.72187
4.8953 0.940079 -1.72487
4.8833 0.946079 -1.72087
4.8893 0.963079 -1.72387
4.8823 0.977079 -1.72287
4.8883 0.995079 -1.72587
4.8893 1.01108 -1.72687
4.8803 1.02508 -1.72487
4.8823 1.04208 -1.72687
4.8733 1.04808 -1.72487
4.8853 1.08208 -1.73187
4.8633 1.11008 -1.72587
4.8583 1.12408 -1.72487
4.8603 1.14108 -1.72687
4.8643 1.15008 -1.72887
4.8603 1.16508 -1.72887
4.8473 1.21108 -1.72887
4.8413 1.22508 -1.72787
4.8333 1.28008 -1.72987
4.8293 1.29508 -1.72987
4.8263 1.32708 -1.73187
4.8423 1.34808 -1.73987
4.8213 1.36608 -1.73387
4.8223 1.38308 -1.73587
4.8253 1.40008 -1.73887
4.8043 1.42708 -1.73387
4.8123 1.44608 -1.73887
4.7993 1.45008 -1.73487
4.8123 1.47108 -1.74187
4.8223 1.49008 -1.74687
4.7993 1.50008 -1.74087
4.7833 1.51108 -1.73587
4.7793 1.52608 -1.73587
4.7903 1.54708 -1.74287
4.7863 1.55408 -1.74187
4.7813 1.56908 -1.74187
4.7723 1.58208 -1.74087
4.7783 1.60108 -1.74487
4.7593 1.61108 -1.73887
4.7703 1.63208 -1.74487
4.7523 1.64208 -1.74087
4.7533 1.65108 -1.74187
4.7513 1.66708 -1.74287
4.7603 1.68708 -1.74887
4.7443 1.69808 -1.74487
4.7303 1.71008 -1.74087
4.7303 1.72708 -1.74287
4.7323 1.74408 -1.74587
4.7323 1.75308 -1.74687
4.7483 1.77608 -1.75587
4.7353 1.78808 -1.75287
4.7303 1.80308 -1.75287
4.7313 1.82008 -1.75587
4.7153 1.83108 -1.75187
4.7213 1.85108 -1.75587
4.7153 1.86608 -1.75587
4.7073 1.87108 -1.75387
4.7083 1.88908 -1.75687
4.7143 1.90808 -1.76187
4.7033 1.92108 -1.75987
4.7113 1.94208 -1.76487
4.6943 1.95208 -1.76087
4.6903 1.97608 -1.76287
4.6913 1.99408 -1.76587
4.6833 2.00808 -1.76487
4.6673 2.03608 -1.76387
4.6513 2.06408 -1.76287
4.6613 2.07708 -1.76787
4.6543 2.09208 -1.76787
4.6333 2.11708 -1.76487
4.6283 2.13208 -1.76487
4.6313 2.16008 -1.77087
4.6143 2.17008 -1.76687
4.5983 2.25208 -1.77387
3.9213 -2.51792 -1.60487
3.9483 -2.51792 -1.61287
3.9423 -2.49592 -1.60687
3.9513 -2.48492 -1.60787
3.9683 -2.47892 -1.61187
3.9763 -2.46592 -1.61187
3.9843 -2.45392 -1.61187
3.9963 -2.45192 -1.61487
4.0233 -2.45092 -1.62387
4.0093 -2.42592 -1.61487
4.0223 -2.41592 -1.61687
4.0493 -2.41492 -1.62487
4.0503 -2.39892 -1.62187
4.0533 -2.38292 -1.61987
4.0693 -2.38392 -1.62587
4.0723 -2.36892 -1.62387
4.0913 -2.36192 -1.62887
4.1083 -2.32092 -1.62587
4.1353 -2.31092 -1.63287
4.1413 -2.29692 -1.63287
4.1643 -2.25792 -1.63287
4.1943 -2.21492 -1.63487
4.2783 -2.08192 -1.64087
4.2923 -2.04792 -1.63987
4.3083 -2.00492 -1.63887
4.3263 -1.99692 -1.64387
4.3373 -1.97792 -1.64387
4.3473 -1.96592 -1.64587
4.3573 -1.95292 -1.64687
4.3563 -1.93692 -1.64387
4.3643 -1.92392 -1.64487
4.3663 -1.90892 -1.64387
4.3843 -1.89992 -1.64887
4.3823 -1.88292 -1.64487
4.3933 -1.87892 -1.64887
4.4143 -1.83892 -1.64987
4.4163 -1.82392 -1.64887
4.4263 -1.81192 -1.64987
4.4333 -1.79792 -1.65087
4.4393 -1.79292 -1.65187
4.4433 -1.77792 -1.65087
4.4583 -1.75092 -1.65287
4.4583 -1.73492 -1.65087
4.4693 -1.72292 -1.65287
4.4783 -1.71092 -1.65387
4.4783 -1.70292 -1.65287
4.4943 -1.66092 -1.65287
4.5103 -1.63392 -1.65587
4.5103 -1.61792 -1.65287
4.8673 -0.585921 -1.69387
4.8773 -0.532921 -1.69587
4.8743 -0.500921 -1.69387
4.8793 -0.478921 -1.69387
4.8913 -0.463921 -1.69787
4.8873 -0.432921 -1.69587
4.8973 -0.402921 -1.69787
4.8943 -0.386921 -1.69687
4.9043 -0.379921 -1.69987
4.8963 -0.363921 -1.69687
4.9083 -0.348921 -1.70087
4.9083 -0.333921 -1.69987
4.9003 -0.302921 -1.69687
4.9143 -0.287921 -1.70187
4.9063 -0.271921 -1.69787
4.9123 -0.263921 -1.69987
4.9133 -0.248921 -1.69987
4.9253 -0.233921 -1.70487
4.9183 -0.217921 -1.70187
4.9053 -0.201921 -1.69687
4.9193 -0.186921 -1.70187
4.9183 -0.171921 -1.70087
4.9343 -0.148921 -1.70687
4.9173 -0.132921 -1.69987
4.9383 -0.117921 -1.70787
4.9223 -0.101921 -1.70187
4.9373 -0.086921 -1.70687
4.9303 -0.071921 -1.70487
4.9303 -0.063921 -1.70487
4.9323 -0.047921 -1.70487
4.9383 -0.032921 -1.70687
4.9283 -0.016921 -1.70387
4.9383 -0.00192102 -1.70687
4.8103 0.353079 -1.71987
4.8093 0.391079 -1.71987
4.8143 0.422079 -1.72287
4.8093 0.436079 -1.72187
4.8073 0.482079 -1.72287
4.8113 0.490079 -1.72487
4.8033 0.520079 -1.72287
4.8053 0.566079 -1.72487
4.7983 0.603079 -1.72487
4.8043 0.619079 -1.72787
4.8023 0.650079 -1.72787
4.8023 0.665079 -1.72887
4.8033 0.681079 -1.72987
4.7943 0.702079 -1.72787
4.7973 0.734079 -1.73087
4.7913 0.787079 -1.73187
4.7893 0.833079 -1.73387
4.7833 0.886079 -1.73487
4.7503 1.11408 -1.74087
4.7433 1.17508 -1.74387
4.7403 1.19808 -1.74487
4.7383 1.21308 -1.74487
4.7273 1.22608 -1.74187
4.7193 1.25608 -1.74187
4.7183 1.27908 -1.74487
4.7213 1.29608 -1.74687
4.7193 1.31108 -1.74787
4.7083 1.32408 -1.74487
4.7083 1.35608 -1.74887
4.6933 1.36808 -1.74487
4.6953 1.40908 -1.74987
4.6943 1.42408 -1.75087
3.5663 -2.73192 -1.59387
3.5883 -2.71292 -1.59587
3.6083 -2.69192 -1.59787
3.6153 -2.68892 -1.59887
3.6193 -2.67392 -1.59687
3.6383 -2.67092 -1.60187
3.6463 -2.65892 -1.60187
3.6503 -2.64392 -1.59987
3.6693 -2.64092 -1.60487
3.6803 -2.63092 -1.60587
3.6773 -2.61992 -1.60287
3.6913 -2.61292 -1.60487
3.7023 -2.60292 -1.60687
3.7133 -2.59392 -1.60787
3.7183 -2.57992 -1.60687
