3.02416 -3.06098 0.321045
3.05516 -3.05298 0.321045
3.09116 -3.06098 0.322045
3.10116 -3.05198 0.322045
3.11616 -3.04798 0.322045
3.13216 -3.04298 0.323045
3.15016 -3.04198 0.323045
3.16916 -3.04198 0.323045
3.18516 -3.03698 0.324045
3.19816 -3.04098 0.324045
3.21916 -3.04198 0.324045
3.23316 -3.03598 0.324045
3.25416 -3.03598 0.325045
3.26516 -3.02798 0.325045
3.30216 -3.02298 0.326045
3.31716 -3.02798 0.326045
3.33116 -3.02098 0.326045
3.35016 -3.01998 0.327045
3.36716 -3.01598 0.327045
3.38716 -3.01498 0.327045
3.41016 -3.01598 0.328045
3.43016 -3.01498 0.328045
4.54916 -2.86298 0.350045
4.57816 -2.86098 0.351045
4.58716 -2.85698 0.351045
4.60816 -2.84998 0.352045
4.63116 -2.84398 0.352045
4.65316 -2.83798 0.352045
4.68616 -2.83798 0.353045
4.71216 -2.83398 0.354045
4.73616 -2.82798 0.354045
4.75616 -2.82998 0.355045
4.78916 -2.82898 0.355045
4.81716 -2.82498 0.356045
4.84516 -2.82198 0.357045
4.87116 -2.81598 0.357045
4.88816 -2.80598 0.358045
4.93916 -2.80498 0.359045
4.97316 -2.80298 0.359045
4.98816 -2.79198 0.360045
5.02716 -2.79198 0.361045
5.04916 -2.78398 0.361045
5.09516 -2.78898 0.362045
5.14516 -2.78498 0.363045
5.20116 -2.77298 0.365045
5.21716 -2.76098 0.365045
5.28516 -2.75498 0.366045
5.33016 -2.74698 0.367045
5.36016 -2.74098 0.368045
6.06316 -2.64798 0.384045
1.86916 -3.23098 0.287045
1.90616 -3.22398 0.288045
1.91416 -3.21398 0.287045
1.93816 -3.22098 0.288045
1.94716 -3.21298 0.288045
1.96416 -3.21698 0.288045
1.97616 -3.21398 0.288045
1.98416 -3.20498 0.288045
2.00916 -3.20998 0.289045
2.01816 -3.20198 0.288045
2.03516 -3.20798 0.289045
2.04916 -3.20598 0.289045
2.08616 -3.19898 0.289045
2.09016 -3.19398 0.289045
2.10816 -3.19898 0.290045
2.11816 -3.19198 0.290045
2.13316 -3.19198 0.290045
2.14616 -3.18998 0.290045
2.15916 -3.18798 0.290045
2.17116 -3.18298 0.290045
2.19416 -3.18498 0.290045
2.20716 -3.18298 0.290045
2.23416 -3.17798 0.291045
2.24316 -3.16998 0.291045
2.26116 -3.17398 0.291045
2.26716 -3.17198 0.291045
2.27816 -3.16698 0.291045
2.29316 -3.16598 0.291045
2.30516 -3.16198 0.291045
2.32316 -3.16598 0.292045
2.33616 -3.16198 0.292045
2.34816 -3.15798 0.292045
2.38616 -3.15598 0.292045
2.40016 -3.15398 0.293045
2.41816 -3.15698 0.293045
2.43116 -3.15298 0.293045
2.44716 -3.15298 0.293045
2.44916 -3.14598 0.293045
2.49616 -3.14498 0.294045
2.50916 -3.13998 0.294045
2.52216 -3.13698 0.294045
2.54116 -3.13898 0.294045
2.54516 -3.13398 0.294045
2.56316 -3.13698 0.295045
2.57516 -3.12998 0.295045
2.59116 -3.12998 0.295045
2.60216 -3.12298 0.295045
2.61716 -3.12098 0.295045
2.63616 -3.12298 0.295045
2.64516 -3.12398 0.295045
2.67516 -3.11898 0.296045
2.70616 -3.11598 0.296045
2.72116 -3.11298 0.296045
2.73616 -3.11098 0.297045
2.76016 -3.10798 0.297045
2.79416 -3.10698 0.297045
2.82316 -3.09998 0.298045
2.84016 -3.09798 0.298045
2.86016 -3.09098 0.298045
2.88216 -3.09498 0.299045
2.89716 -3.09098 0.299045
2.91416 -3.08898 0.299045
2.95616 -3.08498 0.300045
2.97116 -3.08198 0.300045
2.98816 -3.07898 0.300045
3.02116 -3.07498 0.300045
3.08216 -3.06798 0.301045
3.24416 -3.04098 0.304045
3.33816 -3.02198 0.305045
3.38216 -3.02298 0.306045
3.40416 -3.02298 0.306045
3.43316 -3.01998 0.306045
4.70316 -2.84898 0.327045
4.72416 -2.84098 0.328045
4.88316 -2.82298 0.331045
4.91316 -2.81898 0.331045
5.04716 -2.80098 0.334045
5.10716 -2.79198 0.335045
5.24916 -2.77398 0.337045
5.43016 -2.74998 0.341045
5.46316 -2.74498 0.342045
5.52516 -2.73298 0.343045
5.58516 -2.72898 0.344045
5.62116 -2.72498 0.345045
5.69216 -2.71498 0.346045
5.72416 -2.70798 0.346045
5.76116 -2.70398 0.347045
5.97416 -2.67698 0.351045
6.18816 -2.64498 0.356045
6.21716 -2.63498 0.356045
6.26416 -2.63098 0.357045
1.85716 -3.21998 0.258045
1.86816 -3.21598 0.258045
1.89216 -3.21098 0.258045
1.91516 -3.21598 0.259045
1.92516 -3.20998 0.259045
1.93616 -3.20598 0.259045
1.95016 -3.20698 0.259045
1.97416 -3.19998 0.259045
1.99316 -3.19698 0.259045
2.00516 -3.19398 0.259045
2.02016 -3.19598 0.259045
2.03516 -3.19698 0.259045
2.04416 -3.18898 0.259045
2.05916 -3.19098 0.259045
2.06616 -3.19098 0.260045
2.07616 -3.18398 0.260045
2.09116 -3.18398 0.260045
2.10916 -3.19098 0.260045
2.13016 -3.17998 0.260045
2.14116 -3.17498 0.260045
2.15216 -3.17998 0.260045
2.16316 -3.17398 0.260045
2.17916 -3.17598 0.260045
2.19416 -3.17698 0.260045
2.20616 -3.17398 0.260045
2.21916 -3.16998 0.261045
2.23016 -3.16498 0.261045
2.23816 -3.16598 0.261045
2.25216 -3.16398 0.261045
2.26816 -3.16698 0.261045
2.28316 -3.16598 0.261045
2.29116 -3.15598 0.261045
2.30416 -3.15298 0.261045
2.31916 -3.15198 0.261045
2.33316 -3.16198 0.261045
2.34416 -3.15598 0.261045
2.35816 -3.15298 0.262045
2.37016 -3.14898 0.262045
2.38116 -3.14298 0.262045
2.39816 -3.14598 0.262045
2.40916 -3.13998 0.262045
2.41916 -3.14198 0.262045
2.43416 -3.14098 0.262045
2.45416 -3.14698 0.262045
2.46316 -3.13798 0.262045
2.47916 -3.13798 0.263045
2.49316 -3.13498 0.263045
2.50616 -3.13198 0.263045
2.51316 -3.13098 0.263045
2.53616 -3.13898 0.263045
2.53816 -3.12198 0.263045
2.56416 -3.13398 0.263045
2.57016 -3.12098 0.263045
2.58916 -3.12398 0.263045
2.60416 -3.12198 0.264045
2.61116 -3.12098 0.264045
2.62516 -3.11698 0.264045
2.63916 -3.11398 0.264045
2.65616 -3.11498 0.264045
2.67216 -3.11398 0.264045
2.68216 -3.10498 0.264045
2.70616 -3.11398 0.264045
2.71216 -3.11098 0.264045
2.72216 -3.10198 0.264045
2.74616 -3.10998 0.265045
2.75616 -3.10198 0.265045
2.76816 -3.09598 0.265045
2.80016 -3.09198 0.265045
2.81116 -3.09498 0.265045
2.82516 -3.09098 0.265045
2.84416 -3.09198 0.266045
2.85416 -3.08298 0.266045
2.87616 -3.08698 0.266045
2.88716 -3.07998 0.266045
2.90316 -3.07798 0.266045
2.91516 -3.08098 0.266045
2.93416 -3.08198 0.266045
2.95116 -3.07998 0.267045
2.96716 -3.07798 0.267045
2.98116 -3.07298 0.267045
3.00016 -3.07398 0.267045
3.01016 -3.06398 0.267045
3.02516 -3.06898 0.267045
3.03616 -3.06098 0.267045
3.06316 -3.06998 0.268045
3.07216 -3.05898 0.268045
3.08616 -3.05398 0.268045
3.10916 -3.05798 0.268045
3.11916 -3.04798 0.268045
3.13616 -3.05598 0.268045
3.14916 -3.04898 0.268045
3.16416 -3.04498 0.268045
3.18216 -3.04298 0.269045
3.20516 -3.04598 0.269045
3.21916 -3.03998 0.269045
3.23616 -3.03598 0.269045
3.25116 -3.04098 0.269045
3.26316 -3.03298 0.269045
3.27216 -3.02298 0.269045
3.29716 -3.02698 0.270045
3.31516 -3.02398 0.270045
3.33016 -3.01898 0.270045
3.35016 -3.01798 0.270045
3.36116 -3.01798 0.270045
3.38116 -3.01698 0.271045
3.39616 -3.01198 0.271045
3.43716 -3.00998 0.271045
4.53716 -2.86398 0.283045
4.56516 -2.86098 0.284045
4.58516 -2.85398 0.284045
4.61516 -2.85298 0.284045
4.64116 -2.84898 0.285045
4.66416 -2.85298 0.285045
4.68316 -2.84398 0.285045
4.70716 -2.83898 0.285045
4.73716 -2.83698 0.286045
4.76416 -2.83298 0.286045
4.78216 -2.82298 0.286045
4.81816 -2.82498 0.287045
4.83316 -2.82298 0.287045
4.85616 -2.81598 0.287045
4.88716 -2.81398 0.287045
4.91116 -2.80698 0.288045
4.93916 -2.80298 0.288045
4.96416 -2.79598 0.288045
4.99316 -2.79298 0.289045
5.01716 -2.79498 0.289045
5.05216 -2.79398 0.290045
5.08316 -2.79098 0.290045
5.10416 -2.78198 0.290045
5.13416 -2.77698 0.290045
5.16016 -2.77098 0.291045
5.19716 -2.76998 0.291045
5.21716 -2.76998 0.292045
5.24016 -2.76098 0.292045
5.27016 -2.75598 0.292045
5.33016 -2.74498 0.293045
5.39516 -2.73598 0.294045
5.41516 -2.73598 0.294045
5.45116 -2.73198 0.294045
5.48616 -2.72798 0.295045
5.67116 -2.69998 0.297045
5.86316 -2.67998 0.300045
5.89316 -2.68298 0.300045
5.92716 -2.67598 0.301045
5.99316 -2.66098 0.301045
6.03616 -2.65698 0.302045
6.07416 -2.65098 0.303045
6.10916 -2.64398 0.303045
6.13416 -2.64298 0.303045
6.18016 -2.64098 0.304045
6.21116 -2.63098 0.304045
4.50916 -2.87098 0.255045
4.52716 -2.86198 0.255045
4.54916 -2.85698 0.256045
4.58016 -2.85598 0.256045
4.59916 -2.84798 0.256045
4.62216 -2.84198 0.256045
4.66516 -2.84798 0.257045
4.66816 -2.83898 0.257045
4.70616 -2.84198 0.257045
4.73916 -2.84198 0.257045
4.74816 -2.82698 0.257045
4.77916 -2.82498 0.257045
4.81416 -2.82498 0.258045
4.83316 -2.81598 0.258045
4.86216 -2.82198 0.258045
4.89716 -2.82198 0.258045
4.91116 -2.80898 0.258045
4.94416 -2.80798 0.259045
4.99816 -2.79698 0.259045
5.03516 -2.79598 0.259045
5.05516 -2.79698 0.260045
5.09116 -2.79598 0.260045
5.11516 -2.78798 0.260045
5.15416 -2.78798 0.261045
5.18216 -2.78198 0.261045
5.20316 -2.77298 0.261045
5.24416 -2.77298 0.261045
5.25516 -2.76798 0.261045
5.28716 -2.76398 0.262045
5.35416 -2.75598 0.262045
5.38116 -2.74798 0.262045
5.42516 -2.74898 0.263045
5.45316 -2.74198 0.263045
5.47516 -2.74198 0.263045
5.49716 -2.73098 0.263045
5.54116 -2.73098 0.264045
5.56916 -2.72298 0.264045
5.60316 -2.71798 0.264045
5.63716 -2.71198 0.265045
5.68016 -2.71098 0.265045
5.69916 -2.70898 0.265045
5.78116 -2.70298 0.266045
5.80216 -2.69098 0.266045
5.85416 -2.69298 0.266045
5.89216 -2.68698 0.267045
5.92216 -2.67898 0.267045
5.95016 -2.67998 0.267045
6.01816 -2.66498 0.268045
6.05916 -2.65998 0.268045
6.09216 -2.65198 0.268045
6.13916 -2.64898 0.269045
6.16316 -2.63698 0.269045
6.20416 -2.64198 0.269045
6.26516 -2.62198 0.270045
3.43616 -3.00298 0.215045
4.58316 -2.84698 0.218045
4.84016 -2.81098 0.218045
6.26316 -2.63498 0.190045
1.76016 -3.23198 0.171045
1.77416 -3.23598 0.171045
4.49216 -2.86098 0.158045
4.51816 -2.85798 0.158045
4.57516 -2.85398 0.157045
4.59216 -2.84498 0.157045
4.62216 -2.84298 0.157045
4.63316 -2.83998 0.157045
4.66716 -2.84098 0.157045
4.69016 -2.83498 0.157045
4.71916 -2.83198 0.157045
4.74016 -2.82498 0.156045
4.82116 -2.82198 0.156045
4.84716 -2.81698 0.156045
4.87116 -2.81098 0.156045
4.93216 -2.80498 0.155045
4.99816 -2.80198 0.155045
5.01316 -2.79998 0.155045
5.03816 -2.79298 0.155045
5.07316 -2.79198 0.154045
5.09016 -2.77998 0.154045
5.15516 -2.77398 0.154045
5.18816 -2.77098 0.154045
5.20116 -2.76798 0.154045
5.24716 -2.77098 0.153045
5.26316 -2.75898 0.153045
5.29116 -2.75198 0.153045
5.33216 -2.75198 0.153045
5.39116 -2.74098 0.152045
5.41416 -2.74098 0.152045
5.43516 -2.73098 0.152045
5.47416 -2.72898 0.152045
5.51316 -2.72698 0.152045
5.53916 -2.71798 0.151045
5.58316 -2.71898 0.151045
5.63916 -2.71298 0.151045
5.67516 -2.70898 0.150045
5.70716 -2.70198 0.150045
5.73116 -2.69198 0.150045
5.76516 -2.68598 0.150045
5.84916 -2.67998 0.149045
5.87116 -2.67998 0.149045
5.91316 -2.67598 0.149045
5.98616 -2.66398 0.148045
6.02216 -2.65798 0.148045
6.09716 -2.64598 0.148045
6.11916 -2.64398 0.147045
6.15516 -2.63698 0.147045
6.19316 -2.62998 0.147045
0.818161 -3.35798 0.151045
0.831161 -3.36298 0.151045
2.43816 -3.13598 0.144045
2.50916 -3.13298 0.143045
2.52116 -3.12898 0.143045
2.58416 -3.11598 0.143045
2.66716 -3.10398 0.142045
2.68416 -3.10398 0.142045
2.71316 -3.09798 0.142045
2.76816 -3.09198 0.141045
2.88716 -3.07498 0.140045
2.97916 -3.06398 0.140045
3.03116 -3.05898 0.139045
3.08216 -3.05198 0.139045
3.10516 -3.04598 0.139045
3.17416 -3.03598 0.138045
3.19516 -3.03698 0.138045
3.22216 -3.03398 0.138045
3.31916 -3.01798 0.137045
0.280161 -3.43798 0.127045
0.290161 -3.43698 0.127045
0.301161 -3.42798 0.127045
0.311161 -3.42498 0.127045
0.349161 -3.41898 0.127045
0.359161 -3.41598 0.127045
0.371161 -3.42298 0.127045
0.397161 -3.41598 0.127045
0.407161 -3.40898 0.127045
0.418161 -3.40998 0.127045
0.430161 -3.41598 0.127045
0.440161 -3.40698 0.127045
0.446161 -3.41398 0.127045
0.456161 -3.41098 0.127045
0.466161 -3.40298 0.127045
0.477161 -3.39998 0.127045
0.488161 -3.40398 0.127045
0.520161 -3.39998 0.127045
0.526161 -3.40098 0.127045
0.537161 -3.40098 0.127045
0.548161 -3.39898 0.127045
0.557161 -3.38998 0.127045
0.568161 -3.38798 0.127045
0.580161 -3.39798 0.127045
0.596161 -3.39498 0.127045
0.605161 -3.38298 0.127045
0.618161 -3.39498 0.127045
0.628161 -3.38698 0.127045
0.640161 -3.39298 0.127045
0.661161 -3.38698 0.127045
0.665161 -3.37798 0.127045
0.678161 -3.38998 0.127045
0.697161 -3.37398 0.127045
0.708161 -3.37398 0.127045
0.719161 -3.37298 0.127045
0.729161 -3.36698 0.127045
0.734161 -3.36598 0.127045
0.757161 -3.37098 0.127045
0.766161 -3.36098 0.127045
0.779161 -3.36798 0.127045
0.790161 -3.36798 0.127045
1.81516 -3.22498 0.122045
1.82916 -3.22698 0.121045
1.84116 -3.22398 0.121045
1.84716 -3.22298 0.121045
1.87616 -3.22498 0.121045
1.88616 -3.21998 0.121045
1.89516 -3.21198 0.121045
1.91316 -3.21998 0.121045
1.92716 -3.22098 0.120045
1.92516 -3.20498 0.121045
1.95316 -3.20698 0.120045
1.98016 -3.20498 0.120045
2.01116 -3.19998 0.120045
2.03616 -3.19498 0.120045
2.05116 -3.19598 0.119045
2.06216 -3.19098 0.119045
2.12516 -3.18998 0.119045
2.13916 -3.18798 0.119045
2.14816 -3.17998 0.119045
2.16416 -3.18298 0.118045
2.17116 -3.17098 0.119045
2.18516 -3.18098 0.118045
2.22416 -3.17298 0.118045
2.24216 -3.17798 0.118045
2.24516 -3.16098 0.118045
2.26616 -3.15898 0.118045
2.28116 -3.15998 0.117045
2.29516 -3.15698 0.117045
2.31716 -3.16798 0.117045
2.32316 -3.15398 0.117045
2.35016 -3.14898 0.117045
2.35716 -3.14898 0.117045
2.37316 -3.14898 0.116045
2.38516 -3.14498 0.116045
2.40116 -3.14498 0.116045
2.41216 -3.13898 0.116045
2.43016 -3.14298 0.116045
2.45016 -3.14798 0.115045
2.45216 -3.14098 0.116045
2.46816 -3.14098 0.115045
2.47816 -3.13298 0.115045
2.49116 -3.12898 0.115045
2.51316 -3.13698 0.115045
2.52416 -3.12998 0.115045
2.54516 -3.13598 0.114045
2.55416 -3.13698 0.114045
2.56616 -3.13198 0.114045
2.57616 -3.12398 0.114045
2.59116 -3.12198 0.114045
2.60916 -3.12498 0.114045
2.62416 -3.12298 0.114045
2.63716 -3.11798 0.113045
2.64816 -3.12098 0.113045
2.66016 -3.11598 0.113045
2.67816 -3.11698 0.113045
2.69416 -3.11598 0.113045
2.71216 -3.11598 0.112045
2.72816 -3.11498 0.112045
2.73816 -3.10698 0.112045
2.74916 -3.10998 0.112045
2.77916 -3.10498 0.112045
2.79616 -3.10298 0.112045
2.81316 -3.10398 0.111045
2.82216 -3.09298 0.111045
2.84516 -3.09898 0.111045
2.86616 -3.09298 0.111045
2.88516 -3.09398 0.110045
2.94716 -3.08298 0.110045
2.96816 -3.07398 0.110045
3.00516 -3.07398 0.109045
3.02016 -3.07098 0.109045
3.03916 -3.07098 0.109045
3.05616 -3.06898 0.108045
3.06716 -3.06998 0.108045
3.09316 -3.05698 0.108045
3.11816 -3.06298 0.107045
3.13516 -3.05998 0.107045
3.15116 -3.05798 0.107045
3.16516 -3.05198 0.107045
3.19016 -3.04698 0.107045
3.21216 -3.04898 0.106045
3.22816 -3.04398 0.106045
3.24416 -3.04098 0.106045
3.25716 -3.03398 0.106045
3.28116 -3.02798 0.105045
3.30816 -3.03398 0.105045
3.32116 -3.02598 0.105045
3.34216 -3.02698 0.105045
3.35616 -3.01998 0.104045
3.38216 -3.02398 0.104045
3.39616 -3.01798 0.104045
3.40416 -3.01498 0.104045
4.65016 -2.85098 0.0850452
4.67816 -2.84798 0.0840452
4.70616 -2.84398 0.0840452
4.75216 -2.84198 0.0830452
4.77116 -2.83298 0.0830452
4.80516 -2.83398 0.0820452
4.83216 -2.82898 0.0820452
4.85416 -2.82098 0.0810452
4.87216 -2.81098 0.0810452
4.90416 -2.81998 0.0800452
4.93316 -2.81598 0.0800452
4.94916 -2.80498 0.0800452
4.98616 -2.80498 0.0790452
5.01716 -2.80198 0.0790452
5.04916 -2.79898 0.0780452
5.06616 -2.78798 0.0780452
5.09816 -2.79598 0.0770452
5.12816 -2.79098 0.0770452
5.14916 -2.78198 0.0760452
5.18616 -2.78098 0.0760452
5.20516 -2.76998 0.0750452
5.24116 -2.76798 0.0750452
5.27616 -2.76498 0.0740452
5.30116 -2.76798 0.0740452
5.35416 -2.75298 0.0730452
5.41016 -2.73998 0.0720452
5.45616 -2.74198 0.0710452
5.47416 -2.72898 0.0710452
5.53916 -2.72898 0.0700452
5.64016 -2.71398 0.0680452
5.68416 -2.71298 0.0670452
5.72316 -2.70998 0.0660452
5.72616 -2.69998 0.0660452
5.77016 -2.69898 0.0660452
5.81516 -2.69798 0.0650452
5.82716 -2.68098 0.0650452
5.87416 -2.68098 0.0640452
5.95216 -2.67198 0.0620452
5.96616 -2.66698 0.0620452
6.04616 -2.65698 0.0610452
6.09316 -2.65498 0.0600452
6.11816 -2.64298 0.0590452
6.17216 -2.64398 0.0580452
6.21316 -2.63898 0.0580452
6.24116 -2.63898 0.0570452
0.554161 -3.39198 0.109045
0.564161 -3.38898 0.109045
0.707161 -3.38198 0.109045
0.740161 -3.38298 0.108045
0.742161 -3.36698 0.109045
0.764161 -3.36598 0.109045
0.786161 -3.36698 0.109045
1.87116 -3.21698 0.102045
1.88216 -3.21198 0.102045
1.89616 -3.21198 0.102045
1.92316 -3.21198 0.101045
1.93316 -3.20598 0.101045
1.95416 -3.20698 0.101045
2.00016 -3.21198 0.100045
2.00716 -3.20198 0.100045
2.02616 -3.19798 0.100045
2.06216 -3.18798 0.100045
2.09016 -3.18698 0.0990452
2.10716 -3.18998 0.0990452
2.10716 -3.17998 0.0990452
2.14016 -3.18498 0.0990452
2.15016 -3.17898 0.0990452
2.19816 -3.17398 0.0980452
2.20816 -3.16698 0.0980452
2.25716 -3.17198 0.0970452
2.26316 -3.15998 0.0970452
2.27816 -3.15998 0.0970452
2.28916 -3.16398 0.0970452
2.32916 -3.15698 0.0960452
2.33916 -3.14998 0.0960452
2.35516 -3.14998 0.0960452
2.37116 -3.15098 0.0960452
2.37316 -3.14398 0.0960452
2.39116 -3.14598 0.0960452
2.40816 -3.14798 0.0950452
2.43416 -3.14098 0.0950452
2.44716 -3.13798 0.0950452
2.47116 -3.13698 0.0950452
2.49416 -3.14598 0.0940452
2.49616 -3.12798 0.0940452
2.52816 -3.12698 0.0940452
2.54116 -3.12398 0.0940452
2.57716 -3.11798 0.0930452
2.59516 -3.11898 0.0930452
2.61016 -3.11698 0.0930452
2.66716 -3.12398 0.0920452
2.66416 -3.10998 0.0920452
2.68316 -3.11298 0.0920452
2.69416 -3.10598 0.0920452
2.70616 -3.09998 0.0910452
2.72516 -3.10198 0.0910452
2.74416 -3.10398 0.0910452
2.77916 -3.09398 0.0900452
2.79716 -3.09398 0.0900452
2.81216 -3.09098 0.0900452
2.83116 -3.09298 0.0890452
2.83816 -3.08098 0.0900452
2.86316 -3.08798 0.0890452
2.87216 -3.08798 0.0890452
2.88016 -3.07698 0.0890452
2.89716 -3.07598 0.0890452
2.91916 -3.07898 0.0880452
2.93416 -3.07598 0.0880452
2.94916 -3.07298 0.0880452
2.96816 -3.07198 0.0870452
2.97216 -3.06698 0.0870452
2.98616 -3.06198 0.0870452
3.01116 -3.06798 0.0870452
3.02816 -3.06598 0.0860452
3.04216 -3.06098 0.0860452
3.06016 -3.05898 0.0860452
3.07516 -3.05498 0.0860452
3.09416 -3.06498 0.0850452
3.10516 -3.05598 0.0850452
3.12416 -3.05498 0.0850452
3.13516 -3.04598 0.0850452
3.15316 -3.04498 0.0840452
3.17016 -3.04198 0.0840452
3.19116 -3.04298 0.0840452
3.20416 -3.04598 0.0830452
3.21416 -3.03598 0.0830452
3.24016 -3.04098 0.0830452
3.24516 -3.02598 0.0830452
3.26516 -3.02598 0.0830452
3.30616 -3.02498 0.0820452
3.33516 -3.02298 0.0810452
3.35016 -3.01798 0.0810452
3.36916 -3.01498 0.0810452
3.41016 -3.01398 0.0800452
3.43016 -3.00298 0.0800452
3.44716 -2.99898 0.0800452
4.50816 -2.86298 0.0590452
4.56516 -2.85898 0.0580452
4.57916 -2.84798 0.0580452
4.60316 -2.85198 0.0580452
4.63016 -2.84898 0.0570452
4.65816 -2.84598 0.0560452
4.67416 -2.83498 0.0560452
4.70516 -2.83398 0.0560452
4.74116 -2.83598 0.0550452
4.78216 -2.82898 0.0540452
4.82116 -2.83098 0.0530452
4.83816 -2.82098 0.0530452
4.86316 -2.81498 0.0520452
4.90316 -2.81698 0.0510452
4.91216 -2.80198 0.0510452
4.95216 -2.80398 0.0500452
4.97016 -2.80398 0.0500452
5.01216 -2.80698 0.0490452
5.02116 -2.79098 0.0490452
5.08816 -2.78598 0.0470452
5.12116 -2.78298 0.0470452
5.15716 -2.77198 0.0460452
5.22416 -2.76498 0.0450452
5.27516 -2.77098 0.0430452
5.29816 -2.76098 0.0430452
5.33516 -2.75898 0.0420452
5.41216 -2.74498 0.0410452
5.45116 -2.74298 0.0400452
5.47916 -2.73598 0.0390452
5.52616 -2.73698 0.0380452
5.53416 -2.71998 0.0380452
5.60316 -2.72098 0.0360452
5.65816 -2.70298 0.0350452
5.72916 -2.69298 0.0340452
5.78816 -2.69798 0.0320452
5.82416 -2.69298 0.0310452
5.83216 -2.68498 0.0310452
5.94116 -2.66698 0.0290452
5.99716 -2.66998 0.0280452
6.03116 -2.66198 0.0270452
6.05816 -2.65098 0.0260452
6.17916 -2.64598 0.0230452
6.21716 -2.63898 0.0230452
6.24916 -2.62998 0.0220452
2.02716 -3.19098 0.0770452
4.51716 -2.85598 0.0270452
4.54716 -2.85598 0.0270452
4.62016 -2.84098 0.0250452
4.70016 -2.84098 0.0230452
4.77516 -2.82498 0.0210452
4.87516 -2.81198 0.0180452
4.89716 -2.80498 0.0180452
4.92716 -2.80198 0.0170452
5.06016 -2.78398 0.0140452
5.09716 -2.78398 0.0120452
5.12016 -2.77498 0.0120452
5.18116 -2.76698 0.0100452
5.26116 -2.75698 0.00804516
5.29316 -2.75298 0.00704516
5.50516 -2.72298 0.00204516
5.69516 -2.69598 -0.00295484
5.84016 -2.67598 -0.00695484
5.93516 -2.66298 -0.00995484
5.97416 -2.65898 -0.0109548
6.23516 -2.62498 -0.0179548
0.273161 -3.44198 0.0650452
0.282161 -3.42798 0.0650452
0.315161 -3.42498 0.0650452
0.325161 -3.42198 0.0650452
0.343161 -3.43398 0.0650452
0.363161 -3.42398 0.0650452
0.373161 -3.41698 0.0650452
0.416161 -3.40798 0.0660452
0.453161 -3.40298 0.0660452
0.475161 -3.39998 0.0660452
0.491161 -3.39998 0.0660452
0.514161 -3.40898 0.0650452
0.524161 -3.40298 0.0650452
0.546161 -3.39998 0.0650452
0.552161 -3.40498 0.0650452
0.562161 -3.40098 0.0650452
0.573161 -3.39698 0.0650452
0.584161 -3.39698 0.0650452
0.594161 -3.39398 0.0650452
0.605161 -3.39198 0.0650452
0.616161 -3.39198 0.0650452
0.626161 -3.38998 0.0650452
0.632161 -3.39298 0.0650452
0.642161 -3.38298 0.0650452
0.652161 -3.37898 0.0650452
0.665161 -3.38898 0.0650452
0.674161 -3.37898 0.0650452
0.687161 -3.38998 0.0650452
0.698161 -3.38798 0.0650452
0.701161 -3.37698 0.0650452
0.713161 -3.37898 0.0650452
0.725161 -3.38598 0.0640452
0.734161 -3.37598 0.0650452
0.744161 -3.37198 0.0650452
0.757161 -3.37698 0.0650452
1.85016 -3.22398 0.0550452
1.86516 -3.22698 0.0540452
1.91716 -3.20998 0.0540452
1.93516 -3.21798 0.0530452
1.97216 -3.20998 0.0530452
1.98816 -3.20198 0.0530452
2.00816 -3.21098 0.0520452
2.02016 -3.20798 0.0520452
2.03416 -3.20798 0.0520452
2.04316 -3.19998 0.0520452
2.06416 -3.19898 0.0510452
2.08516 -3.18698 0.0510452
2.10416 -3.19398 0.0510452
2.13716 -3.17898 0.0500452
2.17516 -3.17998 0.0490452
2.19016 -3.18198 0.0490452
2.21416 -3.17298 0.0490452
2.22816 -3.17198 0.0490452
2.25216 -3.17298 0.0480452
2.29216 -3.16598 0.0470452
2.29816 -3.15398 0.0480452
2.32516 -3.15898 0.0470452
2.38216 -3.15198 0.0460452
2.46616 -3.14798 0.0440452
2.49316 -3.14198 0.0430452
2.51616 -3.14098 0.0430452
2.53416 -3.14198 0.0420452
2.54616 -3.13698 0.0420452
2.60416 -3.12698 0.0410452
2.62016 -3.11598 0.0410452
2.65716 -3.11998 0.0400452
2.68316 -3.11098 0.0400452
2.83016 -3.09898 0.0360452
2.88516 -3.07998 0.0350452
2.95216 -3.08298 0.0330452
2.98616 -3.07798 0.0330452
3.07816 -3.06598 0.0300452
3.11216 -3.05998 0.0300452
3.22316 -3.04198 0.0270452
3.26216 -3.02998 0.0260452
5.64416 -2.71598 -0.0429548
5.84116 -2.68598 -0.0499548
6.06816 -2.66398 -0.0569548
6.10916 -2.65898 -0.0589548
6.15016 -2.65398 -0.0599548
6.18616 -2.64598 -0.0609548
0.438161 -3.40498 0.0450452
0.459161 -3.40198 0.0450452
0.497161 -3.40098 0.0450452
0.518161 -3.39898 0.0450452
0.531161 -3.40798 0.0440452
0.545161 -3.39498 0.0450452
0.577161 -3.39198 0.0450452
0.610161 -3.38798 0.0440452
0.625161 -3.38098 0.0450452
0.637161 -3.38698 0.0440452
0.669161 -3.38098 0.0440452
0.679161 -3.37698 0.0440452
0.697161 -3.38398 0.0440452
0.729161 -3.37698 0.0440452
0.738161 -3.36698 0.0440452
0.756161 -3.37298 0.0440452
0.765161 -3.36298 0.0440452
1.83916 -3.22498 0.0320452
1.85316 -3.22598 0.0320452
1.86616 -3.22298 0.0320452
1.87116 -3.22098 0.0320452
1.88216 -3.21598 0.0320452
1.89616 -3.21698 0.0310452
1.91116 -3.21998 0.0310452
1.92016 -3.21198 0.0310452
1.93616 -3.21698 0.0310452
1.94716 -3.21198 0.0310452
1.95516 -3.21398 0.0300452
1.96116 -3.20098 0.0310452
1.98316 -3.21398 0.0300452
1.99316 -3.20798 0.0300452
2.00716 -3.20798 0.0290452
2.01516 -3.19798 0.0290452
2.03316 -3.20398 0.0290452
2.03416 -3.19598 0.0290452
2.04716 -3.19298 0.0290452
2.06216 -3.19498 0.0280452
2.07516 -3.19298 0.0280452
2.09116 -3.19498 0.0280452
2.10016 -3.18698 0.0280452
2.11416 -3.18698 0.0270452
2.12716 -3.19498 0.0270452
2.13616 -3.18698 0.0270452
2.14916 -3.18498 0.0270452
2.16216 -3.18298 0.0260452
2.17316 -3.17798 0.0260452
2.18616 -3.17498 0.0260452
2.20616 -3.18298 0.0250452
2.22616 -3.17998 0.0250452
2.24116 -3.17998 0.0250452
2.25516 -3.17898 0.0240452
2.26816 -3.17598 0.0240452
2.28016 -3.17198 0.0240452
2.29016 -3.16498 0.0240452
2.30016 -3.16698 0.0230452
2.33016 -3.16798 0.0230452
2.34216 -3.16298 0.0230452
2.36616 -3.15298 0.0220452
2.39416 -3.15998 0.0210452
2.41316 -3.14498 0.0210452
2.44516 -3.14498 0.0200452
2.45616 -3.13898 0.0200452
2.48016 -3.14898 0.0190452
2.47716 -3.13598 0.0200452
2.51416 -3.14198 0.0190452
2.53016 -3.14198 0.0180452
2.54216 -3.13498 0.0180452
2.57016 -3.12998 0.0170452
2.58016 -3.13198 0.0170452
2.61016 -3.12798 0.0160452
2.62016 -3.11998 0.0160452
2.65116 -3.11698 0.0160452
2.66416 -3.11398 0.0150452
2.68016 -3.12198 0.0150452
2.71016 -3.11698 0.0140452
2.72616 -3.11598 0.0130452
2.73316 -3.10398 0.0140452
2.75716 -3.11198 0.0130452
2.76816 -3.10498 0.0130452
2.77716 -3.10498 0.0120452
2.79216 -3.10298 0.0120452
2.82216 -3.09698 0.0110452
2.85516 -3.09398 0.0100452
2.88116 -3.09198 0.0100452
2.91216 -3.08698 0.00904516
2.92516 -3.08098 0.00904516
2.94816 -3.08598 0.00804516
2.95516 -3.07398 0.00804516
2.97616 -3.07598 0.00704516
2.98316 -3.07398 0.00704516
3.00116 -3.07398 0.00704516
3.06816 -3.06398 0.00504516
3.12816 -3.05698 0.00304516
3.13616 -3.04598 0.00304516
3.16416 -3.05398 0.00204516
3.23216 -3.03198 4.51601e-05
3.26016 -3.03998 -0.00095484
3.29716 -3.03598 -0.00195484
3.32416 -3.03198 -0.00295484
3.34016 -3.02698 -0.00295484
3.35716 -3.02398 -0.00295484
3.40716 -3.01198 -0.00495484
3.42616 -3.00898 -0.00495484
3.46116 -3.01098 -0.00595484
4.52616 -2.86598 -0.0409548
4.55516 -2.86398 -0.0419548
4.58616 -2.86398 -0.0429548
4.59916 -2.86198 -0.0429548
4.64116 -2.84798 -0.0449548
4.73416 -2.84398 -0.0479548
4.77316 -2.83798 -0.0489548
4.82716 -2.82898 -0.0509548
4.91416 -2.81798 -0.0539548
4.95116 -2.80898 -0.0559548
5.09416 -2.78598 -0.0609548
5.13316 -2.78598 -0.0619548
5.14616 -2.78298 -0.0629548
5.18316 -2.78198 -0.0639548
5.35216 -2.75598 -0.0699548
5.41916 -2.74798 -0.0729548
5.47216 -2.73198 -0.0739548
5.52216 -2.73498 -0.0759548
5.55216 -2.72798 -0.0779548
5.64116 -2.71798 -0.0809548
5.67916 -2.71398 -0.0819548
5.68916 -2.69698 -0.0819548
5.74416 -2.70098 -0.0849548
5.78916 -2.69998 -0.0869548
5.79316 -2.69098 -0.0869548
5.84716 -2.69398 -0.0889548
5.91816 -2.68198 -0.0909548
5.93916 -2.66898 -0.0919548
5.99716 -2.67298 -0.0939548
6.03416 -2.66698 -0.0959548
6.09816 -2.66098 -0.0979548
6.12516 -2.64998 -0.0989548
6.20016 -2.63698 -0.101955
6.24316 -2.63198 -0.103955
2.66916 -3.11198 -0.00895484
2.75116 -3.09598 -0.0109548
2.84516 -3.09198 -0.0139548
2.87116 -3.08198 -0.0139548
2.90016 -3.07398 -0.0149548
2.96016 -3.06898 -0.0169548
3.03216 -3.06498 -0.0189548
3.13616 -3.04298 -0.0219548
3.19616 -3.03298 -0.0239548
3.21816 -3.03498 -0.0249548
3.43516 -3.00198 -0.0319548
4.53816 -2.85698 -0.0719548
4.57716 -2.85098 -0.0729548
4.60116 -2.84598 -0.0739548
4.68816 -2.83898 -0.0779548
4.73416 -2.83598 -0.0799548
4.75816 -2.82998 -0.0809548
4.77916 -2.82198 -0.0809548
4.80916 -2.81898 -0.0829548
4.83116 -2.81198 -0.0829548
4.89416 -2.80698 -0.0859548
4.91616 -2.80898 -0.0869548
4.94916 -2.80798 -0.0879548
4.97516 -2.80198 -0.0889548
5.03816 -2.79498 -0.0919548
5.06316 -2.78798 -0.0929548
5.10816 -2.79198 -0.0949548
5.12516 -2.79098 -0.0959548
5.15716 -2.78698 -0.0969548
5.18716 -2.78198 -0.0979548
5.22016 -2.77898 -0.0999548
5.24116 -2.76898 -0.0999548
5.27116 -2.76298 -0.101955
5.31616 -2.75498 -0.102955
5.35916 -2.75498 -0.104955
5.39616 -2.75298 -0.106955
5.42916 -2.74798 -0.107955
5.46116 -2.74298 -0.109955
5.48416 -2.73298 -0.109955
5.51216 -2.72498 -0.110955
5.55316 -2.73398 -0.112955
5.57716 -2.72398 -0.113955
5.60616 -2.71598 -0.114955
5.63016 -2.70598 -0.115955
5.68616 -2.71098 -0.118955
5.70516 -2.69798 -0.119955
5.76116 -2.70198 -0.121955
5.77216 -2.69598 -0.122955
5.82416 -2.69798 -0.124955
5.84716 -2.68598 -0.125955
5.89916 -2.68798 -0.127955
5.91516 -2.67298 -0.128955
5.96616 -2.67298 -0.130955
6.00016 -2.66498 -0.131955
6.03116 -2.66798 -0.133955
6.05416 -2.65498 -0.134955
6.11016 -2.65698 -0.136955
6.14116 -2.64698 -0.137955
6.19316 -2.64598 -0.140955
6.21416 -2.63198 -0.141955
6.26116 -2.62898 -0.143955
0.336161 -3.41998 0.00304516
0.487161 -3.40698 0.00204516
0.705161 -3.36898 0.00204516
0.754161 -3.36498 0.00204516
1.85416 -3.21498 -0.0129548
1.87316 -3.22498 -0.0139548
1.89216 -3.21198 -0.0139548
1.91016 -3.20798 -0.0139548
1.96116 -3.20098 -0.0149548
2.01316 -3.20598 -0.0169548
2.01816 -3.19298 -0.0169548
2.04616 -3.19198 -0.0179548
2.05816 -3.18898 -0.0179548
2.07616 -3.18398 -0.0179548
2.11716 -3.18098 -0.0189548
2.14316 -3.17598 -0.0199548
2.15216 -3.17898 -0.0199548
2.17816 -3.17398 -0.0209548
2.20316 -3.16898 -0.0209548
2.25516 -3.16898 -0.0229548
2.29216 -3.15698 -0.0239548
2.30416 -3.15298 -0.0239548
2.33916 -3.14898 -0.0249548
2.36716 -3.14598 -0.0259548
2.39616 -3.14198 -0.0269548
2.41116 -3.14298 -0.0269548
2.44616 -3.13598 -0.0279548
2.49016 -3.13198 -0.0289548
2.50216 -3.12698 -0.0299548
2.51116 -3.12798 -0.0299548
2.53016 -3.13098 -0.0309548
2.54116 -3.12498 -0.0309548
2.55416 -3.12098 -0.0309548
2.57416 -3.12598 -0.0319548
2.58416 -3.11698 -0.0319548
2.60616 -3.11398 -0.0329548
2.62116 -3.11198 -0.0329548
2.63816 -3.11298 -0.0339548
2.65716 -3.11598 -0.0349548
2.66616 -3.10598 -0.0349548
2.70116 -3.10698 -0.0359548
2.70316 -3.09998 -0.0359548
2.72616 -3.10698 -0.0369548
2.73716 -3.09898 -0.0369548
2.80016 -3.09198 -0.0389548
2.81116 -3.09498 -0.0399548
2.83216 -3.09798 -0.0399548
2.83616 -3.08298 -0.0399548
2.85616 -3.08598 -0.0409548
2.88416 -3.07598 -0.0419548
2.89916 -3.07298 -0.0419548
2.91216 -3.07698 -0.0429548
2.93016 -3.07698 -0.0429548
2.94516 -3.07398 -0.0439548
2.95616 -3.06598 -0.0439548
2.98416 -3.07498 -0.0449548
2.99316 -3.06598 -0.0449548
3.00816 -3.06198 -0.0459548
3.01716 -3.06198 -0.0459548
3.04116 -3.06598 -0.0469548
3.05116 -3.05698 -0.0469548
3.12116 -3.05098 -0.0499548
3.13316 -3.05298 -0.0499548
3.21716 -3.03798 -0.0529548
3.23516 -3.03598 -0.0539548
3.27316 -3.02398 -0.0549548
3.29316 -3.02298 -0.0559548
3.31616 -3.02498 -0.0569548
3.32716 -3.01598 -0.0569548
3.40916 -3.00398 -0.0599548
4.50416 -2.86298 -0.104955
4.54916 -2.85098 -0.106955
4.57316 -2.84698 -0.107955
5.27116 -2.75598 -0.138955
5.30616 -2.75298 -0.140955
5.33616 -2.74798 -0.141955
5.36916 -2.74398 -0.143955
5.39616 -2.73598 -0.144955
5.41816 -2.73698 -0.145955
5.45016 -2.73098 -0.147955
5.48716 -2.72898 -0.149955
5.54816 -2.71598 -0.151955
5.58416 -2.71198 -0.153955
5.64716 -2.70998 -0.156955
1.91316 -3.21298 -0.0349548
1.92216 -3.20498 -0.0349548
1.94016 -3.21098 -0.0359548
1.94916 -3.20298 -0.0349548
1.96416 -3.20498 -0.0359548
1.97516 -3.21098 -0.0369548
1.98416 -3.20298 -0.0369548
1.99916 -3.20498 -0.0369548
2.01216 -3.20398 -0.0369548
2.03216 -3.19098 -0.0369548
2.07816 -3.18498 -0.0389548
2.09216 -3.18398 -0.0389548
2.10416 -3.17998 -0.0389548
2.12316 -3.18698 -0.0399548
2.14216 -3.18398 -0.0409548
2.15116 -3.17498 -0.0409548
2.16716 -3.17698 -0.0409548
2.17816 -3.17098 -0.0409548
2.19916 -3.18098 -0.0429548
2.20516 -3.16698 -0.0419548
2.22216 -3.16998 -0.0429548
2.22516 -3.16498 -0.0429548
2.23916 -3.16298 -0.0429548
2.25216 -3.16098 -0.0439548
2.27916 -3.17598 -0.0449548
2.28616 -3.16598 -0.0449548
2.29816 -3.16198 -0.0449548
2.31016 -3.15598 -0.0449548
2.32216 -3.16198 -0.0459548
2.33216 -3.15498 -0.0459548
2.35716 -3.14798 -0.0469548
2.37116 -3.14598 -0.0469548
2.38616 -3.14398 -0.0479548
2.40216 -3.14498 -0.0479548
2.42616 -3.14598 -0.0489548
2.45016 -3.13498 -0.0499548
2.47216 -3.14298 -0.0509548
2.48216 -3.13498 -0.0509548
2.50816 -3.13798 -0.0519548
2.52416 -3.13798 -0.0529548
2.55016 -3.12898 -0.0529548
2.57416 -3.11798 -0.0539548
2.59716 -3.12698 -0.0549548
2.61116 -3.11298 -0.0549548
2.64016 -3.12698 -0.0569548
2.64616 -3.11398 -0.0559548
2.65716 -3.10798 -0.0559548
2.71116 -3.10098 -0.0579548
2.72916 -3.10098 -0.0589548
2.74916 -3.10398 -0.0599548
2.76116 -3.09898 -0.0599548
2.77716 -3.09598 -0.0609548
2.80716 -3.09998 -0.0619548
2.82116 -3.09598 -0.0629548
2.82716 -3.08298 -0.0619548
2.84916 -3.08698 -0.0629548
2.86216 -3.08198 -0.0639548
2.88216 -3.08298 -0.0649548
2.89816 -3.08198 -0.0649548
2.90616 -3.07998 -0.0649548
2.92016 -3.07498 -0.0659548
2.94216 -3.07898 -0.0669548
2.96016 -3.07798 -0.0679548
2.97216 -3.07198 -0.0679548
2.98916 -3.06998 -0.0679548
3.01016 -3.07098 -0.0689548
3.00916 -3.06098 -0.0689548
3.03616 -3.06898 -0.0699548
3.07716 -3.05198 -0.0719548
3.09416 -3.04998 -0.0719548
3.11816 -3.05398 -0.0729548
3.12716 -3.05298 -0.0739548
3.14116 -3.04698 -0.0739548
3.15516 -3.04198 -0.0749548
3.17616 -3.04298 -0.0759548
3.19116 -3.03798 -0.0759548
3.22316 -3.02998 -0.0769548
3.23716 -3.03298 -0.0779548
3.25716 -3.03298 -0.0789548
3.28616 -3.02098 -0.0799548
3.30416 -3.01898 -0.0799548
3.34416 -3.01698 -0.0819548
3.35016 -3.01298 -0.0819548
3.37516 -3.01598 -0.0829548
3.40716 -3.00598 -0.0849548
3.43516 -3.01098 -0.0859548
3.45016 -3.00598 -0.0869548
4.53116 -2.85298 -0.134955
4.56016 -2.85098 -0.135955
4.59016 -2.84898 -0.137955
4.61416 -2.84398 -0.138955
4.63816 -2.83898 -0.139955
4.65516 -2.83898 -0.140955
4.69416 -2.84298 -0.142955
4.70516 -2.82898 -0.142955
4.73816 -2.82798 -0.144955
4.76616 -2.82398 -0.145955
4.80716 -2.82898 -0.147955
4.84416 -2.82898 -0.149955
4.91616 -2.81998 -0.153955
4.97216 -2.80998 -0.156955
5.00016 -2.80498 -0.157955
5.03216 -2.80198 -0.159955
5.07816 -2.79698 -0.161955
5.10816 -2.79198 -0.163955
5.16616 -2.78098 -0.165955
5.20116 -2.77898 -0.167955
5.22816 -2.77198 -0.168955
5.24616 -2.77098 -0.169955
5.28116 -2.76898 -0.171955
5.33616 -2.75398 -0.174955
5.43816 -2.73098 -0.179955
5.66416 -2.69998 -0.191955
5.98016 -2.65698 -0.207955
6.06916 -2.64998 -0.212955
6.14616 -2.63698 -0.216955
6.22616 -2.63698 -0.221955
2.34816 -3.15098 -0.0739548
4.51216 -2.85698 -0.170955
4.56316 -2.84998 -0.173955
4.57416 -2.84698 -0.174955
4.60516 -2.84598 -0.175955
4.63516 -2.84498 -0.177955
4.68816 -2.83698 -0.180955
4.70716 -2.82898 -0.181955
4.76716 -2.83398 -0.184955
4.78916 -2.82698 -0.186955
4.81216 -2.82098 -0.187955
4.83816 -2.81598 -0.188955
4.89716 -2.80898 -0.191955
4.92316 -2.80398 -0.193955
4.94516 -2.80598 -0.194955
4.98116 -2.80598 -0.196955
4.99716 -2.79398 -0.197955
5.02816 -2.79098 -0.199955
5.05816 -2.78698 -0.200955
5.08616 -2.78198 -0.202955
5.11216 -2.77498 -0.203955
5.13116 -2.77498 -0.204955
5.17116 -2.77598 -0.207955
5.18716 -2.76398 -0.207955
5.25816 -2.75998 -0.211955
5.31516 -2.74698 -0.215955
5.34416 -2.75198 -0.216955
5.36516 -2.74098 -0.217955
5.39816 -2.73698 -0.219955
5.43716 -2.73598 -0.222955
5.53216 -2.71898 -0.227955
5.55116 -2.71698 -0.228955
5.58316 -2.71098 -0.230955
5.62316 -2.70898 -0.232955
5.65716 -2.70398 -0.234955
5.68916 -2.69698 -0.236955
5.72816 -2.69398 -0.238955
5.78216 -2.68598 -0.242955
5.85516 -2.67598 -0.246955
6.03116 -2.65498 -0.256955
6.19016 -2.63298 -0.266955
0.269161 -3.44498 -0.0589548
0.349161 -3.43398 -0.0589548
0.446161 -3.42098 -0.0579548
1.90716 -3.22498 -0.0799548
1.95216 -3.21898 -0.0819548
2.23616 -3.18098 -0.0909548
2.27116 -3.17598 -0.0919548
2.54916 -3.13898 -0.101955
3.13216 -3.05798 -0.126955
3.28416 -3.03898 -0.133955
4.02216 -2.93198 -0.170955
1.86516 -3.21498 -0.102955
1.89116 -3.21098 -0.103955
1.89816 -3.21198 -0.103955
1.91716 -3.22098 -0.104955
1.92716 -3.21498 -0.104955
1.94716 -3.20298 -0.104955
1.96016 -3.20198 -0.105955
1.99516 -3.20198 -0.106955
2.00716 -3.19898 -0.107955
2.03416 -3.19798 -0.108955
2.05516 -3.18698 -0.108955
2.06316 -3.18698 -0.108955
2.08016 -3.19198 -0.109955
2.09716 -3.19598 -0.110955
2.10816 -3.19098 -0.110955
2.13416 -3.18798 -0.111955
2.15116 -3.18098 -0.112955
2.18116 -3.18198 -0.113955
2.20716 -3.17698 -0.114955
2.22016 -3.17498 -0.114955
2.23316 -3.17098 -0.115955
2.23616 -3.16598 -0.115955
2.25316 -3.16898 -0.116955
2.26716 -3.16598 -0.116955
2.28016 -3.16398 -0.117955
2.30016 -3.17098 -0.118955
2.30316 -3.15498 -0.117955
2.31916 -3.15498 -0.118955
2.33016 -3.15998 -0.119955
2.34016 -3.15198 -0.119955
2.35816 -3.15598 -0.120955
2.37316 -3.15498 -0.120955
2.38016 -3.14498 -0.120955
2.41316 -3.14698 -0.122955
2.42216 -3.14798 -0.122955
2.44016 -3.15198 -0.123955
2.45616 -3.15198 -0.124955
2.46616 -3.14398 -0.124955
2.47916 -3.14098 -0.125955
2.49216 -3.13598 -0.125955
2.50916 -3.13798 -0.126955
2.52116 -3.14298 -0.127955
2.53316 -3.13698 -0.127955
2.54416 -3.13098 -0.127955
2.55816 -3.12898 -0.128955
2.57616 -3.12998 -0.129955
2.58316 -3.11898 -0.129955
2.60616 -3.12598 -0.130955
2.61616 -3.12798 -0.131955
2.62716 -3.12098 -0.131955
2.64416 -3.12198 -0.132955
2.65916 -3.11998 -0.133955
2.67416 -3.11798 -0.133955
2.69016 -3.11698 -0.134955
2.70616 -3.11598 -0.135955
2.71016 -3.10998 -0.135955
2.72916 -3.11198 -0.136955
2.74116 -3.10698 -0.136955
2.75016 -3.09698 -0.136955
2.77316 -3.10298 -0.137955
2.78616 -3.09898 -0.138955
2.80516 -3.09998 -0.139955
2.81716 -3.10298 -0.140955
2.85916 -3.09098 -0.141955
2.86816 -3.08098 -0.141955
2.89116 -3.08598 -0.143955
2.90616 -3.08298 -0.144955
2.91416 -3.08198 -0.144955
2.92916 -3.07798 -0.145955
2.96516 -3.07698 -0.146955
2.99616 -3.07098 -0.148955
3.01716 -3.07298 -0.149955
3.02716 -3.07398 -0.150955
3.04016 -3.06798 -0.150955
3.06116 -3.06898 -0.151955
3.07716 -3.06698 -0.152955
3.08816 -3.05898 -0.152955
3.11116 -3.06198 -0.154955
3.11916 -3.04998 -0.154955
3.13816 -3.05898 -0.155955
3.15316 -3.05498 -0.156955
3.16316 -3.04498 -0.156955
3.18116 -3.04398 -0.157955
3.20216 -3.04498 -0.158955
3.21916 -3.04098 -0.159955
3.24116 -3.04398 -0.160955
3.26616 -3.03798 -0.161955
3.28016 -3.03198 -0.162955
3.31616 -3.02698 -0.164955
3.33716 -3.02798 -0.165955
3.35916 -3.01898 -0.166955
3.37716 -3.01598 -0.167955
3.42116 -3.01698 -0.170955
3.44116 -3.01598 -0.171955
3.46116 -3.01398 -0.172955
4.16416 -2.92098 -0.212955
4.31716 -2.89898 -0.221955
4.44616 -2.87698 -0.229955
4.48316 -2.87098 -0.231955
4.53516 -2.86398 -0.234955
4.59016 -2.85898 -0.237955
4.60416 -2.84798 -0.238955
4.63316 -2.84598 -0.240955
4.65116 -2.84698 -0.241955
4.69916 -2.83598 -0.244955
4.72416 -2.83098 -0.245955
4.75116 -2.82698 -0.247955
4.77516 -2.82198 -0.249955
4.80716 -2.81998 -0.251955
4.83316 -2.82498 -0.253955
4.86816 -2.82498 -0.255955
4.88916 -2.81698 -0.256955
4.92016 -2.81498 -0.258955
4.93916 -2.80498 -0.259955
4.96016 -2.79598 -0.261955
4.99316 -2.79498 -0.263955
5.02216 -2.79998 -0.265955
5.07816 -2.78998 -0.269955
5.13916 -2.78198 -0.273955
5.18816 -2.76698 -0.275955
5.23616 -2.76098 -0.279955
5.29816 -2.75098 -0.283955
5.41416 -2.74798 -0.291955
5.41416 -2.73698 -0.290955
5.47116 -2.74498 -0.295955
5.48116 -2.72798 -0.295955
5.53316 -2.73198 -0.299955
5.56616 -2.72698 -0.301955
5.60016 -2.72198 -0.303955
5.63216 -2.71598 -0.305955
5.65016 -2.71398 -0.307955
5.68216 -2.70798 -0.309955
5.72116 -2.70398 -0.311955
5.75016 -2.69598 -0.313955
5.79416 -2.69498 -0.316955
5.82616 -2.68698 -0.318955
5.85816 -2.67998 -0.321955
5.89116 -2.68398 -0.323955
5.93216 -2.67998 -0.326955
5.95916 -2.66998 -0.328955
5.98916 -2.66098 -0.329955
6.03016 -2.65698 -0.332955
6.06616 -2.64998 -0.335955
6.10916 -2.64598 -0.338955
6.13816 -2.64798 -0.340955
6.21916 -2.63698 -0.346955
2.02416 -3.19298 -0.129955
2.05816 -3.19198 -0.130955
2.08316 -3.18498 -0.131955
2.09816 -3.18698 -0.132955
2.11016 -3.18198 -0.132955
2.11816 -3.18398 -0.133955
2.14116 -3.17498 -0.133955
2.22116 -3.17398 -0.137955
2.23516 -3.17098 -0.137955
2.28716 -3.16098 -0.139955
2.29516 -3.15998 -0.140955
2.33416 -3.15098 -0.141955
2.36316 -3.14898 -0.142955
2.37816 -3.14798 -0.143955
2.39316 -3.15698 -0.144955
2.39816 -3.14298 -0.144955
2.42816 -3.14198 -0.145955
2.44316 -3.14098 -0.146955
2.47016 -3.13498 -0.147955
2.47816 -3.13398 -0.147955
2.49416 -3.13398 -0.148955
2.51016 -3.13398 -0.149955
2.52216 -3.12898 -0.149955
2.53716 -3.12698 -0.150955
2.55116 -3.12398 -0.151955
2.56616 -3.12198 -0.151955
2.58916 -3.12098 -0.152955
2.60816 -3.12298 -0.154955
2.62616 -3.12398 -0.155955
2.63516 -3.11598 -0.155955
2.66516 -3.11098 -0.156955
2.67216 -3.10798 -0.156955
2.69216 -3.11198 -0.158955
2.70616 -3.10798 -0.158955
2.72116 -3.10498 -0.159955
2.73816 -3.10598 -0.160955
2.75316 -3.10298 -0.161955
2.76616 -3.09698 -0.161955
2.77616 -3.09898 -0.162955
2.79916 -3.10498 -0.163955
2.81216 -3.09898 -0.164955
2.82116 -3.08998 -0.164955
2.83916 -3.08998 -0.165955
2.84816 -3.07998 -0.164955
2.87616 -3.09098 -0.167955
2.88516 -3.09098 -0.167955
2.90016 -3.08798 -0.168955
2.91216 -3.07998 -0.168955
2.92916 -3.07898 -0.169955
2.94916 -3.07998 -0.170955
2.96816 -3.08098 -0.172955
2.97216 -3.06598 -0.171955
2.98616 -3.06998 -0.172955
3.00516 -3.06998 -0.173955
3.01616 -3.06198 -0.173955
3.03116 -3.05798 -0.174955
3.05616 -3.06398 -0.176955
3.08316 -3.05198 -0.177955
3.09316 -3.05298 -0.177955
3.11716 -3.05698 -0.179955
3.13216 -3.05198 -0.180955
3.14816 -3.04798 -0.181955
3.16616 -3.04598 -0.182955
3.18116 -3.04198 -0.182955
3.20716 -3.04698 -0.184955
3.20916 -3.03898 -0.184955
3.22316 -3.03298 -0.184955
3.24516 -3.03498 -0.186955
3.25816 -3.02798 -0.186955
3.27816 -3.02698 -0.187955
3.29916 -3.02698 -0.189955
3.32116 -3.01798 -0.190955
3.34616 -3.02198 -0.192955
3.36216 -3.01698 -0.192955
3.40216 -3.01398 -0.195955
3.45416 -3.01198 -0.198955
3.47216 -3.00898 -0.199955
3.53316 -3.00298 -0.203955
3.54716 -2.99598 -0.203955
3.57016 -2.99598 -0.205955
3.57316 -2.98898 -0.204955
3.60916 -2.98098 -0.206955
3.62716 -2.97698 -0.207955
3.64816 -2.97398 -0.208955
3.67116 -2.97398 -0.210955
3.69616 -2.97498 -0.212955
3.70816 -2.97498 -0.213955
3.72416 -2.96898 -0.213955
3.73916 -2.96198 -0.214955
3.78816 -2.96098 -0.217955
3.80516 -2.95498 -0.218955
3.82416 -2.95098 -0.219955
3.84316 -2.95598 -0.221955
3.87316 -2.95898 -0.223955
3.88416 -2.94798 -0.223955
3.90216 -2.94298 -0.224955
3.92316 -2.93898 -0.225955
3.94716 -2.93698 -0.227955
3.97516 -2.93898 -0.229955
3.98016 -2.93298 -0.229955
4.00016 -2.92898 -0.230955
4.01916 -2.92298 -0.231955
4.04416 -2.92198 -0.233955
4.09516 -2.91898 -0.236955
4.10916 -2.90998 -0.237955
4.12516 -2.91098 -0.238955
4.16216 -2.91798 -0.241955
4.18816 -2.91598 -0.243955
4.19516 -2.90198 -0.242955
4.21616 -2.89598 -0.244955
4.24516 -2.89598 -0.246955
4.27216 -2.89498 -0.248955
4.28016 -2.89098 -0.248955
4.31116 -2.89198 -0.250955
4.33316 -2.88698 -0.251955
4.36016 -2.88498 -0.253955
4.39316 -2.88698 -0.256955
4.41216 -2.87898 -0.257955
4.42816 -2.86998 -0.257955
4.44116 -2.86798 -0.258955
4.47016 -2.86698 -0.260955
4.51816 -2.85798 -0.263955
4.55116 -2.85898 -0.266955
4.56816 -2.84898 -0.267955
4.59416 -2.84498 -0.268955
4.63616 -2.84098 -0.271955
4.66616 -2.83898 -0.273955
4.71816 -2.82998 -0.277955
4.75116 -2.82898 -0.279955
4.77016 -2.82098 -0.280955
4.78516 -2.81898 -0.281955
4.82816 -2.82398 -0.285955
4.85116 -2.81698 -0.286955
4.88416 -2.81498 -0.289955
4.91216 -2.81098 -0.290955
4.95916 -2.79598 -0.293955
4.98916 -2.80298 -0.296955
5.02216 -2.80098 -0.298955
5.04316 -2.79198 -0.299955
5.07116 -2.78598 -0.301955
5.10516 -2.78398 -0.304955
5.14716 -2.78498 -0.307955
5.22316 -2.77398 -0.312955
5.25716 -2.76998 -0.315955
5.28116 -2.76198 -0.316955
5.30416 -2.75298 -0.318955
5.34116 -2.74998 -0.320955
5.37816 -2.74798 -0.323955
5.39016 -2.74298 -0.324955
5.43716 -2.74598 -0.328955
5.47316 -2.74198 -0.330955
5.50516 -2.73598 -0.332955
5.53516 -2.72898 -0.334955
5.57016 -2.72498 -0.337955
5.59316 -2.71398 -0.338955
5.63016 -2.72098 -0.341955
5.66216 -2.71398 -0.344955
5.68116 -2.70198 -0.345955
5.73116 -2.70298 -0.349955
5.77916 -2.70398 -0.352955
5.83816 -2.68598 -0.356955
5.93316 -2.67398 -0.363955
5.98516 -2.67398 -0.367955
6.02716 -2.66998 -0.371955
6.05516 -2.65998 -0.372955
6.08716 -2.65098 -0.375955
6.15616 -2.64598 -0.380955
6.17916 -2.63298 -0.381955
6.23616 -2.63398 -0.386955
2.52016 -3.12398 -0.173955
2.53516 -3.12198 -0.174955
2.55816 -3.12098 -0.175955
2.64216 -3.11298 -0.179955
2.96116 -3.06698 -0.196955
2.99316 -3.06098 -0.198955
3.04516 -3.05698 -0.201955
3.08716 -3.05098 -0.203955
3.70316 -2.98198 -0.241955
3.76416 -2.97298 -0.245955
3.81216 -2.96298 -0.248955
3.84216 -2.94698 -0.249955
3.88316 -2.93998 -0.252955
3.91516 -2.93598 -0.254955
3.94016 -2.93598 -0.256955
3.96216 -2.93298 -0.257955
4.00216 -2.92398 -0.260955
4.15616 -2.90898 -0.270955
4.17516 -2.90298 -0.272955
4.20616 -2.90498 -0.274955
4.21516 -2.90098 -0.274955
4.23416 -2.89498 -0.276955
4.25616 -2.89098 -0.277955
4.30416 -2.88398 -0.280955
4.33016 -2.88198 -0.282955
4.35216 -2.87698 -0.284955
4.37116 -2.87998 -0.285955
4.39416 -2.87498 -0.287955
4.44216 -2.86698 -0.290955
4.46416 -2.86198 -0.291955
4.53516 -2.85698 -0.297955
4.58516 -2.84898 -0.300955
4.69016 -2.83398 -0.308955
4.71016 -2.83598 -0.309955
4.73416 -2.82998 -0.311955
4.75816 -2.82398 -0.313955
4.78216 -2.81898 -0.314955
4.84016 -2.81198 -0.319955
4.86916 -2.80898 -0.321955
4.88916 -2.80998 -0.322955
4.92216 -2.80898 -0.325955
4.95016 -2.80398 -0.327955
4.96916 -2.79398 -0.328955
5.01116 -2.79698 -0.332955
5.03216 -2.78798 -0.333955
5.05816 -2.78198 -0.335955
5.08116 -2.78498 -0.337955
5.14116 -2.77598 -0.341955
5.17616 -2.77398 -0.344955
5.19616 -2.76398 -0.345955
5.23516 -2.76398 -0.348955
5.28016 -2.75598 -0.352955
5.30816 -2.74898 -0.354955
5.34516 -2.74698 -0.356955
5.37416 -2.74098 -0.359955
5.40616 -2.73598 -0.361955
5.44116 -2.73298 -0.364955
5.47316 -2.72698 -0.366955
5.49316 -2.72698 -0.368955
5.52316 -2.71998 -0.370955
5.56616 -2.71998 -0.373955
5.62716 -2.70598 -0.378955
5.66316 -2.70198 -0.381955
5.73316 -2.70198 -0.387955
5.82716 -2.67998 -0.394955
5.95616 -2.66098 -0.404955
6.03616 -2.65198 -0.410955
5.08516 -2.77998 -0.374955
5.66416 -2.70098 -0.421955
0.733161 -3.36998 -0.188955
0.912161 -3.34598 -0.190955
2.14316 -3.17698 -0.230955
2.23016 -3.16298 -0.234955
2.32116 -3.15398 -0.239955
2.39116 -3.14298 -0.243955
2.43016 -3.14298 -0.246955
2.44316 -3.13898 -0.246955
2.45716 -3.13698 -0.247955
2.48816 -3.13598 -0.249955
2.52016 -3.12498 -0.250955
2.53416 -3.12198 -0.251955
2.55816 -3.13098 -0.254955
2.58016 -3.11798 -0.254955
2.60716 -3.12098 -0.256955
2.63516 -3.11298 -0.258955
2.69916 -3.10798 -0.262955
2.70216 -3.10298 -0.262955
2.72016 -3.10298 -0.263955
2.73216 -3.09798 -0.263955
2.77016 -3.10098 -0.266955
2.78316 -3.09498 -0.267955
2.80816 -3.10398 -0.269955
2.80116 -3.08598 -0.267955
2.81916 -3.08598 -0.269955
2.83416 -3.08298 -0.270955
2.85216 -3.08298 -0.271955
2.88416 -3.07798 -0.273955
2.90116 -3.07798 -0.274955
2.90816 -3.07498 -0.275955
2.92116 -3.06998 -0.275955
2.94316 -3.07298 -0.277955
3.01016 -3.06398 -0.282955
3.01316 -3.05798 -0.281955
3.04016 -3.06598 -0.284955
3.05616 -3.06298 -0.285955
3.07616 -3.06298 -0.287955
3.11416 -3.06198 -0.290955
3.11616 -3.04498 -0.288955
3.13116 -3.04998 -0.290955
3.14816 -3.04698 -0.291955
3.16916 -3.04798 -0.293955
3.18016 -3.03898 -0.293955
3.20116 -3.03998 -0.295955
3.21316 -3.03298 -0.295955
3.23216 -3.03098 -0.297955
3.26616 -3.03398 -0.300955
3.28916 -3.03598 -0.302955
3.29616 -3.02298 -0.301955
3.31816 -3.02498 -0.303955
3.33416 -3.01998 -0.304955
3.35216 -3.01698 -0.305955
3.36116 -3.01598 -0.306955
3.38416 -3.01698 -0.308955
3.40716 -3.01798 -0.310955
3.42716 -3.01598 -0.312955
3.44116 -3.00998 -0.312955
3.45816 -3.00498 -0.313955
3.48116 -3.00598 -0.315955
3.48116 -2.99698 -0.315955
3.50716 -2.99998 -0.317955
3.52916 -2.99898 -0.319955
3.54616 -2.99398 -0.320955
3.56316 -2.98898 -0.321955
3.58516 -2.98798 -0.323955
3.60216 -2.98298 -0.324955
3.62016 -2.98898 -0.326955
3.63416 -2.98098 -0.327955
3.65516 -2.97898 -0.328955
3.68316 -2.98198 -0.331955
3.71416 -2.96898 -0.333955
3.72916 -2.96198 -0.333955
3.75016 -2.96798 -0.336955
3.79216 -2.96298 -0.339955
3.81216 -2.95998 -0.340955
3.84216 -2.96298 -0.343955
3.85716 -2.95598 -0.344955
3.86816 -2.94498 -0.344955
3.88916 -2.95098 -0.347955
3.93016 -2.94298 -0.350955
3.95316 -2.94098 -0.352955
3.96916 -2.93298 -0.353955
3.99916 -2.93598 -0.355955
4.02016 -2.93198 -0.357955
4.03516 -2.93398 -0.359955
4.06216 -2.93398 -0.361955
4.08516 -2.92998 -0.363955
4.10016 -2.92198 -0.364955
4.14116 -2.91198 -0.367955
4.17716 -2.91698 -0.370955
4.17616 -2.90698 -0.370955
4.23716 -2.90998 -0.375955
4.26016 -2.90498 -0.377955
4.28416 -2.90198 -0.379955
4.30616 -2.89698 -0.381955
4.31816 -2.88598 -0.381955
4.36516 -2.88698 -0.386955
4.41216 -2.87798 -0.389955
4.44616 -2.87998 -0.393955
4.46316 -2.87198 -0.394955
4.51416 -2.87398 -0.399955
4.54116 -2.87098 -0.401955
4.56416 -2.86498 -0.403955
4.61416 -2.85598 -0.407955
4.64616 -2.85598 -0.410955
4.66416 -2.84698 -0.411955
4.70816 -2.84298 -0.415955
4.74116 -2.84298 -0.418955
4.75116 -2.82898 -0.418955
4.82116 -2.82898 -0.425955
4.85416 -2.82698 -0.428955
4.86016 -2.82098 -0.428955
4.89616 -2.82098 -0.432955
4.90916 -2.80798 -0.432955
