3.42025 -2.99898 -0.338605
3.44725 -3.00398 -0.341605
3.50125 -2.99398 -0.345605
3.53625 -2.99498 -0.348605
3.55925 -2.99598 -0.350605
3.57625 -2.99098 -0.351605
3.59025 -2.98398 -0.352605
3.61225 -2.98198 -0.354605
3.62725 -2.97598 -0.355605
3.65225 -2.97698 -0.357605
3.67125 -2.97298 -0.358605
3.67825 -2.96998 -0.359605
3.70025 -2.96898 -0.361605
3.72825 -2.97198 -0.363605
3.78525 -2.95998 -0.368605
3.81325 -2.95298 -0.370605
3.85525 -2.96698 -0.375605
3.86825 -2.95698 -0.375605
3.90525 -2.94698 -0.378605
3.96525 -2.94398 -0.383605
3.98425 -2.93898 -0.385605
4.00925 -2.93798 -0.387605
4.02325 -2.92898 -0.388605
4.10525 -2.91998 -0.395605
4.12525 -2.91598 -0.397605
4.15425 -2.91598 -0.400605
4.20025 -2.90998 -0.403605
5.01925 -2.81198 -0.479605
5.25525 -2.78398 -0.502605
1.79225 -3.20498 -0.257605
2.32825 -3.14398 -0.286605
2.41425 -3.13398 -0.291605
2.43625 -3.13198 -0.293605
2.67525 -3.10198 -0.309605
2.72825 -3.09398 -0.312605
2.77825 -3.09098 -0.316605
2.80325 -3.07898 -0.317605
2.83525 -3.08498 -0.320605
2.86425 -3.07698 -0.322605
2.93725 -3.06798 -0.327605
2.97225 -3.06498 -0.330605
3.02225 -3.05798 -0.334605
3.05025 -3.05798 -0.336605
3.08225 -3.05098 -0.338605
3.09925 -3.04798 -0.339605
3.11625 -3.04498 -0.341605
3.14825 -3.04798 -0.344605
3.16425 -3.04398 -0.345605
3.30225 -3.02998 -0.356605
3.31525 -3.02198 -0.356605
3.35725 -3.02198 -0.360605
3.37725 -3.02098 -0.362605
3.40325 -3.01598 -0.364605
3.46325 -3.01098 -0.369605
3.48525 -3.00998 -0.371605
3.50225 -3.00498 -0.372605
3.51325 -3.00498 -0.373605
3.55125 -2.99898 -0.376605
3.56825 -2.99498 -0.378605
3.58425 -2.98798 -0.379605
3.60725 -2.98798 -0.381605
3.62925 -2.98698 -0.383605
3.66625 -2.98898 -0.386605
3.70625 -2.98298 -0.390605
3.72825 -2.98098 -0.392605
3.73825 -2.96898 -0.392605
3.76925 -2.96498 -0.394605
3.81925 -2.96598 -0.399605
3.86325 -2.96098 -0.403605
3.88125 -2.95598 -0.405605
3.88625 -2.94998 -0.405605
3.92125 -2.95598 -0.409605
3.93625 -2.94898 -0.410605
3.96525 -2.95098 -0.413605
3.97225 -2.93698 -0.412605
4.00325 -2.93998 -0.415605
4.02625 -2.93698 -0.418605
4.03925 -2.93698 -0.419605
4.06125 -2.93298 -0.421605
4.07325 -2.92298 -0.421605
4.11325 -2.93198 -0.426605
4.12825 -2.92198 -0.427605
4.15125 -2.91998 -0.429605
4.17425 -2.91598 -0.431605
4.22525 -2.92198 -0.436605
4.23925 -2.91198 -0.437605
4.25625 -2.90398 -0.438605
4.28025 -2.89998 -0.441605
4.31425 -2.90398 -0.444605
4.36225 -2.89598 -0.449605
4.37225 -2.89198 -0.449605
4.39225 -2.88598 -0.451605
4.41825 -2.88298 -0.453605
4.45125 -2.88398 -0.457605
4.52025 -2.86898 -0.463605
4.56525 -2.86698 -0.468605
4.67025 -2.85198 -0.478605
4.72525 -2.85398 -0.483605
4.74225 -2.84398 -0.485605
4.77025 -2.83998 -0.487605
4.80325 -2.83898 -0.491605
4.83225 -2.83598 -0.494605
4.90525 -2.82698 -0.501605
4.93425 -2.82298 -0.504605
4.97225 -2.82398 -0.508605
5.05625 -2.80898 -0.516605
5.08825 -2.80498 -0.519605
5.10425 -2.80398 -0.521605
5.13425 -2.79898 -0.524605
5.16925 -2.79698 -0.527605
5.19925 -2.79198 -0.530605
5.26425 -2.78398 -0.537605
5.34425 -2.77298 -0.545605
5.41225 -2.76498 -0.552605
5.53325 -2.74998 -0.564605
5.57025 -2.74598 -0.568605
0.049254 -3.40998 -0.266605
0.065254 -3.40698 -0.266605
0.086254 -3.40098 -0.265605
0.113254 -3.39998 -0.265605
0.124254 -3.40198 -0.265605
0.214254 -3.38898 -0.264605
0.272254 -3.37898 -0.263605
0.282254 -3.37598 -0.263605
0.294254 -3.38198 -0.264605
0.325254 -3.37298 -0.263605
0.341254 -3.37498 -0.264605
0.372254 -3.36798 -0.263605
0.383254 -3.36298 -0.263605
0.393254 -3.35698 -0.262605
0.409254 -3.35798 -0.262605
0.420254 -3.36398 -0.263605
0.441254 -3.35898 -0.263605
0.452254 -3.35998 -0.263605
0.489254 -3.35298 -0.263605
0.569254 -3.34998 -0.265605
0.589254 -3.34098 -0.264605
0.606254 -3.34198 -0.264605
0.729254 -3.32898 -0.266605
0.756254 -3.32698 -0.266605
0.928254 -3.30798 -0.270605
0.950254 -3.30598 -0.270605
1.06925 -3.28598 -0.272605
1.08225 -3.28998 -0.273605
1.13025 -3.27998 -0.274605
1.13925 -3.27298 -0.274605
1.15225 -3.27698 -0.275605
1.16425 -3.27898 -0.275605
1.16825 -3.27298 -0.275605
1.19225 -3.27298 -0.276605
1.21625 -3.27498 -0.277605
1.23425 -3.26198 -0.277605
1.25425 -3.26698 -0.278605
1.27625 -3.26498 -0.279605
1.28825 -3.26398 -0.279605
1.29825 -3.25798 -0.279605
1.31625 -3.25898 -0.280605
1.35025 -3.25398 -0.281605
1.35825 -3.24598 -0.281605
1.38225 -3.24498 -0.282605
1.38925 -3.24598 -0.282605
1.40025 -3.24398 -0.283605
1.42325 -3.24198 -0.284605
1.44425 -3.23298 -0.284605
1.46025 -3.24098 -0.286605
1.46525 -3.24098 -0.286605
1.47625 -3.23798 -0.286605
1.48725 -3.23498 -0.286605
1.51125 -3.23298 -0.287605
1.52325 -3.23198 -0.288605
1.53725 -3.23398 -0.289605
1.54325 -3.23298 -0.289605
1.55225 -3.22698 -0.289605
1.56525 -3.22898 -0.290605
1.57625 -3.22398 -0.290605
1.60225 -3.22598 -0.292605
1.61625 -3.21498 -0.292605
1.64125 -3.21598 -0.293605
1.65425 -3.21598 -0.294605
1.66725 -3.21598 -0.295605
1.67425 -3.20498 -0.294605
1.69025 -3.21098 -0.296605
1.69925 -3.21498 -0.297605
1.71225 -3.21498 -0.297605
1.72325 -3.21098 -0.298605
1.74825 -3.20898 -0.299605
1.75925 -3.20498 -0.299605
1.77025 -3.20098 -0.300605
1.78825 -3.19798 -0.300605
1.81525 -3.19898 -0.302605
1.82925 -3.19998 -0.303605
1.84225 -3.19898 -0.304605
1.85425 -3.19698 -0.305605
1.85925 -3.19398 -0.305605
1.88125 -3.18598 -0.305605
1.89525 -3.18698 -0.306605
1.90925 -3.18698 -0.307605
1.93425 -3.18398 -0.309605
2.00625 -3.17698 -0.313605
2.42725 -3.13098 -0.340605
2.45625 -3.12798 -0.343605
2.47225 -3.12798 -0.344605
2.50625 -3.11898 -0.346605
2.55425 -3.11798 -0.350605
2.58125 -3.11098 -0.351605
2.68225 -3.10098 -0.359605
2.76825 -3.09098 -0.366605
2.77625 -3.08898 -0.366605
2.79025 -3.08498 -0.367605
2.80925 -3.08598 -0.369605
2.82425 -3.08298 -0.370605
2.83825 -3.07898 -0.371605
2.85025 -3.07298 -0.371605
2.87225 -3.07698 -0.374605
2.87525 -3.07098 -0.374605
2.89025 -3.06798 -0.375605
2.93025 -3.07098 -0.379605
2.94525 -3.06698 -0.380605
2.97925 -3.06298 -0.382605
2.98925 -3.06398 -0.383605
3.00725 -3.06298 -0.385605
3.02425 -3.05998 -0.386605
3.03225 -3.04898 -0.386605
3.05525 -3.05398 -0.389605
3.07625 -3.05498 -0.391605
3.09625 -3.05498 -0.393605
3.11025 -3.04998 -0.394605
3.11325 -3.04298 -0.393605
3.13825 -3.04898 -0.396605
3.15425 -3.04398 -0.397605
3.16525 -3.03598 -0.398605
3.18625 -3.03698 -0.400605
3.20225 -3.03298 -0.401605
3.21425 -3.03498 -0.402605
3.22825 -3.02898 -0.403605
3.26625 -3.02598 -0.407605
3.29325 -3.03198 -0.410605
3.30725 -3.02498 -0.411605
3.32725 -3.02398 -0.413605
3.33625 -3.02298 -0.413605
3.37625 -3.01998 -0.417605
3.39625 -3.01898 -0.419605
3.41025 -3.01198 -0.420605
3.42825 -3.00898 -0.421605
3.46025 -3.00898 -0.425605
3.60125 -2.99298 -0.438605
3.65025 -2.98598 -0.442605
3.67225 -2.98498 -0.444605
3.87825 -2.96298 -0.464605
4.02425 -2.93698 -0.478605
4.07225 -2.93198 -0.483605
4.10025 -2.93298 -0.486605
4.12325 -2.92898 -0.488605
4.14525 -2.92498 -0.490605
4.15125 -2.91998 -0.491605
4.21225 -2.92298 -0.498605
4.23725 -2.92098 -0.500605
4.26925 -2.90298 -0.502605
4.30225 -2.90598 -0.506605
4.33525 -2.90798 -0.510605
4.34625 -2.90498 -0.511605
4.39625 -2.89898 -0.516605
4.42625 -2.89898 -0.520605
4.44525 -2.89098 -0.521605
4.47825 -2.89198 -0.525605
4.49225 -2.88098 -0.526605
4.53925 -2.88098 -0.531605
4.58925 -2.87298 -0.536605
4.63225 -2.85898 -0.540605
4.68225 -2.86898 -0.547605
4.69025 -2.86398 -0.547605
4.71125 -2.85598 -0.549605
4.75025 -2.85998 -0.554605
4.77125 -2.85198 -0.556605
4.80825 -2.85298 -0.560605
4.82725 -2.84398 -0.562605
4.85625 -2.84098 -0.565605
4.88125 -2.84498 -0.568605
4.89725 -2.83298 -0.569605
4.96725 -2.83198 -0.577605
4.98825 -2.82298 -0.579605
5.03325 -2.82698 -0.585605
5.04425 -2.82298 -0.586605
5.07925 -2.82198 -0.590605
5.10725 -2.81598 -0.593605
5.13925 -2.81298 -0.596605
5.17525 -2.81098 -0.600605
5.31525 -2.78998 -0.616605
5.38525 -2.78398 -0.624605
5.41225 -2.77598 -0.626605
5.43325 -2.76498 -0.628605
5.47525 -2.76498 -0.633605
5.49725 -2.76498 -0.636605
5.53425 -2.76198 -0.640605
5.57025 -2.75698 -0.644605
5.60025 -2.74998 -0.647605
5.63525 -2.74598 -0.651605
5.66925 -2.73998 -0.655605
5.70025 -2.73298 -0.659605
5.72625 -2.73398 -0.662605
5.76725 -2.73098 -0.667605
5.79725 -2.72298 -0.670605
5.83125 -2.71698 -0.674605
5.86625 -2.71098 -0.678605
0.032254 -3.40898 -0.289605
0.053254 -3.40698 -0.289605
0.064254 -3.40598 -0.289605
0.085254 -3.39798 -0.288605
0.112254 -3.39698 -0.288605
0.122254 -3.39498 -0.288605
0.133254 -3.39498 -0.288605
0.144254 -3.39398 -0.288605
0.154254 -3.38798 -0.287605
0.165254 -3.38498 -0.286605
0.176254 -3.39298 -0.288605
0.181254 -3.39398 -0.288605
0.191254 -3.37998 -0.286605
0.202254 -3.38698 -0.287605
0.212254 -3.37498 -0.285605
0.223254 -3.37198 -0.285605
0.234254 -3.38498 -0.287605
0.244254 -3.37598 -0.286605
0.250254 -3.37798 -0.286605
0.260254 -3.37898 -0.286605
0.281254 -3.37198 -0.286605
0.292254 -3.37498 -0.286605
0.303254 -3.37398 -0.286605
0.318254 -3.36798 -0.286605
0.329254 -3.36898 -0.286605
0.339254 -3.35998 -0.285605
0.349254 -3.35898 -0.285605
0.361254 -3.36998 -0.286605
0.382254 -3.36398 -0.286605
0.387254 -3.35698 -0.285605
0.398254 -3.36798 -0.287605
0.409254 -3.36498 -0.286605
0.420254 -3.36498 -0.287605
0.430254 -3.36198 -0.286605
0.440254 -3.35898 -0.286605
0.451254 -3.36098 -0.287605
0.457254 -3.36198 -0.287605
0.467254 -3.35698 -0.286605
0.487254 -3.34798 -0.286605
0.498254 -3.34698 -0.286605
0.519254 -3.34498 -0.286605
0.525254 -3.35198 -0.287605
0.536254 -3.35098 -0.287605
0.556254 -3.34098 -0.286605
0.578254 -3.34598 -0.287605
0.589254 -3.34398 -0.287605
0.595254 -3.34698 -0.288605
0.615254 -3.33698 -0.287605
0.637254 -3.33898 -0.288605
0.664254 -3.33798 -0.288605
0.685254 -3.33498 -0.289605
0.695254 -3.33298 -0.289605
0.704254 -3.32098 -0.287605
0.733254 -3.33098 -0.290605
0.796254 -3.31698 -0.290605
0.835254 -3.31798 -0.291605
0.845254 -3.31498 -0.291605
0.872254 -3.30998 -0.291605
0.904254 -3.30698 -0.292605
0.914254 -3.30298 -0.292605
0.937254 -3.30498 -0.293605
0.942254 -3.30298 -0.293605
1.00825 -3.29798 -0.295605
1.01325 -3.29598 -0.295605
1.03425 -3.28998 -0.295605
1.05625 -3.28698 -0.295605
1.06925 -3.29098 -0.297605
1.08025 -3.28998 -0.297605
1.08425 -3.28398 -0.296605
1.11825 -3.28498 -0.298605
1.14025 -3.28198 -0.299605
1.14725 -3.26898 -0.297605
1.15625 -3.27798 -0.299605
1.16625 -3.27498 -0.299605
1.17425 -3.26398 -0.298605
1.21125 -3.26898 -0.300605
1.22925 -3.27098 -0.301605
1.24025 -3.26898 -0.302605
1.24925 -3.26098 -0.301605
1.26125 -3.26298 -0.302605
1.28525 -3.26198 -0.303605
1.29425 -3.25598 -0.303605
1.30325 -3.26398 -0.304605
1.31425 -3.26098 -0.304605
1.32525 -3.26098 -0.305605
1.33325 -3.25098 -0.304605
1.34725 -3.25598 -0.306605
1.35925 -3.25598 -0.306605
1.36925 -3.25098 -0.306605
1.37325 -3.24498 -0.306605
1.38625 -3.24798 -0.307605
1.41025 -3.24698 -0.308605
1.42025 -3.24298 -0.308605
1.43925 -3.23198 -0.308605
1.45225 -3.24598 -0.310605
1.46025 -3.23798 -0.309605
1.47125 -3.23498 -0.310605
1.48725 -3.24298 -0.312605
1.49725 -3.23798 -0.312605
1.51025 -3.23898 -0.313605
1.52225 -3.23798 -0.313605
1.52725 -3.23498 -0.313605
1.53925 -3.23598 -0.314605
1.54725 -3.22598 -0.313605
1.56225 -3.23098 -0.315605
1.58525 -3.22698 -0.316605
1.59725 -3.22498 -0.316605
1.61325 -3.21998 -0.316605
1.62625 -3.21998 -0.317605
1.64125 -3.22498 -0.319605
1.66125 -3.21498 -0.319605
1.68225 -3.21798 -0.321605
1.70525 -3.21198 -0.322605
1.78425 -3.20298 -0.326605
1.79725 -3.20298 -0.327605
1.82425 -3.20298 -0.329605
1.83425 -3.19798 -0.329605
1.86525 -3.19298 -0.330605
1.87725 -3.19098 -0.331605
1.89325 -3.19498 -0.332605
1.93525 -3.18598 -0.334605
1.99825 -3.17598 -0.338605
2.02825 -3.16798 -0.339605
2.13425 -3.16698 -0.347605
2.15925 -3.16198 -0.349605
2.18025 -3.15998 -0.350605
2.19325 -3.15798 -0.351605
2.23025 -3.14898 -0.353605
2.36625 -3.13798 -0.363605
2.42725 -3.12598 -0.367605
2.46425 -3.12298 -0.370605
2.47925 -3.12298 -0.371605
2.60925 -3.11198 -0.382605
2.64325 -3.10298 -0.384605
2.72325 -3.09698 -0.390605
2.80825 -3.08498 -0.397605
2.82425 -3.08398 -0.399605
2.83525 -3.07598 -0.399605
2.89725 -3.07498 -0.405605
2.90325 -3.06198 -0.404605
2.92725 -3.06898 -0.407605
2.94425 -3.06698 -0.408605
2.97025 -3.06598 -0.411605
3.00725 -3.06498 -0.415605
3.01325 -3.05198 -0.414605
3.05325 -3.05398 -0.418605
3.06325 -3.05498 -0.419605
3.10525 -3.03798 -0.422605
3.15325 -3.04798 -0.427605
3.16125 -3.03598 -0.427605
3.21525 -3.03998 -0.433605
3.26825 -3.03298 -0.438605
3.28625 -3.03098 -0.440605
3.31525 -3.02798 -0.442605
3.47525 -3.00898 -0.457605
3.63825 -2.98498 -0.473605
3.81025 -2.96998 -0.491605
3.86925 -2.95798 -0.496605
3.93625 -2.95098 -0.503605
3.99025 -2.94298 -0.509605
4.06025 -2.93698 -0.516605
4.19325 -2.92398 -0.530605
4.23725 -2.91598 -0.535605
4.26425 -2.91498 -0.538605
4.32025 -2.90398 -0.544605
4.35425 -2.90698 -0.548605
4.37425 -2.90098 -0.550605
4.40525 -2.90098 -0.553605
4.42225 -2.89298 -0.555605
4.46125 -2.88798 -0.559605
4.49325 -2.88898 -0.563605
4.54325 -2.88098 -0.568605
4.56325 -2.87398 -0.570605
4.59825 -2.87598 -0.574605
4.60725 -2.87198 -0.575605
4.66225 -2.86598 -0.581605
4.68625 -2.86098 -0.584605
4.74625 -2.85698 -0.591605
4.78725 -2.85098 -0.595605
4.81625 -2.84798 -0.599605
4.84625 -2.84498 -0.602605
4.87525 -2.84198 -0.606605
4.90825 -2.83998 -0.609605
4.92425 -2.82898 -0.611605
4.94325 -2.82998 -0.613605
5.03525 -2.82098 -0.624605
5.05825 -2.81198 -0.626605
5.10025 -2.81498 -0.631605
5.12625 -2.80798 -0.634605
5.15425 -2.80298 -0.637605
5.18125 -2.80698 -0.641605
5.19625 -2.79498 -0.642605
5.23325 -2.79298 -0.646605
5.25225 -2.78198 -0.648605
5.29425 -2.78398 -0.653605
5.32725 -2.77998 -0.657605
5.35725 -2.77398 -0.661605
5.38325 -2.77698 -0.664605
5.41825 -2.77298 -0.668605
5.43925 -2.76298 -0.670605
5.46925 -2.75598 -0.674605
5.50225 -2.75198 -0.678605
5.53725 -2.74798 -0.682605
5.59325 -2.74298 -0.689605
5.64225 -2.74498 -0.695605
5.66525 -2.73398 -0.697605
5.71125 -2.73498 -0.703605
5.74625 -2.72998 -0.707605
0.00925403 -3.40098 -0.304605
0.041254 -3.40898 -0.305605
0.073254 -3.38898 -0.302605
0.132254 -3.39698 -0.303605
0.179254 -3.39098 -0.303605
0.237254 -3.36898 -0.300605
0.280254 -3.37998 -0.302605
0.317254 -3.37498 -0.302605
0.349254 -3.37498 -0.303605
0.465254 -3.35898 -0.302605
0.512254 -3.34698 -0.301605
0.659254 -3.32098 -0.301605
0.779254 -3.32098 -0.305605
0.940254 -3.29798 -0.308605
0.974254 -3.29998 -0.309605
1.02225 -3.29198 -0.310605
1.08125 -3.27898 -0.311605
1.11825 -3.26898 -0.311605
1.14425 -3.27898 -0.314605
1.17825 -3.27698 -0.316605
1.20525 -3.26998 -0.316605
1.23625 -3.25998 -0.316605
1.25125 -3.26698 -0.318605
1.27925 -3.26398 -0.319605
1.31225 -3.25598 -0.320605
1.35125 -3.24898 -0.321605
1.37625 -3.25098 -0.322605
1.38825 -3.25198 -0.323605
1.43625 -3.23598 -0.324605
1.46125 -3.23698 -0.326605
1.47625 -3.24398 -0.327605
1.49925 -3.22598 -0.327605
1.56325 -3.23098 -0.331605
1.63125 -3.22598 -0.335605
1.63525 -3.21098 -0.333605
1.66125 -3.22198 -0.336605
1.66625 -3.20798 -0.335605
1.69125 -3.20598 -0.336605
1.76525 -3.20998 -0.342605
1.90525 -3.17498 -0.348605
1.93825 -3.18398 -0.351605
2.27025 -3.14198 -0.373605
2.38225 -3.13798 -0.382605
2.59725 -3.10498 -0.398605
2.70225 -3.09898 -0.407605
3.10025 -3.05398 -0.442605
3.93325 -2.95098 -0.525605
3.98025 -2.94798 -0.530605
4.11025 -2.93398 -0.544605
4.22125 -2.91398 -0.556605
4.23325 -2.91298 -0.557605
4.25725 -2.90998 -0.560605
4.31025 -2.90598 -0.566605
4.32325 -2.89498 -0.567605
4.35825 -2.89798 -0.571605
4.40325 -2.89798 -0.577605
4.42725 -2.89398 -0.579605
4.46725 -2.87998 -0.583605
4.50825 -2.88598 -0.589605
4.51325 -2.86998 -0.588605
4.55025 -2.88298 -0.594605
4.55425 -2.86498 -0.593605
4.59125 -2.86898 -0.598605
4.62125 -2.86698 -0.601605
4.65825 -2.86998 -0.606605
4.68125 -2.86298 -0.608605
4.69525 -2.85198 -0.609605
4.71825 -2.84498 -0.612605
4.73925 -2.84798 -0.614605
4.76725 -2.84398 -0.618605
4.82025 -2.83498 -0.624605
4.85025 -2.83098 -0.627605
4.92525 -2.82398 -0.636605
4.96225 -2.82398 -0.641605
4.98325 -2.81498 -0.643605
5.01225 -2.81098 -0.646605
5.05625 -2.81398 -0.652605
5.07725 -2.80498 -0.654605
5.12625 -2.80098 -0.660605
5.17025 -2.80298 -0.666605
5.18825 -2.79098 -0.667605
5.33225 -2.77198 -0.685605
0.00725403 -3.41298 -0.330605
0.017254 -3.41298 -0.330605
0.028254 -3.41098 -0.330605
0.039254 -3.40698 -0.329605
0.050254 -3.40898 -0.330605
0.060254 -3.40698 -0.329605
0.066254 -3.40298 -0.329605
0.199254 -3.39198 -0.328605
0.204254 -3.39098 -0.328605
0.236254 -3.38698 -0.327605
0.315254 -3.37298 -0.326605
0.719254 -3.33098 -0.329605
0.756254 -3.32498 -0.330605
0.890254 -3.31198 -0.333605
0.939254 -3.30398 -0.334605
0.949254 -3.30098 -0.334605
0.977254 -3.29998 -0.334605
1.00925 -3.29598 -0.335605
1.03225 -3.29498 -0.336605
1.15225 -3.27798 -0.340605
1.16225 -3.27398 -0.340605
1.18125 -3.27598 -0.341605
1.19125 -3.27498 -0.341605
1.20325 -3.27498 -0.342605
1.21525 -3.27398 -0.342605
1.22525 -3.27098 -0.342605
1.44725 -3.24598 -0.352605
1.47125 -3.24398 -0.353605
1.97825 -3.18498 -0.382605
2.23525 -3.15198 -0.399605
2.27725 -3.14898 -0.403605
2.35325 -3.13698 -0.408605
2.36825 -3.13798 -0.410605
2.52725 -3.11898 -0.422605
2.57225 -3.11298 -0.426605
2.59525 -3.11198 -0.428605
2.64125 -3.10698 -0.432605
2.77325 -3.09198 -0.443605
2.81025 -3.08498 -0.447605
2.91725 -3.07398 -0.457605
2.92825 -3.06598 -0.457605
2.94325 -3.06298 -0.458605
2.96025 -3.06098 -0.460605
2.98425 -3.06698 -0.463605
3.03925 -3.05498 -0.467605
3.13025 -3.04098 -0.476605
3.20125 -3.03298 -0.483605
3.22625 -3.03798 -0.486605
3.23025 -3.03198 -0.486605
3.28725 -3.02798 -0.492605
3.32325 -3.02298 -0.496605
3.45925 -3.01098 -0.510605
3.49425 -3.00298 -0.513605
3.51325 -2.99998 -0.515605
3.55225 -2.99598 -0.519605
3.66525 -2.98398 -0.531605
3.68825 -2.98398 -0.534605
3.72325 -2.97498 -0.537605
3.73725 -2.97598 -0.539605
3.78125 -2.97198 -0.544605
3.82125 -2.96598 -0.548605
3.83525 -2.95698 -0.549605
3.85525 -2.95398 -0.551605
3.89425 -2.95498 -0.556605
3.91325 -2.94998 -0.558605
3.93925 -2.94998 -0.561605
3.95725 -2.94398 -0.563605
3.97925 -2.94098 -0.565605
4.00825 -2.94398 -0.569605
4.01825 -2.94098 -0.570605
4.03325 -2.93298 -0.571605
4.05925 -2.93198 -0.574605
4.08225 -2.92998 -0.577605
4.09925 -2.92298 -0.579605
4.12825 -2.92398 -0.582605
4.13425 -2.91798 -0.583605
4.17125 -2.92498 -0.588605
4.19425 -2.92198 -0.590605
4.21525 -2.91698 -0.593605
4.23425 -2.90998 -0.594605
4.25625 -2.90598 -0.597605
4.27825 -2.90098 -0.599605
4.30025 -2.90698 -0.603605
4.31925 -2.89998 -0.604605
4.34825 -2.89998 -0.608605
4.36225 -2.88898 -0.609605
4.39325 -2.88998 -0.613605
4.42025 -2.88798 -0.616605
4.44525 -2.88498 -0.619605
4.46425 -2.87698 -0.621605
4.48725 -2.88198 -0.624605
4.51325 -2.87898 -0.627605
4.54225 -2.87698 -0.631605
4.55625 -2.86598 -0.632605
4.58825 -2.86698 -0.636605
4.61225 -2.86198 -0.639605
4.64125 -2.85998 -0.642605
4.66125 -2.86198 -0.645605
4.68725 -2.85798 -0.648605
4.70725 -2.84998 -0.650605
4.73825 -2.84898 -0.654605
4.76425 -2.84398 -0.657605
4.78525 -2.83598 -0.659605
4.81825 -2.83498 -0.664605
4.84125 -2.83898 -0.667605
4.86725 -2.83398 -0.670605
4.89125 -2.82698 -0.673605
4.92625 -2.82698 -0.677605
4.96225 -2.82698 -0.682605
4.98325 -2.81798 -0.684605
5.01025 -2.81298 -0.688605
5.03925 -2.81898 -0.692605
5.06225 -2.81098 -0.694605
5.09125 -2.80698 -0.698605
5.12625 -2.80498 -0.702605
5.16125 -2.80298 -0.707605
5.18725 -2.79598 -0.710605
5.21825 -2.79198 -0.714605
5.23525 -2.79098 -0.716605
5.26825 -2.78698 -0.720605
5.29925 -2.78298 -0.724605
5.32525 -2.77498 -0.727605
5.36425 -2.77398 -0.732605
5.39225 -2.76698 -0.736605
5.42325 -2.76198 -0.740605
5.45225 -2.76598 -0.744605
5.48225 -2.75998 -0.748605
5.51925 -2.75698 -0.752605
5.54525 -2.74798 -0.755605
5.68425 -2.73998 -0.774605
5.70625 -2.72898 -0.776605
5.74925 -2.72698 -0.782605
5.77725 -2.71898 -0.785605
5.83025 -2.72098 -0.793605
0.048254 -3.40798 -0.421605
0.059254 -3.40398 -0.420605
0.080254 -3.39398 -0.418605
0.091254 -3.39898 -0.419605
0.096254 -3.39898 -0.419605
0.117254 -3.39198 -0.418605
0.128254 -3.39398 -0.419605
0.138254 -3.39398 -0.419605
0.149254 -3.38898 -0.418605
0.160254 -3.39498 -0.419605
0.165254 -3.38798 -0.418605
0.186254 -3.38698 -0.418605
0.197254 -3.38698 -0.418605
0.207254 -3.38598 -0.418605
0.218254 -3.38498 -0.418605
0.234254 -3.38598 -0.418605
0.266254 -3.38198 -0.418605
0.287254 -3.37798 -0.418605
0.298254 -3.37898 -0.418605
0.313254 -3.37198 -0.417605
0.355254 -3.36598 -0.417605
0.366254 -3.37098 -0.418605
0.371254 -3.36598 -0.417605
0.382254 -3.36898 -0.418605
0.413254 -3.35898 -0.417605
0.424254 -3.35998 -0.417605
0.440254 -3.35998 -0.417605
0.451254 -3.35998 -0.418605
0.461254 -3.35498 -0.417605
0.472254 -3.35698 -0.418605
0.493254 -3.35398 -0.418605
0.504254 -3.35498 -0.418605
0.520254 -3.34998 -0.418605
0.530254 -3.34898 -0.418605
0.551254 -3.34698 -0.418605
0.578254 -3.34498 -0.418605
0.598254 -3.33698 -0.418605
0.642254 -3.33898 -0.419605
0.657254 -3.33198 -0.419605
0.689254 -3.32998 -0.419605
0.737254 -3.32398 -0.420605
0.839254 -3.31198 -0.422605
0.867254 -3.31098 -0.423605
0.921254 -3.30398 -0.424605
0.980254 -3.29498 -0.425605
1.07925 -3.28498 -0.428605
1.09125 -3.28498 -0.429605
1.10125 -3.28198 -0.429605
1.11225 -3.28198 -0.430605
1.13425 -3.27698 -0.430605
1.13925 -3.27498 -0.430605
1.16325 -3.27898 -0.432605
1.17325 -3.27398 -0.432605
1.19425 -3.26798 -0.432605
1.21325 -3.27198 -0.433605
1.22425 -3.26998 -0.434605
1.23525 -3.26798 -0.434605
1.24825 -3.26898 -0.435605
1.25625 -3.26198 -0.434605
1.28025 -3.26098 -0.436605
1.28725 -3.26398 -0.437605
1.29425 -3.25298 -0.435605
1.30725 -3.25398 -0.436605
1.31825 -3.25198 -0.437605
1.32925 -3.24998 -0.437605
1.33925 -3.24598 -0.437605
1.35325 -3.24998 -0.438605
1.35725 -3.24498 -0.438605
1.37125 -3.24998 -0.439605
1.38125 -3.24498 -0.439605
1.39125 -3.24098 -0.439605
1.40225 -3.23798 -0.440605
1.41825 -3.24598 -0.442605
1.42725 -3.23998 -0.442605
1.43225 -3.23598 -0.441605
1.46725 -3.23298 -0.443605
1.48025 -3.23598 -0.444605
1.49025 -3.22898 -0.444605
1.50525 -3.23498 -0.446605
1.50925 -3.23098 -0.446605
1.53225 -3.22698 -0.447605
1.55825 -3.22798 -0.448605
1.56725 -3.22098 -0.448605
1.58025 -3.22298 -0.449605
1.58725 -3.22398 -0.450605
1.59825 -3.22098 -0.450605
1.60825 -3.21598 -0.450605
1.62025 -3.21498 -0.451605
1.63525 -3.21798 -0.453605
1.64725 -3.21698 -0.453605
1.65525 -3.20798 -0.453605
1.66325 -3.21098 -0.454605
1.67825 -3.21398 -0.455605
1.69025 -3.21198 -0.456605
1.70225 -3.20998 -0.456605
1.71325 -3.20698 -0.457605
1.74025 -3.20998 -0.459605
1.74425 -3.20498 -0.459605
1.75425 -3.19998 -0.459605
1.76925 -3.20298 -0.460605
1.78225 -3.20298 -0.461605
1.80925 -3.20298 -0.464605
1.82125 -3.20098 -0.464605
1.82725 -3.19998 -0.464605
1.83925 -3.19698 -0.465605
1.85025 -3.19298 -0.465605
1.86225 -3.19098 -0.466605
1.87825 -3.19398 -0.468605
1.88625 -3.18398 -0.467605
1.90125 -3.18698 -0.469605
1.92325 -3.18998 -0.471605
1.97125 -3.17898 -0.473605
1.99425 -3.18098 -0.475605
2.11925 -3.16598 -0.484605
2.15525 -3.15498 -0.486605
2.19425 -3.15798 -0.490605
2.22025 -3.15298 -0.492605
2.23225 -3.14998 -0.492605
2.29625 -3.14298 -0.497605
2.32625 -3.14298 -0.500605
2.33625 -3.13598 -0.500605
2.35225 -3.13598 -0.502605
2.37525 -3.13598 -0.504605
2.43225 -3.12898 -0.509605
2.45225 -3.12398 -0.510605
2.46425 -3.11898 -0.511605
2.48425 -3.12398 -0.513605
2.49625 -3.11898 -0.514605
2.50925 -3.11398 -0.514605
2.52725 -3.11698 -0.517605
2.53225 -3.11298 -0.517605
2.54825 -3.11298 -0.518605
2.57925 -3.10998 -0.521605
2.59125 -3.10498 -0.522605
2.60625 -3.10298 -0.523605
2.62025 -3.09898 -0.524605
2.64525 -3.09898 -0.526605
2.65825 -3.09498 -0.527605
2.67425 -3.09398 -0.529605
2.69125 -3.09298 -0.530605
2.70625 -3.09098 -0.532605
2.72725 -3.09498 -0.534605
2.73125 -3.08898 -0.534605
2.74825 -3.08998 -0.536605
2.76325 -3.08698 -0.537605
2.77625 -3.08098 -0.538605
2.79125 -3.07798 -0.539605
2.80625 -3.07498 -0.540605
2.82325 -3.07498 -0.542605
2.84025 -3.07298 -0.544605
2.84725 -3.07198 -0.545605
2.86625 -3.07298 -0.547605
2.87625 -3.06398 -0.547605
2.89425 -3.06298 -0.549605
2.91025 -3.06098 -0.550605
2.93125 -3.06398 -0.553605
2.93925 -3.06198 -0.553605
2.95925 -3.06398 -0.556605
2.97225 -3.05698 -0.556605
2.99225 -3.05898 -0.559605
3.00525 -3.05298 -0.560605
3.02125 -3.04998 -0.561605
3.04325 -3.05298 -0.564605
3.05425 -3.05398 -0.565605
3.07525 -3.05498 -0.568605
3.10525 -3.04698 -0.570605
3.12325 -3.04498 -0.572605
3.14325 -3.04498 -0.574605
3.15825 -3.04098 -0.576605
3.17025 -3.04298 -0.577605
3.18425 -3.03698 -0.578605
3.20425 -3.03598 -0.580605
3.21925 -3.03098 -0.582605
3.23825 -3.03098 -0.584605
3.26125 -3.03298 -0.587605
3.27225 -3.02398 -0.587605
3.29225 -3.02298 -0.589605
3.34225 -3.01998 -0.595605
3.36225 -3.01898 -0.597605
3.37725 -3.01398 -0.598605
3.40925 -3.01298 -0.602605
3.42825 -3.00998 -0.604605
3.44725 -3.00898 -0.606605
3.46725 -3.00698 -0.608605
3.48725 -3.00498 -0.610605
3.54625 -2.99698 -0.617605
3.55825 -2.99798 -0.618605
3.57725 -2.99398 -0.620605
3.59525 -2.99098 -0.622605
3.61525 -2.98798 -0.624605
3.63225 -2.98298 -0.626605
3.65125 -2.97898 -0.628605
3.66625 -2.98198 -0.630605
3.73025 -2.97498 -0.637605
3.77225 -2.96998 -0.642605
3.79125 -2.96498 -0.644605
3.82825 -2.96498 -0.648605
3.85025 -2.96298 -0.651605
3.87025 -2.95898 -0.653605
3.88725 -2.95298 -0.655605
3.91625 -2.95498 -0.658605
3.95525 -2.94598 -0.662605
3.99325 -2.94398 -0.667605
4.01525 -2.94098 -0.670605
4.03325 -2.93498 -0.672605
4.05925 -2.93398 -0.675605
4.07825 -2.92798 -0.677605
4.09525 -2.92098 -0.678605
4.12225 -2.93098 -0.683605
4.13825 -2.92198 -0.684605
4.16625 -2.92298 -0.688605
4.19325 -2.92198 -0.691605
4.20725 -2.91198 -0.692605
4.22825 -2.90698 -0.694605
4.25525 -2.90498 -0.698605
4.27025 -2.90498 -0.700605
4.29825 -2.90498 -0.703605
4.32625 -2.90398 -0.707605
4.34125 -2.89398 -0.708605
4.37325 -2.89598 -0.712605
4.39225 -2.88898 -0.714605
4.41325 -2.88198 -0.716605
4.44125 -2.88998 -0.721605
4.46825 -2.88798 -0.724605
4.48125 -2.87598 -0.725605
4.51525 -2.87798 -0.730605
4.54225 -2.87498 -0.733605
4.56625 -2.86998 -0.736605
4.58425 -2.87098 -0.738605
4.61525 -2.86998 -0.742605
4.64125 -2.86598 -0.746605
4.65725 -2.85598 -0.747605
4.69325 -2.85698 -0.752605
4.71025 -2.84798 -0.753605
4.74325 -2.84698 -0.758605
4.76825 -2.85198 -0.762605
4.78925 -2.84398 -0.764605
4.82325 -2.84298 -0.769605
4.85425 -2.84098 -0.773605
4.87725 -2.83398 -0.775605
4.90825 -2.83098 -0.779605
4.93125 -2.82398 -0.782605
4.95725 -2.81798 -0.785605
4.98325 -2.82298 -0.789605
5.00825 -2.81498 -0.792605
5.03425 -2.80898 -0.795605
5.07025 -2.80898 -0.800605
5.09125 -2.79898 -0.802605
5.12125 -2.79498 -0.806605
5.15825 -2.79298 -0.811605
5.17625 -2.79298 -0.813605
5.20925 -2.78898 -0.818605
5.24125 -2.78498 -0.822605
5.26725 -2.77798 -0.825605
5.39225 -2.76798 -0.842605
5.41825 -2.75998 -0.845605
5.45525 -2.75698 -0.850605
5.48925 -2.75198 -0.855605
5.62025 -2.73998 -0.872605
5.64825 -2.73198 -0.876605
0.00925403 -3.40698 -0.454605
0.025254 -3.39898 -0.453605
0.036254 -3.40498 -0.454605
0.068254 -3.40298 -0.454605
0.079254 -3.39998 -0.453605
0.089254 -3.38998 -0.452605
0.095254 -3.39398 -0.452605
0.105254 -3.38598 -0.451605
0.116254 -3.38898 -0.452605
0.127254 -3.39498 -0.453605
0.137254 -3.38498 -0.451605
0.148254 -3.38398 -0.451605
0.163254 -3.38198 -0.451605
0.174254 -3.38498 -0.451605
0.196254 -3.38398 -0.451605
0.206254 -3.37098 -0.449605
0.217254 -3.38298 -0.451605
0.227254 -3.37198 -0.450605
0.232254 -3.37198 -0.450605
0.243254 -3.37098 -0.450605
0.254254 -3.37798 -0.451605
0.264254 -3.36698 -0.449605
0.275254 -3.37398 -0.451605
0.285254 -3.36598 -0.449605
0.296254 -3.37098 -0.450605
0.301254 -3.36998 -0.450605
0.312254 -3.36898 -0.450605
0.333254 -3.36898 -0.451605
0.343254 -3.36198 -0.450605
0.354254 -3.36498 -0.450605
0.365254 -3.36398 -0.450605
0.370254 -3.36298 -0.450605
0.380254 -3.35798 -0.450605
0.401254 -3.35598 -0.450605
0.412254 -3.35398 -0.450605
0.422254 -3.34898 -0.449605
0.433254 -3.35598 -0.450605
0.438254 -3.34898 -0.449605
0.460254 -3.35398 -0.451605
0.481254 -3.35498 -0.451605
0.491254 -3.34398 -0.450605
0.503254 -3.35398 -0.452605
0.507254 -3.34298 -0.450605
0.519254 -3.35198 -0.452605
0.540254 -3.34798 -0.452605
0.549254 -3.34098 -0.451605
0.570254 -3.33698 -0.451605
0.577254 -3.34598 -0.452605
0.598254 -3.34198 -0.452605
0.606254 -3.32498 -0.450605
0.629254 -3.33298 -0.452605
0.641254 -3.33798 -0.453605
0.646254 -3.33498 -0.453605
0.656254 -3.33298 -0.453605
0.665254 -3.32598 -0.452605
0.686254 -3.31898 -0.451605
0.712254 -3.31598 -0.452605
0.725254 -3.32498 -0.454605
0.746254 -3.31898 -0.453605
0.756254 -3.31398 -0.453605
0.777254 -3.30898 -0.453605
0.784254 -3.31798 -0.455605
0.806254 -3.31698 -0.455605
0.816254 -3.31398 -0.455605
0.827254 -3.31198 -0.455605
0.838254 -3.31298 -0.456605
0.846254 -3.30298 -0.455605
0.864254 -3.30598 -0.456605
0.898254 -3.30898 -0.458605
0.908254 -3.30598 -0.458605
0.924254 -3.30198 -0.458605
0.934254 -3.29898 -0.458605
0.945254 -3.29598 -0.458605
0.954254 -3.29098 -0.458605
0.967254 -3.29598 -0.459605
0.978254 -3.29698 -0.460605
0.988254 -3.29198 -0.459605
0.994254 -3.29398 -0.460605
1.02725 -3.28798 -0.461605
1.04925 -3.28698 -0.462605
1.07825 -3.28798 -0.463605
1.08725 -3.28098 -0.463605
1.11025 -3.28198 -0.464605
1.12025 -3.27598 -0.464605
1.12925 -3.26898 -0.463605
1.13625 -3.27498 -0.464605
1.14825 -3.27498 -0.465605
1.16025 -3.27698 -0.466605
1.18225 -3.27298 -0.467605
1.19125 -3.26598 -0.466605
1.20325 -3.26598 -0.467605
1.20825 -3.26598 -0.467605
1.22025 -3.26598 -0.468605
1.23025 -3.26198 -0.468605
1.24325 -3.26498 -0.469605
1.25325 -3.26098 -0.469605
1.26425 -3.25698 -0.469605
1.27625 -3.25898 -0.470605
1.28225 -3.25898 -0.470605
1.29425 -3.25798 -0.471605
1.30225 -3.24898 -0.470605
1.31525 -3.25398 -0.472605
1.32625 -3.25198 -0.472605
1.33725 -3.24898 -0.472605
1.35125 -3.25198 -0.474605
1.35325 -3.24298 -0.472605
1.36425 -3.24198 -0.473605
1.37825 -3.24698 -0.475605
1.38825 -3.24098 -0.474605
1.40125 -3.24398 -0.476605
1.41325 -3.24498 -0.477605
1.42325 -3.23898 -0.476605
1.42925 -3.23798 -0.477605
1.44025 -3.23698 -0.477605
1.45125 -3.23498 -0.478605
1.46225 -3.22998 -0.478605
1.47325 -3.22898 -0.478605
1.48425 -3.22598 -0.479605
1.50025 -3.23398 -0.481605
1.50625 -3.23298 -0.481605
1.51925 -3.23398 -0.482605
1.52925 -3.22898 -0.482605
1.54025 -3.22598 -0.483605
1.55225 -3.22698 -0.484605
1.57325 -3.21698 -0.484605
1.58025 -3.21998 -0.485605
1.59625 -3.22698 -0.487605
1.60325 -3.21498 -0.486605
1.61725 -3.21698 -0.487605
1.63125 -3.22098 -0.489605
1.65125 -3.21098 -0.489605
1.65925 -3.21298 -0.490605
1.67425 -3.21698 -0.491605
1.68625 -3.21498 -0.492605
1.69625 -3.20998 -0.492605
1.70925 -3.21098 -0.493605
1.71925 -3.20398 -0.493605
1.72925 -3.19898 -0.493605
1.73925 -3.20698 -0.495605
1.75325 -3.20798 -0.496605
1.76225 -3.20098 -0.496605
1.78325 -3.19098 -0.496605
1.80225 -3.20098 -0.499605
1.81625 -3.20198 -0.500605
1.81725 -3.19298 -0.499605
1.82925 -3.18998 -0.500605
1.85525 -3.18898 -0.502605
1.86925 -3.18998 -0.503605
1.90125 -3.18698 -0.505605
1.92625 -3.18398 -0.507605
1.93725 -3.17898 -0.507605
1.96325 -3.17698 -0.509605
1.97525 -3.17398 -0.510605
1.99625 -3.17498 -0.512605
2.01025 -3.17598 -0.513605
2.03425 -3.16998 -0.515605
2.07525 -3.16698 -0.518605
2.08425 -3.16998 -0.519605
2.11925 -3.15898 -0.521605
2.14425 -3.15298 -0.523605
2.16025 -3.15498 -0.524605
2.18525 -3.15898 -0.527605
2.22025 -3.14698 -0.529605
2.23425 -3.14598 -0.530605
2.25425 -3.14198 -0.532605
2.27125 -3.14498 -0.534605
2.29625 -3.13798 -0.535605
2.31225 -3.13898 -0.537605
2.32625 -3.13798 -0.538605
2.33225 -3.13598 -0.539605
2.34325 -3.12998 -0.539605
2.36025 -3.13198 -0.541605
2.37725 -3.13398 -0.543605
2.38925 -3.12998 -0.544605
2.40325 -3.12698 -0.545605
2.42025 -3.12898 -0.547605
2.42625 -3.12698 -0.547605
2.43925 -3.12398 -0.548605
2.44825 -3.11498 -0.548605
2.46825 -3.12098 -0.551605
2.48325 -3.11898 -0.552605
2.49525 -3.11498 -0.553605
2.51025 -3.11298 -0.554605
2.51925 -3.11398 -0.555605
2.53125 -3.10898 -0.556605
2.54925 -3.11198 -0.558605
2.55925 -3.10398 -0.558605
2.57425 -3.10198 -0.559605
2.59425 -3.10598 -0.562605
2.60125 -3.09398 -0.561605
2.62425 -3.10298 -0.565605
2.63225 -3.10198 -0.566605
2.64425 -3.09698 -0.566605
2.66025 -3.09598 -0.568605
2.67225 -3.08998 -0.569605
2.69125 -3.09198 -0.571605
2.70025 -3.08298 -0.571605
2.71225 -3.08698 -0.573605
2.73025 -3.08798 -0.575605
2.74325 -3.08298 -0.576605
2.76125 -3.08398 -0.578605
2.78025 -3.08498 -0.580605
2.78925 -3.07698 -0.580605
2.80925 -3.07998 -0.583605
2.81825 -3.07898 -0.584605
2.83225 -3.07498 -0.585605
2.85125 -3.07598 -0.587605
2.86925 -3.07598 -0.589605
2.88225 -3.07098 -0.590605
2.89625 -3.06698 -0.591605
2.91225 -3.06498 -0.593605
2.92025 -3.06298 -0.593605
2.93925 -3.06398 -0.596605
2.95425 -3.05998 -0.597605
2.96625 -3.05398 -0.598605
2.98425 -3.05298 -0.600605
3.00725 -3.05798 -0.603605
3.02025 -3.05098 -0.604605
3.04225 -3.05398 -0.607605
3.04825 -3.05098 -0.607605
3.06425 -3.04798 -0.609605
3.08125 -3.04598 -0.610605
3.09925 -3.04398 -0.612605
3.11425 -3.03998 -0.614605
3.12825 -3.03398 -0.615605
3.14825 -3.04498 -0.618605
3.15925 -3.03598 -0.619605
3.18125 -3.03798 -0.622605
3.21225 -3.02898 -0.624605
3.22725 -3.02498 -0.626605
3.24925 -3.02698 -0.629605
3.26325 -3.01998 -0.630605
3.27525 -3.02198 -0.631605
3.29225 -3.01798 -0.633605
3.31425 -3.01998 -0.636605
3.32725 -3.01198 -0.637605
3.34825 -3.01298 -0.639605
3.37125 -3.01398 -0.642605
3.38525 -3.01798 -0.645605
3.41925 -3.00998 -0.648605
3.44025 -3.00898 -0.651605
3.46025 -3.00798 -0.653605
3.47025 -2.99698 -0.653605
3.48925 -2.99498 -0.655605
3.52325 -2.99498 -0.659605
3.54325 -2.99298 -0.662605
3.57825 -2.98498 -0.665605
3.60125 -2.98498 -0.668605
3.64025 -2.97898 -0.673605
3.65225 -2.97898 -0.674605
3.69025 -2.97198 -0.679605
3.71525 -2.97298 -0.682605
3.75425 -2.96598 -0.686605
3.77525 -2.96398 -0.689605
3.81125 -2.96298 -0.694605
3.83425 -2.96198 -0.697605
3.89025 -2.94698 -0.703605
3.92125 -2.95198 -0.707605
3.93125 -2.94898 -0.708605
3.95625 -2.94898 -0.712605
3.99825 -2.94098 -0.717605
4.02325 -2.93998 -0.720605
4.06525 -2.93298 -0.725605
4.07825 -2.93198 -0.727605
4.13025 -2.92998 -0.734605
4.14725 -2.92298 -0.735605
4.17525 -2.92398 -0.739605
4.19025 -2.91398 -0.740605
4.21225 -2.91998 -0.744605
4.25625 -2.91098 -0.749605
4.28025 -2.90798 -0.752605
4.31025 -2.90898 -0.757605
4.31625 -2.89298 -0.756605
4.34325 -2.89198 -0.760605
4.36925 -2.89898 -0.764605
4.38825 -2.89198 -0.766605
4.41725 -2.89098 -0.770605
4.44725 -2.89198 -0.774605
4.45825 -2.87898 -0.775605
4.48225 -2.87398 -0.778605
4.51125 -2.87298 -0.782605
4.53525 -2.86798 -0.785605
4.55425 -2.87098 -0.788605
4.58625 -2.87098 -0.792605
4.60025 -2.85998 -0.793605
4.63125 -2.85898 -0.798605
4.66025 -2.85698 -0.802605
4.67925 -2.84798 -0.804605
4.71025 -2.84698 -0.808605
4.73325 -2.85098 -0.811605
4.76425 -2.84898 -0.816605
4.78625 -2.84298 -0.818605
4.82225 -2.84398 -0.824605
4.84325 -2.83498 -0.826605
4.87225 -2.83198 -0.830605
4.89725 -2.82598 -0.833605
4.91825 -2.82798 -0.836605
4.95125 -2.82598 -0.841605
4.97925 -2.82198 -0.845605
5.00525 -2.81598 -0.848605
5.03625 -2.81298 -0.852605
5.06925 -2.80998 -0.857605
5.09125 -2.80198 -0.860605
5.12125 -2.80798 -0.865605
5.14425 -2.79998 -0.867605
5.17425 -2.79498 -0.871605
5.20125 -2.78898 -0.875605
5.23325 -2.78498 -0.879605
5.26225 -2.77998 -0.883605
5.29225 -2.77398 -0.887605
5.31725 -2.77698 -0.891605
5.34925 -2.77198 -0.896605
5.38225 -2.76798 -0.900605
5.41325 -2.76298 -0.905605
5.44325 -2.75598 -0.909605
5.47825 -2.75298 -0.914605
5.51125 -2.74798 -0.918605
5.53525 -2.74898 -0.922605
5.57225 -2.74598 -0.927605
5.59825 -2.73698 -0.931605
5.76625 -2.71898 -0.955605
5.88325 -2.70698 -0.972605
2.68625 -3.09898 -0.608605
3.95825 -2.94898 -0.756605
4.02525 -2.94098 -0.765605
4.26125 -2.91098 -0.796605
4.28525 -2.90698 -0.799605
4.31025 -2.90498 -0.802605
4.33225 -2.89998 -0.805605
4.40125 -2.89598 -0.815605
4.44925 -2.88698 -0.821605
4.49725 -2.87798 -0.827605
4.65225 -2.86498 -0.849605
4.67825 -2.85998 -0.853605
4.81125 -2.84898 -0.872605
4.86825 -2.84098 -0.880605
5.03525 -2.82198 -0.904605
5.06025 -2.81498 -0.907605
5.20525 -2.79998 -0.929605
5.23725 -2.79498 -0.933605
5.26825 -2.79098 -0.938605
5.29225 -2.79198 -0.942605
5.32525 -2.78798 -0.947605
5.34925 -2.77998 -0.950605
5.39125 -2.77998 -0.956605
5.41925 -2.77298 -0.960605
5.48325 -2.76098 -0.969605
5.51325 -2.76598 -0.975605
5.54725 -2.76098 -0.979605
5.58025 -2.75598 -0.984605
5.61525 -2.75098 -0.990605
5.64525 -2.74298 -0.994605
5.67925 -2.73798 -0.999605
5.71425 -2.73198 -1.0046
5.73325 -2.72998 -1.0076
5.75725 -2.71998 -1.0106
2.39625 -3.11398 -0.606605
2.42425 -3.10998 -0.609605
2.54125 -3.09698 -0.621605
2.72025 -3.08098 -0.640605
2.78725 -3.06898 -0.646605
2.80725 -3.07198 -0.649605
2.83625 -3.06398 -0.652605
2.85025 -3.06998 -0.654605
2.86125 -3.06298 -0.655605
2.87825 -3.06198 -0.657605
2.89625 -3.06198 -0.659605
2.94625 -3.05698 -0.665605
2.98825 -3.05198 -0.670605
3.04025 -3.04798 -0.676605
3.08125 -3.03998 -0.680605
3.09225 -3.03198 -0.681605
3.13325 -3.03498 -0.686605
3.18625 -3.02798 -0.693605
3.23125 -3.02298 -0.698605
3.24525 -3.01698 -0.699605
3.28525 -3.01698 -0.705605
3.30925 -3.01098 -0.707605
3.33225 -3.01198 -0.710605
3.36225 -3.00198 -0.713605
3.38425 -3.00198 -0.716605
3.41125 -2.99798 -0.719605
3.43425 -2.99798 -0.723605
3.44925 -2.99298 -0.724605
3.49325 -2.99298 -0.730605
3.50825 -2.98698 -0.732605
3.52725 -2.98398 -0.734605
3.54925 -2.99398 -0.738605
3.55725 -2.98098 -0.738605
3.57525 -2.97798 -0.740605
3.60725 -2.98498 -0.746605
3.61725 -2.97398 -0.746605
3.63425 -2.96898 -0.747605
3.66125 -2.97198 -0.752605
3.67725 -2.96598 -0.753605
3.69025 -2.96698 -0.755605
3.71225 -2.96598 -0.758605
3.73425 -2.96398 -0.761605
3.75125 -2.95798 -0.763605
3.77525 -2.95898 -0.767605
3.79225 -2.95298 -0.769605
3.81525 -2.95198 -0.772605
3.83225 -2.95598 -0.775605
3.85925 -2.95698 -0.779605
3.87325 -2.94798 -0.780605
3.89925 -2.94898 -0.784605
3.91925 -2.94498 -0.786605
3.94025 -2.94098 -0.789605
3.96625 -2.94198 -0.793605
3.97925 -2.94198 -0.795605
3.99925 -2.93698 -0.797605
4.02925 -2.93998 -0.802605
4.04925 -2.93498 -0.804605
4.06825 -2.92898 -0.807605
4.09325 -2.92798 -0.810605
4.11325 -2.92298 -0.813605
4.13225 -2.92698 -0.816605
4.19725 -2.91398 -0.824605
4.24725 -2.90998 -0.832605
4.26425 -2.90198 -0.834605
4.28425 -2.90598 -0.837605
4.30925 -2.90298 -0.840605
4.33325 -2.89998 -0.844605
4.35225 -2.89298 -0.846605
4.40225 -2.88698 -0.853605
4.42325 -2.88098 -0.856605
4.45125 -2.88898 -0.861605
4.47325 -2.88298 -0.864605
4.52725 -2.87898 -0.872605
4.55325 -2.87498 -0.875605
4.57725 -2.86998 -0.879605
4.60125 -2.86498 -0.882605
4.62425 -2.86898 -0.886605
4.67725 -2.86198 -0.894605
4.73125 -2.85498 -0.902605
4.76125 -2.85198 -0.906605
4.79025 -2.84998 -0.910605
4.80625 -2.84898 -0.913605
4.83025 -2.84298 -0.916605
4.89225 -2.83898 -0.926605
4.94625 -2.82798 -0.933605
5.02725 -2.82298 -0.946605
5.11425 -2.80898 -0.959605
5.14925 -2.80798 -0.964605
5.17625 -2.80198 -0.968605
5.22625 -2.79698 -0.976605
5.26225 -2.79498 -0.982605
5.28725 -2.78698 -0.985605
5.32525 -2.78598 -0.991605
5.34825 -2.77698 -0.994605
5.37925 -2.77198 -0.999605
5.43225 -2.76698 -1.0076
5.45525 -2.75698 -1.0106
5.48625 -2.75198 -1.0156
1.59025 -3.20898 -0.574605
1.73425 -3.19198 -0.584605
1.77225 -3.18898 -0.587605
1.83025 -3.18598 -0.592605
1.84125 -3.18098 -0.592605
1.85225 -3.17698 -0.593605
1.86725 -3.17998 -0.594605
1.87625 -3.18398 -0.596605
1.88525 -3.17598 -0.596605
1.89825 -3.17498 -0.597605
1.94825 -3.16798 -0.601605
1.96825 -3.16698 -0.602605
1.97925 -3.16198 -0.603605
1.99525 -3.16598 -0.605605
2.00625 -3.16098 -0.606605
2.02125 -3.16198 -0.607605
2.03325 -3.15898 -0.608605
2.03925 -3.15698 -0.608605
2.05325 -3.15698 -0.610605
2.06625 -3.15598 -0.611605
2.07825 -3.15198 -0.612605
2.09525 -3.15598 -0.614605
2.10425 -3.14898 -0.614605
2.12225 -3.15398 -0.617605
2.12725 -3.14998 -0.617605
2.14525 -3.15498 -0.619605
2.15525 -3.14798 -0.619605
2.16925 -3.14798 -0.621605
2.18025 -3.14298 -0.621605
2.19325 -3.14098 -0.622605
2.21125 -3.14498 -0.625605
2.21425 -3.13798 -0.624605
2.23125 -3.14098 -0.626605
2.24525 -3.13998 -0.628605
2.26925 -3.13198 -0.629605
2.28625 -3.13498 -0.632605
2.29725 -3.12898 -0.632605
2.30725 -3.13198 -0.634605
2.32725 -3.13898 -0.637605
2.33525 -3.12798 -0.636605
2.34825 -3.12498 -0.637605
2.36725 -3.13098 -0.640605
2.37725 -3.12298 -0.640605
2.39725 -3.12798 -0.644605
2.41425 -3.11998 -0.644605
2.42925 -3.11798 -0.646605
2.44925 -3.12498 -0.649605
2.45525 -3.11198 -0.648605
2.47625 -3.11798 -0.652605
2.49125 -3.11698 -0.653605
2.49325 -3.10998 -0.652605
2.50825 -3.10798 -0.654605
2.52725 -3.11098 -0.656605
2.53525 -3.10098 -0.656605
2.55025 -3.09898 -0.658605
2.56725 -3.09998 -0.660605
2.58725 -3.09398 -0.661605
2.60225 -3.09198 -0.663605
2.61925 -3.09298 -0.665605
2.63425 -3.08998 -0.667605
2.65325 -3.09198 -0.669605
2.66425 -3.08598 -0.670605
2.67625 -3.07998 -0.671605
2.69625 -3.08298 -0.674605
2.70525 -3.08398 -0.675605
2.71725 -3.07798 -0.675605
2.74025 -3.08398 -0.679605
2.76725 -3.07498 -0.682605
2.78525 -3.07498 -0.684605
2.79825 -3.07098 -0.685605
2.81425 -3.07798 -0.688605
2.82925 -3.07498 -0.690605
2.85325 -3.06298 -0.691605
2.87425 -3.06498 -0.694605
2.91625 -3.06098 -0.699605
2.92725 -3.05298 -0.699605
2.96825 -3.05698 -0.705605
2.99125 -3.04298 -0.707605
3.00825 -3.05098 -0.710605
3.02125 -3.04398 -0.711605
3.04125 -3.04498 -0.714605
3.05625 -3.04098 -0.715605
3.06925 -3.03398 -0.716605
3.09425 -3.03998 -0.720605
3.10925 -3.03598 -0.722605
3.11725 -3.03298 -0.723605
3.13925 -3.03598 -0.726605
3.15325 -3.02998 -0.727605
3.17925 -3.03598 -0.732605
3.19025 -3.02798 -0.732605
3.21425 -3.03098 -0.736605
3.22725 -3.02298 -0.737605
3.24325 -3.02898 -0.740605
3.25225 -3.01898 -0.740605
3.26525 -3.01098 -0.740605
3.28925 -3.01398 -0.744605
3.30325 -3.00798 -0.745605
3.32825 -3.01198 -0.750605
3.34625 -3.00898 -0.752605
3.36625 -3.00798 -0.755605
3.37725 -3.00798 -0.756605
3.39125 -3.00098 -0.757605
3.41025 -2.99898 -0.760605
3.43525 -3.00098 -0.764605
3.44525 -2.99198 -0.764605
3.46825 -2.99198 -0.767605
3.47325 -2.98698 -0.767605
3.50325 -2.99398 -0.773605
3.52625 -2.99398 -0.776605
3.54025 -2.98698 -0.777605
3.56325 -2.98698 -0.781605
3.58525 -2.98598 -0.784605
3.60625 -2.98398 -0.787605
3.61225 -2.97998 -0.787605
3.65125 -2.97298 -0.792605
3.67125 -2.96998 -0.795605
3.69725 -2.97198 -0.799605
3.74725 -2.96398 -0.805605
3.77225 -2.96398 -0.809605
3.78725 -2.95698 -0.811605
3.81825 -2.96198 -0.816605
3.83525 -2.95598 -0.818605
3.85225 -2.94898 -0.820605
3.87325 -2.94598 -0.823605
3.89625 -2.94398 -0.826605
3.90725 -2.94298 -0.828605
3.92725 -2.93798 -0.830605
3.95225 -2.93798 -0.834605
3.98425 -2.94198 -0.839605
4.00225 -2.93598 -0.842605
4.01925 -2.92898 -0.843605
4.03525 -2.93098 -0.846605
4.06725 -2.93398 -0.851605
4.08225 -2.92598 -0.853605
4.10425 -2.92198 -0.856605
4.13525 -2.92398 -0.861605
4.15325 -2.91698 -0.863605
4.17425 -2.91198 -0.866605
4.19625 -2.90798 -0.869605
4.21325 -2.90998 -0.872605
4.23125 -2.90198 -0.874605
4.27225 -2.91098 -0.881605
4.27325 -2.89198 -0.880605
4.31725 -2.90198 -0.888605
4.32925 -2.88998 -0.888605
4.35525 -2.89698 -0.893605
4.38025 -2.89398 -0.897605
4.39925 -2.88698 -0.899605
4.42325 -2.88298 -0.903605
4.45125 -2.88098 -0.907605
4.47425 -2.87598 -0.910605
4.50225 -2.87398 -0.915605
4.52625 -2.87898 -0.919605
4.55025 -2.87398 -0.923605
4.57625 -2.86998 -0.926605
4.60725 -2.86898 -0.931605
4.62725 -2.86198 -0.934605
4.66125 -2.86298 -0.940605
4.68225 -2.85498 -0.942605
4.71625 -2.85498 -0.948605
4.72825 -2.85198 -0.950605
4.75925 -2.84998 -0.954605
4.78625 -2.84598 -0.959605
4.81025 -2.83998 -0.962605
4.82925 -2.83098 -0.964605
4.87625 -2.83698 -0.973605
4.88825 -2.82398 -0.973605
4.96825 -2.81798 -0.986605
4.99825 -2.81398 -0.991605
5.02925 -2.81098 -0.996605
5.06325 -2.80898 -1.0026
5.10325 -2.80998 -1.0086
5.10225 -2.79898 -1.0076
5.13425 -2.79498 -1.0126
5.15825 -2.78698 -1.0166
0.071254 -3.40098 -0.579605
0.140254 -3.39498 -0.579605
0.172254 -3.38998 -0.578605
0.198254 -3.38698 -0.577605
0.309254 -3.37398 -0.577605
0.378254 -3.36498 -0.576605
0.415254 -3.36098 -0.576605
0.495254 -3.35398 -0.577605
1.28025 -3.26198 -0.600605
1.38825 -3.24898 -0.606605
1.42825 -3.24298 -0.608605
1.46225 -3.23798 -0.610605
1.53825 -3.22898 -0.615605
1.59325 -3.22598 -0.620605
1.64325 -3.21398 -0.622605
1.73625 -3.20698 -0.630605
1.77425 -3.20398 -0.633605
2.53225 -3.11598 -0.705605
2.58925 -3.10498 -0.711605
2.59725 -3.10598 -0.712605
2.62825 -3.10298 -0.716605
2.67125 -3.09398 -0.720605
2.69025 -3.09598 -0.723605
2.72625 -3.08798 -0.727605
2.75625 -3.08298 -0.730605
2.77725 -3.08698 -0.733605
2.81625 -3.08098 -0.738605
2.86225 -3.07398 -0.743605
2.87825 -3.07198 -0.745605
2.92125 -3.06898 -0.751605
2.93925 -3.06798 -0.753605
2.95525 -3.06598 -0.755605
2.98825 -3.06198 -0.759605
2.99525 -3.05998 -0.760605
3.07925 -3.04798 -0.770605
3.09525 -3.04598 -0.772605
3.12525 -3.04598 -0.777605
3.29525 -3.02598 -0.799605
3.33025 -3.01998 -0.804605
3.37725 -3.01498 -0.810605
3.57725 -2.98898 -0.838605
3.59925 -2.98798 -0.841605
3.65125 -2.98298 -0.849605
3.66925 -2.97898 -0.851605
3.68825 -2.97498 -0.854605
3.71125 -2.97498 -0.857605
3.76525 -2.96998 -0.865605
3.82625 -2.96098 -0.874605
3.94325 -2.94398 -0.891605
3.96325 -2.93998 -0.894605
4.07425 -2.93398 -0.912605
4.09425 -2.92898 -0.914605
4.14125 -2.92398 -0.922605
4.15425 -2.92298 -0.924605
4.21825 -2.90998 -0.933605
4.25925 -2.89898 -0.938605
4.28625 -2.89698 -0.943605
4.33225 -2.89898 -0.951605
4.35225 -2.89298 -0.954605
4.38225 -2.89398 -0.959605
4.40125 -2.88598 -0.961605
4.41925 -2.87798 -0.963605
4.46625 -2.86898 -0.971605
4.49725 -2.87898 -0.977605
4.55025 -2.87298 -0.986605
4.57925 -2.87098 -0.990605
4.58625 -2.85598 -0.990605
4.40225 -2.88798 -1.0126
4.41325 -2.88498 -1.0136
4.43825 -2.88198 -1.0176
4.14825 -2.91498 -1.0126
4.17025 -2.91098 -1.0156
4.18025 -2.90798 -1.0166
4.19525 -2.89898 -1.0186
0.452254 -3.35498 -0.666605
1.66825 -3.21598 -0.721605
1.69525 -3.19398 -0.720605
1.70325 -3.19598 -0.721605
1.73325 -3.20398 -0.726605
1.74125 -3.19498 -0.725605
1.76725 -3.19498 -0.728605
1.77425 -3.18398 -0.726605
1.79725 -3.18898 -0.730605
1.81425 -3.19498 -0.733605
1.83325 -3.18198 -0.733605
1.84625 -3.18098 -0.734605
1.87225 -3.19098 -0.739605
1.88125 -3.18298 -0.738605
1.90325 -3.17498 -0.739605
1.91725 -3.17498 -0.741605
1.94025 -3.17998 -0.745605
1.95225 -3.17698 -0.746605
1.96625 -3.17698 -0.747605
1.97825 -3.17398 -0.748605
1.99025 -3.17098 -0.749605
2.00325 -3.16998 -0.751605
2.01125 -3.16098 -0.750605
2.02225 -3.16698 -0.752605
2.03725 -3.16698 -0.754605
2.04625 -3.16098 -0.754605
2.06125 -3.16098 -0.756605
2.08625 -3.15598 -0.758605
2.10025 -3.15598 -0.760605
2.11125 -3.16098 -0.762605
2.13325 -3.15098 -0.763605
2.14825 -3.15198 -0.766605
2.15725 -3.14398 -0.765605
2.17525 -3.14798 -0.768605
2.18925 -3.14698 -0.770605
2.19925 -3.14098 -0.770605
2.20425 -3.13698 -0.770605
2.22725 -3.14898 -0.775605
2.23325 -3.13598 -0.774605
2.24625 -3.13398 -0.775605
2.26025 -3.13298 -0.777605
2.27525 -3.13198 -0.779605
2.27725 -3.12498 -0.778605
2.29425 -3.12698 -0.780605
2.30625 -3.12298 -0.781605
2.32725 -3.12998 -0.785605
2.34525 -3.13398 -0.789605
2.34725 -3.11698 -0.786605
2.36525 -3.11998 -0.789605
2.37625 -3.12398 -0.791605
2.38725 -3.11798 -0.792605
2.40425 -3.11998 -0.794605
2.42325 -3.12298 -0.798605
2.44725 -3.11398 -0.799605
2.45625 -3.10498 -0.799605
2.47025 -3.11298 -0.803605
2.47725 -3.10198 -0.802605
2.49825 -3.10798 -0.806605
2.50825 -3.09998 -0.806605
2.54625 -3.10698 -0.812605
2.56025 -3.10298 -0.814605
2.58225 -3.09998 -0.817605
2.60425 -3.08698 -0.817605
2.62225 -3.08898 -0.821605
2.63825 -3.08798 -0.823605
2.67325 -3.07898 -0.826605
2.69925 -3.08998 -0.832605
2.71325 -3.08498 -0.834605
2.72825 -3.08298 -0.835605
2.74125 -3.07798 -0.837605
2.76725 -3.06798 -0.839605
2.78525 -3.07798 -0.844605
2.80025 -3.07498 -0.845605
2.82525 -3.06298 -0.847605
2.86525 -3.06798 -0.854605
2.87825 -3.07198 -0.857605
2.90825 -3.06498 -0.861605
2.91825 -3.05598 -0.861605
