7.14705 5.08401 -1.76451
7.13305 5.10701 -1.76551
7.11205 5.12601 -1.76351
7.08805 5.16001 -1.76351
7.08605 5.19201 -1.76751
7.06305 5.21001 -1.76551
7.04105 5.26301 -1.76851
7.02005 5.28101 -1.76751
7.00605 5.30501 -1.76851
6.99505 5.31401 -1.76751
6.98605 5.34201 -1.76951
6.96805 5.36301 -1.76951
6.95705 5.38901 -1.77051
6.93105 5.40401 -1.76851
6.92005 5.43101 -1.77051
6.90605 5.45501 -1.77051
6.89605 5.46401 -1.77051
6.87405 5.48201 -1.76951
6.86005 5.50601 -1.77051
6.85005 5.53401 -1.77251
6.83105 5.55401 -1.77151
6.82705 5.58701 -1.77551
6.80105 5.60101 -1.77351
6.80105 5.61901 -1.77551
6.78205 5.63901 -1.77551
6.76505 5.66201 -1.77551
6.75305 5.68801 -1.77751
6.74305 5.71501 -1.77951
8.00305 0.552007 -1.66951
8.00105 0.577007 -1.66951
7.99505 0.602007 -1.66851
7.99105 0.627007 -1.66851
7.98005 0.651007 -1.66651
7.98505 0.677007 -1.66851
7.98605 0.690007 -1.66851
7.97605 0.714007 -1.66651
7.98205 0.740007 -1.66851
7.96805 0.764007 -1.66551
7.97505 0.790007 -1.66851
7.98205 0.816007 -1.67051
7.97005 0.840007 -1.66851
7.96105 0.852007 -1.66651
7.96405 0.877007 -1.66751
7.96705 0.903007 -1.66851
7.95005 0.926007 -1.66551
7.95505 0.952007 -1.66751
7.95605 0.978007 -1.66851
7.94305 1.00101 -1.66651
7.94005 1.01401 -1.66551
7.92705 1.03701 -1.66351
7.93505 1.06401 -1.66651
7.92205 1.08701 -1.66451
7.93205 1.11401 -1.66751
7.91305 1.13701 -1.66351
7.91305 1.16201 -1.66451
7.92305 1.17601 -1.66751
7.91205 1.20001 -1.66551
7.90405 1.22401 -1.66451
7.91205 1.25101 -1.66751
7.90205 1.27501 -1.66551
7.39705 3.59201 -1.71451
7.39105 3.60301 -1.71451
7.37405 3.65201 -1.71551
7.37805 3.68301 -1.71951
7.36505 3.70601 -1.71951
7.36205 3.73301 -1.72151
7.35205 3.75701 -1.72151
7.33705 3.76401 -1.71951
7.34405 3.79701 -1.72451
7.32505 3.81701 -1.72251
7.32505 3.84601 -1.72551
7.31005 3.86701 -1.72451
7.31105 3.89701 -1.72851
7.29005 3.91601 -1.72651
7.30505 3.93801 -1.73151
7.29805 3.96401 -1.73251
7.30405 3.99701 -1.73751
7.28805 4.01801 -1.73651
7.28105 4.04401 -1.73851
7.26405 4.06501 -1.73751
7.25505 4.08901 -1.73851
7.24705 4.10001 -1.73751
7.23905 4.12601 -1.73851
7.23305 4.15201 -1.74051
7.22105 4.17601 -1.74151
7.20505 4.19601 -1.74051
7.20405 4.22601 -1.74351
7.19005 4.24901 -1.74351
7.18005 4.25801 -1.74251
7.16305 4.27801 -1.74151
7.15205 4.30201 -1.74151
7.14005 4.32501 -1.74251
7.12805 4.34901 -1.74251
7.11405 4.37101 -1.74251
7.11205 4.40101 -1.74551
7.10005 4.42401 -1.74651
7.09805 4.43801 -1.74751
7.08405 4.46101 -1.74751
7.08005 4.48901 -1.75051
7.06105 4.50801 -1.74851
7.05605 4.53701 -1.75151
7.02705 4.54901 -1.74751
7.03605 4.57101 -1.75151
7.01105 4.58501 -1.74851
7.01205 4.61801 -1.75351
6.98705 4.63301 -1.75051
6.97505 4.65701 -1.75151
6.98205 4.69301 -1.75651
6.96705 4.71501 -1.75651
6.95605 4.72301 -1.75551
6.95305 4.75301 -1.75851
6.92605 4.76701 -1.75551
6.91905 4.79401 -1.75851
6.90605 4.81701 -1.75851
6.89105 4.83901 -1.75851
6.87905 4.86301 -1.75951
6.88105 4.88001 -1.76151
6.85905 4.89701 -1.76051
6.83305 4.94401 -1.76151
6.80905 4.99201 -1.76351
6.79205 5.02901 -1.76551
6.75905 5.07001 -1.76551
6.66905 5.21901 -1.76951
6.64405 5.23301 -1.76651
6.62005 5.28201 -1.76951
6.60805 5.30601 -1.77051
6.59605 5.33101 -1.77151
6.58405 5.33901 -1.77151
6.52905 5.43101 -1.77451
7.67905 0.145007 -1.66151
7.68205 0.181007 -1.66251
7.67605 0.254007 -1.66151
7.67505 0.278007 -1.66151
7.67405 0.302007 -1.66151
7.67705 0.326007 -1.66251
7.67105 0.338007 -1.66051
7.67905 0.362007 -1.66351
7.66205 0.386007 -1.65951
7.66905 0.410007 -1.66151
7.66405 0.434007 -1.66051
7.66605 0.458007 -1.66151
7.66705 0.483007 -1.66151
7.68105 0.496007 -1.66551
7.66405 0.519007 -1.66151
7.66305 0.543007 -1.66151
7.66905 0.567007 -1.66351
7.66105 0.591007 -1.66251
7.65905 0.615007 -1.66251
7.65905 0.639007 -1.66251
7.63505 0.649007 -1.65751
7.64605 0.675007 -1.66051
7.64605 0.699007 -1.66051
7.64405 0.723007 -1.66051
7.64505 0.747007 -1.66151
7.64705 0.772007 -1.66251
7.64805 0.796007 -1.66351
7.63905 0.807007 -1.66151
7.64605 0.832007 -1.66451
7.64405 0.856007 -1.66451
7.63505 0.880007 -1.66251
7.64205 0.905007 -1.66551
7.62405 0.927007 -1.66151
7.62305 0.951007 -1.66151
7.63105 0.964007 -1.66451
7.61405 0.986007 -1.66051
7.60705 1.01001 -1.66051
7.63505 1.03801 -1.66751
7.61105 1.05901 -1.66251
7.61105 1.08301 -1.66351
7.61105 1.10801 -1.66451
7.08405 3.52701 -1.71551
7.04705 3.60601 -1.71651
7.03405 3.65501 -1.71851
7.02305 3.67701 -1.71851
7.01805 3.70301 -1.72051
7.01705 3.73101 -1.72351
7.00505 3.75301 -1.72351
7.00205 3.77901 -1.72551
6.99805 3.79101 -1.72551
6.98605 3.81301 -1.72551
6.98505 3.84201 -1.72951
6.96805 3.86101 -1.72751
6.98705 3.90001 -1.73551
6.96905 3.91901 -1.73451
6.96805 3.93301 -1.73551
6.95405 3.95401 -1.73551
6.94505 3.97701 -1.73651
6.93905 4.00301 -1.73851
6.92205 4.02201 -1.73651
6.89705 4.03701 -1.73351
6.89105 4.06201 -1.73551
6.88805 4.07501 -1.73651
6.86905 4.09301 -1.73451
6.85905 4.11601 -1.73551
6.85105 4.14101 -1.73651
6.83605 4.16101 -1.73651
6.82205 4.18201 -1.73551
6.78405 4.20301 -1.73051
6.76405 4.24901 -1.73251
6.75205 4.27201 -1.73351
6.73405 4.29001 -1.73151
6.71305 4.33601 -1.73351
6.71905 4.35501 -1.73751
6.71205 4.38101 -1.73951
6.71305 4.41101 -1.74351
6.69105 4.42701 -1.74051
6.69305 4.45901 -1.74551
6.67905 4.48001 -1.74551
6.65505 4.49401 -1.74251
6.64405 4.51701 -1.74351
6.65505 4.54001 -1.74851
6.62505 4.55001 -1.74351
6.62205 4.57801 -1.74751
6.62605 4.61201 -1.75251
6.58605 4.61501 -1.74551
6.58805 4.64701 -1.74951
6.58205 4.67501 -1.75251
6.56105 4.67501 -1.74851
6.55205 4.70001 -1.75051
6.56005 4.73701 -1.75651
6.54005 4.75401 -1.75551
6.51605 4.76701 -1.75251
6.52905 4.80901 -1.76051
6.50105 4.82001 -1.75751
6.48605 4.82401 -1.75451
6.49605 4.86301 -1.76251
6.45905 4.86701 -1.75551
6.44605 4.89001 -1.75651
6.44505 4.92101 -1.76051
6.41105 4.92701 -1.75551
6.40005 4.95001 -1.75651
6.41205 4.97601 -1.76251
6.38705 4.98901 -1.75951
6.37605 5.01301 -1.76151
6.37705 5.04601 -1.76651
6.34505 5.05201 -1.76151
6.34205 5.08301 -1.76551
6.32505 5.10201 -1.76451
6.30205 5.10001 -1.76051
6.30205 5.13301 -1.76551
6.29405 5.15901 -1.76751
6.26505 5.16901 -1.76351
6.26105 5.19801 -1.76751
6.26005 5.23101 -1.77151
6.22805 5.23801 -1.76751
6.22705 5.25401 -1.76951
6.20505 5.30201 -1.77251
6.17805 5.31201 -1.76951
6.15405 5.36001 -1.77251
6.14205 5.38301 -1.77451
7.43705 0.589007 -1.67151
7.43705 0.660007 -1.67351
7.43705 0.683007 -1.67351
7.44005 0.695007 -1.67451
7.43605 0.718007 -1.67451
7.43105 0.836007 -1.67651
7.43005 0.848007 -1.67651
7.42705 0.871007 -1.67651
7.43205 0.895007 -1.67851
7.42905 0.918007 -1.67851
7.42705 0.942007 -1.67851
7.42205 0.965007 -1.67751
7.42405 0.989007 -1.67851
7.42905 1.00101 -1.68051
7.42205 1.02401 -1.67951
7.41105 1.04601 -1.67751
7.42305 1.07201 -1.68151
7.40205 1.09301 -1.67751
7.39505 1.11501 -1.67651
7.40305 1.14001 -1.67851
7.39505 1.15101 -1.67751
7.39905 1.17601 -1.67951
7.40305 1.20001 -1.68151
7.37805 1.22001 -1.67651
7.38205 1.24401 -1.67851
7.39505 1.27001 -1.68251
7.38005 1.29201 -1.67951
7.37605 1.30301 -1.67851
7.38505 1.32801 -1.68251
7.36405 1.34801 -1.67851
7.35505 1.37101 -1.67751
7.37405 1.39801 -1.68251
7.35205 1.41801 -1.67851
7.35005 1.44201 -1.67851
7.35305 1.45401 -1.68051
7.33305 1.47401 -1.67651
7.33805 1.49901 -1.67851
7.34705 1.52501 -1.68251
7.32105 1.54401 -1.67751
7.31105 1.56601 -1.67551
7.32105 1.59201 -1.67951
7.30305 1.60001 -1.67551
7.29805 1.62301 -1.67551
7.30005 1.64801 -1.67751
7.29505 1.67101 -1.67751
7.29405 1.71901 -1.67951
7.27805 1.75101 -1.67851
7.27705 1.77501 -1.67851
7.26905 1.79701 -1.67851
7.26705 1.84501 -1.68051
7.25405 1.90301 -1.68151
7.24405 1.97301 -1.68351
6.94605 3.10001 -1.70651
6.92505 3.14301 -1.70651
6.91505 3.19201 -1.70951
6.90705 3.21401 -1.70951
6.90805 3.24101 -1.71251
6.88505 3.25701 -1.70951
6.90605 3.28001 -1.71651
6.88705 3.29701 -1.71351
6.88605 3.32301 -1.71651
6.88705 3.35101 -1.71951
6.87705 3.37201 -1.71951
6.87705 3.39901 -1.72251
6.88305 3.41601 -1.72551
6.88305 3.44301 -1.72851
6.87405 3.46501 -1.72851
6.87405 3.49201 -1.73151
6.85905 3.51201 -1.73051
6.86205 3.54001 -1.73451
6.84705 3.57401 -1.73451
6.78705 3.70701 -1.73751
6.59805 4.11801 -1.74751
6.56905 4.17201 -1.74851
6.49905 4.30101 -1.75151
6.49005 4.31101 -1.75151
6.38205 -3.12099 -1.58651
7.07405 0.0210069 -1.65351
7.07405 0.0430069 -1.65351
7.06605 0.0540069 -1.65151
7.08505 0.0770069 -1.65651
7.06605 0.0990069 -1.65151
7.08505 0.121007 -1.65651
7.07505 0.143007 -1.65351
7.06805 0.166007 -1.65251
7.07005 0.188007 -1.65251
7.07705 0.199007 -1.65451
7.05705 0.221007 -1.64951
7.06405 0.243007 -1.65151
7.06105 0.265007 -1.65151
7.07205 0.288007 -1.65451
7.05405 0.309007 -1.64951
7.06305 0.332007 -1.65251
7.05205 0.343007 -1.64951
7.05305 0.365007 -1.65051
7.05605 0.387007 -1.65151
7.06205 0.410007 -1.65351
7.06405 0.455007 -1.65451
7.06105 0.488007 -1.65451
7.06205 0.510007 -1.65451
7.06405 0.533007 -1.65551
7.05505 0.621007 -1.65551
7.05205 0.677007 -1.65551
7.06605 0.745007 -1.66151
7.05005 0.766007 -1.65751
7.05005 0.822007 -1.65951
6.34305 3.69801 -1.72051
6.03205 4.26701 -1.73251
6.02105 4.28901 -1.73351
6.00705 4.32201 -1.73451
5.98605 4.36401 -1.73651
5.91505 4.47001 -1.73851
5.90705 4.49301 -1.74051
5.89605 4.51401 -1.74151
5.87805 4.53001 -1.74051
5.86705 4.55101 -1.74151
5.85405 4.57101 -1.74151
5.85305 4.58501 -1.74351
5.83705 4.60201 -1.74351
5.83605 4.63101 -1.74751
5.82905 4.65601 -1.74951
5.81905 4.67801 -1.75151
5.77305 4.70101 -1.74651
5.78105 4.72201 -1.75051
5.75905 4.73401 -1.74851
5.75705 4.76301 -1.75251
5.73205 4.77201 -1.74951
5.72005 4.79301 -1.75051
5.71905 4.82301 -1.75551
5.69105 4.83001 -1.75051
5.70205 4.85501 -1.75751
5.69605 4.88101 -1.76051
5.68205 4.90001 -1.76051
5.68605 4.93401 -1.76651
5.65405 4.93801 -1.76151
5.65305 4.96901 -1.76651
5.63405 4.98401 -1.76551
5.63505 5.00101 -1.76851
5.20705 5.51201 -1.78051
5.12905 5.58501 -1.78051
5.09805 5.58601 -1.77551
5.08005 5.60101 -1.77551
5.07005 5.62601 -1.77851
5.04705 5.63601 -1.77651
5.02405 5.64601 -1.77451
5.00005 5.65401 -1.77151
4.96905 5.65501 -1.76651
4.96905 5.67301 -1.77051
4.94505 5.68101 -1.76751
4.92805 5.69801 -1.76851
4.90405 5.70701 -1.76651
7.06905 -0.311993 -1.65351
7.08005 -0.223993 -1.65551
7.08105 -0.211993 -1.65551
7.07605 -0.189993 -1.65451
7.07605 -0.167993 -1.65451
7.06305 -0.122993 -1.65051
7.08505 -0.100993 -1.65651
7.07205 -0.0789931 -1.65251
7.07805 -0.0679931 -1.65451
7.09705 -0.0459931 -1.65951
7.06605 -0.0229931 -1.65151
7.08805 -0.000993132 -1.65651
6.82005 0.0210069 -1.65951
6.81505 0.0430069 -1.65851
6.81805 0.0640069 -1.65951
6.82005 0.0860069 -1.65951
6.82305 0.107007 -1.66051
6.81605 0.118007 -1.65851
6.81705 0.139007 -1.65951
6.80505 0.160007 -1.65651
6.80805 0.182007 -1.65751
6.80805 0.203007 -1.65751
6.80505 0.225007 -1.65651
6.80805 0.246007 -1.65751
6.80405 0.257007 -1.65651
6.80505 0.278007 -1.65751
6.80805 0.300007 -1.65851
6.80305 0.321007 -1.65751
6.80405 0.342007 -1.65751
6.79105 0.363007 -1.65451
6.80005 0.385007 -1.65751
6.79505 0.395007 -1.65651
6.80005 0.417007 -1.65751
6.80605 0.439007 -1.65951
6.79305 0.460007 -1.65651
6.79405 0.481007 -1.65751
6.79605 0.503007 -1.65851
6.79105 0.524007 -1.65751
6.78605 0.534007 -1.65651
6.79605 0.556007 -1.65951
6.78605 0.577007 -1.65751
6.79205 0.599007 -1.65951
6.78805 0.620007 -1.65851
6.78205 0.641007 -1.65751
6.78005 0.662007 -1.65751
6.78705 0.674007 -1.65951
6.78305 0.695007 -1.65951
6.77405 0.780007 -1.65951
6.77905 0.802007 -1.66151
6.77105 0.834007 -1.66051
6.76505 0.941007 -1.66251
5.77505 4.11201 -1.73051
5.77005 4.13601 -1.73251
5.75205 4.17801 -1.73551
5.73705 4.19401 -1.73451
5.72905 4.20201 -1.73451
5.72205 4.22501 -1.73651
5.70905 4.24301 -1.73651
5.69405 4.26001 -1.73551
5.68805 4.28301 -1.73851
5.67505 4.30101 -1.73851
5.65205 4.31201 -1.73551
5.66005 4.33201 -1.74051
5.65505 4.35601 -1.74251
5.63805 4.37101 -1.74151
5.63305 4.39601 -1.74451
5.61805 4.41301 -1.74451
5.60105 4.42801 -1.74351
5.59505 4.45201 -1.74551
5.59405 4.46501 -1.74751
5.57705 4.48001 -1.74651
5.56505 4.50001 -1.74751
5.55905 4.52401 -1.75051
5.54005 4.53801 -1.74851
5.53805 4.56501 -1.75251
5.52605 4.58501 -1.75351
5.51305 4.60301 -1.75451
5.51505 4.61901 -1.75751
5.49805 4.63401 -1.75651
5.48205 4.65001 -1.75551
5.47605 4.67501 -1.75851
5.46805 4.69801 -1.76151
5.45205 4.71401 -1.76051
4.91105 5.36001 -1.77651
4.89405 5.37601 -1.77651
4.88205 5.39701 -1.77851
4.85305 5.39901 -1.77451
4.84105 5.40201 -1.77251
4.82505 5.41901 -1.77351
4.79405 5.41801 -1.76751
4.78505 5.44201 -1.77051
4.76505 5.45401 -1.76951
4.73605 5.45601 -1.76551
4.71905 5.47101 -1.76551
4.71305 5.48101 -1.76651
4.68605 5.48401 -1.76251
6.81105 -0.138993 -1.65751
6.80205 -0.117993 -1.65551
6.82005 -0.0749931 -1.65951
6.82205 -0.0539931 -1.66051
6.82405 -0.0319931 -1.66051
6.81105 -0.0209931 -1.65751
6.82405 6.86779e-06 -1.66051
6.56805 0.638007 -1.67551
6.55405 0.647007 -1.67151
6.55505 0.668007 -1.67251
6.56805 0.712007 -1.67751
6.54505 0.730007 -1.67151
6.55405 0.772007 -1.67551
6.55605 0.783007 -1.67651
6.56205 0.805007 -1.67851
6.55705 0.825007 -1.67851
6.55605 0.846007 -1.67851
6.55705 0.867007 -1.67951
6.55105 0.887007 -1.67851
6.54605 0.907007 -1.67851
6.55605 0.919007 -1.68151
6.54905 0.939007 -1.68051
6.54805 0.960007 -1.68051
6.54905 0.981007 -1.68151
6.54005 1.00101 -1.68051
6.53105 1.02101 -1.67851
6.53005 1.04201 -1.67951
6.54005 1.05401 -1.68251
6.51705 1.07101 -1.67751
6.52905 1.09401 -1.68151
6.52405 1.11401 -1.68051
6.51505 1.13401 -1.67951
6.51905 1.15601 -1.68151
6.51705 1.17601 -1.68151
6.50705 1.18501 -1.67951
6.51305 1.20801 -1.68251
6.49005 1.22401 -1.67751
6.50505 1.24801 -1.68251
6.50005 1.26801 -1.68151
6.48405 1.28701 -1.67851
6.49205 1.30901 -1.68151
6.49305 1.32001 -1.68251
6.49305 1.34101 -1.68351
6.48505 1.36101 -1.68251
6.48405 1.38201 -1.68351
6.47605 1.40201 -1.68251
6.47005 1.42201 -1.68251
6.46905 1.44301 -1.68351
6.47405 1.45501 -1.68551
6.46805 1.47501 -1.68451
6.46905 1.49601 -1.68651
6.45505 1.51401 -1.68351
6.44605 1.53401 -1.68251
6.44305 1.55401 -1.68351
6.44205 1.57601 -1.68451
6.44105 1.58601 -1.68451
6.43805 1.60701 -1.68551
6.43105 1.62701 -1.68451
6.42405 1.64601 -1.68451
6.41505 1.66501 -1.68351
6.41005 1.68601 -1.68351
6.41005 1.70701 -1.68451
6.41005 1.71801 -1.68551
6.41205 1.74001 -1.68751
6.39505 1.75701 -1.68451
6.39105 1.77801 -1.68451
6.38705 1.79801 -1.68551
6.38705 1.82001 -1.68751
6.37205 1.83701 -1.68451
6.37105 1.84801 -1.68451
6.36705 1.86801 -1.68551
6.36505 1.88901 -1.68651
6.35705 1.90901 -1.68551
6.34005 1.94701 -1.68451
6.31205 2.05901 -1.68651
6.30705 2.11201 -1.68951
6.28505 2.17101 -1.68951
6.25005 2.30301 -1.69251
6.23905 2.34301 -1.69351
6.22605 2.39401 -1.69451
6.22205 2.41501 -1.69551
6.21405 2.43501 -1.69551
6.22105 2.46001 -1.70051
6.19705 2.47301 -1.69551
6.20405 2.49801 -1.69951
6.20005 2.50801 -1.69951
6.20605 2.53301 -1.70351
6.19105 2.55001 -1.70151
6.20605 2.57901 -1.70851
6.19405 2.59701 -1.70751
6.18105 2.61401 -1.70551
6.18505 2.63901 -1.70951
6.18105 2.64901 -1.70951
6.17105 2.66701 -1.70951
6.17505 2.69201 -1.71251
6.14705 2.70301 -1.70651
6.14005 2.72301 -1.70751
6.14705 2.74901 -1.71251
6.11605 2.75801 -1.70551
6.11305 2.76901 -1.70551
6.10105 2.78601 -1.70451
6.09105 2.80501 -1.70451
6.08205 2.82401 -1.70451
6.08305 2.84801 -1.70751
5.62905 3.78401 -1.72551
5.61705 3.80101 -1.72551
5.61505 3.82601 -1.72851
5.59805 3.84001 -1.72651
5.58705 3.85901 -1.72751
5.59105 3.88701 -1.73251
5.58205 3.89401 -1.73151
5.56905 3.91101 -1.73151
5.56505 3.93401 -1.73451
5.54905 3.95001 -1.73351
5.52605 3.95901 -1.72951
5.52505 3.98401 -1.73351
5.52805 4.01301 -1.73851
5.50405 4.02201 -1.73451
5.49805 4.03101 -1.73451
5.49405 4.05501 -1.73751
5.47105 4.06401 -1.73451
5.48305 4.10001 -1.74251
5.47105 4.11801 -1.74351
5.45705 4.13401 -1.74251
5.45905 4.15001 -1.74551
5.44005 4.16201 -1.74351
5.42005 4.17401 -1.74151
5.42005 4.20101 -1.74551
5.40505 4.21701 -1.74551
5.39805 4.23901 -1.74751
5.40005 4.26801 -1.75251
5.38105 4.26701 -1.74851
5.37105 4.28601 -1.74951
5.36205 4.30601 -1.75051
5.36005 4.33301 -1.75551
5.34805 4.35101 -1.75551
5.32505 4.36101 -1.75251
5.31705 4.39501 -1.75651
5.29205 4.43101 -1.75751
4.85205 4.94101 -1.76451
4.83005 4.99701 -1.77051
4.79205 4.98901 -1.76151
4.71705 5.11601 -1.77251
4.70205 5.13201 -1.77351
4.67205 5.16401 -1.77451
4.65205 5.15901 -1.76951
4.63605 5.17301 -1.76951
4.61305 5.18001 -1.76751
4.59305 5.19101 -1.76551
4.58105 5.20901 -1.76751
4.56105 5.21901 -1.76551
4.53905 5.22801 -1.76351
4.52805 5.23201 -1.76251
4.52105 5.25601 -1.76651
6.31705 0.00900687 -1.65451
6.31905 0.0290069 -1.65551
6.31505 0.0380069 -1.65451
6.31505 0.0580069 -1.65451
6.29705 0.0780069 -1.64951
6.30805 0.0980069 -1.65251
6.29305 0.118007 -1.64851
6.30205 0.137007 -1.65051
6.31705 0.158007 -1.65551
6.31305 0.167007 -1.65451
6.30405 0.187007 -1.65251
6.31505 0.207007 -1.65551
6.30705 0.227007 -1.65351
6.30605 0.247007 -1.65351
6.30005 0.266007 -1.65151
6.30505 0.286007 -1.65351
6.30005 0.296007 -1.65251
6.29805 0.336007 -1.65251
6.29905 0.355007 -1.65251
6.30005 0.375007 -1.65351
6.29905 0.425007 -1.65351
6.29505 0.504007 -1.65451
5.18505 4.07101 -1.73151
5.17405 4.08901 -1.73251
5.16105 4.13201 -1.73751
5.14505 4.14601 -1.73651
5.14105 4.16901 -1.73951
5.14105 4.18201 -1.74151
5.12305 4.19401 -1.73951
5.10805 4.20901 -1.73951
5.10305 4.23101 -1.74251
5.09805 4.25501 -1.74551
5.07605 4.26301 -1.74251
5.07005 4.28601 -1.74451
5.06805 4.29701 -1.74651
5.06105 4.31901 -1.74951
5.06105 4.34601 -1.75451
5.04605 4.36101 -1.75351
5.03205 4.37701 -1.75351
5.01905 4.42101 -1.75851
4.84305 4.63001 -1.76251
4.83005 4.63301 -1.75951
4.81905 4.65201 -1.76151
4.80605 4.66801 -1.76251
4.78305 4.67501 -1.75851
4.76005 4.68201 -1.75551
4.76105 4.71201 -1.76151
4.75105 4.73201 -1.76351
4.73205 4.72801 -1.75851
4.71505 4.74101 -1.75851
4.71005 4.76501 -1.76251
4.69405 4.77901 -1.76151
4.67805 4.79301 -1.76151
4.66105 4.80501 -1.76051
4.64305 4.81701 -1.75951
4.64205 4.83101 -1.76251
4.62405 4.84301 -1.76151
4.59405 4.84201 -1.75551
4.57905 4.85701 -1.75551
4.56605 4.87401 -1.75651
4.53905 4.87601 -1.75151
4.52105 4.88701 -1.75051
4.51705 4.89801 -1.75151
5.53405 -2.58299 -1.59551
5.55105 -2.56999 -1.59851
5.55705 -2.55199 -1.59851
5.57105 -2.52599 -1.59851
5.57705 -2.50799 -1.59851
5.59305 -2.49399 -1.60051
5.60605 -2.47899 -1.60251
5.62105 -2.46499 -1.60451
5.62205 -2.44399 -1.60251
5.63305 -2.42799 -1.60351
5.63705 -2.41899 -1.60351
5.64805 -2.40299 -1.60451
5.66105 -2.38699 -1.60651
5.68105 -2.37499 -1.60951
5.68305 -2.35399 -1.60851
5.69205 -2.33699 -1.60851
5.71205 -2.32499 -1.61251
5.71505 -2.31599 -1.61251
5.73505 -2.30299 -1.61651
5.74605 -2.28599 -1.61751
5.75505 -2.26899 -1.61851
5.76405 -2.25099 -1.61851
5.77305 -2.23399 -1.61951
6.31405 -0.328993 -1.65651
6.31905 -0.268993 -1.65651
6.32005 -0.249993 -1.65651
6.31805 -0.239993 -1.65651
6.31405 -0.199993 -1.65451
6.30705 -0.179993 -1.65251
6.31905 -0.159993 -1.65551
6.30405 -0.139993 -1.65151
6.31405 -0.119993 -1.65451
6.32205 -0.109993 -1.65651
6.31005 -0.0899931 -1.65351
6.30905 -0.0709931 -1.65251
6.31705 -0.0509931 -1.65451
6.31105 -0.0309931 -1.65351
6.32305 -0.0109931 -1.65651
6.09305 0.00100687 -1.65251
6.09905 0.0100069 -1.65351
6.09705 0.0290069 -1.65351
6.11605 0.0490069 -1.65851
6.09105 0.0680069 -1.65151
6.09505 0.0870069 -1.65251
6.10005 0.106007 -1.65451
6.09805 0.125007 -1.65351
6.09005 0.135007 -1.65151
6.10705 0.154007 -1.65651
6.08505 0.173007 -1.65051
6.10205 0.193007 -1.65551
6.09705 0.212007 -1.65451
6.08705 0.230007 -1.65151
6.08305 0.249007 -1.65051
6.09905 0.260007 -1.65551
6.09505 0.279007 -1.65451
6.09405 0.298007 -1.65451
6.09905 0.317007 -1.65651
6.08405 0.336007 -1.65251
6.09305 0.375007 -1.65551
6.09105 0.384007 -1.65451
6.08805 0.403007 -1.65451
6.09105 0.461007 -1.65651
5.02905 3.89101 -1.72951
5.01705 3.90701 -1.72951
5.00905 3.92601 -1.73051
4.98705 3.96001 -1.73151
4.99405 3.99101 -1.73951
4.96505 3.99301 -1.73251
4.96405 4.00501 -1.73451
4.96105 4.02901 -1.73851
4.94605 4.04201 -1.73751
4.92905 4.05401 -1.73551
4.93505 4.08501 -1.74351
4.90705 4.08801 -1.73751
4.90305 4.11101 -1.74051
4.90405 4.12501 -1.74351
4.89705 4.14601 -1.74551
4.88305 4.16001 -1.74551
4.87705 4.18101 -1.74851
4.86405 4.19701 -1.74851
4.85605 4.21701 -1.75051
4.84905 4.23701 -1.75251
4.84305 4.24601 -1.75351
4.83405 4.26501 -1.75451
4.80705 4.29501 -1.75451
4.65505 4.45801 -1.75451
4.64105 4.47201 -1.75451
4.62305 4.48301 -1.75251
4.60405 4.49301 -1.75051
4.58905 4.50601 -1.75051
4.57505 4.52101 -1.75051
4.57705 4.53701 -1.75451
4.57205 4.56101 -1.75851
4.55905 4.57701 -1.75851
4.54605 4.59301 -1.75951
4.52205 4.59701 -1.75551
4.51505 4.61801 -1.75851
4.48805 4.62001 -1.75351
4.48305 4.64401 -1.75651
4.47405 4.64901 -1.75651
4.45005 4.65401 -1.75251
4.43405 4.66601 -1.75151
4.41405 4.67501 -1.74951
4.40505 4.69401 -1.75151
5.28705 -2.63099 -1.59751
5.30005 -2.61699 -1.59951
5.30605 -2.59999 -1.59851
5.31605 -2.58399 -1.59951
5.32705 -2.57899 -1.60151
5.33505 -2.56199 -1.60151
5.34005 -2.54399 -1.60051
5.35705 -2.53099 -1.60351
5.36305 -2.51299 -1.60251
5.36705 -2.49499 -1.60151
5.37105 -2.47599 -1.60051
5.39605 -2.47699 -1.60751
5.39405 -2.45599 -1.60351
5.39605 -2.43599 -1.60251
5.41105 -2.42299 -1.60451
5.41105 -2.40199 -1.60251
5.42905 -2.38999 -1.60551
5.43705 -2.37299 -1.60551
5.43905 -2.36399 -1.60451
5.44605 -2.34699 -1.60451
5.46605 -2.33499 -1.60851
5.46805 -2.31499 -1.60751
5.48805 -2.30299 -1.61051
5.50405 -2.28999 -1.61351
5.50005 -2.26799 -1.61051
5.50905 -2.26199 -1.61251
5.52005 -2.24599 -1.61351
5.52805 -2.22899 -1.61351
5.54105 -2.21399 -1.61551
5.56605 -2.20299 -1.62051
5.56005 -2.18099 -1.61751
5.57605 -2.16699 -1.61951
5.59005 -2.14199 -1.62051
6.10805 -0.248993 -1.65751
6.10805 -0.238993 -1.65751
6.10905 -0.219993 -1.65751
6.10905 -0.200993 -1.65751
6.10205 -0.180993 -1.65551
6.10505 -0.161993 -1.65651
6.10505 -0.142993 -1.65651
6.11505 -0.123993 -1.65851
6.11305 -0.113993 -1.65851
6.10005 -0.0949931 -1.65451
6.10105 -0.0759931 -1.65451
6.11205 -0.0569931 -1.65751
6.10705 -0.0379931 -1.65651
6.10105 -0.0179931 -1.65451
5.94405 0.00400687 -1.65151
5.94605 0.0230069 -1.65251
5.93905 0.0410069 -1.65051
5.93705 0.0600069 -1.64951
5.94405 0.0700069 -1.65151
5.95505 0.0880069 -1.65551
5.93205 0.107007 -1.64851
5.93505 0.125007 -1.64951
5.94305 0.144007 -1.65151
5.93805 0.163007 -1.65051
5.94505 0.191007 -1.65251
5.94305 0.247007 -1.65251
5.93705 0.265007 -1.65151
4.93805 3.73601 -1.72551
4.87405 3.83401 -1.72851
4.86405 3.86301 -1.73051
4.85105 3.87801 -1.73051
4.83605 3.89101 -1.72951
4.83005 3.91101 -1.73251
4.82405 3.93101 -1.73451
4.80405 3.94001 -1.73151
4.80305 3.95201 -1.73351
4.80005 3.97501 -1.73751
4.78705 3.99001 -1.73751
4.77805 4.00701 -1.73851
4.77305 4.02901 -1.74151
4.74705 4.03201 -1.73651
4.74705 4.05801 -1.74151
4.74405 4.06801 -1.74251
4.73805 4.08901 -1.74551
4.73505 4.11301 -1.74951
4.72405 4.12901 -1.74951
4.71505 4.14801 -1.75151
4.70805 4.16801 -1.75351
4.68205 4.17101 -1.74851
4.67705 4.18001 -1.74951
4.66905 4.19901 -1.75151
4.52205 4.37201 -1.75451
4.49805 4.37701 -1.75051
4.48705 4.38001 -1.74851
4.47305 4.39401 -1.74851
4.45305 4.40101 -1.74551
4.44405 4.42101 -1.74851
4.43705 4.44101 -1.75051
4.43005 4.46201 -1.75351
4.41305 4.47301 -1.75251
4.40505 4.47901 -1.75251
4.38705 4.48801 -1.75051
4.37705 4.50601 -1.75251
4.36505 4.52301 -1.75351
4.35105 4.53701 -1.75351
4.33905 4.55301 -1.75451
4.31005 4.55101 -1.74851
4.30705 4.56201 -1.74951
4.28405 4.56601 -1.74551
4.26805 4.57801 -1.74551
5.13505 -2.60099 -1.59551
5.16705 -2.57699 -1.60151
5.16905 -2.56799 -1.60051
5.18105 -2.55299 -1.60151
5.19105 -2.53799 -1.60251
5.19205 -2.51799 -1.59951
5.20005 -2.50199 -1.59951
5.21305 -2.48799 -1.60151
5.21505 -2.46899 -1.59951
5.22405 -2.46299 -1.60151
5.24405 -2.45199 -1.60551
5.24805 -2.43399 -1.60451
5.25205 -2.41599 -1.60351
5.26705 -2.40299 -1.60551
5.28105 -2.38999 -1.60751
5.28205 -2.36999 -1.60551
5.28005 -2.35899 -1.60351
5.28605 -2.34199 -1.60351
5.29905 -2.32699 -1.60551
5.31805 -2.31599 -1.60951
5.31305 -2.29399 -1.60551
5.32405 -2.27899 -1.60651
5.34905 -2.26999 -1.61151
5.33805 -2.24499 -1.60651
5.35705 -2.24399 -1.61151
5.37205 -2.22999 -1.61351
5.36305 -2.20599 -1.60851
5.37505 -2.19199 -1.61051
5.38705 -2.17699 -1.61151
5.39605 -2.16099 -1.61251
5.41005 -2.15699 -1.61551
5.41805 -2.13999 -1.61651
5.43005 -2.12499 -1.61851
5.45105 -2.11399 -1.62251
5.46105 -2.09799 -1.62351
5.45405 -2.07499 -1.61951
5.46705 -2.06099 -1.62151
5.94305 -0.397993 -1.65551
5.94605 -0.378993 -1.65551
5.94005 -0.341993 -1.65351
5.93605 -0.322993 -1.65151
5.95205 -0.304993 -1.65651
5.95405 -0.294993 -1.65651
5.95005 -0.275993 -1.65551
5.94705 -0.238993 -1.65451
5.95005 -0.219993 -1.65451
5.95605 -0.201993 -1.65651
5.94205 -0.182993 -1.65151
5.94205 -0.172993 -1.65151
5.93705 -0.153993 -1.65051
5.94905 -0.135993 -1.65351
5.94505 -0.116993 -1.65251
5.94905 -0.0989931 -1.65351
5.94205 -0.0799931 -1.65151
5.95005 -0.0609931 -1.65351
5.96305 -0.0519931 -1.65751
5.93705 -0.0329931 -1.64951
5.94105 -0.0149931 -1.65051
5.75605 0.0220069 -1.66551
5.74405 0.0400069 -1.66151
5.74405 0.0490069 -1.66151
5.75705 0.0670069 -1.66651
5.74005 0.0850069 -1.66051
5.75305 0.103007 -1.66451
5.74105 0.121007 -1.66151
5.75805 0.140007 -1.66651
5.74605 0.157007 -1.66351
5.75105 0.167007 -1.66451
5.73805 0.184007 -1.66051
5.73505 0.202007 -1.66051
5.73605 0.220007 -1.66051
5.73605 0.238007 -1.66051
5.74405 0.257007 -1.66351
5.73405 0.274007 -1.66051
5.74305 0.284007 -1.66351
5.72305 0.301007 -1.65751
5.75105 0.320007 -1.66651
5.72705 0.337007 -1.65951
5.72805 0.355007 -1.66051
5.72305 0.373007 -1.65851
5.72505 0.391007 -1.66051
5.73805 0.401007 -1.66451
5.72905 0.419007 -1.66151
5.75105 0.438007 -1.66851
5.72405 0.454007 -1.66151
5.74005 0.474007 -1.66651
5.71005 0.489007 -1.65751
5.73105 0.509007 -1.66451
5.71905 0.517007 -1.66151
5.73305 0.537007 -1.66651
5.72105 0.554007 -1.66351
5.71405 0.571007 -1.66151
5.72305 0.590007 -1.66451
5.72505 0.609007 -1.66651
5.71005 0.625007 -1.66151
5.71305 0.635007 -1.66351
5.73405 0.655007 -1.67051
5.70705 0.670007 -1.66251
5.71805 0.690007 -1.66651
5.70605 0.707007 -1.66351
5.70105 0.751007 -1.66351
5.70305 0.788007 -1.66651
5.70305 0.807007 -1.66651
5.69505 0.824007 -1.66451
5.69605 0.842007 -1.66651
5.69905 0.861007 -1.66751
5.68805 0.878007 -1.66551
5.68705 0.886007 -1.66551
5.69405 0.906007 -1.66851
5.68405 0.941007 -1.66751
5.68205 0.977007 -1.66851
5.67905 1.00401 -1.66851
5.67605 1.04101 -1.67051
5.66305 1.27901 -1.68051
5.63805 1.31101 -1.67551
5.62905 1.34601 -1.67551
5.61905 1.37201 -1.67451
5.62905 1.41201 -1.68051
5.61805 1.44701 -1.67951
5.62705 1.46801 -1.68351
5.60405 1.47101 -1.67751
5.61205 1.49201 -1.68151
5.60805 1.51001 -1.68151
5.59705 1.52601 -1.67951
5.61105 1.54901 -1.68551
5.61705 1.57001 -1.68951
5.62105 1.59001 -1.69251
5.60005 1.59301 -1.68651
5.61905 1.61801 -1.69351
5.58505 1.62701 -1.68451
5.59205 1.64801 -1.68851
5.58005 1.66401 -1.68651
5.59805 1.68801 -1.69351
5.56005 1.69601 -1.68351
5.57005 1.70901 -1.68751
5.55005 1.72201 -1.68251
5.56505 1.74501 -1.68951
5.55605 1.76201 -1.68751
5.56105 1.78301 -1.69151
5.53705 1.79401 -1.68551
5.55705 1.82001 -1.69351
5.52905 1.82001 -1.68551
5.52305 1.83801 -1.68551
5.53905 1.86201 -1.69251
5.51505 1.87301 -1.68651
5.52405 1.89601 -1.69151
5.50305 1.90801 -1.68651
5.51205 1.93001 -1.69151
5.49005 1.95201 -1.68751
5.51405 1.98001 -1.69751
5.47705 1.98601 -1.68751
5.49805 2.01301 -1.69651
5.48205 2.04701 -1.69451
5.46605 2.05101 -1.69051
5.46105 2.06801 -1.69151
5.45505 2.08501 -1.69151
5.45005 2.10301 -1.69251
5.44005 2.11901 -1.69051
5.42805 2.15401 -1.69151
5.29405 2.53701 -1.70051
5.28405 2.55301 -1.70051
5.28005 2.59201 -1.70451
5.26305 2.60401 -1.70151
5.27105 2.63901 -1.70851
4.74705 3.57001 -1.72251
4.73205 3.60601 -1.72551
4.68605 3.66501 -1.72551
4.68305 3.67401 -1.72651
4.68605 3.70101 -1.73251
4.66905 3.71101 -1.72951
4.65705 3.72601 -1.72951
4.64005 3.73501 -1.72751
4.63405 3.75501 -1.72951
4.61905 3.76701 -1.72851
4.62005 3.78001 -1.73151
4.60605 3.79201 -1.73051
4.59905 3.81201 -1.73251
4.59505 3.83201 -1.73551
4.58605 3.84901 -1.73651
4.57405 3.86301 -1.73651
4.56405 3.88001 -1.73851
4.56005 3.88901 -1.73851
4.55705 3.91201 -1.74251
4.54505 3.92601 -1.74251
4.52705 3.93501 -1.74051
4.52305 3.95701 -1.74451
4.52505 3.98401 -1.74951
4.50805 3.99401 -1.74851
4.49105 4.00501 -1.74651
4.48405 4.03601 -1.75151
4.45805 4.06401 -1.75151
4.45005 4.08201 -1.75251
4.30405 4.25801 -1.75751
4.28605 4.26701 -1.75551
4.26305 4.27101 -1.75151
4.25305 4.27401 -1.74951
4.24605 4.29401 -1.75251
4.22205 4.29601 -1.74851
4.22005 4.32201 -1.75351
4.20805 4.33601 -1.75451
4.19905 4.35501 -1.75651
4.19105 4.37401 -1.75851
4.17805 4.37301 -1.75551
4.17305 4.39601 -1.76051
4.15005 4.40001 -1.75551
4.13105 4.40701 -1.75351
4.12105 4.42401 -1.75551
4.10105 4.43001 -1.75251
4.07905 4.43401 -1.74851
4.07105 4.45401 -1.75151
4.06705 4.46401 -1.75251
4.04405 4.46601 -1.74851
4.02705 4.47601 -1.74751
4.02205 4.49901 -1.75151
3.99505 4.49701 -1.74551
3.98505 4.51401 -1.74751
3.97205 4.52801 -1.74851
3.95905 4.52701 -1.74551
3.91805 4.56701 -1.74651
3.89005 4.59101 -1.74651
4.92505 -2.62399 -1.61151
4.94005 -2.61199 -1.61351
4.94305 -2.59399 -1.61151
4.97005 -2.55799 -1.61451
4.97205 -2.51999 -1.60951
4.98505 -2.50699 -1.61151
4.97405 -2.48199 -1.60451
4.98005 -2.47499 -1.60551
4.99905 -2.46499 -1.60951
5.02405 -2.45799 -1.61551
5.02305 -2.43799 -1.61251
5.03305 -2.42299 -1.61251
5.04705 -2.40999 -1.61551
5.05105 -2.39299 -1.61451
5.04005 -2.37799 -1.60851
5.06605 -2.37099 -1.61551
5.06305 -2.34999 -1.61151
5.07005 -2.33399 -1.61151
5.09505 -2.32599 -1.61751
5.09905 -2.30799 -1.61651
5.09605 -2.28799 -1.61251
5.11705 -2.28699 -1.61851
5.10805 -2.26499 -1.61351
5.12205 -2.25099 -1.61551
5.12805 -2.23499 -1.61551
5.15205 -2.22599 -1.62151
5.14305 -2.20299 -1.61551
5.15405 -2.18799 -1.61651
5.16205 -2.18299 -1.61851
5.17305 -2.16799 -1.61951
5.16905 -2.14699 -1.61651
5.17605 -2.13099 -1.61651
5.18905 -2.11699 -1.61851
5.21005 -2.10699 -1.62351
5.21705 -2.08999 -1.62351
5.21705 -2.08099 -1.62251
5.22705 -2.06599 -1.62351
5.24405 -2.01599 -1.62251
5.74605 -0.0769931 -1.66251
5.75205 -0.0499931 -1.66451
5.57005 0.188007 -1.66751
5.57805 0.214007 -1.67051
5.57905 0.250007 -1.67051
5.57305 0.284007 -1.66951
5.58005 0.302007 -1.67251
5.57705 0.320007 -1.67151
5.57705 0.346007 -1.67251
5.57405 0.364007 -1.67151
5.57305 0.381007 -1.67151
5.57905 0.399007 -1.67351
5.55705 0.415007 -1.66751
5.57605 0.443007 -1.67351
5.55805 0.459007 -1.66851
5.57505 0.478007 -1.67451
5.57905 0.496007 -1.67651
5.55705 0.512007 -1.66951
5.56705 0.530007 -1.67351
5.56105 0.547007 -1.67251
5.54405 0.563007 -1.66751
5.57005 0.575007 -1.67551
5.56805 0.592007 -1.67551
5.54305 0.607007 -1.66851
5.56205 0.627007 -1.67551
5.55805 0.644007 -1.67451
5.54905 0.661007 -1.67251
5.54505 0.678007 -1.67151
5.54005 0.686007 -1.67051
5.54105 0.704007 -1.67151
5.53505 0.721007 -1.67051
5.54105 0.739007 -1.67251
5.53305 0.756007 -1.67051
5.54705 0.776007 -1.67651
5.53205 0.791007 -1.67251
5.54505 0.802007 -1.67651
5.53205 0.818007 -1.67351
5.53305 0.836007 -1.67451
5.54005 0.855007 -1.67751
5.53905 0.872007 -1.67851
5.52105 0.887007 -1.67351
5.52605 0.906007 -1.67551
5.52205 0.914007 -1.67551
5.52705 0.933007 -1.67751
5.51505 0.949007 -1.67451
5.53005 0.969007 -1.68051
5.51405 0.984007 -1.67651
5.49405 0.999007 -1.67051
5.49505 1.01701 -1.67251
5.51605 1.02901 -1.67951
5.50505 1.04501 -1.67651
5.50005 1.06201 -1.67651
5.48505 1.07701 -1.67251
5.49305 1.09701 -1.67651
5.48805 1.11401 -1.67551
5.48405 1.13101 -1.67551
5.49305 1.14201 -1.67951
5.48605 1.15801 -1.67851
5.47305 1.17301 -1.67551
5.49005 1.19501 -1.68151
5.47105 1.20901 -1.67651
5.47505 1.22801 -1.67951
5.46905 1.24501 -1.67851
5.46205 1.25201 -1.67651
5.46105 1.27001 -1.67851
5.47005 1.29001 -1.68251
5.47205 1.30901 -1.68451
5.44205 1.32001 -1.67551
5.45405 1.34101 -1.68151
5.45005 1.35801 -1.68151
5.45505 1.36801 -1.68351
5.43805 1.38201 -1.67951
5.43705 1.40001 -1.68051
5.44605 1.42101 -1.68451
5.43805 1.43701 -1.68351
5.44605 1.45701 -1.68751
5.45205 1.47701 -1.69151
5.43905 1.48301 -1.68751
5.44905 1.50401 -1.69251
5.44805 1.52201 -1.69451
5.44305 1.53901 -1.69451
5.43505 1.55501 -1.69251
5.43105 1.57301 -1.69351
5.41405 1.58601 -1.68951
5.42005 1.59701 -1.69251
5.40305 1.61001 -1.68751
5.39605 1.62701 -1.68751
5.38705 1.64301 -1.68651
5.40505 1.66701 -1.69451
5.39505 1.68201 -1.69251
5.38705 1.69901 -1.69151
5.38105 1.70601 -1.69051
5.37405 1.72201 -1.68951
5.38505 1.74401 -1.69551
5.36505 1.75701 -1.69051
5.37205 1.77701 -1.69451
5.35705 1.79101 -1.69151
5.34805 1.80701 -1.69051
5.35105 1.81701 -1.69251
5.34805 1.83501 -1.69351
5.34805 1.85401 -1.69551
5.33505 1.86801 -1.69251
5.32605 1.88401 -1.69151
5.33405 1.90501 -1.69651
5.31905 1.91901 -1.69351
5.30305 1.92301 -1.68951
5.32205 1.94901 -1.69751
5.29805 1.95901 -1.69151
5.30305 1.97901 -1.69551
5.30005 1.99701 -1.69651
5.28905 2.01201 -1.69451
5.27305 2.02501 -1.69151
5.28805 2.04001 -1.69751
5.28205 2.05701 -1.69751
5.27205 2.07201 -1.69651
5.28305 2.09601 -1.70251
5.25305 2.10301 -1.69451
5.24805 2.12001 -1.69551
5.25205 2.14101 -1.69851
5.24205 2.14601 -1.69651
5.23705 2.16401 -1.69751
5.23505 2.18201 -1.69851
5.22805 2.19901 -1.69851
5.22505 2.21601 -1.70051
5.22505 2.23601 -1.70251
5.20405 2.24601 -1.69751
5.20605 2.25701 -1.69951
5.20905 2.27801 -1.70351
5.20005 2.29301 -1.70251
5.18805 2.30701 -1.70051
5.19905 2.33201 -1.70751
5.18005 2.34301 -1.70351
5.17905 2.36201 -1.70551
5.18305 2.37401 -1.70851
5.16805 2.38701 -1.70551
5.15705 2.40101 -1.70451
5.15805 2.42101 -1.70751
5.13905 2.43201 -1.70351
5.14505 2.45501 -1.70851
5.15105 2.47701 -1.71251
5.14705 2.48501 -1.71251
5.13905 2.50201 -1.71251
5.12805 2.51601 -1.71151
5.12005 2.53201 -1.71151
5.11005 2.54701 -1.71151
5.11205 2.56801 -1.71451
5.09905 2.58201 -1.71251
5.08805 2.58701 -1.71051
5.09705 2.61101 -1.71651
5.07205 2.61801 -1.71051
5.07505 2.64101 -1.71451
5.07605 2.66101 -1.71751
5.05705 2.67101 -1.71451
5.05005 2.68801 -1.71451
5.05605 2.70101 -1.71851
5.03305 2.70901 -1.71251
5.03105 2.72901 -1.71551
5.02105 2.74401 -1.71451
5.00505 2.75601 -1.71251
5.00205 2.77401 -1.71451
4.99905 2.79401 -1.71651
4.99705 2.80201 -1.71751
4.97805 2.81201 -1.71351
4.97605 2.83201 -1.71551
4.94705 2.83601 -1.70851
4.95005 2.85801 -1.71251
4.94505 2.87701 -1.71451
4.93105 2.88901 -1.71251
4.92705 2.89701 -1.71251
4.92605 2.91701 -1.71551
4.91205 2.93001 -1.71451
4.89405 2.94001 -1.71151
4.89005 2.95901 -1.71251
4.87605 2.97101 -1.71151
4.87505 2.99101 -1.71451
4.87705 3.00301 -1.71651
4.86505 3.01701 -1.71551
4.85805 3.03401 -1.71651
4.85005 3.05001 -1.71751
4.82905 3.05801 -1.71251
4.82705 3.07801 -1.71551
4.82205 3.09601 -1.71751
4.81305 3.10101 -1.71551
4.80305 3.11601 -1.71551
4.80405 3.13801 -1.72051
4.79605 3.15401 -1.72051
4.78905 3.17201 -1.72251
4.77605 3.18501 -1.72051
4.76605 3.20001 -1.72051
4.76705 3.21101 -1.72351
4.74805 3.22001 -1.71951
4.74405 3.23901 -1.72251
4.74005 3.25801 -1.72451
4.72505 3.27001 -1.72251
4.72405 3.29101 -1.72651
4.72205 3.31101 -1.72951
4.71605 3.31901 -1.72951
4.69305 3.32501 -1.72451
4.69205 3.34601 -1.72851
4.68505 3.36301 -1.72951
4.68505 3.38601 -1.73351
4.66105 3.39001 -1.72851
4.66205 3.41401 -1.73351
4.66105 3.42501 -1.73451
4.64805 3.43701 -1.73351
4.63705 3.45101 -1.73351
4.63005 3.46901 -1.73551
4.62105 3.48501 -1.73651
4.60905 3.49801 -1.73551
4.59805 3.51301 -1.73551
4.59805 3.52501 -1.73751
4.58405 3.53701 -1.73651
4.57905 3.55601 -1.73951
4.57505 3.57601 -1.74251
4.56105 3.58801 -1.74051
4.55105 3.60401 -1.74151
4.53405 3.61301 -1.73951
4.53005 3.64501 -1.74451
3.95205 4.32001 -1.75751
3.94105 4.33501 -1.75851
3.92305 4.34301 -1.75651
3.90805 4.35401 -1.75651
3.91305 4.37301 -1.76151
3.88105 4.36501 -1.75351
3.86105 4.37001 -1.75051
3.84505 4.38001 -1.74851
3.82105 4.38001 -1.74351
4.70705 -2.62999 -1.60951
4.71505 -2.61499 -1.60951
4.72305 -2.60099 -1.60951
4.73005 -2.58499 -1.60851
4.74405 -2.57399 -1.61151
4.74705 -2.55599 -1.60951
4.75505 -2.54999 -1.61051
4.76405 -2.53599 -1.61151
4.77205 -2.52099 -1.61151
4.78705 -2.50999 -1.61351
4.79605 -2.49599 -1.61451
4.79205 -2.47499 -1.60951
4.81005 -2.46499 -1.61351
4.81405 -2.45699 -1.61351
4.81505 -2.43899 -1.61151
4.83305 -2.42899 -1.61451
4.84105 -2.41299 -1.61451
4.85705 -2.40199 -1.61751
4.86105 -2.38499 -1.61651
4.87005 -2.37099 -1.61751
4.88105 -2.36699 -1.61951
4.88105 -2.34799 -1.61751
4.89905 -2.33799 -1.62051
4.90105 -2.31999 -1.61951
4.90805 -2.30399 -1.61951
4.91205 -2.28699 -1.61751
4.93005 -2.26699 -1.62051
4.96505 -2.20799 -1.62251
4.97205 -2.19299 -1.62251
4.97805 -2.17699 -1.62251
4.97705 -2.16699 -1.62051
5.01405 -2.10899 -1.62451
5.03105 -2.07899 -1.62551
5.05105 -2.02299 -1.62551
5.06405 -1.99099 -1.62551
5.37805 0.0270069 -1.66751
5.37805 0.0440069 -1.66751
5.36905 0.0600069 -1.66351
5.37805 0.0690069 -1.66751
5.36805 0.0860069 -1.66351
5.36205 0.102007 -1.66251
5.36805 0.119007 -1.66351
5.35605 0.136007 -1.66051
5.37205 0.153007 -1.66551
5.36205 0.170007 -1.66251
5.37105 0.187007 -1.66551
5.37905 0.196007 -1.66851
5.36505 0.212007 -1.66351
5.37405 0.229007 -1.66751
5.35605 0.245007 -1.66151
5.35705 0.262007 -1.66251
5.36705 0.280007 -1.66551
5.35905 0.296007 -1.66351
5.37005 0.305007 -1.66751
5.36505 0.322007 -1.66551
5.35405 0.338007 -1.66251
5.35905 0.355007 -1.66451
5.36405 0.373007 -1.66651
5.35305 0.389007 -1.66351
5.35505 0.406007 -1.66451
5.35705 0.414007 -1.66551
5.35305 0.431007 -1.66451
5.36005 0.449007 -1.66751
5.36005 0.466007 -1.66751
5.35305 0.482007 -1.66551
5.35305 0.499007 -1.66651
5.34805 0.515007 -1.66551
5.35105 0.524007 -1.66651
5.33605 0.539007 -1.66251
5.34205 0.557007 -1.66451
5.34405 0.574007 -1.66551
5.34005 0.591007 -1.66551
5.33405 0.607007 -1.66351
5.34205 0.625007 -1.66751
5.33305 0.633007 -1.66451
5.33005 0.649007 -1.66351
5.32205 0.665007 -1.66251
5.33905 0.684007 -1.66851
5.31905 0.699007 -1.66251
5.32305 0.716007 -1.66451
5.32605 0.734007 -1.66651
5.31805 0.741007 -1.66351
5.33005 0.760007 -1.66851
5.32405 0.776007 -1.66751
5.31805 0.792007 -1.66651
5.31205 0.808007 -1.66551
5.31105 0.825007 -1.66551
5.30305 0.884007 -1.66651
5.29705 0.934007 -1.66751
5.30105 0.952007 -1.66951
5.29605 0.960007 -1.66851
5.29305 0.977007 -1.66851
5.29505 0.994007 -1.67051
5.29005 1.01101 -1.66951
5.28505 1.02701 -1.66851
5.28405 1.04401 -1.66951
5.28605 1.06101 -1.67151
5.28705 1.08801 -1.67351
5.27805 1.10301 -1.67151
5.25905 1.22901 -1.67451
5.25205 1.24501 -1.67351
5.21705 1.42901 -1.67751
5.21205 1.44501 -1.67751
5.21905 1.46401 -1.68051
5.22105 1.48301 -1.68351
5.22205 1.50101 -1.68551
5.22005 1.50901 -1.68551
5.20805 1.52301 -1.68251
5.19605 1.53801 -1.68051
5.19505 1.57301 -1.68351
5.18605 1.58801 -1.68251
5.18505 1.60601 -1.68351
5.18605 1.61501 -1.68451
5.17405 1.64701 -1.68451
5.15605 1.71301 -1.68551
5.14105 1.75301 -1.68451
4.82605 2.60601 -1.70251
4.32305 3.48901 -1.72551
4.28605 3.52501 -1.72351
4.26205 3.56301 -1.72551
4.24905 3.57501 -1.72451
4.24405 3.59301 -1.72751
4.23805 3.61101 -1.72951
4.20805 3.63201 -1.72651
4.21005 3.64501 -1.72951
4.19305 3.65301 -1.72751
4.19105 3.67501 -1.73151
4.18705 3.69401 -1.73451
4.17205 3.70501 -1.73351
4.15605 3.71401 -1.73151
4.15405 3.73601 -1.73651
4.14005 3.73501 -1.73251
4.14105 3.75901 -1.73851
4.13305 3.77601 -1.73951
4.11505 3.78301 -1.73651
4.10705 3.80001 -1.73851
4.10005 3.81801 -1.74151
4.08605 3.82801 -1.73951
4.08005 3.83401 -1.73951
4.08105 3.86001 -1.74651
4.06105 3.86501 -1.74251
4.05305 3.88201 -1.74451
4.04705 3.90101 -1.74751
4.03905 3.91801 -1.74951
3.94705 4.02601 -1.75351
3.92305 4.05201 -1.75351
3.89105 4.04401 -1.74451
3.87405 4.05201 -1.74251
3.85905 4.06101 -1.74151
3.84105 4.06801 -1.73851
4.42305 -2.67199 -1.59751
4.44305 -2.66499 -1.60151
4.44405 -2.65599 -1.60051
4.45105 -2.64099 -1.59951
4.46205 -2.62899 -1.60151
4.46705 -2.61299 -1.59951
4.47705 -2.59999 -1.60051
4.49005 -2.58899 -1.60251
4.49305 -2.57199 -1.60051
4.49905 -2.56599 -1.60151
4.51005 -2.55299 -1.60251
4.54105 -2.47799 -1.59951
4.54705 -2.47199 -1.59951
4.55605 -2.45799 -1.60051
4.57905 -2.41499 -1.60051
4.58905 -2.40199 -1.60151
4.59805 -2.38799 -1.60151
4.60705 -2.38299 -1.60351
4.61205 -2.36799 -1.60251
4.64205 -2.30999 -1.60251
4.65605 -2.28999 -1.60451
4.67305 -2.27999 -1.60751
4.67405 -2.26199 -1.60551
4.68405 -2.24899 -1.60651
4.70205 -2.23899 -1.61051
4.69505 -2.21799 -1.60551
4.70505 -2.20499 -1.60651
4.71005 -2.19799 -1.60751
4.71905 -2.18399 -1.60751
4.72205 -2.16799 -1.60651
4.73305 -2.15399 -1.60751
4.75205 -2.14499 -1.61251
4.75705 -2.12899 -1.61151
4.76105 -2.11299 -1.61151
4.77005 -2.10799 -1.61251
4.78205 -2.09599 -1.61451
4.78005 -2.07699 -1.61151
4.78805 -2.06199 -1.61251
4.80005 -2.04999 -1.61451
4.80105 -2.03199 -1.61251
4.82105 -2.02299 -1.61751
4.81405 -2.01099 -1.61351
4.82905 -1.99999 -1.61651
4.83705 -1.98499 -1.61751
4.84005 -1.96899 -1.61651
4.84905 -1.95499 -1.61751
4.85905 -1.94099 -1.61851
4.86305 -1.92499 -1.61751
4.86605 -1.91699 -1.61751
4.88105 -1.90499 -1.62151
4.88505 -1.88899 -1.62051
4.89305 -1.87499 -1.62151
4.91005 -1.86299 -1.62451
4.90605 -1.84499 -1.62151
4.91905 -1.83199 -1.62451
4.92905 -1.82699 -1.62651
4.93105 -1.80999 -1.62551
4.94105 -1.79599 -1.62651
4.95305 -1.78299 -1.62951
4.95405 -1.76499 -1.62751
4.95905 -1.74999 -1.62751
4.96705 -1.72599 -1.62751
4.98005 -1.71299 -1.62951
4.98705 -1.69799 -1.63051
4.98705 -1.68099 -1.62851
5.00005 -1.66699 -1.63151
5.02105 -1.63899 -1.63451
5.37005 -0.0999931 -1.66451
5.37305 -0.00699313 -1.66551
5.22305 0.0220069 -1.66351
5.20805 0.0310069 -1.65851
5.21305 0.0470069 -1.66051
5.21505 0.0630069 -1.66151
5.20705 0.0800069 -1.65851
5.21805 0.0960069 -1.66251
5.21205 0.112007 -1.66051
5.20405 0.129007 -1.65851
5.19605 0.137007 -1.65551
5.20005 0.153007 -1.65651
5.20505 0.170007 -1.65851
5.20805 0.186007 -1.65951
5.21305 0.203007 -1.66151
5.21305 0.219007 -1.66151
5.19705 0.235007 -1.65651
5.21005 0.243007 -1.66151
5.20505 0.260007 -1.65951
5.19805 0.276007 -1.65851
5.20705 0.293007 -1.66151
5.20405 0.309007 -1.66051
5.20505 0.325007 -1.66151
5.20005 0.341007 -1.65951
5.19805 0.349007 -1.65951
5.21005 0.367007 -1.66351
5.19205 0.382007 -1.65851
5.19605 0.399007 -1.65951
5.19905 0.415007 -1.66151
5.19605 0.431007 -1.66051
5.22605 0.450007 -1.67151
5.22205 0.458007 -1.67051
5.21805 0.474007 -1.66951
5.22305 0.491007 -1.67151
5.20605 0.506007 -1.66651
5.19105 0.521007 -1.66151
5.18705 0.537007 -1.66151
5.18005 0.553007 -1.65951
5.18105 0.562007 -1.65951
5.19305 0.579007 -1.66451
5.18505 0.628007 -1.66351
5.17505 0.643007 -1.66151
5.19005 0.662007 -1.66751
5.19705 0.671007 -1.66951
5.19705 0.687007 -1.67051
5.17205 0.701007 -1.66251
5.20705 0.722007 -1.67551
5.19505 0.737007 -1.67251
5.18705 0.753007 -1.67051
5.18105 0.768007 -1.66851
5.19305 0.778007 -1.67351
5.19305 0.795007 -1.67451
5.18805 0.811007 -1.67351
5.16705 0.824007 -1.66751
5.14105 1.00301 -1.66851
5.14705 1.02101 -1.67251
5.15305 1.03901 -1.67551
5.14805 1.05501 -1.67451
5.15405 1.07301 -1.67851
5.14705 1.09701 -1.67751
5.09005 1.37301 -1.68051
5.09905 1.39201 -1.68551
5.10305 1.41101 -1.68851
5.08705 1.44901 -1.68651
5.10205 1.47101 -1.69351
5.05705 1.47501 -1.67951
5.05305 1.49101 -1.67951
5.04905 1.56801 -1.68551
4.69005 2.53701 -1.70151
4.14805 3.48201 -1.72951
4.10905 3.50501 -1.72451
4.05505 3.57001 -1.72551
4.03805 3.58901 -1.72551
4.02705 3.60201 -1.72551
4.02005 3.61901 -1.72651
4.01405 3.63601 -1.72951
4.00005 3.64601 -1.72851
3.98905 3.66001 -1.72851
3.98605 3.66901 -1.73051
3.97205 3.67901 -1.72851
3.97705 3.70701 -1.73651
3.95905 3.71301 -1.73351
3.94805 3.72601 -1.73451
3.95205 3.75301 -1.74151
3.95005 3.77501 -1.74551
3.94105 3.77801 -1.74451
3.92505 3.78701 -1.74251
3.92005 3.80601 -1.74551
3.90005 3.81001 -1.74151
3.89505 3.82901 -1.74551
3.83805 3.90601 -1.75051
3.81905 3.93601 -1.75251
3.80105 3.94201 -1.75051
3.78805 3.96601 -1.75251
3.77605 3.97701 -1.75251
3.75005 3.97601 -1.74651
3.73405 3.98301 -1.74451
3.71905 3.99201 -1.74351
4.26605 -2.67099 -1.59951
4.27905 -2.66099 -1.60151
4.28405 -2.64599 -1.60051
4.30605 -2.63999 -1.60551
4.29505 -2.62399 -1.59951
4.31805 -2.61999 -1.60551
4.30805 -2.59499 -1.59851
4.33305 -2.59199 -1.60451
4.33105 -2.57199 -1.60051
4.35405 -2.56699 -1.60651
4.35005 -2.54699 -1.60151
4.36705 -2.54799 -1.60751
4.36405 -2.52699 -1.60251
4.37505 -2.51499 -1.60351
4.37705 -2.49799 -1.60151
4.40905 -2.49799 -1.61051
4.39105 -2.46899 -1.60051
4.40205 -2.45699 -1.60151
4.42005 -2.43999 -1.60451
4.41705 -2.42099 -1.60051
4.43205 -2.41099 -1.60351
4.43905 -2.39699 -1.60351
4.45605 -2.36999 -1.60351
4.45805 -2.36199 -1.60351
4.46505 -2.34799 -1.60351
4.47405 -2.33499 -1.60351
4.51305 -2.28299 -1.60751
4.53105 -2.22999 -1.60551
4.55905 -2.19099 -1.60751
4.56805 -2.16799 -1.60751
4.57405 -2.15399 -1.60751
4.58605 -2.12399 -1.60651
4.61805 -2.10399 -1.61351
4.61305 -2.09299 -1.61051
4.61605 -2.07699 -1.60951
4.63605 -2.06899 -1.61451
4.64105 -2.05299 -1.61351
4.63505 -2.03299 -1.60951
4.65405 -2.02399 -1.61351
4.65205 -2.00599 -1.61051
4.65505 -1.99899 -1.61051
4.66605 -1.98599 -1.61251
4.67405 -1.97199 -1.61251
4.67905 -1.95699 -1.61251
4.68005 -1.93999 -1.61051
4.69405 -1.92899 -1.61351
4.70705 -1.91699 -1.61651
4.69605 -1.90399 -1.61051
4.70405 -1.88999 -1.61151
4.72905 -1.88299 -1.61851
4.71905 -1.86199 -1.61251
4.73905 -1.85199 -1.61851
4.74705 -1.83799 -1.61851
4.74605 -1.81999 -1.61651
4.75005 -1.81399 -1.61651
4.75905 -1.79999 -1.61851
4.76905 -1.78599 -1.61951
4.77805 -1.77299 -1.62051
4.79405 -1.76199 -1.62451
4.78305 -1.74099 -1.61851
4.79605 -1.72799 -1.62151
4.80405 -1.72299 -1.62351
4.81305 -1.70899 -1.62451
4.80905 -1.69099 -1.62151
4.82005 -1.67699 -1.62351
4.81505 -1.65899 -1.61951
4.83905 -1.64999 -1.62651
4.86205 -1.64099 -1.63251
4.84905 -1.62799 -1.62751
4.85605 -1.61299 -1.62751
4.86805 -1.59999 -1.63051
4.86905 -1.58399 -1.62951
4.89105 -1.57399 -1.63451
4.89605 -1.55899 -1.63451
4.90405 -1.54399 -1.63651
4.90705 -1.52799 -1.63551
4.91305 -1.52199 -1.63651
4.91805 -1.50599 -1.63651
4.92205 -1.49099 -1.63651
5.21405 -0.223993 -1.66251
5.20905 -0.206993 -1.66051
5.20805 -0.181993 -1.65951
5.21105 -0.165993 -1.66051
5.21905 -0.149993 -1.66351
5.21705 -0.132993 -1.66251
5.22205 -0.100993 -1.66351
5.22005 -0.0839931 -1.66351
5.21705 -0.0759931 -1.66151
5.21705 -0.0599931 -1.66151
5.21305 -0.0429931 -1.66051
5.22805 -0.0269931 -1.66551
5.21105 -0.00999313 -1.65951
5.08805 0.252007 -1.67251
5.08705 0.300007 -1.67351
5.08705 0.308007 -1.67351
5.08805 0.324007 -1.67351
5.08705 0.340007 -1.67351
5.08705 0.357007 -1.67451
5.06705 0.371007 -1.66751
5.07605 0.404007 -1.67151
5.07605 0.428007 -1.67251
5.07905 0.444007 -1.67351
5.08205 0.493007 -1.67651
5.07805 0.509007 -1.67551
5.08105 0.517007 -1.67751
5.07405 0.532007 -1.67551
5.07005 0.548007 -1.67451
5.06505 0.564007 -1.67351
5.05205 0.578007 -1.66951
5.07105 0.597007 -1.67651
5.05005 0.610007 -1.66951
5.06405 0.620007 -1.67551
5.06005 0.636007 -1.67451
5.05605 0.651007 -1.67351
5.04505 0.666007 -1.67051
5.05005 0.683007 -1.67351
5.05405 0.699007 -1.67551
5.04805 0.715007 -1.67351
5.03005 0.720007 -1.66751
5.04605 0.739007 -1.67451
5.04405 0.755007 -1.67451
5.03205 0.769007 -1.67151
5.03905 0.786007 -1.67451
5.02905 0.801007 -1.67151
5.03805 0.819007 -1.67551
5.02105 0.824007 -1.67051
5.03205 0.842007 -1.67551
5.02905 0.858007 -1.67551
5.03605 0.875007 -1.67851
5.01105 0.887007 -1.67051
5.02605 0.906007 -1.67751
5.02405 0.922007 -1.67751
5.02405 0.930007 -1.67751
5.01005 0.944007 -1.67351
5.00705 0.960007 -1.67351
5.01505 0.978007 -1.67751
5.01205 0.993007 -1.67751
4.99405 1.00601 -1.67251
5.00605 1.02501 -1.67751
4.99105 1.03001 -1.67351
5.00205 1.04901 -1.67851
4.98105 1.06001 -1.67151
4.98705 1.07801 -1.67551
4.98505 1.09401 -1.67551
4.98305 1.11001 -1.67651
4.97805 1.12501 -1.67551
4.98005 1.13401 -1.67751
4.98605 1.15201 -1.68051
4.98205 1.16801 -1.68051
4.97805 1.18301 -1.68051
4.96205 1.19601 -1.67551
4.98005 1.21701 -1.68351
4.97205 1.23101 -1.68251
4.95805 1.23601 -1.67751
4.96505 1.25401 -1.68151
4.96405 1.27101 -1.68351
4.95305 1.28501 -1.68051
