5.75622 3.49907 -1.71237
5.74722 3.51807 -1.71337
5.73722 3.53707 -1.71337
5.72322 3.55307 -1.71237
5.72022 3.57607 -1.71537
5.70822 3.59407 -1.71537
5.70822 3.62007 -1.71937
5.70822 3.63207 -1.72037
5.69822 3.65107 -1.72137
5.69322 3.67307 -1.72337
5.67022 3.68307 -1.71937
5.66322 3.70407 -1.72137
5.66022 3.72707 -1.72337
5.65622 3.75007 -1.72637
5.63422 3.74907 -1.72137
5.64122 3.77907 -1.72737
5.61722 3.78807 -1.72337
5.61922 3.81607 -1.72737
5.60222 3.83007 -1.72637
5.60322 3.85607 -1.73037
5.58022 3.86607 -1.72637
5.56822 3.89707 -1.72837
5.56522 3.92107 -1.73237
5.55722 3.94207 -1.73337
5.53122 3.97607 -1.73337
5.44822 4.11407 -1.73737
4.37022 5.38207 -1.76637
4.33522 5.37307 -1.75837
4.32622 5.39607 -1.76137
4.31122 5.39507 -1.75837
4.29822 5.41307 -1.76037
4.27222 5.41607 -1.75637
4.25422 5.42807 -1.75637
6.31522 0.00907166 -1.65437
6.30922 0.0290717 -1.65237
6.29722 0.0480717 -1.64937
6.32022 0.0680717 -1.65537
6.31222 0.0880717 -1.65337
6.31022 0.108072 -1.65337
6.31422 0.128072 -1.65437
6.30722 0.147072 -1.65237
6.30722 0.157072 -1.65237
6.31622 0.177072 -1.65537
6.31222 0.197072 -1.65437
6.30022 0.217072 -1.65037
6.30722 0.237072 -1.65337
6.31522 0.257072 -1.65537
6.31722 0.267072 -1.65637
6.30322 0.286072 -1.65237
6.30222 0.306072 -1.65237
6.29922 0.326072 -1.65237
6.30422 0.346072 -1.65337
6.30422 0.366072 -1.65437
6.30522 0.386072 -1.65437
6.30422 0.405072 -1.65437
6.30722 0.415072 -1.65537
6.30022 0.435072 -1.65437
6.30222 0.455072 -1.65537
6.28722 0.474072 -1.65137
6.29622 0.494072 -1.65437
6.29622 0.514072 -1.65437
6.29222 0.534072 -1.65437
6.28422 0.543072 -1.65237
6.29222 0.564072 -1.65437
6.29822 0.584072 -1.65637
6.29222 0.603072 -1.65537
6.29422 0.624072 -1.65637
6.28822 0.643072 -1.65537
6.27622 0.662072 -1.65337
6.28522 0.673072 -1.65537
6.28822 0.693072 -1.65737
6.28222 0.712072 -1.65637
6.28222 0.732072 -1.65637
6.28022 0.752072 -1.65637
6.27722 0.772072 -1.65637
6.28222 0.792072 -1.65937
6.28922 0.803072 -1.66137
6.27522 0.821072 -1.65737
6.27222 0.841072 -1.65737
6.26622 0.860072 -1.65637
6.27322 0.881072 -1.65937
6.27222 0.901072 -1.66037
6.26322 0.920072 -1.65837
6.26722 0.931072 -1.66037
6.27022 0.951072 -1.66137
6.26522 0.971072 -1.66137
6.25622 0.990072 -1.65937
6.26122 1.01007 -1.66137
6.24822 1.02907 -1.65937
6.25722 1.06007 -1.66237
6.24622 1.07907 -1.66037
6.24622 1.09907 -1.66137
6.24122 1.11807 -1.66137
6.23722 1.13807 -1.66137
6.23922 1.15807 -1.66237
6.23022 1.17707 -1.66137
6.22822 1.20707 -1.66237
6.22822 1.22707 -1.66337
6.22622 1.24707 -1.66337
6.22022 1.28707 -1.66437
6.22022 1.30707 -1.66537
6.21122 1.33607 -1.66437
6.18922 1.44307 -1.66537
5.93722 2.47907 -1.68737
5.93722 2.50107 -1.68937
5.91622 2.51407 -1.68637
5.92222 2.56107 -1.69237
5.90722 2.57607 -1.69037
5.90422 2.58607 -1.69037
5.90122 2.60707 -1.69237
5.88822 2.62307 -1.69037
5.87122 2.66007 -1.69037
5.38122 3.67907 -1.71137
5.35022 3.73207 -1.71237
5.34322 3.75207 -1.71437
5.33322 3.78307 -1.71637
5.33322 3.80907 -1.72137
5.32022 3.82407 -1.72037
5.31122 3.84307 -1.72137
5.30022 3.86107 -1.72237
5.29122 3.88007 -1.72337
5.28722 3.90207 -1.72537
5.27822 3.90807 -1.72437
5.26222 3.92207 -1.72337
5.25822 3.94507 -1.72637
5.24422 3.96007 -1.72537
5.23622 3.98007 -1.72737
5.22822 4.00007 -1.72937
5.21522 4.01607 -1.72937
5.20822 4.02307 -1.72837
5.20622 4.04807 -1.73237
5.19022 4.06207 -1.73137
5.18222 4.08207 -1.73237
5.17622 4.10407 -1.73537
5.16022 4.11807 -1.73437
5.15322 4.13907 -1.73637
5.15022 4.14907 -1.73737
5.13722 4.16507 -1.73737
5.13322 4.18907 -1.74137
5.08322 4.25507 -1.74237
5.07622 4.26307 -1.74237
5.06222 4.27907 -1.74237
4.38422 5.06407 -1.76137
4.36322 5.07207 -1.75937
4.34222 5.08007 -1.75737
4.33222 5.08407 -1.75637
4.31822 5.10007 -1.75737
4.30222 5.11407 -1.75737
4.28022 5.12007 -1.75437
4.25922 5.12707 -1.75237
4.24022 5.13807 -1.75137
4.22022 5.14707 -1.74937
4.20922 5.14907 -1.74837
4.19022 5.15907 -1.74737
5.43322 -2.82293 -1.60037
5.44222 -2.80593 -1.60037
5.45922 -2.79293 -1.60237
5.47822 -2.78093 -1.60637
5.47422 -2.76793 -1.60337
5.48422 -2.75193 -1.60337
5.49322 -2.73393 -1.60337
5.50722 -2.71993 -1.60537
5.52222 -2.70593 -1.60737
5.53022 -2.68793 -1.60737
5.54422 -2.67393 -1.60937
5.54322 -2.66193 -1.60737
5.55722 -2.64693 -1.60937
5.56822 -2.63193 -1.61037
5.58222 -2.61693 -1.61237
5.59022 -2.59893 -1.61237
5.59622 -2.58093 -1.61137
5.61022 -2.56493 -1.61337
5.62122 -2.55993 -1.61537
5.63122 -2.54293 -1.61537
5.64422 -2.52793 -1.61737
5.65322 -2.51093 -1.61837
5.65422 -2.48993 -1.61537
5.66722 -2.47393 -1.61737
5.67922 -2.45793 -1.61837
6.31622 -0.189928 -1.65537
6.30722 -0.149928 -1.65237
6.31422 -0.129928 -1.65437
6.31622 -0.0999283 -1.65437
6.30722 -0.0799283 -1.65237
6.30522 -0.0609283 -1.65137
6.31722 -0.0409283 -1.65437
6.31522 -0.0209283 -1.65437
6.30522 -0.000928341 -1.65137
6.10522 0.00107166 -1.65537
6.11122 0.0200717 -1.65737
6.10522 0.0390717 -1.65537
6.10522 0.0580717 -1.65537
6.09722 0.0770717 -1.65337
6.10422 0.0970717 -1.65537
6.10822 0.116072 -1.65637
6.10622 0.125072 -1.65637
6.10122 0.145072 -1.65437
6.10522 0.164072 -1.65637
6.09822 0.183072 -1.65437
6.09822 0.202072 -1.65437
6.11122 0.222072 -1.65837
6.10622 0.241072 -1.65737
6.10422 0.250072 -1.65637
6.09522 0.269072 -1.65437
6.09222 0.288072 -1.65337
6.10122 0.308072 -1.65637
6.09422 0.327072 -1.65437
6.09922 0.346072 -1.65637
6.09222 0.365072 -1.65437
6.09922 0.375072 -1.65737
6.08322 0.393072 -1.65237
6.10422 0.414072 -1.65937
6.09322 0.432072 -1.65637
6.10022 0.452072 -1.65837
6.08722 0.470072 -1.65537
6.09722 0.490072 -1.65837
6.09022 0.499072 -1.65737
6.07322 0.517072 -1.65237
6.08722 0.538072 -1.65737
6.08022 0.556072 -1.65537
6.08522 0.576072 -1.65737
6.09122 0.596072 -1.66037
6.07822 0.614072 -1.65637
6.09222 0.625072 -1.66137
6.08822 0.644072 -1.66037
6.07922 0.662072 -1.65837
6.07822 0.682072 -1.65837
6.08622 0.702072 -1.66137
6.07022 0.719072 -1.65737
6.07922 0.740072 -1.66137
6.07622 0.749072 -1.66037
6.07022 0.768072 -1.65937
6.08922 0.790072 -1.66537
6.07722 0.807072 -1.66237
6.06822 0.826072 -1.66137
6.07122 0.846072 -1.66237
6.06922 0.865072 -1.66237
6.07722 0.876072 -1.66537
6.07422 0.895072 -1.66537
6.07722 0.915072 -1.66737
6.05722 0.931072 -1.66237
6.05022 0.949072 -1.66137
6.06422 0.971072 -1.66637
6.04422 0.987072 -1.66137
6.05022 0.998072 -1.66337
6.04722 1.01707 -1.66337
6.03222 1.03407 -1.66037
6.04622 1.05607 -1.66537
6.03922 1.07407 -1.66337
6.04322 1.09507 -1.66637
6.03222 1.11207 -1.66337
6.02322 1.12007 -1.66137
6.02922 1.14107 -1.66437
6.01922 1.15907 -1.66237
6.02122 1.17907 -1.66437
6.01422 1.19707 -1.66337
6.01622 1.21707 -1.66537
6.01222 1.23607 -1.66537
6.02622 1.28907 -1.67237
6.00922 1.30507 -1.66837
6.01122 1.32507 -1.67037
6.01222 1.34507 -1.67137
6.00222 1.36207 -1.67037
6.00422 1.37307 -1.67137
6.01422 1.39507 -1.67537
6.00422 1.41307 -1.67337
5.99622 1.43107 -1.67237
5.99422 1.45007 -1.67337
5.98322 1.46707 -1.67137
5.98122 1.48707 -1.67237
5.98922 1.49907 -1.67537
5.98322 1.51707 -1.67537
5.96522 1.53307 -1.67137
5.96822 1.55307 -1.67337
5.96522 1.57307 -1.67337
5.95422 1.59007 -1.67237
5.94222 1.60607 -1.67037
5.94222 1.65707 -1.67337
5.92022 1.71107 -1.67237
5.90122 1.81607 -1.67537
5.70722 2.49307 -1.69137
5.70122 2.51107 -1.69137
5.69722 2.53107 -1.69237
5.68222 2.54507 -1.69037
5.67222 2.56207 -1.69037
5.66222 2.57907 -1.68937
5.66222 2.59007 -1.69037
5.65722 2.60907 -1.69137
5.64922 2.62707 -1.69137
5.65122 2.65007 -1.69537
5.21122 3.53207 -1.71037
5.15622 3.62507 -1.71237
5.13322 3.65807 -1.71237
5.12822 3.67807 -1.71537
5.11122 3.69107 -1.71337
5.10322 3.70907 -1.71437
5.09422 3.72807 -1.71537
5.09322 3.73907 -1.71737
5.08322 3.75607 -1.71737
5.08522 3.78307 -1.72237
5.06422 3.79207 -1.71937
5.04722 3.80407 -1.71737
5.05322 3.83407 -1.72437
5.03422 3.84407 -1.72137
5.02222 3.84707 -1.71937
5.01422 3.86607 -1.72137
5.00622 3.88607 -1.72237
5.00022 3.90607 -1.72537
4.99822 3.93007 -1.72937
4.99522 3.95307 -1.73237
4.97222 3.96007 -1.72837
4.96622 3.96807 -1.72837
4.96122 3.99007 -1.73137
4.94522 4.00307 -1.73037
4.93122 4.01707 -1.72937
4.91622 4.03007 -1.72837
4.91022 4.05207 -1.73137
4.91522 4.08207 -1.73837
4.89422 4.07707 -1.73237
4.88622 4.09607 -1.73437
4.88922 4.12507 -1.74037
4.86722 4.13307 -1.73637
4.86622 4.15907 -1.74137
4.85922 4.17907 -1.74337
4.84322 4.19207 -1.74237
4.83422 4.19807 -1.74137
4.37022 4.74507 -1.75537
4.34122 4.77407 -1.75637
4.32922 4.79107 -1.75737
4.30322 4.79307 -1.75337
4.30322 4.80807 -1.75637
4.28122 4.81307 -1.75337
4.25922 4.81907 -1.75037
4.23922 4.82707 -1.74837
4.22122 4.83707 -1.74637
4.20922 4.85307 -1.74837
4.19122 4.86307 -1.74637
4.18322 4.87007 -1.74637
4.16822 4.88307 -1.74637
4.14122 4.88307 -1.74137
4.10022 4.92807 -1.74437
5.30522 -2.65093 -1.60437
5.31522 -2.63493 -1.60537
5.32122 -2.61693 -1.60437
5.33822 -2.60493 -1.60737
5.34122 -2.59493 -1.60737
5.35222 -2.57993 -1.60837
5.36222 -2.56393 -1.60837
5.37322 -2.54893 -1.60937
5.38522 -2.53393 -1.61037
5.40722 -2.52293 -1.61537
5.40422 -2.50193 -1.61237
5.41522 -2.49593 -1.61437
5.42522 -2.47993 -1.61437
5.42222 -2.45793 -1.61137
5.44222 -2.44693 -1.61537
5.46022 -2.43393 -1.61837
5.45522 -2.41193 -1.61437
5.46822 -2.39693 -1.61637
5.49022 -2.39593 -1.62237
5.48822 -2.37493 -1.61937
5.50122 -2.35993 -1.62037
5.51222 -2.32393 -1.61937
5.53222 -2.31093 -1.62337
6.09022 -0.295928 -1.65337
6.10522 -0.209928 -1.65637
6.09422 -0.190928 -1.65337
6.10322 -0.171928 -1.65537
6.09522 -0.151928 -1.65337
6.10722 -0.142928 -1.65637
6.10422 -0.123928 -1.65537
6.10622 -0.104928 -1.65637
6.09922 -0.0849283 -1.65337
6.10822 -0.0659283 -1.65637
6.10322 -0.0469283 -1.65437
6.10522 -0.0279283 -1.65537
6.09722 -0.00892834 -1.65337
5.95822 0.0130717 -1.65537
5.93722 0.0320717 -1.64937
5.94622 0.0510717 -1.65237
5.93722 0.0600717 -1.64937
5.93822 0.0790717 -1.65037
5.94622 0.0980717 -1.65237
5.94022 0.116072 -1.65037
5.93722 0.135072 -1.65037
5.94422 0.154072 -1.65237
5.93222 0.172072 -1.64837
5.94922 0.182072 -1.65437
5.93322 0.200072 -1.64937
5.94022 0.219072 -1.65137
5.93222 0.237072 -1.64937
5.92422 0.256072 -1.64737
5.92922 0.274072 -1.64837
5.94322 0.294072 -1.65337
5.92322 0.302072 -1.64737
5.93822 0.322072 -1.65237
5.93522 0.340072 -1.65137
5.92822 0.358072 -1.65037
5.93122 0.377072 -1.65137
5.92622 0.396072 -1.65037
5.93022 0.443072 -1.65237
5.93022 0.461072 -1.65237
5.92922 0.480072 -1.65237
5.92422 0.498072 -1.65137
5.92622 0.536072 -1.65337
5.92722 0.546072 -1.65437
5.92022 0.582072 -1.65237
5.92722 0.621072 -1.65637
5.92222 0.639072 -1.65537
5.92022 0.667072 -1.65537
5.91022 0.741072 -1.65537
5.90522 0.807072 -1.65637
5.85122 1.31207 -1.66737
5.85222 1.33207 -1.66837
5.84422 1.36807 -1.66837
5.82722 1.43207 -1.66837
5.82622 1.45107 -1.66937
5.52522 2.52007 -1.68937
5.50722 2.57407 -1.69137
5.49322 2.62107 -1.69337
5.03022 3.55107 -1.71537
5.00022 3.57707 -1.71237
5.00722 3.59407 -1.71637
4.97622 3.62007 -1.71337
4.97322 3.64107 -1.71637
4.94722 3.67007 -1.71537
4.95222 3.69807 -1.72137
4.92722 3.71507 -1.71837
4.92122 3.73507 -1.72137
4.90922 3.75107 -1.72137
4.89622 3.76507 -1.72037
4.89322 3.78807 -1.72437
4.86922 3.79407 -1.71937
4.87622 3.81107 -1.72437
4.88222 3.84007 -1.73037
4.85622 3.84507 -1.72537
4.85022 3.86507 -1.72837
4.83822 3.88007 -1.72837
4.81822 3.88907 -1.72537
4.80722 3.90507 -1.72537
4.82022 3.94107 -1.73537
4.80122 3.93807 -1.73037
4.80022 3.96207 -1.73437
4.79522 3.98407 -1.73737
4.77822 3.99507 -1.73637
4.76422 4.00907 -1.73537
4.76222 4.03207 -1.73937
4.74522 4.04407 -1.73737
4.74122 4.05307 -1.73837
4.73622 4.07507 -1.74137
4.71922 4.08607 -1.74037
4.21922 4.67007 -1.75537
4.19822 4.67607 -1.75237
4.18722 4.69407 -1.75437
4.16422 4.69807 -1.75037
4.15322 4.71507 -1.75237
4.13922 4.72807 -1.75237
4.12222 4.72507 -1.74837
4.10122 4.73107 -1.74537
4.08522 4.74207 -1.74537
4.07122 4.75607 -1.74537
4.05322 4.76507 -1.74437
4.04122 4.78207 -1.74537
4.02422 4.79207 -1.74437
4.01022 4.79107 -1.74137
3.99622 4.80507 -1.74237
5.17422 -2.57993 -1.60337
5.17922 -2.56193 -1.60237
5.18722 -2.54593 -1.60237
5.21022 -2.53693 -1.60737
5.21122 -2.51693 -1.60537
5.22422 -2.50293 -1.60637
5.23022 -2.48593 -1.60637
5.24322 -2.48193 -1.60937
5.24722 -2.46393 -1.60737
5.26522 -2.45193 -1.61137
5.27122 -2.43493 -1.61037
5.27522 -2.41693 -1.60937
5.29222 -2.40393 -1.61237
5.30322 -2.38893 -1.61337
5.31322 -2.38393 -1.61537
5.33322 -2.37293 -1.61937
5.33422 -2.35293 -1.61737
5.34422 -2.33793 -1.61837
5.36422 -2.32593 -1.62237
5.36422 -2.30593 -1.62037
5.38022 -2.29293 -1.62337
5.38622 -2.28593 -1.62337
5.39322 -2.26893 -1.62337
5.40522 -2.25393 -1.62537
5.41622 -2.21893 -1.62437
5.42622 -2.20293 -1.62537
5.94722 -0.332928 -1.65537
5.95522 -0.285928 -1.65637
5.95922 -0.229928 -1.65737
5.95022 -0.210928 -1.65437
5.94922 -0.191928 -1.65437
5.94722 -0.182928 -1.65337
5.96122 -0.164928 -1.65737
5.95622 -0.145928 -1.65537
5.95522 -0.126928 -1.65537
5.93622 -0.107928 -1.64937
5.95322 -0.0889283 -1.65437
5.95222 -0.0709283 -1.65437
5.95422 -0.0609283 -1.65437
5.96022 -0.0429283 -1.65637
5.94822 -0.0239283 -1.65237
5.94622 -0.00492834 -1.65237
5.74822 0.0310717 -1.66337
5.75022 0.0760717 -1.66337
5.74922 0.0940717 -1.66337
5.74522 0.130072 -1.66237
5.73922 0.148072 -1.66037
5.74022 0.157072 -1.66137
5.74222 0.175072 -1.66137
5.73522 0.193072 -1.66037
5.73522 0.211072 -1.66037
5.74222 0.230072 -1.66237
5.74722 0.248072 -1.66437
5.74422 0.266072 -1.66337
5.73222 0.274072 -1.66037
5.73122 0.292072 -1.66037
5.73622 0.311072 -1.66137
5.73722 0.329072 -1.66237
5.72422 0.346072 -1.65837
5.73522 0.365072 -1.66237
5.73522 0.383072 -1.66337
5.72922 0.391072 -1.66137
5.73522 0.410072 -1.66337
5.71922 0.427072 -1.65837
5.72922 0.446072 -1.66237
5.72422 0.463072 -1.66137
5.74522 0.483072 -1.66837
5.71722 0.499072 -1.66037
5.74322 0.510072 -1.66837
5.71622 0.526072 -1.66037
5.73022 0.546072 -1.66537
5.72022 0.563072 -1.66337
5.71122 0.580072 -1.66037
5.74022 0.601072 -1.67037
5.71322 0.617072 -1.66237
5.72222 0.627072 -1.66537
5.71022 0.643072 -1.66237
5.71722 0.662072 -1.66537
5.72722 0.682072 -1.66837
5.70022 0.697072 -1.66137
5.72022 0.718072 -1.66837
5.69722 0.733072 -1.66137
5.70822 0.743072 -1.66537
5.70122 0.761072 -1.66437
5.70822 0.780072 -1.66737
5.69522 0.796072 -1.66337
5.70322 0.816072 -1.66737
5.68622 0.831072 -1.66237
5.71522 0.854072 -1.67237
5.69522 0.860072 -1.66637
5.71922 0.882072 -1.67437
5.68222 0.895072 -1.66437
5.69822 0.916072 -1.67037
5.67622 0.930072 -1.66437
5.67322 0.948072 -1.66437
5.67422 0.967072 -1.66537
5.66922 0.984072 -1.66437
5.66922 0.993072 -1.66537
5.68322 1.01407 -1.67037
5.66922 1.03007 -1.66737
5.66922 1.04907 -1.66837
5.68622 1.07007 -1.67437
5.65522 1.08307 -1.66637
5.67422 1.09607 -1.67237
5.65522 1.11107 -1.66737
5.65622 1.12907 -1.66837
5.67322 1.15107 -1.67537
5.64122 1.16307 -1.66637
5.65422 1.18407 -1.67137
5.64522 1.20107 -1.67037
5.64722 1.22007 -1.67137
5.65822 1.23207 -1.67637
5.64422 1.24707 -1.67337
5.66722 1.27107 -1.68137
5.63822 1.28307 -1.67337
5.65722 1.30607 -1.68037
5.64722 1.32307 -1.67937
5.65022 1.34207 -1.68137
5.63322 1.34707 -1.67637
5.65122 1.37107 -1.68337
5.62122 1.38207 -1.67537
5.64122 1.40607 -1.68337
5.61922 1.41907 -1.67737
5.63522 1.44207 -1.68437
5.61022 1.45407 -1.67737
5.62822 1.46807 -1.68437
5.60922 1.48207 -1.67937
5.61722 1.50307 -1.68337
5.60222 1.51807 -1.68037
5.61522 1.54107 -1.68637
5.58822 1.55207 -1.67937
5.59422 1.57307 -1.68237
5.58122 1.57807 -1.67937
5.58322 1.59807 -1.68137
5.57422 1.61407 -1.68037
5.57522 1.63407 -1.68137
5.55522 1.64707 -1.67737
5.57422 1.67107 -1.68437
5.55922 1.68607 -1.68137
5.55722 1.69507 -1.68137
5.55122 1.71207 -1.68137
5.53522 1.72607 -1.67837
5.52222 1.74107 -1.67637
5.54022 1.76607 -1.68337
5.51322 1.77607 -1.67637
5.53122 1.80207 -1.68437
5.52222 1.82807 -1.68437
5.50022 1.85907 -1.68037
5.48722 1.87307 -1.67837
5.50422 1.89907 -1.68637
5.48022 1.91007 -1.68037
5.49022 1.92307 -1.68437
5.46822 1.93407 -1.67937
5.48022 1.95807 -1.68437
5.47122 1.99407 -1.68637
5.44422 2.02307 -1.68137
5.45322 2.03607 -1.68537
5.43822 2.05007 -1.68237
5.43722 2.06907 -1.68437
5.42522 2.08407 -1.68237
5.43422 2.10707 -1.68737
5.41722 2.14007 -1.68637
5.40922 2.14607 -1.68437
5.40922 2.16607 -1.68737
5.39922 2.18107 -1.68637
5.40122 2.20207 -1.68937
5.38822 2.21707 -1.68737
5.38522 2.23507 -1.68837
5.37622 2.25107 -1.68737
5.36922 2.25807 -1.68637
5.36422 2.27607 -1.68737
5.36722 2.29707 -1.69037
5.34922 2.31007 -1.68737
5.34722 2.32907 -1.68937
5.35922 2.35407 -1.69537
5.33922 2.36507 -1.69137
5.33422 2.37307 -1.69037
5.35422 2.40207 -1.70037
5.31422 2.40407 -1.68937
5.32922 2.43107 -1.69637
5.31922 2.44707 -1.69637
5.31022 2.46307 -1.69537
5.30922 2.48307 -1.69737
5.32222 2.49907 -1.70337
5.29522 2.50707 -1.69737
5.31022 2.53407 -1.70537
5.29322 2.54707 -1.70237
5.27722 2.55907 -1.69937
5.27022 2.57707 -1.69937
5.27322 2.59807 -1.70337
5.26222 2.60307 -1.70037
5.26222 2.62407 -1.70337
5.24022 2.63407 -1.69937
5.23322 2.65107 -1.69937
5.21522 2.66207 -1.69637
5.23222 2.69207 -1.70537
5.20022 2.69607 -1.69637
5.20422 2.70807 -1.69937
5.19022 2.72207 -1.69737
5.19222 2.74407 -1.70137
5.16822 2.75207 -1.69637
5.17822 2.77807 -1.70237
5.14622 2.81307 -1.69937
4.86822 3.34807 -1.71237
4.83422 3.39207 -1.71137
4.82422 3.40807 -1.71237
4.80822 3.44107 -1.71337
4.80722 3.47507 -1.71937
4.78222 3.48007 -1.71437
4.77722 3.50007 -1.71637
4.76522 3.51407 -1.71637
4.76022 3.53307 -1.71837
4.74122 3.54207 -1.71537
4.75422 3.56407 -1.72237
4.73522 3.57307 -1.71937
4.73922 3.59907 -1.72537
4.71122 3.60107 -1.71937
4.71022 3.62407 -1.72337
4.68522 3.62807 -1.71837
4.68722 3.65407 -1.72337
4.67722 3.65807 -1.72137
4.67622 3.68107 -1.72537
4.66122 3.69307 -1.72437
4.65722 3.71307 -1.72737
4.63922 3.72307 -1.72537
4.64722 3.75407 -1.73237
4.62322 3.75807 -1.72837
4.62222 3.76907 -1.72937
4.60922 3.78307 -1.72937
4.61622 3.81307 -1.73637
4.59222 3.81807 -1.73237
4.59922 3.84807 -1.73937
4.56822 3.84607 -1.73237
4.56022 3.86407 -1.73437
4.56122 3.87807 -1.73637
4.55622 3.89807 -1.73937
4.51822 3.94007 -1.73937
4.00322 4.52107 -1.75237
4.00322 4.53407 -1.75537
3.97522 4.56107 -1.75637
3.95922 4.57007 -1.75537
3.92222 4.58607 -1.75137
3.91422 4.60607 -1.75437
3.89922 4.60307 -1.75137
3.87622 4.60507 -1.74737
3.86322 4.61907 -1.74737
3.85622 4.64007 -1.75137
3.83622 4.64607 -1.74837
3.81822 4.65307 -1.74737
3.81022 4.67307 -1.74937
3.78422 4.65707 -1.74137
3.78022 4.68207 -1.74637
3.76122 4.68807 -1.74437
3.74422 4.69607 -1.74237
3.72522 4.70407 -1.74137
4.89922 -2.65993 -1.60937
4.90922 -2.64493 -1.60937
4.92422 -2.63293 -1.61237
4.92922 -2.61593 -1.61137
4.93722 -2.60093 -1.61137
4.94322 -2.59393 -1.61137
4.96122 -2.58293 -1.61537
4.96722 -2.56693 -1.61437
4.96022 -2.54393 -1.60937
4.98322 -2.53593 -1.61437
4.99122 -2.51993 -1.61437
5.01022 -2.50893 -1.61837
5.00522 -2.49693 -1.61537
5.01422 -2.48193 -1.61537
5.01222 -2.46193 -1.61237
5.03222 -2.45193 -1.61637
5.03622 -2.43393 -1.61537
5.05622 -2.42393 -1.61937
5.06522 -2.40893 -1.61937
5.06322 -2.39893 -1.61837
5.07622 -2.38493 -1.61937
5.08722 -2.37093 -1.62137
5.10022 -2.35693 -1.62237
5.09522 -2.33593 -1.61837
5.11422 -2.32493 -1.62237
5.12222 -2.30893 -1.62237
5.13122 -2.30293 -1.62437
5.13622 -2.28593 -1.62437
5.17322 -2.22493 -1.62737
5.74022 -0.103928 -1.66037
5.74022 -0.0409283 -1.66037
5.74622 -0.00492834 -1.66237
5.57122 0.205072 -1.66737
5.57222 0.337072 -1.67037
5.56622 0.469072 -1.67137
5.56922 0.486072 -1.67237
5.56522 0.521072 -1.67237
5.56622 0.539072 -1.67337
5.56522 0.548072 -1.67337
5.55922 0.583072 -1.67237
5.55822 0.618072 -1.67337
5.55922 0.636072 -1.67437
5.53722 0.677072 -1.66937
5.54622 0.731072 -1.67337
5.54522 0.767072 -1.67537
5.54222 0.775072 -1.67437
5.54522 0.793072 -1.67637
5.52922 0.809072 -1.67237
5.54222 0.828072 -1.67637
5.54522 0.847072 -1.67837
5.51422 0.860072 -1.66937
5.53522 0.881072 -1.67737
5.53522 0.898072 -1.67837
5.52022 0.905072 -1.67337
5.51722 0.922072 -1.67337
5.52922 0.942072 -1.67837
5.50422 0.956072 -1.67137
5.51922 0.976072 -1.67737
5.51622 0.994072 -1.67737
5.52322 1.01307 -1.68037
5.50022 1.01807 -1.67337
5.52122 1.03907 -1.68137
5.49822 1.05307 -1.67537
5.51322 1.07407 -1.68137
5.50222 1.09007 -1.67837
5.48422 1.10407 -1.67337
5.50422 1.12607 -1.68137
5.49922 1.13407 -1.68037
5.47922 1.14807 -1.67537
5.50122 1.17007 -1.68337
5.49922 1.18807 -1.68437
5.48822 1.20407 -1.68137
5.49222 1.22207 -1.68437
5.48422 1.24807 -1.68337
5.48022 1.26507 -1.68337
5.48122 1.32007 -1.68737
5.46722 1.39907 -1.68937
5.46222 1.43407 -1.69037
5.42322 1.58907 -1.69237
5.40522 1.67607 -1.69437
5.39722 1.69207 -1.69437
5.40022 1.70207 -1.69537
5.38922 1.71807 -1.69437
5.38022 1.73407 -1.69237
5.38022 1.77107 -1.69637
5.37522 1.78807 -1.69637
5.35722 1.82907 -1.69537
5.35622 1.86607 -1.69837
5.33422 1.94307 -1.70037
5.19022 2.35707 -1.70837
5.06922 2.62707 -1.71137
5.05522 2.68007 -1.71437
5.04022 2.70307 -1.71437
5.02522 2.71507 -1.71137
5.01822 2.73207 -1.71237
5.01522 2.75107 -1.71437
4.98422 2.75407 -1.70637
4.98722 2.77707 -1.71037
4.98122 2.78307 -1.70937
4.97122 2.79807 -1.70937
4.96022 2.81307 -1.70837
4.96022 2.83307 -1.71137
4.93722 2.84107 -1.70637
4.93522 2.86007 -1.70937
4.92822 2.87707 -1.70937
4.92322 2.88507 -1.70937
4.91222 2.89907 -1.70937
4.91522 2.92107 -1.71337
4.89122 2.92807 -1.70837
4.89022 2.94807 -1.71137
4.87922 2.96207 -1.71037
4.87522 2.98107 -1.71237
4.87122 2.98907 -1.71237
4.85722 3.00207 -1.71137
4.85322 3.02007 -1.71237
4.83222 3.02807 -1.70837
4.83322 3.05007 -1.71237
4.81722 3.06207 -1.71037
4.81622 3.08207 -1.71337
4.80922 3.08807 -1.71237
4.80322 3.10507 -1.71437
4.80322 3.12707 -1.71737
4.78822 3.13907 -1.71537
4.78122 3.15607 -1.71737
4.76822 3.16907 -1.71537
4.75022 3.17807 -1.71237
4.75622 3.19307 -1.71737
4.74522 3.20707 -1.71637
4.74322 3.22707 -1.71937
4.74222 3.24907 -1.72337
4.72722 3.26007 -1.72137
4.71522 3.27407 -1.72037
4.71122 3.29307 -1.72337
4.71122 3.30407 -1.72537
4.69722 3.31607 -1.72337
4.70122 3.34107 -1.72937
4.68222 3.35007 -1.72637
4.66422 3.35907 -1.72337
4.66922 3.38507 -1.72937
4.65722 3.39907 -1.72837
4.64722 3.42507 -1.73137
3.68922 4.55107 -1.75837
3.63222 4.56807 -1.75137
3.62622 4.57507 -1.75137
3.61422 4.58907 -1.75337
3.59122 4.59007 -1.74837
3.58022 4.60607 -1.75037
3.56622 4.61707 -1.75037
3.54022 4.61307 -1.74437
3.52022 4.61807 -1.74237
3.51422 4.62507 -1.74237
4.71022 -2.67093 -1.61637
4.72722 -2.67093 -1.62137
4.71722 -2.64593 -1.61437
4.72622 -2.63093 -1.61437
4.74622 -2.62293 -1.61937
4.74022 -2.60093 -1.61437
4.74222 -2.58193 -1.61137
4.77322 -2.57993 -1.62037
4.77122 -2.56893 -1.61737
4.77922 -2.55393 -1.61737
4.79222 -2.54093 -1.61937
4.79122 -2.52193 -1.61637
4.79422 -2.50393 -1.61437
4.82622 -2.50093 -1.62337
4.82322 -2.48093 -1.61937
4.82622 -2.47293 -1.61937
4.83822 -2.45993 -1.62037
4.84622 -2.44493 -1.62037
4.86222 -2.43393 -1.62337
4.85622 -2.41193 -1.61937
4.87722 -2.40293 -1.62337
4.88722 -2.38893 -1.62437
4.88922 -2.37993 -1.62337
4.90322 -2.36793 -1.62637
4.90222 -2.34893 -1.62337
4.92122 -2.33893 -1.62737
4.92922 -2.30493 -1.62537
4.94322 -2.29293 -1.62737
4.94522 -2.28393 -1.62737
4.95222 -2.26793 -1.62737
5.36322 0.00107166 -1.66237
5.35622 0.0180717 -1.65937
5.36522 0.0350717 -1.66237
5.35222 0.0520717 -1.65837
5.36722 0.0600717 -1.66337
5.36122 0.0770717 -1.66137
5.35722 0.0940717 -1.66037
5.36222 0.111072 -1.66237
5.36222 0.128072 -1.66237
5.35422 0.144072 -1.65937
5.35722 0.161072 -1.66037
5.34522 0.169072 -1.65637
5.35222 0.186072 -1.65937
5.35722 0.203072 -1.66137
5.36122 0.220072 -1.66237
5.35022 0.237072 -1.65937
5.35022 0.253072 -1.65937
5.35422 0.271072 -1.66137
5.35722 0.288072 -1.66237
5.35522 0.296072 -1.66237
5.34822 0.312072 -1.66037
5.34922 0.329072 -1.66037
5.35422 0.347072 -1.66237
5.34122 0.362072 -1.65837
5.34022 0.379072 -1.65837
5.33422 0.387072 -1.65637
5.34822 0.405072 -1.66237
5.34722 0.422072 -1.66237
5.35322 0.439072 -1.66437
5.32122 0.454072 -1.65437
5.33922 0.472072 -1.66037
5.34522 0.490072 -1.66337
5.34322 0.506072 -1.66337
5.34222 0.515072 -1.66337
5.32922 0.530072 -1.65937
5.34822 0.549072 -1.66637
5.33022 0.564072 -1.66037
5.32622 0.581072 -1.66037
5.34122 0.599072 -1.66537
5.33022 0.615072 -1.66237
5.31722 0.622072 -1.65837
5.33622 0.641072 -1.66537
5.32522 0.657072 -1.66237
5.33022 0.675072 -1.66537
5.32122 0.690072 -1.66237
5.32822 0.708072 -1.66537
5.31622 0.724072 -1.66237
5.31922 0.733072 -1.66337
5.30722 0.748072 -1.66037
5.31222 0.766072 -1.66337
5.30422 0.782072 -1.66137
5.30822 0.816072 -1.66437
5.31022 0.834072 -1.66537
5.29722 0.840072 -1.66237
5.30222 0.858072 -1.66437
5.29222 0.873072 -1.66237
5.30222 0.892072 -1.66637
5.29222 0.925072 -1.66537
5.28622 0.984072 -1.66637
5.27822 1.01707 -1.66537
5.27622 1.03407 -1.66637
5.27122 1.05007 -1.66537
5.27722 1.06007 -1.66837
5.26522 1.10907 -1.66737
5.25822 1.15907 -1.66837
5.25622 1.16807 -1.66837
5.25022 1.18407 -1.66837
5.23522 1.26707 -1.66937
5.23522 1.27607 -1.67037
5.23622 1.29307 -1.67237
5.22422 1.34307 -1.67237
5.22622 1.38707 -1.67637
5.22022 1.40307 -1.67537
5.21722 1.42007 -1.67637
5.23322 1.44207 -1.68337
5.21222 1.45407 -1.67737
5.21822 1.47307 -1.68137
5.21722 1.49107 -1.68237
5.21822 1.50007 -1.68437
5.22322 1.51907 -1.68737
5.20922 1.53307 -1.68437
5.19522 1.54607 -1.68037
5.19922 1.56507 -1.68437
5.18722 1.57907 -1.68137
5.18222 1.59607 -1.68137
5.18322 1.60507 -1.68237
5.17122 1.61907 -1.68037
5.16422 1.63507 -1.67937
5.16022 1.65107 -1.68037
5.16122 1.66907 -1.68237
5.14522 1.68207 -1.67837
5.13922 1.69807 -1.67837
5.15322 1.71207 -1.68437
5.14022 1.72507 -1.68137
5.12922 1.74007 -1.67937
5.13622 1.76007 -1.68437
5.13422 1.77807 -1.68537
5.12322 1.79207 -1.68337
5.11622 1.80707 -1.68237
5.10222 1.82907 -1.68037
5.09822 1.86407 -1.68337
5.08222 1.89507 -1.68237
5.07722 1.92007 -1.68337
5.07822 1.93907 -1.68537
5.05922 1.96807 -1.68337
5.05622 1.98507 -1.68437
5.04522 2.02707 -1.68637
5.03122 2.05807 -1.68537
5.02322 2.07307 -1.68537
5.01922 2.09007 -1.68637
5.00622 2.12207 -1.68637
5.00022 2.16507 -1.69037
4.98822 2.17907 -1.68837
4.97822 2.21207 -1.68937
4.97422 2.25707 -1.69437
4.94622 2.28207 -1.68937
4.94522 2.30107 -1.69237
4.92222 2.35607 -1.69237
4.91222 2.38907 -1.69437
4.90122 2.40307 -1.69337
4.87022 2.47407 -1.69437
4.86222 2.48907 -1.69437
4.85422 2.50407 -1.69437
4.86622 2.53007 -1.70237
4.85822 2.54507 -1.70237
4.84322 2.54707 -1.69737
4.83522 2.56207 -1.69737
4.80922 2.60607 -1.69737
4.41422 3.30607 -1.71237
4.40222 3.32907 -1.71337
4.39122 3.34307 -1.71337
4.38822 3.36307 -1.71637
4.37522 3.37407 -1.71537
4.36422 3.38807 -1.71537
4.35022 3.39907 -1.71437
4.34922 3.42007 -1.71737
4.34822 3.43007 -1.71937
4.33522 3.44307 -1.71937
4.33222 3.46207 -1.72237
4.32322 3.47707 -1.72337
4.31922 3.49607 -1.72637
4.29822 3.50207 -1.72137
4.28422 3.51307 -1.72037
4.29422 3.53307 -1.72737
4.28322 3.54607 -1.72737
4.27322 3.56107 -1.72837
4.25822 3.57107 -1.72637
4.25022 3.58607 -1.72737
4.24722 3.60707 -1.73137
4.23622 3.62007 -1.73137
4.22722 3.62507 -1.72937
4.21722 3.63907 -1.73037
4.21622 3.66107 -1.73437
4.19722 3.66807 -1.73137
4.19422 3.68907 -1.73537
4.17622 3.72007 -1.73837
4.16622 3.72307 -1.73637
4.14122 3.77107 -1.74037
4.13222 3.78707 -1.74137
4.11722 3.79707 -1.74037
4.10422 3.80907 -1.73937
3.80222 4.13007 -1.74537
3.79822 4.15207 -1.74937
3.78022 4.17107 -1.75037
3.77122 4.18707 -1.75137
3.75522 4.19607 -1.75037
3.73922 4.20507 -1.74937
3.73222 4.22407 -1.75237
3.71522 4.23107 -1.75037
3.69322 4.23307 -1.74637
3.68822 4.24007 -1.74637
3.67422 4.25207 -1.74637
3.65922 4.26007 -1.74537
3.64422 4.27007 -1.74537
3.62722 4.27707 -1.74337
3.60322 4.27607 -1.73737
3.58822 4.28607 -1.73637
3.58122 4.29107 -1.73637
3.56522 4.29907 -1.73537
4.43322 -2.70693 -1.60637
4.44022 -2.69193 -1.60537
4.45222 -2.67993 -1.60637
4.45822 -2.67393 -1.60737
4.46422 -2.65893 -1.60637
4.48822 -2.61593 -1.60637
4.51322 -2.58293 -1.60737
4.51922 -2.56793 -1.60737
4.54522 -2.54493 -1.61137
4.64222 -2.37393 -1.61237
4.66422 -2.32993 -1.61237
4.66822 -2.31293 -1.61137
4.67622 -2.30893 -1.61237
4.69922 -2.28293 -1.61637
4.70522 -2.26793 -1.61537
4.71022 -2.25193 -1.61437
4.71922 -2.23793 -1.61537
4.72622 -2.22293 -1.61537
4.73822 -2.21993 -1.61837
4.74722 -2.20593 -1.61937
4.74122 -2.18493 -1.61437
4.75722 -2.17393 -1.61737
4.76422 -2.15893 -1.61737
4.76722 -2.14293 -1.61637
4.77522 -2.12893 -1.61737
4.77922 -2.12093 -1.61737
4.78522 -2.10593 -1.61737
4.79422 -2.09193 -1.61737
4.80922 -2.07993 -1.62137
4.81722 -2.06593 -1.62137
4.82222 -2.04993 -1.62137
4.82822 -2.03493 -1.62137
4.83222 -2.02693 -1.62137
4.84022 -2.01293 -1.62137
4.85722 -2.00193 -1.62537
4.85922 -1.98493 -1.62437
4.86222 -1.96893 -1.62337
4.87422 -1.95493 -1.62437
4.88322 -1.94193 -1.62637
4.88322 -1.93293 -1.62437
4.89822 -1.92093 -1.62837
4.90222 -1.90493 -1.62737
4.91822 -1.89293 -1.63137
4.92822 -1.87893 -1.63237
4.93722 -1.86493 -1.63337
4.94922 -1.85093 -1.63537
4.95522 -1.84493 -1.63637
4.96622 -1.81393 -1.63637
4.97222 -1.79793 -1.63637
5.36022 -0.183928 -1.66237
5.36322 -0.166928 -1.66237
5.36522 -0.141928 -1.66337
5.36022 -0.124928 -1.66137
5.36022 -0.107928 -1.66137
5.36422 -0.0909283 -1.66237
5.36522 -0.0749283 -1.66237
5.36922 -0.0579283 -1.66337
5.36522 -0.0489283 -1.66237
5.36522 -0.0319283 -1.66237
5.36122 -0.0159283 -1.66137
5.19622 0.0140717 -1.65437
5.18522 0.0220717 -1.65037
5.19422 0.0390717 -1.65437
5.19822 0.0550717 -1.65537
5.20322 0.0710717 -1.65737
5.21322 0.0880717 -1.66037
5.19522 0.104072 -1.65437
5.20522 0.112072 -1.65837
5.20422 0.129072 -1.65837
5.19422 0.145072 -1.65437
5.19622 0.161072 -1.65537
5.22222 0.178072 -1.66437
5.21922 0.195072 -1.66337
5.21322 0.211072 -1.66137
5.23522 0.228072 -1.66937
5.19722 0.235072 -1.65637
5.21722 0.252072 -1.66337
5.20322 0.268072 -1.65937
5.19622 0.284072 -1.65737
5.19122 0.300072 -1.65637
5.18622 0.332072 -1.65437
5.19122 0.341072 -1.65637
5.19022 0.357072 -1.65637
5.19222 0.406072 -1.65837
5.18222 0.438072 -1.65637
5.19222 0.447072 -1.65937
5.17922 0.463072 -1.65637
5.18022 0.479072 -1.65637
5.17822 0.496072 -1.65637
5.17622 0.569072 -1.65837
5.16622 0.675072 -1.65937
5.15622 0.889072 -1.66737
5.17222 0.909072 -1.67337
5.12222 1.16807 -1.67437
5.10222 1.29007 -1.67737
5.09822 1.29807 -1.67637
5.07622 1.34307 -1.67337
5.08622 1.38007 -1.67937
5.06322 1.40007 -1.67437
5.05922 1.41607 -1.67437
5.08022 1.43907 -1.68337
5.09422 1.46007 -1.68937
5.07622 1.47207 -1.68537
5.07522 1.48907 -1.68637
5.04022 1.49607 -1.67537
5.03922 1.50407 -1.67637
5.05622 1.52707 -1.68337
5.03122 1.53707 -1.67637
5.05222 1.56007 -1.68537
5.04322 1.57507 -1.68437
5.00822 1.62407 -1.67837
5.00122 1.65707 -1.67937
4.99422 1.67207 -1.67837
4.69722 2.52107 -1.70037
4.66022 2.56807 -1.69737
4.61822 2.68907 -1.70537
4.39322 3.06307 -1.70837
4.37222 3.10007 -1.71037
4.36022 3.11207 -1.70937
4.35422 3.12807 -1.71037
4.34222 3.14107 -1.71037
4.31422 3.18307 -1.71037
4.31422 3.19307 -1.71237
4.30222 3.20507 -1.71237
4.29422 3.22007 -1.71237
4.29722 3.24407 -1.71837
4.29122 3.26007 -1.72037
4.27422 3.26807 -1.71737
4.26622 3.28407 -1.71837
4.26122 3.29107 -1.71837
4.24522 3.29907 -1.71637
4.24222 3.31807 -1.71937
4.23422 3.33407 -1.72037
4.22222 3.34607 -1.71937
4.22722 3.37107 -1.72637
4.20922 3.37907 -1.72337
4.20622 3.38807 -1.72437
4.19622 3.40107 -1.72437
4.18422 3.41307 -1.72337
4.16722 3.42107 -1.72137
4.16322 3.44007 -1.72437
4.15122 3.45207 -1.72337
4.14022 3.46507 -1.72337
4.13922 3.47507 -1.72537
4.13322 3.49207 -1.72737
4.12022 3.50307 -1.72637
4.11222 3.51907 -1.72837
4.09822 3.52907 -1.72637
4.08422 3.54007 -1.72537
4.08622 3.56407 -1.73137
4.07022 3.56107 -1.72637
4.06322 3.57807 -1.72837
4.06122 3.59807 -1.73237
4.05222 3.61307 -1.73437
4.03522 3.62107 -1.73137
4.02922 3.63907 -1.73437
4.03222 3.66407 -1.74037
4.01222 3.65807 -1.73437
4.00522 3.67407 -1.73637
3.99622 3.68907 -1.73737
3.98222 3.69907 -1.73637
3.97322 3.71407 -1.73737
3.96422 3.72907 -1.73837
3.95522 3.74407 -1.73937
3.95322 3.75407 -1.74137
3.94022 3.76607 -1.74137
3.91922 3.79307 -1.74237
3.69022 4.03707 -1.74737
3.66922 4.04007 -1.74337
3.65922 4.05407 -1.74537
3.64522 4.06407 -1.74437
3.62022 4.06207 -1.73737
3.61522 4.06907 -1.73837
3.59522 4.07307 -1.73537
3.57922 4.08007 -1.73337
3.57122 4.09707 -1.73637
3.55122 4.10007 -1.73237
3.54022 4.11407 -1.73337
3.53022 4.12807 -1.73437
4.27422 -2.70493 -1.60737
4.46122 -2.39993 -1.61037
4.52722 -2.29893 -1.61437
4.53422 -2.27593 -1.61237
4.55022 -2.24793 -1.61337
4.58122 -2.20193 -1.61637
4.58122 -2.18393 -1.61337
4.59722 -2.17393 -1.61637
4.59722 -2.15593 -1.61437
4.60922 -2.14393 -1.61637
4.61322 -2.12893 -1.61537
4.62422 -2.11593 -1.61637
4.62322 -2.10693 -1.61537
4.63922 -2.09593 -1.61837
4.64422 -2.08093 -1.61837
4.65322 -2.06793 -1.61937
4.65322 -2.04993 -1.61637
4.65622 -2.03393 -1.61537
4.67422 -2.02493 -1.62037
4.67922 -2.01793 -1.62037
4.69322 -2.00593 -1.62337
4.69222 -1.98893 -1.62037
4.70722 -1.97693 -1.62337
4.69722 -1.95593 -1.61837
4.70422 -1.94093 -1.61837
4.71822 -1.92993 -1.62137
4.73922 -1.92993 -1.62737
4.74322 -1.91393 -1.62737
4.74022 -1.89593 -1.62337
4.75722 -1.88493 -1.62737
4.75022 -1.86493 -1.62337
4.76222 -1.85293 -1.62537
4.77122 -1.83893 -1.62637
4.77622 -1.83193 -1.62737
4.77222 -1.81393 -1.62337
4.79622 -1.80493 -1.63037
4.79622 -1.78793 -1.62837
4.79822 -1.77193 -1.62737
4.82022 -1.76293 -1.63237
4.82322 -1.74693 -1.63237
4.82322 -1.73793 -1.63037
4.83722 -1.72593 -1.63437
4.84122 -1.70993 -1.63337
4.85822 -1.68193 -1.63637
4.86922 -1.66893 -1.63837
4.87422 -1.65393 -1.63837
5.19422 -0.426928 -1.65937
5.19422 -0.402928 -1.65937
5.20022 -0.369928 -1.66037
5.19822 -0.353928 -1.65937
5.18722 -0.336928 -1.65537
5.19822 -0.320928 -1.65837
5.19522 -0.312928 -1.65737
5.20722 -0.296928 -1.66137
5.21022 -0.280928 -1.66137
5.20322 -0.263928 -1.65937
5.20022 -0.246928 -1.65837
5.21422 -0.231928 -1.66237
5.19622 -0.213928 -1.65637
5.20422 -0.206928 -1.65837
5.21222 -0.190928 -1.66137
5.20522 -0.173928 -1.65837
5.20522 -0.157928 -1.65837
5.21022 -0.140928 -1.65937
5.20222 -0.124928 -1.65737
5.20722 -0.108928 -1.65837
5.19522 -0.0999283 -1.65437
5.20922 -0.0839283 -1.65937
5.20222 -0.0679283 -1.65637
5.20022 -0.0509283 -1.65637
5.20922 -0.0349283 -1.65937
5.19822 -0.0179283 -1.65537
5.20422 -0.00192834 -1.65737
5.07722 0.0200717 -1.66637
5.07722 0.0520717 -1.66637
5.07322 0.0680717 -1.66537
5.08622 0.0840717 -1.66937
5.08222 0.0920717 -1.66837
5.08022 0.108072 -1.66737
5.08322 0.124072 -1.66937
5.08022 0.172072 -1.66837
5.07922 0.188072 -1.66837
5.06822 0.195072 -1.66437
5.07822 0.212072 -1.66837
5.06822 0.227072 -1.66537
5.07922 0.244072 -1.66937
5.06722 0.259072 -1.66537
5.08522 0.276072 -1.67137
5.07122 0.291072 -1.66737
5.08222 0.300072 -1.67137
5.05822 0.314072 -1.66337
5.07022 0.331072 -1.66737
5.07922 0.348072 -1.67137
5.07022 0.363072 -1.66837
5.06722 0.379072 -1.66737
5.05622 0.394072 -1.66437
5.07422 0.404072 -1.67137
5.05622 0.418072 -1.66537
5.07622 0.436072 -1.67237
5.06522 0.451072 -1.66937
5.07122 0.468072 -1.67137
5.05222 0.482072 -1.66537
5.06422 0.499072 -1.67037
5.05922 0.507072 -1.66937
5.05422 0.522072 -1.66737
5.04722 0.537072 -1.66537
5.06622 0.556072 -1.67337
5.05322 0.570072 -1.66937
5.05322 0.586072 -1.66937
5.04522 0.601072 -1.66737
5.04222 0.609072 -1.66737
5.04222 0.625072 -1.66737
5.03122 0.640072 -1.66437
5.03322 0.656072 -1.66537
5.03122 0.672072 -1.66537
5.04222 0.690072 -1.67037
5.03622 0.705072 -1.66937
5.02922 0.712072 -1.66737
5.02122 0.727072 -1.66537
5.03622 0.745072 -1.67137
5.02022 0.759072 -1.66637
5.02322 0.776072 -1.66837
5.01022 0.790072 -1.66437
5.02222 0.808072 -1.66937
5.02322 0.816072 -1.67037
5.01322 0.831072 -1.66737
5.01422 0.847072 -1.66937
5.00422 0.861072 -1.66637
5.01822 0.880072 -1.67237
5.01122 0.895072 -1.67137
5.01222 0.912072 -1.67237
4.99422 0.916072 -1.66637
4.99522 0.933072 -1.66737
4.99822 0.966072 -1.67137
4.99022 0.997072 -1.67037
4.97922 1.01107 -1.66737
4.99422 1.02207 -1.67337
4.99322 1.03807 -1.67437
4.98822 1.05407 -1.67337
4.97222 1.06707 -1.66937
4.97622 1.08407 -1.67137
4.97822 1.10107 -1.67337
4.96522 1.11407 -1.67037
4.96022 1.12107 -1.66937
4.96522 1.13907 -1.67237
4.96222 1.15507 -1.67237
4.96722 1.17207 -1.67537
4.96722 1.20507 -1.67837
4.95222 1.21807 -1.67437
4.95422 1.22707 -1.67537
4.94522 1.24107 -1.67337
4.93922 1.25607 -1.67337
4.94822 1.27507 -1.67737
4.93622 1.28907 -1.67537
4.95422 1.31007 -1.68337
4.94122 1.32307 -1.67937
4.92622 1.32707 -1.67537
4.95122 1.35107 -1.68537
4.92522 1.36007 -1.67737
4.93022 1.37807 -1.68137
4.94222 1.39807 -1.68637
4.94822 1.41707 -1.69037
4.94522 1.43307 -1.69137
4.94522 1.44207 -1.69237
4.92622 1.45307 -1.68637
4.91822 1.46707 -1.68537
4.91122 1.48207 -1.68437
4.90722 1.49707 -1.68437
4.90622 1.51407 -1.68637
4.91222 1.53307 -1.69037
4.88922 1.53407 -1.68337
4.88822 1.55107 -1.68437
4.89922 1.57107 -1.69037
4.86922 1.57807 -1.68137
4.87222 1.59607 -1.68337
4.85922 1.60907 -1.68137
4.85222 1.62407 -1.68037
4.84622 1.63007 -1.67937
4.86322 1.65307 -1.68637
4.84322 1.66307 -1.68137
4.83122 1.71007 -1.68337
4.82922 1.72607 -1.68437
4.83222 1.73607 -1.68637
4.80822 1.76107 -1.68137
4.80822 1.77907 -1.68337
4.79322 1.80707 -1.68237
4.70422 2.07607 -1.68837
4.68422 2.12907 -1.69037
4.66022 2.20707 -1.69437
4.63622 2.24007 -1.69137
4.63222 2.25707 -1.69237
4.62522 2.27107 -1.69237
4.60522 2.31507 -1.69337
4.60322 2.32407 -1.69437
4.59922 2.34007 -1.69537
4.59522 2.35607 -1.69637
4.59522 2.37407 -1.69937
4.58522 2.38707 -1.69837
4.57022 2.39707 -1.69537
4.58022 2.42107 -1.70237
4.57022 2.42507 -1.70037
4.57622 2.44707 -1.70537
4.56822 2.46107 -1.70537
4.56222 2.47607 -1.70637
4.55422 2.49107 -1.70637
4.55122 2.50807 -1.70837
4.54522 2.52307 -1.70837
4.54122 2.53007 -1.70837
4.53122 2.54307 -1.70837
4.51722 2.55407 -1.70537
4.51322 2.57107 -1.70737
4.50222 2.58307 -1.70637
4.48622 2.59207 -1.70237
4.47822 2.60607 -1.70237
4.49122 2.62407 -1.71037
4.47822 2.63507 -1.70837
4.46722 2.64707 -1.70637
4.46022 2.66207 -1.70737
4.44822 2.67407 -1.70637
4.44522 2.69107 -1.70837
4.43522 2.70407 -1.70737
4.42222 2.70607 -1.70437
4.42222 2.72507 -1.70737
4.40222 2.73207 -1.70237
4.40322 2.75207 -1.70637
4.39322 2.76507 -1.70637
4.37822 2.77407 -1.70337
4.38222 2.79607 -1.70837
4.37322 2.80007 -1.70637
4.36122 2.81207 -1.70537
4.36422 2.83407 -1.71037
4.35222 2.84507 -1.70937
4.33222 2.85207 -1.70437
4.33422 2.87307 -1.70937
4.32122 2.88307 -1.70737
4.33322 2.90207 -1.71437
4.31622 2.91007 -1.71137
4.30622 2.94207 -1.71437
4.28722 2.94907 -1.71037
4.27822 2.96307 -1.71037
4.27222 2.97807 -1.71237
4.27222 2.98807 -1.71437
4.25522 2.99607 -1.71037
4.25622 3.01707 -1.71537
4.23722 3.02407 -1.71137
4.23522 3.04307 -1.71437
4.24122 3.06707 -1.72137
4.22222 3.07407 -1.71737
4.21122 3.07607 -1.71437
4.20522 3.09207 -1.71637
4.19922 3.10807 -1.71837
4.18422 3.11707 -1.71537
4.19022 3.14207 -1.72237
4.16522 3.14407 -1.71637
4.16322 3.16307 -1.71937
4.16822 3.17807 -1.72437
4.13322 3.17107 -1.71237
4.14522 3.20107 -1.72237
4.13822 3.21707 -1.72437
4.11222 3.21707 -1.71637
4.10822 3.23407 -1.71937
4.10322 3.25207 -1.72237
4.09422 3.25507 -1.72037
4.08222 3.26707 -1.71937
4.08722 3.29107 -1.72637
4.07522 3.30307 -1.72537
4.06022 3.31207 -1.72337
4.06022 3.33307 -1.72837
4.03522 3.33407 -1.72137
4.03122 3.34107 -1.72237
4.03622 3.36707 -1.72937
4.01322 3.36907 -1.72337
4.01122 3.38907 -1.72737
4.00422 3.40507 -1.72937
3.98822 3.41307 -1.72637
3.98022 3.42807 -1.72837
3.97122 3.44207 -1.72837
3.95722 3.44007 -1.72437
3.95422 3.46007 -1.72837
3.95322 3.48207 -1.73337
3.92022 3.47407 -1.72237
3.92922 3.50407 -1.73137
3.91922 3.51707 -1.73237
3.89522 3.51807 -1.72637
3.89722 3.53107 -1.72937
3.89422 3.55107 -1.73337
3.88022 3.56007 -1.73237
3.86522 3.56907 -1.73037
3.86022 3.58707 -1.73337
3.85722 3.60707 -1.73737
3.84522 3.61807 -1.73737
3.84022 3.62507 -1.73737
3.82922 3.63707 -1.73737
3.82022 3.65207 -1.73937
3.79722 3.67607 -1.73937
3.78822 3.69007 -1.74037
3.49422 3.98507 -1.74437
3.47122 3.98307 -1.73837
3.46022 3.99507 -1.73937
3.44822 3.99507 -1.73637
4.11122 -2.68693 -1.60837
4.14022 -2.65993 -1.61137
4.17122 -2.60693 -1.61037
4.21422 -2.53293 -1.61037
4.29122 -2.41693 -1.61237
4.32122 -2.36293 -1.61237
4.33322 -2.35193 -1.61437
4.34522 -2.34893 -1.61837
4.34122 -2.32993 -1.61337
4.35622 -2.31993 -1.61637
4.36522 -2.30693 -1.61737
4.37622 -2.29493 -1.61837
4.38022 -2.27993 -1.61737
4.38322 -2.26393 -1.61637
4.39522 -2.26193 -1.61937
4.40622 -2.24993 -1.62037
4.41022 -2.23393 -1.61937
4.41722 -2.21993 -1.61937
4.42722 -2.20793 -1.62037
4.44422 -2.19893 -1.62437
4.44222 -2.18093 -1.62137
4.43922 -2.17093 -1.61837
4.47022 -2.16793 -1.62837
4.45622 -2.14393 -1.62037
4.45922 -2.12893 -1.61837
4.47622 -2.11993 -1.62237
4.47922 -2.10393 -1.62137
4.47922 -2.08693 -1.61837
4.50622 -2.09093 -1.62837
4.50622 -2.07293 -1.62537
4.51822 -2.06193 -1.62737
4.53322 -2.05093 -1.63037
4.51322 -2.02593 -1.62037
4.53422 -2.01693 -1.62637
4.54522 -2.00493 -1.62837
4.55022 -1.99893 -1.62837
4.55422 -1.98393 -1.62837
4.57322 -1.97493 -1.63237
4.57222 -1.95793 -1.63037
4.58022 -1.94393 -1.63037
4.59522 -1.93293 -1.63437
4.58222 -1.91093 -1.62637
4.60222 -1.91093 -1.63337
4.61322 -1.89793 -1.63537
4.61622 -1.88193 -1.63437
4.61322 -1.86393 -1.63037
4.63322 -1.85493 -1.63637
4.63722 -1.83993 -1.63537
4.63522 -1.82293 -1.63237
4.65222 -1.82093 -1.63837
4.65822 -1.80593 -1.63837
4.64822 -1.78593 -1.63237
4.66822 -1.75993 -1.63537
4.67922 -1.74693 -1.63737
4.69022 -1.72593 -1.63837
4.69822 -1.71193 -1.63937
4.71222 -1.66693 -1.63837
5.07122 -0.0669283 -1.66437
5.07922 -0.0359283 -1.66737
4.96522 0.379072 -1.67337
4.96422 0.410072 -1.67337
4.96522 0.442072 -1.67537
4.96322 0.465072 -1.67537
4.95322 0.496072 -1.67237
4.94822 0.527072 -1.67137
4.94722 0.550072 -1.67237
4.95822 0.583072 -1.67737
4.94922 0.629072 -1.67637
4.95222 0.645072 -1.67837
4.94622 0.652072 -1.67637
4.94722 0.668072 -1.67737
4.94522 0.684072 -1.67737
4.93922 0.699072 -1.67637
4.95022 0.716072 -1.68137
4.94822 0.732072 -1.68137
4.93622 0.746072 -1.67737
4.93722 0.754072 -1.67837
4.94022 0.770072 -1.68037
4.93022 0.785072 -1.67737
4.92622 0.800072 -1.67737
4.92522 0.816072 -1.67737
4.92522 0.831072 -1.67837
4.92622 0.848072 -1.67937
4.91722 0.854072 -1.67737
4.92022 0.870072 -1.67937
4.90622 0.884072 -1.67537
4.92322 0.903072 -1.68237
4.90822 0.916072 -1.67737
4.92322 0.959072 -1.68537
4.90822 0.972072 -1.68137
4.87322 0.997072 -1.67137
4.91222 1.03707 -1.68737
4.89122 1.04907 -1.68137
4.89822 1.05807 -1.68437
4.90222 1.07507 -1.68737
4.89922 1.09107 -1.68737
4.87322 1.10107 -1.67937
4.87722 1.13407 -1.68337
4.87422 1.15007 -1.68337
4.86322 1.17107 -1.68137
4.88122 1.19207 -1.68937
4.88122 1.20807 -1.69037
4.86122 1.21907 -1.68437
4.84222 1.24707 -1.68037
4.85822 1.25907 -1.68737
4.85822 1.27607 -1.68837
4.83322 1.31807 -1.68337
4.84622 1.35407 -1.69137
4.83022 1.35807 -1.68637
4.83222 1.39107 -1.69037
4.82822 1.43907 -1.69337
4.82322 1.45407 -1.69337
4.80822 1.45807 -1.68937
4.78622 1.48507 -1.68437
4.79822 1.52107 -1.69237
4.78622 1.53407 -1.68937
4.78022 1.54907 -1.68937
4.77722 1.55607 -1.68937
4.79222 1.57807 -1.69637
4.76422 1.58507 -1.68737
4.75722 1.59907 -1.68737
4.77722 1.62307 -1.69637
4.74222 1.62707 -1.68537
4.75122 1.64707 -1.69037
4.73622 1.65007 -1.68537
4.74722 1.67107 -1.69137
4.74122 1.68607 -1.69137
4.72422 1.69607 -1.68737
4.72722 1.71407 -1.69037
4.71122 1.72507 -1.68637
4.71122 1.74207 -1.68837
4.70122 1.74707 -1.68537
4.70622 1.76507 -1.68937
4.71122 1.78407 -1.69337
4.69722 1.79607 -1.69037
4.68422 1.80807 -1.68737
4.68922 1.82607 -1.69137
4.67622 1.83807 -1.68937
4.68222 1.84907 -1.69237
4.68322 1.86707 -1.69537
4.66322 1.87607 -1.68937
4.66822 1.89507 -1.69337
4.64822 1.90407 -1.68837
4.64922 1.92107 -1.69137
4.65022 1.93807 -1.69337
4.63422 1.94107 -1.68937
4.63522 1.95807 -1.69137
4.63222 1.99107 -1.69537
4.61522 2.00107 -1.69137
4.61922 2.02007 -1.69537
4.60122 2.02907 -1.69037
4.60422 2.03907 -1.69337
4.60322 2.05607 -1.69537
4.60322 2.07407 -1.69837
4.59022 2.08507 -1.69537
4.57122 2.09407 -1.69037
4.58022 2.11507 -1.69637
4.56822 2.12707 -1.69437
4.56022 2.13207 -1.69237
4.57422 2.15607 -1.70037
4.56322 2.16907 -1.69937
4.55522 2.18207 -1.69837
4.54622 2.19607 -1.69837
4.55522 2.21807 -1.70437
4.55322 2.23407 -1.70637
4.53922 2.23607 -1.70237
4.53522 2.25207 -1.70337
4.53022 2.26707 -1.70437
4.52322 2.28207 -1.70437
4.51722 2.29707 -1.70437
4.52922 2.32007 -1.71237
4.50322 2.32507 -1.70437
4.51922 2.34207 -1.71237
4.49922 2.35007 -1.70737
4.48922 2.38107 -1.70937
4.49122 2.40007 -1.71337
4.47522 2.41007 -1.71037
4.47622 2.42807 -1.71337
4.45222 2.42407 -1.70537
4.46622 2.45007 -1.71437
4.46022 2.46507 -1.71437
4.45722 2.48207 -1.71637
4.43522 2.50607 -1.71437
4.34422 2.69407 -1.72037
4.32322 2.70907 -1.71637
4.32122 2.72707 -1.71937
4.29822 2.76907 -1.72137
4.27722 2.79407 -1.71937
4.27322 2.80107 -1.71937
4.25522 2.80807 -1.71537
4.23722 2.83507 -1.71537
4.22722 2.86707 -1.71837
4.23222 2.89007 -1.72537
4.20422 2.88007 -1.71437
4.20722 2.90207 -1.72037
4.19022 2.91007 -1.71637
4.18922 2.94807 -1.72437
4.18322 2.96307 -1.72537
4.17722 2.97907 -1.72737
4.14922 2.98807 -1.72137
4.13722 3.02007 -1.72437
4.12022 3.02707 -1.72137
4.12622 3.05107 -1.72737
4.10022 3.05207 -1.72037
4.10422 3.06507 -1.72437
4.08322 3.09007 -1.72337
4.07422 3.12307 -1.72837
4.05822 3.13207 -1.72537
4.04422 3.14107 -1.72337
4.03222 3.16207 -1.72537
4.03322 3.18307 -1.72937
4.01122 3.18607 -1.72437
4.00922 3.20607 -1.72837
3.99422 3.21407 -1.72537
3.97922 3.24407 -1.72837
3.97122 3.24707 -1.72737
3.96222 3.26107 -1.72737
3.95322 3.27507 -1.72837
3.94822 3.29107 -1.73037
3.92422 3.31307 -1.72937
3.92422 3.33407 -1.73337
3.91422 3.33607 -1.73137
3.90922 3.35407 -1.73437
3.89022 3.35807 -1.73037
3.86322 3.37807 -1.72737
3.85722 3.39407 -1.72937
3.84222 3.40207 -1.72737
3.84822 3.41807 -1.73337
3.84722 3.43907 -1.73737
3.81822 3.45707 -1.73437
3.80722 3.46907 -1.73437
3.79822 3.48207 -1.73537
3.77922 3.48607 -1.73137
3.79122 3.50907 -1.73937
3.77622 3.51707 -1.73737
3.35622 3.95907 -1.74837
3.33422 3.95807 -1.74337
3.33022 3.96607 -1.74437
3.29622 3.95107 -1.73237
4.00222 -2.70493 -1.61937
4.02522 -2.68393 -1.62237
4.03322 -2.67993 -1.62337
4.02522 -2.65693 -1.61737
4.04322 -2.64993 -1.62137
4.05622 -2.64093 -1.62337
4.06122 -2.62593 -1.62137
4.06322 -2.60893 -1.61937
4.08122 -2.60193 -1.62337
4.08222 -2.59393 -1.62137
4.07922 -2.57393 -1.61737
4.09222 -2.56393 -1.61937
4.10922 -2.55693 -1.62337
4.10322 -2.53493 -1.61737
4.10922 -2.52193 -1.61637
4.13122 -2.51793 -1.62237
4.14222 -2.51493 -1.62537
4.12922 -2.48893 -1.61637
4.15322 -2.48593 -1.62337
4.16922 -2.47793 -1.62637
4.15922 -2.45393 -1.61937
4.16822 -2.44193 -1.61937
4.18422 -2.43393 -1.62337
4.18322 -2.42393 -1.62137
4.19722 -2.41493 -1.62337
4.19322 -2.39493 -1.61937
4.20822 -2.38693 -1.62237
4.22322 -2.37693 -1.62537
4.23722 -2.36693 -1.62737
4.23422 -2.34893 -1.62337
4.24322 -2.34493 -1.62537
4.25722 -2.33493 -1.62837
4.24122 -2.30893 -1.61937
4.26022 -2.30193 -1.62337
4.27722 -2.29393 -1.62737
4.28722 -2.28193 -1.62937
4.27022 -2.25493 -1.61937
4.29622 -2.26093 -1.62837
4.30022 -2.24593 -1.62737
4.30922 -2.23293 -1.62737
4.32222 -2.22293 -1.63037
4.31822 -2.20393 -1.62537
4.32022 -2.18693 -1.62337
4.34022 -2.18093 -1.62937
4.34022 -2.17193 -1.62737
4.33522 -2.15293 -1.62337
4.36922 -2.15193 -1.63337
4.36422 -2.13293 -1.62937
4.36522 -2.11693 -1.62737
4.37222 -2.10293 -1.62737
4.38722 -2.09293 -1.63037
4.39022 -2.08593 -1.63037
4.40222 -2.07493 -1.63237
4.41022 -2.06193 -1.63337
4.40522 -2.04193 -1.62837
4.41822 -2.03193 -1.63137
4.42622 -2.01893 -1.63137
4.44222 -2.00893 -1.63537
4.42822 -1.99493 -1.62937
4.44022 -1.98293 -1.63137
4.46022 -1.97493 -1.63637
4.45622 -1.95693 -1.63237
4.47022 -1.94593 -1.63537
4.47122 -1.92993 -1.63337
4.48922 -1.92093 -1.63837
4.49122 -1.91393 -1.63737
4.50122 -1.88493 -1.63737
4.50722 -1.86993 -1.63737
4.51422 -1.85693 -1.63737
4.52922 -1.82093 -1.63737
4.54822 -1.77893 -1.63837
4.83622 0.00507166 -1.66837
4.83122 0.0200717 -1.66637
4.81822 0.0350717 -1.66137
4.81222 0.0430717 -1.65937
4.82122 0.0580717 -1.66337
4.82122 0.0730717 -1.66337
4.81722 0.0880717 -1.66137
4.82422 0.104072 -1.66437
