5.18616 -0.222063 -1.65224
5.19716 -0.190063 -1.65624
5.18816 -0.173063 -1.65224
5.20016 -0.0430631 -1.65624
5.07916 0.00393691 -1.66724
5.07516 0.0199369 -1.66524
5.07516 0.0279369 -1.66524
5.07016 0.0439369 -1.66324
5.07116 0.0599369 -1.66424
5.07316 0.0759369 -1.66524
5.07316 0.0919369 -1.66524
5.05916 0.106937 -1.66024
5.07416 0.123937 -1.66524
5.07616 0.131937 -1.66624
5.06816 0.147937 -1.66324
5.06516 0.162937 -1.66324
5.06716 0.178937 -1.66324
5.05816 0.194937 -1.66124
5.07816 0.211937 -1.66824
5.06516 0.226937 -1.66324
5.07216 0.234937 -1.66624
5.05416 0.249937 -1.66024
5.06116 0.266937 -1.66324
5.05516 0.297937 -1.66124
5.05816 0.313937 -1.66324
5.06116 0.322937 -1.66424
5.05716 0.337937 -1.66324
5.06916 0.354937 -1.66724
5.04516 0.368937 -1.65924
5.06316 0.386937 -1.66624
5.05416 0.401937 -1.66324
5.05116 0.417937 -1.66324
5.04216 0.424937 -1.66024
5.04716 0.440937 -1.66224
5.04716 0.456937 -1.66324
5.05516 0.473937 -1.66624
5.05416 0.489937 -1.66624
5.05916 0.506937 -1.66924
5.04516 0.520937 -1.66424
5.05216 0.537937 -1.66724
5.03816 0.543937 -1.66324
5.05516 0.561937 -1.66924
5.05016 0.577937 -1.66824
5.04216 0.592937 -1.66624
5.04816 0.609937 -1.66924
5.04416 0.624937 -1.66824
5.02216 0.638937 -1.66124
5.03816 0.648937 -1.66724
5.04116 0.664937 -1.66924
5.03116 0.679937 -1.66624
5.03116 0.695937 -1.66724
5.03316 0.712937 -1.66824
5.02116 0.726937 -1.66524
5.02816 0.743937 -1.66824
5.02016 0.750937 -1.66524
5.01916 0.766937 -1.66624
5.01816 0.782937 -1.66724
5.01616 0.798937 -1.66724
5.01916 0.814937 -1.66924
5.01116 0.829937 -1.66724
5.01516 0.838937 -1.66924
5.01216 0.854937 -1.66924
5.00616 0.869937 -1.66724
5.00116 0.884937 -1.66724
4.98916 0.898937 -1.66324
4.99416 0.915937 -1.66624
4.98516 0.930937 -1.66424
4.99316 0.940937 -1.66724
4.98816 0.955937 -1.66724
4.99816 0.973937 -1.67124
4.97716 0.985937 -1.66524
4.97716 1.00294 -1.66624
4.97116 1.03394 -1.66624
4.96916 1.04994 -1.66724
4.97016 1.05794 -1.66724
4.96116 1.07194 -1.66524
4.96816 1.08994 -1.66924
4.97116 1.10694 -1.67124
4.96716 1.12294 -1.67124
4.94916 1.13494 -1.66624
4.95416 1.15294 -1.66924
4.95616 1.16094 -1.67124
4.94916 1.17594 -1.66924
4.94116 1.19094 -1.66824
4.94316 1.20794 -1.67024
4.95216 1.22594 -1.67524
4.94116 1.23994 -1.67224
4.92416 1.25194 -1.66724
4.95316 1.26794 -1.67924
4.93316 1.27894 -1.67324
4.93316 1.29594 -1.67424
4.93916 1.31394 -1.67824
4.93216 1.32894 -1.67724
4.93516 1.34594 -1.67924
4.94516 1.36594 -1.68424
4.93716 1.37194 -1.68324
4.93116 1.38694 -1.68224
4.92416 1.45194 -1.68624
4.91816 1.45894 -1.68424
4.89016 1.46694 -1.67624
4.91116 1.48994 -1.68524
4.90116 1.50394 -1.68324
4.90016 1.52094 -1.68424
4.88316 1.54894 -1.68224
4.87516 1.55494 -1.68024
4.88316 1.57394 -1.68424
4.87916 1.58994 -1.68524
4.87316 1.60494 -1.68424
4.87516 1.62294 -1.68724
4.86116 1.63494 -1.68424
4.85016 1.64794 -1.68224
4.85216 1.66594 -1.68424
4.82816 1.66594 -1.67724
4.83916 1.68694 -1.68324
4.83716 1.70294 -1.68424
4.81216 1.71194 -1.67724
4.82616 1.73394 -1.68424
4.82816 1.75194 -1.68624
4.81316 1.76294 -1.68324
4.80516 1.76894 -1.68124
4.80716 1.78694 -1.68424
4.79616 1.79994 -1.68224
4.78516 1.81294 -1.68024
4.78816 1.83094 -1.68324
4.78416 1.84694 -1.68424
4.76916 1.85894 -1.68124
4.76316 1.86494 -1.67924
4.77316 1.88594 -1.68524
4.75516 1.89594 -1.68124
4.75616 1.91394 -1.68324
4.74816 1.92794 -1.68324
4.73316 1.93894 -1.67924
4.74616 1.95294 -1.68524
4.73116 1.96394 -1.68224
4.72816 1.98094 -1.68324
4.72416 1.99594 -1.68424
4.72416 2.01394 -1.68624
4.71816 2.02894 -1.68624
4.71016 2.04294 -1.68624
4.70116 2.04794 -1.68424
4.70416 2.06694 -1.68724
4.69016 2.07794 -1.68424
4.67216 2.08794 -1.68024
4.68716 2.11294 -1.68824
4.67016 2.12294 -1.68424
4.66416 2.13694 -1.68424
4.66716 2.14794 -1.68724
4.66616 2.16494 -1.68924
4.65416 2.17694 -1.68724
4.63816 2.18794 -1.68424
4.63816 2.20494 -1.68624
4.64316 2.22594 -1.69124
4.63416 2.23994 -1.69024
4.63116 2.25594 -1.69224
4.63416 2.26594 -1.69424
4.62016 2.27794 -1.69224
4.59416 2.33694 -1.69324
4.58016 2.34794 -1.69024
4.58516 2.35994 -1.69424
4.57816 2.37394 -1.69424
4.44216 2.62294 -1.69424
4.35616 2.76994 -1.69624
4.33716 2.80594 -1.69724
4.32416 2.83694 -1.69924
3.11616 4.15794 -1.70824
3.09616 4.15894 -1.70424
3.08616 4.17294 -1.70624
3.06716 4.17394 -1.70224
3.05816 4.18894 -1.70424
3.03616 4.18694 -1.69924
3.01816 4.18994 -1.69624
3.01016 4.19194 -1.69524
2.99916 4.20394 -1.69624
4.49316 -2.16206 -1.63424
4.50916 -2.12606 -1.63424
4.54516 -2.05706 -1.63524
4.55816 -2.05406 -1.63924
4.57716 -1.99406 -1.63624
4.58316 -1.97906 -1.63624
4.60216 -1.97006 -1.64124
4.59816 -1.96006 -1.63824
4.60416 -1.94506 -1.63824
4.61016 -1.93106 -1.63824
4.61616 -1.91606 -1.63824
4.62916 -1.90506 -1.64124
4.64716 -1.89506 -1.64524
4.64616 -1.87806 -1.64324
4.65416 -1.87206 -1.64524
4.67216 -1.86306 -1.64924
4.67716 -1.84706 -1.64924
4.67916 -1.83106 -1.64724
4.69716 -1.82106 -1.65224
4.68816 -1.80106 -1.64724
4.69816 -1.78806 -1.64824
4.70716 -1.78306 -1.65124
4.72516 -1.77306 -1.65524
4.72716 -1.75706 -1.65424
4.74416 -1.72906 -1.65624
5.04616 -0.529063 -1.66524
5.06916 -0.395063 -1.66924
5.06616 -0.386063 -1.66724
5.07716 -0.339063 -1.67024
5.07616 -0.299063 -1.66924
5.07716 -0.283063 -1.66924
5.07016 -0.267063 -1.66624
5.07316 -0.251063 -1.66724
5.07716 -0.235063 -1.66824
5.07616 -0.219063 -1.66724
5.07116 -0.203063 -1.66524
5.07416 -0.195063 -1.66624
5.08216 -0.179063 -1.66924
5.07716 -0.163063 -1.66724
5.08516 -0.147063 -1.66924
5.07416 -0.131063 -1.66524
5.08016 -0.115063 -1.66724
5.07616 -0.0990631 -1.66624
5.06716 -0.0910631 -1.66324
5.07516 -0.0750631 -1.66524
5.06716 -0.0590631 -1.66324
5.07316 -0.0440631 -1.66524
5.07016 -0.0280631 -1.66324
5.07516 -0.0120631 -1.66524
4.96816 0.0269369 -1.66924
4.98116 0.0429369 -1.67324
4.96216 0.0589369 -1.66624
4.95816 0.0819369 -1.66524
4.95716 0.112937 -1.66524
4.96016 0.143937 -1.66624
4.95916 0.167937 -1.66624
4.96216 0.198937 -1.66824
4.96516 0.229937 -1.66924
4.97916 0.245937 -1.67524
4.95016 0.260937 -1.66424
4.97016 0.276937 -1.67224
4.97616 0.300937 -1.67524
4.95016 0.314937 -1.66624
4.96316 0.331937 -1.67124
4.96516 0.347937 -1.67224
4.97016 0.363937 -1.67424
4.97016 0.378937 -1.67524
4.96216 0.386937 -1.67224
4.96116 0.401937 -1.67224
4.96416 0.417937 -1.67324
4.94516 0.431937 -1.66724
4.96516 0.449937 -1.67524
4.95616 0.463937 -1.67224
4.95416 0.479937 -1.67224
4.96516 0.488937 -1.67624
4.95716 0.503937 -1.67424
4.95616 0.519937 -1.67424
4.95016 0.534937 -1.67324
4.95116 0.549937 -1.67324
4.95316 0.565937 -1.67524
4.94416 0.572937 -1.67224
4.92616 0.586937 -1.66624
4.95716 0.605937 -1.67824
4.93316 0.618937 -1.67024
4.94416 0.635937 -1.67524
4.93616 0.650937 -1.67324
4.93116 0.665937 -1.67124
4.95016 0.676937 -1.67924
4.92416 0.688937 -1.67024
4.94016 0.706937 -1.67724
4.94216 0.722937 -1.67824
4.93616 0.737937 -1.67724
4.91216 0.765937 -1.67024
4.92016 0.790937 -1.67424
4.93216 0.808937 -1.67924
4.90516 0.819937 -1.67124
4.91016 0.852937 -1.67424
4.92416 0.870937 -1.68024
4.90016 0.882937 -1.67324
4.91916 0.893937 -1.68024
4.90516 0.907937 -1.67624
4.90616 0.923937 -1.67724
4.88816 0.935937 -1.67224
4.89716 0.969937 -1.67724
4.89416 0.984937 -1.67724
4.88716 0.991937 -1.67524
4.90216 1.01094 -1.68224
4.87716 1.02194 -1.67424
4.89216 1.04094 -1.68124
4.86516 1.05094 -1.67224
4.88616 1.07194 -1.68124
4.87716 1.08594 -1.67924
4.88416 1.09594 -1.68224
4.85716 1.10594 -1.67324
4.87416 1.12494 -1.68124
4.84316 1.13394 -1.67124
4.85216 1.15294 -1.67524
4.85416 1.16894 -1.67724
4.85016 1.19194 -1.67824
4.86316 1.21194 -1.68424
4.83916 1.22194 -1.67724
4.84916 1.24094 -1.68224
4.84916 1.25694 -1.68324
4.83416 1.26894 -1.67924
4.83016 1.27694 -1.67924
4.84316 1.29594 -1.68524
4.81916 1.30594 -1.67724
4.82816 1.34094 -1.68424
4.80216 1.43994 -1.68524
4.78016 1.49094 -1.68324
4.76716 1.51994 -1.68124
4.75116 1.58094 -1.68324
4.74216 1.60294 -1.68224
4.73716 1.65094 -1.68624
4.73816 1.66794 -1.68824
4.71716 1.70194 -1.68524
4.71016 1.74994 -1.68924
4.69816 1.77094 -1.68724
4.68916 1.78394 -1.68624
4.68916 1.80094 -1.68824
4.67416 1.81194 -1.68524
4.67116 1.84494 -1.68824
4.66916 1.86094 -1.68924
4.66316 1.86694 -1.68824
4.65716 1.88194 -1.68824
4.65416 1.89794 -1.68924
4.65016 1.91294 -1.69024
4.64216 1.92694 -1.68924
4.63516 1.95794 -1.69124
4.61016 1.96494 -1.68424
4.62116 1.97794 -1.68924
4.61516 1.99194 -1.68924
4.60816 2.00694 -1.68924
4.60216 2.02094 -1.68924
4.59916 2.03694 -1.69124
4.58316 2.06494 -1.68924
4.58016 2.08894 -1.69224
4.54616 2.16994 -1.69324
2.98616 4.10194 -1.70624
2.95816 4.11694 -1.70524
2.95216 4.13694 -1.71024
2.93716 4.14394 -1.70824
2.92316 4.15094 -1.70824
2.90216 4.14994 -1.70324
2.89716 4.15594 -1.70424
2.87416 4.15094 -1.69824
2.86516 4.16594 -1.70024
2.86016 4.18594 -1.70524
2.84116 4.18694 -1.70224
2.82316 4.18794 -1.69824
2.81816 4.20994 -1.70424
2.80616 4.20594 -1.70024
2.80016 4.22594 -1.70524
2.78316 4.22794 -1.70224
2.76916 4.23594 -1.70224
2.75016 4.23594 -1.69824
2.73116 4.23594 -1.69424
2.72016 4.24894 -1.69624
2.71816 4.25894 -1.69924
2.68916 4.27294 -1.69824
2.66916 4.27194 -1.69324
2.65516 4.27894 -1.69324
2.55316 4.33994 -1.69324
4.21316 -2.42406 -1.63024
4.23316 -2.39206 -1.63124
4.26316 -2.37406 -1.63724
4.26616 -2.34106 -1.63224
4.28416 -2.33306 -1.63624
4.28316 -2.31506 -1.63324
4.28516 -2.30706 -1.63224
4.29416 -2.29406 -1.63324
4.30216 -2.28206 -1.63324
4.31016 -2.26806 -1.63324
4.31816 -2.25606 -1.63424
4.32516 -2.24206 -1.63424
4.33416 -2.22106 -1.63324
4.34116 -2.20706 -1.63324
4.34816 -2.19306 -1.63324
4.35516 -2.18006 -1.63324
4.36916 -2.16906 -1.63624
4.37716 -2.15706 -1.63724
4.38416 -2.14306 -1.63724
4.38516 -2.13506 -1.63624
4.40116 -2.12506 -1.63924
4.40216 -2.10906 -1.63724
4.41716 -2.08206 -1.63824
4.43416 -2.07306 -1.64224
4.42716 -2.05306 -1.63724
4.43316 -2.04706 -1.63824
4.45516 -2.04106 -1.64424
4.44116 -2.01706 -1.63624
4.45416 -2.00606 -1.63924
4.47916 -2.00106 -1.64624
4.48216 -1.98506 -1.64524
4.48016 -1.96706 -1.64124
4.49016 -1.96306 -1.64424
4.48716 -1.94506 -1.64124
4.49716 -1.93306 -1.64224
4.51716 -1.92506 -1.64824
4.51416 -1.90706 -1.64424
4.52016 -1.89306 -1.64424
4.54716 -1.88706 -1.65224
4.53716 -1.87506 -1.64824
4.54516 -1.86106 -1.64824
4.56516 -1.85306 -1.65424
4.56216 -1.83506 -1.65024
4.57316 -1.82306 -1.65224
4.57216 -1.78906 -1.64824
4.59616 -1.79006 -1.65624
4.60316 -1.77606 -1.65624
4.60316 -1.76006 -1.65424
4.60716 -1.74506 -1.65424
4.96616 -0.246063 -1.67024
4.95916 -0.121063 -1.66624
4.96716 -0.0900631 -1.66924
4.97516 -0.0200631 -1.67124
4.96816 -0.00406309 -1.66924
4.81416 0.0129369 -1.66024
4.82316 0.0279369 -1.66324
4.80416 0.0429369 -1.65624
4.81716 0.0579369 -1.66124
4.81116 0.0729369 -1.65924
4.82116 0.0809369 -1.66324
4.81716 0.0959369 -1.66124
4.81116 0.110937 -1.65924
4.80716 0.125937 -1.65824
4.80416 0.140937 -1.65724
4.81116 0.155937 -1.66024
4.81516 0.171937 -1.66124
4.81816 0.178937 -1.66324
4.80616 0.193937 -1.65824
4.80016 0.208937 -1.65624
4.81016 0.239937 -1.66024
4.81416 0.269937 -1.66324
4.80716 0.284937 -1.66024
4.80316 0.291937 -1.65924
4.79816 0.306937 -1.65824
4.80116 0.321937 -1.65924
4.80516 0.375937 -1.66224
4.80216 0.390937 -1.66124
4.79316 0.404937 -1.65824
4.79416 0.419937 -1.65924
4.78516 0.472937 -1.65824
4.78616 0.517937 -1.66024
4.78316 0.547937 -1.66024
4.77416 0.645937 -1.66124
4.77116 0.683937 -1.66224
4.76016 0.728937 -1.66024
4.76016 0.766937 -1.66324
4.76116 0.797937 -1.66524
4.74616 0.825937 -1.66124
4.74316 0.855937 -1.66224
4.73216 0.922937 -1.66324
4.71516 1.00494 -1.66324
4.70616 1.07294 -1.66524
4.70716 1.10394 -1.66724
4.69416 1.11694 -1.66424
4.69816 1.18794 -1.67224
4.68116 1.19994 -1.66724
4.67816 1.21394 -1.66724
4.67716 1.22994 -1.66824
4.68116 1.24694 -1.67124
4.66816 1.26694 -1.66824
4.66916 1.28294 -1.67024
4.66016 1.29594 -1.66824
4.65016 1.30894 -1.66624
4.66816 1.32994 -1.67424
4.67116 1.34694 -1.67724
4.68816 1.36794 -1.68524
4.68416 1.37494 -1.68524
4.68116 1.38994 -1.68524
4.65916 1.39894 -1.67824
4.65116 1.41294 -1.67724
4.64316 1.42594 -1.67624
4.64716 1.44294 -1.67924
4.66116 1.46394 -1.68624
4.63016 1.46194 -1.67524
4.63416 1.47894 -1.67824
4.61516 1.48894 -1.67324
4.63016 1.50994 -1.68024
4.63216 1.52694 -1.68324
4.63116 1.54294 -1.68524
4.60016 1.53994 -1.67424
4.59416 1.55394 -1.67324
4.59816 1.57194 -1.67624
4.57516 1.57994 -1.66924
4.56816 1.59394 -1.66924
4.58116 1.61394 -1.67624
4.56516 1.62494 -1.67224
4.57516 1.63694 -1.67624
4.56516 1.64894 -1.67424
4.56316 1.66494 -1.67624
4.54216 1.67294 -1.66924
4.56116 1.69694 -1.67924
4.54516 1.72294 -1.67724
4.53616 1.73594 -1.67624
4.52316 1.73894 -1.67224
4.54216 1.76294 -1.68124
4.52116 1.77094 -1.67524
4.50116 1.79594 -1.67224
4.49716 1.81094 -1.67224
4.50116 1.82894 -1.67624
4.50216 1.83794 -1.67824
4.48216 1.84594 -1.67224
4.47916 1.87794 -1.67624
4.47016 1.88994 -1.67424
4.45916 1.90194 -1.67224
4.46316 1.92094 -1.67624
4.45716 1.92594 -1.67524
4.45916 1.94394 -1.67824
4.43916 1.95194 -1.67324
4.43716 1.96694 -1.67424
4.42716 1.97994 -1.67324
4.41916 1.99294 -1.67224
4.44016 2.01094 -1.68224
4.42716 2.02194 -1.67924
4.41416 2.03194 -1.67624
4.41116 2.04794 -1.67824
4.39616 2.05794 -1.67424
4.41316 2.08294 -1.68424
4.39416 2.09094 -1.67924
4.38816 2.09594 -1.67824
4.38316 2.11094 -1.67824
4.39516 2.13394 -1.68624
4.37616 2.14094 -1.68124
4.38816 2.16394 -1.68924
4.36816 2.17094 -1.68324
4.35416 2.18194 -1.68024
4.35616 2.19994 -1.68424
4.35216 2.20694 -1.68424
4.34016 2.21794 -1.68224
4.33716 2.23294 -1.68324
4.35316 2.25894 -1.69324
4.32916 2.26394 -1.68624
4.32416 2.27794 -1.68724
4.33116 2.29994 -1.69324
4.31316 2.29894 -1.68724
4.30916 2.31394 -1.68824
4.30816 2.33094 -1.69124
4.30216 2.34494 -1.69224
4.28416 2.37094 -1.69024
4.28216 2.38694 -1.69224
4.27616 2.39294 -1.69224
4.26616 2.42194 -1.69424
4.21916 2.49294 -1.69224
4.19716 2.53294 -1.69224
4.19016 2.55594 -1.69424
4.18616 2.57194 -1.69624
4.17516 2.58294 -1.69524
4.17216 2.59894 -1.69724
4.15616 2.60694 -1.69424
4.15516 2.62594 -1.69724
4.13416 2.62994 -1.69224
4.11016 2.66094 -1.69024
4.09816 2.68994 -1.69224
4.08816 2.70194 -1.69224
4.09116 2.72194 -1.69624
4.05816 2.72694 -1.68724
4.06816 2.75294 -1.69624
4.06016 2.76594 -1.69624
4.04316 2.79194 -1.69624
4.03616 2.80594 -1.69724
4.01616 2.81094 -1.69224
4.01216 2.83594 -1.69624
3.99916 2.84594 -1.69424
3.99716 2.86394 -1.69824
3.99116 2.87794 -1.69924
3.96716 2.89894 -1.69624
3.90816 2.98994 -1.69924
3.88016 3.02694 -1.69924
3.79316 3.13494 -1.69924
2.97316 3.94394 -1.70624
2.94316 3.95494 -1.70324
2.92116 3.95094 -1.69624
2.91616 3.95694 -1.69724
2.89916 3.95994 -1.69424
2.89216 3.97694 -1.69824
2.86916 3.97194 -1.69224
2.87016 3.99994 -1.70024
2.84416 3.98994 -1.69224
2.83216 3.99894 -1.69224
2.83416 4.02994 -1.70124
2.80116 4.02294 -1.69224
2.75016 4.05594 -1.69224
4.34816 -1.90906 -1.63624
4.42916 -1.74806 -1.64024
4.43116 -1.73306 -1.63924
4.44016 -1.72006 -1.64024
4.43916 -1.71206 -1.63924
4.44116 -1.69706 -1.63824
4.46216 -1.68906 -1.64424
4.46216 -1.67306 -1.64224
4.46416 -1.65806 -1.64024
4.47816 -1.64706 -1.64424
4.49716 -1.63806 -1.64924
4.49616 -1.62906 -1.64824
4.49416 -1.61306 -1.64524
4.53916 -1.58106 -1.65724
4.53916 -1.56506 -1.65524
4.79016 -0.600063 -1.66524
4.78916 -0.592063 -1.66424
4.80016 -0.548063 -1.66624
4.80716 -0.533063 -1.66824
4.79916 -0.517063 -1.66524
4.79516 -0.501063 -1.66324
4.79316 -0.463063 -1.66024
4.81216 -0.450063 -1.66724
4.80716 -0.434063 -1.66524
4.80516 -0.419063 -1.66324
4.81216 -0.404063 -1.66524
4.80916 -0.396063 -1.66424
4.81616 -0.381063 -1.66624
4.81716 -0.366063 -1.66624
4.81216 -0.351063 -1.66424
4.79516 -0.334063 -1.65724
4.81116 -0.320063 -1.66324
4.81016 -0.305063 -1.66224
4.82016 -0.298063 -1.66524
4.81116 -0.282063 -1.66224
4.81416 -0.267063 -1.66324
4.81116 -0.252063 -1.66124
4.83216 -0.238063 -1.66924
4.81316 -0.222063 -1.66124
4.81116 -0.207063 -1.66024
4.81716 -0.199063 -1.66324
4.81616 -0.184063 -1.66224
4.81716 -0.169063 -1.66224
4.81916 -0.154063 -1.66324
4.81916 -0.139063 -1.66324
4.79416 -0.123063 -1.65324
4.81816 -0.108063 -1.66224
4.80516 -0.101063 -1.65724
4.79416 -0.0850631 -1.65324
4.81316 -0.0700631 -1.66024
4.81916 -0.0550631 -1.66224
4.80416 -0.0400631 -1.65624
4.81016 -0.0250631 -1.65824
4.81016 -0.0100631 -1.65824
4.81616 -0.00206309 -1.66024
4.68716 0.00493691 -1.66624
4.69216 0.0199369 -1.66824
4.68116 0.0349369 -1.66424
4.68316 0.0489369 -1.66424
4.69016 0.0569369 -1.66724
4.69216 0.0719369 -1.66824
4.69116 0.0859369 -1.66824
4.70116 0.100937 -1.67224
4.68116 0.115937 -1.66424
4.68916 0.130937 -1.66724
4.68116 0.137937 -1.66424
4.68816 0.152937 -1.66724
4.69316 0.166937 -1.66924
4.68116 0.181937 -1.66524
4.68616 0.196937 -1.66724
4.68616 0.210937 -1.66724
4.67616 0.225937 -1.66424
4.69816 0.233937 -1.67224
4.67816 0.247937 -1.66524
4.68316 0.262937 -1.66724
4.68416 0.277937 -1.66824
4.67016 0.291937 -1.66324
4.68616 0.306937 -1.66924
4.67916 0.321937 -1.66724
4.69216 0.329937 -1.67224
4.66816 0.342937 -1.66424
4.69716 0.359937 -1.67524
4.67616 0.372937 -1.66724
4.66916 0.387937 -1.66524
4.66716 0.401937 -1.66524
4.67616 0.417937 -1.66924
4.65816 0.423937 -1.66224
4.68116 0.439937 -1.67224
4.66316 0.452937 -1.66524
4.67316 0.468937 -1.66924
4.66716 0.482937 -1.66824
4.66416 0.497937 -1.66724
4.66216 0.512937 -1.66724
4.65416 0.518937 -1.66424
4.65416 0.533937 -1.66524
4.65416 0.548937 -1.66624
4.64916 0.562937 -1.66424
4.66916 0.579937 -1.67324
4.64516 0.591937 -1.66424
4.65516 0.607937 -1.66924
4.64316 0.621937 -1.66524
4.65416 0.629937 -1.66924
4.64416 0.643937 -1.66724
4.65316 0.659937 -1.67124
4.63416 0.671937 -1.66424
4.64216 0.687937 -1.66824
4.62516 0.700937 -1.66224
4.64616 0.710937 -1.67124
4.63216 0.723937 -1.66724
4.63416 0.738937 -1.66824
4.62216 0.751937 -1.66424
4.63316 0.768937 -1.66924
4.62316 0.781937 -1.66724
4.62416 0.796937 -1.66824
4.63016 0.805937 -1.67124
4.62416 0.819937 -1.66924
4.61616 0.832937 -1.66724
4.63216 0.850937 -1.67424
4.60716 0.861937 -1.66624
4.61516 0.877937 -1.67024
4.59916 0.889937 -1.66524
4.61316 0.899937 -1.67124
4.59916 0.912937 -1.66724
4.60516 0.928937 -1.67024
4.60816 0.943937 -1.67224
4.59916 0.957937 -1.67024
4.61316 0.975937 -1.67724
4.58216 0.983937 -1.66624
4.57216 0.996937 -1.66324
4.59216 1.00894 -1.67224
4.58316 1.02194 -1.66924
4.58416 1.03794 -1.67124
4.57916 1.05194 -1.67024
4.57516 1.06594 -1.67024
4.58816 1.08394 -1.67724
4.56716 1.09394 -1.66924
4.56916 1.10194 -1.67124
4.56016 1.11494 -1.66924
4.56216 1.13094 -1.67124
4.56016 1.14594 -1.67224
4.55816 1.15994 -1.67224
4.55416 1.17494 -1.67224
4.54716 1.18794 -1.67124
4.54316 1.19494 -1.67024
4.56916 1.21694 -1.68124
4.54316 1.22494 -1.67324
4.54316 1.23994 -1.67424
4.54816 1.25694 -1.67824
4.54416 1.27094 -1.67824
4.54616 1.27994 -1.67924
4.54516 1.29494 -1.68124
4.54316 1.30994 -1.68124
4.51916 1.36494 -1.67924
4.52416 1.37394 -1.68124
4.50716 1.38394 -1.67724
4.51216 1.40094 -1.68024
4.50716 1.41494 -1.68024
4.51016 1.43194 -1.68324
4.50316 1.44494 -1.68224
4.49416 1.45794 -1.68024
4.49416 1.47294 -1.68224
4.49416 1.48094 -1.68324
4.49316 1.49594 -1.68424
4.47916 1.50794 -1.68124
4.48116 1.52394 -1.68424
4.47316 1.53694 -1.68224
4.46116 1.54794 -1.67924
4.45616 1.56194 -1.67924
4.46416 1.57294 -1.68424
4.44916 1.58294 -1.67924
4.44016 1.59594 -1.67824
4.44116 1.61194 -1.68024
4.43716 1.62694 -1.68124
4.42716 1.63894 -1.67924
4.43216 1.65594 -1.68324
4.41416 1.65694 -1.67724
4.41616 1.67394 -1.67924
4.41216 1.68794 -1.68024
4.41216 1.70394 -1.68224
4.40116 1.71594 -1.68024
4.39816 1.73094 -1.68124
4.38816 1.73494 -1.67824
4.38816 1.75094 -1.68024
4.38016 1.76394 -1.67924
4.37516 1.77794 -1.67924
4.36916 1.79094 -1.67924
4.37216 1.80894 -1.68324
4.36016 1.81894 -1.68024
4.36016 1.82794 -1.68124
4.35616 1.84194 -1.68224
4.35216 1.85594 -1.68324
4.35016 1.87194 -1.68424
4.34416 1.88494 -1.68424
4.33816 1.89894 -1.68424
4.32016 1.90694 -1.67924
4.33416 1.92994 -1.68824
4.31616 1.92994 -1.68124
4.31816 1.94694 -1.68524
4.31216 1.96094 -1.68524
4.29616 1.96994 -1.68124
4.29116 1.98394 -1.68124
4.30616 2.00694 -1.69024
4.29216 2.01694 -1.68724
4.27916 2.01894 -1.68324
4.26616 2.04594 -1.68324
4.27716 2.06694 -1.69024
4.26916 2.07994 -1.68924
4.26216 2.09294 -1.68924
4.24416 2.10094 -1.68424
4.25716 2.11594 -1.69124
4.23416 2.12094 -1.68424
4.24216 2.14194 -1.69124
4.23516 2.15494 -1.69124
4.22716 2.16794 -1.69024
4.21716 2.17894 -1.68924
4.20116 2.19694 -1.68624
4.20416 2.21494 -1.69124
4.20116 2.22994 -1.69224
4.17816 2.25194 -1.68924
2.81616 3.85794 -1.70024
2.81116 3.87794 -1.70524
2.78816 3.87094 -1.69824
2.77016 3.87194 -1.69424
2.77416 3.88994 -1.70124
2.75816 3.89294 -1.69824
2.74616 3.90294 -1.69924
2.73116 3.90694 -1.69624
2.72416 3.92394 -1.70024
2.71116 3.93094 -1.69924
2.69516 3.93394 -1.69724
2.68416 3.93094 -1.69424
2.68216 3.95494 -1.70124
2.66716 3.95994 -1.69924
2.64816 3.95894 -1.69524
2.64216 3.97694 -1.69924
2.63316 3.98994 -1.70124
2.61116 3.98394 -1.69524
2.60016 3.97994 -1.69124
2.59216 3.99594 -1.69524
2.57916 4.00294 -1.69424
2.56416 4.00794 -1.69324
2.55516 4.02194 -1.69624
2.54116 4.02694 -1.69424
2.52116 4.03694 -1.69424
2.50716 4.04394 -1.69324
2.49516 4.05294 -1.69424
2.48216 4.05894 -1.69324
2.46616 4.06194 -1.69124
2.44016 4.07794 -1.69124
4.26616 -1.75306 -1.63724
4.27516 -1.72506 -1.63724
4.28916 -1.70006 -1.63824
4.30016 -1.69706 -1.64224
4.31416 -1.68706 -1.64524
4.31816 -1.67206 -1.64524
4.31616 -1.65606 -1.64224
4.32716 -1.64506 -1.64424
4.33416 -1.63206 -1.64524
4.34416 -1.62006 -1.64724
4.35216 -1.61506 -1.64924
4.35916 -1.60206 -1.65024
4.37216 -1.59206 -1.65324
4.37016 -1.57506 -1.65024
4.38416 -1.56506 -1.65424
4.38516 -1.55006 -1.65224
4.39016 -1.53606 -1.65224
4.40516 -1.53306 -1.65724
4.67616 -0.407063 -1.66924
4.67816 -0.392063 -1.66924
4.67916 -0.378063 -1.66924
4.68216 -0.363063 -1.66924
4.68116 -0.348063 -1.66924
4.68216 -0.334063 -1.66924
4.67516 -0.326063 -1.66624
4.68116 -0.297063 -1.66724
4.68416 -0.282063 -1.66824
4.68316 -0.267063 -1.66724
4.69016 -0.238063 -1.66924
4.68816 -0.231063 -1.66924
4.67716 -0.201063 -1.66424
4.69616 -0.187063 -1.67124
4.69316 -0.172063 -1.66924
4.68816 -0.149063 -1.66724
4.68916 -0.120063 -1.66724
4.69516 -0.105063 -1.66924
4.68816 -0.0900631 -1.66724
4.69216 -0.0760631 -1.66824
4.69016 -0.0610631 -1.66724
4.68816 -0.0540631 -1.66724
4.68816 -0.0390631 -1.66724
4.68516 -0.0240631 -1.66524
4.69216 -0.00906309 -1.66824
4.56616 0.000936911 -1.66924
4.57116 0.0149369 -1.67124
4.57716 0.0299369 -1.67324
4.56716 0.0439369 -1.66924
4.57416 0.0729369 -1.67224
4.56316 0.0869369 -1.66824
4.56816 0.108937 -1.67024
4.56416 0.122937 -1.66924
4.55816 0.136937 -1.66724
4.57016 0.151937 -1.67224
4.55516 0.164937 -1.66624
4.55816 0.179937 -1.66724
4.56916 0.187937 -1.67224
4.56616 0.215937 -1.67124
4.56316 0.229937 -1.67024
4.56316 0.244937 -1.67024
4.55416 0.258937 -1.66724
4.55616 0.287937 -1.66924
4.56216 0.294937 -1.67124
4.55916 0.308937 -1.67024
4.55816 0.323937 -1.67024
4.55916 0.352937 -1.67224
4.53616 0.364937 -1.66324
4.54816 0.372937 -1.66824
4.55816 0.388937 -1.67224
4.54816 0.401937 -1.66924
4.55216 0.416937 -1.67124
4.56416 0.431937 -1.67624
4.54616 0.444937 -1.66924
4.55016 0.459937 -1.67224
4.55116 0.466937 -1.67224
4.54216 0.480937 -1.66924
4.53716 0.494937 -1.66824
4.54116 0.508937 -1.67024
4.54816 0.524937 -1.67424
4.53416 0.536937 -1.66924
4.54116 0.552937 -1.67224
4.53516 0.558937 -1.67024
4.54016 0.574937 -1.67324
4.52816 0.586937 -1.66924
4.54016 0.603937 -1.67524
4.50316 0.612937 -1.66124
4.53316 0.631937 -1.67324
4.52016 0.643937 -1.66924
4.53116 0.659937 -1.67424
4.52216 0.665937 -1.67124
4.51116 0.678937 -1.66724
4.51116 0.693937 -1.66824
4.51416 0.708937 -1.67024
4.52316 0.724937 -1.67524
4.52016 0.738937 -1.67524
4.49616 0.748937 -1.66624
4.51116 0.758937 -1.67224
4.50216 0.771937 -1.66924
4.51016 0.787937 -1.67424
4.51116 0.802937 -1.67524
4.50916 0.816937 -1.67524
4.50616 0.830937 -1.67524
4.50216 0.844937 -1.67524
4.49116 0.849937 -1.67124
4.48916 0.863937 -1.67124
4.49016 0.878937 -1.67224
4.50016 0.895937 -1.67724
4.49316 0.908937 -1.67624
4.47716 0.920937 -1.67124
4.48116 0.928937 -1.67324
4.48416 0.943937 -1.67524
4.47216 0.955937 -1.67224
4.48016 0.972937 -1.67624
4.46616 0.983937 -1.67224
4.46816 0.999937 -1.67424
4.46516 1.01394 -1.67424
4.46116 1.01994 -1.67324
4.46016 1.03494 -1.67424
4.46016 1.04994 -1.67524
4.44416 1.06094 -1.67024
4.45616 1.07794 -1.67624
4.46116 1.09394 -1.68024
4.44916 1.10594 -1.67624
4.46016 1.12394 -1.68224
4.43616 1.12494 -1.67324
4.45816 1.14594 -1.68324
4.43316 1.15394 -1.67524
4.44316 1.17194 -1.68024
4.43616 1.18494 -1.67924
4.42516 1.19694 -1.67624
4.43816 1.21494 -1.68324
4.42716 1.21994 -1.67924
4.42316 1.23294 -1.67924
4.41916 1.24694 -1.67924
4.41816 1.29194 -1.68324
4.41216 1.30494 -1.68324
4.39816 1.36894 -1.68524
4.39416 1.38294 -1.68524
4.39016 1.38994 -1.68424
4.37016 1.39794 -1.67724
4.37616 1.41494 -1.68224
4.37316 1.42994 -1.68324
4.37716 1.44594 -1.68624
4.36216 1.47894 -1.68524
4.35316 1.50694 -1.68524
4.34116 1.51794 -1.68224
4.34216 1.53394 -1.68424
4.34216 1.54894 -1.68624
4.32016 1.55594 -1.67924
4.31816 1.57894 -1.68124
4.31416 1.59294 -1.68224
4.32216 1.61094 -1.68724
4.29716 1.61694 -1.67924
4.29616 1.63194 -1.68024
4.28716 1.64394 -1.67924
4.28516 1.65894 -1.68024
4.29516 1.67094 -1.68524
4.28316 1.68094 -1.68324
4.27416 1.69294 -1.68124
4.26516 1.70494 -1.68024
4.27916 1.72594 -1.68824
4.26116 1.73494 -1.68324
4.25916 1.74994 -1.68424
4.25116 1.75394 -1.68224
4.24916 1.78494 -1.68524
4.24816 1.79994 -1.68824
4.24316 1.81394 -1.68824
4.23316 1.84094 -1.68824
4.22516 1.84494 -1.68624
4.20916 1.85394 -1.68224
4.20216 1.88294 -1.68424
4.20516 1.89994 -1.68824
4.19916 1.91294 -1.68824
4.19716 1.91994 -1.68824
4.18516 1.94694 -1.68824
4.18416 1.96194 -1.69124
4.17816 1.97494 -1.69124
4.14216 1.98994 -1.68024
4.15916 2.00594 -1.68924
4.15116 2.03494 -1.69124
4.12416 2.08594 -1.69124
4.11616 2.10594 -1.69124
4.09716 2.14594 -1.69224
4.07716 2.18494 -1.69224
4.06816 2.18794 -1.69024
2.64416 3.82894 -1.70324
2.62916 3.83194 -1.70124
2.61316 3.83394 -1.69824
2.59916 3.83894 -1.69624
2.59016 3.85194 -1.69924
2.58216 3.86694 -1.70124
2.57216 3.86394 -1.69924
2.56216 3.87594 -1.70024
2.54716 3.87994 -1.69924
2.52616 3.87394 -1.69224
2.52116 3.89294 -1.69724
2.50916 3.90094 -1.69724
2.49516 3.90694 -1.69624
2.49416 3.91894 -1.70024
2.47916 3.92194 -1.69824
2.46316 3.92394 -1.69524
2.44916 3.92994 -1.69424
2.43716 3.93794 -1.69424
2.42716 3.94794 -1.69624
2.41816 3.96194 -1.69924
2.40216 3.94994 -1.69124
2.38816 3.95394 -1.69024
2.37916 3.96794 -1.69324
2.36216 3.96794 -1.68924
2.35216 3.97994 -1.69124
2.34116 3.98894 -1.69224
2.32716 3.99494 -1.69124
2.30616 4.00094 -1.68924
2.29416 4.00994 -1.69024
2.26816 4.02194 -1.68924
2.23316 4.04794 -1.69124
2.21416 4.06094 -1.69224
4.06516 -1.88206 -1.63524
4.15116 -1.71906 -1.64024
4.15516 -1.70506 -1.64024
4.16216 -1.69306 -1.64024
4.15916 -1.68406 -1.63824
4.17116 -1.67406 -1.64124
4.18516 -1.66406 -1.64524
4.18916 -1.65006 -1.64424
4.19616 -1.63806 -1.64524
4.19916 -1.62406 -1.64424
4.20616 -1.61106 -1.64524
4.22416 -1.61106 -1.65124
4.22716 -1.59706 -1.65124
4.23116 -1.58306 -1.65024
4.23916 -1.57106 -1.65124
4.23416 -1.55406 -1.64724
4.25616 -1.54706 -1.65424
4.55716 -0.300063 -1.66924
4.54916 -0.285063 -1.66624
4.55516 -0.250063 -1.66724
4.56116 -0.207063 -1.66924
4.56016 -0.185063 -1.66824
4.55716 -0.0780631 -1.66624
4.57116 -0.0640631 -1.67124
4.56716 -0.0350631 -1.66924
4.57316 -0.00606309 -1.67224
4.37716 0.813937 -1.68024
4.37216 0.840937 -1.68024
4.35916 0.874937 -1.67824
4.35216 0.901937 -1.67724
4.34416 0.913937 -1.67524
4.33616 0.990937 -1.67924
4.34216 1.00694 -1.68224
4.33216 1.01894 -1.67924
4.33016 1.03294 -1.68024
4.31416 1.09394 -1.67924
4.31616 1.10794 -1.68224
4.31216 1.12894 -1.68224
4.30316 1.15594 -1.68224
4.29416 1.21094 -1.68424
4.21516 1.47294 -1.68524
4.20516 1.48394 -1.68324
4.17716 1.57794 -1.68524
4.15416 1.65194 -1.68824
4.15016 1.66594 -1.68824
4.14516 1.67894 -1.68824
4.13816 1.69194 -1.68824
4.13316 1.70494 -1.68824
2.41216 3.81394 -1.70524
2.40216 3.82494 -1.70624
2.38916 3.83094 -1.70624
2.37616 3.83694 -1.70524
2.35616 3.84494 -1.70324
2.33816 3.84294 -1.69924
2.33016 3.85594 -1.70224
2.31816 3.86394 -1.70224
2.30416 3.86794 -1.70024
2.29516 3.88094 -1.70324
2.28916 3.88494 -1.70324
2.27716 3.89194 -1.70324
2.26616 3.90094 -1.70424
2.25716 3.91394 -1.70724
2.24216 3.91694 -1.70524
2.23016 3.92394 -1.70524
2.21916 3.93394 -1.70624
2.21016 3.93094 -1.70324
2.20016 3.94294 -1.70624
2.18316 3.94194 -1.70224
2.17016 3.94694 -1.70124
2.15916 3.95694 -1.70324
2.14216 3.95494 -1.69924
2.13416 3.96994 -1.70324
2.12016 3.97394 -1.70124
2.11416 3.97694 -1.70124
2.10316 3.98694 -1.70324
2.08516 3.98394 -1.69824
2.07216 3.98894 -1.69724
2.06016 3.99694 -1.69824
2.04416 3.99694 -1.69524
2.03716 4.01494 -1.70024
2.02616 4.00794 -1.69624
2.01416 4.01594 -1.69724
1.99816 4.01494 -1.69424
1.99116 4.03194 -1.69824
1.97616 4.03294 -1.69624
1.95716 4.02694 -1.69124
1.90216 4.05994 -1.69324
1.88916 4.06394 -1.69224
3.20116 -2.89306 -1.62524
4.00316 -1.70206 -1.63924
4.00916 -1.68906 -1.63924
4.01516 -1.68406 -1.64124
4.03016 -1.67606 -1.64524
4.03016 -1.66106 -1.64324
4.03916 -1.65006 -1.64424
4.04416 -1.63706 -1.64424
4.05116 -1.62506 -1.64524
4.05616 -1.61206 -1.64524
4.06216 -1.60706 -1.64724
4.07016 -1.59606 -1.64824
4.08216 -1.58606 -1.65124
4.09416 -1.57606 -1.65424
4.10116 -1.56406 -1.65524
4.07116 1.54994 -1.68624
4.04516 1.62094 -1.68724
4.02816 1.65794 -1.68624
4.02416 1.66394 -1.68624
4.02216 1.67794 -1.68724
3.99516 1.73294 -1.68624
3.99016 1.76094 -1.68924
3.97216 1.78294 -1.68624
3.96116 1.80794 -1.68624
3.95216 1.84094 -1.68824
3.90516 1.94794 -1.68924
2.23716 3.79194 -1.70624
2.22316 3.79494 -1.70424
2.20116 3.81194 -1.70624
2.19116 3.82294 -1.70724
2.18416 3.82394 -1.70624
2.17216 3.83094 -1.70624
2.13516 3.84994 -1.70624
2.11616 3.84394 -1.69924
2.10416 3.84994 -1.69924
2.10616 3.86794 -1.70624
2.08716 3.86194 -1.70024
2.04116 3.89294 -1.70224
2.03216 3.90594 -1.70624
2.02016 3.89894 -1.70124
2.00816 3.90494 -1.70124
1.99816 3.91594 -1.70324
1.99016 3.93094 -1.70724
1.97416 3.92894 -1.70324
1.95816 3.92794 -1.70024
1.94916 3.94094 -1.70324
1.94316 3.94394 -1.70324
1.92616 3.94194 -1.69924
1.91316 3.94594 -1.69924
1.89816 3.94594 -1.69624
1.88416 3.94794 -1.69424
1.87416 3.96094 -1.69724
1.85816 3.95794 -1.69324
1.85116 3.95994 -1.69324
1.84716 3.98394 -1.70124
1.82616 3.97094 -1.69324
1.81216 3.97394 -1.69124
1.80116 3.98294 -1.69324
1.78716 3.98494 -1.69124
1.77416 3.98894 -1.69024
1.77216 4.00194 -1.69524
1.74316 4.00294 -1.69024
1.72916 4.00494 -1.68924
1.71716 4.01294 -1.69024
1.67316 4.03194 -1.69024
2.99816 -2.94806 -1.62424
3.03216 -2.91606 -1.62524
3.04116 -2.90606 -1.62524
3.05016 -2.89706 -1.62524
3.07716 -2.88506 -1.62924
3.07716 -2.87606 -1.62724
3.85916 -1.74606 -1.63724
3.89616 -1.70406 -1.64424
3.89316 -1.67406 -1.63824
3.90316 -1.67106 -1.64124
3.91516 -1.66106 -1.64424
3.91116 -1.64506 -1.64024
3.92016 -1.63506 -1.64124
3.91616 -1.61906 -1.63824
3.94216 -1.61506 -1.64724
3.93716 -1.59806 -1.64224
3.96316 -1.60206 -1.65324
3.96716 -1.58806 -1.65224
3.97016 -1.57506 -1.65124
3.97716 -1.56406 -1.65224
3.99016 -1.55406 -1.65624
3.99716 -1.54206 -1.65724
3.99516 -1.52706 -1.65424
4.07016 1.16194 -1.67224
4.08416 1.17194 -1.67924
4.08416 1.18594 -1.68024
4.08216 1.19994 -1.68124
4.07216 1.22494 -1.68024
4.07016 1.23794 -1.68124
4.06616 1.25094 -1.68124
4.06616 1.27194 -1.68424
4.05316 1.28194 -1.68024
4.05616 1.29694 -1.68324
4.02816 1.35094 -1.67924
4.03316 1.36594 -1.68324
3.99816 1.38294 -1.67124
4.00416 1.39894 -1.67624
3.99616 1.40994 -1.67424
3.98716 1.42094 -1.67224
4.00716 1.43494 -1.68224
3.98516 1.44194 -1.67424
3.98616 1.45594 -1.67724
3.98516 1.46994 -1.67824
3.98016 1.48194 -1.67824
3.97016 1.49294 -1.67624
3.96816 1.49894 -1.67624
3.96016 1.50994 -1.67424
3.96316 1.52594 -1.67824
3.95216 1.53594 -1.67524
3.95016 1.54994 -1.67724
3.94416 1.56094 -1.67624
3.93916 1.57394 -1.67624
3.94316 1.58294 -1.67924
3.93516 1.59394 -1.67724
3.91616 1.59994 -1.67124
3.92516 1.61794 -1.67724
3.92116 1.63094 -1.67824
3.90916 1.64094 -1.67524
3.90916 1.65494 -1.67724
3.90316 1.65994 -1.67624
3.89316 1.66994 -1.67324
3.90616 1.68994 -1.68224
3.89416 1.69994 -1.67924
3.88716 1.71094 -1.67824
3.88716 1.72494 -1.68024
3.87516 1.73494 -1.67724
3.86416 1.74494 -1.67524
3.87516 1.75694 -1.68124
3.87116 1.76994 -1.68224
3.85716 1.77794 -1.67824
3.85816 1.79294 -1.68124
3.85916 1.80794 -1.68424
3.84016 1.81394 -1.67824
3.84916 1.83294 -1.68524
3.84616 1.83894 -1.68524
3.83616 1.84894 -1.68324
3.83816 1.86494 -1.68724
3.83616 1.87894 -1.68824
3.82816 1.88994 -1.68724
3.82416 1.90294 -1.68824
3.81316 1.91994 -1.68724
3.80716 1.93194 -1.68724
3.80616 1.94594 -1.69024
3.79316 1.95494 -1.68724
3.79016 1.96894 -1.68824
3.78716 1.98194 -1.69024
3.78316 1.98694 -1.68924
3.74916 2.06094 -1.69124
2.08716 3.76694 -1.70324
2.07116 3.76694 -1.70024
2.05716 3.76794 -1.69724
2.05316 3.78894 -1.70424
2.03716 3.78894 -1.70124
2.02216 3.78894 -1.69824
2.01416 3.80394 -1.70224
2.00616 3.80194 -1.70024
1.99416 3.80794 -1.70024
1.98416 3.81794 -1.70124
1.96816 3.81694 -1.69824
1.95716 3.82494 -1.69924
1.94316 3.82594 -1.69724
1.92716 3.82594 -1.69424
1.92516 3.83594 -1.69724
1.91416 3.84494 -1.69824
1.90216 3.85094 -1.69824
1.89016 3.85694 -1.69824
1.87816 3.86294 -1.69824
1.86216 3.86194 -1.69524
1.84816 3.86294 -1.69324
1.84016 3.87694 -1.69724
1.83016 3.87094 -1.69324
1.81516 3.87194 -1.69024
1.80916 3.89094 -1.69724
1.79516 3.89194 -1.69424
1.78116 3.89394 -1.69324
1.76716 3.89594 -1.69124
1.75216 3.89694 -1.68924
1.75116 3.90994 -1.69424
1.73416 3.90494 -1.68924
1.71416 3.92594 -1.69424
1.68616 3.92794 -1.69024
1.67316 3.93194 -1.68924
3.20116 -2.61406 -1.63024
3.83416 -1.60206 -1.63924
3.83916 -1.59006 -1.63924
3.84616 -1.58606 -1.64224
3.87216 -1.58206 -1.65124
3.87316 -1.56906 -1.64924
3.89016 -1.56106 -1.65524
3.88016 -1.54306 -1.64824
3.88616 -1.53106 -1.64924
3.89616 -1.52106 -1.65124
3.90216 -1.51606 -1.65224
3.90316 -1.50306 -1.65124
3.92616 1.37494 -1.68124
3.92216 1.38694 -1.68124
3.92116 1.40094 -1.68324
3.91816 1.41394 -1.68424
3.90016 1.41394 -1.67724
3.89816 1.44094 -1.68024
3.90116 1.45594 -1.68324
3.90116 1.46994 -1.68524
3.88516 1.47794 -1.68024
3.88316 1.49094 -1.68124
3.89116 1.50094 -1.68624
3.87616 1.50894 -1.68124
3.87116 1.52194 -1.68124
3.86916 1.54894 -1.68524
3.86016 1.55894 -1.68324
3.86016 1.57994 -1.68624
3.84516 1.58794 -1.68124
3.84816 1.60394 -1.68524
3.83616 1.61294 -1.68224
3.83516 1.62694 -1.68424
3.82916 1.63894 -1.68424
3.82716 1.64494 -1.68424
3.82316 1.67194 -1.68724
3.81816 1.68394 -1.68724
3.79716 1.71694 -1.68524
3.80116 1.72594 -1.68824
3.79416 1.73794 -1.68724
3.76916 1.75494 -1.68124
1.90216 3.75494 -1.70324
1.89716 3.75794 -1.70324
1.88016 3.75394 -1.69824
1.86816 3.75994 -1.69824
1.85716 3.76694 -1.69924
1.84016 3.76294 -1.69424
1.83616 3.78394 -1.70124
1.81916 3.77994 -1.69724
1.81216 3.78094 -1.69624
1.80416 3.79294 -1.69924
1.78816 3.79094 -1.69524
1.77416 3.79294 -1.69324
1.76516 3.80494 -1.69724
1.75116 3.80594 -1.69424
1.74016 3.81294 -1.69524
1.72916 3.81994 -1.69624
1.71816 3.81194 -1.69124
1.70916 3.82494 -1.69424
1.69616 3.82794 -1.69324
1.68316 3.82994 -1.69224
1.67316 3.84094 -1.69424
1.66216 3.84694 -1.69524
1.64916 3.85094 -1.69424
1.64616 3.85994 -1.69724
1.62916 3.85494 -1.69324
1.61416 3.85194 -1.68924
1.60816 3.87194 -1.69624
1.59516 3.87594 -1.69524
1.57716 3.86694 -1.68924
1.56916 3.88194 -1.69324
1.56116 3.87894 -1.69124
1.54716 3.87894 -1.68924
2.82016 -2.88006 -1.62624
3.25616 -2.41106 -1.63524
3.43316 -2.17606 -1.64024
3.43016 -2.15906 -1.63624
3.44016 -2.15106 -1.63724
3.72016 -1.70506 -1.65224
3.71716 -1.69706 -1.65024
3.72416 -1.68606 -1.65124
1.65416 3.73594 -1.70524
1.63916 3.73394 -1.70224
1.62416 3.74694 -1.70424
1.61316 3.75394 -1.70524
1.60016 3.75694 -1.70424
1.58816 3.75994 -1.70324
1.57816 3.76994 -1.70624
1.56316 3.76894 -1.70224
1.54716 3.76294 -1.69824
1.54316 3.77094 -1.70024
1.53016 3.77194 -1.69824
1.51916 3.77894 -1.69924
1.50816 3.78694 -1.70124
1.49416 3.78694 -1.69824
1.48316 3.79094 -1.69824
1.47116 3.79794 -1.69924
1.46616 3.80194 -1.70024
1.45116 3.79794 -1.69624
1.44116 3.80694 -1.69824
1.42916 3.81394 -1.69924
1.41616 3.81494 -1.69824
1.40416 3.81894 -1.69824
1.39116 3.81994 -1.69624
1.38416 3.82094 -1.69524
1.37116 3.82094 -1.69424
1.36116 3.83294 -1.69724
1.34816 3.83194 -1.69424
1.33316 3.82894 -1.69124
1.32216 3.83694 -1.69324
1.31116 3.84194 -1.69424
1.30416 3.84094 -1.69224
1.29216 3.84694 -1.69324
1.27916 3.84694 -1.69124
1.26716 3.85294 -1.69224
1.25516 3.85494 -1.69124
1.24516 3.86594 -1.69424
1.23116 3.86494 -1.69224
1.22416 3.86494 -1.69124
1.21216 3.86694 -1.69024
1.20016 3.87294 -1.69124
1.18716 3.87294 -1.68924
1.17316 3.87194 -1.68724
1.16216 3.87994 -1.68924
1.14916 3.88094 -1.68824
1.14216 3.88094 -1.68724
1.13216 3.88894 -1.68924
1.08316 3.90294 -1.68924
1.05116 3.90794 -1.68824
2.61116 -2.92506 -1.63224
2.61616 -2.91306 -1.62924
2.63216 -2.91206 -1.63324
2.63716 -2.89906 -1.63124
2.64916 -2.89406 -1.63324
2.66016 -2.88806 -1.63424
2.65516 -2.87306 -1.62824
2.66116 -2.86206 -1.62624
2.67316 -2.85606 -1.62824
2.68016 -2.84706 -1.62724
2.69416 -2.84406 -1.63024
2.70116 -2.83206 -1.62924
2.70716 -2.82106 -1.62724
2.71916 -2.82506 -1.63224
2.72016 -2.80806 -1.62724
2.73316 -2.80406 -1.62924
2.73916 -2.79306 -1.62824
2.76116 -2.79706 -1.63624
2.75916 -2.77806 -1.62924
2.76616 -2.76706 -1.62824
2.77516 -2.76806 -1.63124
2.78116 -2.75606 -1.62924
2.79816 -2.75506 -1.63424
2.80216 -2.74306 -1.63224
2.81116 -2.73406 -1.63224
2.81816 -2.72406 -1.63124
2.82816 -2.71606 -1.63224
2.83416 -2.71306 -1.63324
2.84516 -2.70606 -1.63424
2.85216 -2.69606 -1.63324
2.85916 -2.68606 -1.63324
2.87316 -2.68206 -1.63624
2.87816 -2.67106 -1.63424
2.88816 -2.66306 -1.63524
2.89116 -2.65706 -1.63424
2.89816 -2.64706 -1.63324
2.89716 -2.62906 -1.62824
2.90816 -2.62206 -1.62924
2.91616 -2.61306 -1.62924
2.93016 -2.60906 -1.63324
2.93716 -2.59806 -1.63224
2.94116 -2.59406 -1.63224
2.95116 -2.58706 -1.63324
2.95416 -2.57306 -1.63024
2.96916 -2.56906 -1.63424
2.96916 -2.55306 -1.62924
2.98416 -2.55006 -1.63324
2.98816 -2.53706 -1.63124
2.99016 -2.53106 -1.63024
3.01816 -2.50606 -1.63324
3.23616 -2.21506 -1.63224
3.25716 -2.20006 -1.63624
3.29516 -2.12906 -1.63324
3.58316 -1.61906 -1.63724
1.26316 3.77694 -1.70424
1.22216 3.79494 -1.70624
1.19616 3.79494 -1.70324
1.18516 3.80094 -1.70424
1.17416 3.80794 -1.70524
1.15716 3.79394 -1.69724
1.15116 3.79794 -1.69824
1.14216 3.81194 -1.70324
1.12916 3.80994 -1.70024
1.11916 3.81894 -1.70324
1.09216 3.81494 -1.69824
1.08016 3.81994 -1.69924
1.07816 3.83794 -1.70624
1.06316 3.82694 -1.69924
1.04916 3.82394 -1.69624
1.03916 3.83594 -1.70024
1.03016 3.84894 -1.70524
1.01216 3.83094 -1.69524
1.00216 3.84194 -1.69924
0.994161 3.83394 -1.69424
0.980161 3.83194 -1.69224
0.970161 3.84194 -1.69524
0.957161 3.83994 -1.69324
0.942161 3.83194 -1.68824
0.932161 3.84394 -1.69224
0.917161 3.83694 -1.68724
0.911161 3.83794 -1.68724
0.901161 3.84594 -1.68924
0.888161 3.84694 -1.68924
0.876161 3.84794 -1.68824
0.869161 3.87594 -1.69924
0.695161 3.89394 -1.69224
2.43216 -2.97306 -1.64024
2.45016 -2.95806 -1.64024
2.47816 -2.94406 -1.64324
2.50516 -2.91906 -1.64224
2.53716 -2.89106 -1.64224
2.55416 -2.87406 -1.64124
2.57616 -2.85406 -1.64124
2.60616 -2.81506 -1.63724
2.61816 -2.81006 -1.64024
2.63316 -2.79906 -1.64024
2.64016 -2.79006 -1.64024
2.64016 -2.77206 -1.63424
2.66016 -2.77606 -1.64124
2.67416 -2.77306 -1.64524
2.67516 -2.75606 -1.64024
2.69016 -2.75406 -1.64424
2.69616 -2.75106 -1.64524
2.70316 -2.74206 -1.64424
2.71416 -2.73606 -1.64524
2.72716 -2.71506 -1.64324
2.74116 -2.71106 -1.64624
2.75016 -2.69506 -1.64424
2.80716 -2.64006 -1.64524
2.82816 -2.61006 -1.64324
2.84116 -2.60606 -1.64624
2.85116 -2.59806 -1.64724
2.85216 -2.58306 -1.64324
2.86216 -2.58406 -1.64624
2.86816 -2.57306 -1.64524
2.87916 -2.56706 -1.64724
2.89116 -2.54506 -1.64524
2.89916 -2.53606 -1.64524
2.90816 -2.52006 -1.64324
2.91516 -2.51006 -1.64224
2.93916 -2.49806 -1.64724
2.94716 -2.48906 -1.64724
2.96416 -2.47206 -1.64824
2.98316 -2.44806 -1.64824
2.99716 -2.41306 -1.64324
3.00516 -2.40406 -1.64324
3.01916 -2.40706 -1.64924
3.02216 -2.39406 -1.64624
3.03116 -2.38606 -1.64724
3.04216 -2.36306 -1.64524
3.05216 -2.35606 -1.64624
3.04416 -2.32706 -1.63624
3.06016 -2.32406 -1.64024
3.30516 -2.00006 -1.65024
3.31616 -1.99306 -1.65224
3.31216 -1.97706 -1.64724
3.30316 -1.95706 -1.63924
3.32516 -1.95606 -1.64724
3.32516 -1.94906 -1.64524
3.31316 -1.92806 -1.63624
3.34016 -1.93006 -1.64724
3.52016 -1.61306 -1.65424
0.890161 3.78294 -1.70124
0.878161 3.78494 -1.70124
0.868161 3.79694 -1.70524
0.854161 3.79094 -1.70124
0.843161 3.79694 -1.70324
0.838161 3.79994 -1.70324
0.825161 3.79894 -1.70224
0.813161 3.80394 -1.70324
0.801161 3.80294 -1.70124
0.787161 3.79594 -1.69724
0.774161 3.79694 -1.69624
0.764161 3.80494 -1.69824
0.755161 3.79494 -1.69324
0.745161 3.80294 -1.69624
0.735161 3.81594 -1.70124
0.720161 3.80594 -1.69524
0.709161 3.81194 -1.69724
0.696161 3.80994 -1.69524
0.683161 3.80494 -1.69224
0.677161 3.80594 -1.69224
0.664161 3.80494 -1.69024
0.652161 3.80194 -1.68724
0.641161 3.81094 -1.69124
0.629161 3.81594 -1.69224
0.616161 3.81094 -1.68924
0.604161 3.81294 -1.68924
0.599161 3.81894 -1.69224
0.586161 3.81194 -1.68724
0.574161 3.81594 -1.68824
0.562161 3.81794 -1.68824
0.550161 3.81894 -1.68824
0.538161 3.81894 -1.68724
0.526161 3.82094 -1.68724
0.520161 3.82394 -1.68824
0.508161 3.82694 -1.68924
0.497161 3.82994 -1.69024
0.484161 3.82494 -1.68724
0.472161 3.82794 -1.68724
0.460161 3.83494 -1.69024
0.447161 3.82694 -1.68624
0.436161 3.83394 -1.68824
0.430161 3.83994 -1.69124
0.417161 3.83194 -1.68724
0.406161 3.83594 -1.68724
0.393161 3.83494 -1.68724
0.369161 3.83694 -1.68724
0.357161 3.83894 -1.68724
0.339161 3.83794 -1.68624
0.327161 3.84494 -1.68824
0.200161 3.84994 -1.68724
0.158161 3.84994 -1.68624
0.146161 3.85194 -1.68724
0.134161 3.85294 -1.68724
0.067161 3.85494 -1.68724
2.33216 -2.94806 -1.64224
2.36016 -2.92606 -1.64224
2.40216 -2.89406 -1.64324
2.40916 -2.88406 -1.64124
2.42016 -2.87906 -1.64324
2.43916 -2.86506 -1.64324
2.45416 -2.85506 -1.64424
2.46216 -2.84606 -1.64324
2.47216 -2.83906 -1.64424
2.49016 -2.82406 -1.64424
2.49516 -2.81206 -1.64224
2.50316 -2.81206 -1.64424
2.51216 -2.80406 -1.64424
2.53116 -2.79006 -1.64524
2.53316 -2.77506 -1.64124
2.54216 -2.76706 -1.64124
2.55316 -2.76206 -1.64324
2.55416 -2.75306 -1.64024
2.56016 -2.74306 -1.63824
2.57216 -2.73906 -1.64124
2.57616 -2.72506 -1.63824
2.59116 -2.72406 -1.64224
2.59516 -2.71206 -1.63924
2.60616 -2.70606 -1.64124
2.61216 -2.70306 -1.64224
2.62016 -2.69506 -1.64224
2.62816 -2.68606 -1.64124
2.63916 -2.68006 -1.64324
2.65016 -2.67406 -1.64424
2.65316 -2.66106 -1.64124
2.66016 -2.65106 -1.64024
2.67216 -2.65506 -1.64524
2.67516 -2.64106 -1.64224
2.68516 -2.63406 -1.64324
2.69816 -2.63106 -1.64624
2.70216 -2.61806 -1.64324
2.71216 -2.61106 -1.64424
2.71916 -2.59306 -1.64124
2.73416 -2.59106 -1.64524
2.74416 -2.58506 -1.64724
2.75516 -2.56306 -1.64324
2.77116 -2.54506 -1.64324
2.77816 -2.54306 -1.64524
2.78616 -2.51806 -1.64024
2.79516 -2.51106 -1.64124
2.81216 -2.51106 -1.64724
2.81116 -2.49306 -1.64124
2.82716 -2.49206 -1.64624
2.83316 -2.49006 -1.64824
2.83316 -2.47406 -1.64324
2.84616 -2.46906 -1.64624
2.85116 -2.44206 -1.63924
2.86516 -2.43906 -1.64324
2.88816 -2.42006 -1.64624
3.31116 -1.78006 -1.64224
3.32016 -1.77106 -1.64324
3.33016 -1.76306 -1.64624
3.33616 -1.75306 -1.64624
3.34616 -1.74506 -1.64924
3.35516 -1.73606 -1.65024
3.34916 -1.72606 -1.64624
3.36016 -1.71806 -1.64924
3.35716 -1.70406 -1.64424
3.36616 -1.69506 -1.64624
3.37716 -1.68706 -1.64924
3.37816 -1.67406 -1.64724
3.38816 -1.66606 -1.64924
3.39016 -1.66106 -1.64924
3.40116 -1.65306 -1.65224
3.40716 -1.64306 -1.65324
3.41916 -1.63506 -1.65624
17.7972 -5.43906 0.714762
17.7782 -5.37206 0.713762
17.7692 -5.33806 0.712762
17.7472 -5.27106 0.711762
17.7222 -5.14306 0.710762
17.7022 -5.07606 0.709762
17.6892 -5.01306 0.708762
17.6642 -4.91606 0.706762
17.6492 -4.79206 0.705762
17.6292 -4.72706 0.704762
17.2542 -3.08806 0.684762
17.2402 -3.03006 0.684762
17.2292 -2.97206 0.683762
17.1932 -2.82706 0.681762
17.1822 -2.77006 0.681762
17.1732 -2.71306 0.680762
17.1542 -2.65406 0.680762
17.8052 -5.46606 0.485762
17.7782 -5.39706 0.484762
17.7692 -5.33306 0.484762
17.7562 -5.26906 0.483762
17.7462 -5.20506 0.483762
17.7222 -5.16706 0.483762
17.7152 -5.10506 0.482762
17.6942 -5.03906 0.482762
17.6852 -4.97606 0.481762
17.6712 -4.91306 0.481762
17.6642 -4.85106 0.480762
17.6482 -4.78706 0.480762
17.6282 -4.75206 0.479762
17.3182 -3.37606 0.470762
17.2912 -3.25906 0.469762
17.2842 -3.20106 0.469762
17.2772 -3.17206 0.469762
17.2712 -3.11406 0.469762
17.2532 -3.05506 0.468762
17.2492 -2.99906 0.468762
17.2292 -2.93906 0.468762
17.2182 -2.88206 0.467762
17.2072 -2.85206 0.467762
17.1922 -2.79406 0.467762
17.1752 -2.73606 0.466762
17.1662 -2.67906 0.466762
17.1582 -2.62306 0.466762
17.1372 -2.56406 0.465762
17.8202 -5.56706 0.390762
17.8122 -5.50306 0.390762
17.7982 -5.46806 0.389762
17.7862 -5.40306 0.389762
17.7422 -5.20806 0.388762
17.7022 -5.07606 0.387762
17.6932 -4.98306 0.387762
17.6812 -4.92006 0.387762
17.6602 -4.85406 0.386762
17.6362 -4.72906 0.386762
17.3242 -3.41206 0.380762
17.3222 -3.32706 0.380762
17.2942 -3.26506 0.379762
17.2332 -2.94706 0.378762
17.2082 -2.83106 0.377762
17.1782 -2.71606 0.377762
17.1552 -2.62906 0.377762
17.7942 -5.42106 0.0537624
17.7672 -5.35106 0.0547624
17.7552 -5.28706 0.0547624
17.7352 -5.22006 0.0547624
17.6952 -5.05806 0.0557624
17.6862 -4.99506 0.0557624
17.6672 -4.93006 0.0557624
17.6612 -4.86806 0.0567624
17.6452 -4.80406 0.0567624
17.6302 -4.77006 0.0567624
17.2872 -3.21906 0.0617624
17.2082 -2.89706 0.0627624
17.1402 -2.58206 0.0637624
17.1252 -2.52406 0.0647624
17.7472 -5.27606 -0.0592376
17.8042 -5.48506 -0.191238
17.8032 -5.45406 -0.190238
17.7882 -5.38806 -0.190238
17.7052 -5.03106 -0.186238
17.6862 -4.96506 -0.185238
17.6652 -4.89906 -0.184238
17.6552 -4.83706 -0.184238
17.6472 -4.77506 -0.183238
17.3162 -3.36506 -0.170238
17.2602 -3.10206 -0.168238
17.2592 -3.04606 -0.167238
17.2372 -2.98606 -0.167238
17.2122 -2.87006 -0.166238
17.1952 -2.75606 -0.165238
17.1832 -2.72706 -0.165238
17.1702 -2.66906 -0.164238
17.1472 -2.55506 -0.163238
17.1172 -2.44106 -0.162238
17.3112 -3.36006 -0.260238
17.7962 -5.48106 -0.397238
17.7752 -5.35206 -0.395238
17.7632 -5.28806 -0.394238
17.7342 -5.15806 -0.392238
17.7062 -5.06006 -0.390238
17.6882 -4.99406 -0.389238
17.6802 -4.93206 -0.388238
17.6512 -4.80406 -0.386238
17.6352 -4.74106 -0.385238
17.6232 -4.67806 -0.384238
17.2872 -3.21706 -0.363238
17.2852 -3.16106 -0.363238
17.2592 -3.10006 -0.362238
17.2382 -3.01306 -0.361238
17.2162 -2.89706 -0.359238
17.2072 -2.84006 -0.359238
17.1862 -2.78106 -0.358238
17.1832 -2.72506 -0.357238
17.1712 -2.69606 -0.357238
17.1482 -2.63706 -0.356238
17.1392 -2.58006 -0.355238
17.1352 -2.52506 -0.355238
17.1212 -2.46806 -0.354238
17.1072 -2.41106 -0.354238
17.6152 -4.66406 -0.503238
17.5992 -4.60106 -0.502238
17.5922 -4.57006 -0.502238
17.5572 -4.44306 -0.499238
17.5422 -4.38106 -0.498238
17.3082 -3.32506 -0.480238
17.8702 -5.76206 -0.636238
17.8432 -5.63006 -0.634238
17.7612 -5.26806 -0.625238
17.7452 -5.20306 -0.624238
17.7322 -5.13806 -0.623238
17.6682 -4.91006 -0.617238
17.6572 -4.84706 -0.616238
17.6492 -4.78506 -0.615238
17.6332 -4.72106 -0.613238
17.6212 -4.65906 -0.612238
17.5832 -4.50106 -0.609238
17.5722 -4.43906 -0.608238
17.5572 -4.37706 -0.606238
17.5432 -4.31506 -0.605238
17.5302 -4.25306 -0.604238
17.4962 -4.10006 -0.601238
17.4432 -3.85706 -0.596238
17.4282 -3.79606 -0.595238
17.4052 -3.70506 -0.593238
17.3912 -3.64506 -0.592238
17.3792 -3.58506 -0.591238
17.3682 -3.52606 -0.590238
17.3412 -3.40706 -0.587238
17.3262 -3.34806 -0.586238
17.3082 -3.31606 -0.585238
17.3002 -3.25806 -0.584238
17.2872 -3.20006 -0.583238
17.2552 -3.02606 -0.581238
17.2342 -2.93806 -0.579238
17.2142 -2.87906 -0.578238
