3.18438 4.59597 -1.73697
3.16638 4.60097 -1.73497
3.15238 4.61097 -1.73497
3.13938 4.62197 -1.73597
3.11738 4.62097 -1.73097
3.10038 4.62797 -1.72997
3.10038 4.64397 -1.73397
3.07838 4.64197 -1.72997
4.44638 -2.68603 -1.60597
4.46138 -2.67603 -1.60797
4.46638 -2.66003 -1.60697
4.47938 -2.64903 -1.60897
4.48338 -2.64203 -1.60897
4.49238 -2.62703 -1.60897
4.51138 -2.62003 -1.61297
4.52038 -2.60603 -1.61297
4.53338 -2.59403 -1.61497
4.54438 -2.58203 -1.61597
4.54738 -2.56503 -1.61397
4.55138 -2.55803 -1.61397
4.56338 -2.54503 -1.61597
4.57138 -2.53103 -1.61597
4.58038 -2.51703 -1.61597
4.59238 -2.50503 -1.61697
4.59938 -2.49003 -1.61697
4.61438 -2.48003 -1.61997
4.61438 -2.47003 -1.61897
4.63138 -2.46003 -1.62197
4.64338 -2.44803 -1.62397
4.65138 -2.43403 -1.62397
4.66038 -2.42003 -1.62397
4.67438 -2.39003 -1.62397
4.67938 -2.38303 -1.62397
4.69038 -2.37003 -1.62597
5.35038 -0.0660257 -1.65697
5.35938 -0.0490257 -1.65997
5.18538 0.00597431 -1.64997
5.19638 0.0219743 -1.65397
5.20038 0.0389743 -1.65597
5.18538 0.0469743 -1.64997
5.18838 0.0629743 -1.65197
5.19638 0.0789743 -1.65397
5.18638 0.0959743 -1.65097
5.19938 0.111974 -1.65597
5.18738 0.127974 -1.65197
5.18338 0.144974 -1.64997
5.18838 0.152974 -1.65197
5.19438 0.168974 -1.65397
5.19138 0.184974 -1.65397
5.19838 0.201974 -1.65597
5.18438 0.217974 -1.65197
5.18938 0.233974 -1.65397
5.17538 0.249974 -1.64897
5.17738 0.257974 -1.64997
5.19138 0.274974 -1.65497
5.18138 0.290974 -1.65197
5.18238 0.307974 -1.65197
5.19638 0.324974 -1.65797
5.17638 0.339974 -1.65097
5.17838 0.355974 -1.65197
5.18538 0.364974 -1.65497
5.17738 0.380974 -1.65197
5.20938 0.398974 -1.66397
5.20438 0.415974 -1.66297
5.20738 0.431974 -1.66397
5.20438 0.447974 -1.66297
5.18338 0.462974 -1.65697
5.20938 0.473974 -1.66597
5.20238 0.488974 -1.66397
5.17238 0.502974 -1.65397
5.17838 0.519974 -1.65697
5.17438 0.535974 -1.65597
5.16938 0.551974 -1.65497
5.17338 0.568974 -1.65697
5.16438 0.575974 -1.65397
5.15938 0.591974 -1.65297
5.15938 0.607974 -1.65397
5.16238 0.624974 -1.65597
5.16838 0.641974 -1.65797
5.16038 0.657974 -1.65597
5.15438 0.673974 -1.65497
5.16338 0.682974 -1.65797
5.15638 0.714974 -1.65797
5.14938 0.730974 -1.65597
5.17838 0.750974 -1.66697
5.17438 0.766974 -1.66597
5.17338 0.783974 -1.66697
5.15138 0.788974 -1.65897
5.15138 0.804974 -1.65997
5.14338 0.820974 -1.65797
5.13638 0.835974 -1.65697
5.13238 0.884974 -1.65797
5.13338 0.909974 -1.65997
5.13438 0.926974 -1.66097
5.12438 0.941974 -1.65897
5.12038 0.973974 -1.65897
5.11738 0.998974 -1.65997
5.12338 1.01697 -1.66297
5.11838 1.03197 -1.66297
5.11338 1.04797 -1.66197
5.10638 1.07997 -1.66197
5.10338 1.10497 -1.66297
5.11438 1.12397 -1.66797
5.11438 1.14097 -1.66897
5.11638 1.15797 -1.67097
5.10138 1.17197 -1.66697
5.09038 1.18597 -1.66497
5.10738 1.20697 -1.67197
5.09438 1.21197 -1.66797
5.09738 1.22997 -1.66997
5.07938 1.24197 -1.66497
5.08238 1.25997 -1.66797
5.08438 1.27697 -1.66997
5.09338 1.29597 -1.67397
5.07738 1.30997 -1.66997
5.07938 1.31897 -1.67197
5.07138 1.33397 -1.66997
5.06338 1.34897 -1.66897
5.07038 1.36697 -1.67297
5.07738 1.38597 -1.67697
5.05838 1.39797 -1.67197
5.04638 1.41197 -1.66897
5.05538 1.42297 -1.67297
5.04138 1.43597 -1.66997
5.03838 1.45297 -1.66997
5.04138 1.47097 -1.67297
5.02238 1.48197 -1.66797
5.01938 1.49897 -1.66797
5.01438 1.52297 -1.66897
5.01338 1.53997 -1.66997
5.01338 1.55697 -1.67197
5.01238 1.57397 -1.67397
5.00438 1.60597 -1.67397
4.98938 1.62697 -1.67197
4.98238 1.64197 -1.67097
4.95738 1.79997 -1.68097
4.93338 1.86997 -1.68097
4.92438 1.88397 -1.67997
4.92138 1.91897 -1.68297
4.89138 1.98697 -1.68297
4.89638 2.00697 -1.68697
4.87738 2.01697 -1.68197
4.87238 2.03297 -1.68297
4.86338 2.05597 -1.68297
4.84238 2.06597 -1.67797
4.85038 2.10497 -1.68497
4.84538 2.12097 -1.68597
4.83938 2.13597 -1.68597
4.83538 2.14397 -1.68597
4.82738 2.19497 -1.68997
4.80338 2.21997 -1.68697
4.80238 2.23897 -1.68897
4.79038 2.24197 -1.68597
4.75538 2.29897 -1.68297
4.74438 2.32997 -1.68497
4.74038 2.33797 -1.68497
4.73538 2.35297 -1.68497
4.72938 2.36897 -1.68597
4.73238 2.38897 -1.68997
4.71938 2.40097 -1.68797
4.72138 2.42097 -1.69197
4.70238 2.42097 -1.68597
4.73938 2.45797 -1.70297
4.70138 2.45697 -1.69097
4.68838 2.46997 -1.68897
4.68038 2.48397 -1.68897
4.67138 2.49797 -1.68797
4.66038 2.52097 -1.68897
4.65938 2.53897 -1.69197
4.63038 2.56097 -1.68697
4.63538 2.58297 -1.69197
4.58338 2.67797 -1.69197
4.52738 2.78997 -1.69597
4.48738 2.85397 -1.69597
4.40138 2.98797 -1.69597
4.37838 3.02197 -1.69597
4.35838 3.04997 -1.69597
4.35038 3.06397 -1.69697
4.34238 3.07897 -1.69697
4.34738 3.09197 -1.70097
4.33438 3.10397 -1.69997
4.33238 3.12297 -1.70297
4.31738 3.13297 -1.70097
4.31438 3.15097 -1.70397
4.30438 3.16497 -1.70397
4.29838 3.18197 -1.70597
4.28138 3.18897 -1.70297
4.28238 3.20097 -1.70497
4.27038 3.21297 -1.70497
4.26238 3.22797 -1.70497
4.26238 3.24897 -1.70997
4.25338 3.26297 -1.70997
4.24238 3.27597 -1.70997
4.23738 3.29397 -1.71197
4.22038 3.29097 -1.70697
4.22838 3.31797 -1.71497
4.22538 3.33697 -1.71797
4.20838 3.34597 -1.71597
4.19238 3.35397 -1.71297
4.17238 3.38197 -1.71397
4.17338 3.39297 -1.71597
4.16538 3.40897 -1.71697
4.15138 3.41897 -1.71597
4.14638 3.43697 -1.71897
4.13838 3.45197 -1.71997
4.12538 3.46297 -1.71897
4.10938 3.47197 -1.71697
4.09738 3.49497 -1.71897
4.09538 3.51597 -1.72297
4.06738 3.55897 -1.72497
4.05638 3.57197 -1.72497
4.01838 3.61697 -1.72597
3.20238 4.41497 -1.74197
3.18738 4.42397 -1.74097
3.16038 4.43097 -1.73797
3.15038 4.44597 -1.73997
3.12938 4.44597 -1.73597
3.12038 4.46397 -1.73897
3.10338 4.46897 -1.73697
3.08838 4.47697 -1.73697
3.06738 4.47697 -1.73297
3.06338 4.48497 -1.73397
3.04538 4.48997 -1.73197
3.03138 4.49997 -1.73197
3.01538 4.50597 -1.73097
2.99438 4.50597 -1.72697
2.97838 4.51197 -1.72597
4.23438 -2.75403 -1.60497
4.24938 -2.74503 -1.60697
4.26038 -2.73403 -1.60897
4.26738 -2.71903 -1.60797
4.27338 -2.70403 -1.60697
4.28238 -2.70003 -1.60897
4.29538 -2.69003 -1.60997
4.29738 -2.67203 -1.60797
4.31738 -2.66603 -1.61197
4.32038 -2.64903 -1.60997
4.33038 -2.63603 -1.61097
4.32438 -2.61403 -1.60497
4.35438 -2.62303 -1.61597
4.36038 -2.59003 -1.61197
4.35138 -2.56503 -1.60497
4.36338 -2.55403 -1.60697
4.37338 -2.54203 -1.60697
4.38138 -2.52803 -1.60697
4.38838 -2.52303 -1.60897
4.40138 -2.51203 -1.60997
4.40638 -2.49603 -1.60897
4.42238 -2.48703 -1.61197
4.43538 -2.47603 -1.61397
4.44738 -2.46503 -1.61597
4.45538 -2.45103 -1.61597
4.45538 -2.44203 -1.61497
4.46538 -2.42903 -1.61597
4.47738 -2.41803 -1.61797
4.48838 -2.40503 -1.61897
4.50238 -2.39503 -1.62097
4.50038 -2.37503 -1.61797
4.51638 -2.36603 -1.62097
4.52838 -2.36303 -1.62397
4.53538 -2.34903 -1.62397
4.55638 -2.30503 -1.62297
4.57338 -2.29603 -1.62697
4.57238 -2.27703 -1.62397
4.58238 -2.27303 -1.62697
5.19038 -0.329026 -1.65597
5.18738 -0.312026 -1.65397
5.18438 -0.296026 -1.65297
5.18838 -0.288026 -1.65397
5.18438 -0.271026 -1.65197
5.19638 -0.255026 -1.65597
5.19538 -0.239026 -1.65597
5.19238 -0.222026 -1.65397
5.19438 -0.206026 -1.65497
5.18938 -0.190026 -1.65297
5.19538 -0.174026 -1.65497
5.19438 -0.165026 -1.65397
5.18738 -0.149026 -1.65197
5.18938 -0.133026 -1.65197
5.19338 -0.116026 -1.65397
5.18438 -0.100026 -1.64997
5.20138 -0.0840257 -1.65597
5.19438 -0.0670257 -1.65397
5.19038 -0.0590257 -1.65197
5.19238 -0.0430257 -1.65297
5.18738 -0.0270257 -1.65097
5.18938 -0.0100257 -1.65197
5.06838 0.0279743 -1.66297
5.05838 0.0439743 -1.65897
5.06638 0.0599743 -1.66197
5.05838 0.0759743 -1.65897
5.07438 0.107974 -1.66497
5.07438 0.115974 -1.66497
5.07138 0.147974 -1.66497
5.06338 0.162974 -1.66197
5.05938 0.178974 -1.66097
5.07038 0.194974 -1.66497
5.06338 0.210974 -1.66297
5.04638 0.217974 -1.65697
5.06438 0.234974 -1.66297
5.05838 0.250974 -1.66097
5.05938 0.266974 -1.66197
5.04738 0.281974 -1.65797
5.05738 0.297974 -1.66197
5.04138 0.312974 -1.65697
5.05638 0.321974 -1.66197
5.04138 0.336974 -1.65697
5.05538 0.353974 -1.66297
5.05838 0.369974 -1.66397
5.06138 0.386974 -1.66497
5.05938 0.401974 -1.66497
5.05138 0.417974 -1.66297
5.05638 0.425974 -1.66497
5.06438 0.442974 -1.66797
5.04938 0.457974 -1.66297
5.05138 0.473974 -1.66497
5.03538 0.487974 -1.65897
5.05438 0.505974 -1.66697
5.04738 0.520974 -1.66497
5.05038 0.529974 -1.66597
5.05038 0.545974 -1.66697
5.04238 0.560974 -1.66497
5.05738 0.578974 -1.67097
5.03338 0.591974 -1.66297
5.04638 0.609974 -1.66797
5.04238 0.624974 -1.66697
5.03438 0.631974 -1.66497
5.03238 0.647974 -1.66497
5.03038 0.663974 -1.66497
5.02438 0.678974 -1.66297
5.03138 0.695974 -1.66697
5.02038 0.710974 -1.66297
5.03238 0.728974 -1.66897
5.01838 0.734974 -1.66397
5.02538 0.751974 -1.66697
5.00638 0.764974 -1.66097
5.02438 0.783974 -1.66897
5.01038 0.797974 -1.66497
5.01238 0.813974 -1.66597
5.01538 0.830974 -1.66797
5.01738 0.838974 -1.66897
5.01638 0.855974 -1.66997
5.00238 0.868974 -1.66597
4.99038 0.882974 -1.66297
5.00638 0.901974 -1.66897
4.99038 0.915974 -1.66497
5.00438 0.934974 -1.67097
4.98938 0.939974 -1.66597
4.99938 0.957974 -1.67097
4.99338 0.972974 -1.66897
4.99538 0.989974 -1.67097
4.97238 1.00097 -1.66397
4.98038 1.01897 -1.66797
4.99138 1.03797 -1.67297
4.98038 1.04397 -1.66997
4.97738 1.05997 -1.66997
4.98138 1.07697 -1.67297
4.97638 1.09197 -1.67197
4.96138 1.10497 -1.66797
4.98438 1.12697 -1.67697
4.95138 1.13497 -1.66697
4.98638 1.15197 -1.67997
4.97138 1.16497 -1.67597
4.96938 1.18097 -1.67697
4.96338 1.19597 -1.67597
4.96738 1.21397 -1.67897
4.95638 1.22697 -1.67597
4.96738 1.24697 -1.68097
4.97038 1.25597 -1.68297
4.94238 1.26497 -1.67497
4.94538 1.29897 -1.67897
4.94338 1.31497 -1.67897
4.95538 1.33497 -1.68497
4.92938 1.34497 -1.67697
4.93138 1.35397 -1.67897
4.93938 1.37297 -1.68297
4.93138 1.38697 -1.68197
4.92738 1.40297 -1.68197
4.93138 1.42097 -1.68497
4.92038 1.43397 -1.68297
4.91538 1.44897 -1.68297
4.92238 1.45997 -1.68597
4.89638 1.46897 -1.67797
4.88938 1.48397 -1.67697
4.87338 1.51197 -1.67497
4.88838 1.53397 -1.68197
4.89038 1.55097 -1.68397
4.87038 1.55297 -1.67797
4.87238 1.57097 -1.68097
4.86738 1.58597 -1.68097
4.85338 1.59797 -1.67697
4.85938 1.61697 -1.68097
4.84138 1.62797 -1.67697
4.84738 1.64697 -1.68097
4.84438 1.65497 -1.68097
4.84138 1.67097 -1.68097
4.84238 1.68797 -1.68397
4.80738 1.69297 -1.67297
4.82638 1.71697 -1.68197
4.81938 1.73097 -1.68097
4.81238 1.74597 -1.68097
4.80738 1.75297 -1.67997
4.80938 1.76997 -1.68297
4.79638 1.78297 -1.67997
4.79138 1.79797 -1.67997
4.79038 1.81497 -1.68197
4.77438 1.82597 -1.67797
4.77538 1.84397 -1.68097
4.77638 1.85197 -1.68197
4.77238 1.86797 -1.68297
4.76238 1.88197 -1.68097
4.77438 1.90397 -1.68797
4.75238 1.91197 -1.68197
4.74438 1.92697 -1.68097
4.75138 1.94697 -1.68597
4.73938 1.94997 -1.68297
4.74038 1.96797 -1.68497
4.73938 1.98497 -1.68697
4.72938 1.99897 -1.68597
4.71038 2.00797 -1.68097
4.73038 2.03397 -1.69097
4.71138 2.03497 -1.68497
4.71038 2.05197 -1.68697
4.70538 2.06797 -1.68797
4.68738 2.07697 -1.68297
4.68938 2.09597 -1.68597
4.69938 2.11797 -1.69297
4.67738 2.12597 -1.68697
4.68638 2.13897 -1.69197
4.68838 2.15697 -1.69497
4.66438 2.16397 -1.68797
4.66038 2.17997 -1.68997
4.66238 2.19897 -1.69297
4.65538 2.21397 -1.69297
4.63838 2.22297 -1.68897
4.65138 2.24797 -1.69697
4.64638 2.25397 -1.69597
4.63638 2.26697 -1.69497
4.63538 2.28497 -1.69797
4.62838 2.29997 -1.69797
4.62638 2.31697 -1.69997
4.62538 2.33497 -1.70197
4.61438 2.34797 -1.70097
4.60538 2.36997 -1.70197
4.58638 2.37797 -1.69697
4.58838 2.39797 -1.70097
4.57438 2.40897 -1.69797
4.57538 2.42797 -1.70197
4.56938 2.44297 -1.70197
4.57038 2.45297 -1.70397
4.56438 2.46797 -1.70497
4.54838 2.49697 -1.70497
4.53138 2.50597 -1.70097
4.52838 2.52297 -1.70297
4.51338 2.53297 -1.69997
4.51438 2.54297 -1.70197
4.50938 2.55897 -1.70397
4.49638 2.56997 -1.70197
4.48338 2.58197 -1.69997
4.47038 2.59297 -1.69797
4.47038 2.61197 -1.70097
4.45838 2.61397 -1.69797
4.45138 2.62897 -1.69797
4.44638 2.64497 -1.69997
4.43738 2.65797 -1.69897
4.41238 2.66197 -1.69197
4.42038 2.68497 -1.69897
4.39538 2.68897 -1.69197
4.39938 2.70097 -1.69597
4.38738 2.71297 -1.69397
4.38438 2.72997 -1.69597
4.37238 2.74197 -1.69497
4.36838 2.75797 -1.69697
4.35838 2.77097 -1.69597
4.35038 2.78597 -1.69697
4.33938 2.79697 -1.69597
4.34038 2.80797 -1.69797
4.32838 2.81997 -1.69697
4.31538 2.82997 -1.69497
4.32338 2.85497 -1.70197
4.31638 2.86997 -1.70297
4.29738 2.87697 -1.69897
4.28138 2.88497 -1.69597
4.29938 2.90797 -1.70597
4.27238 2.90897 -1.69797
4.26938 2.92597 -1.69997
4.28438 2.95697 -1.71097
4.26138 2.96097 -1.70497
4.25638 2.97697 -1.70697
4.25138 2.99397 -1.70897
4.23138 2.98997 -1.70197
4.23038 3.00897 -1.70597
4.23238 3.03097 -1.71097
4.21738 3.03997 -1.70797
4.19738 3.04497 -1.70397
4.20438 3.06997 -1.71097
4.18938 3.07997 -1.70897
4.18938 3.08997 -1.71097
4.16138 3.10997 -1.70697
4.16338 3.13197 -1.71197
4.16338 3.15297 -1.71697
4.14638 3.15997 -1.71397
4.13638 3.17297 -1.71397
4.14038 3.18697 -1.71797
4.12138 3.19297 -1.71397
4.11038 3.20397 -1.71297
4.11338 3.22797 -1.71897
4.09238 3.23297 -1.71397
4.09138 3.25297 -1.71797
4.07738 3.27297 -1.71897
4.06238 3.28197 -1.71697
4.06138 3.30197 -1.72097
4.04038 3.32797 -1.72097
4.02238 3.35497 -1.72197
4.01238 3.35797 -1.71997
3.99338 3.38397 -1.72097
2.99938 4.34897 -1.73797
2.98538 4.34297 -1.73297
2.97538 4.35797 -1.73597
2.95538 4.35797 -1.73197
2.94038 4.36497 -1.73097
2.92138 4.36597 -1.72797
2.91038 4.37997 -1.72897
2.89038 4.37897 -1.72597
2.87138 4.39497 -1.72597
4.08038 -2.74103 -1.60897
4.07538 -2.72803 -1.60497
4.09638 -2.72403 -1.60997
4.10338 -2.71003 -1.60997
4.11938 -2.70203 -1.61297
4.11738 -2.68203 -1.60797
4.13038 -2.67203 -1.60997
4.13338 -2.65603 -1.60797
4.14738 -2.65503 -1.61197
4.15938 -2.64403 -1.61397
4.16138 -2.62703 -1.61097
4.17838 -2.62003 -1.61497
4.19138 -2.61003 -1.61697
4.20138 -2.59803 -1.61797
4.20338 -2.58103 -1.61497
4.21238 -2.57703 -1.61697
4.22138 -2.56503 -1.61797
4.23038 -2.55103 -1.61797
4.24238 -2.54103 -1.61997
4.26338 -2.53503 -1.62497
4.25538 -2.51203 -1.61797
4.26838 -2.50203 -1.61997
4.27338 -2.49603 -1.62097
4.28638 -2.48503 -1.62297
4.29538 -2.47303 -1.62397
4.30338 -2.45903 -1.62397
4.32238 -2.43403 -1.62497
4.33338 -2.41403 -1.62497
4.34138 -2.40003 -1.62497
4.34238 -2.38303 -1.62197
4.37638 -2.34803 -1.62697
4.40538 -2.28403 -1.62597
5.04338 -0.305026 -1.65697
5.05738 -0.195026 -1.65997
5.06038 -0.0750257 -1.65997
5.05838 -0.0440257 -1.65897
5.06038 -0.0120257 -1.65997
4.95838 0.159974 -1.66597
4.95738 0.182974 -1.66597
4.95838 0.213974 -1.66597
4.95438 0.315974 -1.66697
4.95338 0.448974 -1.67097
4.94838 0.502974 -1.67097
4.94938 0.534974 -1.67197
4.94738 0.565974 -1.67297
4.94238 0.588974 -1.67197
4.93538 0.618974 -1.67097
4.93938 0.635974 -1.67297
4.92538 0.649974 -1.66897
4.93738 0.674974 -1.67397
4.93338 0.705974 -1.67397
4.91538 0.734974 -1.66897
4.92038 0.766974 -1.67297
4.90938 0.788974 -1.66997
4.91538 0.853974 -1.67597
4.89838 0.866974 -1.67097
4.91538 0.877974 -1.67697
4.90638 0.891974 -1.67497
4.89438 0.905974 -1.67197
4.90338 0.938974 -1.67697
4.89738 0.953974 -1.67597
4.88838 0.975974 -1.67497
4.86538 0.987974 -1.66697
4.88438 1.02297 -1.67697
4.88538 1.03997 -1.67797
4.87138 1.06897 -1.67497
4.88138 1.11097 -1.68197
4.87038 1.17297 -1.68297
4.86538 1.19597 -1.68297
4.85538 1.22597 -1.68297
4.76738 1.59397 -1.68897
4.76038 1.62497 -1.69097
4.72438 1.73797 -1.69197
4.71138 1.75897 -1.68997
4.69638 1.78697 -1.68897
4.68438 1.84997 -1.69297
4.30238 2.69597 -1.70797
4.24138 2.80897 -1.71097
4.21938 2.85197 -1.71297
4.19538 2.87397 -1.70997
4.16738 2.92297 -1.71197
4.14938 2.94897 -1.71197
4.12538 3.00097 -1.71597
2.98438 4.20897 -1.73697
2.96538 4.22297 -1.73697
2.93338 4.23397 -1.73397
2.92138 4.24697 -1.73497
2.88838 4.22597 -1.72297
2.88938 4.25697 -1.73197
3.92538 -2.80903 -1.61797
4.00838 -2.70003 -1.61997
4.02338 -2.69203 -1.62297
4.02538 -2.67503 -1.61997
4.03838 -2.66503 -1.62197
4.07938 -2.59203 -1.61997
4.10738 -2.56503 -1.62297
4.12138 -2.53803 -1.62297
4.14338 -2.51603 -1.62497
4.79738 0.0129743 -1.65397
4.79938 0.0279743 -1.65397
4.80838 0.0429743 -1.65797
4.80038 0.0579743 -1.65497
4.80038 0.0729743 -1.65497
4.80438 0.0809743 -1.65597
4.80938 0.0959743 -1.65797
4.81638 0.110974 -1.66097
4.80838 0.125974 -1.65797
4.79338 0.140974 -1.65297
4.80238 0.155974 -1.65597
4.80738 0.170974 -1.65797
4.79438 0.177974 -1.65397
4.80438 0.193974 -1.65797
4.78538 0.207974 -1.65097
4.80138 0.223974 -1.65697
4.80238 0.238974 -1.65797
4.79238 0.253974 -1.65397
4.80338 0.268974 -1.65797
4.81038 0.276974 -1.66097
4.78438 0.290974 -1.65197
4.80638 0.307974 -1.65997
4.80338 0.321974 -1.65997
4.78738 0.335974 -1.65397
4.80838 0.352974 -1.66297
4.80238 0.367974 -1.65997
4.78438 0.373974 -1.65397
4.78338 0.388974 -1.65397
4.79738 0.404974 -1.65997
4.77538 0.418974 -1.65197
4.80538 0.436974 -1.66397
4.78338 0.449974 -1.65597
4.78038 0.464974 -1.65597
4.77938 0.471974 -1.65597
4.78038 0.486974 -1.65597
4.78238 0.517974 -1.65797
4.78238 0.532974 -1.65897
4.77938 0.547974 -1.65797
4.78438 0.555974 -1.65997
4.76738 0.568974 -1.65497
4.78438 0.586974 -1.66197
4.80038 0.603974 -1.66897
4.77438 0.615974 -1.65997
4.76738 0.629974 -1.65797
4.79238 0.656974 -1.66797
4.77738 0.669974 -1.66297
4.76338 0.697974 -1.65997
4.76138 0.712974 -1.65997
4.75538 0.727974 -1.65797
4.76238 0.743974 -1.66197
4.75838 0.758974 -1.66097
4.75238 0.780974 -1.65997
4.74438 0.794974 -1.65797
4.74138 0.809974 -1.65797
4.74038 0.839974 -1.65997
4.71938 0.989974 -1.66297
4.71538 1.07497 -1.66797
4.70338 1.08797 -1.66497
4.70138 1.11897 -1.66697
4.69138 1.13097 -1.66397
4.68538 1.15397 -1.66397
4.70738 1.17497 -1.67397
4.68538 1.18497 -1.66697
4.67438 1.21297 -1.66497
4.69438 1.23397 -1.67397
4.68138 1.24697 -1.67097
4.67538 1.25297 -1.66897
4.68438 1.27097 -1.67397
4.68238 1.28597 -1.67497
4.69638 1.30597 -1.68197
4.67338 1.31597 -1.67497
4.66538 1.34497 -1.67497
4.65838 1.35097 -1.67297
4.68938 1.37597 -1.68697
4.66538 1.38497 -1.67897
4.65638 1.41397 -1.67897
4.65938 1.43097 -1.68197
4.64638 1.44297 -1.67797
4.65638 1.45397 -1.68297
4.62638 1.46097 -1.67397
4.64538 1.48297 -1.68297
4.62138 1.49097 -1.67497
4.64338 1.51397 -1.68497
4.63138 1.52697 -1.68297
4.63738 1.54497 -1.68697
4.60438 1.54197 -1.67497
4.60138 1.55697 -1.67597
4.59638 1.57097 -1.67597
4.60238 1.58897 -1.67997
4.61138 1.60897 -1.68497
4.59338 1.61897 -1.67997
4.57838 1.62897 -1.67597
4.57938 1.63797 -1.67797
4.58038 1.65497 -1.67997
4.57938 1.67097 -1.68197
4.55638 1.67797 -1.67497
4.55638 1.69497 -1.67697
4.54738 1.70797 -1.67597
4.54338 1.72297 -1.67597
4.54438 1.73097 -1.67797
4.53938 1.74497 -1.67797
4.53138 1.77497 -1.67897
4.51138 1.79997 -1.67597
4.50638 1.83897 -1.67897
4.49338 1.84997 -1.67597
4.49738 1.86897 -1.67997
4.48038 1.89497 -1.67797
4.47438 1.90897 -1.67797
4.46738 1.93097 -1.67897
4.45838 1.95997 -1.67997
4.45738 1.97697 -1.68297
4.43338 2.00797 -1.67897
4.43038 2.02297 -1.67997
4.41638 2.04997 -1.67997
4.42338 2.06997 -1.68497
4.40638 2.07897 -1.68097
4.39938 2.09297 -1.68097
4.39838 2.10097 -1.68197
4.39038 2.11397 -1.68097
4.35938 2.18397 -1.68297
4.35738 2.19197 -1.68297
4.35038 2.20597 -1.68297
4.35238 2.22397 -1.68697
4.33538 2.23197 -1.68297
4.33338 2.24797 -1.68497
4.32938 2.26397 -1.68597
4.31738 2.27497 -1.68397
4.33738 2.29397 -1.69397
4.32638 2.30597 -1.69197
4.31438 2.31697 -1.68997
4.31138 2.33297 -1.69197
4.30738 2.34797 -1.69397
4.28838 2.35497 -1.68897
4.29638 2.37697 -1.69497
4.29538 2.38597 -1.69597
4.26538 2.38597 -1.68697
4.27038 2.40697 -1.69197
4.26938 2.42397 -1.69497
4.24938 2.42997 -1.68897
4.27538 2.46297 -1.70397
4.25038 2.46597 -1.69597
4.24138 2.46997 -1.69397
4.23038 2.48097 -1.69297
4.22838 2.49797 -1.69597
4.21638 2.50897 -1.69397
4.22438 2.53197 -1.70097
4.18738 2.54597 -1.69197
4.18538 2.55297 -1.69197
4.18638 2.57197 -1.69597
4.16438 2.57597 -1.68997
4.18038 2.60397 -1.70097
4.13138 2.62797 -1.68997
4.14338 2.64497 -1.69697
4.12238 2.64997 -1.69197
4.13238 2.67497 -1.69997
4.10238 2.72897 -1.70097
4.07338 2.73797 -1.69397
4.04438 2.77397 -1.69297
4.04138 2.79097 -1.69597
4.03338 2.81297 -1.69797
4.02238 2.82497 -1.69697
4.02138 2.84297 -1.70097
4.00038 2.86597 -1.69897
3.99138 2.89797 -1.70297
3.97338 2.91297 -1.70097
3.95638 2.93897 -1.70197
3.93538 2.94197 -1.69597
3.93038 2.95797 -1.69797
3.91838 2.97797 -1.69897
3.91038 2.99097 -1.69997
3.89438 2.99897 -1.69697
3.89238 3.01697 -1.70097
3.87738 3.02397 -1.69797
3.87038 3.03897 -1.69897
3.86738 3.04597 -1.69997
3.87938 3.07597 -1.70997
3.84638 3.06897 -1.69897
3.83838 3.08197 -1.69997
3.83138 3.09697 -1.70097
3.82938 3.11497 -1.70497
3.81638 3.12397 -1.70297
3.81738 3.13497 -1.70597
3.81038 3.14997 -1.70697
3.80738 3.16797 -1.71097
3.79038 3.17397 -1.70697
3.78938 3.19297 -1.71197
3.77038 3.19697 -1.70697
3.77638 3.22297 -1.71497
3.75738 3.22697 -1.71097
3.74938 3.22997 -1.70997
3.74938 3.25097 -1.71397
3.74638 3.26897 -1.71797
3.74238 3.28697 -1.72097
3.72038 3.28697 -1.71497
3.71238 3.30197 -1.71597
3.69738 3.30897 -1.71397
3.70238 3.32397 -1.71897
3.68938 3.33297 -1.71797
3.68138 3.34697 -1.71897
3.66938 3.35697 -1.71897
3.66438 3.37397 -1.72097
3.64938 3.38197 -1.71897
3.64338 3.39697 -1.72097
3.62838 3.39397 -1.71597
3.62338 3.43197 -1.72497
3.61338 3.44497 -1.72497
3.59738 3.45097 -1.72297
3.57538 3.47297 -1.72297
3.57438 3.48297 -1.72497
3.56438 3.49497 -1.72497
3.55538 3.50797 -1.72597
3.54138 3.51597 -1.72497
3.01838 4.00497 -1.73397
2.98638 4.01397 -1.72997
2.97738 4.02797 -1.73197
2.97938 4.04397 -1.73597
2.95438 4.03597 -1.72897
2.93338 4.03497 -1.72397
2.92338 4.04697 -1.72497
2.90338 4.04497 -1.72097
3.71038 -2.84503 -1.60897
3.72238 -2.83503 -1.60997
3.73538 -2.82703 -1.61197
3.74038 -2.81203 -1.60997
3.76238 -2.81003 -1.61597
3.75438 -2.78603 -1.60897
3.76638 -2.78603 -1.61197
3.78638 -2.78103 -1.61697
3.79038 -2.76603 -1.61497
3.80038 -2.75503 -1.61597
3.81338 -2.74703 -1.61797
3.80838 -2.72503 -1.61097
3.82638 -2.71903 -1.61597
3.84438 -2.72303 -1.62197
3.84638 -2.70703 -1.61897
3.84538 -2.68803 -1.61497
3.86038 -2.68003 -1.61797
3.87538 -2.67303 -1.61997
3.87538 -2.65503 -1.61697
3.87738 -2.63903 -1.61397
3.86738 -2.62303 -1.60797
3.87438 -2.61003 -1.60697
3.89638 -2.60703 -1.61297
3.89938 -2.57303 -1.60697
3.91638 -2.56703 -1.61097
3.91938 -2.55203 -1.60897
3.92738 -2.54803 -1.61097
3.93938 -2.53803 -1.61297
3.95838 -2.53303 -1.61797
3.94738 -2.50903 -1.60897
3.96638 -2.50303 -1.61397
3.97638 -2.49203 -1.61497
3.97538 -2.47403 -1.61097
3.98938 -2.47403 -1.61597
4.00138 -2.46403 -1.61797
3.99838 -2.44503 -1.61297
4.02338 -2.44303 -1.61997
4.01838 -2.42303 -1.61497
4.01338 -2.40203 -1.60897
4.04038 -2.40103 -1.61797
4.03938 -2.39203 -1.61597
4.04938 -2.38103 -1.61697
4.05038 -2.36503 -1.61397
4.05338 -2.34903 -1.61197
4.06738 -2.34003 -1.61497
4.09238 -2.33703 -1.62197
4.09038 -2.31903 -1.61797
4.09638 -2.31403 -1.61997
4.10938 -2.30403 -1.62197
4.09938 -2.28203 -1.61497
4.10338 -2.26803 -1.61297
4.13838 -2.27003 -1.62497
4.12438 -2.24503 -1.61597
4.13138 -2.23203 -1.61597
4.14938 -2.23403 -1.62197
4.14538 -2.21503 -1.61797
4.15338 -2.20203 -1.61797
4.16238 -2.19003 -1.61897
4.16438 -2.17503 -1.61697
4.18438 -2.16803 -1.62197
4.19838 -2.15903 -1.62497
4.19938 -2.15103 -1.62397
4.20838 -2.13903 -1.62497
4.22638 -2.13103 -1.62997
4.22338 -2.11303 -1.62597
4.22638 -2.09803 -1.62397
4.23338 -2.08503 -1.62397
4.24638 -2.07503 -1.62697
4.24938 -2.06803 -1.62697
4.25738 -2.05603 -1.62797
4.27738 -2.04903 -1.63297
4.28438 -2.03503 -1.63297
4.28738 -2.02003 -1.63197
4.30138 -1.99403 -1.63297
4.30738 -1.98903 -1.63397
4.79938 -0.297026 -1.65797
4.80538 -0.252026 -1.65897
4.80138 -0.221026 -1.65697
4.80238 -0.199026 -1.65697
4.80138 -0.184026 -1.65597
4.79538 -0.153026 -1.65397
4.81438 -0.139026 -1.65997
4.80538 -0.123026 -1.65697
4.81238 -0.116026 -1.65997
4.81138 -0.101026 -1.65897
4.81538 -0.0860257 -1.65997
4.79538 -0.0700257 -1.65297
4.80038 -0.0550257 -1.65497
4.79538 -0.0400257 -1.65297
4.80638 -0.0180257 -1.65697
4.68138 0.00497431 -1.66397
4.67738 0.0199743 -1.66197
4.67938 0.0419743 -1.66297
4.67738 0.0709743 -1.66197
4.68638 0.0859743 -1.66597
4.67838 0.100974 -1.66297
4.67438 0.114974 -1.66197
4.67238 0.129974 -1.66097
4.67738 0.137974 -1.66297
4.68238 0.151974 -1.66497
4.67438 0.166974 -1.66197
4.67638 0.181974 -1.66297
4.66638 0.195974 -1.65897
4.67338 0.210974 -1.66197
4.67938 0.225974 -1.66497
4.66438 0.232974 -1.65897
4.66438 0.261974 -1.65997
4.67538 0.276974 -1.66397
4.66138 0.290974 -1.65897
4.67338 0.306974 -1.66397
4.65638 0.312974 -1.65797
4.67338 0.328974 -1.66497
4.65038 0.341974 -1.65697
4.66238 0.357974 -1.66197
4.65338 0.371974 -1.65897
4.65838 0.386974 -1.66097
4.66038 0.401974 -1.66197
4.65838 0.408974 -1.66197
4.66638 0.423974 -1.66497
4.66838 0.438974 -1.66697
4.66138 0.452974 -1.66397
4.65838 0.467974 -1.66397
4.64138 0.480974 -1.65797
4.66938 0.498974 -1.66897
4.64938 0.510974 -1.66197
4.65638 0.518974 -1.66497
4.64738 0.532974 -1.66197
4.64038 0.546974 -1.65997
4.64338 0.561974 -1.66197
4.64338 0.576974 -1.66297
4.64038 0.591974 -1.66197
4.62538 0.603974 -1.65697
4.65238 0.614974 -1.66797
4.63338 0.627974 -1.66197
4.65938 0.645974 -1.67197
4.62538 0.655974 -1.65997
4.64438 0.673974 -1.66797
4.62538 0.685974 -1.66197
4.63038 0.700974 -1.66397
4.62238 0.707974 -1.66197
4.62138 0.721974 -1.66197
4.61538 0.735974 -1.66097
4.63138 0.753974 -1.66797
4.61838 0.766974 -1.66397
4.61538 0.780974 -1.66397
4.60938 0.794974 -1.66197
4.61538 0.802974 -1.66497
4.60538 0.816974 -1.66197
4.60338 0.830974 -1.66197
4.59838 0.844974 -1.66197
4.60938 0.861974 -1.66697
4.59538 0.873974 -1.66197
4.60338 0.890974 -1.66697
4.59838 0.896974 -1.66497
4.60138 0.912974 -1.66697
4.58938 0.925974 -1.66397
4.58938 0.940974 -1.66497
4.59238 0.955974 -1.66697
4.59438 0.971974 -1.66897
4.58238 0.983974 -1.66597
4.58238 0.991974 -1.66697
4.56838 1.00397 -1.66197
4.57138 1.01997 -1.66397
4.56938 1.03397 -1.66497
4.57038 1.04897 -1.66697
4.56638 1.06397 -1.66697
4.55938 1.07697 -1.66497
4.55938 1.08497 -1.66597
4.55838 1.09997 -1.66697
4.56538 1.11697 -1.67097
4.55138 1.12797 -1.66697
4.56038 1.14597 -1.67197
4.54538 1.15697 -1.66697
4.54938 1.17297 -1.66997
4.53638 1.17797 -1.66597
4.54238 1.19397 -1.66897
4.53438 1.20797 -1.66797
4.54538 1.22597 -1.67397
4.52738 1.23597 -1.66797
4.53938 1.25497 -1.67397
4.54938 1.27297 -1.67997
4.52638 1.27397 -1.67197
4.53638 1.29197 -1.67697
4.54138 1.30897 -1.68097
4.52638 1.31997 -1.67697
4.54338 1.34097 -1.68497
4.53938 1.35497 -1.68497
4.52138 1.36497 -1.67897
4.53138 1.37597 -1.68397
4.51438 1.38597 -1.67897
4.51238 1.40097 -1.67997
4.51638 1.41797 -1.68397
4.50438 1.42997 -1.68097
4.50338 1.44497 -1.68197
4.48338 1.45397 -1.67597
4.48838 1.46397 -1.67897
4.48338 1.47797 -1.67897
4.48638 1.49397 -1.68097
4.48138 1.50797 -1.68097
4.47638 1.52197 -1.68097
4.47138 1.53597 -1.68097
4.47038 1.55097 -1.68297
4.47538 1.56097 -1.68597
4.45238 1.56897 -1.67897
4.45838 1.58697 -1.68297
4.44738 1.59897 -1.68097
4.44838 1.61497 -1.68297
4.44138 1.62797 -1.68197
4.44338 1.64397 -1.68497
4.42838 1.64697 -1.67997
4.42638 1.66197 -1.68097
4.41438 1.67297 -1.67897
4.41738 1.68997 -1.68197
4.41238 1.70397 -1.68197
4.40838 1.71897 -1.68297
4.39238 1.72897 -1.67897
4.39738 1.73797 -1.68097
4.39138 1.75197 -1.68097
4.39438 1.76897 -1.68497
4.38538 1.78197 -1.68397
4.38138 1.79597 -1.68397
4.37738 1.81097 -1.68497
4.36138 1.81997 -1.68097
4.36438 1.82897 -1.68297
4.34438 1.83697 -1.67697
4.36438 1.86197 -1.68797
4.34638 1.86997 -1.68297
4.34638 1.88597 -1.68497
4.33438 1.89697 -1.68297
4.32838 1.91097 -1.68297
4.32938 1.91897 -1.68397
4.32638 1.93397 -1.68597
4.31538 1.94597 -1.68397
4.30038 1.95497 -1.67997
4.30838 1.97497 -1.68597
4.29338 1.98497 -1.68197
4.28338 1.99697 -1.68097
4.28738 2.00697 -1.68397
4.29138 2.02497 -1.68797
4.26938 2.03097 -1.68097
4.28338 2.05397 -1.68997
4.26038 2.05897 -1.68297
4.25738 2.07397 -1.68397
4.26238 2.09297 -1.68897
4.24438 2.09297 -1.68297
4.24738 2.11097 -1.68697
4.25238 2.12997 -1.69197
4.23238 2.13697 -1.68597
4.23238 2.15397 -1.68897
4.23238 2.16997 -1.69197
4.21738 2.17897 -1.68897
4.20838 2.18297 -1.68597
4.22038 2.20597 -1.69397
4.18938 2.20697 -1.68397
4.19938 2.22897 -1.69097
4.20738 2.24997 -1.69797
4.18738 2.25597 -1.69197
4.18838 2.27397 -1.69597
4.18138 2.27897 -1.69397
4.16938 2.28897 -1.69197
4.16038 2.30097 -1.69097
4.16238 2.31997 -1.69597
4.14938 2.32897 -1.69297
4.14538 2.34397 -1.69397
4.16238 2.37097 -1.70497
4.13238 2.36197 -1.69397
4.13438 2.38097 -1.69797
4.12538 2.39297 -1.69697
4.11938 2.40697 -1.69797
4.11338 2.42097 -1.69897
4.12238 2.44297 -1.70597
4.09538 2.44497 -1.69697
4.11038 2.46297 -1.70597
4.09438 2.47097 -1.70197
4.06938 2.47297 -1.69397
4.07638 2.49397 -1.70097
4.07438 2.51097 -1.70397
4.05738 2.51797 -1.69897
4.05038 2.53197 -1.69997
4.04938 2.53997 -1.70097
4.04138 2.55297 -1.70097
4.03338 2.56497 -1.70097
4.02238 2.57597 -1.69997
4.00638 2.58397 -1.69597
4.00038 2.59697 -1.69697
4.00738 2.61997 -1.70397
3.98338 2.61297 -1.69497
3.97138 2.62397 -1.69397
3.98038 2.64697 -1.70097
3.96438 2.65497 -1.69797
3.96238 2.67097 -1.70097
3.94738 2.67897 -1.69797
3.93638 2.68997 -1.69597
3.93038 2.69497 -1.69597
3.92138 2.70697 -1.69597
3.92438 2.72697 -1.70097
3.90638 2.73297 -1.69597
3.89338 2.74197 -1.69397
3.89238 2.75897 -1.69797
3.89438 2.76997 -1.70097
3.88538 2.78197 -1.70097
3.87038 2.78997 -1.69797
3.87038 2.80897 -1.70197
3.86838 2.82497 -1.70497
3.85338 2.83297 -1.70197
3.84538 2.84597 -1.70297
3.83638 2.84897 -1.70097
3.83338 2.86497 -1.70397
3.82438 2.87697 -1.70397
3.81538 2.88897 -1.70397
3.80938 2.90397 -1.70497
3.79738 2.91297 -1.70397
3.79138 2.92697 -1.70497
3.78038 2.93797 -1.70397
3.78038 2.94797 -1.70597
3.77238 2.96097 -1.70697
3.76438 2.97397 -1.70797
3.75638 2.98697 -1.70797
3.76238 3.00997 -1.71597
3.74238 3.01397 -1.71097
3.74138 3.03197 -1.71497
3.72938 3.03197 -1.71097
3.71938 3.04397 -1.71097
3.71638 3.05997 -1.71397
3.70238 3.06897 -1.71197
3.69838 3.08497 -1.71497
3.68738 3.09497 -1.71397
3.67838 3.10797 -1.71497
3.67138 3.11097 -1.71297
3.66838 3.12897 -1.71697
3.66038 3.14197 -1.71797
3.65138 3.15397 -1.71797
3.63638 3.16097 -1.71597
3.61938 3.19697 -1.71997
3.60938 3.20797 -1.71997
3.50838 3.33197 -1.72297
2.90538 3.90197 -1.73297
2.89638 3.91497 -1.73497
2.88138 3.92097 -1.73397
2.86638 3.92597 -1.73197
2.84638 3.92397 -1.72697
2.83338 3.93297 -1.72697
2.81638 3.92297 -1.71997
2.80838 3.93697 -1.72297
2.79638 3.94597 -1.72297
3.52238 -2.86003 -1.60897
3.52838 -2.84603 -1.60797
3.53438 -2.83303 -1.60597
3.54538 -2.82303 -1.60697
3.56138 -2.81803 -1.61097
3.56538 -2.80303 -1.60797
3.57738 -2.80303 -1.61197
3.57738 -2.78503 -1.60797
3.58638 -2.77403 -1.60797
3.59738 -2.76503 -1.60897
3.60238 -2.75003 -1.60697
3.61038 -2.73903 -1.60697
3.62538 -2.73203 -1.60997
3.62238 -2.72103 -1.60597
3.63538 -2.71303 -1.60797
3.64838 -2.70403 -1.61097
3.65038 -2.68903 -1.60797
3.66338 -2.68003 -1.60997
3.67738 -2.67303 -1.61297
3.67838 -2.65603 -1.60897
3.68438 -2.65203 -1.60997
3.69138 -2.63903 -1.60897
3.69438 -2.62403 -1.60697
3.70338 -2.61203 -1.60697
3.71838 -2.60603 -1.61097
3.73138 -2.59803 -1.61297
3.73838 -2.58503 -1.61197
3.74638 -2.58203 -1.61397
3.74738 -2.56503 -1.61097
3.75538 -2.55303 -1.61097
3.77738 -2.55103 -1.61697
3.78038 -2.53603 -1.61497
3.78338 -2.52103 -1.61297
3.79638 -2.51203 -1.61497
3.80238 -2.50703 -1.61497
3.80838 -2.49403 -1.61497
3.82538 -2.48803 -1.61897
3.82538 -2.47103 -1.61497
3.84138 -2.46403 -1.61897
3.85638 -2.45703 -1.62297
3.86138 -2.44303 -1.62097
3.85738 -2.43203 -1.61797
3.86938 -2.42303 -1.61997
3.86738 -2.40503 -1.61497
3.87838 -2.39503 -1.61697
3.89338 -2.38703 -1.61997
3.89838 -2.37303 -1.61897
3.90538 -2.36103 -1.61897
3.91538 -2.35903 -1.62197
3.91838 -2.34303 -1.61997
3.92838 -2.33303 -1.62097
3.94238 -2.32503 -1.62397
3.94038 -2.30603 -1.61997
3.94838 -2.29503 -1.61997
3.96538 -2.28803 -1.62497
3.96638 -2.28003 -1.62297
3.97038 -2.26603 -1.62197
3.98638 -2.25903 -1.62597
3.98738 -2.24303 -1.62297
3.99738 -2.23203 -1.62497
4.01438 -2.22503 -1.62897
4.01038 -2.20603 -1.62397
4.01338 -2.20003 -1.62397
4.02238 -2.18803 -1.62497
4.03038 -2.17603 -1.62497
4.03738 -2.16303 -1.62497
4.05838 -2.15903 -1.63197
4.05438 -2.14003 -1.62697
4.07038 -2.13203 -1.63097
4.06538 -2.12203 -1.62797
4.07038 -2.10803 -1.62697
4.08238 -2.09803 -1.62897
4.09438 -2.08703 -1.63097
4.09038 -2.06903 -1.62697
4.10738 -2.06203 -1.63097
4.10838 -2.04603 -1.62897
4.11338 -2.04103 -1.62997
4.11838 -2.02703 -1.62897
4.13238 -2.01803 -1.63297
4.13538 -2.00303 -1.63097
4.13838 -1.98903 -1.62997
4.14338 -1.97503 -1.62897
4.15638 -1.96503 -1.63197
4.16538 -1.96203 -1.63497
4.17438 -1.93403 -1.63297
4.67538 -0.149026 -1.66197
4.67538 -0.134026 -1.66197
4.67238 -0.105026 -1.66097
4.67938 -0.0610257 -1.66297
4.67738 -0.0530257 -1.66197
4.68338 -0.0240257 -1.66397
4.67438 -0.00902569 -1.66097
4.54938 0.0149743 -1.66197
4.54738 0.0289743 -1.66097
4.55638 0.0439743 -1.66497
4.55438 0.0789743 -1.66397
4.54938 0.107974 -1.66297
4.55838 0.136974 -1.66697
4.55038 0.186974 -1.66397
4.55438 0.200974 -1.66597
4.55538 0.215974 -1.66697
4.55038 0.229974 -1.66497
4.56138 0.244974 -1.66897
4.54538 0.257974 -1.66397
4.55238 0.272974 -1.66697
4.55538 0.279974 -1.66797
4.55438 0.294974 -1.66797
4.55938 0.308974 -1.66997
4.54338 0.321974 -1.66397
4.53138 0.335974 -1.65997
4.54538 0.365974 -1.66697
4.54538 0.372974 -1.66697
4.54938 0.387974 -1.66897
4.55338 0.401974 -1.67097
4.53938 0.415974 -1.66597
4.53638 0.429974 -1.66497
4.54038 0.443974 -1.66697
4.53538 0.457974 -1.66597
4.52338 0.463974 -1.66097
4.54238 0.480974 -1.66897
4.54238 0.494974 -1.66997
4.51938 0.506974 -1.66097
4.53538 0.522974 -1.66897
4.52538 0.535974 -1.66497
4.54138 0.552974 -1.67197
4.52738 0.557974 -1.66697
4.52838 0.572974 -1.66797
4.51538 0.585974 -1.66397
4.51538 0.599974 -1.66397
4.51338 0.613974 -1.66397
4.51338 0.628974 -1.66497
4.51838 0.643974 -1.66797
4.51038 0.649974 -1.66497
4.51738 0.664974 -1.66897
4.50938 0.678974 -1.66697
4.50538 0.692974 -1.66597
4.51038 0.707974 -1.66897
4.51038 0.721974 -1.66897
4.50838 0.736974 -1.66897
4.51438 0.744974 -1.67197
4.49538 0.755974 -1.66597
4.49438 0.770974 -1.66697
4.48338 0.782974 -1.66297
4.50638 0.801974 -1.67297
4.48738 0.812974 -1.66697
4.47938 0.825974 -1.66397
4.48538 0.833974 -1.66697
4.48438 0.848974 -1.66797
4.47938 0.862974 -1.66697
4.48238 0.877974 -1.66897
4.48738 0.892974 -1.67197
4.47138 0.904974 -1.66697
4.47438 0.919974 -1.66897
4.47838 0.927974 -1.67197
4.48638 0.944974 -1.67597
4.47538 0.956974 -1.67297
4.47238 0.970974 -1.67297
4.45538 0.981974 -1.66697
4.47438 1.00097 -1.67597
4.45638 1.01197 -1.66997
4.45438 1.01897 -1.66997
4.45138 1.03297 -1.66997
4.45338 1.04797 -1.67197
4.44638 1.06097 -1.67097
4.44338 1.07497 -1.67097
4.44938 1.09097 -1.67497
4.43838 1.10297 -1.67197
4.45238 1.11397 -1.67797
4.44238 1.12697 -1.67497
4.43638 1.13997 -1.67497
4.44338 1.15697 -1.67897
4.41538 1.16397 -1.66897
4.41538 1.17897 -1.66997
4.42038 1.19497 -1.67397
4.40938 1.19997 -1.66997
4.41438 1.21597 -1.67397
4.41738 1.23197 -1.67697
4.42638 1.24897 -1.68197
4.40838 1.25897 -1.67597
4.40638 1.27297 -1.67697
4.41038 1.29697 -1.68097
4.42038 1.31597 -1.68697
4.41238 1.34297 -1.68697
4.40638 1.35697 -1.68597
4.39238 1.38297 -1.68397
4.39738 1.39197 -1.68697
4.38438 1.40297 -1.68297
4.37938 1.41597 -1.68297
4.36638 1.42697 -1.67997
4.37038 1.44397 -1.68297
4.36138 1.45597 -1.68097
4.36338 1.47197 -1.68397
4.36638 1.48097 -1.68597
4.34738 1.48897 -1.67997
4.34638 1.50397 -1.68197
4.34538 1.51897 -1.68297
4.33338 1.52997 -1.67997
4.34038 1.54797 -1.68497
4.33738 1.56297 -1.68597
4.33038 1.56797 -1.68397
4.31938 1.57897 -1.68197
4.32738 1.59697 -1.68697
4.31538 1.60797 -1.68397
4.32538 1.62797 -1.69097
4.30638 1.63597 -1.68497
4.30138 1.64997 -1.68497
4.29338 1.65397 -1.68297
4.30438 1.67397 -1.68897
4.28438 1.68197 -1.68297
4.28638 1.69797 -1.68597
4.27638 1.70997 -1.68397
4.26038 1.71897 -1.67997
4.28538 1.74497 -1.69297
4.27138 1.74697 -1.68797
4.25838 1.75697 -1.68497
4.25438 1.77097 -1.68497
4.25438 1.78697 -1.68797
4.25038 1.80097 -1.68797
4.24438 1.81397 -1.68797
4.23738 1.82697 -1.68797
4.22938 1.83097 -1.68497
4.22838 1.84697 -1.68797
4.22138 1.85897 -1.68697
4.22338 1.87597 -1.69097
4.20738 1.88497 -1.68597
4.19638 1.89597 -1.68397
4.19238 1.90997 -1.68497
4.21338 1.92697 -1.69497
4.17638 1.92597 -1.68197
4.18238 1.94497 -1.68697
4.17638 1.95797 -1.68697
4.17038 1.97097 -1.68697
4.17238 1.98797 -1.69097
4.17238 2.00497 -1.69297
4.15638 2.00497 -1.68797
4.16138 2.02397 -1.69297
4.15838 2.03797 -1.69397
4.13538 2.04297 -1.68697
4.13538 2.05897 -1.68997
4.13438 2.07497 -1.69197
4.11938 2.08397 -1.68797
4.12538 2.09497 -1.69297
4.13038 2.11397 -1.69797
4.10138 2.11497 -1.68797
4.10538 2.13397 -1.69297
4.11238 2.15397 -1.69897
4.09538 2.16197 -1.69397
4.08838 2.17397 -1.69397
4.08338 2.17997 -1.69297
4.07838 2.19397 -1.69397
4.07038 2.20597 -1.69297
4.06838 2.22097 -1.69597
4.06938 2.23797 -1.69897
4.06538 2.25297 -1.70097
4.05138 2.26197 -1.69797
4.04938 2.26897 -1.69897
4.02938 2.27497 -1.69297
4.03838 2.29697 -1.69997
4.03438 2.31097 -1.70097
4.01738 2.31797 -1.69697
4.02138 2.33697 -1.70197
4.00938 2.34697 -1.69997
4.00738 2.35397 -1.70097
4.00638 2.37097 -1.70397
4.00238 2.38497 -1.70497
3.99438 2.39797 -1.70497
3.98238 2.40697 -1.70297
3.98238 2.42497 -1.70697
3.97838 2.43097 -1.70697
3.94638 2.46197 -1.70197
3.94938 2.48197 -1.70697
3.92738 2.48497 -1.70097
3.93038 2.51297 -1.70697
3.90438 2.53097 -1.70297
3.90338 2.54797 -1.70597
3.89338 2.57597 -1.70897
3.88038 2.58497 -1.70697
3.86138 2.61697 -1.70697
3.85438 2.62997 -1.70797
3.83538 2.63497 -1.70297
3.82738 2.64697 -1.70297
3.82938 2.66597 -1.70797
3.82638 2.68097 -1.70997
3.80638 2.67697 -1.70297
3.80738 2.69497 -1.70697
3.79138 2.70197 -1.70397
3.78438 2.71497 -1.70397
3.77738 2.72797 -1.70497
3.78238 2.74897 -1.71197
3.76838 2.75797 -1.70897
3.76738 2.76597 -1.71097
3.75438 2.79297 -1.71297
3.73538 2.79697 -1.70797
3.72838 2.80997 -1.70897
3.70838 2.84097 -1.70997
3.70838 2.85997 -1.71497
3.69938 2.87097 -1.71497
3.68338 2.87697 -1.71097
3.68038 2.89297 -1.71397
3.66038 2.92497 -1.71497
3.65238 2.93697 -1.71597
3.64438 2.94997 -1.71697
3.62638 2.95397 -1.71197
3.57538 3.03597 -1.71697
3.55238 3.05497 -1.71497
3.54938 3.07197 -1.71897
3.51538 3.11097 -1.71897
2.74538 3.85797 -1.73497
2.72438 3.85297 -1.72797
2.70638 3.85397 -1.72497
2.69038 3.85597 -1.72197
2.67638 3.84897 -1.71697
3.37038 -2.86903 -1.61397
3.37738 -2.85703 -1.61297
3.38838 -2.84803 -1.61397
3.39138 -2.83203 -1.61097
3.40438 -2.83403 -1.61597
3.41238 -2.82203 -1.61497
3.41038 -2.80303 -1.60997
3.42638 -2.79803 -1.61297
3.44538 -2.79603 -1.61897
3.44738 -2.77903 -1.61497
3.45538 -2.76803 -1.61497
3.46438 -2.76603 -1.61697
3.46838 -2.75203 -1.61497
3.47638 -2.74003 -1.61397
3.49038 -2.73403 -1.61697
3.50038 -2.72403 -1.61797
3.50438 -2.70903 -1.61597
3.51038 -2.69603 -1.61397
3.50838 -2.68603 -1.61097
3.51738 -2.67503 -1.61097
3.53438 -2.67103 -1.61597
3.54238 -2.66003 -1.61597
3.54038 -2.64103 -1.61097
3.56538 -2.64203 -1.61897
3.56038 -2.62103 -1.61197
3.56138 -2.61303 -1.61097
3.57838 -2.60803 -1.61497
3.58638 -2.59703 -1.61497
3.59638 -2.58703 -1.61597
3.60438 -2.57503 -1.61597
3.60438 -2.55903 -1.61197
3.60938 -2.54503 -1.61097
3.62438 -2.54703 -1.61597
3.63738 -2.53903 -1.61797
3.63838 -2.52303 -1.61497
3.64638 -2.51203 -1.61497
3.66238 -2.50503 -1.61897
3.65438 -2.48303 -1.61097
3.67138 -2.47803 -1.61597
3.67138 -2.46903 -1.61297
3.68838 -2.46403 -1.61797
3.70338 -2.45703 -1.62097
3.70838 -2.44403 -1.61997
3.72038 -2.43503 -1.62197
3.72138 -2.41903 -1.61897
3.72338 -2.40403 -1.61597
3.73938 -2.40603 -1.62197
3.75138 -2.39703 -1.62397
3.75338 -2.38103 -1.62097
3.75438 -2.36603 -1.61897
3.77738 -2.36403 -1.62597
3.77638 -2.34703 -1.62197
3.78438 -2.33503 -1.62197
3.79538 -2.33403 -1.62597
3.79038 -2.31403 -1.61997
3.80438 -2.30603 -1.62297
3.80938 -2.29303 -1.62197
3.82638 -2.28703 -1.62697
3.82538 -2.27003 -1.62297
3.84238 -2.26403 -1.62697
3.83338 -2.25003 -1.62097
3.84338 -2.24003 -1.62297
3.85238 -2.22903 -1.62397
3.87238 -2.22403 -1.62897
3.86238 -2.20303 -1.62197
3.87938 -2.19603 -1.62697
3.88738 -2.18503 -1.62697
3.89438 -2.18103 -1.62897
3.89838 -2.16603 -1.62697
3.90138 -2.15203 -1.62597
3.91638 -2.14503 -1.62897
3.92638 -2.13403 -1.63097
3.92338 -2.11603 -1.62697
3.92538 -2.10103 -1.62397
3.93338 -2.09803 -1.62697
3.94438 -2.08803 -1.62897
3.95938 -2.08003 -1.63197
3.95438 -2.06203 -1.62697
3.97138 -2.05403 -1.63197
3.97938 -2.04303 -1.63197
3.99038 -2.02503 -1.63297
3.99838 -2.01303 -1.63397
4.00838 -2.00203 -1.63497
4.01038 -1.98803 -1.63397
4.02038 -1.97703 -1.63497
4.01838 -1.96003 -1.63197
4.03838 -1.93103 -1.63397
4.04138 -1.91703 -1.63197
4.04938 -1.90503 -1.63297
4.06138 -1.89503 -1.63597
4.54138 -0.185026 -1.66097
4.54938 -0.114026 -1.66297
4.54638 -0.0990257 -1.66097
4.54838 -0.0640257 -1.66197
4.54338 -0.0490257 -1.65997
4.54938 -0.0140257 -1.66197
4.35338 0.809974 -1.66997
4.36238 0.853974 -1.67697
4.36638 0.861974 -1.67897
4.35438 0.873974 -1.67597
4.35738 0.902974 -1.67897
4.35838 0.916974 -1.68097
4.35038 0.929974 -1.67897
4.35238 0.944974 -1.68097
4.34938 0.950974 -1.67997
4.33838 0.976974 -1.67797
4.32938 0.989974 -1.67597
4.33038 1.00397 -1.67697
4.33738 1.01997 -1.68197
4.33438 1.03397 -1.68197
4.33438 1.04097 -1.68197
4.31938 1.06597 -1.67897
4.32238 1.08097 -1.68197
4.31438 1.09397 -1.67897
4.31038 1.10697 -1.67897
4.31638 1.12297 -1.68297
4.30838 1.12797 -1.68097
4.31038 1.14297 -1.68297
4.30538 1.15597 -1.68197
4.29438 1.18197 -1.68097
4.29438 1.19697 -1.68197
4.29738 1.21197 -1.68497
4.29538 1.21897 -1.68497
4.26838 1.33497 -1.68797
4.25538 1.37597 -1.68797
4.23738 1.38397 -1.68197
4.24938 1.39597 -1.68797
4.23738 1.40697 -1.68497
4.24038 1.42197 -1.68797
4.23138 1.44897 -1.68797
4.23038 1.46297 -1.68997
4.21338 1.47997 -1.68497
4.21138 1.49397 -1.68697
4.20738 1.52197 -1.68897
4.20138 1.53497 -1.68797
4.20038 1.56497 -1.69197
4.18738 1.56697 -1.68797
4.18038 1.59497 -1.68897
4.17238 1.60697 -1.68797
4.17738 1.62397 -1.69197
4.15838 1.63197 -1.68597
4.16938 1.65097 -1.69297
4.16238 1.65597 -1.69097
4.15038 1.66597 -1.68797
4.14538 1.67897 -1.68797
4.15038 1.69597 -1.69297
4.14138 1.70797 -1.69097
4.13638 1.72097 -1.69097
4.11738 1.73597 -1.68697
4.10738 1.74697 -1.68497
4.11038 1.76297 -1.68797
4.11138 1.77897 -1.69097
4.10938 1.79397 -1.69297
4.10538 1.80697 -1.69397
4.09938 1.81997 -1.69397
4.10038 1.82797 -1.69497
4.09438 1.84097 -1.69497
4.07638 1.84897 -1.68997
4.07938 1.86497 -1.69397
4.07338 1.87797 -1.69397
4.06238 1.88797 -1.69097
4.06538 1.90497 -1.69497
4.06838 1.91497 -1.69797
4.04938 1.92097 -1.69197
4.05538 1.93897 -1.69697
4.04538 1.94997 -1.69597
4.03438 1.96097 -1.69397
4.02838 1.97297 -1.69397
4.03038 1.98997 -1.69697
4.01738 1.99197 -1.69297
4.00438 2.00097 -1.68997
4.01438 2.02197 -1.69697
4.01138 2.03597 -1.69897
3.99638 2.04397 -1.69497
3.99538 2.05897 -1.69697
3.99038 2.07297 -1.69797
3.99338 2.08197 -1.70097
3.98538 2.09397 -1.69997
3.98038 2.10797 -1.70097
3.97438 2.11997 -1.70097
3.95438 2.12597 -1.69497
3.95538 2.16597 -1.70297
3.94238 2.17497 -1.69997
3.93438 2.20297 -1.70297
3.67938 2.64597 -1.71197
3.66938 2.65697 -1.71197
3.63438 2.71097 -1.71297
3.61138 2.72897 -1.70997
3.59238 2.76797 -1.71397
3.58138 2.77697 -1.71197
3.54638 2.83097 -1.71497
3.51638 2.86197 -1.71297
3.37938 3.03597 -1.71697
3.37438 3.04997 -1.71897
2.52638 3.81797 -1.73097
2.50238 3.80897 -1.72297
2.48938 3.81497 -1.72197
3.19338 -2.88503 -1.61997
3.20638 -2.87903 -1.62297
3.21538 -2.86903 -1.62297
3.21938 -2.85403 -1.61997
3.23538 -2.84103 -1.62097
3.24438 -2.83103 -1.62097
3.26338 -2.81203 -1.62197
3.27038 -2.80003 -1.62097
3.28838 -2.78803 -1.62297
3.28838 -2.77103 -1.61897
3.30638 -2.76903 -1.62397
3.31138 -2.75503 -1.62197
3.32138 -2.74603 -1.62297
3.33538 -2.72203 -1.62097
3.34238 -2.72003 -1.62297
3.34938 -2.69003 -1.61697
3.36238 -2.68303 -1.61997
3.37838 -2.67903 -1.62297
3.37638 -2.66003 -1.61797
3.39538 -2.65703 -1.62297
3.39638 -2.65003 -1.62197
3.40138 -2.63703 -1.61997
3.40838 -2.62503 -1.61997
3.42538 -2.62103 -1.62397
3.41838 -2.59903 -1.61697
3.43538 -2.59503 -1.62097
3.44538 -2.58503 -1.62197
3.43938 -2.57203 -1.61697
3.45138 -2.56403 -1.61897
3.46438 -2.55703 -1.62097
3.46638 -2.54203 -1.61797
3.46938 -2.52703 -1.61597
3.49538 -2.53003 -1.62497
3.49338 -2.51103 -1.61997
3.50038 -2.50803 -1.62097
3.50438 -2.49403 -1.61997
3.51238 -2.48303 -1.61997
3.52338 -2.47503 -1.62097
3.53438 -2.46603 -1.62297
3.53938 -2.45203 -1.62097
3.54638 -2.44103 -1.62097
3.55338 -2.43803 -1.62297
3.55338 -2.42103 -1.61897
3.57038 -2.41603 -1.62297
3.59038 -2.41403 -1.62897
3.59038 -2.39703 -1.62597
3.59438 -2.38403 -1.62397
3.60038 -2.37103 -1.62297
3.60438 -2.36603 -1.62297
3.61738 -2.35903 -1.62597
3.62238 -2.34503 -1.62497
3.62338 -2.33003 -1.62197
3.63638 -2.32203 -1.62497
3.64438 -2.31103 -1.62497
3.65138 -2.29903 -1.62497
3.65838 -2.29603 -1.62597
3.66938 -2.28703 -1.62897
3.67238 -2.27303 -1.62597
3.67738 -2.26003 -1.62597
3.68038 -2.24603 -1.62297
3.69538 -2.23903 -1.62697
3.70338 -2.22803 -1.62797
3.71638 -2.22803 -1.63197
3.71538 -2.21203 -1.62897
3.71938 -2.19803 -1.62697
3.72938 -2.18803 -1.62897
3.74238 -2.18003 -1.63197
3.74438 -2.16603 -1.62897
3.74338 -2.14903 -1.62597
3.75638 -2.14903 -1.62997
3.76838 -2.14003 -1.63197
3.76838 -2.12503 -1.62897
3.78138 -2.11603 -1.63197
3.79338 -2.09203 -1.63197
3.80138 -2.08103 -1.63197
3.80638 -2.07603 -1.63297
3.81238 -2.06403 -1.63297
3.81938 -2.05203 -1.63297
3.82538 -2.04003 -1.63297
3.83338 -2.02803 -1.63397
4.19738 1.13797 -1.68297
4.18838 1.15697 -1.68197
4.19038 1.18597 -1.68597
4.18038 1.23297 -1.68697
4.17638 1.24597 -1.68697
4.15138 1.34597 -1.68897
4.14038 1.35597 -1.68597
4.14238 1.37197 -1.68897
4.13638 1.38397 -1.68897
4.12038 1.39297 -1.68297
4.12338 1.40097 -1.68597
4.11638 1.42797 -1.68597
4.11238 1.45497 -1.68897
4.10438 1.46697 -1.68697
4.09738 1.47897 -1.68597
4.09538 1.48597 -1.68597
4.09538 1.50097 -1.68897
4.08638 1.51197 -1.68597
4.08838 1.52697 -1.68897
4.08138 1.53897 -1.68897
4.06938 1.54897 -1.68597
4.05238 1.55697 -1.67997
4.05338 1.56497 -1.68197
4.05538 1.58097 -1.68497
4.05038 1.59297 -1.68497
4.05238 1.60897 -1.68797
4.04738 1.62097 -1.68797
4.04438 1.63497 -1.68897
4.02738 1.64997 -1.68497
4.01738 1.66097 -1.68297
4.01538 1.67497 -1.68397
4.01738 1.68997 -1.68697
4.01338 1.70397 -1.68797
3.99438 1.70997 -1.68197
3.98738 1.72197 -1.68097
3.98838 1.72997 -1.68297
3.98638 1.74397 -1.68397
3.99238 1.76197 -1.68897
3.97838 1.77097 -1.68597
3.98438 1.78797 -1.69097
3.97038 1.79697 -1.68697
3.96238 1.80097 -1.68497
3.98438 1.82597 -1.69697
3.95438 1.82697 -1.68597
3.95438 1.84197 -1.68897
3.95838 1.85897 -1.69297
3.94438 1.86797 -1.68897
3.94138 1.88197 -1.69097
3.92538 1.88197 -1.68497
3.92238 1.89497 -1.68597
3.92438 1.91197 -1.68997
3.93738 1.93297 -1.69897
3.91338 1.95197 -1.69297
3.88538 1.95297 -1.68297
3.89538 2.01197 -1.69797
3.88038 2.01997 -1.69397
3.86138 2.02597 -1.68797
3.86138 2.05697 -1.69397
3.85338 2.05997 -1.69197
3.84038 2.09997 -1.69497
3.83338 2.11197 -1.69497
3.83038 2.12597 -1.69597
3.81538 2.13297 -1.69297
3.82138 2.15997 -1.69997
3.81138 2.17097 -1.69897
3.80538 2.19897 -1.70197
3.78438 2.20297 -1.69597
3.79138 2.22297 -1.70197
3.77938 2.23997 -1.70197
3.77738 2.25497 -1.70397
3.75338 2.29697 -1.70497
3.53438 2.64997 -1.71197
3.49738 2.68297 -1.70797
3.49738 2.70097 -1.71197
3.48938 2.71197 -1.71197
3.47538 2.71797 -1.70897
3.46538 2.72797 -1.70897
3.44738 2.74997 -1.70897
3.45038 2.76097 -1.71197
3.43738 2.78597 -1.71497
3.42038 2.78997 -1.70997
3.40638 2.81497 -1.71197
3.40338 2.82997 -1.71497
3.39738 2.83397 -1.71497
3.38738 2.84397 -1.71397
3.37538 2.85197 -1.71197
3.35738 2.85397 -1.70697
3.36238 2.87697 -1.71497
3.35538 2.88997 -1.71597
3.33638 2.89197 -1.71097
3.33538 2.89997 -1.71197
3.32138 2.90597 -1.70997
3.32338 2.92697 -1.71597
3.30338 2.92697 -1.70997
3.29138 2.93497 -1.70897
3.28838 2.96897 -1.71697
3.27638 2.96797 -1.71297
3.26038 2.99097 -1.71497
3.24838 2.99897 -1.71297
3.24738 3.01697 -1.71797
3.23438 3.02397 -1.71597
3.21838 3.02797 -1.71197
3.22338 3.04197 -1.71797
3.20538 3.04497 -1.71297
