3.39412 -3.035 0.105259
3.43712 -3.035 0.104259
3.46112 -3.037 0.104259
3.47812 -3.033 0.103259
3.51512 -3.027 0.103259
3.54312 -3.022 0.102259
3.57412 -3.029 0.102259
3.59112 -3.024 0.102259
3.60812 -3.02 0.101259
3.62812 -3.017 0.101259
3.66912 -3.022 0.100259
3.68912 -3.019 0.100259
3.70412 -3.013 0.100259
3.72812 -3.012 0.100259
3.73712 -3.001 0.100259
3.76712 -3.005 0.0992591
3.78612 -3.011 0.0992591
3.79712 -3 0.0992591
3.82612 -3.004 0.0982591
3.84212 -2.997 0.0982591
3.87012 -3 0.0972591
3.88912 -2.995 0.0972591
3.90812 -2.99 0.0972591
3.92912 -2.996 0.0972591
3.95412 -2.996 0.0962591
3.97412 -2.992 0.0962591
3.99812 -2.99 0.0952591
4.02512 -2.991 0.0952591
4.04612 -2.987 0.0952591
4.07112 -2.986 0.0942591
4.08212 -2.984 0.0942591
0.0201161 -3.281 0.114259
0.0301161 -3.281 0.114259
0.0461161 -3.281 0.114259
0.0561161 -3.273 0.114259
0.0661161 -3.267 0.115259
0.0761161 -3.275 0.114259
0.0871161 -3.272 0.114259
0.102116 -3.282 0.114259
0.112116 -3.271 0.114259
0.143116 -3.27 0.114259
0.168116 -3.265 0.115259
0.178116 -3.261 0.115259
0.199116 -3.259 0.115259
0.245116 -3.256 0.115259
0.296116 -3.254 0.115259
0.312116 -3.253 0.115259
0.332116 -3.252 0.115259
0.343116 -3.251 0.115259
0.353116 -3.25 0.115259
0.362116 -3.245 0.115259
0.368116 -3.247 0.115259
0.389116 -3.25 0.114259
0.420116 -3.25 0.114259
0.455116 -3.242 0.114259
0.477116 -3.247 0.114259
0.486116 -3.237 0.114259
0.503116 -3.245 0.114259
0.522116 -3.234 0.114259
0.544116 -3.242 0.114259
0.565116 -3.244 0.114259
0.569116 -3.234 0.114259
0.580116 -3.24 0.114259
0.589116 -3.23 0.114259
0.601116 -3.236 0.114259
0.638116 -3.235 0.114259
0.648116 -3.237 0.114259
0.658116 -3.231 0.114259
0.667116 -3.223 0.114259
0.679116 -3.233 0.114259
0.690116 -3.231 0.114259
0.694116 -3.226 0.114259
0.706116 -3.233 0.113259
0.716116 -3.229 0.114259
0.738116 -3.234 0.113259
0.749116 -3.232 0.113259
0.759116 -3.229 0.113259
0.767116 -3.221 0.113259
0.775116 -3.232 0.113259
0.807116 -3.228 0.113259
0.815116 -3.22 0.113259
0.826116 -3.219 0.113259
0.838116 -3.224 0.113259
0.842116 -3.217 0.113259
0.853116 -3.218 0.113259
0.866116 -3.227 0.113259
0.875116 -3.221 0.113259
0.913116 -3.22 0.112259
0.925116 -3.221 0.112259
0.934116 -3.216 0.112259
0.944116 -3.214 0.112259
0.964116 -3.208 0.112259
0.983116 -3.214 0.112259
0.992116 -3.207 0.112259
1.02312 -3.2 0.112259
1.04212 -3.208 0.112259
1.05012 -3.197 0.112259
1.06412 -3.205 0.112259
1.08512 -3.201 0.112259
1.09912 -3.209 0.111259
1.11012 -3.209 0.111259
1.11612 -3.194 0.112259
1.12412 -3.202 0.111259
1.13812 -3.208 0.111259
1.14312 -3.191 0.111259
1.15912 -3.202 0.111259
1.17012 -3.202 0.111259
1.17812 -3.193 0.111259
1.20012 -3.204 0.111259
1.20812 -3.197 0.111259
1.22112 -3.2 0.110259
1.24012 -3.189 0.111259
1.25412 -3.196 0.110259
1.26112 -3.198 0.110259
1.26812 -3.186 0.110259
1.29212 -3.189 0.110259
2.37712 -3.118 0.0982591
2.38612 -3.109 0.0982591
2.41012 -3.101 0.0972591
2.44412 -3.113 0.0972591
2.45812 -3.111 0.0962591
2.48912 -3.11 0.0962591
2.50012 -3.103 0.0962591
2.51412 -3.1 0.0962591
2.53212 -3.093 0.0962591
2.55612 -3.102 0.0952591
2.57112 -3.1 0.0952591
2.58712 -3.099 0.0942591
2.59812 -3.093 0.0942591
2.62112 -3.1 0.0942591
2.61812 -3.087 0.0942591
2.65512 -3.091 0.0932591
2.67212 -3.09 0.0932591
2.69112 -3.092 0.0932591
2.71012 -3.094 0.0932591
2.71112 -3.077 0.0932591
2.72312 -3.08 0.0932591
2.74712 -3.088 0.0922591
2.75812 -3.081 0.0922591
2.77912 -3.084 0.0922591
2.79912 -3.087 0.0912591
2.80112 -3.069 0.0912591
2.82512 -3.077 0.0912591
2.84112 -3.084 0.0902591
2.85512 -3.079 0.0902591
2.87312 -3.079 0.0902591
2.89212 -3.08 0.0902591
2.90612 -3.075 0.0892591
2.92712 -3.078 0.0892591
2.94512 -3.068 0.0892591
2.96812 -3.072 0.0882591
2.98812 -3.074 0.0882591
3.00112 -3.067 0.0882591
3.02512 -3.072 0.0872591
3.03812 -3.067 0.0872591
3.04812 -3.057 0.0872591
3.09812 -3.058 0.0862591
3.11912 -3.06 0.0862591
3.13412 -3.055 0.0862591
3.15412 -3.055 0.0852591
3.17612 -3.058 0.0852591
3.18612 -3.057 0.0852591
3.20512 -3.056 0.0842591
3.22112 -3.052 0.0842591
3.23812 -3.048 0.0842591
3.25512 -3.045 0.0842591
3.26712 -3.038 0.0832591
3.29912 -3.047 0.0832591
3.30512 -3.044 0.0832591
3.32612 -3.044 0.0822591
3.34512 -3.042 0.0822591
3.36512 -3.04 0.0812591
3.38212 -3.036 0.0812591
3.40812 -3.04 0.0812591
3.41712 -3.03 0.0812591
3.43412 -3.035 0.0802591
3.45112 -3.03 0.0802591
3.47612 -3.033 0.0792591
3.48712 -3.023 0.0792591
3.52412 -3.035 0.0782591
3.52712 -3.019 0.0792591
3.54912 -3.018 0.0782591
3.56812 -3.024 0.0782591
3.58812 -3.022 0.0772591
3.60812 -3.02 0.0772591
3.63612 -3.024 0.0762591
3.64212 -3.01 0.0772591
3.67212 -3.015 0.0762591
3.68912 -3.009 0.0762591
3.71112 -3.017 0.0752591
3.75512 -3.014 0.0742591
3.80212 -3.012 0.0732591
3.81212 -3 0.0732591
3.84312 -2.996 0.0732591
3.88012 -3.004 0.0722591
3.88712 -2.991 0.0722591
3.91812 -2.994 0.0712591
3.93612 -2.989 0.0712591
3.98712 -2.988 0.0702591
3.99812 -2.987 0.0702591
4.02712 -2.988 0.0692591
4.06712 -2.978 0.0682591
0.487116 -3.243 0.0942591
0.533116 -3.235 0.0942591
0.569116 -3.233 0.0942591
0.581116 -3.241 0.0942591
0.600116 -3.232 0.0942591
0.627116 -3.233 0.0942591
0.667116 -3.223 0.0942591
0.688116 -3.222 0.0942591
0.694116 -3.223 0.0942591
0.704116 -3.223 0.0942591
0.726116 -3.224 0.0942591
0.745116 -3.218 0.0942591
0.757116 -3.223 0.0932591
0.774116 -3.225 0.0932591
0.785116 -3.227 0.0932591
0.817116 -3.225 0.0932591
0.842116 -3.219 0.0932591
0.863116 -3.215 0.0932591
0.874116 -3.216 0.0932591
0.882116 -3.208 0.0932591
0.900116 -3.213 0.0932591
0.921116 -3.209 0.0932591
0.932116 -3.21 0.0922591
0.957116 -3.203 0.0922591
0.991116 -3.205 0.0922591
1.01112 -3.201 0.0922591
1.02112 -3.198 0.0922591
1.08512 -3.206 0.0912591
1.09212 -3.193 0.0912591
1.10412 -3.195 0.0912591
1.11112 -3.198 0.0912591
1.14412 -3.196 0.0912591
1.16512 -3.193 0.0912591
1.17112 -3.193 0.0912591
1.20612 -3.195 0.0902591
1.21512 -3.189 0.0902591
1.22412 -3.183 0.0902591
1.25212 -3.181 0.0902591
1.26412 -3.183 0.0902591
1.29912 -3.182 0.0892591
2.36112 -3.112 0.0742591
2.36812 -3.102 0.0742591
2.38512 -3.104 0.0742591
2.40212 -3.116 0.0732591
2.41512 -3.112 0.0732591
2.43212 -3.114 0.0732591
2.44612 -3.112 0.0732591
2.45012 -3.097 0.0732591
2.46812 -3.1 0.0732591
2.48412 -3.1 0.0722591
2.48912 -3.096 0.0722591
2.50512 -3.096 0.0722591
2.52312 -3.099 0.0712591
2.53212 -3.09 0.0722591
2.55412 -3.097 0.0712591
2.57212 -3.098 0.0702591
2.58512 -3.095 0.0702591
2.58912 -3.089 0.0702591
2.61212 -3.098 0.0702591
2.62512 -3.093 0.0702591
2.63812 -3.089 0.0692591
2.65412 -3.089 0.0692591
2.66512 -3.082 0.0692591
2.68712 -3.087 0.0682591
2.69412 -3.086 0.0682591
2.70512 -3.079 0.0682591
2.72712 -3.084 0.0682591
2.74312 -3.083 0.0672591
2.77012 -3.074 0.0672591
2.78412 -3.07 0.0672591
2.80012 -3.078 0.0662591
2.81612 -3.076 0.0662591
2.83512 -3.078 0.0652591
2.84512 -3.069 0.0652591
2.86212 -3.069 0.0652591
2.88012 -3.069 0.0652591
2.93312 -3.076 0.0632591
2.94012 -3.064 0.0632591
2.96512 -3.071 0.0632591
2.97812 -3.066 0.0632591
2.99112 -3.059 0.0622591
3.02312 -3.064 0.0622591
3.03412 -3.056 0.0622591
3.05012 -3.052 0.0612591
3.07212 -3.055 0.0612591
3.10412 -3.048 0.0602591
3.12912 -3.054 0.0592591
3.13812 -3.053 0.0592591
3.15312 -3.049 0.0592591
3.17312 -3.049 0.0592591
3.18512 -3.042 0.0582591
3.20612 -3.043 0.0582591
3.22712 -3.044 0.0572591
3.25912 -3.045 0.0572591
3.27612 -3.042 0.0562591
3.29412 -3.039 0.0562591
3.30812 -3.033 0.0562591
3.35412 -3.037 0.0552591
3.37112 -3.033 0.0542591
3.38712 -3.038 0.0542591
3.39712 -3.028 0.0542591
3.41712 -3.026 0.0532591
3.44112 -3.029 0.0532591
3.46412 -3.03 0.0522591
3.48112 -3.026 0.0522591
3.49812 -3.021 0.0512591
3.51212 -3.024 0.0512591
3.54112 -3.03 0.0502591
3.55212 -3.02 0.0502591
3.57812 -3.023 0.0492591
3.59512 -3.018 0.0492591
3.61612 -3.016 0.0492591
3.64812 -3.014 0.0482591
3.67012 -3.013 0.0472591
3.68712 -3.008 0.0472591
3.70612 -3.004 0.0472591
3.73412 -3.007 0.0462591
3.75112 -3.002 0.0462591
3.77112 -2.999 0.0452591
3.79612 -3.009 0.0442591
3.80712 -2.998 0.0442591
3.87312 -2.992 0.0432591
3.92412 -2.992 0.0412591
3.96112 -2.991 0.0402591
3.98712 -2.991 0.0402591
4.05212 -2.981 0.0382591
4.06912 -2.984 0.0382591
4.09312 -2.982 0.0372591
0.00611613 -3.285 0.0722591
0.0261161 -3.289 0.0722591
0.0361161 -3.269 0.0732591
0.0571161 -3.277 0.0732591
0.0621161 -3.275 0.0732591
0.0721161 -3.276 0.0732591
0.0831161 -3.278 0.0732591
0.0931161 -3.268 0.0732591
0.103116 -3.274 0.0732591
0.114116 -3.279 0.0722591
0.124116 -3.269 0.0732591
0.129116 -3.275 0.0732591
0.149116 -3.272 0.0732591
0.160116 -3.271 0.0732591
0.169116 -3.261 0.0732591
0.191116 -3.27 0.0732591
0.195116 -3.265 0.0732591
0.205116 -3.257 0.0732591
0.216116 -3.27 0.0732591
0.226116 -3.261 0.0732591
0.237116 -3.265 0.0732591
0.247116 -3.264 0.0732591
0.258116 -3.269 0.0732591
0.261116 -3.253 0.0732591
0.272116 -3.256 0.0732591
0.283116 -3.261 0.0732591
0.293116 -3.256 0.0732591
0.303116 -3.257 0.0732591
0.315116 -3.268 0.0722591
0.329116 -3.255 0.0732591
0.340116 -3.26 0.0732591
0.350116 -3.257 0.0732591
0.361116 -3.263 0.0722591
0.369116 -3.248 0.0732591
0.381116 -3.257 0.0732591
0.390116 -3.246 0.0732591
0.406116 -3.25 0.0732591
0.416116 -3.247 0.0732591
0.437116 -3.252 0.0722591
0.448116 -3.257 0.0722591
0.453116 -3.252 0.0722591
0.462116 -3.246 0.0732591
0.472116 -3.239 0.0732591
0.493116 -3.24 0.0732591
0.503116 -3.236 0.0732591
0.515116 -3.249 0.0722591
0.525116 -3.245 0.0722591
0.530116 -3.244 0.0722591
0.551116 -3.247 0.0722591
0.562116 -3.247 0.0722591
0.583116 -3.245 0.0722591
0.591116 -3.236 0.0722591
0.596116 -3.231 0.0722591
0.607116 -3.235 0.0722591
0.618116 -3.239 0.0722591
0.628116 -3.235 0.0722591
0.639116 -3.237 0.0722591
0.648116 -3.231 0.0722591
0.661116 -3.24 0.0712591
0.663116 -3.226 0.0722591
0.677116 -3.239 0.0712591
0.687116 -3.235 0.0712591
0.708116 -3.235 0.0712591
0.722116 -3.229 0.0712591
0.733116 -3.227 0.0712591
0.745116 -3.233 0.0712591
0.755116 -3.232 0.0712591
0.764116 -3.226 0.0712591
0.777116 -3.235 0.0712591
0.786116 -3.225 0.0712591
0.792116 -3.229 0.0712591
0.801116 -3.223 0.0712591
0.825116 -3.231 0.0702591
0.832116 -3.217 0.0712591
0.844116 -3.22 0.0712591
0.856116 -3.224 0.0702591
0.872116 -3.225 0.0702591
0.879116 -3.211 0.0712591
0.893116 -3.222 0.0702591
0.904116 -3.221 0.0702591
0.923116 -3.211 0.0702591
0.942116 -3.22 0.0702591
0.962116 -3.214 0.0702591
0.974116 -3.215 0.0692591
0.984116 -3.212 0.0692591
1.02112 -3.209 0.0692591
1.04312 -3.206 0.0692591
1.05712 -3.214 0.0692591
1.06812 -3.214 0.0682591
1.07212 -3.211 0.0682591
1.08112 -3.204 0.0692591
1.09212 -3.202 0.0692591
1.11712 -3.21 0.0682591
1.12812 -3.207 0.0682591
1.13812 -3.203 0.0682591
1.14812 -3.2 0.0682591
1.16712 -3.205 0.0672591
1.17612 -3.198 0.0682591
1.18912 -3.204 0.0672591
1.20112 -3.204 0.0672591
1.20712 -3.19 0.0672591
1.22412 -3.203 0.0672591
1.22912 -3.201 0.0672591
1.23712 -3.192 0.0672591
1.24912 -3.194 0.0672591
1.27312 -3.195 0.0662591
2.64712 -3.098 0.0422591
3.35012 -3.044 0.0242591
3.48112 -3.035 0.0212591
3.65212 -3.025 0.0162591
3.88812 -3.008 0.00925914
0.0341161 -3.273 0.0532591
0.0441161 -3.273 0.0532591
0.0491161 -3.272 0.0532591
0.0601161 -3.286 0.0522591
0.0801161 -3.276 0.0532591
0.0901161 -3.27 0.0532591
0.101116 -3.271 0.0532591
0.116116 -3.269 0.0532591
0.127116 -3.274 0.0532591
0.137116 -3.264 0.0532591
0.147116 -3.272 0.0532591
0.157116 -3.265 0.0532591
0.167116 -3.267 0.0532591
0.178116 -3.264 0.0532591
0.183116 -3.268 0.0532591
0.193116 -3.261 0.0532591
0.204116 -3.268 0.0532591
0.214116 -3.276 0.0532591
0.224116 -3.259 0.0532591
0.234116 -3.266 0.0532591
0.245116 -3.272 0.0532591
0.250116 -3.267 0.0532591
0.281116 -3.265 0.0532591
0.291116 -3.266 0.0532591
0.317116 -3.263 0.0532591
0.327116 -3.259 0.0532591
0.338116 -3.265 0.0532591
0.358116 -3.257 0.0532591
0.374116 -3.263 0.0522591
0.384116 -3.262 0.0522591
0.404116 -3.252 0.0532591
0.414116 -3.255 0.0532591
0.425116 -3.261 0.0522591
0.435116 -3.254 0.0532591
0.446116 -3.256 0.0522591
0.462116 -3.258 0.0522591
0.501116 -3.244 0.0532591
0.518116 -3.252 0.0522591
0.605116 -3.239 0.0522591
0.617116 -3.245 0.0522591
0.663116 -3.238 0.0522591
0.684116 -3.237 0.0512591
0.695116 -3.239 0.0512591
0.704116 -3.233 0.0512591
0.731116 -3.233 0.0512591
0.752116 -3.232 0.0512591
0.784116 -3.231 0.0512591
0.820116 -3.226 0.0512591
0.832116 -3.231 0.0502591
0.841116 -3.221 0.0512591
0.857116 -3.221 0.0502591
0.869116 -3.226 0.0502591
0.900116 -3.221 0.0502591
0.910116 -3.218 0.0502591
0.917116 -3.223 0.0502591
0.927116 -3.218 0.0502591
0.936116 -3.213 0.0502591
0.949116 -3.22 0.0492591
0.982116 -3.22 0.0492591
0.987116 -3.219 0.0492591
0.998116 -3.218 0.0492591
1.00812 -3.214 0.0492591
1.04912 -3.203 0.0492591
1.06312 -3.211 0.0482591
1.10112 -3.209 0.0482591
1.11712 -3.191 0.0482591
1.13712 -3.199 0.0482591
1.15112 -3.206 0.0472591
1.16212 -3.207 0.0472591
1.18512 -3.205 0.0472591
1.20112 -3.203 0.0462591
1.21212 -3.203 0.0462591
1.26612 -3.193 0.0462591
1.27212 -3.193 0.0462591
2.37112 -3.119 0.0242591
2.40012 -3.117 0.0242591
2.43112 -3.116 0.0232591
2.48212 -3.111 0.0222591
2.50812 -3.103 0.0212591
2.61012 -3.099 0.0182591
2.62812 -3.1 0.0182591
2.65312 -3.1 0.0172591
2.68412 -3.097 0.0162591
2.74012 -3.093 0.0152591
2.75012 -3.084 0.0152591
2.77112 -3.089 0.0142591
2.80112 -3.083 0.0132591
2.83812 -3.085 0.0122591
2.86412 -3.083 0.0112591
2.89812 -3.081 0.0102591
2.90912 -3.074 0.0102591
2.92912 -3.076 0.0102591
2.94912 -3.077 0.00925914
2.95812 -3.077 0.00925914
2.97012 -3.07 0.00925914
3.00312 -3.066 0.00825914
3.02512 -3.069 0.00725914
3.04312 -3.069 0.00625914
3.06312 -3.069 0.00625914
3.07212 -3.068 0.00525914
3.14012 -3.059 0.00425914
3.16112 -3.06 0.00325914
3.17212 -3.052 0.00325914
3.19912 -3.049 0.00225914
3.22812 -3.057 0.00125914
3.24712 -3.057 0.00025914
3.26312 -3.052 0.00025914
3.29112 -3.04 -0.00074086
3.36412 -3.04 -0.00274086
3.38412 -3.038 -0.00374086
3.40612 -3.04 -0.00374086
3.42812 -3.04 -0.00474086
3.45712 -3.037 -0.00574086
3.50212 -3.037 -0.00774086
3.52012 -3.034 -0.00774086
3.54112 -3.023 -0.00774086
3.59612 -3.032 -0.0107409
3.61512 -3.028 -0.0107409
3.64912 -3.018 -0.0117409
3.67812 -3.023 -0.0127409
3.70012 -3.022 -0.0137409
3.71312 -3.022 -0.0137409
3.74412 -3.009 -0.0147409
3.77712 -3.016 -0.0157409
3.79112 -3.008 -0.0167409
3.82112 -3.012 -0.0177409
3.84712 -3.004 -0.0187409
3.89912 -3.006 -0.0197409
3.91012 -2.995 -0.0197409
3.95112 -2.987 -0.0217409
3.99112 -2.988 -0.0227409
4.02912 -2.997 -0.0247409
4.04012 -2.985 -0.0247409
4.07312 -2.99 -0.0257409
4.08312 -2.978 -0.0257409
4.12412 -2.988 -0.0277409
4.14512 -2.984 -0.0287409
4.14912 -2.977 -0.0287409
2.37312 -3.108 0.00225914
2.39112 -3.101 0.00225914
2.45112 -3.097 0.00025914
2.48112 -3.094 -0.00074086
2.53512 -3.091 -0.00174086
2.59012 -3.088 -0.00374086
2.62512 -3.09 -0.00474086
2.64012 -3.087 -0.00574086
2.65512 -3.085 -0.00574086
2.66912 -3.083 -0.00574086
2.68312 -3.079 -0.00674086
2.71512 -3.086 -0.00774086
2.72712 -3.08 -0.00774086
2.74212 -3.077 -0.00874086
2.77512 -3.075 -0.00974086
2.79412 -3.076 -0.00974086
2.80712 -3.081 -0.0107409
2.83512 -3.072 -0.0117409
2.85412 -3.073 -0.0117409
2.86812 -3.068 -0.0127409
2.88312 -3.065 -0.0127409
2.90712 -3.072 -0.0137409
2.91212 -3.067 -0.0137409
2.92612 -3.063 -0.0137409
2.94712 -3.065 -0.0147409
2.96112 -3.06 -0.0157409
2.98112 -3.062 -0.0157409
2.99912 -3.061 -0.0167409
3.01812 -3.06 -0.0177409
3.02912 -3.062 -0.0177409
3.06012 -3.055 -0.0187409
3.10212 -3.058 -0.0197409
3.11612 -3.052 -0.0207409
3.13112 -3.048 -0.0207409
3.21012 -3.056 -0.0237409
3.31712 -3.049 -0.0277409
3.34312 -3.035 -0.0277409
3.41112 -3.028 -0.0307409
3.45112 -3.025 -0.0317409
3.57012 -3.022 -0.0367409
3.74712 -3.002 -0.0427409
3.80912 -3.003 -0.0447409
3.83812 -3.006 -0.0467409
3.85012 -2.996 -0.0467409
3.89612 -2.993 -0.0477409
3.96112 -2.993 -0.0507409
4.03312 -2.987 -0.0537409
0.0291161 -3.272 0.0132591
0.0701161 -3.268 0.0132591
0.126116 -3.268 0.0132591
0.152116 -3.263 0.0132591
0.162116 -3.266 0.0132591
0.193116 -3.261 0.0132591
0.203116 -3.258 0.0132591
0.239116 -3.264 0.0132591
0.260116 -3.27 0.0122591
0.275116 -3.257 0.0132591
0.285116 -3.258 0.0132591
0.295116 -3.255 0.0132591
0.316116 -3.253 0.0132591
0.362116 -3.256 0.0132591
0.373116 -3.255 0.0132591
0.409116 -3.255 0.0122591
0.419116 -3.249 0.0132591
0.429116 -3.25 0.0122591
0.439116 -3.245 0.0132591
0.450116 -3.253 0.0122591
0.459116 -3.242 0.0132591
0.485116 -3.24 0.0132591
0.536116 -3.236 0.0122591
0.563116 -3.24 0.0122591
0.583116 -3.236 0.0122591
0.605116 -3.238 0.0122591
0.620116 -3.233 0.0122591
0.629116 -3.228 0.0122591
0.650116 -3.227 0.0122591
0.707116 -3.222 0.0112591
0.718116 -3.225 0.0112591
0.744116 -3.219 0.0112591
0.777116 -3.224 0.0102591
0.786116 -3.218 0.0112591
0.798116 -3.225 0.0102591
0.815116 -3.227 0.0102591
0.834116 -3.216 0.0102591
0.854116 -3.211 0.0102591
0.865116 -3.212 0.0102591
0.877116 -3.215 0.00925914
0.884116 -3.221 0.00925914
0.892116 -3.211 0.00925914
0.942116 -3.215 0.00825914
0.951116 -3.21 0.00925914
0.962116 -3.209 0.00825914
1.00612 -3.208 0.00825914
1.01312 -3.212 0.00725914
1.02212 -3.207 0.00825914
1.03312 -3.208 0.00725914
1.04212 -3.199 0.00825914
1.05512 -3.205 0.00725914
1.06712 -3.207 0.00725914
1.07712 -3.206 0.00725914
1.08112 -3.2 0.00725914
1.09312 -3.203 0.00725914
1.10412 -3.201 0.00625914
1.11512 -3.201 0.00625914
1.12612 -3.202 0.00625914
1.13512 -3.192 0.00625914
1.16312 -3.193 0.00625914
1.17712 -3.2 0.00525914
1.18412 -3.189 0.00525914
1.21012 -3.197 0.00525914
1.21812 -3.187 0.00525914
1.22312 -3.185 0.00525914
1.23512 -3.187 0.00525914
1.24912 -3.193 0.00425914
1.25712 -3.185 0.00425914
1.26712 -3.181 0.00425914
1.28612 -3.199 0.00325914
1.29212 -3.186 0.00325914
1.29712 -3.184 0.00325914
2.36612 -3.112 -0.0227409
2.37212 -3.11 -0.0227409
2.38912 -3.112 -0.0237409
2.40112 -3.108 -0.0237409
2.41812 -3.11 -0.0247409
2.42912 -3.104 -0.0247409
2.44612 -3.106 -0.0257409
2.45712 -3.1 -0.0257409
2.46212 -3.096 -0.0257409
2.48012 -3.099 -0.0267409
2.49912 -3.102 -0.0267409
2.52212 -3.091 -0.0277409
2.55412 -3.091 -0.0287409
2.56712 -3.097 -0.0297409
2.57812 -3.091 -0.0297409
2.59612 -3.092 -0.0297409
2.61212 -3.091 -0.0307409
2.62212 -3.083 -0.0307409
2.64412 -3.09 -0.0317409
2.66412 -3.094 -0.0327409
2.66912 -3.09 -0.0327409
2.68112 -3.085 -0.0327409
2.69612 -3.082 -0.0337409
2.71212 -3.081 -0.0337409
2.73012 -3.082 -0.0347409
2.74612 -3.081 -0.0347409
2.76312 -3.079 -0.0357409
2.76912 -3.077 -0.0357409
2.78812 -3.078 -0.0367409
2.80812 -3.081 -0.0377409
2.82312 -3.078 -0.0377409
2.84312 -3.081 -0.0387409
2.85012 -3.069 -0.0387409
2.87012 -3.071 -0.0397409
2.88012 -3.072 -0.0397409
2.89512 -3.069 -0.0407409
2.91312 -3.069 -0.0407409
2.93012 -3.068 -0.0417409
2.94612 -3.065 -0.0417409
2.96812 -3.068 -0.0437409
2.98112 -3.063 -0.0437409
2.99212 -3.064 -0.0437409
3.00412 -3.058 -0.0447409
3.02812 -3.063 -0.0457409
3.05012 -3.066 -0.0467409
3.06112 -3.058 -0.0467409
3.09812 -3.066 -0.0487409
3.11912 -3.048 -0.0487409
3.17912 -3.049 -0.0507409
3.21212 -3.043 -0.0517409
3.26612 -3.046 -0.0547409
3.29512 -3.054 -0.0557409
3.35012 -3.047 -0.0577409
3.38712 -3.032 -0.0587409
3.40912 -3.032 -0.0597409
2.35412 -3.113 -0.0437409
2.39612 -3.117 -0.0457409
2.41212 -3.117 -0.0457409
2.45112 -3.107 -0.0467409
2.49112 -3.107 -0.0487409
2.51912 -3.101 -0.0497409
2.53712 -3.104 -0.0497409
2.57812 -3.104 -0.0517409
2.60512 -3.096 -0.0527409
2.61812 -3.091 -0.0527409
2.65512 -3.096 -0.0547409
2.66212 -3.093 -0.0547409
2.68212 -3.097 -0.0557409
2.69712 -3.094 -0.0557409
2.74212 -3.087 -0.0577409
2.76112 -3.088 -0.0587409
2.78612 -3.087 -0.0597409
2.80412 -3.087 -0.0597409
2.82112 -3.086 -0.0607409
2.84012 -3.087 -0.0617409
2.87112 -3.082 -0.0627409
2.88012 -3.082 -0.0627409
2.89612 -3.079 -0.0637409
2.95112 -3.079 -0.0657409
2.98112 -3.071 -0.0667409
2.99212 -3.072 -0.0677409
3.02112 -3.063 -0.0687409
3.03812 -3.061 -0.0687409
3.06112 -3.065 -0.0697409
3.11012 -3.065 -0.0727409
3.14712 -3.063 -0.0737409
3.16612 -3.062 -0.0747409
3.18412 -3.06 -0.0757409
3.20112 -3.057 -0.0757409
3.22212 -3.058 -0.0767409
3.22712 -3.053 -0.0767409
3.26512 -3.05 -0.0787409
3.29112 -3.054 -0.0797409
3.30212 -3.045 -0.0797409
3.33112 -3.052 -0.0817409
3.34012 -3.042 -0.0817409
3.37712 -3.046 -0.0837409
3.39812 -3.046 -0.0847409
3.40912 -3.037 -0.0847409
3.43412 -3.039 -0.0857409
3.44212 -3.027 -0.0857409
3.47412 -3.036 -0.0877409
3.47912 -3.03 -0.0877409
3.51012 -3.038 -0.0897409
3.51812 -3.025 -0.0887409
3.54912 -3.032 -0.0907409
3.55812 -3.021 -0.0907409
3.57712 -3.018 -0.0917409
3.60212 -3.019 -0.0927409
3.61912 -3.024 -0.0937409
3.63612 -3.018 -0.0947409
3.65812 -3.017 -0.0957409
3.67812 -3.014 -0.0967409
3.70512 -3.017 -0.0977409
3.71912 -3.009 -0.0977409
3.73912 -3.006 -0.0987409
3.78112 -3.01 -0.100741
3.79912 -3.005 -0.101741
3.81912 -3.001 -0.102741
3.84612 -3.003 -0.103741
3.86212 -2.995 -0.104741
3.88712 -2.995 -0.105741
3.94212 -3.008 -0.108741
4.03812 -3.001 -0.113741
4.04112 -2.984 -0.112741
4.11612 -2.989 -0.116741
4.14512 -2.99 -0.118741
4.16412 -2.984 -0.118741
0.739116 -3.223 -0.0297409
0.913116 -3.208 -0.0317409
2.33212 -3.108 -0.0697409
2.36212 -3.108 -0.0707409
2.41112 -3.111 -0.0737409
2.42412 -3.098 -0.0737409
2.44012 -3.098 -0.0737409
2.46212 -3.106 -0.0757409
2.48412 -3.094 -0.0757409
2.54212 -3.096 -0.0777409
2.58512 -3.088 -0.0797409
2.71712 -3.077 -0.0847409
2.80912 -3.072 -0.0887409
2.85412 -3.074 -0.0917409
2.90912 -3.075 -0.0937409
2.93712 -3.065 -0.0947409
2.94612 -3.065 -0.0947409
2.95912 -3.06 -0.0957409
2.97712 -3.059 -0.0967409
2.99812 -3.061 -0.0977409
3.03312 -3.058 -0.0987409
3.05512 -3.061 -0.0997409
3.07812 -3.055 -0.100741
3.09312 -3.051 -0.101741
3.11112 -3.05 -0.102741
3.15712 -3.057 -0.104741
3.16712 -3.047 -0.104741
3.17712 -3.047 -0.105741
3.21812 -3.048 -0.107741
3.25312 -3.043 -0.108741
3.28112 -3.05 -0.110741
3.28812 -3.037 -0.110741
3.32712 -3.045 -0.112741
3.33812 -3.036 -0.112741
3.38112 -3.036 -0.115741
3.40112 -3.035 -0.115741
3.43312 -3.035 -0.117741
3.45312 -3.033 -0.118741
3.46812 -3.028 -0.119741
3.49012 -3.027 -0.120741
3.52512 -3.02 -0.121741
3.54712 -3.019 -0.122741
3.55612 -3.017 -0.123741
3.57812 -3.017 -0.124741
3.60112 -3.017 -0.125741
3.62312 -3.016 -0.126741
3.66712 -3.015 -0.129741
3.69612 -3.009 -0.130741
3.72212 -3.011 -0.131741
3.76112 -3.004 -0.133741
3.78112 -3.001 -0.134741
3.80612 -3.001 -0.135741
3.83112 -3.002 -0.137741
3.85312 -3.009 -0.138741
3.86012 -2.995 -0.138741
3.88812 -2.997 -0.140741
3.91112 -2.996 -0.141741
3.97312 -2.994 -0.144741
3.98912 -2.987 -0.145741
4.04412 -2.989 -0.148741
4.06212 -2.982 -0.149741
4.10812 -2.977 -0.151741
4.14612 -2.975 -0.153741
4.20412 -2.983 -0.182741
0.269116 -3.261 -0.0657409
0.330116 -3.253 -0.0657409
0.382116 -3.254 -0.0657409
0.406116 -3.245 -0.0657409
0.439116 -3.253 -0.0667409
0.459116 -3.252 -0.0667409
0.474116 -3.248 -0.0667409
0.484116 -3.242 -0.0667409
0.505116 -3.241 -0.0667409
0.536116 -3.242 -0.0667409
0.543116 -3.251 -0.0677409
0.562116 -3.242 -0.0677409
0.619116 -3.235 -0.0677409
0.707116 -3.225 -0.0687409
0.738116 -3.223 -0.0687409
0.744116 -3.227 -0.0687409
0.766116 -3.228 -0.0697409
0.798116 -3.227 -0.0697409
0.812116 -3.221 -0.0697409
0.822116 -3.218 -0.0697409
0.832116 -3.216 -0.0697409
0.854116 -3.214 -0.0697409
0.891116 -3.213 -0.0707409
0.903116 -3.216 -0.0717409
0.913116 -3.215 -0.0717409
0.934116 -3.209 -0.0717409
0.940116 -3.211 -0.0717409
0.974116 -3.216 -0.0727409
0.993116 -3.206 -0.0727409
1.00212 -3.201 -0.0727409
1.01412 -3.201 -0.0727409
1.03212 -3.206 -0.0737409
1.06512 -3.205 -0.0747409
1.07412 -3.2 -0.0737409
1.09312 -3.206 -0.0747409
1.12512 -3.2 -0.0757409
1.15312 -3.2 -0.0767409
1.16212 -3.195 -0.0757409
1.18412 -3.191 -0.0767409
1.20712 -3.191 -0.0767409
1.21812 -3.191 -0.0777409
1.22412 -3.193 -0.0777409
1.24612 -3.189 -0.0777409
1.25612 -3.185 -0.0777409
1.28212 -3.192 -0.0797409
2.35412 -3.12 -0.116741
2.39012 -3.117 -0.118741
2.40512 -3.116 -0.118741
2.43712 -3.116 -0.120741
2.44412 -3.106 -0.120741
2.46112 -3.107 -0.121741
2.47012 -3.108 -0.121741
2.48712 -3.11 -0.122741
2.54512 -3.101 -0.124741
2.56412 -3.106 -0.126741
2.60312 -3.102 -0.128741
2.61412 -3.096 -0.128741
2.63412 -3.1 -0.129741
2.65112 -3.101 -0.130741
2.66712 -3.1 -0.131741
2.69012 -3.096 -0.132741
2.70612 -3.095 -0.132741
2.72312 -3.096 -0.133741
2.73712 -3.092 -0.134741
2.75612 -3.094 -0.135741
2.76812 -3.088 -0.135741
2.84512 -3.085 -0.139741
2.88112 -3.085 -0.141741
2.90612 -3.083 -0.143741
2.91712 -3.075 -0.143741
2.95612 -3.077 -0.145741
2.97412 -3.077 -0.146741
2.99212 -3.076 -0.147741
3.01212 -3.068 -0.148741
3.03612 -3.074 -0.149741
3.04912 -3.067 -0.150741
3.08912 -3.069 -0.152741
3.10712 -3.068 -0.153741
3.11612 -3.067 -0.153741
3.17212 -3.064 -0.156741
3.18612 -3.058 -0.157741
3.22012 -3.052 -0.159741
3.25112 -3.053 -0.160741
3.30912 -3.05 -0.164741
3.33012 -3.05 -0.165741
3.41612 -3.041 -0.170741
3.47012 -3.041 -0.173741
3.49112 -3.041 -0.174741
3.50412 -3.032 -0.174741
3.52812 -3.034 -0.176741
3.55012 -3.034 -0.177741
3.58712 -3.027 -0.179741
3.61512 -3.031 -0.181741
3.62612 -3.03 -0.182741
3.66512 -3.024 -0.184741
3.70012 -3.015 -0.186741
3.72812 -3.019 -0.188741
3.75212 -3.018 -0.189741
3.82812 -3.011 -0.193741
3.85012 -3.009 -0.195741
3.87512 -3.01 -0.196741
3.89612 -3.006 -0.197741
3.91312 -3.01 -0.199741
3.93712 -3.008 -0.200741
3.95312 -3.001 -0.201741
3.98112 -3.003 -0.203741
4.02712 -2.998 -0.205741
4.04012 -2.988 -0.206741
4.06512 -2.997 -0.208741
4.08112 -2.989 -0.208741
4.10312 -2.986 -0.210741
4.12412 -2.981 -0.211741
0.0411161 -3.274 -0.0847409
0.0521161 -3.283 -0.0857409
0.0621161 -3.275 -0.0847409
0.103116 -3.268 -0.0847409
0.138116 -3.265 -0.0847409
0.195116 -3.264 -0.0847409
0.205116 -3.267 -0.0847409
0.225116 -3.26 -0.0847409
0.237116 -3.273 -0.0857409
0.241116 -3.261 -0.0847409
0.251116 -3.262 -0.0847409
0.261116 -3.259 -0.0847409
0.273116 -3.27 -0.0857409
0.283116 -3.264 -0.0847409
0.292116 -3.255 -0.0847409
0.302116 -3.254 -0.0847409
0.308116 -3.263 -0.0857409
0.318116 -3.26 -0.0847409
0.339116 -3.26 -0.0857409
0.349116 -3.257 -0.0847409
0.359116 -3.254 -0.0847409
0.370116 -3.259 -0.0857409
0.375116 -3.254 -0.0847409
0.384116 -3.249 -0.0847409
0.396116 -3.256 -0.0857409
0.405116 -3.249 -0.0847409
0.416116 -3.253 -0.0857409
0.427116 -3.254 -0.0857409
0.431116 -3.247 -0.0847409
0.441116 -3.248 -0.0857409
0.452116 -3.248 -0.0857409
0.462116 -3.249 -0.0857409
0.471116 -3.24 -0.0847409
0.483116 -3.246 -0.0857409
0.492116 -3.239 -0.0847409
0.499116 -3.25 -0.0867409
0.509116 -3.25 -0.0867409
0.518116 -3.237 -0.0857409
0.529116 -3.243 -0.0857409
0.540116 -3.247 -0.0867409
0.550116 -3.239 -0.0857409
0.570116 -3.234 -0.0857409
0.597116 -3.241 -0.0867409
0.608116 -3.243 -0.0877409
0.627116 -3.231 -0.0867409
0.642116 -3.228 -0.0867409
0.655116 -3.238 -0.0877409
0.664116 -3.23 -0.0867409
0.674116 -3.23 -0.0877409
0.685116 -3.23 -0.0877409
0.695116 -3.226 -0.0877409
0.700116 -3.229 -0.0877409
0.713116 -3.236 -0.0887409
0.721116 -3.226 -0.0877409
0.733116 -3.232 -0.0887409
0.746116 -3.239 -0.0897409
0.754116 -3.231 -0.0887409
0.765116 -3.228 -0.0887409
0.770116 -3.229 -0.0887409
0.778116 -3.219 -0.0887409
0.799116 -3.218 -0.0887409
0.811116 -3.221 -0.0887409
0.822116 -3.222 -0.0897409
0.831116 -3.216 -0.0887409
0.843116 -3.221 -0.0897409
0.848116 -3.216 -0.0897409
0.859116 -3.217 -0.0897409
0.868116 -3.212 -0.0897409
0.879116 -3.213 -0.0897409
0.904116 -3.223 -0.0917409
0.911116 -3.209 -0.0907409
0.929116 -3.214 -0.0907409
0.938116 -3.207 -0.0907409
0.950116 -3.212 -0.0917409
0.961116 -3.211 -0.0917409
0.973116 -3.214 -0.0927409
0.978116 -3.214 -0.0927409
0.988116 -3.209 -0.0927409
1.00012 -3.211 -0.0927409
1.00912 -3.206 -0.0927409
1.02212 -3.211 -0.0937409
1.03112 -3.206 -0.0927409
1.04212 -3.206 -0.0937409
1.04712 -3.203 -0.0937409
1.07012 -3.205 -0.0937409
1.08212 -3.208 -0.0947409
1.09212 -3.204 -0.0947409
1.10112 -3.197 -0.0947409
1.11312 -3.199 -0.0947409
1.11712 -3.194 -0.0947409
1.12812 -3.194 -0.0947409
1.14212 -3.2 -0.0957409
1.16412 -3.198 -0.0957409
1.17212 -3.191 -0.0957409
1.18612 -3.196 -0.0967409
1.20012 -3.189 -0.0967409
1.21512 -3.196 -0.0977409
1.22212 -3.187 -0.0967409
1.23312 -3.185 -0.0967409
1.24512 -3.185 -0.0977409
1.25712 -3.186 -0.0977409
1.27412 -3.186 -0.0987409
2.36712 -3.114 -0.139741
2.37912 -3.11 -0.139741
2.41012 -3.109 -0.141741
2.43012 -3.114 -0.142741
2.43212 -3.107 -0.142741
2.46412 -3.107 -0.144741
2.47712 -3.104 -0.144741
2.52412 -3.102 -0.147741
2.53812 -3.109 -0.148741
2.55412 -3.108 -0.149741
2.58712 -3.107 -0.150741
2.59812 -3.101 -0.151741
2.63112 -3.101 -0.153741
2.63612 -3.097 -0.153741
2.65212 -3.096 -0.153741
2.68612 -3.096 -0.155741
2.70012 -3.092 -0.156741
2.76312 -3.094 -0.160741
2.79312 -3.089 -0.161741
2.81112 -3.089 -0.162741
2.84512 -3.087 -0.164741
2.86912 -3.084 -0.165741
2.88512 -3.081 -0.166741
2.92312 -3.082 -0.168741
2.96412 -3.077 -0.170741
2.99512 -3.069 -0.172741
3.02012 -3.075 -0.173741
3.02812 -3.064 -0.173741
3.06712 -3.065 -0.176741
3.14612 -3.056 -0.180741
3.16612 -3.055 -0.181741
3.20012 -3.06 -0.184741
3.22012 -3.059 -0.185741
3.26612 -3.045 -0.187741
3.30212 -3.039 -0.189741
3.32012 -3.046 -0.190741
3.36112 -3.045 -0.193741
3.38112 -3.044 -0.194741
3.40712 -3.048 -0.196741
3.42112 -3.041 -0.196741
3.43812 -3.037 -0.197741
3.45612 -3.043 -0.199741
3.46712 -3.033 -0.199741
3.49612 -3.039 -0.201741
3.53212 -3.031 -0.203741
3.57112 -3.026 -0.205741
3.58512 -3.028 -0.206741
3.61312 -3.032 -0.208741
3.62712 -3.024 -0.209741
3.64612 -3.021 -0.210741
3.66112 -3.014 -0.211741
3.68612 -3.015 -0.212741
3.71012 -3.015 -0.214741
3.71912 -3.013 -0.214741
3.75012 -3.018 -0.217741
3.76012 -3.007 -0.217741
3.78712 -3.008 -0.219741
3.80912 -3.006 -0.220741
3.83712 -3.009 -0.222741
3.83512 -2.998 -0.221741
3.87212 -3.006 -0.224741
3.90912 -2.997 -0.226741
3.93512 -2.996 -0.228741
3.95712 -2.993 -0.229741
4.00612 -3.001 -0.233741
4.03012 -2.999 -0.235741
4.06212 -2.983 -0.236741
4.10912 -2.978 -0.239741
1.11812 -3.201 -0.115741
1.14812 -3.192 -0.115741
1.27012 -3.182 -0.118741
1.28212 -3.182 -0.118741
2.49612 -3.095 -0.169741
2.51112 -3.093 -0.169741
2.59612 -3.087 -0.174741
2.64312 -3.084 -0.176741
2.71612 -3.081 -0.181741
2.93012 -3.063 -0.193741
3.01112 -3.06 -0.198741
3.06512 -3.057 -0.201741
3.16412 -3.049 -0.207741
3.21812 -3.044 -0.210741
3.73612 -3.018 -0.245741
3.76912 -3.006 -0.246741
3.80912 -3.009 -0.249741
3.84512 -2.999 -0.251741
0.162116 -3.263 -0.145741
0.269116 -3.256 -0.145741
0.357116 -3.252 -0.145741
0.372116 -3.25 -0.145741
0.393116 -3.25 -0.145741
0.413116 -3.247 -0.145741
0.449116 -3.246 -0.146741
0.516116 -3.238 -0.146741
0.547116 -3.237 -0.147741
0.562116 -3.235 -0.147741
0.572116 -3.233 -0.147741
0.594116 -3.235 -0.147741
0.619116 -3.23 -0.147741
0.640116 -3.23 -0.148741
0.651116 -3.232 -0.148741
0.662116 -3.236 -0.149741
0.697116 -3.227 -0.148741
0.710116 -3.238 -0.150741
0.740116 -3.227 -0.149741
0.749116 -3.221 -0.149741
0.766116 -3.223 -0.150741
0.787116 -3.222 -0.150741
0.799116 -3.228 -0.151741
0.821116 -3.228 -0.152741
0.829116 -3.218 -0.151741
0.837116 -3.228 -0.152741
0.855116 -3.217 -0.151741
0.866116 -3.215 -0.151741
0.887116 -3.215 -0.152741
0.894116 -3.221 -0.153741
0.904116 -3.216 -0.153741
0.915116 -3.215 -0.153741
0.934116 -3.208 -0.153741
0.956116 -3.206 -0.153741
0.976116 -3.218 -0.155741
0.982116 -3.204 -0.154741
1.03712 -3.203 -0.155741
1.04212 -3.201 -0.155741
1.06512 -3.202 -0.156741
1.07412 -3.197 -0.156741
1.10112 -3.209 -0.158741
1.17012 -3.197 -0.159741
1.18612 -3.195 -0.160741
1.25712 -3.185 -0.161741
1.93212 -3.143 -0.189741
1.94912 -3.137 -0.189741
1.96112 -3.134 -0.190741
1.98812 -3.133 -0.191741
2.00712 -3.142 -0.193741
2.01512 -3.133 -0.193741
2.03612 -3.143 -0.195741
2.03912 -3.137 -0.194741
2.06812 -3.139 -0.196741
2.12612 -3.141 -0.200741
2.15712 -3.134 -0.201741
2.16712 -3.127 -0.201741
2.18612 -3.133 -0.203741
2.21112 -3.128 -0.204741
2.23612 -3.132 -0.205741
2.25612 -3.118 -0.205741
2.27512 -3.123 -0.207741
2.30312 -3.12 -0.209741
2.32012 -3.113 -0.209741
2.33112 -3.107 -0.209741
2.35412 -3.117 -0.212741
2.37112 -3.119 -0.213741
2.39012 -3.104 -0.213741
2.39912 -3.105 -0.213741
2.41912 -3.112 -0.215741
2.43012 -3.106 -0.215741
2.45712 -3.1 -0.217741
2.49212 -3.105 -0.219741
2.49712 -3.101 -0.219741
2.51112 -3.098 -0.220741
2.54312 -3.097 -0.222741
2.57012 -3.09 -0.223741
2.58812 -3.093 -0.225741
2.61312 -3.093 -0.226741
2.62512 -3.088 -0.227741
2.67512 -3.087 -0.230741
2.76412 -3.081 -0.236741
2.77712 -3.077 -0.236741
2.80212 -3.075 -0.238741
2.82312 -3.078 -0.240741
2.85512 -3.075 -0.242741
2.88512 -3.069 -0.243741
2.96212 -3.062 -0.248741
2.99712 -3.061 -0.251741
3.01412 -3.058 -0.252741
3.06712 -3.064 -0.256741
3.14012 -3.05 -0.261741
3.17812 -3.048 -0.263741
3.21712 -3.047 -0.266741
3.25012 -3.041 -0.268741
3.28112 -3.04 -0.271741
3.29912 -3.038 -0.272741
3.33812 -3.036 -0.275741
3.41112 -3.035 -0.280741
3.47012 -3.029 -0.285741
3.51712 -3.023 -0.288741
3.53912 -3.022 -0.290741
3.56212 -3.023 -0.291741
3.57812 -3.017 -0.292741
3.70012 -3.013 -0.302741
3.73912 -3.006 -0.305741
3.84012 -2.999 -0.312741
3.94412 -2.992 -0.321741
4.01812 -2.989 -0.327741
4.07612 -2.984 -0.331741
4.09912 -2.98 -0.333741
0.0931161 -3.272 -0.167741
0.129116 -3.269 -0.167741
0.170116 -3.263 -0.167741
0.190116 -3.262 -0.167741
0.195116 -3.264 -0.167741
0.237116 -3.263 -0.167741
0.247116 -3.258 -0.167741
0.263116 -3.269 -0.168741
0.272116 -3.256 -0.167741
0.282116 -3.255 -0.167741
0.293116 -3.26 -0.167741
0.303116 -3.255 -0.167741
0.314116 -3.258 -0.167741
0.324116 -3.259 -0.167741
0.330116 -3.263 -0.168741
0.339116 -3.254 -0.167741
0.359116 -3.252 -0.167741
0.391116 -3.252 -0.167741
0.395116 -3.246 -0.167741
0.416116 -3.251 -0.168741
0.437116 -3.25 -0.168741
0.448116 -3.251 -0.168741
0.453116 -3.25 -0.168741
0.464116 -3.253 -0.169741
0.474116 -3.253 -0.169741
0.484116 -3.252 -0.169741
0.494116 -3.25 -0.169741
0.515116 -3.245 -0.169741
0.527116 -3.255 -0.170741
0.530116 -3.246 -0.169741
0.552116 -3.251 -0.170741
0.573116 -3.251 -0.170741
0.582116 -3.242 -0.169741
0.593116 -3.242 -0.170741
0.608116 -3.241 -0.170741
0.640116 -3.239 -0.170741
0.649116 -3.231 -0.170741
0.661116 -3.241 -0.171741
0.666116 -3.236 -0.171741
0.677116 -3.237 -0.171741
0.686116 -3.233 -0.171741
0.699116 -3.241 -0.172741
0.709116 -3.239 -0.172741
0.722116 -3.228 -0.171741
0.735116 -3.237 -0.172741
0.745116 -3.235 -0.172741
0.756116 -3.234 -0.173741
0.765116 -3.228 -0.172741
0.778116 -3.235 -0.173741
0.785116 -3.223 -0.172741
0.792116 -3.229 -0.173741
0.803116 -3.231 -0.173741
0.813116 -3.224 -0.173741
0.823116 -3.224 -0.173741
0.836116 -3.233 -0.175741
0.844116 -3.22 -0.173741
0.856116 -3.224 -0.174741
0.866116 -3.223 -0.174741
0.871116 -3.219 -0.174741
0.881116 -3.217 -0.174741
0.894116 -3.223 -0.175741
0.925116 -3.217 -0.175741
0.962116 -3.214 -0.176741
0.976116 -3.222 -0.178741
0.984116 -3.212 -0.177741
1.01112 -3.21 -0.177741
1.04212 -3.204 -0.178741
1.05412 -3.204 -0.178741
1.07012 -3.203 -0.179741
1.09112 -3.198 -0.179741
1.10312 -3.2 -0.180741
1.11312 -3.199 -0.180741
1.12412 -3.197 -0.180741
1.13812 -3.205 -0.181741
1.15312 -3.197 -0.181741
1.16212 -3.192 -0.181741
1.17512 -3.196 -0.182741
1.18512 -3.192 -0.182741
1.19812 -3.197 -0.183741
1.20612 -3.188 -0.182741
1.31012 -3.186 -0.186741
1.86512 -3.158 -0.211741
1.88912 -3.153 -0.212741
1.91412 -3.149 -0.213741
1.91812 -3.144 -0.213741
1.93012 -3.142 -0.213741
1.94812 -3.149 -0.215741
1.95512 -3.138 -0.214741
1.97512 -3.149 -0.216741
1.98212 -3.137 -0.216741
1.99412 -3.134 -0.216741
2.01512 -3.135 -0.218741
2.03412 -3.142 -0.219741
2.04812 -3.142 -0.220741
2.06012 -3.139 -0.221741
2.07812 -3.144 -0.222741
2.08812 -3.137 -0.222741
2.09512 -3.137 -0.223741
2.10912 -3.137 -0.223741
2.12312 -3.137 -0.224741
2.13212 -3.129 -0.224741
2.15012 -3.134 -0.226741
2.15912 -3.125 -0.225741
2.18112 -3.136 -0.228741
2.17712 -3.12 -0.226741
2.20812 -3.122 -0.228741
2.22312 -3.124 -0.229741
2.23612 -3.12 -0.230741
2.25112 -3.121 -0.231741
2.26612 -3.12 -0.232741
2.27812 -3.126 -0.233741
2.29112 -3.124 -0.234741
2.29712 -3.112 -0.233741
2.32012 -3.122 -0.236741
2.33512 -3.121 -0.236741
2.34312 -3.112 -0.236741
2.36112 -3.114 -0.238741
2.36312 -3.107 -0.237741
2.40212 -3.117 -0.241741
2.41112 -3.108 -0.240741
2.42412 -3.105 -0.241741
2.44512 -3.112 -0.243741
2.45712 -3.107 -0.244741
2.46012 -3.1 -0.243741
2.47812 -3.103 -0.245741
2.50812 -3.1 -0.246741
2.52012 -3.095 -0.247741
2.54012 -3.099 -0.249741
2.56712 -3.103 -0.251741
2.57612 -3.093 -0.251741
2.59412 -3.096 -0.252741
2.63312 -3.102 -0.255741
2.65612 -3.09 -0.256741
2.67212 -3.097 -0.258741
2.68512 -3.094 -0.259741
2.70012 -3.091 -0.259741
2.71712 -3.09 -0.261741
2.73012 -3.086 -0.261741
2.75112 -3.089 -0.263741
2.77012 -3.091 -0.264741
2.77512 -3.086 -0.264741
2.79212 -3.086 -0.266741
2.81112 -3.088 -0.267741
2.82412 -3.082 -0.268741
2.84612 -3.086 -0.270741
2.85312 -3.074 -0.269741
2.87712 -3.081 -0.272741
2.88612 -3.081 -0.272741
2.90412 -3.081 -0.274741
2.91912 -3.077 -0.275741
2.93712 -3.077 -0.276741
2.94812 -3.069 -0.276741
2.96612 -3.068 -0.277741
2.98812 -3.071 -0.279741
3.00412 -3.078 -0.281741
3.01812 -3.073 -0.282741
3.03112 -3.066 -0.282741
3.05412 -3.071 -0.285741
3.06712 -3.064 -0.285741
3.09112 -3.068 -0.287741
3.09912 -3.057 -0.287741
3.11912 -3.067 -0.289741
3.13212 -3.06 -0.290741
3.16812 -3.057 -0.292741
3.20912 -3.057 -0.296741
3.23212 -3.06 -0.298741
3.24412 -3.061 -0.299741
3.25912 -3.056 -0.300741
3.27812 -3.054 -0.301741
3.31412 -3.05 -0.304741
3.33412 -3.049 -0.305741
3.35612 -3.049 -0.307741
3.36512 -3.047 -0.308741
3.38212 -3.043 -0.309741
3.40912 -3.049 -0.311741
3.42312 -3.042 -0.312741
3.46312 -3.038 -0.315741
3.48512 -3.038 -0.317741
3.49312 -3.035 -0.317741
3.51912 -3.038 -0.320741
3.53212 -3.03 -0.320741
3.55812 -3.033 -0.323741
3.57312 -3.027 -0.324741
3.60112 -3.031 -0.326741
3.61812 -3.026 -0.327741
3.63512 -3.03 -0.329741
3.64612 -3.02 -0.329741
3.67312 -3.022 -0.332741
3.69612 -3.022 -0.334741
3.71312 -3.017 -0.335741
3.74212 -3.02 -0.337741
3.77812 -3.019 -0.341741
3.80012 -3.017 -0.342741
3.81812 -3.013 -0.344741
3.82812 -3.001 -0.344741
3.85512 -3.002 -0.346741
3.87812 -3.001 -0.348741
3.90312 -3.001 -0.350741
3.90812 -2.994 -0.350741
3.95112 -3.007 -0.355741
3.95712 -2.992 -0.354741
3.99012 -2.998 -0.358741
4.00812 -2.991 -0.359741
4.02712 -2.986 -0.360741
4.08812 -3 -0.367741
4.11612 -2.982 -0.368741
0.504116 -3.243 -0.189741
0.529116 -3.237 -0.188741
0.665116 -3.236 -0.191741
0.869116 -3.216 -0.194741
1.45612 -3.174 -0.213741
1.46612 -3.17 -0.213741
1.47812 -3.169 -0.214741
1.56712 -3.163 -0.218741
1.58412 -3.161 -0.218741
1.59612 -3.16 -0.219741
1.63312 -3.159 -0.221741
1.66412 -3.158 -0.222741
1.68712 -3.155 -0.223741
1.69912 -3.153 -0.224741
1.72512 -3.154 -0.225741
1.76012 -3.158 -0.228741
1.76812 -3.149 -0.227741
1.79512 -3.152 -0.229741
1.82712 -3.15 -0.231741
1.85112 -3.145 -0.232741
1.86412 -3.146 -0.233741
1.87412 -3.14 -0.233741
1.89512 -3.142 -0.234741
1.90812 -3.141 -0.235741
1.93512 -3.141 -0.236741
1.94612 -3.136 -0.236741
1.99312 -3.135 -0.239741
2.00812 -3.137 -0.240741
2.01812 -3.131 -0.240741
2.04812 -3.135 -0.243741
2.05812 -3.128 -0.243741
2.06512 -3.128 -0.243741
2.10412 -3.124 -0.245741
2.12412 -3.132 -0.247741
2.15812 -3.128 -0.249741
2.19712 -3.122 -0.251741
2.20812 -3.117 -0.252741
2.23812 -3.118 -0.254741
2.26012 -3.117 -0.255741
2.35112 -3.108 -0.261741
2.44712 -3.102 -0.267741
2.47512 -3.097 -0.269741
2.49012 -3.096 -0.269741
2.52112 -3.094 -0.272741
2.52912 -3.095 -0.272741
2.56112 -3.094 -0.275741
2.59212 -3.092 -0.277741
2.60812 -3.091 -0.278741
2.62912 -3.087 -0.279741
2.64812 -3.089 -0.281741
2.66012 -3.084 -0.281741
2.73612 -3.083 -0.287741
2.75212 -3.082 -0.288741
2.78612 -3.081 -0.291741
2.83412 -3.075 -0.294741
2.86012 -3.075 -0.296741
2.87712 -3.073 -0.297741
2.89812 -3.077 -0.299741
2.90912 -3.069 -0.299741
2.93712 -3.079 -0.303741
2.95012 -3.074 -0.303741
2.96112 -3.075 -0.304741
2.97712 -3.073 -0.305741
2.99512 -3.072 -0.307741
3.01312 -3.071 -0.308741
3.03412 -3.073 -0.310741
3.04912 -3.069 -0.311741
3.06712 -3.068 -0.312741
3.07712 -3.069 -0.313741
3.09112 -3.064 -0.314741
3.11112 -3.064 -0.316741
3.12612 -3.06 -0.316741
3.14012 -3.054 -0.317741
3.16612 -3.061 -0.320741
3.18712 -3.062 -0.322741
3.19412 -3.058 -0.322741
3.21512 -3.059 -0.324741
3.23712 -3.061 -0.326741
3.24312 -3.047 -0.325741
3.26212 -3.047 -0.327741
3.29212 -3.055 -0.330741
3.30612 -3.049 -0.331741
3.32112 -3.053 -0.332741
3.33512 -3.047 -0.333741
3.35612 -3.047 -0.335741
3.37712 -3.047 -0.337741
3.39312 -3.042 -0.338741
3.41412 -3.042 -0.340741
3.43012 -3.037 -0.341741
3.44612 -3.042 -0.342741
3.46312 -3.037 -0.344741
3.49112 -3.042 -0.346741
3.51212 -3.042 -0.348741
3.52512 -3.033 -0.349741
3.54512 -3.031 -0.350741
3.58212 -3.034 -0.354741
3.61012 -3.019 -0.355741
3.63012 -3.017 -0.357741
3.65612 -3.019 -0.359741
3.68812 -3.027 -0.363741
3.70312 -3.019 -0.364741
3.72412 -3.027 -0.366741
3.74412 -3.024 -0.368741
3.75712 -3.015 -0.368741
3.78512 -3.018 -0.371741
3.80412 -3.014 -0.372741
3.81812 -3.005 -0.373741
3.84312 -3.006 -0.376741
3.86512 -3.013 -0.378741
3.88212 -3.007 -0.379741
3.90712 -3.007 -0.382741
3.93112 -3.006 -0.384741
3.94312 -2.996 -0.384741
3.99712 -2.988 -0.389741
4.02212 -2.987 -0.391741
4.05512 -2.992 -0.394741
4.10612 -2.99 -0.399741
4.12212 -2.982 -0.400741
1.12312 -3.211 -0.222741
2.52612 -3.113 -0.297741
2.55412 -3.108 -0.299741
2.65612 -3.1 -0.306741
2.79512 -3.09 -0.316741
2.80612 -3.093 -0.317741
2.89112 -3.087 -0.324741
2.91712 -3.085 -0.326741
3.03112 -3.077 -0.335741
3.09812 -3.066 -0.340741
3.13712 -3.066 -0.343741
3.16712 -3.066 -0.346741
3.20512 -3.064 -0.349741
3.27112 -3.058 -0.354741
3.30412 -3.051 -0.357741
3.32112 -3.047 -0.358741
3.34912 -3.053 -0.361741
3.37512 -3.038 -0.362741
3.41312 -3.043 -0.366741
3.43212 -3.04 -0.368741
3.45512 -3.041 -0.370741
3.48112 -3.045 -0.373741
3.49612 -3.039 -0.373741
3.51812 -3.038 -0.375741
3.51512 -3.026 -0.374741
3.56212 -3.027 -0.379741
3.57712 -3.021 -0.380741
3.60812 -3.028 -0.383741
3.63312 -3.029 -0.385741
3.65312 -3.026 -0.387741
3.66512 -3.027 -0.388741
3.68912 -3.026 -0.391741
3.70112 -3.017 -0.391741
3.73312 -3.023 -0.394741
3.75112 -3.019 -0.396741
3.76612 -3.011 -0.397741
3.79212 -3.012 -0.399741
3.80012 -3.009 -0.400741
3.83412 -3.016 -0.404741
3.85212 -3.01 -0.405741
3.87512 -3.009 -0.407741
3.89112 -3.002 -0.408741
3.92112 -3.005 -0.411741
3.92612 -2.999 -0.411741
3.96112 -3.006 -0.415741
3.97612 -2.998 -0.416741
3.99412 -2.991 -0.417741
4.01912 -2.991 -0.420741
4.04912 -2.993 -0.423741
4.09612 -2.997 -0.428741
4.10712 -2.986 -0.428741
4.13212 -2.984 -0.431741
4.16412 -2.987 -0.434741
0.0361161 -3.283 -0.248741
0.0621161 -3.283 -0.248741
0.0721161 -3.282 -0.248741
0.118116 -3.283 -0.248741
0.139116 -3.28 -0.248741
0.159116 -3.273 -0.247741
0.170116 -3.283 -0.249741
0.180116 -3.272 -0.247741
0.190116 -3.276 -0.248741
0.195116 -3.268 -0.247741
0.215116 -3.264 -0.246741
0.226116 -3.269 -0.247741
0.237116 -3.275 -0.248741
0.247116 -3.272 -0.248741
0.263116 -3.273 -0.248741
0.283116 -3.273 -0.248741
0.293116 -3.27 -0.248741
0.314116 -3.272 -0.249741
0.324116 -3.269 -0.248741
0.339116 -3.262 -0.247741
0.350116 -3.265 -0.248741
0.360116 -3.263 -0.248741
0.371116 -3.264 -0.248741
0.381116 -3.265 -0.249741
0.392116 -3.266 -0.249741
0.417116 -3.263 -0.249741
0.458116 -3.255 -0.249741
0.464116 -3.26 -0.249741
0.474116 -3.261 -0.250741
0.484116 -3.257 -0.249741
0.504116 -3.25 -0.249741
0.572116 -3.249 -0.250741
0.593116 -3.247 -0.250741
0.609116 -3.25 -0.251741
0.620116 -3.248 -0.251741
0.629116 -3.243 -0.251741
0.651116 -3.248 -0.252741
0.657116 -3.247 -0.252741
0.677116 -3.243 -0.252741
0.699116 -3.245 -0.253741
0.719116 -3.24 -0.253741
0.746116 -3.24 -0.254741
0.788116 -3.238 -0.255741
0.932116 -3.227 -0.258741
0.965116 -3.225 -0.259741
0.975116 -3.222 -0.259741
0.997116 -3.22 -0.260741
1.02412 -3.217 -0.261741
1.05812 -3.219 -0.262741
1.09412 -3.211 -0.263741
1.10412 -3.207 -0.263741
1.11212 -3.196 -0.262741
1.12512 -3.202 -0.263741
1.13812 -3.206 -0.264741
1.14812 -3.203 -0.264741
1.15512 -3.206 -0.265741
1.17612 -3.201 -0.265741
1.18512 -3.193 -0.265741
1.20212 -3.208 -0.267741
1.21212 -3.19 -0.265741
1.22612 -3.197 -0.267741
1.25212 -3.204 -0.269741
1.27412 -3.2 -0.270741
1.28212 -3.192 -0.269741
1.30212 -3.197 -0.271741
1.33812 -3.199 -0.273741
1.36012 -3.194 -0.273741
1.37612 -3.189 -0.274741
1.38312 -3.18 -0.273741
1.39812 -3.186 -0.274741
1.40712 -3.178 -0.274741
1.43612 -3.189 -0.277741
1.44612 -3.186 -0.277741
1.47712 -3.187 -0.279741
1.49612 -3.176 -0.279741
1.51012 -3.179 -0.280741
1.54112 -3.179 -0.282741
1.73912 -3.17 -0.293741
1.80812 -3.164 -0.297741
1.96312 -3.152 -0.306741
2.33512 -3.123 -0.331741
2.35212 -3.125 -0.333741
2.46412 -3.117 -0.341741
2.54912 -3.112 -0.348741
2.63612 -3.106 -0.355741
2.88312 -3.088 -0.375741
2.92512 -3.084 -0.378741
2.97712 -3.081 -0.383741
3.09512 -3.073 -0.393741
3.11112 -3.07 -0.395741
3.15312 -3.062 -0.398741
3.17512 -3.065 -0.400741
3.23312 -3.062 -0.406741
3.30012 -3.057 -0.412741
3.31812 -3.055 -0.413741
3.33512 -3.051 -0.415741
3.35812 -3.052 -0.417741
3.42612 -3.045 -0.423741
3.47012 -3.046 -0.428741
3.48712 -3.041 -0.429741
3.62712 -3.034 -0.443741
3.63912 -3.034 -0.444741
3.67812 -3.028 -0.448741
3.72012 -3.023 -0.452741
3.76812 -3.023 -0.457741
3.78112 -3.023 -0.458741
3.86412 -3.011 -0.466741
3.89112 -3.012 -0.469741
3.91512 -3.01 -0.471741
3.97312 -3.006 -0.477741
3.99812 -3.005 -0.480741
4.04112 -2.997 -0.484741
4.06512 -2.995 -0.486741
4.10612 -2.996 -0.491741
4.13712 -2.998 -0.494741
0.0161161 -3.282 -0.270741
0.0261161 -3.286 -0.271741
0.0371161 -3.274 -0.269741
0.0521161 -3.276 -0.269741
0.0621161 -3.276 -0.269741
0.0731161 -3.276 -0.269741
0.0931161 -3.277 -0.270741
0.104116 -3.277 -0.270741
0.114116 -3.278 -0.270741
0.119116 -3.274 -0.269741
0.129116 -3.272 -0.269741
0.160116 -3.27 -0.269741
0.170116 -3.266 -0.269741
0.181116 -3.273 -0.270741
0.186116 -3.279 -0.271741
0.207116 -3.276 -0.270741
0.216116 -3.265 -0.269741
0.227116 -3.265 -0.269741
0.237116 -3.268 -0.269741
0.248116 -3.275 -0.271741
0.252116 -3.259 -0.268741
0.263116 -3.266 -0.269741
0.273116 -3.267 -0.270741
0.283116 -3.264 -0.269741
0.294116 -3.265 -0.270741
0.304116 -3.262 -0.269741
0.320116 -3.267 -0.270741
0.330116 -3.264 -0.270741
0.340116 -3.263 -0.270741
0.350116 -3.26 -0.270741
0.361116 -3.264 -0.271741
0.370116 -3.253 -0.269741
0.381116 -3.262 -0.271741
0.387116 -3.263 -0.271741
0.408116 -3.263 -0.271741
0.448116 -3.256 -0.271741
0.454116 -3.257 -0.271741
0.465116 -3.261 -0.272741
0.475116 -3.258 -0.272741
0.485116 -3.254 -0.271741
0.495116 -3.253 -0.271741
0.506116 -3.259 -0.273741
0.516116 -3.256 -0.272741
0.520116 -3.247 -0.271741
0.542116 -3.251 -0.272741
0.573116 -3.248 -0.273741
0.578116 -3.251 -0.273741
0.597116 -3.24 -0.272741
0.620116 -3.247 -0.274741
0.628116 -3.236 -0.272741
0.650116 -3.241 -0.274741
0.656116 -3.242 -0.274741
0.667116 -3.246 -0.275741
0.688116 -3.242 -0.275741
0.699116 -3.244 -0.275741
0.767116 -3.24 -0.277741
0.803116 -3.233 -0.277741
0.836116 -3.235 -0.279741
0.884116 -3.231 -0.280741
0.895116 -3.23 -0.280741
0.921116 -3.227 -0.281741
0.952116 -3.22 -0.281741
0.974116 -3.221 -0.282741
0.985116 -3.218 -0.282741
1.00112 -3.217 -0.283741
1.01312 -3.22 -0.284741
1.02412 -3.22 -0.284741
1.03512 -3.219 -0.284741
1.04212 -3.208 -0.283741
1.06612 -3.211 -0.285741
1.07212 -3.213 -0.285741
1.10312 -3.207 -0.286741
1.12512 -3.205 -0.287741
1.13312 -3.211 -0.288741
1.16612 -3.21 -0.289741
1.20012 -3.208 -0.291741
1.21512 -3.202 -0.291741
1.22812 -3.206 -0.292741
1.23912 -3.204 -0.292741
1.24712 -3.194 -0.291741
1.26012 -3.199 -0.292741
1.29012 -3.202 -0.294741
1.30012 -3.196 -0.294741
1.30812 -3.187 -0.293741
1.34712 -3.196 -0.297741
1.43912 -3.19 -0.301741
1.47412 -3.188 -0.303741
1.57412 -3.177 -0.308741
1.81512 -3.163 -0.322741
2.60112 -3.103 -0.379741
2.83112 -3.091 -0.399741
2.95412 -3.078 -0.410741
3.91312 -3.012 -0.505741
4.03912 -2.999 -0.518741
4.09112 -2.999 -0.524741
4.11312 -2.995 -0.526741
4.15312 -2.984 -0.530741
