5.48436 2.22402 -1.77901
5.47536 2.24102 -1.77801
5.47136 2.25902 -1.78001
5.47536 2.28102 -1.78301
5.47536 2.29102 -1.78401
5.47136 2.30902 -1.78601
5.46036 2.32502 -1.78401
5.44436 2.33902 -1.78101
5.43536 2.35502 -1.78101
5.42836 2.37202 -1.78101
5.42436 2.39102 -1.78201
5.42236 2.40002 -1.78301
5.41636 2.41802 -1.78301
5.41236 2.43602 -1.78401
5.41636 2.45902 -1.78901
5.39836 2.47102 -1.78501
5.40036 2.49302 -1.78901
5.40536 2.51502 -1.79301
5.38936 2.51802 -1.78901
5.37936 2.53402 -1.78801
5.38736 2.55802 -1.79401
5.36536 2.56902 -1.78901
5.36536 2.59002 -1.79201
5.36436 2.61002 -1.79401
5.34736 2.62202 -1.79101
5.36236 2.64002 -1.79801
5.35536 2.65802 -1.79801
5.33836 2.67002 -1.79501
5.32836 2.68602 -1.79501
5.32136 2.70402 -1.79501
5.31136 2.72002 -1.79501
5.30936 2.74002 -1.79701
5.31936 2.75502 -1.80201
5.30236 2.76702 -1.79901
5.30536 2.79002 -1.80301
5.29836 2.80802 -1.80401
5.27236 2.81502 -1.79801
5.26536 2.83302 -1.79801
5.25936 2.85102 -1.80001
5.24536 2.85402 -1.79601
5.24936 2.87802 -1.80101
5.24336 2.89602 -1.80201
5.22737 2.90902 -1.80001
5.22836 2.93102 -1.80301
5.20736 2.94102 -1.79901
5.20336 2.96002 -1.80101
5.19736 2.96702 -1.80001
5.18436 2.98202 -1.79901
5.17536 2.99802 -1.79901
5.16236 3.01202 -1.79801
5.17736 3.04302 -1.80701
5.15936 3.05402 -1.80401
5.15836 3.07502 -1.80701
5.14836 3.08002 -1.80501
5.13537 3.09502 -1.80401
5.13936 3.11902 -1.80901
5.12736 3.13402 -1.80801
5.12436 3.15402 -1.81101
5.11736 3.17202 -1.81201
5.11836 3.19502 -1.81601
5.10736 3.21002 -1.81601
5.10336 3.21902 -1.81601
5.09336 3.23502 -1.81601
5.08536 3.25202 -1.81701
5.09236 3.27902 -1.82301
5.08836 3.29902 -1.82601
5.07636 3.31402 -1.82501
5.06636 3.31902 -1.82301
5.06536 3.34102 -1.82701
5.04536 3.35102 -1.82301
5.03936 3.37002 -1.82501
5.02736 3.38502 -1.82501
5.03136 3.41002 -1.83001
5.01536 3.42302 -1.82801
5.01936 3.43702 -1.83201
5.01037 3.45402 -1.83301
5.00236 3.47202 -1.83401
4.98836 3.48502 -1.83301
4.98236 3.50402 -1.83401
4.96136 3.53602 -1.83501
2.73336 -4.33998 -1.52701
2.74436 -4.32798 -1.52601
2.75736 -4.31798 -1.52501
2.76536 -4.31498 -1.52601
2.80936 -4.29598 -1.52801
3.30136 -3.96798 -1.53701
3.49836 -3.83598 -1.54701
3.51936 -3.83498 -1.55101
3.53636 -3.82998 -1.55401
3.54636 -3.81598 -1.55201
3.55336 -3.79898 -1.55001
3.57836 -3.80198 -1.55601
3.58036 -3.79198 -1.55401
3.59536 -3.78498 -1.55601
3.60936 -3.77498 -1.55701
3.61536 -3.75798 -1.55401
3.62336 -3.74198 -1.55201
3.66436 -3.70198 -1.55201
4.43036 -2.92398 -1.58401
4.43836 -2.90898 -1.58301
4.45636 -2.88098 -1.58301
4.47136 -2.87098 -1.58601
4.47236 -2.85198 -1.58301
4.47737 -2.84498 -1.58301
4.50636 -2.84398 -1.59101
4.50736 -2.82498 -1.58801
4.51836 -2.81198 -1.58801
4.53836 -2.80398 -1.59301
4.52736 -2.77798 -1.58501
4.54337 -2.77798 -1.59001
4.56536 -2.77198 -1.59401
4.55136 -2.74298 -1.58601
4.56636 -2.73298 -1.58801
4.59136 -2.72898 -1.59401
4.58836 -2.70698 -1.59001
4.59836 -2.69398 -1.59101
4.61236 -2.69198 -1.59401
4.60736 -2.66998 -1.59001
4.60936 -2.65198 -1.58701
4.62636 -2.64198 -1.59001
4.62636 -2.62298 -1.58701
4.64436 -2.61398 -1.59101
4.65036 -2.59798 -1.59001
4.66436 -2.57698 -1.59101
4.67236 -2.56298 -1.59101
4.70136 -2.52098 -1.59301
4.70936 -2.50698 -1.59301
4.71136 -2.49798 -1.59201
4.73336 -2.49098 -1.59701
4.73236 -2.47098 -1.59401
4.74136 -2.45698 -1.59401
4.74936 -2.44198 -1.59401
4.76236 -2.42998 -1.59601
4.77136 -2.40698 -1.59601
4.94836 -2.10798 -1.60701
4.98336 -2.04998 -1.61001
4.99636 -2.03698 -1.61201
5.00836 -2.02298 -1.61401
5.00836 -2.01398 -1.61301
5.01736 -1.99998 -1.61401
5.02436 -1.98398 -1.61401
5.04236 -1.97298 -1.61801
5.05036 -1.95798 -1.61901
5.05637 -1.94198 -1.61901
5.07036 -1.92898 -1.62101
5.07436 -1.92198 -1.62201
5.08236 -1.90598 -1.62201
5.08536 -1.88898 -1.62101
5.10136 -1.87698 -1.62501
5.10736 -1.86098 -1.62501
5.11336 -1.84498 -1.62501
5.12936 -1.83298 -1.62901
5.12736 -1.82298 -1.62701
5.14036 -1.80898 -1.62901
5.49936 0.166022 -1.70901
5.50836 0.244022 -1.71301
5.51136 0.262022 -1.71401
5.50836 0.314022 -1.71401
5.51136 0.331022 -1.71601
5.50836 0.349022 -1.71501
5.50536 0.357022 -1.71401
5.50136 0.374022 -1.71301
5.51336 0.392022 -1.71801
5.50836 0.409022 -1.71601
5.50436 0.427022 -1.71601
5.51436 0.445022 -1.71901
5.50236 0.452022 -1.71601
5.50336 0.470022 -1.71601
5.50736 0.488022 -1.71801
5.50036 0.504022 -1.71601
5.50736 0.523022 -1.71901
5.51736 0.541022 -1.72301
5.49736 0.556022 -1.71701
5.49936 0.566022 -1.71801
5.49836 0.583022 -1.71801
5.49636 0.600022 -1.71801
5.49636 0.618022 -1.71901
5.49936 0.635022 -1.72101
5.49236 0.652022 -1.71901
5.49036 0.669022 -1.71901
5.49136 0.687022 -1.72001
5.48836 0.695022 -1.71901
5.48836 0.713022 -1.72001
5.48636 0.730022 -1.72001
5.47436 0.746022 -1.71701
5.47936 0.764022 -1.71901
5.49036 0.783022 -1.72401
5.46736 0.798022 -1.71701
5.48036 0.808022 -1.72201
5.47436 0.825022 -1.72101
5.48136 0.844022 -1.72401
5.46736 0.859022 -1.72001
5.47236 0.878022 -1.72301
5.45836 0.893022 -1.71901
5.46636 0.912022 -1.72301
5.47036 0.922022 -1.72501
5.45836 0.937022 -1.72101
5.46336 0.956022 -1.72401
5.45836 0.972022 -1.72301
5.45636 0.990022 -1.72401
5.46437 1.00902 -1.72801
5.45936 1.02602 -1.72701
5.45636 1.03402 -1.72601
5.45136 1.05102 -1.72601
5.45536 1.06902 -1.72801
5.45036 1.08602 -1.72801
5.45236 1.10502 -1.73001
5.46136 1.12402 -1.73401
5.45036 1.14002 -1.73101
5.46236 1.15102 -1.73601
5.46236 1.16902 -1.73701
5.45836 1.18602 -1.73701
5.45236 1.20302 -1.73601
5.47136 1.22502 -1.74401
5.45436 1.24002 -1.74001
5.44636 1.25602 -1.73801
5.44636 1.26502 -1.73901
5.44636 1.28302 -1.74001
5.44236 1.30002 -1.74001
5.44736 1.31902 -1.74301
5.43736 1.33502 -1.74101
5.43736 1.35302 -1.74301
5.43236 1.37002 -1.74301
5.43236 1.37902 -1.74301
5.42236 1.39502 -1.74101
5.43636 1.41702 -1.74801
5.42836 1.43302 -1.74701
5.42036 1.44902 -1.74501
5.42136 1.46702 -1.74701
5.41136 1.48302 -1.74501
5.41936 1.49402 -1.74901
5.41636 1.51202 -1.75001
5.39936 1.52502 -1.74501
5.40336 1.54502 -1.74801
5.39636 1.56102 -1.74801
5.40236 1.58102 -1.75201
5.39236 1.59702 -1.75001
5.39736 1.60702 -1.75201
5.38836 1.62302 -1.75101
5.37736 1.63802 -1.74901
5.38136 1.65802 -1.75201
5.36736 1.67202 -1.74901
5.36336 1.69002 -1.75001
5.37636 1.71202 -1.75601
5.35436 1.71402 -1.74901
5.36436 1.73602 -1.75501
5.35936 1.75302 -1.75501
5.35336 1.77002 -1.75501
5.34836 1.78702 -1.75501
5.34936 1.80602 -1.75701
5.32836 1.82702 -1.75301
5.33536 1.84802 -1.75701
5.31836 1.88002 -1.75501
5.32636 1.90202 -1.76001
5.31436 1.93502 -1.76001
5.30936 1.94302 -1.76001
5.30936 1.96102 -1.76201
5.30236 1.97802 -1.76201
5.30536 1.99802 -1.76501
5.28836 2.01102 -1.76101
5.28236 2.02702 -1.76101
5.28436 2.04702 -1.76401
5.28236 2.07502 -1.76701
5.27536 2.09202 -1.76701
5.28136 2.11302 -1.77101
5.26936 2.12802 -1.76901
5.27436 2.14902 -1.77401
5.25436 2.16002 -1.76901
5.26436 2.17402 -1.77401
5.26436 2.19302 -1.77601
5.25036 2.20702 -1.77401
5.24736 2.22502 -1.77501
5.25936 2.25002 -1.78201
5.24036 2.26102 -1.77701
5.24336 2.28202 -1.78101
5.25336 2.29602 -1.78601
5.23836 2.30902 -1.78301
5.22737 2.32402 -1.78201
5.23536 2.34702 -1.78701
5.20736 2.35402 -1.78001
5.20536 2.37302 -1.78201
5.20636 2.39302 -1.78501
5.19236 2.39702 -1.78101
5.17936 2.41102 -1.77901
5.18736 2.43402 -1.78501
5.16436 2.44302 -1.77901
5.16636 2.46402 -1.78301
5.16236 2.48202 -1.78401
5.14636 2.49402 -1.78101
5.14936 2.50602 -1.78401
5.14736 2.52502 -1.78601
5.13436 2.53902 -1.78401
5.13136 2.55702 -1.78601
5.12236 2.57302 -1.78501
5.10736 2.58502 -1.78301
5.10736 2.60602 -1.78601
5.11036 2.61702 -1.78901
5.08836 2.62602 -1.78401
5.08736 2.64602 -1.78601
5.08236 2.66302 -1.78701
5.06636 2.67602 -1.78501
5.06036 2.71302 -1.78901
5.05336 2.73002 -1.78901
5.05236 2.74002 -1.79101
5.03636 2.75202 -1.78801
5.03836 2.77302 -1.79201
5.03236 2.79102 -1.79301
5.02036 2.80502 -1.79201
5.01336 2.82102 -1.79201
5.02036 2.83602 -1.79701
5.00536 2.84802 -1.79401
4.99936 2.86502 -1.79601
5.00336 2.88902 -1.80101
4.97836 2.89502 -1.79401
4.97536 2.91402 -1.79701
4.98236 2.94002 -1.80301
4.96836 2.94202 -1.79901
4.97336 2.96602 -1.80501
4.95436 2.97602 -1.80101
4.93836 2.98702 -1.79901
4.93736 3.00802 -1.80201
4.93436 3.02702 -1.80401
4.92336 3.04202 -1.80401
4.92636 3.05502 -1.80701
4.90836 3.06502 -1.80401
4.90736 3.08502 -1.80701
4.90836 3.10802 -1.81101
4.90036 3.12402 -1.81201
4.89236 3.14102 -1.81301
4.88636 3.15902 -1.81401
4.88537 3.16902 -1.81601
4.87036 3.18102 -1.81401
4.86636 3.20102 -1.81601
4.86336 3.22002 -1.81901
4.84836 3.23202 -1.81701
4.83937 3.24902 -1.81801
4.84336 3.27302 -1.82301
4.82336 3.28202 -1.81901
4.82436 3.29402 -1.82201
4.81436 3.30902 -1.82201
4.79736 3.32002 -1.81901
4.80536 3.34802 -1.82701
4.78936 3.35902 -1.82401
4.76736 3.36602 -1.82001
4.77536 3.39402 -1.82801
4.77136 3.40302 -1.82801
4.76236 3.41902 -1.82901
4.76136 3.44102 -1.83301
4.75036 3.45602 -1.83301
4.73636 3.46802 -1.83101
4.72636 3.49502 -1.83401
2.78136 -4.12198 -1.53401
3.48336 -3.61698 -1.55001
3.50536 -3.60598 -1.55301
3.51836 -3.59698 -1.55301
3.52636 -3.58298 -1.55201
3.55136 -3.56298 -1.55301
3.57736 -3.54398 -1.55501
3.58636 -3.54198 -1.55701
3.59536 -3.52798 -1.55501
3.60736 -3.51798 -1.55601
3.62836 -3.51598 -1.56001
3.63636 -3.50198 -1.55901
3.64536 -3.48898 -1.55901
3.65936 -3.47998 -1.56001
3.66936 -3.47798 -1.56201
3.67836 -3.46598 -1.56101
3.69536 -3.45898 -1.56401
3.69636 -3.43898 -1.55901
3.72536 -3.44398 -1.56701
3.73136 -3.42798 -1.56501
3.73936 -3.41398 -1.56401
3.75236 -3.41398 -1.56701
3.75736 -3.39698 -1.56501
3.75336 -3.37298 -1.55901
4.13936 -2.97798 -1.57601
4.15536 -2.96898 -1.57901
4.16436 -2.95598 -1.57901
4.16336 -2.94498 -1.57601
4.18836 -2.94298 -1.58201
4.18137 -2.91898 -1.57601
4.20136 -2.91298 -1.58101
4.21236 -2.90098 -1.58101
4.22836 -2.87398 -1.58101
4.23536 -2.86798 -1.58101
4.25336 -2.84198 -1.58101
4.27136 -2.83398 -1.58501
4.27536 -2.81798 -1.58301
4.28436 -2.80398 -1.58301
4.30436 -2.79798 -1.58701
4.29736 -2.78398 -1.58301
4.31936 -2.77898 -1.58801
4.32636 -2.76398 -1.58701
4.33836 -2.75298 -1.58901
4.34336 -2.73698 -1.58701
4.36136 -2.72898 -1.59101
4.37336 -2.71798 -1.59201
4.37136 -2.70698 -1.59001
4.38136 -2.69398 -1.59101
4.39136 -2.68098 -1.59101
4.39836 -2.66598 -1.59101
4.41136 -2.65598 -1.59201
4.41336 -2.63798 -1.59001
4.42836 -2.62798 -1.59201
4.43336 -2.62198 -1.59301
4.44236 -2.60798 -1.59301
4.46336 -2.60098 -1.59801
4.46437 -2.58398 -1.59601
4.46136 -2.56298 -1.59101
4.47737 -2.55398 -1.59401
4.48436 -2.53898 -1.59401
4.49536 -2.52598 -1.59501
4.48736 -2.51298 -1.59101
4.50636 -2.48598 -1.59201
4.52136 -2.47598 -1.59401
4.53536 -2.44698 -1.59401
4.74936 -2.09898 -1.60701
4.77636 -2.06598 -1.61101
4.79337 -2.01998 -1.61001
4.80136 -2.00598 -1.61101
4.81036 -1.99198 -1.61101
4.81836 -1.97698 -1.61201
4.82836 -1.97298 -1.61401
4.82736 -1.95498 -1.61201
4.83836 -1.94198 -1.61401
4.85536 -1.92998 -1.61801
4.86336 -1.91598 -1.61801
4.86536 -1.89898 -1.61701
4.87236 -1.89298 -1.61801
4.88537 -1.87998 -1.62101
4.88736 -1.86398 -1.61901
4.89836 -1.84998 -1.62101
4.91136 -1.83798 -1.62401
4.91536 -1.82098 -1.62301
4.93137 -1.80998 -1.62701
4.93636 -1.80298 -1.62801
4.96036 -1.77598 -1.63201
4.98236 -1.76598 -1.63801
4.97536 -1.74598 -1.63301
4.98936 -1.73398 -1.63601
4.99836 -1.71898 -1.63801
4.99436 -1.69998 -1.63501
5.01136 -1.69698 -1.64001
5.31036 0.031022 -1.69501
5.32836 0.064022 -1.70101
5.34236 0.073022 -1.70601
5.34336 0.089022 -1.70701
5.31636 0.106022 -1.69801
5.31036 0.122022 -1.69601
5.34636 0.140022 -1.70801
5.31736 0.156022 -1.69801
5.34136 0.165022 -1.70701
5.31336 0.181022 -1.69701
5.34636 0.199022 -1.70901
5.34736 0.216022 -1.70901
5.31136 0.231022 -1.69701
5.35136 0.249022 -1.71101
5.32236 0.265022 -1.70101
5.32836 0.274022 -1.70301
5.35136 0.291022 -1.71201
5.35036 0.308022 -1.71201
5.34636 0.325022 -1.71001
5.33536 0.341022 -1.70701
5.35836 0.359022 -1.71601
5.35237 0.376022 -1.71401
5.33937 0.392022 -1.71001
5.32736 0.399022 -1.70601
5.33536 0.417022 -1.70901
5.36636 0.436022 -1.72001
5.35136 0.452022 -1.71601
5.35237 0.469022 -1.71601
5.35836 0.486022 -1.71901
5.34136 0.502022 -1.71401
5.34236 0.510022 -1.71401
5.32636 0.526022 -1.70901
5.32636 0.543022 -1.71001
5.31736 0.559022 -1.70701
5.33736 0.578022 -1.71501
5.32136 0.593022 -1.71001
5.33736 0.612022 -1.71601
5.34036 0.620022 -1.71801
5.31836 0.635022 -1.71001
5.31436 0.779022 -1.71601
5.30536 0.837022 -1.71601
5.30036 0.948022 -1.72001
5.29936 0.982022 -1.72201
5.29836 0.999022 -1.72301
5.29536 1.01502 -1.72301
5.28636 1.12602 -1.72701
5.29536 1.14502 -1.73201
5.30336 1.16402 -1.73601
5.30536 1.19102 -1.73801
5.27536 1.21902 -1.73001
5.28436 1.23902 -1.73501
5.29236 1.30202 -1.74301
5.26436 1.31302 -1.73401
5.26436 1.33002 -1.73601
5.25736 1.36402 -1.73601
5.25836 1.38202 -1.73801
5.27836 1.43102 -1.74901
5.25736 1.47902 -1.74701
5.24236 1.49202 -1.74301
5.23036 1.53402 -1.74301
5.23836 1.55402 -1.74701
5.22236 1.58502 -1.74501
5.21936 1.60202 -1.74601
5.05236 2.26702 -1.77201
5.03636 2.29802 -1.77201
4.80036 2.89502 -1.79601
4.75236 2.97902 -1.79701
4.75136 3.02002 -1.80401
4.73236 3.01902 -1.79801
4.72436 3.05602 -1.80301
4.70236 3.08302 -1.80101
4.69236 3.10802 -1.80301
4.58436 3.33602 -1.81701
4.56236 3.34102 -1.81201
2.69636 -4.02198 -1.53601
2.71336 -4.01998 -1.53801
2.72636 -4.01098 -1.53801
2.73436 -4.00998 -1.54001
2.77236 -3.98398 -1.54001
3.31436 -3.59698 -1.55301
3.34836 -3.56598 -1.55301
3.37236 -3.54598 -1.55301
3.38036 -3.54398 -1.55401
3.39236 -3.53498 -1.55501
3.40536 -3.52498 -1.55601
3.41636 -3.51498 -1.55601
3.43236 -3.50898 -1.55801
3.44636 -3.50098 -1.56001
3.45336 -3.48598 -1.55801
3.46036 -3.48198 -1.55801
3.47436 -3.47498 -1.56001
3.48436 -3.46298 -1.56001
3.50636 -3.46298 -1.56501
3.51036 -3.44498 -1.56201
3.52236 -3.43498 -1.56201
3.53136 -3.42298 -1.56201
3.53836 -3.41898 -1.56201
3.55736 -3.41598 -1.56601
3.56936 -3.40598 -1.56701
3.57736 -3.39198 -1.56501
3.58936 -3.38198 -1.56601
3.60136 -3.37198 -1.56701
3.60236 -3.35098 -1.56201
3.62136 -3.35898 -1.56901
3.61936 -3.33598 -1.56301
3.63636 -3.33098 -1.56601
3.65036 -3.32198 -1.56701
3.66736 -3.31698 -1.57101
3.68736 -3.31398 -1.57501
3.69136 -3.29598 -1.57201
3.71136 -3.30398 -1.57901
3.72436 -3.29498 -1.58001
3.72336 -3.27298 -1.57501
3.74536 -3.27198 -1.58001
3.75836 -3.26198 -1.58201
3.76036 -3.24298 -1.57801
4.01536 -2.96698 -1.58701
4.00936 -2.94298 -1.58001
4.02336 -2.93298 -1.58201
4.03336 -2.92198 -1.58301
4.03536 -2.91298 -1.58201
4.04136 -2.89798 -1.58001
4.06236 -2.89498 -1.58501
4.05336 -2.86898 -1.57801
4.07436 -2.86498 -1.58301
4.08036 -2.84998 -1.58201
4.09236 -2.83898 -1.58301
4.10036 -2.83498 -1.58401
4.11536 -2.82598 -1.58701
4.11736 -2.80898 -1.58401
4.12836 -2.79698 -1.58501
4.14436 -2.78898 -1.58801
4.15236 -2.77498 -1.58701
4.15936 -2.76098 -1.58701
4.17636 -2.76298 -1.59201
4.17836 -2.74598 -1.58901
4.19136 -2.73598 -1.59101
4.19236 -2.71698 -1.58801
4.21036 -2.70998 -1.59201
4.21437 -2.69398 -1.59001
4.23736 -2.68998 -1.59601
4.23436 -2.66998 -1.59101
4.25436 -2.67298 -1.59801
4.25836 -2.65698 -1.59601
4.27136 -2.64598 -1.59801
4.27636 -2.63098 -1.59601
4.27336 -2.60998 -1.59201
4.29436 -2.60498 -1.59701
4.29536 -2.58698 -1.59401
4.30637 -2.58498 -1.59701
4.32936 -2.57998 -1.60301
4.31136 -2.55098 -1.59301
4.33736 -2.54798 -1.60001
4.34536 -2.53398 -1.60001
4.35336 -2.51998 -1.60001
4.36736 -2.51098 -1.60201
4.36136 -2.49798 -1.59801
4.38036 -2.49098 -1.60301
4.38036 -2.47198 -1.60001
4.38836 -2.45898 -1.60001
4.39736 -2.44598 -1.60001
4.40836 -2.43398 -1.60201
4.40736 -2.41498 -1.59801
4.40536 -2.40498 -1.59601
4.42836 -2.38198 -1.59901
4.43036 -2.36498 -1.59701
4.44136 -2.35298 -1.59801
4.45936 -2.32698 -1.60001
4.47336 -2.30698 -1.60101
4.49336 -2.28198 -1.60301
4.50436 -2.25198 -1.60201
4.54536 -2.19298 -1.60501
4.56636 -2.14998 -1.60501
4.62136 -2.07898 -1.61201
4.62436 -2.05498 -1.61001
4.64736 -2.02998 -1.61401
4.66336 -1.98498 -1.61201
4.66236 -1.97598 -1.61101
4.67736 -1.96498 -1.61401
4.68636 -1.93398 -1.61301
4.72436 -1.88098 -1.61801
4.71836 -1.86998 -1.61501
4.76536 -1.78498 -1.62001
4.77536 -1.77998 -1.62201
4.77336 -1.76298 -1.62001
4.78136 -1.74798 -1.62001
4.80036 -1.73898 -1.62501
4.80236 -1.72198 -1.62401
4.80436 -1.70598 -1.62301
4.82736 -1.69698 -1.62901
4.83336 -1.69098 -1.63101
4.83937 -1.67498 -1.63101
4.86036 -1.66598 -1.63601
5.29036 -0.326978 -1.69201
5.29936 -0.277978 -1.69401
5.28636 -0.268978 -1.68901
5.30036 -0.252978 -1.69401
5.29136 -0.235978 -1.69001
5.30036 -0.202978 -1.69301
5.30436 -0.143978 -1.69401
5.29636 -0.110978 -1.69001
5.31336 -0.052978 -1.69601
5.30836 -0.018978 -1.69401
5.19936 0.604022 -1.72301
5.20036 0.654022 -1.72601
5.20636 0.671022 -1.72801
5.20336 0.679022 -1.72801
5.19736 0.695022 -1.72601
5.20436 0.713022 -1.73001
5.19436 0.728022 -1.72701
5.20136 0.746022 -1.73001
5.18436 0.760022 -1.72501
5.18036 0.776022 -1.72401
5.19736 0.787022 -1.73101
5.17836 0.800022 -1.72501
5.19236 0.819022 -1.73101
5.18636 0.835022 -1.73001
5.18336 0.851022 -1.73001
5.17936 0.867022 -1.72901
5.18536 0.885022 -1.73201
5.17536 0.892022 -1.72901
5.18137 0.910022 -1.73201
5.18236 0.927022 -1.73301
5.17936 0.943022 -1.73301
5.18036 0.960022 -1.73501
5.17736 0.976022 -1.73501
5.17036 0.992022 -1.73301
5.18336 1.00302 -1.73901
5.17336 1.01802 -1.73601
5.17336 1.03502 -1.73701
5.16036 1.04902 -1.73401
5.17236 1.06802 -1.73901
5.16936 1.08402 -1.73901
5.17636 1.10302 -1.74301
5.18036 1.11202 -1.74501
5.17536 1.12802 -1.74501
5.17736 1.14602 -1.74701
5.14836 1.34502 -1.75301
5.14236 1.36102 -1.75301
5.13436 1.41102 -1.75501
5.13736 1.43702 -1.75801
5.12136 1.45002 -1.75401
5.12236 1.46802 -1.75601
5.11936 1.48502 -1.75701
5.09536 1.49502 -1.74901
5.11536 1.51802 -1.75901
5.08336 1.52602 -1.74901
5.10436 1.54102 -1.75701
5.11236 1.56102 -1.76201
5.09136 1.57202 -1.75601
5.08136 1.58602 -1.75401
5.09236 1.60802 -1.76001
5.08536 1.62302 -1.75901
5.07436 1.63702 -1.75701
5.08336 1.64902 -1.76101
5.07236 1.66302 -1.75901
5.06036 1.67602 -1.75701
5.05436 1.69202 -1.75701
5.05637 1.71102 -1.75901
5.05336 1.72702 -1.76001
5.05836 1.74702 -1.76401
5.03736 1.74802 -1.75701
5.03736 1.76602 -1.75901
5.04636 1.78702 -1.76501
5.02636 1.79802 -1.75901
5.01037 1.81002 -1.75501
5.03636 1.83702 -1.76701
5.02136 1.85002 -1.76401
5.01636 1.85702 -1.76301
5.01236 1.87302 -1.76401
5.00836 1.89002 -1.76501
5.01836 1.91202 -1.77101
5.01736 1.92902 -1.77301
5.00236 1.94202 -1.76901
4.99536 1.95702 -1.76901
4.99936 1.97702 -1.77301
4.98736 1.98102 -1.76901
4.98636 1.99902 -1.77101
4.99936 2.02202 -1.77801
4.97737 2.03102 -1.77301
4.98336 2.05202 -1.77701
4.98536 2.07102 -1.78001
4.98036 2.07902 -1.78001
4.97536 2.09502 -1.78001
4.97036 2.11102 -1.78101
4.95336 2.12202 -1.77701
4.94536 2.13702 -1.77601
4.96036 2.16302 -1.78501
4.95036 2.17702 -1.78401
4.94736 2.18402 -1.78401
4.92436 2.23002 -1.78301
4.89436 2.35702 -1.79201
4.87536 2.36702 -1.78801
4.87736 2.38702 -1.79201
4.86136 2.40702 -1.79001
4.86236 2.42702 -1.79301
4.85436 2.44202 -1.79301
4.84336 2.45602 -1.79201
4.84436 2.47502 -1.79501
4.82436 2.48402 -1.79001
4.82536 2.50402 -1.79401
4.82636 2.51402 -1.79601
4.81636 2.52802 -1.79501
4.80536 2.54202 -1.79401
4.80036 2.55902 -1.79501
4.79436 2.57502 -1.79601
4.78736 2.59002 -1.79601
4.78136 2.60602 -1.79701
4.78536 2.61902 -1.80001
4.76936 2.62902 -1.79701
4.76436 2.64602 -1.79801
4.76236 2.66402 -1.80101
4.75536 2.68002 -1.80201
4.74736 2.69502 -1.80201
4.74636 2.70502 -1.80301
4.73436 2.71802 -1.80201
4.72936 2.73402 -1.80301
4.72536 2.75202 -1.80501
4.71936 2.76902 -1.80601
4.71236 2.78502 -1.80701
4.70436 2.79902 -1.80701
4.69636 2.80502 -1.80601
4.69036 2.82202 -1.80701
4.67936 2.85502 -1.81001
4.66837 2.86902 -1.80901
2.60336 -3.97198 -1.55301
2.60736 -3.95098 -1.54801
2.63736 -3.90398 -1.54001
2.66836 -3.89598 -1.54401
2.67736 -3.88298 -1.54201
2.69936 -3.88898 -1.54801
2.71336 -3.88198 -1.54801
2.71736 -3.87398 -1.54701
2.72436 -3.85998 -1.54401
2.76936 -3.84598 -1.55001
2.78036 -3.83598 -1.54901
2.78936 -3.82198 -1.54701
2.79236 -3.81398 -1.54501
3.23336 -3.49398 -1.55701
3.24436 -3.48398 -1.55701
3.27636 -3.46398 -1.55901
3.28936 -3.45498 -1.56001
3.30136 -3.44598 -1.56101
3.31036 -3.43398 -1.56001
3.32436 -3.42598 -1.56101
3.34536 -3.42598 -1.56701
3.34136 -3.41198 -1.56201
3.35636 -3.40498 -1.56401
3.36936 -3.39698 -1.56501
3.37436 -3.38198 -1.56301
3.38036 -3.36598 -1.56001
3.41036 -3.37498 -1.57001
3.41436 -3.35698 -1.56701
3.42436 -3.35598 -1.56901
3.44936 -3.35998 -1.57601
3.46436 -3.35298 -1.57801
3.47336 -3.34098 -1.57701
3.51036 -3.31298 -1.58001
3.54036 -3.28898 -1.58201
3.56136 -3.24698 -1.57701
3.57936 -3.24298 -1.58101
3.57936 -3.23198 -1.57901
3.58936 -3.22098 -1.57901
3.60336 -3.21398 -1.58101
3.61136 -3.19998 -1.57901
3.61636 -3.18498 -1.57701
3.63236 -3.17798 -1.58001
3.64136 -3.16598 -1.57901
3.64336 -3.15698 -1.57801
3.65536 -3.14798 -1.57901
3.66436 -3.13598 -1.57901
3.66636 -3.11798 -1.57501
3.69236 -3.11998 -1.58301
3.70336 -3.10898 -1.58301
3.92636 -2.86798 -1.59301
3.95036 -2.85698 -1.59701
3.96136 -2.82698 -1.59401
3.98036 -2.82198 -1.59801
4.00336 -2.79998 -1.60001
4.00436 -2.79098 -1.59901
4.01636 -2.78098 -1.60001
4.04337 -2.74398 -1.60101
4.05536 -2.73298 -1.60201
4.08836 -2.69098 -1.60401
4.36436 -2.30698 -1.61801
4.38736 -2.26598 -1.61901
4.39636 -2.25298 -1.62001
4.40636 -2.24098 -1.62101
4.42536 -2.20698 -1.62201
4.43436 -2.19398 -1.62201
4.45936 -2.15498 -1.62401
4.47636 -2.11998 -1.62401
4.48636 -2.08998 -1.62301
4.49136 -2.07498 -1.62201
4.50436 -2.04698 -1.62201
4.51936 -2.04498 -1.62701
4.53236 -2.01698 -1.62701
4.55136 -1.97398 -1.62701
4.56236 -1.96198 -1.62901
4.57136 -1.93998 -1.62901
4.58436 -1.92898 -1.63201
4.59236 -1.88098 -1.62801
4.61536 -1.86498 -1.63301
4.61936 -1.84998 -1.63201
4.63036 -1.82098 -1.63201
4.64536 -1.80998 -1.63601
4.65436 -1.79598 -1.63701
4.65536 -1.77198 -1.63401
4.66636 -1.72598 -1.63201
4.69336 -1.71898 -1.64001
4.69036 -1.70098 -1.63701
4.69736 -1.68698 -1.63801
4.70536 -1.68098 -1.64001
4.71936 -1.65298 -1.64101
5.07636 0.451022 -1.71601
5.08836 0.484022 -1.72201
5.08836 0.541022 -1.72401
5.06436 0.570022 -1.71601
5.08536 0.589022 -1.72501
5.06436 0.603022 -1.71801
5.08536 0.613022 -1.72601
5.08236 0.629022 -1.72501
5.07836 0.645022 -1.72501
5.08937 0.662022 -1.72901
5.06236 0.675022 -1.72001
5.07336 0.693022 -1.72501
5.07136 0.709022 -1.72501
5.06836 0.716022 -1.72501
5.06536 0.749022 -1.72501
5.08036 0.767022 -1.73101
5.06236 0.781022 -1.72601
5.07136 0.798022 -1.73001
5.06736 0.814022 -1.72901
5.06636 0.822022 -1.72901
5.05536 0.853022 -1.72701
5.06136 0.870022 -1.73101
5.05136 0.885022 -1.72801
5.06136 0.903022 -1.73301
5.04236 0.916022 -1.72701
5.06436 0.928022 -1.73501
5.06936 0.945022 -1.73801
5.05036 0.975022 -1.73301
5.06936 0.995022 -1.74101
5.05836 1.00902 -1.73901
5.05536 1.02502 -1.73901
5.06136 1.03502 -1.74101
5.04836 1.04902 -1.73801
5.05136 1.06602 -1.74001
5.05736 1.08302 -1.74301
5.04636 1.09802 -1.74101
5.05036 1.11502 -1.74301
5.02636 1.13502 -1.73701
5.04836 1.15602 -1.74601
5.03036 1.16902 -1.74101
5.03936 1.18802 -1.74501
5.03336 1.20302 -1.74501
5.02736 1.24302 -1.74601
5.02336 1.29302 -1.74901
5.02236 1.30902 -1.75001
4.99436 1.33602 -1.74301
5.00036 1.36302 -1.74801
4.98936 1.37602 -1.74501
4.98036 1.40802 -1.74501
4.99236 1.42802 -1.75101
4.97636 1.44002 -1.74701
4.98136 1.45002 -1.75001
4.99336 1.47102 -1.75601
4.95636 1.47702 -1.74301
4.97336 1.49902 -1.75201
4.95736 1.51102 -1.74801
4.97136 1.53202 -1.75401
4.95936 1.54602 -1.75201
4.93536 1.54702 -1.74301
4.95136 1.56902 -1.75201
4.94436 1.58402 -1.75101
4.94136 1.60002 -1.75201
4.96736 1.62502 -1.76301
4.92036 1.62802 -1.74801
4.93137 1.64802 -1.75401
4.93036 1.66502 -1.75501
4.92036 1.67002 -1.75201
4.92436 1.68902 -1.75601
4.90636 1.70002 -1.75101
4.90036 1.71502 -1.75101
4.89936 1.73202 -1.75201
4.90636 1.75202 -1.75701
4.91936 1.76502 -1.76301
4.88537 1.77002 -1.75201
4.90236 1.79402 -1.76101
4.89036 1.80702 -1.75801
4.87536 1.81902 -1.75501
4.87836 1.83802 -1.75801
4.87836 1.85502 -1.76001
4.88537 1.86602 -1.76401
4.88537 1.88402 -1.76601
4.87036 1.89602 -1.76301
4.86036 1.91002 -1.76201
4.86336 1.92802 -1.76501
4.86836 1.94802 -1.76901
4.84936 1.95802 -1.76401
4.86036 1.97102 -1.77001
4.84336 1.98202 -1.76601
4.84236 2.00002 -1.76801
4.83436 2.01402 -1.76701
4.84236 2.03502 -1.77201
4.82736 2.04702 -1.76901
4.82936 2.06602 -1.77201
4.82736 2.07402 -1.77301
4.81936 2.08802 -1.77201
4.80637 2.10002 -1.77001
4.83236 2.13002 -1.78301
4.80836 2.13702 -1.77601
4.80637 2.15502 -1.77801
4.78436 2.16302 -1.77201
4.79136 2.18402 -1.77701
4.79636 2.19602 -1.78101
4.78936 2.21102 -1.78101
4.78936 2.22902 -1.78301
4.79036 2.26602 -1.78901
4.76836 2.27402 -1.78301
4.77136 2.29402 -1.78701
4.76037 2.29802 -1.78501
4.76236 2.31702 -1.78801
4.76336 2.33602 -1.79101
4.75036 2.36702 -1.79201
4.73236 2.38602 -1.78901
4.72436 2.40102 -1.78901
4.71036 2.41202 -1.78701
4.72336 2.43702 -1.79501
4.69036 2.43902 -1.78501
4.70236 2.46402 -1.79301
4.69436 2.47902 -1.79301
4.68236 2.48202 -1.78901
4.68436 2.50202 -1.79301
4.66837 2.51202 -1.79001
4.67036 2.53202 -1.79401
4.65636 2.54302 -1.79101
4.66436 2.56702 -1.79801
4.64936 2.57802 -1.79501
4.64836 2.59602 -1.79801
4.63236 2.59702 -1.79301
4.64236 2.62202 -1.80101
4.61936 2.62802 -1.79501
4.62736 2.65202 -1.80201
4.60936 2.66102 -1.79701
4.60636 2.67802 -1.80001
4.60436 2.69602 -1.80201
4.59936 2.70302 -1.80201
4.55836 2.73702 -1.79501
4.57336 2.76602 -1.80601
4.55336 2.77302 -1.80101
4.55336 2.79202 -1.80401
4.55336 2.80302 -1.80601
4.53636 2.81202 -1.80301
4.53436 2.83002 -1.80601
4.51936 2.86102 -1.80701
4.51236 2.89602 -1.81201
4.49336 2.89402 -1.80601
4.48636 2.92902 -1.81001
4.47737 2.94302 -1.81001
4.47936 2.96502 -1.81501
4.44336 2.98102 -1.80801
4.45036 2.99702 -1.81301
4.42136 3.01702 -1.80801
4.42836 3.04302 -1.81601
4.41236 3.05202 -1.81301
4.40036 3.06402 -1.81201
4.39636 3.08202 -1.81401
4.38936 3.10802 -1.81801
4.37336 3.11802 -1.81501
4.37136 3.13702 -1.81801
4.35136 3.14302 -1.81401
2.33036 -3.97198 -1.54001
2.34136 -3.96098 -1.53901
2.37036 -3.95398 -1.54201
2.38036 -3.95698 -1.54501
2.45536 -3.91298 -1.54601
2.46736 -3.88998 -1.54101
2.49036 -3.89998 -1.54801
2.50236 -3.89198 -1.54801
2.50936 -3.87598 -1.54501
2.56536 -3.84198 -1.54601
2.59636 -3.86198 -1.55801
2.60636 -3.85098 -1.55601
2.61836 -3.84298 -1.55601
2.63336 -3.83898 -1.55801
2.64036 -3.83698 -1.55901
2.64436 -3.81598 -1.55401
2.77436 -3.75998 -1.56401
2.77536 -3.73598 -1.55801
2.83336 -3.70398 -1.56101
2.85336 -3.70498 -1.56601
2.86036 -3.68998 -1.56301
2.86836 -3.67698 -1.56101
2.86136 -3.65598 -1.55401
2.92636 -3.59698 -1.55201
2.93336 -3.59398 -1.55201
2.95036 -3.59198 -1.55601
3.17036 -3.46598 -1.57301
3.17736 -3.45098 -1.57101
3.18736 -3.45098 -1.57301
3.21136 -3.43298 -1.57501
3.24236 -3.40098 -1.57401
3.25536 -3.39398 -1.57501
3.27636 -3.38398 -1.57801
3.28536 -3.37198 -1.57701
3.47636 -3.20598 -1.58501
3.51736 -3.15298 -1.58301
3.53536 -3.14998 -1.58701
4.91736 0.006022 -1.70001
4.92836 0.021022 -1.70401
4.93236 0.052022 -1.70501
4.92436 0.091022 -1.70301
4.92936 0.107022 -1.70501
4.93137 0.122022 -1.70501
4.93436 0.138022 -1.70701
4.92736 0.168022 -1.70501
4.92536 0.184022 -1.70401
4.93836 0.192022 -1.70901
4.93536 0.223022 -1.70801
4.92636 0.238022 -1.70501
4.91736 0.269022 -1.70301
4.94436 0.286022 -1.71301
4.92036 0.292022 -1.70401
4.92136 0.308022 -1.70501
4.91837 0.323022 -1.70401
4.91536 0.338022 -1.70301
4.91036 0.354022 -1.70201
4.91636 0.370022 -1.70501
4.91136 0.385022 -1.70301
4.92236 0.393022 -1.70701
4.92636 0.409022 -1.70901
4.92536 0.425022 -1.70901
4.90536 0.438022 -1.70301
4.90936 0.454022 -1.70501
4.92336 0.471022 -1.71001
4.90236 0.493022 -1.70301
4.90236 0.524022 -1.70501
4.90836 0.540022 -1.70701
4.90136 0.570022 -1.70601
4.90636 0.594022 -1.70901
4.89936 0.672022 -1.71001
4.89436 0.773022 -1.71401
4.89736 0.813022 -1.71701
4.88936 0.859022 -1.71701
4.89036 0.876022 -1.71801
4.88136 0.945022 -1.72001
4.88236 0.977022 -1.72301
4.85436 1.30202 -1.74001
4.83536 1.33802 -1.73601
4.79136 1.55502 -1.74401
4.65736 2.05802 -1.76401
4.63036 2.14202 -1.76801
4.60936 2.23002 -1.77401
4.59536 2.24102 -1.77201
4.59636 2.26002 -1.77501
4.58436 2.27202 -1.77301
4.58736 2.29102 -1.77701
4.56836 2.29902 -1.77201
4.56436 2.31502 -1.77401
4.57236 2.32902 -1.77901
4.56036 2.34002 -1.77701
4.54236 2.36702 -1.77501
4.53036 2.39802 -1.77701
4.52136 2.41102 -1.77601
4.52436 2.42202 -1.77901
4.50636 2.48602 -1.78401
4.47936 2.50702 -1.77901
4.47336 2.51302 -1.77901
4.44636 2.57202 -1.78101
4.43636 2.61302 -1.78501
4.41236 2.65602 -1.78501
4.35237 2.78102 -1.79101
4.17836 3.15702 -1.81701
2.64636 -3.68498 -1.55901
2.64536 -3.65998 -1.55201
2.73536 -3.60198 -1.55501
2.75236 -3.60098 -1.55801
2.77236 -3.60298 -1.56301
2.77836 -3.58798 -1.56001
2.79036 -3.57898 -1.56001
3.07836 -3.34498 -1.56301
3.08536 -3.33298 -1.56201
3.10536 -3.32198 -1.56401
3.11736 -3.31398 -1.56401
3.12736 -3.30398 -1.56401
3.19536 -3.24098 -1.56501
3.31836 -3.13998 -1.57101
3.32336 -3.12598 -1.56901
3.34636 -3.10698 -1.57001
3.38836 -3.07798 -1.57501
3.40236 -3.05198 -1.57201
3.41336 -3.04198 -1.57301
3.42436 -3.03298 -1.57301
3.44136 -3.01898 -1.57501
3.44636 -3.00398 -1.57301
3.46436 -3.00098 -1.57701
3.48536 -2.99998 -1.58201
3.49036 -2.98498 -1.58001
3.52436 -2.99498 -1.59201
3.53036 -2.97198 -1.58801
3.54036 -2.96098 -1.58801
3.55336 -2.95298 -1.59101
3.55736 -2.93798 -1.58801
3.58236 -2.93898 -1.59501
3.59036 -2.92698 -1.59501
3.59536 -2.91198 -1.59301
3.59836 -2.90498 -1.59201
3.61036 -2.89598 -1.59301
3.61436 -2.88098 -1.59101
3.62936 -2.87498 -1.59401
3.64136 -2.84698 -1.59101
3.66536 -2.83798 -1.59601
3.70236 -2.79298 -1.59701
3.72536 -2.76498 -1.59701
4.05236 -2.35698 -1.61501
4.13136 -2.24098 -1.62001
4.14336 -2.22198 -1.62001
4.14336 -2.20598 -1.61801
4.15536 -2.19498 -1.62001
4.19436 -2.13998 -1.62301
4.21936 -2.10298 -1.62501
4.22936 -2.09198 -1.62601
4.23636 -2.06998 -1.62501
4.27236 -2.02098 -1.62901
4.28636 -1.99498 -1.63001
4.30136 -1.96198 -1.63001
4.31636 -1.91898 -1.62901
4.31936 -1.90398 -1.62701
4.32936 -1.90098 -1.63001
4.34536 -1.89098 -1.63401
4.34736 -1.87598 -1.63301
4.36036 -1.86598 -1.63501
4.35636 -1.84698 -1.63101
4.36736 -1.83598 -1.63301
4.37536 -1.81498 -1.63301
4.38336 -1.80198 -1.63401
4.38936 -1.77298 -1.63201
4.40536 -1.76298 -1.63601
4.41436 -1.74998 -1.63801
4.41936 -1.72098 -1.63501
4.43336 -1.70198 -1.63801
4.44736 -1.69098 -1.64101
4.45636 -1.67898 -1.64201
4.45036 -1.66098 -1.63801
4.46636 -1.64998 -1.64201
4.88036 -0.262978 -1.68901
4.89536 -0.232978 -1.69401
4.89836 -0.193978 -1.69401
4.90536 -0.163978 -1.69601
4.90936 -0.148978 -1.69801
4.90836 -0.132978 -1.69701
4.90736 -0.078978 -1.69601
4.91936 -0.063978 -1.70001
4.90936 -0.032978 -1.69701
4.92136 -0.009978 -1.70101
4.80136 0.261022 -1.71401
4.79836 0.276022 -1.71301
4.80336 0.292022 -1.71501
4.80036 0.307022 -1.71501
4.79236 0.321022 -1.71201
4.79536 0.337022 -1.71301
4.79136 0.359022 -1.71301
4.79936 0.375022 -1.71601
4.79636 0.390022 -1.71501
4.79536 0.405022 -1.71501
4.79436 0.420022 -1.71501
4.79836 0.435022 -1.71801
4.79536 0.443022 -1.71701
4.79436 0.458022 -1.71701
4.78536 0.472022 -1.71401
4.79636 0.489022 -1.71901
4.78736 0.503022 -1.71601
4.78436 0.518022 -1.71501
4.79236 0.534022 -1.71901
4.77836 0.540022 -1.71401
4.79337 0.557022 -1.72001
4.78236 0.571022 -1.71701
4.78436 0.586022 -1.71801
4.78736 0.602022 -1.72001
4.77136 0.615022 -1.71501
4.77836 0.631022 -1.71801
4.78236 0.639022 -1.72001
4.77336 0.653022 -1.71801
4.77136 0.668022 -1.71801
4.78236 0.685022 -1.72301
4.77036 0.699022 -1.71901
4.79236 0.717022 -1.72801
4.76636 0.729022 -1.71901
4.77836 0.746022 -1.72501
4.78836 0.755022 -1.72901
4.76936 0.768022 -1.72301
4.78236 0.785022 -1.72801
4.78136 0.800022 -1.72901
4.76936 0.814022 -1.72501
4.77236 0.830022 -1.72801
4.78236 0.839022 -1.73201
4.76436 0.852022 -1.72601
4.77136 0.868022 -1.73001
4.77436 0.884022 -1.73201
4.76536 0.898022 -1.73001
4.76336 0.913022 -1.73001
4.77336 0.931022 -1.73501
4.75136 0.934022 -1.72701
4.75236 0.950022 -1.72801
4.75236 0.965022 -1.73001
4.74936 0.980022 -1.73001
4.73536 0.993022 -1.72501
4.75236 1.01202 -1.73301
4.73136 1.02302 -1.72601
4.73336 1.03902 -1.72801
4.72436 1.04502 -1.72501
4.73036 1.06202 -1.72901
4.72136 1.07602 -1.72701
4.73036 1.09302 -1.73201
4.71936 1.10602 -1.72901
4.72336 1.12302 -1.73201
4.71836 1.13702 -1.73101
4.72236 1.14602 -1.73301
4.71437 1.16002 -1.73201
4.71636 1.17602 -1.73401
4.71836 1.19202 -1.73601
4.70736 1.20502 -1.73301
4.70836 1.22102 -1.73501
4.71437 1.23902 -1.73901
4.70836 1.24502 -1.73701
4.72236 1.26502 -1.74501
4.70736 1.27702 -1.74001
4.70736 1.29202 -1.74201
4.71536 1.31002 -1.74701
4.70636 1.32402 -1.74501
4.69836 1.33802 -1.74301
4.70336 1.34702 -1.74601
4.69436 1.36002 -1.74401
4.69836 1.37802 -1.74701
4.69936 1.39402 -1.75001
4.67736 1.40302 -1.74201
4.67436 1.41902 -1.74301
4.69036 1.43902 -1.75101
4.67136 1.44202 -1.74501
4.66536 1.45602 -1.74401
4.68036 1.47602 -1.75201
4.66136 1.48702 -1.74601
4.65836 1.50202 -1.74701
4.67336 1.52302 -1.75401
4.65436 1.53302 -1.74901
4.66036 1.54302 -1.75201
4.65436 1.55702 -1.75201
4.65236 1.57302 -1.75301
4.63736 1.58402 -1.74901
4.64236 1.60202 -1.75301
4.62836 1.61402 -1.75001
4.62536 1.62902 -1.75001
4.63836 1.64202 -1.75701
4.63736 1.65702 -1.75801
4.61636 1.66602 -1.75201
4.61936 1.68402 -1.75501
4.61936 1.70002 -1.75701
4.59536 1.70802 -1.75001
4.60836 1.72902 -1.75701
4.60237 1.73502 -1.75601
4.59536 1.74902 -1.75501
4.59536 1.76602 -1.75701
4.58736 1.77902 -1.75701
4.58036 1.79302 -1.75601
4.58536 1.81102 -1.76001
4.57436 1.82402 -1.75801
4.57336 1.83202 -1.75901
4.57636 1.84902 -1.76201
4.56636 1.86202 -1.76101
4.56736 1.88002 -1.76401
4.57236 1.89802 -1.76801
4.54736 1.90502 -1.76001
4.55036 1.92302 -1.76401
4.56536 1.93802 -1.77201
4.54936 1.94802 -1.76701
4.55036 1.96502 -1.77001
4.53836 1.97702 -1.76801
4.54636 1.99702 -1.77401
4.54337 2.01302 -1.77501
4.54436 2.03002 -1.77801
4.52336 2.03002 -1.77101
4.52936 2.04902 -1.77601
4.52736 2.06602 -1.77801
4.51936 2.07902 -1.77701
4.51936 2.09702 -1.78001
4.51136 2.12702 -1.78201
4.50536 2.13302 -1.78101
4.49836 2.16402 -1.78401
4.49436 2.18002 -1.78501
4.48636 2.21102 -1.78701
4.41036 2.36602 -1.78901
4.40636 2.38202 -1.79001
4.39936 2.41402 -1.79401
4.38537 2.45102 -1.79601
4.36636 2.45802 -1.79101
4.36436 2.47602 -1.79401
4.35336 2.48802 -1.79201
4.35736 2.50802 -1.79701
4.34836 2.51202 -1.79501
4.33536 2.52302 -1.79301
4.32436 2.53402 -1.79101
4.33236 2.55702 -1.79801
4.31636 2.56602 -1.79501
4.31336 2.58302 -1.79701
4.31136 2.60002 -1.80001
4.29136 2.59702 -1.79301
4.29136 2.61502 -1.79601
4.29136 2.63402 -1.80001
4.27136 2.64002 -1.79501
4.26636 2.65602 -1.79601
4.26936 2.67602 -1.80101
4.24836 2.68102 -1.79601
4.24536 2.68902 -1.79601
4.24336 2.70602 -1.79901
4.22636 2.71502 -1.79601
4.22636 2.73302 -1.79901
4.22236 2.74902 -1.80101
4.21536 2.76402 -1.80201
4.20036 2.77302 -1.79901
4.19636 2.78902 -1.80101
4.19836 2.80002 -1.80401
4.19036 2.81402 -1.80501
4.17436 2.82202 -1.80101
4.16636 2.83602 -1.80201
4.16837 2.85602 -1.80701
4.15036 2.86302 -1.80301
4.14736 2.87102 -1.80301
4.14336 2.88702 -1.80601
4.12336 2.89202 -1.80101
4.12836 2.91502 -1.80701
4.12036 2.92902 -1.80801
4.10936 2.94102 -1.80701
4.11436 2.96402 -1.81301
4.09536 2.96002 -1.80701
4.09036 2.97602 -1.80901
4.07036 2.98202 -1.80401
2.58036 -3.55098 -1.55501
2.60636 -3.54098 -1.55801
2.64736 -3.51498 -1.55901
2.66436 -3.51398 -1.56301
2.68036 -3.51198 -1.56601
2.68436 -3.49398 -1.56101
2.69936 -3.49198 -1.56401
2.71536 -3.50098 -1.57101
2.71836 -3.48198 -1.56601
2.76336 -3.44898 -1.56601
2.78536 -3.45498 -1.57301
2.79136 -3.45098 -1.57301
2.79636 -3.43498 -1.57001
2.81036 -3.42998 -1.57201
2.98336 -3.26798 -1.56901
3.03636 -3.21398 -1.56701
3.14236 -3.12298 -1.57101
3.16136 -3.10198 -1.57001
3.17036 -3.09198 -1.57001
3.18136 -3.08398 -1.57101
3.18636 -3.07898 -1.57101
3.19736 -3.06998 -1.57101
3.21136 -3.06398 -1.57301
3.22436 -3.05798 -1.57601
3.23036 -3.04398 -1.57301
3.25036 -3.04398 -1.57901
3.25936 -3.03198 -1.57801
3.26236 -3.02598 -1.57801
3.27836 -3.02198 -1.58101
3.28436 -3.00798 -1.57901
3.28936 -2.99398 -1.57701
3.31536 -2.99798 -1.58601
3.31936 -2.98298 -1.58301
3.32536 -2.96998 -1.58101
3.34836 -2.98098 -1.59101
3.35936 -2.97198 -1.59101
3.37236 -2.96498 -1.59301
3.40336 -2.93498 -1.59501
4.66536 0.339022 -1.71401
4.67336 0.399022 -1.71901
4.65436 0.405022 -1.71201
4.66336 0.435022 -1.71701
4.64936 0.463022 -1.71201
4.66837 0.480022 -1.72001
4.66936 0.487022 -1.72101
4.65636 0.501022 -1.71701
4.67136 0.517022 -1.72301
4.66236 0.531022 -1.72001
4.64636 0.544022 -1.71401
4.66636 0.561022 -1.72301
4.65136 0.574022 -1.71801
4.64336 0.581022 -1.71501
4.66336 0.598022 -1.72401
4.66036 0.613022 -1.72301
4.65436 0.627022 -1.72201
4.65436 0.642022 -1.72201
4.66136 0.658022 -1.72601
4.64036 0.669022 -1.71901
4.65336 0.686022 -1.72501
4.66536 0.696022 -1.73001
4.66136 0.710022 -1.72901
4.64736 0.723022 -1.72501
4.65836 0.740022 -1.73001
4.66136 0.755022 -1.73201
4.65336 0.769022 -1.73001
4.64736 0.783022 -1.72801
4.64236 0.789022 -1.72701
4.64536 0.805022 -1.72901
4.64536 0.820022 -1.73001
4.63836 0.834022 -1.72801
4.64736 0.850022 -1.73301
4.64036 0.864022 -1.73101
4.63836 0.879022 -1.73101
4.64236 0.887022 -1.73301
4.64436 0.903022 -1.73501
4.63836 0.917022 -1.73401
4.62836 0.930022 -1.73101
4.60536 0.955022 -1.72501
4.61036 0.971022 -1.72701
4.61536 0.980022 -1.73001
4.63236 0.999022 -1.73801
4.59836 1.00702 -1.72601
4.61536 1.02602 -1.73401
4.61236 1.04002 -1.73401
4.60336 1.05402 -1.73201
4.61636 1.07202 -1.73801
4.60936 1.07802 -1.73601
4.59536 1.09002 -1.73201
4.59736 1.10502 -1.73401
4.59336 1.12002 -1.73401
4.60036 1.13702 -1.73801
4.59336 1.15102 -1.73701
4.58036 1.16302 -1.73301
4.58436 1.17102 -1.73501
4.59336 1.18902 -1.74101
4.59136 1.20402 -1.74101
4.60536 1.22302 -1.74901
4.59836 1.23702 -1.74701
4.58336 1.24802 -1.74301
4.58436 1.26402 -1.74501
4.59936 1.27602 -1.75101
4.57736 1.28502 -1.74401
4.59136 1.30502 -1.75101
4.58636 1.31902 -1.75101
4.57336 1.33102 -1.74801
4.56736 1.34502 -1.74701
4.57636 1.36302 -1.75201
4.56136 1.36602 -1.74701
4.56236 1.38202 -1.74901
4.55637 1.39602 -1.74901
4.56436 1.41402 -1.75401
4.55836 1.42802 -1.75301
4.54836 1.44002 -1.75101
4.54337 1.45502 -1.75101
4.53636 1.46002 -1.74901
4.54236 1.47802 -1.75301
4.53736 1.49202 -1.75301
4.52236 1.50302 -1.74901
4.52636 1.52002 -1.75201
4.51436 1.53202 -1.74901
4.51836 1.54902 -1.75301
4.51536 1.55602 -1.75301
4.51236 1.57102 -1.75401
4.52036 1.58902 -1.75901
4.51836 1.60502 -1.76001
4.50336 1.61502 -1.75601
4.51037 1.63402 -1.76101
4.50136 1.64702 -1.75901
4.49836 1.65402 -1.75901
4.48136 1.66302 -1.75401
4.48636 1.68102 -1.75901
4.47636 1.69402 -1.75701
4.48136 1.71202 -1.76101
4.47936 1.72702 -1.76201
4.47336 1.74102 -1.76201
4.46936 1.74702 -1.76201
4.46636 1.77902 -1.76501
4.46236 1.81002 -1.76801
4.46236 1.82602 -1.77001
4.45936 1.84102 -1.77201
4.45636 1.84802 -1.77201
4.44736 1.86102 -1.77001
4.44136 1.87502 -1.77001
4.44036 1.90702 -1.77501
4.43036 1.92002 -1.77301
4.41936 1.94002 -1.77201
4.41436 1.98802 -1.77801
4.40436 2.01602 -1.77901
4.37736 2.02002 -1.77001
4.37736 2.02902 -1.77201
4.38936 2.05102 -1.78001
4.36636 2.05702 -1.77201
4.36536 2.07302 -1.77501
4.35536 2.08502 -1.77301
4.34836 2.09902 -1.77301
4.36236 2.12302 -1.78201
4.35036 2.12502 -1.77801
4.35036 2.14202 -1.78101
4.35136 2.16002 -1.78501
4.32636 2.18102 -1.78001
4.33236 2.20202 -1.78601
4.32236 2.22202 -1.78601
4.31836 2.23802 -1.78701
4.24136 2.42202 -1.79501
4.20736 2.47302 -1.79401
4.20636 2.49002 -1.79601
4.20036 2.49602 -1.79601
4.17536 2.51702 -1.79101
4.17536 2.53502 -1.79501
4.17836 2.55502 -1.80001
4.17036 2.56802 -1.80001
4.14836 2.59902 -1.79901
4.12336 2.65602 -1.80301
4.11236 2.67702 -1.80401
4.09336 2.70202 -1.80301
4.06636 2.76702 -1.80801
3.94836 2.92002 -1.80501
2.40236 -3.57198 -1.56901
2.41136 -3.56098 -1.56701
2.42336 -3.53098 -1.56001
2.45136 -3.51198 -1.56001
2.48036 -3.48398 -1.55801
2.49436 -3.47898 -1.55901
2.50836 -3.47598 -1.56201
2.51536 -3.46298 -1.55901
2.52436 -3.46398 -1.56201
2.54236 -3.46498 -1.56601
2.54836 -3.45098 -1.56301
2.56636 -3.45198 -1.56701
2.59836 -3.42798 -1.56701
2.60736 -3.42798 -1.57001
2.61936 -3.42098 -1.57001
2.62736 -3.40998 -1.56901
2.64236 -3.40798 -1.57201
2.64636 -3.39098 -1.56701
2.66436 -3.39098 -1.57201
2.92936 -3.15998 -1.57001
2.93536 -3.14598 -1.56801
2.94336 -3.14398 -1.57001
2.95536 -3.13798 -1.57101
2.97636 -3.12098 -1.57201
2.99836 -3.10398 -1.57301
3.00836 -3.09498 -1.57301
3.01736 -3.09398 -1.57501
3.02436 -3.08198 -1.57401
3.03136 -3.06998 -1.57301
3.05136 -3.07098 -1.57801
3.05536 -3.05598 -1.57501
3.06536 -3.04698 -1.57501
3.08036 -3.04198 -1.57801
3.08236 -3.03498 -1.57701
3.09436 -3.02798 -1.57801
3.10436 -3.01798 -1.57801
3.11036 -3.00498 -1.57701
3.13236 -3.00698 -1.58301
3.13636 -2.99198 -1.58101
3.14936 -2.98598 -1.58301
3.15536 -2.98298 -1.58301
3.16136 -2.96898 -1.58101
3.18636 -2.97398 -1.59001
3.19936 -2.96598 -1.59101
4.50536 0.815022 -1.73301
4.49836 0.843022 -1.73201
4.48836 0.856022 -1.72901
4.50036 0.902022 -1.73701
4.49636 0.909022 -1.73701
4.49936 0.924022 -1.73901
4.48236 0.950022 -1.73501
4.48836 0.966022 -1.73801
4.48236 0.994022 -1.73801
4.46836 0.998022 -1.73301
4.47436 1.01402 -1.73701
4.47436 1.02902 -1.73801
4.46536 1.04202 -1.73601
4.47536 1.05902 -1.74101
4.47036 1.07302 -1.74001
4.45436 1.08402 -1.73501
4.45736 1.09202 -1.73701
4.45036 1.10502 -1.73601
4.45236 1.12002 -1.73801
4.44136 1.13302 -1.73501
4.44036 1.14702 -1.73601
4.44736 1.16402 -1.74001
4.44336 1.17802 -1.74001
4.42236 1.17902 -1.73201
4.43036 1.19702 -1.73701
4.42336 1.21002 -1.73601
4.42136 1.22402 -1.73701
4.42136 1.23902 -1.73801
4.41136 1.25102 -1.73601
4.41136 1.26602 -1.73701
4.42036 1.27602 -1.74201
4.40936 1.28802 -1.73901
4.41736 1.30502 -1.74401
4.40636 1.31702 -1.74101
4.40936 1.33302 -1.74401
4.39936 1.34502 -1.74201
4.41636 1.36602 -1.75101
4.40536 1.37002 -1.74701
4.39636 1.38202 -1.74501
4.40236 1.39902 -1.74901
4.37836 1.40702 -1.74101
4.38836 1.42502 -1.74701
4.38136 1.43802 -1.74601
4.37936 1.45302 -1.74701
4.39036 1.46402 -1.75301
4.38636 1.47802 -1.75301
4.36236 1.48502 -1.74501
4.37636 1.50502 -1.75301
4.37236 1.51902 -1.75301
4.35336 1.52802 -1.74701
4.35936 1.54502 -1.75201
4.36536 1.55502 -1.75501
4.36236 1.57002 -1.75601
4.36236 1.58502 -1.75801
4.35936 1.59902 -1.75901
4.34736 1.61102 -1.75601
4.34336 1.62502 -1.75701
4.34536 1.64102 -1.76001
4.33036 1.64302 -1.75501
4.32236 1.65602 -1.75301
4.33736 1.67702 -1.76201
4.31836 1.68502 -1.75601
4.31336 1.69902 -1.75601
4.32536 1.71902 -1.76401
4.30236 1.72602 -1.75601
4.30536 1.73502 -1.75801
4.31536 1.75502 -1.76501
4.30236 1.76502 -1.76201
4.28536 1.77402 -1.75701
4.29636 1.79502 -1.76401
4.28536 1.80602 -1.76201
4.27136 1.81602 -1.75801
4.29136 1.83202 -1.76801
4.26936 1.83902 -1.76101
4.26736 1.85402 -1.76301
4.27736 1.87402 -1.77001
4.25936 1.88202 -1.76401
4.25836 1.89702 -1.76701
4.25436 1.91202 -1.76701
4.24736 1.91702 -1.76601
4.25536 1.93602 -1.77201
4.23836 1.94502 -1.76701
4.23936 1.96102 -1.77001
4.22336 1.97002 -1.76601
4.22536 1.98702 -1.77001
4.22036 2.00102 -1.77001
4.21437 2.00602 -1.76901
4.22336 2.02702 -1.77601
4.21336 2.03802 -1.77401
4.19336 2.04502 -1.76801
4.20036 2.06502 -1.77401
4.19236 2.07702 -1.77301
4.18536 2.09002 -1.77301
4.19536 2.11202 -1.78101
4.17736 2.11102 -1.77401
4.17536 2.12602 -1.77601
4.17936 2.14402 -1.78101
4.17236 2.15802 -1.78101
4.17036 2.17302 -1.78301
4.17036 2.19002 -1.78601
4.15336 2.20602 -1.78301
4.15436 2.22302 -1.78701
4.12636 2.27502 -1.78701
4.12036 2.29702 -1.78901
4.11636 2.31202 -1.79101
4.08336 2.37002 -1.79101
4.06836 2.39602 -1.79101
4.06236 2.42702 -1.79501
4.05136 2.43802 -1.79401
4.04536 2.45102 -1.79401
4.03736 2.47202 -1.79601
4.02836 2.48402 -1.79501
3.99936 2.51902 -1.79301
3.99536 2.56002 -1.80001
3.96636 2.59502 -1.79801
3.96636 2.61202 -1.80201
3.95136 2.62102 -1.79901
3.94336 2.63302 -1.79901
3.94236 2.64102 -1.80001
3.93836 2.65702 -1.80201
3.92236 2.66402 -1.79901
3.92536 2.68402 -1.80401
3.91536 2.69502 -1.80301
3.90536 2.70602 -1.80201
3.89736 2.71002 -1.80101
3.89536 2.72602 -1.80401
3.88536 2.73802 -1.80301
3.87536 2.74902 -1.80201
3.87036 2.76402 -1.80501
3.85036 2.76802 -1.79901
2.07836 -3.61298 -1.56801
2.08636 -3.57398 -1.55601
2.09536 -3.56398 -1.55401
2.12636 -3.55298 -1.55701
2.13536 -3.54298 -1.55501
2.16936 -3.52198 -1.55501
2.18336 -3.51998 -1.55701
2.20136 -3.52598 -1.56301
2.19936 -3.50998 -1.55701
2.21536 -3.51098 -1.56101
2.22736 -3.50598 -1.56201
2.23336 -3.49098 -1.55801
2.24536 -3.48498 -1.55901
2.26036 -3.48398 -1.56201
2.28936 -3.46998 -1.56301
2.29836 -3.45898 -1.56201
2.31536 -3.46098 -1.56601
2.32636 -3.45398 -1.56601
2.33436 -3.44198 -1.56401
2.34836 -3.43898 -1.56601
2.35436 -3.43698 -1.56701
2.36136 -3.42398 -1.56401
2.40536 -3.39498 -1.56501
2.63336 -3.25198 -1.57501
2.64336 -3.25398 -1.57801
2.84136 -3.06998 -1.57401
2.84836 -3.05898 -1.57201
2.86136 -3.05398 -1.57501
2.87036 -3.04298 -1.57401
2.88436 -3.03998 -1.57701
2.89536 -3.03198 -1.57801
2.89836 -3.02598 -1.57701
2.91336 -3.02198 -1.58001
2.92536 -3.01598 -1.58101
2.93836 -3.01098 -1.58401
2.94736 -2.99998 -1.58301
2.95536 -2.98998 -1.58201
2.96136 -2.97798 -1.58101
2.98036 -2.98698 -1.58901
2.98736 -2.97498 -1.58701
3.00636 -2.97498 -1.59301
3.05036 -2.93498 -1.59401
4.31536 1.16402 -1.73501
4.31336 1.17802 -1.73601
4.32036 1.19402 -1.74001
4.32236 1.20202 -1.74201
4.30936 1.21302 -1.73801
4.30936 1.22802 -1.74001
4.30637 1.24202 -1.74001
4.29536 1.25302 -1.73701
4.29337 1.26702 -1.73801
4.29636 1.28302 -1.74101
4.29836 1.29002 -1.74301
4.30336 1.30702 -1.74601
4.28636 1.31602 -1.74101
4.28736 1.33102 -1.74301
4.27636 1.34302 -1.74001
4.28936 1.36202 -1.74801
4.27336 1.37102 -1.74301
4.27836 1.38002 -1.74601
4.27536 1.39402 -1.74601
4.27436 1.40902 -1.74801
4.26836 1.42202 -1.74701
4.27636 1.43902 -1.75301
4.25736 1.44802 -1.74601
4.26136 1.46402 -1.75001
4.25736 1.47002 -1.75001
4.26037 1.48602 -1.75301
4.24836 1.49702 -1.75001
4.25536 1.51502 -1.75501
4.24236 1.52502 -1.75101
4.24136 1.54002 -1.75301
4.23136 1.55102 -1.75001
4.24036 1.56202 -1.75601
4.22737 1.57202 -1.75201
4.23036 1.58902 -1.75601
4.22236 1.60102 -1.75401
4.21936 1.61502 -1.75501
4.21236 1.62702 -1.75401
4.20836 1.64102 -1.75501
4.21836 1.65302 -1.76001
4.20636 1.66302 -1.75701
4.20736 1.67902 -1.76001
4.19936 1.69102 -1.75901
4.18137 1.69902 -1.75301
4.19336 1.71902 -1.76101
4.17636 1.72702 -1.75601
4.17436 1.74202 -1.75701
4.18336 1.75402 -1.76201
4.17736 1.76702 -1.76201
4.16336 1.77602 -1.75901
4.15836 1.78902 -1.75901
4.16236 1.80702 -1.76301
4.15036 1.81702 -1.76001
4.15736 1.82802 -1.76501
4.14836 1.83902 -1.76301
4.13436 1.84902 -1.75901
4.14136 1.86802 -1.76601
4.14436 1.88502 -1.76901
4.13136 1.89502 -1.76601
4.13537 1.91202 -1.77101
4.13036 1.91802 -1.77001
4.11136 1.92502 -1.76401
4.11736 1.94302 -1.76901
4.09536 1.94902 -1.76201
4.09336 1.96302 -1.76401
4.10136 1.98302 -1.77101
4.09336 1.99502 -1.77001
4.07536 1.99402 -1.76301
4.09736 2.02102 -1.77601
4.08136 2.02902 -1.77201
4.08436 2.04702 -1.77601
4.07836 2.06002 -1.77601
4.07636 2.07502 -1.77901
4.06236 2.08402 -1.77501
4.06836 2.09502 -1.77901
4.07036 2.11202 -1.78301
4.05036 2.11802 -1.77701
4.05836 2.13902 -1.78401
4.05136 2.15102 -1.78401
4.04036 2.16202 -1.78201
4.03236 2.19902 -1.78601
3.83136 2.60202 -1.80201
2.48236 -3.23898 -1.57501
2.50336 -3.22298 -1.57501
2.52636 -3.23098 -1.58301
2.52936 -3.21498 -1.57901
2.54036 -3.20798 -1.57901
2.55136 -3.21098 -1.58301
2.55736 -3.19898 -1.58101
2.56436 -3.18698 -1.57901
2.57636 -3.18098 -1.58001
2.58736 -3.17498 -1.58101
2.60036 -3.16898 -1.58201
2.61336 -3.16498 -1.58501
2.61936 -3.16298 -1.58501
2.66236 -3.11298 -1.58101
2.67236 -3.09598 -1.57901
2.69236 -3.09898 -1.58501
2.68936 -3.07598 -1.57701
2.69736 -3.06498 -1.57501
2.70736 -3.05798 -1.57601
2.72236 -3.05498 -1.57901
2.73536 -3.05098 -1.58201
2.74036 -3.04598 -1.58201
2.75236 -3.03998 -1.58301
2.76936 -3.03998 -1.58801
2.77636 -3.02798 -1.58601
2.77236 -3.00498 -1.57801
2.77636 -2.99098 -1.57501
