4.38624 3.29104 -1.81007
4.37124 3.32304 -1.81307
4.36224 3.33804 -1.81407
4.32024 3.40404 -1.81607
4.07924 3.70904 -1.82107
4.06124 3.70404 -1.81507
4.05224 3.71904 -1.81607
4.04424 3.73604 -1.81807
4.02424 3.74104 -1.81407
4.01124 3.75204 -1.81407
2.60724 -3.99196 -1.55907
2.61824 -3.97996 -1.55807
2.63124 -3.97396 -1.55907
3.82624 -3.01196 -1.59507
3.83624 -2.99996 -1.59507
3.84024 -2.99396 -1.59507
3.85624 -2.98696 -1.59807
3.85924 -2.96996 -1.59507
3.87424 -2.96296 -1.59807
3.89024 -2.95496 -1.60007
3.89624 -2.93996 -1.59907
3.90524 -2.92796 -1.59907
3.91324 -2.92396 -1.60007
3.92324 -2.91296 -1.60107
3.93424 -2.90196 -1.60207
3.94324 -2.88896 -1.60207
3.95724 -2.87996 -1.60407
3.96424 -2.86696 -1.60307
3.96924 -2.85096 -1.60107
3.97224 -2.84396 -1.60007
3.99124 -2.83896 -1.60507
3.99724 -2.82396 -1.60407
4.01124 -2.81496 -1.60607
4.01224 -2.79696 -1.60207
4.02724 -2.78796 -1.60507
4.03424 -2.77496 -1.60407
4.03224 -2.76396 -1.60207
4.04824 -2.75696 -1.60507
4.06324 -2.74796 -1.60807
4.06724 -2.73196 -1.60607
4.07624 -2.71996 -1.60607
4.09224 -2.71196 -1.60907
4.09124 -2.69296 -1.60507
4.09424 -2.68496 -1.60407
4.10424 -2.67396 -1.60507
4.11124 -2.65996 -1.60407
4.12724 -2.65196 -1.60807
4.12924 -2.63496 -1.60507
4.14024 -2.62396 -1.60607
4.15224 -2.61296 -1.60807
4.15924 -2.60796 -1.60907
4.16124 -2.59096 -1.60607
4.16924 -2.57796 -1.60607
4.18524 -2.56996 -1.61007
4.18324 -2.55096 -1.60607
4.20124 -2.54396 -1.61007
4.20424 -2.52696 -1.60807
4.21624 -2.52596 -1.61107
4.21624 -2.50796 -1.60807
4.21624 -2.48996 -1.60407
4.23524 -2.48296 -1.60907
4.23624 -2.46596 -1.60607
4.24424 -2.45296 -1.60607
4.24824 -2.43696 -1.60507
4.26024 -2.43496 -1.60807
4.26224 -2.41796 -1.60607
4.27724 -2.40896 -1.60907
4.28724 -2.39696 -1.61007
4.28224 -2.37696 -1.60507
4.30024 -2.36896 -1.60907
4.31624 -2.35996 -1.61207
4.30624 -2.34596 -1.60707
4.32024 -2.33596 -1.61007
4.33424 -2.32596 -1.61207
4.34524 -2.31396 -1.61407
4.34724 -2.29796 -1.61207
4.36124 -2.28796 -1.61407
4.37124 -2.27596 -1.61607
4.37724 -2.26996 -1.61607
4.38724 -2.25796 -1.61807
4.38624 -2.23996 -1.61407
4.39924 -2.22896 -1.61707
4.41024 -2.21696 -1.61807
4.42024 -2.20496 -1.62007
4.42524 -2.18996 -1.61907
4.44724 -2.19196 -1.62607
4.44224 -2.17196 -1.62207
4.43724 -2.15296 -1.61707
4.47324 -2.15296 -1.62807
4.46124 -2.12996 -1.62107
4.47324 -2.11796 -1.62307
4.50224 -2.11396 -1.63207
4.49024 -2.09996 -1.62607
4.49124 -2.08396 -1.62407
4.52024 -2.07996 -1.63207
4.51124 -2.05796 -1.62607
4.52224 -2.04696 -1.62807
4.53424 -2.03496 -1.63007
4.54424 -2.02196 -1.63207
4.54224 -2.01296 -1.63007
4.56524 -2.00596 -1.63607
4.56524 -1.98796 -1.63407
4.56924 -1.97296 -1.63307
4.58724 -1.94696 -1.63507
4.59124 -1.93196 -1.63407
4.60924 -1.91396 -1.63807
4.61824 -1.89996 -1.63907
5.07824 0.331037 -1.71407
5.07724 0.387037 -1.71507
5.08124 0.419037 -1.71707
5.06524 0.450037 -1.71207
5.08124 0.476037 -1.71907
5.08024 0.508037 -1.72007
5.06224 0.538037 -1.71407
5.05524 0.562037 -1.71307
5.05624 0.594037 -1.71407
5.06524 0.627037 -1.71907
5.07024 0.644037 -1.72207
5.05024 0.657037 -1.71507
5.06724 0.668037 -1.72207
5.02824 0.679037 -1.70807
5.07224 0.701037 -1.72507
5.03524 0.712037 -1.71207
5.05724 0.731037 -1.72107
5.02824 0.743037 -1.71207
5.05024 0.763037 -1.72007
5.04724 0.770037 -1.72007
5.03724 0.785037 -1.71707
5.03124 0.800037 -1.71607
5.04124 0.818037 -1.72007
5.02824 0.832037 -1.71607
5.03624 0.850037 -1.72007
5.02224 0.864037 -1.71607
5.02824 0.873037 -1.71907
5.01824 0.887037 -1.71607
5.04724 0.909037 -1.72807
5.00524 0.918037 -1.71407
5.05224 0.942037 -1.73207
5.01824 0.952037 -1.72007
5.02924 0.971037 -1.72607
5.03924 0.981037 -1.73007
5.01924 0.994037 -1.72407
5.01424 1.00904 -1.72307
5.04124 1.03104 -1.73407
5.00824 1.04004 -1.72307
5.04124 1.06404 -1.73707
5.03324 1.10304 -1.73707
5.03524 1.13704 -1.74007
5.03224 1.15304 -1.74007
5.02224 1.16704 -1.73807
5.00424 1.18804 -1.73307
5.02224 1.22504 -1.74307
5.00924 1.23904 -1.73907
5.01824 1.25804 -1.74407
4.99724 1.27004 -1.73807
5.00824 1.28904 -1.74307
4.99624 1.32804 -1.74307
5.00124 1.34604 -1.74607
4.97624 1.37304 -1.74007
4.98024 1.39904 -1.74407
4.98924 1.41804 -1.74907
4.95724 1.42604 -1.73907
4.96524 1.44604 -1.74307
4.94424 1.45704 -1.73707
4.96724 1.48004 -1.74807
4.93924 1.48904 -1.73907
4.93224 1.50404 -1.73807
4.96924 1.52304 -1.75307
4.93424 1.53004 -1.74107
4.93824 1.54804 -1.74507
4.92424 1.56104 -1.74107
4.92524 1.57804 -1.74307
4.92324 1.59404 -1.74507
4.93324 1.61404 -1.75007
4.90924 1.61504 -1.74207
4.90724 1.63204 -1.74307
4.90024 1.64704 -1.74307
4.90024 1.66404 -1.74507
4.89124 1.67804 -1.74307
4.91324 1.70204 -1.75407
4.88924 1.70304 -1.74507
4.89824 1.72304 -1.75107
4.87624 1.73304 -1.74507
4.88324 1.75304 -1.75007
4.86724 1.76404 -1.74507
4.89024 1.79004 -1.75607
4.86724 1.79804 -1.75007
4.88024 1.81204 -1.75607
4.86724 1.82504 -1.75307
4.87224 1.84404 -1.75707
4.85024 1.85304 -1.75107
4.86224 1.87504 -1.75807
4.84224 1.88504 -1.75207
4.84624 1.90404 -1.75607
4.84224 1.91104 -1.75607
4.84124 1.92804 -1.75807
4.82824 1.94104 -1.75507
4.83624 1.96204 -1.76007
4.83524 1.97904 -1.76207
4.81624 1.98904 -1.75807
4.83124 2.01304 -1.76607
4.81024 2.01304 -1.75907
4.82624 2.03804 -1.76807
4.79824 2.04304 -1.75907
4.79524 2.06004 -1.76007
4.79724 2.07904 -1.76407
4.80424 2.10004 -1.76907
4.78224 2.10804 -1.76307
4.79624 2.13204 -1.77107
4.79824 2.14204 -1.77307
4.78424 2.15404 -1.77007
4.78224 2.17104 -1.77207
4.77024 2.18404 -1.77007
4.77024 2.22004 -1.77607
4.76024 2.24304 -1.77607
4.74924 2.25604 -1.77507
4.72924 2.26404 -1.76907
4.72024 2.27904 -1.76807
4.73824 2.30604 -1.77907
4.70924 2.31004 -1.77007
4.72024 2.33404 -1.77707
4.70324 2.33404 -1.77207
4.70624 2.35404 -1.77607
4.69524 2.36704 -1.77507
4.69624 2.38604 -1.77807
4.67324 2.39304 -1.77207
4.68924 2.42004 -1.78107
4.66324 2.41604 -1.77207
4.67124 2.43904 -1.77907
4.65024 2.44604 -1.77307
4.64024 2.46004 -1.77207
4.62824 2.47204 -1.77007
4.64724 2.50104 -1.78107
4.61724 2.50404 -1.77207
4.63324 2.52204 -1.78107
4.60524 2.52504 -1.77207
4.60224 2.54304 -1.77507
4.59324 2.55604 -1.77407
4.60824 2.58304 -1.78307
4.59124 2.59304 -1.78007
4.58324 2.60804 -1.78007
4.56324 2.61504 -1.77507
4.57424 2.63104 -1.78107
4.55324 2.63804 -1.77607
4.55424 2.65804 -1.78007
4.53824 2.66704 -1.77707
4.54924 2.69304 -1.78507
4.52624 2.69904 -1.77907
4.51424 2.71104 -1.77707
4.53524 2.73304 -1.78807
4.52724 2.74804 -1.78807
4.50924 2.75604 -1.78407
4.49524 2.76704 -1.78207
4.51024 2.79604 -1.79207
4.46624 2.78904 -1.77707
4.49324 2.82404 -1.79207
4.46924 2.82004 -1.78407
4.46324 2.83604 -1.78507
4.47824 2.86504 -1.79507
4.44624 2.86404 -1.78507
4.45124 2.88704 -1.79107
4.44624 2.90404 -1.79307
4.42924 2.91304 -1.79007
4.42324 2.91804 -1.78907
4.42224 2.93704 -1.79307
4.41324 2.95104 -1.79307
4.41124 2.97004 -1.79607
4.39724 2.98104 -1.79407
4.39124 2.99704 -1.79507
4.38524 3.01304 -1.79707
4.38124 3.02104 -1.79707
4.37824 3.03904 -1.80007
4.35924 3.04604 -1.79607
4.35924 3.06604 -1.80007
4.33124 3.06704 -1.79207
4.33524 3.09004 -1.79807
4.30524 3.10004 -1.79107
4.31524 3.12804 -1.80007
4.31124 3.14604 -1.80307
4.30524 3.16104 -1.80407
4.28124 3.16504 -1.79807
4.26224 3.19304 -1.79907
4.27924 3.21504 -1.80807
4.26724 3.22804 -1.80807
4.25724 3.24104 -1.80807
4.23924 3.24904 -1.80407
4.23124 3.28404 -1.81007
4.22824 3.30304 -1.81307
4.20724 3.30904 -1.80807
4.20624 3.31904 -1.81007
4.20024 3.33504 -1.81207
4.19124 3.35004 -1.81307
4.16324 3.37004 -1.81007
4.16424 3.39304 -1.81507
4.14824 3.41204 -1.81507
4.13724 3.42504 -1.81507
4.11724 3.45204 -1.81607
4.10124 3.48304 -1.81807
4.08424 3.49104 -1.81607
3.98924 3.61004 -1.81807
3.98824 3.63104 -1.82307
3.96324 3.65504 -1.82207
3.95624 3.67104 -1.82407
3.94924 3.67604 -1.82407
3.93624 3.68704 -1.82307
2.20624 -4.09296 -1.55607
2.23124 -4.10796 -1.56507
2.34324 -4.05296 -1.56807
2.36424 -4.04496 -1.56907
2.36624 -4.01796 -1.56107
2.52024 -3.90596 -1.55607
2.53424 -3.90096 -1.55707
2.55424 -3.90596 -1.56207
2.56324 -3.89296 -1.56007
2.58124 -3.89296 -1.56407
2.59324 -3.88496 -1.56407
2.60724 -3.87996 -1.56507
2.61824 -3.88196 -1.56807
2.81024 -3.74696 -1.56907
2.85524 -3.74396 -1.57707
4.16924 -2.44296 -1.62207
4.17924 -2.40396 -1.61807
4.21624 -2.37296 -1.62407
4.22324 -2.35996 -1.62407
4.22524 -2.33496 -1.62007
4.25324 -2.29796 -1.62307
4.27024 -2.28996 -1.62707
4.30224 -2.22996 -1.62707
4.91924 0.00603675 -1.70007
4.91524 0.0370368 -1.69907
4.92124 0.0440368 -1.70107
4.90024 0.0600368 -1.69407
4.90724 0.0750368 -1.69607
4.90324 0.0900368 -1.69507
4.90724 0.106037 -1.69607
4.90624 0.121037 -1.69607
4.90424 0.137037 -1.69607
4.92424 0.145037 -1.70307
4.92824 0.161037 -1.70507
4.91024 0.176037 -1.69807
4.92124 0.191037 -1.70307
4.91524 0.207037 -1.70007
4.92324 0.223037 -1.70407
4.93024 0.238037 -1.70707
4.91824 0.261037 -1.70307
4.93624 0.278037 -1.70907
4.92524 0.293037 -1.70607
4.91724 0.307037 -1.70307
4.93324 0.324037 -1.70907
4.90724 0.346037 -1.70007
4.93024 0.363037 -1.70907
4.91024 0.377037 -1.70307
4.91824 0.393037 -1.70607
4.90424 0.407037 -1.70107
4.91824 0.424037 -1.70707
4.90524 0.438037 -1.70307
4.93224 0.449037 -1.71307
4.90324 0.462037 -1.70307
4.90324 0.477037 -1.70307
4.90624 0.493037 -1.70507
4.90024 0.508037 -1.70307
4.90124 0.539037 -1.70507
4.89224 0.562037 -1.70307
4.85824 1.02804 -1.71807
4.85924 1.05204 -1.72007
4.86524 1.08604 -1.72507
4.86224 1.10104 -1.72507
4.88024 1.12204 -1.73307
4.86724 1.13504 -1.72907
4.87324 1.15204 -1.73307
4.86424 1.15804 -1.73007
4.84424 1.16904 -1.72407
4.86924 1.19204 -1.73507
4.84224 1.20104 -1.72607
4.84024 1.21704 -1.72707
4.83224 1.23104 -1.72507
4.84824 1.26004 -1.73407
4.82724 1.28704 -1.72907
4.81724 1.33204 -1.72907
4.71824 1.76404 -1.74407
4.67824 1.91904 -1.75107
4.64124 2.01604 -1.75207
4.63324 2.04704 -1.75407
4.61724 2.06604 -1.75207
4.61424 2.09904 -1.75607
4.59624 2.12604 -1.75407
4.59724 2.14404 -1.75707
4.59724 2.16204 -1.76007
4.59024 2.18504 -1.76107
4.57024 2.21104 -1.75907
4.58324 2.23504 -1.76707
4.54824 2.28004 -1.76307
4.52124 2.33804 -1.76307
4.14924 3.07304 -1.79007
4.09024 3.14104 -1.78807
4.00524 3.27004 -1.79307
3.85424 3.47304 -1.79907
3.84424 3.50804 -1.80607
3.81824 3.52804 -1.80307
3.80724 3.54004 -1.80307
3.80824 3.55304 -1.80707
3.80424 3.57104 -1.81007
3.78024 3.57104 -1.80407
3.72924 3.62504 -1.80407
2.75024 -3.64496 -1.57007
2.75924 -3.63296 -1.56907
2.76524 -3.61696 -1.56607
2.77624 -3.61996 -1.56907
2.78224 -3.60396 -1.56607
2.79424 -3.59696 -1.56607
2.80824 -3.59096 -1.56807
2.82224 -3.58496 -1.56907
2.83324 -3.57596 -1.56907
2.84824 -3.57196 -1.57107
2.85424 -3.56896 -1.57207
2.86224 -3.55496 -1.57007
2.87224 -3.54496 -1.56907
2.88424 -3.53696 -1.57007
2.90424 -3.53796 -1.57507
2.91424 -3.52796 -1.57407
2.92524 -3.51896 -1.57407
2.93624 -3.52096 -1.57707
2.95724 -3.52296 -1.58307
2.96224 -3.50696 -1.57907
2.97124 -3.49496 -1.57807
2.97724 -3.47996 -1.57507
2.99424 -3.47696 -1.57907
3.01124 -3.47496 -1.58207
3.01624 -3.46996 -1.58207
3.03124 -3.46496 -1.58407
3.03424 -3.44696 -1.58007
3.04924 -3.44196 -1.58207
3.06624 -3.43896 -1.58607
3.06724 -3.41796 -1.58007
3.09324 -3.42496 -1.58807
3.44724 -3.10196 -1.59707
3.45824 -3.09196 -1.59707
3.46724 -3.07996 -1.59707
3.46924 -3.06296 -1.59307
3.47324 -3.04696 -1.59107
3.48724 -3.03996 -1.59307
3.50724 -3.03796 -1.59707
3.51624 -3.02696 -1.59707
3.52724 -3.02596 -1.60007
3.53824 -3.01596 -1.60107
3.54824 -3.00596 -1.60207
3.58224 -2.95796 -1.60007
3.57524 -2.94296 -1.59407
3.58524 -2.93296 -1.59507
3.59924 -2.92496 -1.59707
3.60824 -2.91296 -1.59707
3.62524 -2.90796 -1.60007
3.62324 -2.88796 -1.59507
3.63524 -2.87896 -1.59707
3.64324 -2.87596 -1.59807
3.65824 -2.86896 -1.60107
3.68224 -2.86896 -1.60807
3.68624 -2.85396 -1.60607
3.68924 -2.83796 -1.60307
3.69824 -2.82596 -1.60307
3.70524 -2.82296 -1.60407
3.70524 -2.80396 -1.60007
3.72524 -2.79996 -1.60507
3.73824 -2.79196 -1.60707
3.73524 -2.77096 -1.60207
3.75724 -2.76996 -1.60807
3.76724 -2.75896 -1.60907
3.76424 -2.74796 -1.60507
3.77724 -2.73896 -1.60707
3.79524 -2.73396 -1.61107
3.79724 -2.71696 -1.60907
3.80424 -2.70396 -1.60807
3.82024 -2.69796 -1.61107
3.82924 -2.68596 -1.61107
3.82824 -2.67696 -1.60907
3.83424 -2.66196 -1.60807
3.84224 -2.64996 -1.60807
3.85624 -2.62396 -1.60607
3.87824 -2.62096 -1.61307
3.88824 -2.60996 -1.61307
3.90024 -2.60096 -1.61507
3.89224 -2.58696 -1.61007
3.90324 -2.57596 -1.61107
3.92424 -2.55496 -1.61307
3.94224 -2.54896 -1.61807
3.94624 -2.50796 -1.61107
3.94724 -2.49096 -1.60807
3.96624 -2.48596 -1.61307
3.96924 -2.46996 -1.61107
3.96624 -2.45096 -1.60607
3.99424 -2.45096 -1.61507
3.99224 -2.44096 -1.61207
4.00424 -2.43096 -1.61407
4.00224 -2.41296 -1.61007
4.00624 -2.39896 -1.60907
4.03224 -2.39596 -1.61607
4.02924 -2.37796 -1.61207
4.03824 -2.36596 -1.61307
4.04124 -2.35096 -1.61107
4.03324 -2.33796 -1.60607
4.05524 -2.33396 -1.61207
4.06124 -2.31996 -1.61107
4.06324 -2.30396 -1.60907
4.08024 -2.29696 -1.61307
4.09724 -2.28996 -1.61807
4.08824 -2.26796 -1.61107
4.11324 -2.27296 -1.62007
4.10724 -2.25296 -1.61407
4.12624 -2.22996 -1.61607
4.13024 -2.21496 -1.61507
4.13724 -2.20196 -1.61507
4.14524 -2.18996 -1.61507
4.16924 -2.19396 -1.62407
4.14924 -2.16696 -1.61307
4.16424 -2.15796 -1.61607
4.17624 -2.14796 -1.61807
4.17724 -2.13196 -1.61607
4.19324 -2.12296 -1.62007
4.20324 -2.11096 -1.62107
4.19424 -2.09896 -1.61607
4.22324 -2.09696 -1.62507
4.21924 -2.07796 -1.62107
4.22224 -2.06296 -1.62007
4.24624 -2.05796 -1.62607
4.22824 -2.03396 -1.61707
4.23624 -2.02096 -1.61807
4.24324 -2.01596 -1.61907
4.26124 -2.00796 -1.62407
4.26224 -1.99296 -1.62207
4.27924 -1.98396 -1.62607
4.28524 -1.96996 -1.62607
4.28624 -1.95496 -1.62407
4.31424 -1.95096 -1.63307
4.30024 -1.93696 -1.62607
4.31824 -1.92796 -1.63107
4.32624 -1.91596 -1.63107
4.31524 -1.89496 -1.62407
4.34024 -1.88896 -1.63207
4.33824 -1.85596 -1.62607
4.34124 -1.84896 -1.62607
4.37024 -1.82896 -1.63307
4.38024 -1.81696 -1.63507
4.38824 -1.80396 -1.63607
4.39724 -1.79196 -1.63807
4.41324 -1.78196 -1.64207
4.41124 -1.77296 -1.64007
4.87624 -0.377963 -1.69007
4.89424 -0.240963 -1.69407
4.90424 -0.178963 -1.69607
4.89724 -0.163963 -1.69407
4.91124 -0.155963 -1.69807
4.89924 -0.124963 -1.69407
4.90124 -0.109963 -1.69407
4.91324 -0.0789632 -1.69807
4.91324 -0.0559632 -1.69807
4.92124 -0.0409632 -1.70107
4.91024 -0.0249632 -1.69707
4.91524 -0.00996325 -1.69907
4.79524 0.397037 -1.71507
4.79224 0.443037 -1.71507
4.79024 0.458037 -1.71507
4.78124 0.472037 -1.71307
4.77624 0.487037 -1.71107
4.78624 0.495037 -1.71507
4.78924 0.511037 -1.71707
4.77624 0.524037 -1.71307
4.78224 0.540037 -1.71507
4.77224 0.554037 -1.71307
4.76924 0.569037 -1.71207
4.77824 0.586037 -1.71607
4.76424 0.591037 -1.71107
4.76224 0.606037 -1.71107
4.77124 0.623037 -1.71507
4.75324 0.636037 -1.70907
4.76024 0.652037 -1.71307
4.76524 0.668037 -1.71507
4.75824 0.682037 -1.71307
4.77024 0.691037 -1.71807
4.75624 0.705037 -1.71407
4.75424 0.720037 -1.71407
4.74824 0.734037 -1.71307
4.75324 0.750037 -1.71507
4.74324 0.764037 -1.71307
4.74324 0.779037 -1.71307
4.76624 0.790037 -1.72307
4.74524 0.802037 -1.71507
4.74024 0.817037 -1.71507
4.75224 0.834037 -1.72007
4.74824 0.849037 -1.72007
4.73824 0.862037 -1.71707
4.76124 0.882037 -1.72707
4.73924 0.886037 -1.71907
4.73824 0.901037 -1.72007
4.73424 0.915037 -1.71907
4.75324 0.935037 -1.72807
4.73324 0.946037 -1.72107
4.73824 0.963037 -1.72407
4.73324 0.977037 -1.72307
4.73324 0.985037 -1.72407
4.74124 1.00204 -1.72807
4.73424 1.01604 -1.72707
4.72924 1.03104 -1.72607
4.74424 1.04904 -1.73307
4.73724 1.06404 -1.73207
4.73424 1.07804 -1.73207
4.74124 1.10404 -1.73707
4.72924 1.14804 -1.73607
4.73224 1.16404 -1.73907
4.73824 1.18104 -1.74207
4.72024 1.19304 -1.73707
4.71824 1.20004 -1.73707
4.72524 1.21804 -1.74107
4.69924 1.22704 -1.73207
4.70624 1.24504 -1.73707
4.69724 1.25804 -1.73507
4.69324 1.27304 -1.73507
4.69624 1.28904 -1.73707
4.68724 1.29504 -1.73507
4.68324 1.30904 -1.73507
4.68824 1.32704 -1.73807
4.67124 1.33804 -1.73307
4.66824 1.35304 -1.73407
4.66824 1.36904 -1.73507
4.66324 1.38304 -1.73507
4.65824 1.39004 -1.73407
4.65724 1.40504 -1.73507
4.65424 1.42104 -1.73607
4.65024 1.43504 -1.73607
4.64524 1.45004 -1.73607
4.65324 1.46804 -1.74107
4.62924 1.47704 -1.73307
4.63224 1.48604 -1.73507
4.62924 1.50104 -1.73607
4.62124 1.51404 -1.73507
4.61924 1.53004 -1.73607
4.61524 1.54404 -1.73607
4.61924 1.56204 -1.74007
4.62224 1.58704 -1.74407
4.60124 1.61204 -1.74007
4.60824 1.63104 -1.74507
4.59424 1.64304 -1.74107
4.58624 1.65604 -1.74007
4.58824 1.67304 -1.74207
4.57624 1.67704 -1.73907
4.58524 1.69604 -1.74507
4.58124 1.71104 -1.74507
4.57124 1.72404 -1.74307
4.56524 1.73804 -1.74307
4.56824 1.75604 -1.74707
4.55824 1.76804 -1.74507
4.56424 1.77804 -1.74807
4.55824 1.79304 -1.74807
4.54524 1.80404 -1.74507
4.54724 1.82104 -1.74807
4.54624 1.83804 -1.75007
4.54924 1.85604 -1.75407
4.54124 1.86904 -1.75307
4.54524 1.87904 -1.75607
4.52224 1.88604 -1.74907
4.52324 1.90304 -1.75207
4.51724 1.91704 -1.75207
4.51824 1.93504 -1.75407
4.50724 1.94704 -1.75207
4.50624 1.96304 -1.75407
4.50424 1.97104 -1.75507
4.50024 1.98604 -1.75607
4.50724 2.00604 -1.76207
4.49624 2.01804 -1.75907
4.50324 2.03804 -1.76507
4.49524 2.05104 -1.76407
4.48924 2.06504 -1.76407
4.47224 2.06604 -1.75907
4.47724 2.08604 -1.76407
4.46424 2.09704 -1.76107
4.46124 2.11204 -1.76207
4.46424 2.13104 -1.76707
4.45624 2.14404 -1.76607
4.45424 2.16104 -1.76807
4.45724 2.17104 -1.77107
4.43224 2.17604 -1.76307
4.44524 2.20004 -1.77207
4.44724 2.21804 -1.77507
4.43324 2.22804 -1.77207
4.42324 2.24104 -1.77107
4.41224 2.25304 -1.76907
4.39924 2.25504 -1.76507
4.39724 2.27104 -1.76707
4.38824 2.28404 -1.76707
4.37724 2.29604 -1.76507
4.37024 2.31004 -1.76507
4.37424 2.33004 -1.77007
4.35224 2.33504 -1.76407
4.34824 2.34204 -1.76407
4.34924 2.36004 -1.76707
4.33224 2.36904 -1.76307
4.32924 2.38504 -1.76507
4.33324 2.40504 -1.77007
4.31624 2.41304 -1.76607
4.30824 2.42604 -1.76607
4.31124 2.43704 -1.76907
4.30024 2.44904 -1.76707
4.29924 2.46604 -1.77007
4.30124 2.48504 -1.77407
4.28024 2.49104 -1.76907
4.26924 2.50204 -1.76707
4.27724 2.52504 -1.77407
4.26024 2.52404 -1.76907
4.25424 2.55704 -1.77307
4.24624 2.57004 -1.77307
4.24024 2.58404 -1.77407
4.23324 2.59904 -1.77407
4.23024 2.61504 -1.77607
4.21724 2.62504 -1.77407
4.21624 2.63404 -1.77607
4.21724 2.65304 -1.78007
4.19724 2.65904 -1.77507
4.20324 2.68104 -1.78107
4.18424 2.68804 -1.77607
4.18524 2.70704 -1.78107
4.17824 2.72104 -1.78107
4.16924 2.72504 -1.77907
4.16324 2.74004 -1.78107
4.15624 2.75404 -1.78107
4.14924 2.76804 -1.78207
4.13624 2.77804 -1.78007
4.14024 2.79904 -1.78607
4.12624 2.79904 -1.78107
4.11924 2.81304 -1.78207
4.10824 2.82504 -1.78107
4.11024 2.84504 -1.78607
4.09024 2.85104 -1.78107
4.08124 2.86404 -1.78107
4.07724 2.88004 -1.78407
4.07424 2.88704 -1.78407
4.07124 2.90404 -1.78707
4.06324 2.91804 -1.78807
4.05624 2.93204 -1.78907
4.03924 2.93904 -1.78507
4.03724 2.95704 -1.78907
4.01924 2.96304 -1.78407
4.03124 2.98204 -1.79207
4.01524 2.99004 -1.78907
4.01224 3.00704 -1.79207
3.99624 3.01504 -1.78907
3.99624 3.03504 -1.79407
3.98624 3.04704 -1.79407
3.96524 3.05104 -1.78807
3.97124 3.06504 -1.79307
3.96824 3.08304 -1.79607
3.95124 3.09004 -1.79307
3.94624 3.10504 -1.79507
3.93624 3.11804 -1.79507
3.92224 3.12704 -1.79307
3.91324 3.14004 -1.79407
3.91224 3.15904 -1.79807
3.89324 3.15404 -1.79107
3.89024 3.17204 -1.79407
3.87924 3.18304 -1.79407
3.87024 3.19604 -1.79407
3.86624 3.21304 -1.79707
3.85024 3.22104 -1.79407
3.85424 3.24504 -1.80107
3.84524 3.24704 -1.79907
3.83024 3.25604 -1.79707
3.82624 3.27204 -1.80007
3.81824 3.28704 -1.80107
3.80524 3.29604 -1.80007
3.79524 3.30804 -1.80007
3.79024 3.32504 -1.80307
3.78324 3.33004 -1.80207
3.78124 3.34904 -1.80607
3.77624 3.36604 -1.80907
3.77024 3.38204 -1.81107
3.75724 3.39104 -1.81007
3.74924 3.40504 -1.81107
3.75424 3.42104 -1.81707
3.73324 3.42304 -1.81107
3.71524 3.45004 -1.81307
3.71424 3.47104 -1.81807
3.70224 3.48104 -1.81807
3.69124 3.49304 -1.81807
3.68524 3.49804 -1.81807
3.67024 3.50604 -1.81607
3.65624 3.51504 -1.81407
3.64924 3.53004 -1.81607
3.64124 3.54404 -1.81807
3.62624 3.55204 -1.81607
3.61024 3.59204 -1.82207
3.57424 3.62504 -1.82107
3.55724 3.65204 -1.82407
3.54424 3.66204 -1.82307
3.52424 3.67604 -1.82207
3.51324 3.68704 -1.82207
3.50924 3.70604 -1.82607
3.48524 3.70504 -1.82007
3.47224 3.71504 -1.81907
3.46324 3.72804 -1.82007
3.45524 3.73104 -1.81907
3.44424 3.74304 -1.82007
3.43924 3.76104 -1.82307
3.41524 3.75804 -1.81607
3.40324 3.76904 -1.81607
3.40024 3.78904 -1.82107
3.37124 3.78204 -1.81207
3.36824 3.79004 -1.81307
3.35524 3.79904 -1.81307
2.17924 -3.83396 -1.56307
2.19824 -3.83996 -1.56907
2.21424 -3.83996 -1.57107
2.22124 -3.83796 -1.57207
2.23824 -3.84096 -1.57607
2.27224 -3.81496 -1.57407
2.27924 -3.79996 -1.57107
2.29124 -3.79196 -1.57107
2.29924 -3.79196 -1.57207
2.30224 -3.76996 -1.56607
2.30924 -3.75496 -1.56207
2.31824 -3.74296 -1.56007
2.66224 -3.55796 -1.57607
2.66524 -3.53896 -1.57107
2.67324 -3.53796 -1.57207
2.68824 -3.53396 -1.57407
2.69324 -3.51796 -1.57107
2.70224 -3.50696 -1.56907
2.72324 -3.51096 -1.57607
2.72524 -3.49096 -1.57007
2.74324 -3.49096 -1.57407
2.75224 -3.49096 -1.57607
2.76124 -3.48096 -1.57607
2.77424 -3.47396 -1.57607
2.78124 -3.46096 -1.57407
2.79224 -3.45196 -1.57407
2.80324 -3.44296 -1.57407
2.81924 -3.44196 -1.57807
2.82624 -3.43896 -1.57807
2.83724 -3.42996 -1.57807
2.85624 -3.43096 -1.58307
2.86124 -3.41496 -1.58007
2.87224 -3.40696 -1.58107
2.89324 -3.40996 -1.58607
2.89324 -3.38796 -1.58007
2.91824 -3.39596 -1.58807
2.97224 -3.36096 -1.59207
2.99424 -3.33396 -1.59007
3.00324 -3.32296 -1.58907
3.02324 -3.30296 -1.58807
3.03224 -3.29196 -1.58807
3.04724 -3.28796 -1.59107
3.04824 -3.27696 -1.58807
3.06024 -3.27096 -1.58907
3.08024 -3.26996 -1.59407
3.07824 -3.24796 -1.58807
3.08924 -3.23896 -1.58807
3.10624 -3.23696 -1.59207
3.10824 -3.21796 -1.58707
3.11924 -3.21996 -1.59107
3.13024 -3.21096 -1.59107
3.13924 -3.19996 -1.59107
3.14724 -3.18796 -1.58907
3.16324 -3.18396 -1.59307
3.17124 -3.17196 -1.59107
3.18224 -3.16296 -1.59207
3.19124 -3.16196 -1.59407
3.19824 -3.14896 -1.59307
3.21624 -3.14696 -1.59707
3.22724 -3.13796 -1.59807
3.23224 -3.12296 -1.59507
3.24824 -3.11896 -1.59807
3.26124 -3.11196 -1.60007
3.27224 -3.10296 -1.60007
3.27124 -3.09296 -1.59807
3.88224 -2.40596 -1.62207
3.88724 -2.40096 -1.62307
3.88924 -2.38396 -1.62007
3.91924 -2.35296 -1.62407
3.92124 -2.33696 -1.62207
3.94924 -2.31196 -1.62607
3.95524 -2.29896 -1.62507
3.96024 -2.28496 -1.62507
3.98724 -2.25096 -1.62707
3.98524 -2.24196 -1.62507
4.00624 -2.21996 -1.62707
4.01824 -2.20996 -1.63007
4.02524 -2.19796 -1.63007
4.02024 -2.17896 -1.62507
4.03224 -2.16896 -1.62707
4.03924 -2.16396 -1.62807
4.04024 -2.14896 -1.62607
4.04724 -2.13596 -1.62607
4.06524 -2.12996 -1.63107
4.07224 -2.11696 -1.63107
4.08024 -2.10496 -1.63207
4.09024 -2.09396 -1.63307
4.08224 -2.08096 -1.62807
4.10224 -2.07496 -1.63407
4.10024 -2.05796 -1.63007
4.10824 -2.04596 -1.63107
4.11924 -2.03596 -1.63307
4.12224 -2.02096 -1.63207
4.13224 -2.00996 -1.63307
4.13724 -2.00396 -1.63407
4.14724 -1.99296 -1.63507
4.14324 -1.97496 -1.63107
4.15224 -1.96396 -1.63207
4.16924 -1.95496 -1.63707
4.16824 -1.93896 -1.63407
4.17624 -1.92696 -1.63507
4.18524 -1.92296 -1.63707
4.19224 -1.90996 -1.63707
4.19924 -1.89796 -1.63807
4.19824 -1.88096 -1.63507
4.20824 -1.86996 -1.63707
4.21224 -1.85596 -1.63607
4.21824 -1.84296 -1.63607
4.21924 -1.83496 -1.63507
4.22324 -1.82096 -1.63507
4.23424 -1.80996 -1.63707
4.24324 -1.79796 -1.63807
4.24824 -1.78496 -1.63807
4.25924 -1.77396 -1.64007
4.27224 -1.76296 -1.64307
4.66124 0.185037 -1.70907
4.66224 0.243037 -1.71107
4.66424 0.295037 -1.71307
4.65724 0.346037 -1.71107
4.66424 0.376037 -1.71507
4.65524 0.419037 -1.71307
4.64524 0.441037 -1.71007
4.65124 0.456037 -1.71307
4.64624 0.470037 -1.71107
4.65024 0.485037 -1.71407
4.64924 0.500037 -1.71407
4.64124 0.514037 -1.71107
4.65324 0.530037 -1.71707
4.64524 0.536037 -1.71407
4.65224 0.552037 -1.71707
4.65224 0.567037 -1.71807
4.64724 0.581037 -1.71707
4.65624 0.597037 -1.72107
4.64124 0.610037 -1.71607
4.64524 0.625037 -1.71807
4.65124 0.634037 -1.72107
4.65324 0.649037 -1.72207
4.63424 0.661037 -1.71607
4.63924 0.677037 -1.71907
4.64324 0.692037 -1.72107
4.64424 0.707037 -1.72207
4.62924 0.720037 -1.71707
4.63624 0.736037 -1.72107
4.65024 0.746037 -1.72707
4.62324 0.756037 -1.71707
4.63724 0.774037 -1.72407
4.62224 0.786037 -1.71907
4.62724 0.802037 -1.72207
4.63424 0.818037 -1.72507
4.63124 0.832037 -1.72507
4.62224 0.838037 -1.72207
4.62224 0.853037 -1.72307
4.61524 0.867037 -1.72207
4.62124 0.898037 -1.72607
4.62324 0.914037 -1.72807
4.62224 0.929037 -1.72907
4.62024 0.951037 -1.73007
4.61524 0.965037 -1.72907
4.61424 0.980037 -1.73007
4.60924 0.994037 -1.72907
4.61524 1.01104 -1.73307
4.60224 1.02304 -1.72907
4.61024 1.03204 -1.73307
4.59624 1.04404 -1.72807
4.59024 1.05804 -1.72707
4.58924 1.07304 -1.72807
4.60224 1.09104 -1.73507
4.58824 1.10304 -1.73007
4.58624 1.11804 -1.73107
4.60024 1.12904 -1.73807
4.59924 1.14404 -1.73807
4.60024 1.16004 -1.74107
4.58924 1.17304 -1.73807
4.57524 1.18404 -1.73307
4.56924 1.19804 -1.73307
4.57624 1.21504 -1.73707
4.57624 1.22304 -1.73807
4.57624 1.23804 -1.73907
4.55624 1.24804 -1.73307
4.56124 1.26504 -1.73607
4.56824 1.28204 -1.74107
4.57324 1.29904 -1.74407
4.54724 1.30704 -1.73507
4.55024 1.31604 -1.73807
4.55524 1.33304 -1.74107
4.54724 1.34604 -1.74007
4.54724 1.36204 -1.74107
4.54824 1.37804 -1.74307
4.53424 1.38904 -1.74007
4.52124 1.40104 -1.73607
4.54224 1.41504 -1.74607
4.52324 1.42504 -1.74007
4.51524 1.43804 -1.73807
4.51624 1.45404 -1.74107
4.51524 1.46904 -1.74207
4.51224 1.48404 -1.74307
4.50024 1.49604 -1.74007
4.49524 1.50204 -1.73807
4.48624 1.51404 -1.73707
4.49124 1.54704 -1.74307
4.47424 1.55704 -1.73807
4.47924 1.57504 -1.74207
4.47824 1.59004 -1.74307
4.47924 1.59904 -1.74507
4.46824 1.61104 -1.74307
4.45824 1.62304 -1.74107
4.45524 1.63804 -1.74107
4.46724 1.65804 -1.74907
4.45324 1.66904 -1.74507
4.45324 1.68504 -1.74707
4.44524 1.69004 -1.74507
4.44524 1.70604 -1.74707
4.43824 1.71904 -1.74607
4.43124 1.73204 -1.74607
4.42924 1.74804 -1.74707
4.43024 1.76404 -1.75007
4.42624 1.77904 -1.75107
4.43724 1.79204 -1.75707
4.41824 1.80004 -1.75107
4.42124 1.81704 -1.75407
4.41924 1.83304 -1.75607
4.40424 1.84304 -1.75207
4.39724 1.85604 -1.75107
4.40424 1.87604 -1.75707
4.39024 1.87704 -1.75207
4.39424 1.89604 -1.75707
4.39124 1.91104 -1.75807
4.38424 1.92404 -1.75707
4.37424 1.93604 -1.75607
4.38024 1.95504 -1.76107
4.35924 1.96204 -1.75407
4.37424 1.97704 -1.76207
4.36324 1.98904 -1.76007
4.36324 2.00604 -1.76307
4.35924 2.02004 -1.76407
4.35224 2.03404 -1.76407
4.33224 2.04104 -1.75807
4.34424 2.06404 -1.76607
4.33924 2.07004 -1.76507
4.33024 2.08204 -1.76407
4.32624 2.09704 -1.76507
4.33024 2.11504 -1.77007
4.31324 2.12404 -1.76507
4.31324 2.14104 -1.76807
4.31524 2.15904 -1.77207
4.30624 2.16304 -1.77007
4.31124 2.18204 -1.77507
4.30624 2.19704 -1.77507
4.29724 2.20904 -1.77507
4.28724 2.23804 -1.77607
4.26924 2.27204 -1.77607
4.26324 2.28604 -1.77707
4.25524 2.29804 -1.77607
4.24424 2.31004 -1.77507
4.22524 2.31704 -1.77007
4.22524 2.33404 -1.77207
4.22024 2.34904 -1.77407
4.22024 2.35704 -1.77507
4.20624 2.36704 -1.77207
4.20724 2.38504 -1.77607
4.20724 2.40304 -1.78007
4.18824 2.40904 -1.77507
4.18924 2.42704 -1.77807
4.16724 2.42304 -1.77007
4.16124 2.43704 -1.77107
4.15824 2.45304 -1.77307
4.16224 2.47304 -1.77807
4.14324 2.47904 -1.77307
4.14324 2.49704 -1.77707
4.14324 2.51504 -1.78007
4.13324 2.51804 -1.77807
4.12024 2.52804 -1.77507
4.13824 2.55604 -1.78707
4.10924 2.55704 -1.77807
4.10124 2.56904 -1.77807
4.10924 2.59204 -1.78507
4.09924 2.60404 -1.78407
4.10724 2.61904 -1.79007
4.09424 2.62904 -1.78807
4.07824 2.63604 -1.78407
4.06424 2.64504 -1.78107
4.06324 2.66304 -1.78507
4.05524 2.67604 -1.78507
4.04924 2.69004 -1.78607
4.04224 2.69504 -1.78507
4.04324 2.71404 -1.78907
4.03124 2.72404 -1.78807
4.02724 2.74004 -1.79007
4.00324 2.74204 -1.78307
4.00724 2.76304 -1.78807
4.00124 2.77804 -1.79007
3.99324 2.79104 -1.79007
3.98224 2.79204 -1.78707
3.98424 2.81304 -1.79207
3.97524 2.82504 -1.79207
3.96324 2.83504 -1.79107
3.95624 2.84904 -1.79107
3.94124 2.85704 -1.78807
3.94824 2.88104 -1.79607
3.92624 2.87404 -1.78807
3.92024 2.88904 -1.78907
3.91424 2.90304 -1.79107
3.90324 2.91504 -1.79007
3.89424 2.92704 -1.79007
3.89324 2.94604 -1.79407
3.87824 2.95304 -1.79107
3.87424 2.96004 -1.79107
3.86624 2.97304 -1.79207
3.85824 2.98604 -1.79307
3.85324 3.00204 -1.79507
3.84024 3.01104 -1.79407
3.83724 3.02804 -1.79607
3.83524 3.03704 -1.79807
3.82524 3.04904 -1.79807
3.80424 3.05104 -1.79207
3.81324 3.07804 -1.80207
3.80424 3.09004 -1.80207
3.78024 3.09004 -1.79407
3.77624 3.10704 -1.79707
3.76924 3.11204 -1.79607
3.76824 3.13104 -1.80107
3.76024 3.14404 -1.80207
3.75524 3.16004 -1.80407
3.74724 3.17304 -1.80507
3.74124 3.18904 -1.80707
3.72224 3.21404 -1.80807
3.71924 3.22104 -1.80907
3.70024 3.22504 -1.80407
3.69424 3.24004 -1.80707
3.69024 3.25704 -1.81007
3.67024 3.28104 -1.81007
3.66024 3.29304 -1.81007
3.64724 3.31204 -1.81207
3.63324 3.32004 -1.81007
3.62224 3.33104 -1.81007
3.61924 3.34904 -1.81307
3.60924 3.36204 -1.81407
3.58424 3.39104 -1.81507
3.57524 3.40404 -1.81507
3.54424 3.41704 -1.81007
3.53524 3.45104 -1.81707
3.52124 3.47004 -1.81807
3.50724 3.47904 -1.81707
3.36424 3.64304 -1.82407
3.34624 3.64704 -1.82007
3.33824 3.66204 -1.82307
3.32024 3.67604 -1.82207
3.29224 3.69104 -1.81907
3.28624 3.70904 -1.82307
3.27224 3.71604 -1.82107
3.22624 3.74604 -1.81807
3.21224 3.75304 -1.81707
3.18724 3.77204 -1.81607
3.16724 3.77204 -1.81107
3.16224 3.79104 -1.81507
3.14424 3.79304 -1.81207
3.12424 3.80504 -1.81007
2.59224 -3.45296 -1.57407
2.60824 -3.45196 -1.57807
2.61724 -3.44096 -1.57607
2.63024 -3.43596 -1.57807
2.64124 -3.42796 -1.57807
2.65324 -3.43196 -1.58207
2.65724 -3.41496 -1.57807
2.66924 -3.40796 -1.57807
2.68024 -3.39996 -1.57807
2.70224 -3.40596 -1.58607
2.71024 -3.39496 -1.58407
2.72424 -3.38996 -1.58607
2.72924 -3.38496 -1.58607
2.74324 -3.37996 -1.58807
2.82624 -3.31996 -1.59107
2.84524 -3.29996 -1.58907
2.86324 -3.29896 -1.59407
2.86924 -3.28596 -1.59107
2.88824 -3.27696 -1.59407
2.89524 -3.26296 -1.59107
2.90124 -3.24996 -1.58907
2.91824 -3.24796 -1.59307
2.93124 -3.24196 -1.59407
2.94024 -3.23096 -1.59407
2.94824 -3.21996 -1.59307
2.95924 -3.22096 -1.59607
2.96224 -3.20496 -1.59207
2.97924 -3.20196 -1.59607
3.00724 -3.17296 -1.59507
3.03424 -3.15096 -1.59607
3.04724 -3.14496 -1.59807
3.05924 -3.13696 -1.59907
3.06424 -3.12296 -1.59707
4.48824 0.856037 -1.72907
4.49424 0.864037 -1.73207
4.48924 0.878037 -1.73207
4.48324 0.891037 -1.73007
4.48424 0.906037 -1.73207
4.46924 0.932037 -1.72807
4.45924 0.945037 -1.72507
4.46824 0.954037 -1.72907
4.44324 0.964037 -1.72007
4.46624 0.983037 -1.73107
4.46224 0.997037 -1.73107
4.44324 1.00804 -1.72407
4.44924 1.02404 -1.72807
4.44224 1.03704 -1.72607
4.44624 1.04504 -1.72907
4.44824 1.06004 -1.73107
4.44324 1.07404 -1.73007
4.42824 1.08504 -1.72607
4.43424 1.10104 -1.72907
4.45024 1.12004 -1.73707
4.44524 1.13304 -1.73707
4.43824 1.13904 -1.73507
4.44324 1.15504 -1.73807
4.43124 1.16704 -1.73507
4.43624 1.18304 -1.73807
4.42124 1.19404 -1.73407
4.42324 1.21004 -1.73607
4.40824 1.22104 -1.73207
4.41724 1.23004 -1.73607
4.41324 1.24404 -1.73607
4.40824 1.25804 -1.73507
4.41624 1.27504 -1.74007
4.40324 1.28604 -1.73707
4.40324 1.30104 -1.73807
4.40624 1.31704 -1.74107
4.39324 1.32104 -1.73707
4.38224 1.33304 -1.73407
4.40124 1.35304 -1.74307
4.38724 1.36404 -1.74007
4.37824 1.37704 -1.73707
4.38624 1.39404 -1.74307
4.36624 1.40304 -1.73607
4.38124 1.41504 -1.74307
4.37324 1.42804 -1.74207
4.36524 1.44104 -1.74007
4.36224 1.45504 -1.74107
4.37024 1.47304 -1.74607
4.34424 1.47904 -1.73707
4.33624 1.49204 -1.73607
4.35724 1.50604 -1.74607
4.34124 1.51604 -1.74107
4.34324 1.53204 -1.74407
4.34724 1.54904 -1.74807
4.34124 1.56204 -1.74707
4.32524 1.57204 -1.74307
4.32724 1.58804 -1.74607
4.32124 1.59404 -1.74407
4.32524 1.61004 -1.74807
4.31324 1.62104 -1.74507
4.29724 1.63104 -1.74007
4.30424 1.64904 -1.74607
4.31324 1.66804 -1.75207
4.28524 1.67304 -1.74207
4.28324 1.68004 -1.74207
4.29524 1.70004 -1.74907
4.28624 1.71204 -1.74807
4.26824 1.72104 -1.74307
4.26524 1.73504 -1.74307
4.27024 1.75204 -1.74807
4.25024 1.76004 -1.74207
4.26324 1.77304 -1.74907
4.24424 1.78104 -1.74307
4.24124 1.79504 -1.74407
4.24824 1.81404 -1.74907
4.24024 1.82604 -1.74907
4.24024 1.84204 -1.75107
4.24124 1.85804 -1.75407
4.23124 1.86204 -1.75107
4.22324 1.87404 -1.75007
4.22824 1.89204 -1.75507
4.22224 1.90504 -1.75507
4.21224 1.91704 -1.75307
4.21624 1.93504 -1.75807
4.20524 1.94604 -1.75507
4.19724 1.95804 -1.75507
4.20824 1.97104 -1.76107
4.19324 1.98004 -1.75707
4.19024 1.99504 -1.75807
4.19124 2.01204 -1.76107
4.19124 2.02804 -1.76407
4.17524 2.03604 -1.76007
4.19224 2.06104 -1.77007
4.18224 2.06404 -1.76707
4.17524 2.07704 -1.76707
4.17224 2.10804 -1.77207
4.16024 2.11904 -1.77007
4.12224 2.22304 -1.77607
4.12124 2.23104 -1.77607
4.11424 2.24404 -1.77607
4.09524 2.26704 -1.77407
4.07824 2.27404 -1.77007
4.08324 2.29404 -1.77607
4.07824 2.30804 -1.77607
4.06124 2.30704 -1.77007
4.06024 2.32304 -1.77307
4.05224 2.33504 -1.77307
4.04424 2.34804 -1.77307
4.03824 2.36204 -1.77307
4.03124 2.37404 -1.77307
4.02224 2.38604 -1.77307
4.01724 2.39104 -1.77207
4.01424 2.40704 -1.77407
4.01124 2.42204 -1.77607
3.99524 2.43004 -1.77307
3.98924 2.44404 -1.77307
3.99024 2.46104 -1.77707
3.98024 2.47204 -1.77607
3.96624 2.48104 -1.77307
3.97324 2.49404 -1.77907
3.95824 2.50204 -1.77507
3.95924 2.52004 -1.77907
3.94224 2.52604 -1.77507
3.94224 2.54404 -1.77907
3.94924 2.56604 -1.78607
3.91924 2.56504 -1.77607
3.92024 2.57404 -1.77807
3.91324 2.58704 -1.77907
3.90824 2.60104 -1.78007
3.90624 2.61804 -1.78307
3.90324 2.63304 -1.78507
3.89024 2.64204 -1.78307
3.88124 2.65404 -1.78307
3.87724 2.66104 -1.78307
3.86924 2.67304 -1.78307
3.85924 2.68404 -1.78207
3.85424 2.69804 -1.78407
3.84524 2.71004 -1.78407
3.83724 2.72204 -1.78407
3.83724 2.73104 -1.78607
3.82824 2.74304 -1.78607
3.82124 2.75704 -1.78707
3.80924 2.76604 -1.78507
3.80524 2.78204 -1.78807
3.79024 2.78904 -1.78507
3.79724 2.81204 -1.79207
3.78324 2.81104 -1.78807
3.78024 2.82804 -1.79107
3.77024 2.83804 -1.79007
3.77324 2.85904 -1.79607
3.75124 2.86104 -1.78907
3.74624 2.87604 -1.79107
3.74124 2.89104 -1.79407
3.72824 2.90004 -1.79107
3.72624 2.90804 -1.79307
3.71724 2.91904 -1.79307
3.71724 2.93804 -1.79707
3.70924 2.95104 -1.79807
3.68224 2.96704 -1.79407
3.67724 2.98204 -1.79607
3.67624 2.99104 -1.79807
3.66024 2.99704 -1.79407
3.65424 3.01204 -1.79707
3.65624 3.03304 -1.80207
3.64024 3.03804 -1.79907
3.62224 3.04304 -1.79407
3.62524 3.06504 -1.80107
3.61624 3.06704 -1.79907
3.60624 3.07804 -1.79907
3.60124 3.09304 -1.80107
3.58524 3.10004 -1.79807
3.58424 3.11804 -1.80207
3.57324 3.12804 -1.80207
3.55924 3.13604 -1.80007
3.55724 3.14404 -1.80107
3.55524 3.16204 -1.80507
3.54524 3.17304 -1.80507
3.52824 3.17804 -1.80207
3.53224 3.20204 -1.80907
3.51424 3.20504 -1.80507
3.50124 3.21404 -1.80307
3.50724 3.22904 -1.80907
3.47924 3.22404 -1.80007
3.48024 3.24504 -1.80507
3.47224 3.25904 -1.80707
3.46324 3.27104 -1.80807
3.44924 3.27804 -1.80507
3.44724 3.29604 -1.81007
3.43624 3.29704 -1.80707
3.42724 3.30904 -1.80807
3.42324 3.32604 -1.81107
3.39924 3.32404 -1.80407
3.39424 3.33904 -1.80707
3.39324 3.35904 -1.81207
3.37724 3.36504 -1.80907
3.37124 3.36904 -1.80807
3.36824 3.38704 -1.81307
3.35124 3.39104 -1.80907
3.34824 3.40904 -1.81407
3.34224 3.42504 -1.81707
3.32324 3.42604 -1.81107
3.31024 3.43604 -1.81107
3.30424 3.45004 -1.81307
3.30124 3.45804 -1.81407
3.29424 3.47204 -1.81707
3.28324 3.48204 -1.81707
3.26824 3.48904 -1.81407
3.25624 3.49804 -1.81407
3.25424 3.51704 -1.81907
3.24124 3.52604 -1.81807
3.22724 3.54404 -1.82007
3.17124 3.59404 -1.82007
3.15924 3.61504 -1.82307
3.14524 3.62204 -1.82107
3.13024 3.62804 -1.81907
3.12524 3.64404 -1.82307
3.10124 3.64004 -1.81507
3.09824 3.66004 -1.82007
3.08624 3.65804 -1.81707
3.07824 3.67204 -1.81907
3.06724 3.68104 -1.81907
3.05124 3.68504 -1.81607
3.04124 3.69804 -1.81707
3.03124 3.70904 -1.81807
3.01824 3.71704 -1.81707
3.01024 3.71804 -1.81607
2.98424 3.78204 -1.82907
2.95724 3.77304 -1.82007
2.93124 3.76404 -1.81107
2.93324 3.77904 -1.81607
2.91824 3.78404 -1.81407
1.96024 -3.68396 -1.57007
2.10924 -3.62696 -1.57907
2.14124 -3.60396 -1.57807
2.34324 -3.49196 -1.58307
2.51624 -3.39196 -1.59007
2.55424 -3.36596 -1.59107
2.57024 -3.34296 -1.58707
2.58324 -3.33696 -1.58907
2.59524 -3.33196 -1.59007
2.60524 -3.32296 -1.59007
2.61424 -3.31296 -1.58907
2.62424 -3.31496 -1.59207
2.62924 -3.30096 -1.58907
2.63824 -3.28896 -1.58707
2.65224 -3.28696 -1.59007
2.66024 -3.27596 -1.58907
2.67324 -3.26996 -1.59007
2.68524 -3.26296 -1.59107
2.69224 -3.25196 -1.59007
2.69924 -3.24896 -1.59007
2.71424 -3.24596 -1.59307
2.72524 -3.23896 -1.59407
2.73924 -3.23496 -1.59607
2.74824 -3.22496 -1.59607
2.75924 -3.21796 -1.59607
2.76424 -3.20296 -1.59307
2.77424 -3.20496 -1.59607
2.78424 -3.19596 -1.59607
2.79524 -3.18896 -1.59707
2.80724 -3.18096 -1.59807
2.81424 -3.16896 -1.59607
2.83524 -3.15296 -1.59707
4.30424 1.16804 -1.73107
4.31824 1.18604 -1.73907
4.31124 1.19904 -1.73707
4.30224 1.21104 -1.73507
4.30124 1.22504 -1.73707
4.30824 1.24204 -1.74107
4.29224 1.24504 -1.73507
4.29524 1.26004 -1.73807
4.28424 1.27204 -1.73507
4.28924 1.28804 -1.73907
4.27424 1.29804 -1.73407
4.28324 1.31504 -1.74007
4.27824 1.32904 -1.74007
4.27524 1.33504 -1.73907
4.27024 1.34804 -1.73907
4.25724 1.35904 -1.73507
4.26024 1.37404 -1.73807
4.26824 1.39204 -1.74307
4.25524 1.40204 -1.74007
4.25624 1.41804 -1.74207
4.24824 1.42204 -1.74007
4.24524 1.43604 -1.74007
4.23624 1.44804 -1.73807
4.24224 1.46504 -1.74307
4.23924 1.47904 -1.74307
4.22524 1.48904 -1.74007
4.21924 1.50204 -1.73907
4.22024 1.51004 -1.74007
4.22624 1.52704 -1.74507
4.21724 1.53904 -1.74307
4.21624 1.55304 -1.74507
4.20824 1.56504 -1.74307
4.20324 1.57804 -1.74307
4.19324 1.58904 -1.74107
4.18724 1.60304 -1.74107
4.19924 1.61504 -1.74707
4.18324 1.62404 -1.74307
4.18024 1.63804 -1.74307
4.17524 1.65104 -1.74307
4.17624 1.66704 -1.74607
4.17124 1.68004 -1.74607
4.17624 1.69704 -1.75107
4.16024 1.69804 -1.74507
4.17024 1.71704 -1.75207
4.15824 1.72804 -1.74907
4.15924 1.74404 -1.75207
4.14024 1.75104 -1.74607
4.14824 1.77004 -1.75207
4.14824 1.77804 -1.75307
4.14624 1.79204 -1.75507
4.13224 1.80104 -1.75107
4.13224 1.81704 -1.75307
4.12624 1.83004 -1.75307
4.11024 1.83804 -1.74907
4.11624 1.85604 -1.75407
4.12024 1.86604 -1.75707
4.09724 1.87104 -1.75007
4.11524 1.89504 -1.76007
4.10524 1.90604 -1.75907
4.08824 1.91304 -1.75307
4.09524 1.93304 -1.75907
4.09424 1.94804 -1.76207
4.06724 1.94304 -1.75107
4.09124 1.97004 -1.76507
4.08724 1.98404 -1.76607
4.05724 1.98504 -1.75507
4.07424 2.01004 -1.76607
4.07324 2.02504 -1.76807
4.05224 2.03004 -1.76107
4.05024 2.03704 -1.76207
4.04524 2.05104 -1.76207
4.03224 2.06004 -1.75907
4.04424 2.08204 -1.76807
4.03424 2.09304 -1.76607
4.01924 2.10204 -1.76207
4.02724 2.12204 -1.76907
4.01224 2.13804 -1.76707
4.02024 2.15904 -1.77407
4.00824 2.18504 -1.77507
3.99424 2.21004 -1.77507
3.98724 2.22304 -1.77507
3.96524 2.25104 -1.77207
3.94424 2.28904 -1.77207
3.94624 2.30704 -1.77707
3.94724 2.31604 -1.77907
3.92524 2.31904 -1.77207
3.93424 2.34104 -1.78007
3.92324 2.35204 -1.77907
3.91824 2.36504 -1.77907
3.90524 2.37404 -1.77707
3.90524 2.38304 -1.77907
3.89324 2.39204 -1.77607
3.89824 2.41204 -1.78207
3.89024 2.42404 -1.78207
3.87624 2.43204 -1.77907
3.87324 2.46504 -1.78507
3.86324 2.46704 -1.78207
3.84124 2.50404 -1.78307
3.82624 2.51104 -1.77907
3.83224 2.53204 -1.78607
3.81724 2.55704 -1.78707
3.80424 2.57404 -1.78607
3.79124 2.58304 -1.78407
3.78924 2.59904 -1.78707
3.77624 2.60804 -1.78507
3.76524 2.61804 -1.78307
3.76724 2.63704 -1.78807
3.76424 2.64404 -1.78907
3.75224 2.67104 -1.79107
3.73624 2.67704 -1.78807
3.72124 2.68304 -1.78407
3.72224 2.70304 -1.78907
3.71824 2.71804 -1.79107
3.70524 2.71704 -1.78707
3.70624 2.73504 -1.79107
3.69624 2.74604 -1.79107
3.67824 2.76904 -1.79107
3.66924 2.78004 -1.79107
3.65624 2.78904 -1.78807
3.64824 2.79104 -1.78607
3.65324 2.81404 -1.79407
3.62724 2.83004 -1.78907
3.63024 2.85004 -1.79507
3.61324 2.85604 -1.79107
3.60324 2.86604 -1.79107
3.59824 2.87204 -1.79107
3.59124 2.88404 -1.79107
3.57924 2.89304 -1.79007
3.58524 2.91704 -1.79807
3.57524 2.92704 -1.79807
3.55424 2.92904 -1.79107
3.54824 2.94304 -1.79307
3.54624 2.95104 -1.79507
3.53324 2.95804 -1.79207
3.52924 2.97404 -1.79507
3.51324 2.97904 -1.79107
3.51224 2.99704 -1.79607
3.50124 3.00704 -1.79507
3.49524 3.02204 -1.79807
3.48424 3.02104 -1.79407
3.48024 3.03704 -1.79707
3.47324 3.05004 -1.79807
3.45724 3.05504 -1.79507
3.44024 3.06004 -1.79107
3.45024 3.08804 -1.80107
3.42224 3.08304 -1.79107
3.42924 3.10804 -1.80107
3.42924 3.11904 -1.80407
3.40624 3.11704 -1.79607
3.39924 3.13004 -1.79807
3.39424 3.14604 -1.80107
3.38424 3.15604 -1.80107
3.36924 3.16204 -1.79807
3.36524 3.17804 -1.80107
3.35624 3.17904 -1.79807
3.34624 3.19004 -1.79807
3.33424 3.19904 -1.79807
3.32924 3.21404 -1.80107
3.32224 3.22704 -1.80207
3.30724 3.23304 -1.79907
3.30224 3.24804 -1.80207
3.30024 3.25704 -1.80407
3.29524 3.27304 -1.80807
3.28624 3.28504 -1.80807
3.27524 3.29404 -1.80807
3.26724 3.30604 -1.80907
3.25524 3.31504 -1.80807
3.24424 3.32404 -1.80807
3.24224 3.33304 -1.81007
3.23324 3.34504 -1.81107
3.22424 3.35604 -1.81107
3.21624 3.36904 -1.81307
3.20624 3.38104 -1.81407
3.19124 3.38504 -1.81107
3.18524 3.40104 -1.81407
3.17524 3.42204 -1.81707
3.15924 3.42704 -1.81407
3.14024 3.44904 -1.81607
3.12824 3.45804 -1.81507
3.11924 3.46904 -1.81607
3.10724 3.46704 -1.81207
3.10024 3.48104 -1.81407
3.08424 3.48504 -1.81107
3.07424 3.49604 -1.81207
3.06224 3.50404 -1.81107
3.05124 3.51404 -1.81107
3.04524 3.52904 -1.81407
3.02724 3.52004 -1.80707
3.02124 3.53504 -1.81007
3.00624 3.54004 -1.80807
3.00224 3.55804 -1.81207
2.99024 3.56604 -1.81107
2.97524 3.57104 -1.80907
2.96924 3.58604 -1.81207
2.96324 3.59104 -1.81207
2.95024 3.59904 -1.81107
2.94024 3.61004 -1.81207
2.93124 3.62204 -1.81407
2.91824 3.62804 -1.81207
2.91224 3.64404 -1.81607
2.90524 3.65904 -1.81907
2.89224 3.66704 -1.81807
2.89224 3.67904 -1.82207
2.87724 3.68404 -1.82007
2.86324 3.69004 -1.81807
2.85424 3.70204 -1.82007
2.84424 3.71204 -1.82107
2.83324 3.72204 -1.82107
2.82624 3.73704 -1.82407
2.81224 3.73104 -1.81907
2.80524 3.74604 -1.82207
2.79324 3.75504 -1.82207
2.78424 3.76804 -1.82407
2.77324 3.77704 -1.82407
2.75724 3.78104 -1.82207
2.75524 3.80304 -1.82907
2.74724 3.80404 -1.82707
2.73724 3.81604 -1.82907
2.70624 3.82304 -1.82407
2.69724 3.83604 -1.82607
2.68424 3.84304 -1.82507
2.66024 3.83404 -1.81707
2.65424 3.83804 -1.81707
2.63624 3.83804 -1.81207
2.47324 -3.28996 -1.58907
2.48824 -3.28796 -1.59207
2.49324 -3.27296 -1.58807
2.50524 -3.26796 -1.59007
2.51024 -3.25296 -1.58607
2.52924 -3.25696 -1.59207
2.52724 -3.24396 -1.58807
2.54024 -3.23896 -1.58907
2.55224 -3.23396 -1.59107
2.56424 -3.22696 -1.59107
2.56824 -3.21196 -1.58807
2.58324 -3.20896 -1.59107
2.58924 -3.20696 -1.59107
2.59824 -3.19696 -1.59107
2.60924 -3.18996 -1.59107
2.62524 -3.18896 -1.59507
2.63524 -3.18096 -1.59507
2.64424 -3.17096 -1.59507
2.65724 -3.16696 -1.59707
2.66324 -3.16496 -1.59807
2.67224 -3.15496 -1.59707
2.68024 -3.14396 -1.59507
2.70524 -3.13396 -1.59907
4.19424 1.19604 -1.72807
4.19024 1.20904 -1.72807
4.17624 1.21904 -1.72407
4.17224 1.24704 -1.72507
4.17224 1.28304 -1.73007
4.16224 1.30804 -1.72907
4.16424 1.32304 -1.73107
4.15724 1.35004 -1.73207
4.14724 1.36804 -1.73107
4.14124 1.38104 -1.73007
4.14224 1.39504 -1.73207
4.13324 1.42104 -1.73207
4.12724 1.43404 -1.73107
4.12924 1.44904 -1.73407
4.11224 1.50904 -1.73607
4.10224 1.52004 -1.73407
4.10124 1.54104 -1.73707
4.09824 1.55504 -1.73807
4.08024 1.60704 -1.73807
4.07324 1.65604 -1.74307
4.06024 1.69604 -1.74507
4.04724 1.69804 -1.74007
4.05024 1.71404 -1.74407
4.04324 1.72604 -1.74307
4.04024 1.73904 -1.74407
4.04424 1.75604 -1.74807
4.03924 1.76904 -1.74807
4.02624 1.77904 -1.74507
4.02924 1.78704 -1.74807
4.02524 1.80104 -1.74807
4.00924 1.80904 -1.74407
4.01724 1.82804 -1.75007
4.02424 1.84604 -1.75607
3.99524 1.84804 -1.74507
4.00624 1.86804 -1.75307
4.00524 1.88304 -1.75507
3.99024 1.88404 -1.75007
3.98324 1.89604 -1.74907
3.97924 1.90904 -1.75007
3.97024 1.93604 -1.75207
3.95724 1.94504 -1.74807
3.95124 1.96504 -1.75007
3.95824 1.98404 -1.75607
3.93624 2.00404 -1.75207
3.93624 2.02004 -1.75507
3.92824 2.03104 -1.75407
3.93024 2.04804 -1.75807
3.92824 2.05504 -1.75907
3.92224 2.06704 -1.75907
3.92224 2.08304 -1.76207
3.92324 2.09904 -1.76607
3.90924 2.10704 -1.76207
3.91824 2.12804 -1.76907
3.90524 2.12904 -1.76507
3.90524 2.14504 -1.76807
3.90824 2.16304 -1.77307
3.89924 2.17404 -1.77207
3.88824 2.18404 -1.76907
3.88424 2.21304 -1.77407
3.87824 2.21904 -1.77307
3.87024 2.23004 -1.77307
3.86624 2.24404 -1.77407
3.86524 2.26004 -1.77707
3.85724 2.27104 -1.77607
3.85124 2.28404 -1.77707
3.84124 2.29404 -1.77607
3.83224 2.30504 -1.77507
3.82824 2.31104 -1.77507
3.82724 2.32704 -1.77807
3.81724 2.33704 -1.77607
3.81424 2.35204 -1.77907
3.80824 2.36504 -1.78007
3.79824 2.37504 -1.77807
3.79024 2.38704 -1.77807
3.79324 2.39704 -1.78107
3.78124 2.40604 -1.77907
3.77624 2.42004 -1.78007
3.77024 2.43204 -1.78107
3.75324 2.43804 -1.77607
3.75224 2.45404 -1.78007
3.75224 2.47104 -1.78307
3.74624 2.47604 -1.78307
3.73424 2.48404 -1.78007
3.73524 2.50204 -1.78507
3.72624 2.51304 -1.78407
3.71024 2.51904 -1.78007
3.71624 2.54004 -1.78707
3.70524 2.55004 -1.78607
3.69524 2.55204 -1.78307
3.69124 2.56604 -1.78507
3.68224 2.57704 -1.78407
3.66324 2.58104 -1.77907
3.65824 2.59504 -1.78007
3.64824 2.60504 -1.78007
3.63924 2.61604 -1.77907
3.64324 2.62804 -1.78307
3.63424 2.63804 -1.78307
3.61824 2.64404 -1.77907
3.62624 2.66704 -1.78707
3.62124 2.68104 -1.78907
3.60224 2.68504 -1.78307
3.59624 2.69804 -1.78507
3.59524 2.70604 -1.78607
3.58224 2.71404 -1.78407
3.57324 2.72504 -1.78407
3.56024 2.73304 -1.78207
3.55324 2.74504 -1.78307
3.55224 2.76204 -1.78607
3.54324 2.77304 -1.78607
3.53824 2.77804 -1.78607
3.52224 2.78304 -1.78207
3.52024 2.80004 -1.78607
3.50124 2.80304 -1.78007
3.49924 2.82004 -1.78407
3.49224 2.83204 -1.78507
3.47424 2.83604 -1.78007
3.47124 2.85104 -1.78307
3.47524 2.86404 -1.78807
3.45124 2.86204 -1.78007
3.44524 2.87504 -1.78107
3.44424 2.89304 -1.78607
3.42524 2.89504 -1.78007
3.41924 2.90804 -1.78207
3.41424 2.92304 -1.78407
3.40424 2.92304 -1.78107
3.40324 2.94104 -1.78607
3.39624 2.95404 -1.78707
3.37924 2.95804 -1.78307
3.37324 2.97204 -1.78507
3.37224 2.99004 -1.79007
3.35124 2.98904 -1.78307
3.34124 3.00904 -1.78507
3.33724 3.02404 -1.78807
3.32424 3.03204 -1.78607
3.33024 3.05604 -1.79507
3.30824 3.05604 -1.78807
3.30424 3.07104 -1.79107
3.30024 3.07704 -1.79207
3.29724 3.09404 -1.79607
3.29724 3.11304 -1.80107
3.27424 3.11104 -1.79307
3.27124 3.12704 -1.79707
3.25424 3.13104 -1.79307
3.25024 3.14704 -1.79707
3.25024 3.15704 -1.80007
3.24024 3.16704 -1.80007
3.23424 3.18104 -1.80207
3.22824 3.19504 -1.80407
3.21424 3.20104 -1.80207
3.20524 3.21304 -1.80307
3.19424 3.22104 -1.80207
3.19524 3.23304 -1.80607
3.18524 3.24304 -1.80607
3.16724 3.24504 -1.80107
3.16924 3.26704 -1.80807
3.16024 3.27804 -1.80907
3.15224 3.29104 -1.81107
3.14024 3.29904 -1.81007
3.12924 3.29804 -1.80607
3.11824 3.30704 -1.80607
3.10724 3.31604 -1.80507
3.09224 3.32104 -1.80307
3.08724 3.33704 -1.80607
3.07724 3.34604 -1.80607
3.05524 3.34404 -1.79907
3.05724 3.35704 -1.80407
3.04824 3.36804 -1.80407
3.03824 3.37904 -1.80507
3.02824 3.38804 -1.80507
3.01824 3.39904 -1.80607
3.00124 3.40204 -1.80207
2.99224 3.41204 -1.80307
2.98124 3.42204 -1.80307
2.97524 3.42504 -1.80207
2.96624 3.43704 -1.80407
2.95124 3.44104 -1.80007
2.94524 3.45604 -1.80407
2.92824 3.45804 -1.80007
2.92224 3.47304 -1.80307
2.90524 3.48604 -1.80307
2.89724 3.49804 -1.80407
2.88724 3.50904 -1.80507
2.88024 3.52404 -1.80807
2.87624 3.54104 -1.81307
2.86324 3.54704 -1.81107
2.84524 3.54804 -1.80707
2.83924 3.55204 -1.80707
2.84124 3.57704 -1.81507
