5.23423 0.0459167 -1.7231
5.22423 0.0629167 -1.7201
5.24522 0.0789167 -1.7271
5.24323 0.0879167 -1.7261
5.22522 0.103917 -1.7201
5.23423 0.119917 -1.7241
5.23623 0.136917 -1.7241
5.23222 0.152917 -1.7231
5.24423 0.169917 -1.7281
5.24622 0.186917 -1.7281
5.24022 0.194917 -1.7261
5.24323 0.210917 -1.7281
5.24622 0.227917 -1.7291
5.23222 0.243917 -1.7241
5.23123 0.259917 -1.7241
5.23623 0.276917 -1.7261
5.23123 0.292917 -1.7251
5.23523 0.301917 -1.7261
5.23723 0.317917 -1.7281
5.23523 0.334917 -1.7271
5.23023 0.350917 -1.7261
5.21922 0.365917 -1.7221
5.22723 0.383917 -1.7261
5.21523 0.398917 -1.7221
5.23123 0.408917 -1.7281
5.21523 0.423917 -1.7221
5.22723 0.440917 -1.7271
5.22723 0.457917 -1.7281
5.22622 0.473917 -1.7281
5.22823 0.490917 -1.7291
5.21723 0.506917 -1.7261
5.21623 0.514917 -1.7261
5.21623 0.530917 -1.7261
5.21123 0.546917 -1.7251
5.20923 0.563917 -1.7251
5.21123 0.580917 -1.7261
5.21123 0.596917 -1.7271
5.21723 0.613917 -1.7301
5.20622 0.620917 -1.7261
5.21222 0.638917 -1.7291
5.21423 0.655917 -1.7301
5.20022 0.670917 -1.7261
5.20022 0.686917 -1.7271
5.20323 0.703917 -1.7291
5.20323 0.720917 -1.7301
5.19823 0.727917 -1.7281
5.20522 0.745917 -1.7311
5.18223 0.758917 -1.7241
5.19922 0.778917 -1.7311
5.18923 0.793917 -1.7281
5.19523 0.811917 -1.7311
5.20423 0.829917 -1.7351
5.19222 0.835917 -1.7311
5.19123 0.852917 -1.7321
5.19222 0.869917 -1.7331
5.19823 0.887917 -1.7371
3.81323 3.65692 -1.7401
3.79923 3.66592 -1.7391
3.78122 3.67092 -1.7351
3.75723 3.67092 -1.7301
3.74423 3.68192 -1.7291
3.74023 3.70092 -1.7331
3.73723 3.70992 -1.7341
3.71423 3.70992 -1.7281
3.70923 3.72792 -1.7311
3.69823 3.74092 -1.7321
3.68523 3.75092 -1.7311
3.66823 3.75692 -1.7291
3.64322 3.75492 -1.7221
3.64023 3.76392 -1.7241
3.62223 3.76792 -1.7201
3.60723 3.77692 -1.7191
3.59722 3.78892 -1.7201
3.58323 3.79892 -1.7191
3.58323 3.82292 -1.7251
3.56323 3.82592 -1.7211
3.56023 3.83392 -1.7221
3.54923 3.84692 -1.7231
3.53723 3.85792 -1.7231
3.52523 3.86892 -1.7231
3.50923 3.87592 -1.7211
3.50323 3.89392 -1.7241
3.48723 3.90092 -1.7221
3.48123 3.90592 -1.7221
3.46623 3.91392 -1.7211
3.41323 3.95292 -1.7191
3.38423 3.98292 -1.7201
3.36723 3.98792 -1.7181
3.36523 4.01092 -1.7241
3.34523 4.01292 -1.7201
3.33022 4.02092 -1.7181
3.31623 4.02992 -1.7181
3.31523 4.04092 -1.7201
3.26122 4.07892 -1.7191
3.25122 4.09192 -1.7201
3.24423 4.10992 -1.7241
3.23323 4.12292 -1.7251
3.22123 4.12092 -1.7221
3.20723 4.12892 -1.7211
3.19323 4.13792 -1.7201
3.17922 4.14592 -1.7201
3.16423 4.15492 -1.7191
3.15223 4.16592 -1.7201
3.14322 4.18092 -1.7221
3.13123 4.17792 -1.7181
3.12322 4.19492 -1.7221
3.11123 4.20692 -1.7221
3.09923 4.21792 -1.7231
3.07823 4.21692 -1.7181
3.06623 4.22792 -1.7191
3.05323 4.23892 -1.7201
3.04722 4.24392 -1.7201
3.03923 4.26092 -1.7231
3.03023 4.27692 -1.7261
3.01122 4.27892 -1.7221
2.99623 4.28692 -1.7221
2.97723 4.28692 -1.7181
2.96823 4.30392 -1.7211
2.96323 4.30992 -1.7221
2.94723 4.31592 -1.7201
2.93823 4.33192 -1.7231
2.92523 4.34292 -1.7241
2.91023 4.34992 -1.7231
2.89123 4.35092 -1.7201
2.87923 4.36192 -1.7201
2.86123 4.36492 -1.7181
2.85423 4.36892 -1.7181
2.84523 4.38592 -1.7211
2.83722 4.40292 -1.7241
2.81823 4.40392 -1.7211
2.81123 4.42392 -1.7261
2.79122 4.42292 -1.7221
2.78023 4.43692 -1.7241
2.77223 4.43892 -1.7231
2.75923 4.44992 -1.7241
2.74223 4.45392 -1.7221
2.72522 4.45692 -1.7201
2.71623 4.47392 -1.7231
2.69922 4.47792 -1.7211
2.68922 4.49292 -1.7241
2.68323 4.49792 -1.7241
2.67423 4.51492 -1.7281
2.65723 4.51792 -1.7261
2.63622 4.51492 -1.7211
2.62322 4.52692 -1.7221
2.60223 4.52192 -1.7171
2.58722 4.52792 -1.7161
2.59123 4.55392 -1.7251
2.57323 4.55492 -1.7221
2.56123 4.56692 -1.7241
2.54422 4.56992 -1.7221
2.53223 4.58292 -1.7241
2.51923 4.59192 -1.7241
2.50623 4.60392 -1.7261
2.48923 4.60592 -1.7241
2.47923 4.60492 -1.7221
2.46423 4.61092 -1.7211
2.45323 4.62592 -1.7241
2.43723 4.63192 -1.7231
2.42623 4.64592 -1.7261
2.41223 4.65392 -1.7261
2.39622 4.65992 -1.7251
2.38322 4.65192 -1.7201
2.36823 4.65892 -1.7201
2.36123 4.68192 -1.7261
2.34423 4.68392 -1.7241
2.33823 4.70992 -1.7311
2.31223 4.69392 -1.7221
2.29923 4.70392 -1.7241
2.30223 4.72992 -1.7321
2.28122 4.72292 -1.7271
2.26623 4.73092 -1.7271
2.25623 4.74792 -1.7311
2.23522 4.74292 -1.7261
2.22123 4.75192 -1.7271
2.19922 4.76392 -1.7281
2.18623 4.77392 -1.7291
2.15123 4.77592 -1.7241
2.13923 4.79092 -1.7281
2.10723 4.79892 -1.7261
2.09523 4.81292 -1.7281
2.08823 4.81792 -1.7291
2.07422 4.82792 -1.7301
2.05623 4.82592 -1.7271
2.04023 4.83192 -1.7271
2.02122 4.82792 -1.7231
2.00923 4.84292 -1.7261
1.99622 4.85492 -1.7281
1.98722 4.85392 -1.7271
1.97022 4.85492 -1.7251
1.95822 4.86992 -1.7281
1.94122 4.87092 -1.7261
1.92322 4.87192 -1.7241
1.91322 4.89192 -1.7301
1.89022 4.87692 -1.7221
1.88522 4.88692 -1.7241
1.87322 4.90092 -1.7281
1.85322 4.89492 -1.7231
1.83522 4.89392 -1.7201
1.82722 4.91892 -1.7281
1.80722 4.91192 -1.7231
1.79122 4.91792 -1.7231
1.78422 4.92192 -1.7241
1.76522 4.91692 -1.7201
1.75122 4.92592 -1.7211
1.72322 4.94792 -1.7251
1.70722 4.94992 -1.7241
1.69523 4.96792 -1.7281
1.67522 4.95892 -1.7231
1.66422 4.95192 -1.7201
1.63522 4.96992 -1.7221
1.62022 4.97492 -1.7221
1.60722 4.99092 -1.7261
1.58922 4.98692 -1.7231
1.57622 4.99892 -1.7261
1.56722 4.99792 -1.7241
1.54922 4.99692 -1.7221
1.52922 4.98592 -1.7161
1.51423 4.99392 -1.7181
1.50022 5.00492 -1.7201
1.48522 5.01292 -1.7211
1.46823 5.01392 -1.7201
1.45922 5.01092 -1.7181
1.44422 5.01692 -1.7181
1.43322 5.03792 -1.7241
1.41222 5.02592 -1.7181
1.39822 5.03592 -1.7201
1.37922 5.02892 -1.7161
1.36522 5.03892 -1.7181
1.35822 5.04492 -1.7201
1.34222 5.05092 -1.7201
1.32622 5.05192 -1.7191
1.31022 5.05792 -1.7201
1.29522 5.06492 -1.7211
1.28122 5.07492 -1.7231
1.26522 5.07892 -1.7231
1.24722 5.07392 -1.7201
1.23922 5.07692 -1.7201
1.22222 5.07792 -1.7191
1.20822 5.08692 -1.7211
1.19222 5.09192 -1.7221
1.17422 5.08892 -1.7191
1.15922 5.09392 -1.7201
1.14423 5.10392 -1.7221
1.13322 5.09092 -1.7161
1.12122 5.11292 -1.7231
1.10222 5.10492 -1.7191
1.08722 5.11192 -1.7201
1.05622 5.12292 -1.7221
1.03922 5.12392 -1.7211
1.03222 5.13092 -1.7231
1.01622 5.13392 -1.7231
0.998225 5.12992 -1.7201
0.982225 5.13092 -1.7201
0.966225 5.13592 -1.7201
0.951225 5.14492 -1.7221
0.926225 5.14192 -1.7201
0.909225 5.14092 -1.7181
0.862225 5.15892 -1.7221
0.845225 5.15592 -1.7201
0.788225 5.16292 -1.7191
0.756225 5.17292 -1.7211
0.576225 5.18692 -1.7181
4.83122 -1.92508 -1.7111
5.00723 -1.51808 -1.7221
5.01323 -1.47708 -1.7201
5.03323 -1.43108 -1.7221
5.02822 -1.41308 -1.7191
5.03622 -1.40608 -1.7211
5.04423 -1.39108 -1.7221
5.04222 -1.37408 -1.7201
5.05023 -1.35908 -1.7221
5.06323 -1.30308 -1.7211
5.07723 -1.25608 -1.7221
5.08722 -1.22408 -1.7221
5.11123 -1.13708 -1.7241
5.13322 -1.03208 -1.7241
5.14423 -1.01808 -1.7261
5.14122 -0.992083 -1.7241
5.13823 -0.975083 -1.7221
5.14523 -0.959083 -1.7231
5.14323 -0.942083 -1.7211
5.15523 -0.928083 -1.7241
5.13523 -0.908083 -1.7161
5.14022 -0.892083 -1.7171
5.16022 -0.887083 -1.7241
5.16323 -0.871083 -1.7241
5.15123 -0.852083 -1.7181
5.14622 -0.835083 -1.7161
5.15023 -0.819083 -1.7161
5.14923 -0.802083 -1.7151
5.15223 -0.786083 -1.7151
5.15823 -0.779083 -1.7171
5.15023 -0.761083 -1.7131
5.16122 -0.746083 -1.7161
5.16622 -0.730083 -1.7171
5.15523 -0.712083 -1.7121
5.16122 -0.696083 -1.7141
5.16523 -0.680083 -1.7141
5.16622 -0.672083 -1.7141
5.16022 -0.655083 -1.7121
5.17623 -0.640083 -1.7161
5.16323 -0.622083 -1.7111
5.17422 -0.607083 -1.7141
5.17023 -0.590083 -1.7121
5.17823 -0.575083 -1.7141
5.18423 -0.567083 -1.7161
5.17322 -0.550083 -1.7121
5.18622 -0.534083 -1.7161
5.17023 -0.517083 -1.7101
5.18022 -0.501083 -1.7121
5.18722 -0.485083 -1.7141
5.19023 -0.444083 -1.7141
5.18423 -0.428083 -1.7121
5.19322 -0.412083 -1.7141
5.20022 -0.396083 -1.7161
5.19422 -0.379083 -1.7141
5.20022 -0.363083 -1.7161
5.19922 -0.355083 -1.7151
5.19623 -0.338083 -1.7141
5.20123 -0.322083 -1.7151
5.19922 -0.306083 -1.7141
5.19922 -0.289083 -1.7141
5.20423 -0.273083 -1.7151
5.21623 -0.257083 -1.7191
5.21322 -0.249083 -1.7181
5.20823 -0.232083 -1.7161
5.21123 -0.216083 -1.7161
5.22123 -0.200083 -1.7201
5.22323 -0.184083 -1.7201
5.21222 -0.167083 -1.7161
5.20923 -0.150083 -1.7151
5.22123 -0.143083 -1.7191
5.21423 -0.126083 -1.7161
5.22022 -0.110083 -1.7181
5.22423 -0.0930833 -1.7201
5.21823 -0.0770833 -1.7181
5.22823 -0.0610833 -1.7211
5.22622 -0.0440833 -1.7201
5.23023 -0.0280833 -1.7221
5.23023 -0.0190833 -1.7221
5.23623 -0.00308329 -1.7241
5.12423 0.0109167 -1.7271
5.11823 0.0269167 -1.7251
5.13723 0.0349167 -1.7311
5.13123 0.0519167 -1.7291
5.13523 0.0679167 -1.7311
5.13422 0.115917 -1.7311
5.11123 0.139917 -1.7231
5.12622 0.204917 -1.7291
5.11522 0.235917 -1.7251
5.12622 0.244917 -1.7291
5.10822 0.259917 -1.7231
5.12223 0.276917 -1.7291
5.10523 0.291917 -1.7231
5.13422 0.309917 -1.7331
5.11422 0.324917 -1.7271
5.11823 0.340917 -1.7291
5.11422 0.348917 -1.7271
5.11723 0.365917 -1.7291
5.11322 0.397917 -1.7281
5.11923 0.413917 -1.7311
5.09723 0.428917 -1.7231
5.12223 0.446917 -1.7331
5.10022 0.452917 -1.7251
5.11823 0.470917 -1.7321
5.11223 0.485917 -1.7311
5.10523 0.501917 -1.7291
5.10423 0.517917 -1.7291
5.08722 0.532917 -1.7231
5.10423 0.549917 -1.7301
5.09923 0.557917 -1.7291
5.08523 0.572917 -1.7241
5.10022 0.590917 -1.7301
5.07923 0.603917 -1.7231
5.09823 0.622917 -1.7311
5.09723 0.638917 -1.7311
5.09223 0.654917 -1.7301
5.08523 0.661917 -1.7281
5.08722 0.677917 -1.7291
5.06822 0.691917 -1.7231
5.07923 0.709917 -1.7281
5.07123 0.724917 -1.7261
5.07623 0.741917 -1.7291
5.06822 0.756917 -1.7271
5.07823 0.766917 -1.7311
5.06822 0.780917 -1.7281
5.06922 0.813917 -1.7301
5.06523 0.845917 -1.7311
5.07623 0.863917 -1.7351
5.06722 0.903917 -1.7351
3.58523 3.70392 -1.7371
3.56923 3.71092 -1.7351
3.55523 3.71892 -1.7341
3.53523 3.72192 -1.7301
3.51023 3.73092 -1.7261
3.51523 3.75992 -1.7351
3.49822 3.76492 -1.7321
3.48123 3.77092 -1.7291
3.47822 3.79092 -1.7341
3.45723 3.79192 -1.7291
3.44922 3.79492 -1.7281
3.44623 3.81592 -1.7331
3.42922 3.82092 -1.7301
3.40723 3.81992 -1.7251
3.41023 3.84792 -1.7331
3.38023 3.83892 -1.7231
3.38423 3.86792 -1.7321
3.35123 3.85392 -1.7201
3.35223 3.86792 -1.7251
3.32623 3.86292 -1.7171
3.32923 3.89092 -1.7251
3.31323 3.89692 -1.7231
3.29422 3.89792 -1.7191
3.29223 3.92192 -1.7251
3.28723 3.94092 -1.7291
3.26822 3.92992 -1.7221
3.25822 3.94292 -1.7231
3.25323 3.96192 -1.7271
3.21923 3.97192 -1.7231
3.20923 3.98492 -1.7241
3.19222 3.98892 -1.7211
3.20023 4.01192 -1.7291
3.17823 4.00992 -1.7241
3.17222 4.02892 -1.7281
3.14423 4.01992 -1.7191
3.14823 4.04992 -1.7291
3.12423 4.04492 -1.7221
3.12022 4.06692 -1.7271
3.10022 4.05392 -1.7191
3.10223 4.08292 -1.7281
3.07823 4.07792 -1.7211
3.08123 4.10892 -1.7311
3.05323 4.09892 -1.7221
3.05123 4.12192 -1.7281
3.02923 4.11892 -1.7231
3.02323 4.13992 -1.7271
3.01122 4.13692 -1.7241
2.99522 4.14192 -1.7221
2.99323 4.16592 -1.7291
2.96723 4.15692 -1.7201
2.97222 4.19292 -1.7321
2.94423 4.17992 -1.7231
2.93523 4.19592 -1.7251
2.92723 4.19892 -1.7251
2.91323 4.20592 -1.7241
2.89922 4.21392 -1.7231
2.88023 4.21492 -1.7201
2.88023 4.24292 -1.7281
2.85623 4.23692 -1.7211
2.85823 4.26892 -1.7311
2.83423 4.24692 -1.7201
2.82422 4.26192 -1.7231
2.81523 4.27692 -1.7251
2.79323 4.27292 -1.7201
2.78422 4.28792 -1.7231
2.77323 4.29992 -1.7241
2.76023 4.31092 -1.7251
2.75223 4.31292 -1.7241
2.73423 4.31392 -1.7201
2.72522 4.32992 -1.7241
2.70023 4.31992 -1.7161
2.69222 4.33792 -1.7201
2.68523 4.35792 -1.7251
2.66223 4.34992 -1.7181
2.65823 4.37392 -1.7251
2.64823 4.37392 -1.7231
2.62523 4.36592 -1.7161
2.62523 4.39792 -1.7261
2.59923 4.38592 -1.7171
2.59123 4.40292 -1.7211
2.58423 4.42292 -1.7261
2.56422 4.42092 -1.7221
2.55722 4.42492 -1.7221
2.54122 4.42792 -1.7201
2.53623 4.45292 -1.7271
2.51323 4.44392 -1.7201
2.51523 4.48192 -1.7321
2.48323 4.45692 -1.7181
2.48623 4.49592 -1.7311
2.46423 4.47192 -1.7201
2.45823 4.49392 -1.7261
2.43423 4.48392 -1.7181
2.43023 4.50992 -1.7261
2.41023 4.50692 -1.7221
2.39023 4.50292 -1.7171
2.36923 4.51592 -1.7181
2.36623 4.54492 -1.7271
2.35322 4.55392 -1.7271
2.32923 4.54292 -1.7201
2.32123 4.56192 -1.7251
2.30722 4.56892 -1.7251
2.27023 4.56892 -1.7181
2.27923 4.60392 -1.7311
2.24923 4.58092 -1.7191
2.23723 4.59092 -1.7201
2.23323 4.61992 -1.7291
2.20623 4.60192 -1.7191
2.19323 4.61192 -1.7201
2.19123 4.64492 -1.7311
2.17323 4.62592 -1.7221
2.16622 4.64792 -1.7281
2.14723 4.64592 -1.7251
2.13123 4.64992 -1.7231
2.11923 4.66092 -1.7251
2.10322 4.66492 -1.7241
2.08523 4.66392 -1.7211
2.07823 4.66792 -1.7211
2.06422 4.67792 -1.7231
2.05023 4.68392 -1.7231
2.03623 4.69192 -1.7231
2.02023 4.69692 -1.7231
2.00523 4.70092 -1.7221
1.99123 4.70892 -1.7231
1.98222 4.70892 -1.7211
1.96522 4.71192 -1.7201
1.95322 4.72292 -1.7221
1.94023 4.73492 -1.7241
1.92522 4.73892 -1.7231
1.90622 4.73592 -1.7201
1.89822 4.75792 -1.7261
1.87822 4.75192 -1.7211
1.86522 4.74192 -1.7161
1.85522 4.75992 -1.7211
1.83122 4.74192 -1.7121
1.82322 4.76492 -1.7181
1.80722 4.76892 -1.7181
1.78922 4.76592 -1.7141
1.78422 4.79792 -1.7251
1.77322 4.79192 -1.7211
1.75622 4.79392 -1.7201
1.73722 4.78892 -1.7161
1.72522 4.80092 -1.7181
1.70222 4.78492 -1.7101
1.69622 4.81492 -1.7201
1.67722 4.80792 -1.7151
1.67322 4.82292 -1.7201
1.64922 4.80392 -1.7101
1.64722 4.84392 -1.7241
1.62122 4.81892 -1.7121
1.60822 4.83192 -1.7151
1.59722 4.84892 -1.7201
1.57722 4.83792 -1.7141
1.57522 4.85692 -1.7201
1.55322 4.84392 -1.7131
1.53922 4.84992 -1.7141
1.52422 4.85692 -1.7141
1.50922 4.86192 -1.7141
1.49322 4.86392 -1.7141
1.47822 4.87092 -1.7141
1.46722 4.88792 -1.7191
1.45722 4.88492 -1.7171
1.43722 4.87292 -1.7111
1.42622 4.89092 -1.7161
1.41022 4.89292 -1.7151
1.39222 4.88892 -1.7121
1.38022 4.90592 -1.7161
1.36623 4.91492 -1.7181
1.35122 4.88992 -1.7081
1.33722 4.89992 -1.7101
1.31922 4.89492 -1.7071
1.31022 4.92092 -1.7151
1.29223 4.91792 -1.7121
1.27622 4.91992 -1.7121
1.26522 4.93992 -1.7181
1.25322 4.92592 -1.7121
1.24222 4.94792 -1.7181
1.22022 4.92592 -1.7091
1.20922 4.94792 -1.7161
1.19122 4.94092 -1.7121
1.17722 4.94992 -1.7141
1.16022 4.95092 -1.7121
1.15222 4.94992 -1.7121
1.14022 4.96692 -1.7161
1.12522 4.97392 -1.7181
1.10522 4.96092 -1.7121
1.09422 4.98292 -1.7181
1.07422 4.96792 -1.7121
1.06122 4.98392 -1.7161
1.04322 4.97492 -1.7121
1.03722 4.98392 -1.7141
1.02322 4.99592 -1.7181
1.00522 4.98792 -1.7141
0.992225 5.00192 -1.7181
0.975225 4.99992 -1.7161
0.962225 5.01992 -1.7221
0.935225 5.00592 -1.7151
0.922225 5.02292 -1.7201
0.904225 5.01292 -1.7161
0.871225 5.01092 -1.7131
0.858225 5.02692 -1.7181
0.840225 5.01992 -1.7141
0.834225 5.02892 -1.7171
0.801225 5.02892 -1.7151
0.786225 5.03492 -1.7161
0.769225 5.02992 -1.7141
0.755225 5.04692 -1.7191
0.738225 5.03692 -1.7141
0.731225 5.04692 -1.7181
0.713225 5.03292 -1.7121
0.682225 5.04592 -1.7151
0.648225 5.02792 -1.7071
0.634225 5.04892 -1.7141
4.68923 -1.92108 -1.7061
4.97223 -1.19008 -1.7231
4.99923 -1.08908 -1.7241
4.99522 -1.03908 -1.7181
5.01123 -1.01808 -1.7231
5.00922 -0.985083 -1.7201
5.00122 -0.951083 -1.7141
5.02122 -0.922083 -1.7201
5.02122 -0.914083 -1.7191
5.02122 -0.881083 -1.7171
5.04222 -0.869083 -1.7241
5.03622 -0.851083 -1.7201
5.04023 -0.836083 -1.7211
5.03223 -0.818083 -1.7171
5.03023 -0.793083 -1.7151
5.06023 -0.782083 -1.7251
5.05923 -0.765083 -1.7241
5.03023 -0.729083 -1.7121
5.06222 -0.717083 -1.7231
5.05023 -0.707083 -1.7181
5.06623 -0.693083 -1.7231
5.04722 -0.675083 -1.7151
5.05923 -0.660083 -1.7181
5.07023 -0.629083 -1.7211
5.06323 -0.612083 -1.7181
5.09023 -0.607083 -1.7271
5.07723 -0.590083 -1.7221
5.06623 -0.572083 -1.7171
5.05223 -0.538083 -1.7111
5.08623 -0.526083 -1.7231
5.08623 -0.510083 -1.7221
5.09422 -0.502083 -1.7251
5.07923 -0.485083 -1.7181
5.10323 -0.471083 -1.7271
5.07023 -0.452083 -1.7141
5.08923 -0.437083 -1.7201
5.07522 -0.420083 -1.7151
5.10623 -0.407083 -1.7261
5.09223 -0.397083 -1.7201
5.08722 -0.365083 -1.7181
5.09522 -0.349083 -1.7201
5.09422 -0.333083 -1.7201
5.09923 -0.318083 -1.7211
5.09923 -0.285083 -1.7201
5.11522 -0.278083 -1.7261
5.09323 -0.261083 -1.7181
5.08923 -0.229083 -1.7161
5.11823 -0.214083 -1.7261
5.10523 -0.197083 -1.7211
5.11522 -0.182083 -1.7251
5.13123 -0.174083 -1.7301
5.11223 -0.157083 -1.7231
5.12323 -0.126083 -1.7271
5.11623 -0.0930833 -1.7241
5.13322 -0.0770833 -1.7301
5.12223 -0.0690833 -1.7261
5.13023 -0.0530833 -1.7291
5.13023 -0.0210833 -1.7291
5.12822 -0.00508329 -1.7281
4.96023 0.0139167 -1.7161
4.95622 0.0369167 -1.7141
4.94723 0.0529167 -1.7111
4.95622 0.0679167 -1.7141
4.94823 0.0989167 -1.7121
4.94823 0.114917 -1.7121
4.95123 0.137917 -1.7131
4.96322 0.153917 -1.7181
4.94723 0.184917 -1.7121
4.95522 0.231917 -1.7161
4.94523 0.332917 -1.7141
4.94422 0.402917 -1.7161
4.93523 0.417917 -1.7131
4.94723 0.434917 -1.7181
4.93722 0.456917 -1.7151
4.95123 0.489917 -1.7211
4.92322 0.556917 -1.7141
4.92023 0.619917 -1.7151
4.89122 0.803917 -1.7141
4.90322 0.821917 -1.7201
4.92322 0.841917 -1.7281
4.88623 0.842917 -1.7151
4.89122 0.859917 -1.7181
4.88623 0.874917 -1.7171
4.91722 0.895917 -1.7291
4.88623 0.906917 -1.7191
4.88923 0.922917 -1.7211
4.90123 0.940917 -1.7271
4.90523 0.949917 -1.7291
4.87022 0.958917 -1.7171
4.89323 0.979917 -1.7271
4.89622 0.995917 -1.7291
4.90223 1.01392 -1.7321
4.88923 1.02692 -1.7291
4.89022 1.04292 -1.7301
4.89223 1.05192 -1.7321
4.88723 1.06692 -1.7311
4.88123 1.08192 -1.7301
4.88723 1.09892 -1.7341
4.86223 1.10892 -1.7251
4.85423 1.12392 -1.7241
4.86522 1.14192 -1.7291
4.85323 1.14692 -1.7251
4.85323 1.16292 -1.7271
4.85523 1.17992 -1.7291
4.85323 1.19592 -1.7291
4.83423 1.20692 -1.7241
4.85423 1.22892 -1.7331
4.83923 1.24092 -1.7291
4.83722 1.25692 -1.7291
4.83323 1.26392 -1.7291
4.83323 1.29592 -1.7321
4.83423 1.31292 -1.7341
4.83523 1.32892 -1.7361
4.82223 1.34192 -1.7321
4.82522 1.35892 -1.7351
4.81122 1.37992 -1.7321
4.79922 1.40892 -1.7311
4.80723 1.42792 -1.7361
4.79423 1.43992 -1.7321
4.79623 1.45792 -1.7351
4.79323 1.48092 -1.7361
4.76622 1.50592 -1.7291
4.76423 1.55492 -1.7341
4.76323 1.57892 -1.7371
3.40723 3.67192 -1.7341
3.38723 3.67292 -1.7291
3.37923 3.68792 -1.7311
3.36823 3.68692 -1.7281
3.31323 3.69692 -1.7171
3.30023 3.72892 -1.7231
3.24223 3.76892 -1.7201
3.21323 3.78392 -1.7171
3.20522 3.79792 -1.7191
3.18922 3.80392 -1.7171
2.93023 4.00292 -1.7161
0.933225 4.83692 -1.7031
0.901225 4.83792 -1.7011
0.773225 4.86692 -1.7041
0.741225 4.86492 -1.7011
0.619225 4.88692 -1.7031
0.604225 4.88592 -1.7021
0.535225 4.89692 -1.7031
0.518225 4.88592 -1.6981
4.53323 -1.90508 -1.7001
4.57023 -1.90308 -1.7121
4.65023 -1.71708 -1.7141
4.68223 -1.65408 -1.7181
4.68423 -1.63808 -1.7161
4.68722 -1.62308 -1.7161
4.69222 -1.60808 -1.7161
4.68823 -1.59108 -1.7121
4.70522 -1.57108 -1.7161
4.70423 -1.53808 -1.7121
4.70923 -1.52408 -1.7121
4.71322 -1.50908 -1.7121
4.72323 -1.47908 -1.7121
4.73623 -1.47508 -1.7161
4.73222 -1.45708 -1.7121
4.72522 -1.43908 -1.7081
4.75523 -1.43208 -1.7181
4.74022 -1.41108 -1.7101
4.74823 -1.39708 -1.7121
4.76323 -1.38608 -1.7161
4.74923 -1.35708 -1.7081
4.76823 -1.34708 -1.7141
4.75222 -1.32608 -1.7061
4.76723 -1.31408 -1.7101
4.77023 -1.29908 -1.7091
4.77623 -1.28408 -1.7101
4.78123 -1.27808 -1.7121
4.78522 -1.26308 -1.7121
4.79623 -1.24908 -1.7141
4.79323 -1.23208 -1.7121
4.79722 -1.21708 -1.7121
4.80823 -1.20408 -1.7141
4.78823 -1.18308 -1.7051
4.81222 -1.18108 -1.7141
4.79922 -1.16208 -1.7071
4.81023 -1.14908 -1.7101
4.81523 -1.13408 -1.7111
4.80823 -1.11608 -1.7071
4.83222 -1.10608 -1.7141
4.81122 -1.08508 -1.7051
4.82923 -1.08108 -1.7121
4.82223 -1.06408 -1.7071
4.84023 -1.05208 -1.7131
4.84923 -1.03808 -1.7151
4.84823 -1.00608 -1.7121
4.84023 -0.988083 -1.7081
4.87323 -0.987083 -1.7201
4.85423 -0.967083 -1.7121
4.85323 -0.920083 -1.7081
4.85223 -0.904083 -1.7071
4.85722 -0.889083 -1.7071
4.86023 -0.882083 -1.7081
4.87223 -0.868083 -1.7121
4.85822 -0.850083 -1.7051
4.86723 -0.835083 -1.7071
4.87523 -0.805083 -1.7091
4.88123 -0.783083 -1.7091
4.87923 -0.735083 -1.7061
4.88723 -0.721083 -1.7081
4.91423 -0.677083 -1.7161
4.89523 -0.651083 -1.7071
4.90823 -0.637083 -1.7121
4.90123 -0.605083 -1.7071
4.90422 -0.590083 -1.7081
4.91122 -0.567083 -1.7091
4.91223 -0.552083 -1.7091
4.90723 -0.536083 -1.7071
4.91622 -0.505083 -1.7091
4.92123 -0.467083 -1.7091
4.92523 -0.421083 -1.7091
4.92322 -0.405083 -1.7081
4.94222 -0.375083 -1.7141
4.95722 -0.290083 -1.7181
4.93423 -0.273083 -1.7091
4.95223 -0.251083 -1.7151
4.93923 -0.219083 -1.7091
4.93722 -0.204083 -1.7091
4.95722 -0.189083 -1.7161
4.95722 -0.173083 -1.7161
4.94922 -0.149083 -1.7121
4.97223 -0.103083 -1.7211
4.95823 -0.0720833 -1.7151
4.95423 -0.0480833 -1.7141
4.94523 -0.0330833 -1.7101
4.95123 -0.0170833 -1.7121
4.95522 -0.00208329 -1.7141
4.80823 0.0119167 -1.7141
4.81423 0.0269167 -1.7161
4.81023 0.0429167 -1.7151
4.81023 0.0579167 -1.7151
4.81323 0.0729167 -1.7161
4.80723 0.0879167 -1.7141
4.81523 0.0949167 -1.7171
4.81323 0.110917 -1.7161
4.81222 0.125917 -1.7161
4.80823 0.140917 -1.7151
4.80623 0.155917 -1.7141
4.81122 0.170917 -1.7161
4.80323 0.185917 -1.7131
4.81722 0.193917 -1.7191
4.81722 0.208917 -1.7191
4.80323 0.223917 -1.7141
4.81323 0.238917 -1.7181
4.81523 0.253917 -1.7191
4.79922 0.268917 -1.7131
4.80923 0.284917 -1.7181
4.80522 0.291917 -1.7161
4.80223 0.306917 -1.7151
4.80522 0.321917 -1.7171
4.79623 0.336917 -1.7141
4.79323 0.351917 -1.7131
4.79423 0.366917 -1.7141
4.79922 0.381917 -1.7161
4.80023 0.389917 -1.7171
4.79722 0.404917 -1.7161
4.79922 0.419917 -1.7181
4.78923 0.434917 -1.7141
4.78923 0.449917 -1.7151
4.79722 0.465917 -1.7181
4.79023 0.479917 -1.7161
4.81122 0.489917 -1.7251
4.79523 0.503917 -1.7191
4.79023 0.517917 -1.7181
4.81023 0.535917 -1.7261
4.78422 0.547917 -1.7171
4.79222 0.563917 -1.7201
4.77322 0.576917 -1.7141
4.77822 0.585917 -1.7161
4.78023 0.600917 -1.7181
4.78023 0.615917 -1.7181
4.79122 0.632917 -1.7231
4.76723 0.644917 -1.7151
4.78323 0.661917 -1.7221
4.76823 0.675917 -1.7171
4.76023 0.681917 -1.7141
4.78023 0.699917 -1.7231
4.76622 0.713917 -1.7181
4.77523 0.729917 -1.7231
4.76923 0.744917 -1.7211
4.75723 0.757917 -1.7181
4.75922 0.773917 -1.7191
4.76923 0.782917 -1.7231
4.77523 0.799917 -1.7271
4.75623 0.811917 -1.7201
4.77423 0.829917 -1.7281
4.76223 0.843917 -1.7251
4.77023 0.859917 -1.7291
4.76223 0.873917 -1.7271
4.77023 0.883917 -1.7301
4.75322 0.895917 -1.7251
4.75423 0.926917 -1.7281
4.74823 0.940917 -1.7261
4.75922 0.958917 -1.7321
4.75822 0.973917 -1.7321
4.74823 1.01092 -1.7321
4.73723 1.05592 -1.7311
4.73423 1.07092 -1.7311
4.73222 1.09392 -1.7321
3.10823 3.72792 -1.7311
3.09223 3.73292 -1.7291
3.08323 3.74592 -1.7301
3.06623 3.74992 -1.7281
3.06023 3.75392 -1.7281
3.05123 3.76692 -1.7291
3.03223 3.76792 -1.7251
3.02023 3.77692 -1.7251
3.01723 3.79692 -1.7301
2.99522 3.79492 -1.7241
2.98423 3.80592 -1.7251
2.98723 3.81992 -1.7301
2.96723 3.81992 -1.7251
2.95222 3.82592 -1.7231
2.93922 3.83392 -1.7231
2.91823 3.83092 -1.7171
2.91123 3.84792 -1.7201
2.89922 3.85692 -1.7201
2.88423 3.84892 -1.7151
2.87423 3.86092 -1.7161
2.87022 3.88092 -1.7211
2.83722 3.88692 -1.7151
2.82823 3.89992 -1.7181
2.81123 3.91492 -1.7181
2.79823 3.92392 -1.7181
2.78223 3.92692 -1.7151
2.77523 3.94292 -1.7191
2.76323 3.95292 -1.7201
2.74423 3.95292 -1.7151
2.73323 3.96292 -1.7161
2.72323 3.96092 -1.7131
2.71023 3.96892 -1.7131
2.70123 3.98292 -1.7151
2.69123 3.99592 -1.7181
2.65223 4.01792 -1.7161
2.63523 4.01992 -1.7131
2.61823 4.03492 -1.7151
2.60523 4.04292 -1.7151
2.57923 4.05792 -1.7141
2.56923 4.07092 -1.7161
2.55923 4.08392 -1.7181
2.55123 4.08492 -1.7171
2.53323 4.08492 -1.7131
2.52122 4.09392 -1.7141
2.51323 4.10992 -1.7181
2.50023 4.11792 -1.7181
2.48423 4.12092 -1.7151
2.47822 4.13992 -1.7201
2.46423 4.13092 -1.7151
2.45023 4.13692 -1.7141
2.43922 4.14792 -1.7151
2.42523 4.15392 -1.7151
2.41023 4.15792 -1.7131
2.40323 4.17592 -1.7181
2.38123 4.16892 -1.7111
2.38523 4.18992 -1.7191
2.36223 4.18092 -1.7121
2.34823 4.18692 -1.7111
2.33623 4.19592 -1.7121
2.32223 4.20192 -1.7111
2.30923 4.21092 -1.7121
2.29422 4.21492 -1.7101
2.28923 4.21992 -1.7111
2.27422 4.22392 -1.7101
2.26323 4.23592 -1.7121
2.25423 4.25092 -1.7151
2.24123 4.25792 -1.7151
2.22323 4.25692 -1.7121
2.21723 4.27692 -1.7181
2.20323 4.26792 -1.7121
2.18723 4.26892 -1.7101
2.18123 4.29092 -1.7161
2.16823 4.29792 -1.7161
2.14723 4.28992 -1.7101
2.13523 4.29992 -1.7111
2.12622 4.31692 -1.7151
2.11423 4.32692 -1.7171
2.10723 4.32792 -1.7161
2.09722 4.34292 -1.7201
2.07923 4.33992 -1.7151
2.06023 4.33592 -1.7111
2.04823 4.34592 -1.7131
2.03422 4.35192 -1.7131
2.02523 4.36692 -1.7161
2.01623 4.36492 -1.7141
2.00023 4.36792 -1.7131
1.98722 4.37592 -1.7131
1.97722 4.38892 -1.7161
1.96222 4.39392 -1.7151
1.94622 4.39492 -1.7131
1.93422 4.40592 -1.7151
1.92722 4.40892 -1.7151
1.91322 4.41292 -1.7151
1.90022 4.42092 -1.7151
1.88722 4.42992 -1.7171
1.87422 4.43792 -1.7181
1.85622 4.43392 -1.7131
1.84722 4.45092 -1.7181
1.83522 4.44192 -1.7131
1.82222 4.44992 -1.7141
1.80822 4.45492 -1.7141
1.79422 4.46292 -1.7151
1.77822 4.46192 -1.7121
1.76522 4.47092 -1.7131
1.74922 4.47092 -1.7111
1.73722 4.48292 -1.7141
1.72822 4.48092 -1.7121
1.71522 4.48792 -1.7131
1.69922 4.48792 -1.7101
1.68522 4.49292 -1.7101
1.67322 4.50592 -1.7131
1.66322 4.52092 -1.7181
1.64522 4.51592 -1.7131
1.63822 4.51992 -1.7141
1.62622 4.52892 -1.7151
1.61322 4.53892 -1.7181
1.60122 4.54992 -1.7201
1.58522 4.55092 -1.7181
1.57122 4.55592 -1.7181
1.55622 4.55892 -1.7181
1.54922 4.56392 -1.7181
1.53022 4.55392 -1.7131
1.51722 4.56092 -1.7131
1.50622 4.57592 -1.7181
1.48822 4.56992 -1.7131
1.47122 4.56592 -1.7101
1.45922 4.57892 -1.7131
1.45322 4.58492 -1.7151
1.44322 4.60192 -1.7201
1.42422 4.59392 -1.7151
1.41422 4.61092 -1.7201
1.39522 4.60092 -1.7141
1.38022 4.60592 -1.7141
1.36422 4.60492 -1.7121
1.35222 4.61592 -1.7151
1.34822 4.63092 -1.7201
1.33222 4.62992 -1.7181
1.31922 4.63892 -1.7201
1.30422 4.64192 -1.7191
1.29022 4.64692 -1.7201
1.27422 4.64792 -1.7181
1.25922 4.64792 -1.7171
1.25122 4.64692 -1.7151
1.23322 4.63992 -1.7111
1.21823 4.64392 -1.7111
1.20622 4.65592 -1.7151
1.18122 4.67792 -1.7201
1.16522 4.67792 -1.7191
1.15922 4.68392 -1.7201
1.14322 4.68192 -1.7181
1.12722 4.68392 -1.7181
1.09822 4.68892 -1.7171
1.08522 4.70092 -1.7201
1.06222 4.70492 -1.7201
1.04622 4.70092 -1.7171
1.01622 4.70392 -1.7151
1.00022 4.70492 -1.7151
0.971225 4.71092 -1.7151
0.955225 4.70992 -1.7131
0.934225 4.71992 -1.7151
0.919225 4.72092 -1.7151
0.907225 4.73892 -1.7201
0.889225 4.72292 -1.7131
0.873225 4.72392 -1.7131
0.861225 4.74192 -1.7181
0.852225 4.73592 -1.7151
0.838225 4.74192 -1.7171
0.805225 4.73092 -1.7101
0.793225 4.74392 -1.7151
0.779225 4.75392 -1.7181
0.763225 4.75092 -1.7151
0.757225 4.75992 -1.7181
0.726225 4.76092 -1.7171
0.711225 4.75892 -1.7151
0.681225 4.76692 -1.7171
0.667225 4.77292 -1.7181
0.641225 4.75392 -1.7101
0.626225 4.75592 -1.7101
0.599225 4.77792 -1.7171
0.583225 4.77292 -1.7141
0.544225 4.76792 -1.7101
4.40223 -1.89208 -1.7081
4.58323 -1.46808 -1.7151
4.59123 -1.45508 -1.7171
4.60022 -1.42608 -1.7171
4.60523 -1.39608 -1.7151
4.60623 -1.38008 -1.7141
4.61223 -1.37408 -1.7151
4.61422 -1.35908 -1.7151
4.62423 -1.34608 -1.7171
4.63123 -1.33308 -1.7181
4.61823 -1.31308 -1.7111
4.63123 -1.30108 -1.7151
4.63723 -1.28708 -1.7151
4.63023 -1.27708 -1.7121
4.63923 -1.26408 -1.7141
4.63823 -1.24808 -1.7121
4.64923 -1.23508 -1.7151
4.64523 -1.21908 -1.7121
4.66022 -1.20708 -1.7161
4.65723 -1.19108 -1.7131
4.66223 -1.18408 -1.7151
4.65823 -1.16808 -1.7121
4.66823 -1.15508 -1.7141
4.67123 -1.14008 -1.7141
4.66622 -1.12308 -1.7101
4.67123 -1.10908 -1.7111
4.68523 -1.09708 -1.7151
4.67823 -1.08708 -1.7121
4.67422 -1.07108 -1.7091
4.68523 -1.05808 -1.7121
4.67922 -1.04108 -1.7081
4.69922 -1.03008 -1.7151
4.69823 -1.01408 -1.7131
4.68823 -0.997083 -1.7081
4.70323 -0.992083 -1.7131
4.71723 -0.980083 -1.7181
4.69823 -0.960083 -1.7091
4.70823 -0.947083 -1.7121
4.72022 -0.934083 -1.7151
4.70722 -0.916083 -1.7091
4.70823 -0.901083 -1.7081
4.72923 -0.890083 -1.7151
4.71423 -0.879083 -1.7091
4.72022 -0.865083 -1.7101
4.73423 -0.852083 -1.7151
4.71823 -0.834083 -1.7081
4.73423 -0.821083 -1.7131
4.73822 -0.807083 -1.7131
4.73123 -0.790083 -1.7101
4.73623 -0.783083 -1.7111
4.75222 -0.771083 -1.7161
4.73623 -0.753083 -1.7091
4.74723 -0.739083 -1.7131
4.75723 -0.726083 -1.7151
4.74423 -0.708083 -1.7101
4.73822 -0.700083 -1.7071
4.75523 -0.687083 -1.7131
4.75322 -0.672083 -1.7111
4.75023 -0.656083 -1.7091
4.75623 -0.642083 -1.7101
4.76522 -0.628083 -1.7131
4.75423 -0.611083 -1.7081
4.76223 -0.597083 -1.7101
4.76123 -0.589083 -1.7101
4.75922 -0.574083 -1.7081
4.77222 -0.560083 -1.7131
4.76023 -0.543083 -1.7081
4.76423 -0.529083 -1.7081
4.77523 -0.515083 -1.7121
4.76522 -0.499083 -1.7081
4.78723 -0.493083 -1.7151
4.79023 -0.478083 -1.7161
4.76723 -0.461083 -1.7071
4.77623 -0.447083 -1.7101
4.79122 -0.433083 -1.7151
4.77523 -0.416083 -1.7081
4.77623 -0.401083 -1.7081
4.78622 -0.395083 -1.7121
4.79722 -0.380083 -1.7151
4.78923 -0.365083 -1.7121
4.78223 -0.349083 -1.7091
4.79523 -0.335083 -1.7131
4.79623 -0.320083 -1.7131
4.80023 -0.305083 -1.7151
4.79722 -0.297083 -1.7131
4.79623 -0.282083 -1.7131
4.79523 -0.267083 -1.7121
4.80023 -0.252083 -1.7131
4.80023 -0.237083 -1.7131
4.80123 -0.222083 -1.7131
4.81523 -0.207083 -1.7181
4.81722 -0.200083 -1.7191
4.80723 -0.184083 -1.7151
4.81523 -0.169083 -1.7181
4.80623 -0.154083 -1.7141
4.80823 -0.139083 -1.7151
4.80323 -0.124083 -1.7131
4.81623 -0.109083 -1.7181
4.80223 -0.101083 -1.7121
4.80923 -0.0860833 -1.7151
4.81523 -0.0710833 -1.7171
4.80823 -0.0560833 -1.7141
4.80823 -0.0410833 -1.7141
4.81023 -0.0250833 -1.7151
4.80623 -0.0100833 -1.7131
4.81423 -0.00308329 -1.7161
4.68523 0.00191671 -1.7171
4.67723 0.0159167 -1.7141
4.68722 0.0309167 -1.7181
4.67723 0.0459167 -1.7141
4.68323 0.0529167 -1.7171
4.68223 0.0679167 -1.7171
4.66923 0.0819167 -1.7111
4.68223 0.0969167 -1.7171
4.67422 0.111917 -1.7141
4.67922 0.126917 -1.7161
4.67523 0.140917 -1.7141
4.69222 0.148917 -1.7211
4.68923 0.163917 -1.7201
4.68923 0.177917 -1.7201
4.69623 0.193917 -1.7231
4.68223 0.207917 -1.7181
4.67623 0.221917 -1.7161
4.68622 0.236917 -1.7201
4.67823 0.243917 -1.7171
4.69422 0.259917 -1.7241
4.67322 0.272917 -1.7161
4.67623 0.287917 -1.7171
4.68423 0.303917 -1.7211
4.67823 0.317917 -1.7191
4.66722 0.331917 -1.7151
4.67222 0.339917 -1.7171
4.66423 0.353917 -1.7141
4.67023 0.368917 -1.7171
4.67322 0.383917 -1.7191
4.65723 0.396917 -1.7131
4.66323 0.412917 -1.7161
4.66923 0.427917 -1.7191
4.66423 0.434917 -1.7171
4.67422 0.450917 -1.7221
4.67123 0.464917 -1.7211
4.65623 0.478917 -1.7161
4.66223 0.493917 -1.7191
4.67922 0.510917 -1.7261
4.65523 0.522917 -1.7171
4.65823 0.530917 -1.7191
4.65823 0.545917 -1.7191
4.65723 0.574917 -1.7201
4.63123 0.586917 -1.7111
4.64622 0.602917 -1.7171
4.66022 0.619917 -1.7241
4.65123 0.633917 -1.7211
4.64323 0.639917 -1.7181
4.63723 0.653917 -1.7171
4.64223 0.669917 -1.7191
4.64223 0.684917 -1.7201
4.64022 0.698917 -1.7201
4.64122 0.713917 -1.7221
4.63223 0.727917 -1.7191
4.63023 0.734917 -1.7191
4.64722 0.752917 -1.7261
4.62822 0.763917 -1.7191
4.61823 0.777917 -1.7171
4.63623 0.795917 -1.7251
4.63123 0.809917 -1.7241
4.61923 0.822917 -1.7201
4.62423 0.830917 -1.7221
4.62822 0.846917 -1.7251
4.61322 0.858917 -1.7201
4.62722 0.876917 -1.7271
4.63322 0.892917 -1.7301
4.61723 0.904917 -1.7251
2.85723 3.75892 -1.7321
2.84523 3.75492 -1.7271
2.83323 3.76392 -1.7271
2.81823 3.76792 -1.7251
2.80223 3.77092 -1.7221
2.78923 3.77792 -1.7221
2.77122 3.77892 -1.7181
2.76323 3.79292 -1.7201
2.76122 3.80292 -1.7231
2.74023 3.79992 -1.7171
2.73623 3.81892 -1.7221
2.72123 3.82292 -1.7201
2.61022 3.88192 -1.7141
2.60723 3.90392 -1.7211
2.59623 3.90192 -1.7181
2.58022 3.90392 -1.7151
2.57422 3.92092 -1.7191
2.55623 3.92092 -1.7161
2.54623 3.93192 -1.7171
2.53623 3.94392 -1.7191
2.51623 3.94092 -1.7141
2.52122 3.96192 -1.7221
2.49923 3.95392 -1.7141
2.49023 3.96792 -1.7171
2.47123 3.96492 -1.7121
2.47323 3.99592 -1.7231
2.45522 3.99492 -1.7191
2.44222 4.00192 -1.7191
2.44323 4.01892 -1.7251
2.42423 4.01492 -1.7191
2.41523 4.02892 -1.7221
2.40523 4.04192 -1.7251
2.38523 4.03592 -1.7191
2.36923 4.03692 -1.7161
2.35823 4.04792 -1.7171
2.34623 4.05692 -1.7181
2.34022 4.06092 -1.7181
2.32823 4.06992 -1.7191
2.31123 4.06892 -1.7151
2.30223 4.08392 -1.7191
2.28723 4.08692 -1.7171
2.26822 4.08192 -1.7111
2.26323 4.10392 -1.7181
2.25822 4.11092 -1.7191
2.24623 4.11992 -1.7201
2.21923 4.09992 -1.7091
2.21522 4.12392 -1.7161
2.19823 4.12292 -1.7121
2.19222 4.14292 -1.7181
2.17623 4.14492 -1.7161
2.17323 4.15492 -1.7191
2.15823 4.15792 -1.7171
2.14223 4.15792 -1.7141
2.12923 4.16692 -1.7151
2.11923 4.17792 -1.7171
2.10423 4.18092 -1.7161
2.08223 4.16992 -1.7081
2.08223 4.18592 -1.7141
2.06823 4.19092 -1.7131
2.06023 4.20892 -1.7181
2.03823 4.19592 -1.7091
2.03223 4.21692 -1.7161
2.01623 4.21892 -1.7141
2.00323 4.22492 -1.7141
1.98922 4.22892 -1.7131
1.98322 4.23592 -1.7141
1.97022 4.24192 -1.7141
1.95922 4.25292 -1.7171
1.94822 4.26492 -1.7191
1.93222 4.26392 -1.7161
1.91822 4.26992 -1.7161
1.90322 4.27092 -1.7141
1.89622 4.27392 -1.7141
1.88422 4.28292 -1.7151
1.87222 4.29192 -1.7171
1.85522 4.29092 -1.7141
1.84323 4.29892 -1.7141
1.82622 4.29792 -1.7111
1.81322 4.30492 -1.7121
1.81022 4.31692 -1.7161
1.79223 4.30992 -1.7111
1.78322 4.32792 -1.7161
1.76822 4.32992 -1.7141
1.75722 4.34092 -1.7171
1.74622 4.35292 -1.7191
1.72822 4.34792 -1.7151
1.72522 4.36192 -1.7191
1.71222 4.36892 -1.7201
1.69422 4.36392 -1.7161
1.68322 4.37392 -1.7181
1.66622 4.37192 -1.7151
1.66022 4.39892 -1.7241
1.64222 4.39192 -1.7191
1.63022 4.40192 -1.7211
1.61922 4.39192 -1.7161
1.60722 4.40392 -1.7191
1.59422 4.41092 -1.7191
1.56523 4.41592 -1.7171
1.55522 4.43292 -1.7221
1.53922 4.43292 -1.7201
1.52122 4.44892 -1.7241
1.48922 4.44392 -1.7181
1.47222 4.44092 -1.7151
1.45922 4.44792 -1.7161
1.44922 4.46492 -1.7211
1.44122 4.46492 -1.7201
1.42822 4.47192 -1.7211
1.41422 4.47792 -1.7221
1.38522 4.48092 -1.7191
1.37322 4.49492 -1.7231
1.35122 4.49692 -1.7221
1.33422 4.49092 -1.7171
1.32122 4.49992 -1.7191
1.30922 4.51192 -1.7221
1.29223 4.50492 -1.7181
1.26522 4.51692 -1.7191
1.25222 4.52592 -1.7221
1.24522 4.52992 -1.7221
1.22422 4.50792 -1.7121
1.21522 4.53192 -1.7201
1.15022 4.54492 -1.7191
1.13722 4.55192 -1.7201
1.10422 4.54292 -1.7141
1.09222 4.55392 -1.7171
1.06422 4.56392 -1.7181
1.05722 4.56592 -1.7181
1.04322 4.57292 -1.7191
1.02522 4.55992 -1.7131
1.01423 4.57592 -1.7181
1.00022 4.58192 -1.7191
0.984225 4.57792 -1.7171
0.968225 4.57392 -1.7141
0.962225 4.57892 -1.7151
0.949225 4.58992 -1.7181
0.932225 4.57992 -1.7131
0.904225 4.59292 -1.7161
0.890225 4.59592 -1.7161
0.874225 4.58692 -1.7111
0.862225 4.60492 -1.7171
0.856225 4.61192 -1.7191
0.825225 4.60792 -1.7161
0.811225 4.61392 -1.7171
0.781225 4.61292 -1.7151
0.766225 4.61192 -1.7141
0.760225 4.62092 -1.7171
0.744225 4.61592 -1.7141
0.731225 4.62692 -1.7171
0.717225 4.62992 -1.7171
0.497225 4.64492 -1.7121
4.22823 -1.87608 -1.6941
4.26323 -1.87508 -1.7061
4.47723 -1.36008 -1.7151
4.48723 -1.34808 -1.7171
4.48822 -1.31808 -1.7141
4.49723 -1.30508 -1.7171
4.49622 -1.28908 -1.7141
4.49622 -1.28208 -1.7141
4.50922 -1.27008 -1.7171
4.50423 -1.25308 -1.7141
4.50623 -1.23908 -1.7131
4.51622 -1.22608 -1.7151
4.50922 -1.20908 -1.7111
4.51622 -1.19608 -1.7121
4.52023 -1.18208 -1.7121
4.51823 -1.17408 -1.7111
4.53422 -1.16308 -1.7161
4.53123 -1.14708 -1.7131
4.53323 -1.13208 -1.7121
4.54122 -1.11908 -1.7141
4.55823 -1.10808 -1.7191
4.55923 -1.09308 -1.7191
4.55422 -1.06908 -1.7141
4.56623 -1.05708 -1.7181
4.55123 -1.03808 -1.7111
4.55623 -1.02408 -1.7111
4.56122 -1.01008 -1.7121
4.55923 -1.00308 -1.7111
4.54623 -0.985083 -1.7041
4.56922 -0.975083 -1.7121
4.58122 -0.962083 -1.7161
4.59023 -0.949083 -1.7181
4.57823 -0.932083 -1.7121
4.58122 -0.917083 -1.7121
4.59123 -0.904083 -1.7151
4.58722 -0.896083 -1.7131
4.59023 -0.881083 -1.7131
4.59623 -0.868083 -1.7141
4.60122 -0.854083 -1.7151
4.62022 -0.842083 -1.7221
4.57723 -0.820083 -1.7031
4.60323 -0.809083 -1.7131
4.57923 -0.798083 -1.7031
4.60323 -0.787083 -1.7111
4.59823 -0.771083 -1.7091
4.60822 -0.758083 -1.7111
4.63123 -0.747083 -1.7191
4.60323 -0.728083 -1.7081
4.61123 -0.714083 -1.7101
4.61623 -0.707083 -1.7111
4.61623 -0.693083 -1.7111
4.61723 -0.678083 -1.7101
4.62622 -0.664083 -1.7131
4.61923 -0.649083 -1.7091
4.63823 -0.636083 -1.7161
4.61023 -0.618083 -1.7041
4.62223 -0.612083 -1.7091
4.63123 -0.598083 -1.7111
4.64223 -0.585083 -1.7151
4.63123 -0.569083 -1.7101
4.63523 -0.554083 -1.7111
4.62523 -0.524083 -1.7061
4.63223 -0.517083 -1.7081
4.65223 -0.505083 -1.7151
4.63923 -0.489083 -1.7091
4.65322 -0.475083 -1.7141
4.63223 -0.459083 -1.7061
4.64923 -0.445083 -1.7111
4.65422 -0.431083 -1.7131
4.66923 -0.425083 -1.7191
4.65223 -0.409083 -1.7111
4.65123 -0.394083 -1.7111
4.66022 -0.380083 -1.7141
4.65223 -0.365083 -1.7101
4.66423 -0.351083 -1.7141
4.66323 -0.336083 -1.7141
4.66223 -0.329083 -1.7131
4.66122 -0.314083 -1.7121
4.67922 -0.300083 -1.7191
4.67023 -0.285083 -1.7151
4.67723 -0.271083 -1.7171
4.67023 -0.255083 -1.7141
4.66423 -0.240083 -1.7111
4.66622 -0.233083 -1.7121
4.67222 -0.219083 -1.7141
4.67123 -0.204083 -1.7141
4.67723 -0.190083 -1.7161
4.68022 -0.175083 -1.7171
4.68223 -0.160083 -1.7171
4.66823 -0.145083 -1.7111
4.67523 -0.138083 -1.7141
4.68123 -0.123083 -1.7171
4.68722 -0.109083 -1.7191
4.66722 -0.0940833 -1.7111
4.68622 -0.0790833 -1.7181
4.67123 -0.0650833 -1.7121
4.67922 -0.0500833 -1.7151
4.67922 -0.0430833 -1.7151
4.69222 -0.0280833 -1.7201
4.68523 -0.0130833 -1.7171
4.48222 0.883917 -1.7291
2.57123 3.76992 -1.7271
2.55923 3.76492 -1.7231
2.54422 3.76792 -1.7201
2.53422 3.77892 -1.7221
2.51323 3.77292 -1.7151
2.50523 3.78692 -1.7181
2.49923 3.80492 -1.7231
2.48223 3.80492 -1.7191
2.46923 3.81092 -1.7181
2.46423 3.81592 -1.7191
2.44922 3.81892 -1.7171
2.43623 3.82492 -1.7161
2.43123 3.84392 -1.7211
2.41823 3.84992 -1.7201
2.39123 3.85992 -1.7181
2.38523 3.86392 -1.7181
2.37322 3.87192 -1.7181
2.36223 3.88092 -1.7191
2.34722 3.88492 -1.7171
2.34022 3.89992 -1.7211
2.32323 3.89992 -1.7171
2.31023 3.90492 -1.7171
2.30823 3.91692 -1.7201
2.28823 3.90992 -1.7141
2.27623 3.91892 -1.7141
2.26723 3.92992 -1.7171
2.24522 3.92192 -1.7091
2.23723 3.93692 -1.7131
2.22522 3.94392 -1.7131
2.21823 3.94492 -1.7121
2.21023 3.96092 -1.7161
2.19423 3.96092 -1.7131
2.18323 3.97092 -1.7141
2.16723 3.97092 -1.7111
2.15622 3.97992 -1.7121
2.14223 3.98492 -1.7111
2.13523 4.00092 -1.7161
2.12523 3.99792 -1.7131
2.11623 4.01092 -1.7161
2.10022 4.01192 -1.7131
2.08923 4.02092 -1.7141
2.07623 4.02592 -1.7141
2.06523 4.03792 -1.7161
2.04923 4.03792 -1.7131
2.04122 4.03792 -1.7111
2.02923 4.04392 -1.7111
2.01723 4.05192 -1.7121
2.00223 4.05492 -1.7111
1.99222 4.06592 -1.7131
1.97922 4.07192 -1.7131
1.96522 4.07492 -1.7111
1.95922 4.07992 -1.7121
1.94523 4.08292 -1.7111
1.93522 4.09592 -1.7141
1.92222 4.09992 -1.7131
1.90722 4.10292 -1.7111
1.89922 4.11892 -1.7161
1.88422 4.12092 -1.7141
1.87622 4.11892 -1.7121
1.86122 4.12192 -1.7111
1.85122 4.13392 -1.7141
1.83922 4.14192 -1.7141
1.82522 4.14592 -1.7141
1.81422 4.15692 -1.7161
1.80022 4.15892 -1.7141
1.79022 4.17292 -1.7181
1.78322 4.17392 -1.7171
1.76622 4.16992 -1.7131
1.75522 4.17992 -1.7151
1.73922 4.18092 -1.7131
1.72622 4.18592 -1.7131
1.71722 4.20192 -1.7171
1.70222 4.20192 -1.7151
1.69523 4.20292 -1.7141
1.68522 4.21692 -1.7181
1.66723 4.20992 -1.7131
1.65622 4.21992 -1.7151
1.64522 4.23192 -1.7181
1.62922 4.23092 -1.7151
1.61722 4.23692 -1.7161
1.61322 4.24892 -1.7201
1.59722 4.24692 -1.7171
1.58422 4.25192 -1.7171
1.57322 4.26392 -1.7201
1.55622 4.25992 -1.7161
1.54622 4.27292 -1.7201
1.53522 4.28492 -1.7231
1.52222 4.26992 -1.7151
1.51122 4.28192 -1.7181
1.50022 4.29392 -1.7211
1.48622 4.29692 -1.7201
1.47022 4.29392 -1.7171
1.45922 4.30392 -1.7201
1.44422 4.30492 -1.7181
1.42822 4.30292 -1.7151
1.42722 4.32092 -1.7221
1.40822 4.31092 -1.7161
1.39423 4.31392 -1.7151
1.38422 4.32892 -1.7201
1.36722 4.32092 -1.7141
1.35422 4.32692 -1.7151
1.34222 4.33792 -1.7181
1.33322 4.33292 -1.7151
1.31822 4.33392 -1.7141
1.30922 4.34992 -1.7191
1.29223 4.34392 -1.7141
1.27922 4.34892 -1.7151
1.26822 4.36392 -1.7201
1.25122 4.35692 -1.7151
1.24622 4.36492 -1.7171
1.23322 4.36992 -1.7181
1.21622 4.36492 -1.7141
1.20222 4.36692 -1.7141
1.19023 4.37792 -1.7171
1.17522 4.37692 -1.7141
1.16122 4.37792 -1.7141
1.15722 4.39092 -1.7181
1.14122 4.38592 -1.7141
1.12722 4.38892 -1.7141
1.11422 4.39492 -1.7151
1.10122 4.40192 -1.7171
1.08422 4.39192 -1.7111
1.07322 4.40692 -1.7161
1.05622 4.39692 -1.7111
1.05022 4.40292 -1.7121
1.02522 4.41992 -1.7171
1.00922 4.41792 -1.7141
0.995225 4.41892 -1.7141
0.980225 4.41492 -1.7111
0.965225 4.41392 -1.7091
0.958225 4.41592 -1.7091
0.944225 4.41692 -1.7081
0.931225 4.42592 -1.7111
0.918225 4.43392 -1.7131
0.906225 4.44392 -1.7161
0.891225 4.44292 -1.7141
0.875225 4.43692 -1.7111
0.868225 4.43592 -1.7101
0.854225 4.43892 -1.7101
0.841225 4.44692 -1.7121
0.826225 4.44592 -1.7111
0.814225 4.45592 -1.7141
0.801225 4.46192 -1.7151
0.786225 4.45892 -1.7131
0.779225 4.46092 -1.7131
0.765225 4.46692 -1.7141
0.751225 4.46692 -1.7141
0.736225 4.46192 -1.7111
0.722225 4.46592 -1.7111
0.707225 4.46692 -1.7111
0.694225 4.47092 -1.7111
0.680225 4.47492 -1.7121
0.674225 4.48292 -1.7151
0.660225 4.48492 -1.7151
0.645225 4.48392 -1.7141
0.631225 4.48392 -1.7131
0.617225 4.48892 -1.7141
0.588225 4.48392 -1.7111
0.582225 4.48992 -1.7131
0.568225 4.49592 -1.7141
4.09623 -1.88108 -1.7051
4.40922 -1.09508 -1.7191
4.41923 -1.05408 -1.7191
4.42222 -1.04008 -1.7191
4.42123 -1.01008 -1.7161
4.44823 -0.921083 -1.7191
4.45423 -0.901083 -1.7201
2.33823 3.78392 -1.7271
2.29023 3.81192 -1.7261
2.27923 3.80792 -1.7221
2.27023 3.81992 -1.7241
2.25723 3.82492 -1.7241
2.24522 3.83192 -1.7241
2.23522 3.84392 -1.7261
2.20723 3.82192 -1.7121
2.20923 3.85292 -1.7241
2.20423 3.85992 -1.7251
2.19023 3.86292 -1.7241
2.17222 3.85892 -1.7181
2.16523 3.87592 -1.7231
2.15523 3.88592 -1.7241
2.14322 3.89192 -1.7241
2.12923 3.89692 -1.7241
2.10823 3.90292 -1.7211
2.09923 3.91392 -1.7241
2.07023 3.91892 -1.7201
2.06422 3.93892 -1.7261
2.04323 3.92892 -1.7181
2.03122 3.93492 -1.7181
2.01822 3.95592 -1.7241
2.00323 3.95692 -1.7211
1.98922 3.95992 -1.7201
1.97422 3.95992 -1.7171
1.96422 3.97292 -1.7201
1.95022 3.97592 -1.7181
1.94222 3.97492 -1.7171
1.92922 3.97992 -1.7161
1.92122 3.99592 -1.7211
1.90122 3.98492 -1.7131
1.89423 4.00292 -1.7181
1.88122 4.00892 -1.7181
1.87322 4.02492 -1.7231
1.86322 4.01892 -1.7191
1.84522 4.01292 -1.7141
1.83522 4.02392 -1.7161
1.82822 4.04292 -1.7221
1.81022 4.03692 -1.7171
1.79922 4.04592 -1.7181
1.78922 4.05692 -1.7211
1.78622 4.06792 -1.7241
1.77022 4.06692 -1.7211
1.75622 4.06892 -1.7201
1.74123 4.06992 -1.7171
1.72822 4.07492 -1.7171
1.71122 4.06992 -1.7131
1.70722 4.09592 -1.7221
1.69023 4.09292 -1.7181
1.68822 4.10592 -1.7231
1.67022 4.09692 -1.7171
1.66222 4.11492 -1.7221
1.64922 4.11992 -1.7221
1.62122 4.12492 -1.7201
1.61022 4.13492 -1.7221
1.59922 4.12692 -1.7171
1.54722 4.14492 -1.7171
1.50422 4.17092 -1.7211
1.47922 4.18192 -1.7211
1.43822 4.19392 -1.7211
1.43122 4.19392 -1.7201
1.36623 4.21992 -1.7211
1.35322 4.22392 -1.7211
1.29223 4.23892 -1.7201
1.27722 4.23792 -1.7171
1.25222 4.24992 -1.7191
1.23222 4.25492 -1.7191
1.21622 4.25192 -1.7161
1.20322 4.25792 -1.7171
1.19122 4.26692 -1.7191
1.17522 4.25992 -1.7141
1.16422 4.27192 -1.7181
1.15722 4.27292 -1.7171
1.14222 4.27092 -1.7151
1.13122 4.28092 -1.7181
1.05422 4.28992 -1.7141
1.01622 4.30992 -1.7181
0.989225 4.31592 -1.7181
0.973225 4.30892 -1.7141
0.955225 4.32392 -1.7181
0.940225 4.31992 -1.7151
0.928225 4.32992 -1.7181
0.912225 4.32192 -1.7141
0.900225 4.33192 -1.7171
0.865225 4.33692 -1.7161
0.852225 4.34392 -1.7171
0.824225 4.34192 -1.7141
0.659225 4.36792 -1.7141
0.584225 4.38192 -1.7151
3.97323 -1.85708 -1.7011
4.22223 -1.31608 -1.7161
4.15922 1.31392 -1.7281
2.09823 3.81492 -1.7251
1.95522 3.87992 -1.7211
1.93822 3.89292 -1.7231
1.92722 3.89992 -1.7241
1.90022 3.90692 -1.7211
1.89022 3.91792 -1.7241
1.85222 3.93392 -1.7231
1.82622 3.92592 -1.7151
1.82222 3.94992 -1.7241
1.79223 3.95192 -1.7191
1.77722 3.95092 -1.7161
1.76923 3.96592 -1.7201
1.76022 3.96192 -1.7171
1.74422 3.95892 -1.7131
1.73822 3.97992 -1.7201
1.72622 3.98692 -1.7211
1.70822 3.98092 -1.7161
1.69523 3.98392 -1.7151
1.68722 3.99992 -1.7201
1.67422 3.98492 -1.7121
1.66723 4.00392 -1.7181
1.65322 4.00792 -1.7171
1.63522 3.99792 -1.7101
1.63022 4.02292 -1.7201
1.60422 4.03192 -1.7191
1.59822 4.03392 -1.7191
1.58622 4.04092 -1.7201
1.57322 4.04592 -1.7201
1.56122 4.05092 -1.7201
1.53622 4.06192 -1.7201
1.52422 4.06992 -1.7221
1.50122 4.06592 -1.7171
1.49222 4.08092 -1.7211
1.46422 4.08492 -1.7191
1.45222 4.09092 -1.7201
1.42722 4.10392 -1.7211
1.42022 4.10192 -1.7201
1.40622 4.10292 -1.7181
1.39522 4.11292 -1.7201
1.37922 4.10992 -1.7171
1.36822 4.11992 -1.7201
1.32322 4.13592 -1.7201
1.28422 4.14892 -1.7201
1.27122 4.15292 -1.7201
1.25622 4.14992 -1.7171
1.22122 4.15092 -1.7131
1.21122 4.16492 -1.7181
1.19822 4.16992 -1.7191
1.18522 4.17392 -1.7191
1.15922 4.18192 -1.7191
1.15222 4.18192 -1.7181
1.12522 4.18892 -1.7181
1.11222 4.19092 -1.7171
1.08522 4.19392 -1.7161
1.07222 4.20092 -1.7171
1.06523 4.20092 -1.7171
1.05322 4.20792 -1.7181
1.03822 4.20392 -1.7151
1.02622 4.21192 -1.7171
1.01122 4.20992 -1.7151
1.00022 4.21892 -1.7171
0.966225 4.22292 -1.7161
0.953225 4.22892 -1.7171
0.939225 4.23092 -1.7171
0.922225 4.21592 -1.7091
0.913225 4.23592 -1.7171
0.899225 4.23592 -1.7151
0.878225 4.23592 -1.7131
0.852225 4.24692 -1.7161
0.839225 4.24992 -1.7161
0.812225 4.25092 -1.7141
0.798225 4.25192 -1.7131
0.778225 4.25592 -1.7131
0.589225 4.28192 -1.7121
3.86823 -1.85808 -1.6991
3.88923 -1.85308 -1.7061
4.10423 -1.35608 -1.7121
4.12223 -1.31908 -1.7141
4.12822 -1.30608 -1.7151
4.12923 -1.29208 -1.7131
4.13322 -1.28608 -1.7141
4.14622 -1.24808 -1.7151
4.15322 -1.20008 -1.7121
4.15823 -1.18708 -1.7131
1.59122 3.93692 -1.7211
1.58022 3.92692 -1.7151
1.56822 3.93392 -1.7161
1.55622 3.93892 -1.7161
1.53222 3.94992 -1.7171
1.52222 3.96192 -1.7201
1.50622 3.95592 -1.7151
1.48522 3.95792 -1.7131
1.47822 3.97692 -1.7191
1.45822 3.96192 -1.7101
1.43822 3.98392 -1.7161
1.41122 3.98692 -1.7141
1.40822 3.99992 -1.7181
1.39222 3.99192 -1.7131
1.38122 4.00292 -1.7161
1.36822 4.00592 -1.7151
1.35522 4.00892 -1.7141
1.34122 4.00892 -1.7131
1.32622 4.02592 -1.7181
1.29922 4.02892 -1.7151
1.26122 4.04092 -1.7151
1.24222 4.04692 -1.7151
1.23122 4.05792 -1.7181
1.20422 4.05992 -1.7161
1.16622 4.07292 -1.7171
1.12122 4.08592 -1.7171
1.06922 4.09792 -1.7161
1.06322 4.09792 -1.7151
1.05022 4.10092 -1.7151
1.03522 4.09892 -1.7131
0.997225 4.10992 -1.7141
0.979225 4.12192 -1.7171
0.953225 4.12592 -1.7161
0.941225 4.13092 -1.7171
0.901225 4.13592 -1.7151
0.881225 4.13992 -1.7151
0.841225 4.14292 -1.7131
0.829225 4.14892 -1.7141
0.784225 4.15992 -1.7151
0.730225 4.16392 -1.7131
0.684225 4.16792 -1.7111
0.659225 4.17792 -1.7141
0.625225 4.17892 -1.7121
0.612225 4.17992 -1.7111
0.585225 4.17992 -1.7101
0.539225 4.18192 -1.7081
0.512225 4.17992 -1.7061
0.500225 4.19292 -1.7101
0.474225 4.20092 -1.7131
0.459225 4.18792 -1.7061
0.440225 4.19692 -1.7101
0.427225 4.19692 -1.7091
3.37223 -2.47108 -1.6921
3.51723 -2.25208 -1.6911
3.94723 -1.49508 -1.7101
3.97822 -1.42208 -1.7111
3.97023 -1.39808 -1.7051
3.98423 -1.37508 -1.7071
4.00222 -1.35308 -1.7111
4.00423 -1.34008 -1.7101
4.01123 -1.33508 -1.7131
4.01023 -1.32108 -1.7101
4.00822 -1.29208 -1.7061
4.02623 -1.28408 -1.7121
4.02023 -1.26808 -1.7071
4.03123 -1.25808 -1.7101
4.03123 -1.25108 -1.7101
4.03622 -1.23908 -1.7101
4.04122 -1.21208 -1.7091
4.05323 -1.20208 -1.7131
3.34923 -2.25508 -1.6861
3.61623 -1.83708 -1.6941
3.63723 -1.83408 -1.7011
2.74923 -2.80608 -1.6811
2.75122 -2.79908 -1.6801
2.77323 -2.78508 -1.6821
2.78122 -2.77708 -1.6821
2.78823 -2.76508 -1.6811
2.79422 -2.75408 -1.6791
2.81123 -2.75408 -1.6851
2.81722 -2.75108 -1.6861
2.82722 -2.74308 -1.6861
2.83223 -2.73108 -1.6841
2.83523 -2.71708 -1.6811
2.85123 -2.71508 -1.6861
2.86523 -2.71108 -1.6891
2.86823 -2.69708 -1.6861
2.87523 -2.69508 -1.6871
2.89023 -2.69208 -1.6911
2.89423 -2.67808 -1.6881
2.91523 -2.68108 -1.6961
2.91223 -2.66108 -1.6891
2.92423 -2.65608 -1.6911
2.93222 -2.64708 -1.6911
